# .PCD v.7 - Point Cloud Data file format
FIELDS x y z rgb imX imY
SIZE 4 4 4 4 4 4
TYPE F F F F F F
COUNT 1 1 1 1 1 1
WIDTH 857
HEIGHT 1
VIEWPOINT 0 0 0 1 0 0 0
POINTS 857
DATA ascii
0.012276839 0.778 0.034102332 8.9525259e-39 329 215
0.013605867 0.77600002 0.034014668 8.9525259e-39 330 215
0.014966453 0.77600002 0.034014668 8.8603317e-39 331 215
0.01632704 0.77600002 0.034014668 8.9518085e-39 332 215
0.017687626 0.77600002 0.034014668 9.1358382e-39 333 215
0.018999118 0.77399999 0.033927001 9.3205854e-39 334 215
0.020356199 0.77399999 0.033927001 9.4127796e-39 335 215
0.021713279 0.77399999 0.033927001 9.9630751e-39 336 215
0.02307036 0.77399999 0.033927001 1.0147822e-38 337 215
0.02442744 0.77399999 0.033927001 1.0605931e-38 338 215
0.025784519 0.77399999 0.033927001 1.0421899e-38 339 215
0.027141599 0.77399999 0.033927001 1.0604528e-38 340 215
0.028498679 0.77399999 0.033927001 1.0327941e-38 341 215
0.029855758 0.77399999 0.033927001 1.0326534e-38 342 215
0.03117251 0.773 0.033883166 1.041909e-38 343 215
0.032527838 0.773 0.033883166 9.5915054e-39 344 215
0.033883166 0.773 0.033883166 9.4074743e-39 345 215
-0.0191464 0.77999997 0.032822397 1.3373719e-38 306 216
-0.017733213 0.778 0.032738242 1.2267372e-38 307 216
-0.016369121 0.778 0.032738242 1.1256419e-38 308 216
-0.015062887 0.78100002 0.032864477 1.1072028e-38 309 216
-0.013693534 0.78100002 0.032864477 1.0887952e-38 310 216
-0.01232418 0.78100002 0.032864477 1.0058191e-38 311 216
-0.010954826 0.78100002 0.032864477 9.7797671e-39 312 216
-0.0095854728 0.78100002 0.032864477 9.5953758e-39 313 216
-0.0082055992 0.77999997 0.032822397 9.8730333e-39 314 216
-0.0068379994 0.77999997 0.032822397 1.0241451e-38 315 216
-0.0054774131 0.78100002 0.032864477 1.0609152e-38 316 216
-0.0041080597 0.78100002 0.032864477 1.0424405e-38 317 216
-0.0027387065 0.78100002 0.032864477 1.0422611e-38 318 216
-0.0013675999 0.77999997 0.032822397 9.9612815e-39 319 216
0 0.77999997 0.032822397 1.0237149e-38 320 216
0.0013675999 0.77999997 0.032822397 1.0421899e-38 321 216
0.0027351999 0.77999997 0.032822397 1.0238224e-38 322 216
0.0041027996 0.77999997 0.032822397 1.0238224e-38 323 216
0.0054703997 0.77999997 0.032822397 9.4124209e-39 324 216
0.0068379994 0.77999997 0.032822397 9.4124209e-39 325 216
0.0081845606 0.778 0.032738242 9.2291086e-39 326 216
0.0095486529 0.778 0.032738242 9.1369144e-39 327 216
0.010912746 0.778 0.032738242 9.1369144e-39 328 216
0.012276839 0.778 0.032738242 9.0447202e-39 329 216
0.013605867 0.77600002 0.032654081 9.0450789e-39 330 216
0.014966453 0.77600002 0.032654081 9.1372731e-39 331 216
0.01632704 0.77600002 0.032654081 9.2283912e-39 332 216
0.01764204 0.77399999 0.032569919 9.4127796e-39 333 216
0.018999118 0.77399999 0.032569919 9.7808391e-39 334 216
0.020356199 0.77399999 0.032569919 9.6886448e-39 335 216
0.021713279 0.77399999 0.032569919 1.023894e-38 336 216
0.02307036 0.77399999 0.032569919 1.023894e-38 337 216
0.024395877 0.773 0.032527838 1.03297e-38 338 216
0.025751207 0.773 0.032527838 1.0237505e-38 339 216
0.027106533 0.773 0.032527838 1.0419764e-38 340 216
0.028461859 0.773 0.032527838 1.0327568e-38 341 216
0.029817186 0.773 0.032527838 1.0142493e-38 342 216
0.03117251 0.773 0.032527838 1.0050298e-38 343 216
0.032527838 0.773 0.032527838 9.866635e-39 344 216
0.033927001 0.77399999 0.032569919 9.3134612e-39 345 216
-0.021825492 0.778 0.031374145 1.5951621e-38 304 217
-0.020513998 0.77999997 0.031454798 1.4568685e-38 305 217
-0.0191464 0.77999997 0.031454798 1.1900366e-38 306 217
-0.017778799 0.77999997 0.031454798 1.1531582e-38 307 217
-0.016411198 0.77999997 0.031454798 1.1348226e-38 308 217
-0.015062887 0.78100002 0.031495128 1.0887248e-38 309 217
-0.013675999 0.77999997 0.031454798 1.0793941e-38 310 217
-0.012308398 0.77999997 0.031454798 1.0148572e-38 311 217
-0.010940799 0.77999997 0.031454798 1.0147464e-38 312 217
-0.0095731998 0.77999997 0.031454798 1.0054911e-38 313 217
-0.0081845606 0.778 0.031374145 1.0240734e-38 314 217
-0.0068204664 0.778 0.031374145 1.0425481e-38 315 217
-0.0054703997 0.77999997 0.031454798 1.0608076e-38 316 217
-0.0041027996 0.77999997 0.031454798 1.0331493e-38 317 217
-0.0027351999 0.77999997 0.031454798 9.9619989e-39 318 217
-0.0013675999 0.77999997 0.031454798 9.7776105e-39 319 217
0 0.77999997 0.031454798 9.5935976e-39 320 217
0.0013675999 0.77999997 0.031454798 9.6857932e-39 321 217
0.0027351999 0.77999997 0.031454798 9.5946668e-39 322 217
0.0041027996 0.77999997 0.031454798 9.4106356e-39 323 217
0.0054703997 0.77999997 0.031454798 9.0450789e-39 324 217
0.0068379994 0.77999997 0.031454798 9.0450789e-39 325 217
0.0081845606 0.778 0.031374145 8.6780957e-39 326 217
0.0095486529 0.778 0.031374145 8.6780957e-39 327 217
0.010912746 0.778 0.031374145 8.8617666e-39 328 217
0.012276839 0.778 0.031374145 8.9539609e-39 329 217
0.013605867 0.77600002 0.031293493 9.2294674e-39 330 217
0.014927879 0.77399999 0.031212838 9.4134971e-39 331 217
0.016284959 0.77399999 0.031212838 9.50605e-39 332 217
0.01764204 0.77399999 0.031212838 9.5982443e-39 333 217
0.018974574 0.773 0.03117251 1.0148899e-38 334 217
0.0203299 0.773 0.03117251 9.9645101e-39 335 217
0.021685226 0.773 0.03117251 1.0238582e-38 336 217
0.023040552 0.773 0.03117251 1.0330776e-38 337 217
0.024395877 0.773 0.03117251 1.06974e-38 338 217
0.02568458 0.77100003 0.031091858 1.0421176e-38 339 217
0.027036399 0.77100003 0.031091858 1.0602695e-38 340 217
0.028388219 0.77100003 0.031091858 1.0510501e-38 341 217
0.029740039 0.77100003 0.031091858 1.0141396e-38 342 217
0.03117251 0.773 0.03117251 1.0141396e-38 343 217
0.032527838 0.773 0.03117251 1.0048851e-38 344 217
0.033883166 0.773 0.03117251 9.5878747e-39 345 217
0.03528408 0.77399999 0.031212838 7.7475802e-39 346 217
-0.023189586 0.778 0.03001005 1.6871432e-38 303 218
-0.021825492 0.778 0.03001005 1.3926174e-38 304 218
-0.020513998 0.77999997 0.030087199 1.2266293e-38 305 218
-0.0191464 0.77999997 0.030087199 1.1255353e-38 306 218
-0.017778799 0.77999997 0.030087199 1.1715972e-38 307 218
-0.016411198 0.77999997 0.030087199 1.1625535e-38 308 218
-0.0150436 0.77999997 0.030087199 1.0426993e-38 309 218
-0.013640933 0.778 0.03001005 1.0240389e-38 310 218
-0.012276839 0.778 0.03001005 9.8719655e-39 311 218
-0.010912746 0.778 0.03001005 1.0331135e-38 312 218
-0.0095486529 0.778 0.03001005 1.0331135e-38 313 218
-0.0081845606 0.778 0.03001005 1.0333646e-38 314 218
-0.0068204664 0.778 0.03001005 1.0333646e-38 315 218
-0.0054563731 0.778 0.03001005 1.0789595e-38 316 218
-0.0040817601 0.77600002 0.029932907 1.0421176e-38 317 218
-0.0027211732 0.77600002 0.029932907 9.6850575e-39 318 218
-0.0013675999 0.77999997 0.030087199 9.5003103e-39 319 218
0 0.77999997 0.030087199 9.3166534e-39 320 218
0.0013675999 0.77999997 0.030087199 9.3166534e-39 321 218
0.0027387065 0.78100002 0.030125774 9.225887e-39 322 218
0.0041027996 0.77999997 0.030087199 9.3184428e-39 323 218
0.0054703997 0.77999997 0.030087199 8.5851882e-39 324 218
0.0068379994 0.77999997 0.030087199 8.6777425e-39 325 218
0.0082055992 0.77999997 0.030087199 8.4025976e-39 326 218
0.0095731998 0.77999997 0.030087199 8.4025976e-39 327 218
0.010912746 0.778 0.03001005 8.8628527e-39 328 218
0.01224528 0.77600002 0.029932907 9.2312764e-39 329 218
0.013605867 0.77600002 0.029932907 9.3245315e-39 330 218
0.014927879 0.77399999 0.029855758 9.2323372e-39 331 218
0.016284959 0.77399999 0.029855758 9.6915147e-39 332 218
0.017619247 0.773 0.029817186 9.6915147e-39 333 218
0.018925481 0.77100003 0.029740039 1.0148899e-38 334 218
0.020277301 0.77100003 0.029740039 1.0056704e-38 335 218
0.021629119 0.77100003 0.029740039 1.0239299e-38 336 218
0.02298094 0.77100003 0.029740039 1.0331493e-38 337 218
0.02433276 0.77100003 0.029740039 1.0698835e-38 338 218
0.025617953 0.76899999 0.02966289 1.0421894e-38 339 218
0.026966266 0.76899999 0.02966289 1.0603054e-38 340 218
0.028314579 0.76899999 0.02966289 1.0510501e-38 341 218
0.029740039 0.77100003 0.029740039 1.0049905e-38 342 218
0.031091858 0.77100003 0.029740039 1.0049905e-38 343 218
0.032443684 0.77100003 0.029740039 9.9559313e-39 344 218
0.033883166 0.773 0.029817186 9.8637357e-39 345 218
0.035238493 0.773 0.029817186 9.2194635e-39 346 218
0.036593821 0.773 0.029817186 8.7584867e-39 347 218
-0.024648361 0.78100002 0.028756421 1.687358e-38 302 219
-0.023249198 0.77999997 0.028719598 1.539845e-38 303 219
-0.021881599 0.77999997 0.028719598 1.3003845e-38 304 219
-0.020513998 0.77999997 0.028719598 1.1713106e-38 305 219
-0.0191464 0.77999997 0.028719598 1.2451025e-38 306 219
-0.017778799 0.77999997 0.028719598 1.318859e-38 307 219
-0.016369121 0.778 0.028645959 1.3740663e-38 308 219
-0.015005025 0.778 0.028645959 1.2449924e-38 309 219
-0.013640933 0.778 0.028645959 1.0423711e-38 310 219
-0.01224528 0.77600002 0.028572321 9.5939507e-39 311 219
-0.010884693 0.77600002 0.028572321 1.0146746e-38 312 219
-0.009524107 0.77600002 0.028572321 1.0515882e-38 313 219
-0.0081635201 0.77600002 0.028572321 1.0240375e-38 314 219
-0.0068029333 0.77600002 0.028572321 1.0055628e-38 315 219
-0.0054563731 0.778 0.028645959 1.014567e-38 316 219
-0.0040817601 0.77600002 0.028572321 9.9612815e-39 317 219
-0.0027211732 0.77600002 0.028572321 9.0407769e-39 318 219
-0.0013693533 0.78100002 0.028756421 8.9485813e-39 319 219
0 0.78100002 0.028756421 8.4879913e-39 320 219
0.0013693533 0.78100002 0.028756421 8.6723826e-39 321 219
0.0027387065 0.78100002 0.028756421 8.2139253e-39 322 219
0.0041080597 0.78100002 0.028756421 8.3983166e-39 323 219
0.0054774131 0.78100002 0.028756421 7.9412817e-39 324 219
0.0068379994 0.77999997 0.028719598 8.1260331e-39 325 219
0.0082055992 0.77999997 0.028719598 7.9420006e-39 326 219
0.0095486529 0.778 0.028645959 8.2189476e-39 327 219
0.010912746 0.778 0.028645959 9.0458272e-39 328 219
0.01224528 0.77600002 0.028572321 9.5993611e-39 329 219
0.013570799 0.77399999 0.028498679 9.5092913e-39 330 219
0.014908593 0.773 0.028461859 9.3249e-39 331 219
0.016263919 0.773 0.028461859 9.8751857e-39 332 219
0.01757366 0.77100003 0.028388219 9.7826327e-39 333 219
0.018925481 0.77100003 0.028388219 1.0241093e-38 334 219
0.020277301 0.77100003 0.028388219 1.0148899e-38 335 219
0.021573013 0.76899999 0.028314579 1.0423329e-38 336 219
0.022921326 0.76899999 0.028314579 1.0699553e-38 337 219
0.024269639 0.76899999 0.028314579 1.1802296e-38 338 219
0.025617953 0.76899999 0.028314579 1.1156937e-38 339 219
0.026966266 0.76899999 0.028314579 1.0603771e-38 340 219
0.028314579 0.76899999 0.028314579 1.0327189e-38 341 219
0.02966289 0.76899999 0.028314579 1.0417599e-38 342 219
0.031011207 0.76899999 0.028314579 1.0232849e-38 343 219
0.032443684 0.77100003 0.028388219 1.0048117e-38 344 219
0.033795502 0.77100003 0.028388219 9.9559215e-39 345 219
0.035238493 0.773 0.028461859 9.6793542e-39 346 219
0.036641158 0.77399999 0.028498679 9.3102116e-39 347 219
0.037998237 0.77399999 0.028498679 7.6550469e-39 348 219
-0.026017714 0.78100002 0.027387068 1.7514646e-38 301 220
-0.024648361 0.78100002 0.027387068 1.5949822e-38 302 220
-0.023249198 0.77999997 0.027351998 1.3645291e-38 303 220
-0.021881599 0.77999997 0.027351998 1.3006028e-38 304 220
-0.020513998 0.77999997 0.027351998 1.3743593e-38 305 220
-0.0191464 0.77999997 0.027351998 1.4661604e-38 306 220
-0.017733213 0.778 0.027281865 1.4661604e-38 307 220
-0.016369121 0.778 0.027281865 1.557995e-38 308 220
-0.015005025 0.778 0.027281865 1.4842026e-38 309 220
-0.013605867 0.77600002 0.027211733 1.2082923e-38 310 220
-0.01224528 0.77600002 0.027211733 9.1323041e-39 311 220
-0.010884693 0.77600002 0.027211733 9.5017453e-39 312 220
-0.009524107 0.77600002 0.027211733 1.0239303e-38 313 220
-0.0081635201 0.77600002 0.027211733 1.0147822e-38 314 220
-0.0068029333 0.77600002 0.027211733 9.594657e-39 315 220
-0.0054563731 0.778 0.027281865 9.1329683e-39 316 220
-0.0040817601 0.77600002 0.027211733 8.7641914e-39 317 220
-0.0027211732 0.77600002 0.027211733 8.7631152e-39 318 220
-0.0013693533 0.78100002 0.027387068 8.5787268e-39 319 220
0 0.78100002 0.027387068 8.3947069e-39 320 220
0.0013693533 0.78100002 0.027387068 8.2103156e-39 321 220
0.0027387065 0.78100002 0.027387068 8.302877e-39 322 220
0.0041080597 0.78100002 0.027387068 8.5794653e-39 323 220
0.0054774131 0.78100002 0.027387068 8.2149973e-39 324 220
0.0068467669 0.78100002 0.027387068 8.3993886e-39 325 220
0.0082055992 0.77999997 0.027351998 8.2171483e-39 326 220
0.0095486529 0.778 0.027281865 8.3093454e-39 327 220
0.010912746 0.778 0.027281865 9.0454769e-39 328 220
0.01224528 0.77600002 0.027211733 9.4146195e-39 329 220
0.013553266 0.773 0.027106533 9.5982849e-39 330 220
0.014908593 0.773 0.027106533 9.5982849e-39 331 220
0.016221842 0.77100003 0.027036399 1.0058143e-38 332 220
0.01757366 0.77100003 0.027036399 9.7819167e-39 333 220
0.018876385 0.76899999 0.026966266 1.0424405e-38 334 220
0.0202247 0.76899999 0.026966266 1.0240375e-38 335 220
0.021573013 0.76899999 0.026966266 1.0699553e-38 336 220
0.022921326 0.76899999 0.026966266 1.0976135e-38 337 220
0.024269639 0.76899999 0.026966266 1.1527507e-38 338 220
0.025617953 0.76899999 0.026966266 1.0789953e-38 339 220
0.026966266 0.76899999 0.026966266 1.0695607e-38 340 220
0.028314579 0.76899999 0.026966266 1.0511218e-38 341 220
0.02966289 0.76899999 0.026966266 1.0142085e-38 342 220
0.031011207 0.76899999 0.026966266 1.0142085e-38 343 220
0.032443684 0.77100003 0.027036399 1.0049189e-38 344 220
0.033795502 0.77100003 0.027036399 9.8644391e-39 345 220
0.035238493 0.773 0.027106533 9.5878719e-39 346 220
0.036641158 0.77399999 0.027141599 9.4034792e-39 347 220
0.037998237 0.77399999 0.027141599 9.2162461e-39 348 220
0.039355319 0.77399999 0.027141599 9.9538112e-39 349 220
-0.026017714 0.78100002 0.026017714 1.6684888e-38 301 221
-0.024616797 0.77999997 0.025984399 1.4660885e-38 302 221
-0.023249198 0.77999997 0.025984399 1.3093199e-38 303 221
-0.021881599 0.77999997 0.025984399 1.3373379e-38 304 221
-0.020513998 0.77999997 0.025984399 1.4295695e-38 305 221
-0.019097306 0.778 0.025917772 1.4107724e-38 306 221
-0.017733213 0.778 0.025917772 1.37393e-38 307 221
-0.01632704 0.77600002 0.025851147 1.4567979e-38 308 221
-0.014966453 0.77600002 0.025851147 1.4107361e-38 309 221
-0.013605867 0.77600002 0.025851147 1.0706488e-38 310 221
-0.01224528 0.77600002 0.025851147 7.4796407e-39 311 221
-0.010884693 0.77600002 0.025851147 9.0436482e-39 312 221
-0.009524107 0.77600002 0.025851147 9.5968206e-39 313 221
-0.0081635201 0.77600002 0.025851147 9.9623577e-39 314 221
-0.0068029333 0.77600002 0.025851147 9.0400567e-39 315 221
-0.0054423464 0.77600002 0.025851147 8.4894024e-39 316 221
-0.0040922803 0.778 0.025917772 8.1206255e-39 317 221
-0.0027281865 0.778 0.025917772 7.9351678e-39 318 221
-0.0013693533 0.78100002 0.026017714 7.6589397e-39 319 221
0 0.78100002 0.026017714 7.2905299e-39 320 221
0.0013693533 0.78100002 0.026017714 7.5667567e-39 321 221
0.0027387065 0.78100002 0.026017714 7.6578831e-39 322 221
0.0041080597 0.78100002 0.026017714 8.0266656e-39 323 221
0.0054774131 0.78100002 0.026017714 7.6611229e-39 324 221
0.0068467669 0.78100002 0.026017714 7.9377112e-39 325 221
0.0082055992 0.77999997 0.025984399 7.3881276e-39 326 221
0.0095486529 0.778 0.025917772 7.6650732e-39 327 221
0.010884693 0.77600002 0.025851147 8.0334998e-39 328 221
0.01221372 0.77399999 0.025784519 8.217891e-39 329 221
0.013518199 0.77100003 0.02568458 8.6784978e-39 330 221
0.01487002 0.77100003 0.02568458 8.7710522e-39 331 221
0.016179759 0.76899999 0.025617953 9.5057011e-39 332 221
0.017528072 0.76899999 0.025617953 9.5057011e-39 333 221
0.018876385 0.76899999 0.025617953 9.9652275e-39 334 221
0.0202247 0.76899999 0.025617953 1.0057422e-38 335 221
0.021516906 0.76700002 0.025551327 1.0975059e-38 336 221
0.022861714 0.76700002 0.025551327 1.1252001e-38 337 221
0.024206521 0.76700002 0.025551327 1.1987043e-38 338 221
0.025551327 0.76700002 0.025551327 1.1064742e-38 339 221
0.026896132 0.76700002 0.025551327 1.0421535e-38 340 221
0.02824094 0.76700002 0.025551327 1.0052758e-38 341 221
0.02966289 0.76899999 0.025617953 1.0510501e-38 342 221
0.031011207 0.76899999 0.025617953 1.0418307e-38 343 221
0.032359518 0.76899999 0.025617953 1.0049184e-38 344 221
0.033795502 0.77100003 0.02568458 9.9569879e-39 345 221
0.03514732 0.77100003 0.02568458 9.6797074e-39 346 221
0.036593821 0.773 0.025751207 9.5875117e-39 347 221
0.037949149 0.773 0.025751207 9.2183943e-39 348 221
0.039304473 0.773 0.025751207 8.9414487e-39 349 221
-0.027527334 0.78500003 0.0247746 1.7148014e-38 300 222
-0.026017714 0.78100002 0.024648361 1.5304102e-38 301 222
-0.024616797 0.77999997 0.024616797 1.3832203e-38 302 222
-0.023249198 0.77999997 0.024616797 1.3186834e-38 303 222
-0.021881599 0.77999997 0.024616797 1.3003897e-38 304 222
-0.020513998 0.77999997 0.024616797 1.2451082e-38 305 222
-0.019097306 0.778 0.024553679 1.1618816e-38 306 222
-0.017687626 0.77600002 0.024490559 1.2079795e-38 307 222
-0.01632704 0.77600002 0.024490559 1.3649257e-38 308 222
-0.014966453 0.77600002 0.024490559 1.3280114e-38 309 222
-0.013605867 0.77600002 0.024490559 9.4196964e-39 310 222
-0.01221372 0.77399999 0.02442744 6.8382188e-39 311 222
-0.01085664 0.77399999 0.02442744 8.85998e-39 312 222
-0.0094995592 0.77399999 0.02442744 9.3209567e-39 313 222
-0.0081424797 0.77399999 0.02442744 9.9616402e-39 314 222
-0.0067853997 0.77399999 0.02442744 8.5787268e-39 315 222
-0.0054423464 0.77600002 0.024490559 8.0284313e-39 316 222
-0.0040817601 0.77600002 0.024490559 7.6596544e-39 317 222
-0.0027281865 0.778 0.024553679 7.4745484e-39 318 222
-0.0013675999 0.77999997 0.024616797 7.29016e-39 319 222
0 0.77999997 0.024616797 7.4723974e-39 320 222
0.0013693533 0.78100002 0.024648361 7.4723974e-39 321 222
0.0027387065 0.78100002 0.024648361 7.747555e-39 322 222
0.0041080597 0.78100002 0.024648361 7.9319463e-39 323 222
0.0054774131 0.78100002 0.024648361 7.5656903e-39 324 222
0.0068467669 0.78100002 0.024648361 7.8419184e-39 325 222
0.0082055992 0.77999997 0.024616797 7.6607572e-39 326 222
0.0095486529 0.778 0.024553679 7.9369839e-39 327 222
0.01085664 0.77399999 0.02442744 8.0313292e-39 328 222
0.012197939 0.773 0.024395877 8.4001117e-39 329 222
0.013483133 0.76899999 0.024269639 8.7696004e-39 330 222
0.014831445 0.76899999 0.024269639 9.0458272e-39 331 222
0.016179759 0.76899999 0.024269639 9.4138586e-39 332 222
0.017482487 0.76700002 0.024206521 9.321663e-39 333 222
0.018827293 0.76700002 0.024206521 9.9655863e-39 334 222
0.020172099 0.76700002 0.024206521 1.005778e-38 335 222
0.021516906 0.76700002 0.024206521 1.1067612e-38 336 222
0.022861714 0.76700002 0.024206521 1.1436389e-38 337 222
0.024206521 0.76700002 0.024206521 1.1986685e-38 338 222
0.025551327 0.76700002 0.024206521 1.1249131e-38 339 222
0.026896132 0.76700002 0.024206521 1.0697042e-38 340 222
0.02824094 0.76700002 0.024206521 1.0420818e-38 341 222
0.029585747 0.76700002 0.024206521 1.0327189e-38 342 222
0.031011207 0.76899999 0.024269639 1.0234994e-38 343 222
0.032359518 0.76899999 0.024269639 9.8658685e-39 344 222
0.033707831 0.76899999 0.024269639 9.6814772e-39 345 222
0.03514732 0.77100003 0.02433276 9.588225e-39 346 222
0.036593821 0.773 0.024395877 9.4960294e-39 347 222
0.037949149 0.773 0.024395877 9.5864524e-39 348 222
0.039304473 0.773 0.024395877 9.0332786e-39 349 222
0.0406598 0.773 0.024395877 7.7490572e-39 350 222
-0.027457198 0.78299999 0.02333862 1.6045617e-38 300 223
-0.026017714 0.78100002 0.023279008 1.4017313e-38 301 223
-0.024616797 0.77999997 0.023249198 1.3465581e-38 302 223
-0.023249198 0.77999997 0.023249198 1.2912408e-38 303 223
-0.021881599 0.77999997 0.023249198 1.2175587e-38 304 223
-0.020461399 0.778 0.023189586 1.1438022e-38 305 223
-0.019048214 0.77600002 0.023129974 1.0977043e-38 306 223
-0.017687626 0.77600002 0.023129974 1.1898641e-38 307 223
-0.01632704 0.77600002 0.023129974 1.4294976e-38 308 223
-0.014966453 0.77600002 0.023129974 1.3280464e-38 309 223
-0.013570799 0.77399999 0.02307036 9.6955574e-39 310 223
-0.01221372 0.77399999 0.02307036 7.575058e-39 311 223
-0.01085664 0.77399999 0.02307036 9.044367e-39 312 223
-0.0094995592 0.77399999 0.02307036 9.1365627e-39 313 223
-0.0081424797 0.77399999 0.02307036 9.5006691e-39 314 223
-0.0067853997 0.77399999 0.02307036 8.6712797e-39 315 223
-0.0054283198 0.77399999 0.02307036 8.0277138e-39 316 223
-0.0040817601 0.77600002 0.023129974 7.6585782e-39 317 223
-0.0027211732 0.77600002 0.023129974 7.013936e-39 318 223
-0.0013675999 0.77999997 0.023249198 6.8295476e-39 319 223
0 0.77999997 0.023249198 7.0114319e-39 320 223
0.0013693533 0.78100002 0.023279008 6.7352051e-39 321 223
0.0027387065 0.78100002 0.023279008 7.2840727e-39 322 223
0.0041080597 0.78100002 0.023279008 7.2840727e-39 323 223
0.0054774131 0.78100002 0.023279008 7.1014821e-39 324 223
0.0068467669 0.78100002 0.023279008 7.2858734e-39 325 223
0.0082055992 0.77999997 0.023249198 7.1057855e-39 326 223
0.0095486529 0.778 0.023189586 7.4742079e-39 327 223
0.01085664 0.77399999 0.02307036 7.6643445e-39 328 223
0.01216638 0.77100003 0.02298094 8.3097139e-39 329 223
0.013483133 0.76899999 0.022921326 8.4948086e-39 330 223
0.014792874 0.76700002 0.022861714 8.5870042e-39 331 223
0.01613768 0.76700002 0.022861714 9.4127796e-39 332 223
0.017482487 0.76700002 0.022861714 9.4127796e-39 333 223
0.018827293 0.76700002 0.022861714 1.0056704e-38 334 223
0.020172099 0.76700002 0.022861714 1.0333287e-38 335 223
0.021516906 0.76700002 0.022861714 1.1252001e-38 336 223
0.022831906 0.76599997 0.022831906 1.1620778e-38 337 223
0.024174958 0.76599997 0.022831906 1.1710102e-38 338 223
0.025551327 0.76700002 0.022861714 1.1341684e-38 339 223
0.026896132 0.76700002 0.022861714 1.0971831e-38 340 223
0.02824094 0.76700002 0.022861714 1.0695607e-38 341 223
0.029585747 0.76700002 0.022861714 1.0235712e-38 342 223
0.030930554 0.76700002 0.022861714 1.0143518e-38 343 223
0.032359518 0.76899999 0.022921326 9.7743917e-39 344 223
0.033707831 0.76899999 0.022921326 9.4981649e-39 345 223
0.03514732 0.77100003 0.02298094 9.6804206e-39 346 223
0.036499143 0.77100003 0.02298094 9.4960294e-39 347 223
0.037949149 0.773 0.023040552 9.4953259e-39 348 223
0.039304473 0.773 0.023040552 9.0343478e-39 349 223
0.0406598 0.773 0.023040552 8.1145873e-39 350 223
-0.028830061 0.78299999 0.021965759 1.7330252e-38 299 224
-0.027387068 0.78100002 0.021909652 1.5951987e-38 300 224
-0.025984399 0.77999997 0.021881599 1.4753802e-38 301 224
-0.024616797 0.77999997 0.021881599 1.3742534e-38 302 224
-0.023189586 0.778 0.021825492 1.2728742e-38 303 224
-0.021825492 0.778 0.021825492 1.2175587e-38 304 224
-0.020461399 0.778 0.021825492 1.1622413e-38 305 224
-0.019048214 0.77600002 0.021769386 1.1712445e-38 306 224
-0.017687626 0.77600002 0.021769386 1.2726237e-38 307 224
-0.016284959 0.77399999 0.021713279 1.4480084e-38 308 224
-0.014927879 0.77399999 0.021713279 1.2912758e-38 309 224
-0.013570799 0.77399999 0.021713279 9.3282169e-39 310 224
-0.01221372 0.77399999 0.021713279 7.57686e-39 311 224
-0.01085664 0.77399999 0.021713279 8.8588996e-39 312 224
-0.0094995592 0.77399999 0.021713279 9.043651e-39 313 224
-0.0081319595 0.773 0.021685226 9.5006691e-39 314 224
-0.0067766332 0.773 0.021685226 8.9478624e-39 315 224
-0.0054283198 0.77399999 0.021713279 8.578368e-39 316 224
-0.0040712398 0.77399999 0.021713279 7.9330084e-39 317 224
-0.0027141599 0.77399999 0.021713279 7.2894425e-39 318 224
-0.0013605866 0.77600002 0.021769386 7.1050541e-39 319 224
0 0.77999997 0.021881599 7.1025429e-39 320 224
0.0013693533 0.78100002 0.021909652 6.7341247e-39 321 224
0.0027387065 0.78100002 0.021909652 7.1893562e-39 322 224
0.0041080597 0.78100002 0.021909652 7.1893562e-39 323 224
0.0054774131 0.78100002 0.021909652 6.6387019e-39 324 224
0.0068467669 0.78100002 0.021909652 6.7312549e-39 325 224
0.0082055992 0.77999997 0.021881599 6.5522474e-39 326 224
0.0095731998 0.77999997 0.021881599 7.197607e-39 327 224
0.010842613 0.773 0.021685226 7.6639732e-39 328 224
0.012134819 0.76899999 0.021573013 8.6781237e-39 329 224
0.013448066 0.76700002 0.021516906 8.7696004e-39 330 224
0.014792874 0.76700002 0.021516906 8.5852092e-39 331 224
0.01613768 0.76700002 0.021516906 9.1361969e-39 332 224
0.017482487 0.76700002 0.021516906 9.1361969e-39 333 224
0.018802745 0.76599997 0.021488851 1.0055628e-38 334 224
0.020145798 0.76599997 0.021488851 1.0608435e-38 335 224
0.021488851 0.76599997 0.021488851 1.1620062e-38 336 224
0.022831906 0.76599997 0.021488851 1.1620062e-38 337 224
0.024174958 0.76599997 0.021488851 1.1616832e-38 338 224
0.025518013 0.76599997 0.021488851 1.1340249e-38 339 224
0.026896132 0.76700002 0.021516906 1.0695965e-38 340 224
0.02824094 0.76700002 0.021516906 1.0603771e-38 341 224
0.029585747 0.76700002 0.021516906 1.0051686e-38 342 224
0.030930554 0.76700002 0.021516906 9.9594892e-39 343 224
0.03227536 0.76700002 0.021516906 9.5907263e-39 344 224
0.033707831 0.76899999 0.021573013 9.4063351e-39 345 224
0.035056144 0.76899999 0.021573013 9.588225e-39 346 224
0.036404461 0.76899999 0.021573013 9.4960294e-39 347 224
0.037850961 0.77100003 0.021629119 9.2194481e-39 348 224
0.039304473 0.773 0.021685226 9.1272524e-39 349 224
0.0406598 0.773 0.021685226 8.5741137e-39 350 224
0.042015124 0.773 0.021685226 1.0786809e-38 351 224
-0.028756421 0.78100002 0.020540299 1.6778516e-38 299 225
-0.027351998 0.77999997 0.020513998 1.5951989e-38 300 225
-0.025984399 0.77999997 0.020513998 1.5583207e-38 301 225
-0.024616797 0.77999997 0.020513998 1.4200641e-38 302 225
-0.023189586 0.778 0.020461399 1.3186849e-38 303 225
-0.021825492 0.778 0.020461399 1.3741112e-38 304 225
-0.0204088 0.77600002 0.0204088 1.3648916e-38 305 225
-0.018999118 0.77399999 0.020356199 1.3186849e-38 306 225
-0.01764204 0.77399999 0.020356199 1.3555272e-38 307 225
-0.016284959 0.77399999 0.020356199 1.3561348e-38 308 225
-0.014908593 0.773 0.0203299 1.1349013e-38 309 225
-0.013553266 0.773 0.0203299 6.6613511e-39 310 225
-0.012197939 0.773 0.0203299 5.8312317e-39 311 225
-0.010842613 0.773 0.0203299 8.4011542e-39 312 225
-0.0094872871 0.773 0.0203299 8.4933485e-39 313 225
-0.0081109209 0.77100003 0.020277301 9.2251626e-39 314 225
-0.0067590997 0.77100003 0.020277301 8.8567444e-39 315 225
-0.0054072798 0.77100003 0.020277301 8.4886849e-39 316 225
-0.0040554604 0.77100003 0.020277301 7.9355196e-39 317 225
-0.0027036399 0.77100003 0.020277301 7.2926711e-39 318 225
-0.0013553266 0.773 0.0203299 6.9242529e-39 319 225
0 0.77399999 0.020356199 7.5627966e-39 320 225
0.0013605866 0.77600002 0.0204088 6.917437e-39 321 225
0.0027387065 0.78100002 0.020540299 6.4564659e-39 322 225
0.0041080597 0.78100002 0.020540299 6.3639129e-39 323 225
0.0054774131 0.78100002 0.020540299 5.9987233e-39 324 225
0.0068467669 0.78100002 0.020540299 6.367859e-39 325 225
0.0081424797 0.77399999 0.020356199 6.5569109e-39 326 225
0.0094381925 0.76899999 0.0202247 6.9260466e-39 327 225
0.010786506 0.76899999 0.0202247 7.6646794e-39 328 225
0.01210326 0.76700002 0.020172099 8.1256562e-39 329 225
0.013448066 0.76700002 0.020172099 8.5841106e-39 330 225
0.014773586 0.76599997 0.020145798 8.5841106e-39 331 225
0.016116638 0.76599997 0.020145798 9.134762e-39 332 225
0.017459691 0.76599997 0.020145798 9.3191505e-39 333 225
0.018753653 0.764 0.020093199 1.014567e-38 334 225
0.020093199 0.764 0.020093199 1.0975777e-38 335 225
0.021432746 0.764 0.020093199 1.207925e-38 336 225
0.022772292 0.764 0.020093199 1.1987055e-38 337 225
0.024111839 0.764 0.020093199 1.1523923e-38 338 225
0.025451386 0.764 0.020093199 1.1063307e-38 339 225
0.026861066 0.76599997 0.020145798 1.0602695e-38 340 225
0.028204117 0.76599997 0.020145798 1.0510501e-38 341 225
0.029585747 0.76700002 0.020172099 9.9591361e-39 342 225
0.030930554 0.76700002 0.020172099 9.8669405e-39 343 225
0.03227536 0.76700002 0.020172099 9.4981776e-39 344 225
0.033707831 0.76899999 0.0202247 9.3137863e-39 345 225
0.035056144 0.76899999 0.0202247 9.4049155e-39 346 225
0.036404461 0.76899999 0.0202247 9.2201641e-39 347 225
0.037850961 0.77100003 0.020277301 9.3105675e-39 348 225
0.03920278 0.77100003 0.020277301 9.033982e-39 349 225
0.0406598 0.773 0.0203299 8.7570602e-39 350 225
0.042015124 0.773 0.0203299 1.0047799e-38 351 225
-0.030125774 0.78100002 0.019170946 1.7423154e-38 298 226
-0.028756421 0.78100002 0.019170946 1.686998e-38 299 226
-0.027351998 0.77999997 0.0191464 1.5675761e-38 300 226
-0.025984399 0.77999997 0.0191464 1.4937837e-38 301 226
-0.024553679 0.778 0.019097306 1.401518e-38 302 226
-0.023129974 0.77600002 0.019048214 1.3462007e-38 303 226
-0.021769386 0.77600002 0.019048214 1.4018778e-38 304 226
-0.0204088 0.77600002 0.019048214 1.4295004e-38 305 226
-0.018999118 0.77399999 0.018999118 1.4200275e-38 306 226
-0.01764204 0.77399999 0.018999118 1.4292471e-38 307 226
-0.016263919 0.773 0.018974574 1.3102146e-38 308 226
-0.01487002 0.77100003 0.018925481 1.0152245e-38 309 226
-0.013518199 0.77100003 0.018925481 5.4645792e-39 310 226
-0.01216638 0.77100003 0.018925481 5.8333603e-39 311 226
-0.01081456 0.77100003 0.018925481 8.4947834e-39 312 226
-0.0094627403 0.77100003 0.018925481 8.4947834e-39 313 226
-0.0080898795 0.76899999 0.018876385 9.5024627e-39 314 226
-0.0067415666 0.76899999 0.018876385 9.3177155e-39 315 226
-0.0053932532 0.76899999 0.018876385 9.0418503e-39 316 226
-0.0040449398 0.76899999 0.018876385 8.8571031e-39 317 226
-0.0026966266 0.76899999 0.018876385 8.3053727e-39 318 226
-0.0013448066 0.76700002 0.018827293 8.1206255e-39 319 226
0 0.76599997 0.018802745 7.9355196e-39 320 226
0.0013395466 0.764 0.018753653 7.4749072e-39 321 226
0.0026790933 0.764 0.018753653 7.2890838e-39 322 226
0.0041080597 0.78100002 0.019170946 7.381278e-39 323 226
0.0054774131 0.78100002 0.019170946 7.2912432e-39 324 226
0.0068467669 0.78100002 0.019170946 7.6600257e-39 325 226
0.00806884 0.76700002 0.018827293 8.0305893e-39 326 226
0.0094013726 0.76599997 0.018802745 8.0305893e-39 327 226
0.010744425 0.76599997 0.018802745 8.03202e-39 328 226
0.01205592 0.764 0.018753653 8.2160511e-39 329 226
0.013395466 0.764 0.018753653 8.3990018e-39 330 226
0.014735013 0.764 0.018753653 8.3990018e-39 331 226
0.016074561 0.764 0.018753653 8.8592555e-39 332 226
0.017414106 0.764 0.018753653 8.9514497e-39 333 226
0.018753653 0.764 0.018753653 1.0422253e-38 334 226
0.020093199 0.764 0.018753653 1.0975421e-38 335 226
0.021432746 0.764 0.018753653 1.1804108e-38 336 226
0.022772292 0.764 0.018753653 1.1158739e-38 337 226
0.02404872 0.76200002 0.01870456 1.0972552e-38 338 226
0.02538476 0.76200002 0.01870456 1.0695607e-38 339 226
0.026790932 0.764 0.018753653 1.0510862e-38 340 226
0.028130481 0.764 0.018753653 1.0234636e-38 341 226
0.029470026 0.764 0.018753653 9.9591389e-39 342 226
0.030930554 0.76700002 0.018827293 9.8669433e-39 343 226
0.03227536 0.76700002 0.018827293 9.4981776e-39 344 226
0.033620168 0.76700002 0.018827293 9.4059819e-39 345 226
0.035056144 0.76899999 0.018876385 9.3127199e-39 346 226
0.036404461 0.76899999 0.018876385 9.2201641e-39 347 226
0.037850961 0.77100003 0.018925481 9.2176656e-39 348 226
0.03920278 0.77100003 0.018925481 9.2176656e-39 349 226
0.040554602 0.77100003 0.018925481 8.8489027e-39 350 226
0.042015124 0.773 0.018974574 9.218044e-39 351 226
0.043370452 0.773 0.018974574 1.0880116e-38 352 226
-0.030125774 0.78100002 0.017801592 1.6873227e-38 298 227
-0.028756421 0.78100002 0.017801592 1.4568335e-38 299 227
-0.027351998 0.77999997 0.017778799 1.2543275e-38 300 227
-0.025917772 0.778 0.017733213 1.1713514e-38 301 227
-0.024553679 0.778 0.017733213 1.2907035e-38 302 227
-0.023129974 0.77600002 0.017687626 1.2999231e-38 303 227
-0.021769386 0.77600002 0.017687626 1.3466688e-38 304 227
-0.020356199 0.77399999 0.01764204 1.3835831e-38 305 227
-0.018974574 0.773 0.017619247 1.3926215e-38 306 227
-0.017619247 0.773 0.017619247 1.4110247e-38 307 227
-0.016221842 0.77100003 0.01757366 1.2366382e-38 308 227
-0.01487002 0.77100003 0.01757366 9.4161231e-39 309 227
-0.013518199 0.77100003 0.01757366 5.6475299e-39 310 227
-0.01216638 0.77100003 0.01757366 6.2928993e-39 311 227
-0.01081456 0.77100003 0.01757366 8.9543196e-39 312 227
-0.0094627403 0.77100003 0.01757366 9.0465138e-39 313 227
-0.0080898795 0.76899999 0.017528072 9.5960919e-39 314 227
-0.0067415666 0.76899999 0.017528072 9.4120622e-39 315 227
-0.0053932532 0.76899999 0.017528072 9.0447202e-39 316 227
-0.00403442 0.76700002 0.017482487 9.0447202e-39 317 227
-0.0026896133 0.76700002 0.017482487 8.6773782e-39 318 227
-0.0013430532 0.76599997 0.017459691 8.7695724e-39 319 227
0 0.764 0.017414106 9.6908155e-39 320 227
0.0013395466 0.764 0.017414106 9.5064242e-39 321 227
0.0026790933 0.764 0.017414106 9.595764e-39 322 227
0.0040186401 0.764 0.017414106 9.872711e-39 323 227
0.0053581866 0.764 0.017414106 9.872711e-39 324 227
0.0066801999 0.76200002 0.01736852 9.687961e-39 325 227
0.0080162399 0.76200002 0.01736852 8.9514511e-39 326 227
0.0093768267 0.764 0.017414106 8.7670613e-39 327 227
0.010716373 0.764 0.017414106 8.6748671e-39 328 227
0.01205592 0.764 0.017414106 8.5826728e-39 329 227
0.013395466 0.764 0.017414106 8.3990018e-39 330 227
0.01469644 0.76200002 0.01736852 8.3990018e-39 331 227
0.01603248 0.76200002 0.01736852 9.1344033e-39 332 227
0.017414106 0.764 0.017414106 9.5953744e-39 333 227
0.01870456 0.76200002 0.01736852 1.0606282e-38 334 227
0.0200406 0.76200002 0.01736852 1.1251642e-38 335 227
0.02137664 0.76200002 0.01736852 1.1341684e-38 336 227
0.02271268 0.76200002 0.01736852 1.0788877e-38 337 227
0.02404872 0.76200002 0.01736852 1.0695965e-38 338 227
0.02538476 0.76200002 0.01736852 1.0511218e-38 339 227
0.026790932 0.764 0.017414106 1.0417948e-38 340 227
0.028130481 0.764 0.017414106 1.0417948e-38 341 227
0.029470026 0.764 0.017414106 9.8672964e-39 342 227
0.030890226 0.76599997 0.017459691 9.8672964e-39 343 227
0.032233275 0.76599997 0.017459691 9.4985335e-39 344 227
0.033620168 0.76700002 0.017482487 9.3137835e-39 345 227
0.034964975 0.76700002 0.017482487 9.3127199e-39 346 227
0.036404461 0.76899999 0.017528072 9.0357729e-39 347 227
0.03775277 0.76899999 0.017528072 9.2172999e-39 348 227
0.039101087 0.76899999 0.017528072 9.1251043e-39 349 227
0.040554602 0.77100003 0.01757366 9.0318464e-39 350 227
0.04190642 0.77100003 0.01757366 9.1244008e-39 351 227
0.043370452 0.773 0.017619247 1.0140383e-38 352 227
-0.030125774 0.78100002 0.016432239 1.6596637e-38 298 228
-0.028756421 0.78100002 0.016432239 1.4107714e-38 299 228
-0.027351998 0.77999997 0.016411198 1.2727662e-38 300 228
-0.025917772 0.778 0.016369121 1.3373031e-38 301 228
-0.024553679 0.778 0.016369121 1.2543648e-38 302 228
-0.02307036 0.77399999 0.016284959 1.2082669e-38 303 228
-0.021713279 0.77399999 0.016284959 1.2452544e-38 304 228
-0.020356199 0.77399999 0.016284959 1.3190109e-38 305 228
-0.018974574 0.773 0.016263919 1.374327e-38 306 228
-0.017619247 0.773 0.016263919 1.3558518e-38 307 228
-0.016221842 0.77100003 0.016221842 1.1721007e-38 308 228
-0.01487002 0.77100003 0.016221842 9.692703e-39 309 228
-0.013483133 0.76899999 0.016179759 7.5771501e-39 310 228
-0.012134819 0.76899999 0.016179759 7.9459312e-39 311 228
-0.010786506 0.76899999 0.016179759 9.9655863e-39 312 228
-0.0094381925 0.76899999 0.016179759 1.005778e-38 313 228
-0.00806884 0.76700002 0.01613768 1.0424764e-38 314 228
-0.006724033 0.76700002 0.01613768 1.0240375e-38 315 228
-0.0053792265 0.76700002 0.01613768 1.0240375e-38 316 228
-0.0040291594 0.76599997 0.016116638 1.0240375e-38 317 228
-0.0026861064 0.76599997 0.016116638 1.0148899e-38 318 228
-0.0013395466 0.764 0.016074561 1.0148899e-38 319 228
0 0.764 0.016074561 1.0334363e-38 320 228
0.00133604 0.76200002 0.01603248 1.024181e-38 321 228
0.00267208 0.76200002 0.01603248 1.005778e-38 322 228
0.0040081199 0.76200002 0.01603248 1.024181e-38 323 228
0.0053441599 0.76200002 0.01603248 1.0792464e-38 324 228
0.0066801999 0.76200002 0.01603248 1.0331493e-38 325 228
0.0080162399 0.76200002 0.01603248 1.0146746e-38 326 228
0.0093522798 0.76200002 0.01603248 9.7783279e-39 327 228
0.01068832 0.76200002 0.01603248 9.685775e-39 328 228
0.01202436 0.76200002 0.01603248 9.5013865e-39 329 228
0.0133604 0.76200002 0.01603248 9.5028215e-39 330 228
0.01469644 0.76200002 0.01603248 9.6872099e-39 331 228
0.01603248 0.76200002 0.01603248 9.9630751e-39 332 228
0.01736852 0.76200002 0.01603248 9.9630751e-39 333 228
0.01870456 0.76200002 0.01603248 1.0790671e-38 334 228
0.0200406 0.76200002 0.01603248 1.0974701e-38 335 228
0.02137664 0.76200002 0.01603248 1.0789236e-38 336 228
0.02271268 0.76200002 0.01603248 1.0420459e-38 337 228
0.02404872 0.76200002 0.01603248 1.0511218e-38 338 228
0.02538476 0.76200002 0.01603248 1.0327189e-38 339 228
0.0267208 0.76200002 0.01603248 1.0143159e-38 340 228
0.028056841 0.76200002 0.01603248 1.0050965e-38 341 228
0.029470026 0.764 0.016074561 9.6836254e-39 342 228
0.030809574 0.764 0.016074561 9.6836254e-39 343 228
0.032233275 0.76599997 0.016116638 9.6818457e-39 344 228
0.033620168 0.76700002 0.01613768 9.405619e-39 345 228
0.034964975 0.76700002 0.01613768 9.2194481e-39 346 228
0.036404461 0.76899999 0.016179759 9.0350568e-39 347 228
0.03775277 0.76899999 0.016179759 9.0321996e-39 348 228
0.039101087 0.76899999 0.016179759 9.0321996e-39 349 228
0.0404494 0.76899999 0.016179759 8.9410984e-39 350 228
0.041797712 0.76899999 0.016179759 8.8489027e-39 351 228
0.043258239 0.77100003 0.016221842 9.6772467e-39 352 228
0.044610061 0.77100003 0.016221842 1.4840202e-38 353 228
-0.030125774 0.78100002 0.015062887 1.6227132e-38 298 229
-0.028719598 0.77999997 0.0150436 1.3737849e-38 299 229
-0.027351998 0.77999997 0.0150436 1.3374109e-38 300 229
-0.025917772 0.778 0.015005025 1.3927283e-38 301 229
-0.024490559 0.77600002 0.014966453 1.2085185e-38 302 229
-0.02307036 0.77399999 0.014927879 1.1347618e-38 303 229
-0.021713279 0.77399999 0.014927879 1.1532017e-38 304 229
-0.020356199 0.77399999 0.014927879 1.2638004e-38 305 229
-0.018974574 0.773 0.014908593 1.3561027e-38 306 229
-0.017619247 0.773 0.014908593 1.3099688e-38 307 229
-0.016221842 0.77100003 0.01487002 1.0801552e-38 308 229
-0.014831445 0.76899999 0.014831445 9.6030087e-39 309 229
-0.013483133 0.76899999 0.014831445 9.6000421e-39 310 229
-0.012134819 0.76899999 0.014831445 9.876629e-39 311 229
-0.010786506 0.76899999 0.014831445 1.0794617e-38 312 229
-0.0094381925 0.76899999 0.014831445 1.0702423e-38 313 229
-0.00806884 0.76700002 0.014792874 1.0886452e-38 314 229
-0.006724033 0.76700002 0.014792874 1.0793899e-38 315 229
-0.0053792265 0.76700002 0.014792874 1.0702423e-38 316 229
-0.0040291594 0.76599997 0.014773586 1.0702423e-38 317 229
-0.0026861064 0.76599997 0.014773586 1.051911e-38 318 229
-0.0013395466 0.764 0.014735013 1.051911e-38 319 229
0 0.764 0.014735013 1.0610228e-38 320 229
0.00133604 0.76200002 0.01469644 1.0702423e-38 321 229
0.00267208 0.76200002 0.01469644 1.0701705e-38 322 229
0.0040081199 0.76200002 0.01469644 1.0793899e-38 323 229
0.0053441599 0.76200002 0.01469644 1.0885017e-38 324 229
0.0066801999 0.76200002 0.01469644 1.0792823e-38 325 229
0.0080162399 0.76200002 0.01469644 1.0791747e-38 326 229
0.0093522798 0.76200002 0.01469644 1.0423329e-38 327 229
0.01068832 0.76200002 0.01469644 9.9627164e-39 328 229
0.01202436 0.76200002 0.01469644 9.9627164e-39 329 229
0.0133604 0.76200002 0.01469644 1.0239658e-38 330 229
0.01469644 0.76200002 0.01469644 1.1069056e-38 331 229
0.01603248 0.76200002 0.01469644 1.0608435e-38 332 229
0.01736852 0.76200002 0.01469644 1.0055269e-38 333 229
0.01870456 0.76200002 0.01469644 1.0606282e-38 334 229
0.0200406 0.76200002 0.01469644 1.0514088e-38 335 229
0.02137664 0.76200002 0.01469644 1.0604489e-38 336 229
0.02271268 0.76200002 0.01469644 1.0511936e-38 337 229
0.02404872 0.76200002 0.01469644 1.00524e-38 338 229
0.02538476 0.76200002 0.01469644 9.868011e-39 339 229
0.0267208 0.76200002 0.01469644 9.8676523e-39 340 229
0.028056841 0.76200002 0.01469644 9.8676523e-39 341 229
0.029392879 0.76200002 0.01469644 9.6836254e-39 342 229
0.030809574 0.764 0.014735013 9.5914298e-39 343 229
0.032233275 0.76599997 0.014773586 9.6818457e-39 344 229
0.033576332 0.76599997 0.014773586 9.3130632e-39 345 229
0.034964975 0.76700002 0.014792874 9.1272496e-39 346 229
0.036404461 0.76899999 0.014831445 8.8506628e-39 347 229
0.03775277 0.76899999 0.014831445 9.0318352e-39 348 229
0.039101087 0.76899999 0.014831445 8.9392809e-39 349 229
0.0404494 0.76899999 0.014831445 8.9403795e-39 350 229
0.041797712 0.76899999 0.014831445 9.0325751e-39 351 229
0.043146025 0.76899999 0.014831445 9.4010199e-39 352 229
0.044494338 0.76899999 0.014831445 1.4287747e-38 353 229
-0.031495128 0.78100002 0.013693534 1.7330252e-38 297 230
-0.030125774 0.78100002 0.013693534 1.5399519e-38 298 230
-0.028719598 0.77999997 0.013675999 1.1804248e-38 299 230
-0.027281865 0.778 0.013640933 1.1535587e-38 300 230
-0.025917772 0.778 0.013640933 1.2826326e-38 301 230
-0.024490559 0.77600002 0.013605867 1.1995155e-38 302 230
-0.02307036 0.77399999 0.013570799 1.1626733e-38 303 230
-0.021713279 0.77399999 0.013570799 1.2453966e-38 304 230
-0.020356199 0.77399999 0.013570799 1.3283727e-38 305 230
-0.018974574 0.773 0.013553266 1.5033626e-38 306 230
-0.01757366 0.77100003 0.013518199 1.3742887e-38 307 230
-0.016179759 0.76899999 0.013483133 9.9710555e-39 308 230
-0.014831445 0.76899999 0.013483133 9.4178818e-39 309 230
-0.013448066 0.76700002 0.013448066 1.0704216e-38 310 230
-0.01210326 0.76700002 0.013448066 1.0796771e-38 311 230
-0.010758453 0.76700002 0.013448066 1.1715483e-38 312 230
-0.0094136465 0.76700002 0.013448066 1.1715483e-38 313 230
-0.00806884 0.76700002 0.013448066 1.2173943e-38 314 230
-0.0067152665 0.76599997 0.013430533 1.2266137e-38 315 230
-0.0053722127 0.76599997 0.013430533 1.2173943e-38 316 230
-0.0040186401 0.764 0.013395466 1.2173943e-38 317 230
-0.0026790933 0.764 0.013395466 1.1623289e-38 318 230
-0.00133604 0.76200002 0.0133604 1.1623289e-38 319 230
0 0.76200002 0.0133604 1.1531094e-38 320 230
0.00133604 0.76200002 0.0133604 1.1531094e-38 321 230
0.00267208 0.76200002 0.0133604 1.1531094e-38 322 230
0.0040081199 0.76200002 0.0133604 1.1531094e-38 323 230
0.0053441599 0.76200002 0.0133604 1.1713331e-38 324 230
0.0066801999 0.76200002 0.0133604 1.1621136e-38 325 230
0.0080162399 0.76200002 0.0133604 1.1621136e-38 326 230
0.0093522798 0.76200002 0.0133604 1.1252359e-38 327 230
0.01068832 0.76200002 0.0133604 1.1341684e-38 328 230
0.01202436 0.76200002 0.0133604 1.1157295e-38 329 230
0.0133604 0.76200002 0.0133604 1.0699553e-38 330 230
0.01469644 0.76200002 0.0133604 1.0883941e-38 331 230
0.01603248 0.76200002 0.0133604 1.0882148e-38 332 230
0.01736852 0.76200002 0.0133604 1.0513371e-38 333 230
0.01870456 0.76200002 0.0133604 1.0421894e-38 334 230
0.0200406 0.76200002 0.0133604 1.03297e-38 335 230
0.02137664 0.76200002 0.0133604 1.0145311e-38 336 230
0.02271268 0.76200002 0.0133604 9.9609227e-39 337 230
0.02404872 0.76200002 0.0133604 9.6850575e-39 338 230
0.02538476 0.76200002 0.0133604 9.5925046e-39 339 230
0.0267208 0.76200002 0.0133604 9.5921458e-39 340 230
0.028056841 0.76200002 0.0133604 9.5921458e-39 341 230
0.029392879 0.76200002 0.0133604 9.5914354e-39 342 230
0.030728921 0.76200002 0.0133604 9.498881e-39 343 230
0.032149121 0.764 0.013395466 9.4978146e-39 344 230
0.033576332 0.76599997 0.013430533 9.2208676e-39 345 230
0.034964975 0.76700002 0.013448066 9.0357701e-39 346 230
0.036404461 0.76899999 0.013483133 8.5751507e-39 347 230
0.03775277 0.76899999 0.013483133 8.6637702e-39 348 230
0.039101087 0.76899999 0.013483133 8.5715746e-39 349 230
0.0404494 0.76899999 0.013483133 8.5726718e-39 350 230
0.041797712 0.76899999 0.013483133 8.7567043e-39 351 230
0.043146025 0.76899999 0.013483133 8.8489251e-39 352 230
0.044494338 0.76899999 0.013483133 1.3643096e-38 353 230
-0.031495128 0.78100002 0.01232418 1.6962544e-38 297 231
-0.030125774 0.78100002 0.01232418 1.4939597e-38 298 231
-0.028719598 0.77999997 0.012308398 1.0790794e-38 299 231
-0.027281865 0.778 0.012276839 9.3261065e-39 300 231
-0.025917772 0.778 0.012276839 1.2000139e-38 301 231
-0.024490559 0.77600002 0.01224528 1.3099711e-38 302 231
-0.02307036 0.77399999 0.01221372 1.2823124e-38 303 231
-0.021713279 0.77399999 0.01221372 1.3007868e-38 304 231
-0.020356199 0.77399999 0.01221372 1.3745433e-38 305 231
-0.018974574 0.773 0.012197939 1.5770825e-38 306 231
-0.01757366 0.77100003 0.01216638 1.4110945e-38 307 231
-0.016179759 0.76899999 0.012134819 9.5086298e-39 308 231
-0.014831445 0.76899999 0.012134819 9.4164342e-39 309 231
-0.013448066 0.76700002 0.01210326 1.1716563e-38 310 231
-0.01210326 0.76700002 0.01210326 1.1808759e-38 311 231
-0.010758453 0.76700002 0.01210326 1.2543796e-38 312 231
-0.0094136465 0.76700002 0.01210326 1.263599e-38 313 231
-0.0080583189 0.76599997 0.012087479 1.2818944e-38 314 231
-0.006697733 0.764 0.01205592 1.2911138e-38 315 231
-0.0053581866 0.764 0.01205592 1.2819661e-38 316 231
-0.0040186401 0.764 0.01205592 1.2727467e-38 317 231
-0.00267208 0.76200002 0.01202436 1.2451602e-38 318 231
-0.00133604 0.76200002 0.01202436 1.2359408e-38 319 231
0 0.76200002 0.01202436 1.235869e-38 320 231
0.00133604 0.76200002 0.01202436 1.2450884e-38 321 231
0.00267208 0.76200002 0.01202436 1.235869e-38 322 231
0.0040081199 0.76200002 0.01202436 1.235869e-38 323 231
0.0053441599 0.76200002 0.01202436 1.2633479e-38 324 231
0.0066801999 0.76200002 0.01202436 1.2633479e-38 325 231
0.0080162399 0.76200002 0.01202436 1.2817509e-38 326 231
0.0093522798 0.76200002 0.01202436 1.2356538e-38 327 231
0.01068832 0.76200002 0.01202436 1.180409e-38 328 231
0.01202436 0.76200002 0.01202436 1.1619701e-38 329 231
0.0133604 0.76200002 0.01202436 1.1434954e-38 330 231
0.01469644 0.76200002 0.01202436 1.1250566e-38 331 231
0.016011439 0.76099998 0.012008579 1.0973624e-38 332 231
0.017345725 0.76099998 0.012008579 1.0789236e-38 333 231
0.018680012 0.76099998 0.012008579 1.0513371e-38 334 231
0.020014299 0.76099998 0.012008579 1.0421176e-38 335 231
0.021348584 0.76099998 0.012008579 1.0328623e-38 336 231
0.022682872 0.76099998 0.012008579 1.0144235e-38 337 231
0.02404872 0.76200002 0.01202436 9.868011e-39 338 231
0.02538476 0.76200002 0.01202436 9.6836226e-39 339 231
0.0267208 0.76200002 0.01202436 9.4995929e-39 340 231
0.028056841 0.76200002 0.01202436 9.4070399e-39 341 231
0.029392879 0.76200002 0.01202436 9.4985307e-39 342 231
0.030728921 0.76200002 0.01202436 9.4063351e-39 343 231
0.032149121 0.764 0.01205592 9.3137891e-39 344 231
0.033576332 0.76599997 0.012087479 8.9450066e-39 345 231
0.034919381 0.76599997 0.012087479 9.2180005e-39 346 231
0.036404461 0.76899999 0.012134819 8.7570224e-39 347 231
0.03775277 0.76899999 0.012134819 8.7545211e-39 348 231
0.039101087 0.76899999 0.012134819 8.7545211e-39 349 231
0.0404494 0.76899999 0.012134819 8.7556183e-39 350 231
0.041797712 0.76899999 0.012134819 8.7556183e-39 351 231
0.043146025 0.76899999 0.012134819 8.8499999e-39 352 231
0.044494338 0.76899999 0.012134819 1.327539e-38 353 231
-0.031495128 0.78100002 0.010954826 1.650157e-38 297 232
-0.030125774 0.78100002 0.010954826 1.4662655e-38 298 232
-0.028719598 0.77999997 0.010940799 1.1159579e-38 299 232
-0.027281865 0.778 0.010912746 9.783835e-39 300 232
-0.025917772 0.778 0.010912746 1.1719943e-38 301 232
-0.024553679 0.778 0.010912746 1.3097898e-38 302 232
-0.02307036 0.77399999 0.01085664 1.3005702e-38 303 232
-0.021713279 0.77399999 0.01085664 1.1626377e-38 304 232
-0.0203299 0.773 0.010842613 1.2732723e-38 305 232
-0.018925481 0.77100003 0.01081456 1.5129049e-38 306 232
-0.01757366 0.77100003 0.01081456 1.3285136e-38 307 232
-0.016179759 0.76899999 0.010786506 1.0887248e-38 308 232
-0.014831445 0.76899999 0.010786506 1.107164e-38 309 232
-0.013448066 0.76700002 0.010758453 1.2360146e-38 310 232
-0.01210326 0.76700002 0.010758453 1.2637093e-38 311 232
-0.010758453 0.76700002 0.010758453 1.3280993e-38 312 232
-0.0094013726 0.76599997 0.010744425 1.3096603e-38 313 232
-0.0080583189 0.76599997 0.010744425 1.2912573e-38 314 232
-0.006697733 0.764 0.010716373 1.3004767e-38 315 232
-0.0053581866 0.764 0.010716373 1.2821814e-38 316 232
-0.0040081199 0.76200002 0.01068832 1.2821814e-38 317 232
-0.00267208 0.76200002 0.01068832 1.3279198e-38 318 232
-0.00133604 0.76200002 0.01068832 1.3187003e-38 319 232
