# .PCD v.7 - Point Cloud Data file format
FIELDS x y z rgb imX imY
SIZE 4 4 4 4 4 4
TYPE F F F F F F
COUNT 1 1 1 1 1 1
WIDTH 836
HEIGHT 1
VIEWPOINT 0 0 0 1 0 0 0
POINTS 836
DATA ascii
0.015955333 0.69999999 -0.031910665 5.420811e-39 333 266
0.017182667 0.69999999 -0.031910665 5.4200893e-39 334 266
0.018409999 0.69999999 -0.031910665 5.7888705e-39 335 266
0.019637333 0.69999999 -0.031910665 6.3402506e-39 336 266
0.020805053 0.69800001 -0.031819493 6.8934244e-39 337 266
0.02202888 0.69800001 -0.031819493 7.9018183e-39 338 266
0.023319334 0.69999999 -0.031910665 7.7174257e-39 339 266
0.024476532 0.69800001 -0.031819493 8.2680729e-39 340 266
0.025700359 0.69800001 -0.031819493 8.1758773e-39 341 266
0.026924185 0.69800001 -0.031819493 8.176229e-39 342 266
0.028148014 0.69800001 -0.031819493 8.268782e-39 343 266
0.029455997 0.69999999 -0.031910665 8.543571e-39 344 266
0.030683333 0.69999999 -0.031910665 8.4513768e-39 345 266
0.031910665 0.69999999 -0.031910665 8.3588238e-39 346 266
0.033137999 0.69999999 -0.031910665 8.4510194e-39 347 266
0.034365334 0.69999999 -0.031910665 8.3595427e-39 348 266
0.035592664 0.69999999 -0.031910665 8.3595427e-39 349 266
0.036819998 0.69999999 -0.031910665 8.4510194e-39 350 266
0.038047329 0.69999999 -0.031910665 8.4510194e-39 351 266
0.039330769 0.70099998 -0.031956252 8.3588266e-39 352 266
0.040559858 0.70099998 -0.031956252 8.3588266e-39 353 266
0.041788943 0.70099998 -0.031956252 8.2662751e-39 354 266
0.043140765 0.70300001 -0.032047424 8.451025e-39 355 266
0.044436477 0.704 -0.032093015 8.2680729e-39 356 266
0.045670826 0.704 -0.032093015 8.0836817e-39 357 266
0.046905171 0.704 -0.032093015 7.9911329e-39 358 266
0.048276275 0.70599997 -0.032184184 7.9911329e-39 359 266
0.04951413 0.70599997 -0.032184184 7.5319596e-39 360 266
0.050751984 0.70599997 -0.032184184 7.439764e-39 361 266
0.051989835 0.70599997 -0.032184184 6.7987106e-39 362 266
0.053303085 0.70700002 -0.032229774 6.7987106e-39 363 266
0.054542694 0.70700002 -0.032229774 6.1558607e-39 364 266
0.055782299 0.70700002 -0.032229774 5.9711107e-39 365 266
0.057263866 0.70999998 -0.032366529 5.1453157e-39 366 266
0.058591139 0.71100003 -0.032412119 5.4222628e-39 367 266
0.059837762 0.71100003 -0.032412119 5.1499849e-39 368 266
0.061084379 0.71100003 -0.032412119 6.9938975e-39 369 266
-0.01014128 0.72299999 -0.03422682 7.2712046e-39 312 267
-0.0088736191 0.72299999 -0.03422682 4.9666726e-39 313 267
-0.0075954394 0.722 -0.034179479 4.3209473e-39 314 267
-0.0063120001 0.72000003 -0.034084801 4.0443604e-39 315 267
-0.0050425865 0.71899998 -0.03403746 3.7666973e-39 316 267
-0.0037714199 0.71700001 -0.033942781 3.4904705e-39 317 267
-0.0025037599 0.71399999 -0.033800758 3.3060779e-39 318 267
-0.00125188 0.71399999 -0.033800758 3.2142424e-39 319 267
0 0.713 -0.033753417 3.3060779e-39 320 267
0.0012448666 0.70999998 -0.033611398 3.3060779e-39 321 267
0.0024897333 0.70999998 -0.033611398 3.8570908e-39 322 267
0.0037188199 0.70700002 -0.033469379 4.1326015e-39 323 267
0.0049514128 0.70599997 -0.033422034 4.5946629e-39 324 267
0.0061892662 0.70599997 -0.033422034 4.9638055e-39 325 267
0.0074060797 0.704 -0.03332736 5.7042573e-39 326 267
0.0086404262 0.704 -0.03332736 6.9949961e-39 327 267
0.0098607466 0.70300001 -0.033280019 7.0965454e-39 328 267
0.01109334 0.70300001 -0.033280019 8.3872842e-39 329 267
0.012290866 0.70099998 -0.03318534 8.1931819e-39 330 267
0.013519952 0.70099998 -0.03318534 5.8886513e-39 331 267
0.014727999 0.69999999 -0.033137999 5.5148241e-39 332 267
0.015955333 0.69999999 -0.033137999 5.1460416e-39 333 267
0.017182667 0.69999999 -0.033137999 5.2378617e-39 334 267
0.018409999 0.69999999 -0.033137999 5.330416e-39 335 267
0.019581227 0.69800001 -0.033043321 6.156211e-39 336 267
0.020805053 0.69800001 -0.033043321 6.2484081e-39 337 267
0.02202888 0.69800001 -0.033043321 7.4397584e-39 338 267
0.023252707 0.69800001 -0.033043321 7.1631701e-39 339 267
0.024476532 0.69800001 -0.033043321 7.622349e-39 340 267
0.025700359 0.69800001 -0.033043321 7.5305121e-39 341 267
0.026924185 0.69800001 -0.033043321 7.8978541e-39 342 267
0.028148014 0.69800001 -0.033043321 7.9900511e-39 343 267
0.029371841 0.69800001 -0.033043321 8.1740794e-39 344 267
0.030683333 0.69999999 -0.033137999 8.1740794e-39 345 267
0.031910665 0.69999999 -0.033137999 8.3570302e-39 346 267
0.033137999 0.69999999 -0.033137999 8.4492244e-39 347 267
0.034365334 0.69999999 -0.033137999 8.1744354e-39 348 267
0.035592664 0.69999999 -0.033137999 8.1744354e-39 349 267
0.036819998 0.69999999 -0.033137999 8.1737179e-39 350 267
0.038047329 0.69999999 -0.033137999 8.1737179e-39 351 267
0.039274666 0.69999999 -0.033137999 7.8978527e-39 352 267
0.040502001 0.69999999 -0.033137999 7.8978527e-39 353 267
0.041788943 0.70099998 -0.03318534 7.8978527e-39 354 267
0.043140765 0.70300001 -0.033280019 7.8978527e-39 355 267
0.04437336 0.70300001 -0.033280019 7.9900511e-39 356 267
0.045670826 0.704 -0.03332736 7.9900511e-39 357 267
0.046905171 0.704 -0.03332736 7.6223532e-39 358 267
0.048139516 0.704 -0.03332736 7.4386794e-39 359 267
0.04951413 0.70599997 -0.033422034 7.2550112e-39 360 267
0.050751984 0.70599997 -0.033422034 7.3468481e-39 361 267
0.051989835 0.70599997 -0.033422034 6.6143179e-39 362 267
0.053227689 0.70599997 -0.033422034 6.706515e-39 363 267
0.054542694 0.70700002 -0.033469379 5.7877957e-39 364 267
0.055782299 0.70700002 -0.033469379 5.6034044e-39 365 267
0.057263866 0.70999998 -0.033611398 5.2364197e-39 366 267
0.058591139 0.71100003 -0.033658739 5.3286154e-39 367 267
0.059837762 0.71100003 -0.033658739 5.2400141e-39 368 267
0.061084379 0.71100003 -0.033658739 7.3608723e-39 369 267
0.062856995 0.71700001 -0.033942781 1.0683146e-38 370 267
-0.01014128 0.72299999 -0.035494477 7.4552357e-39 312 268
-0.0088736191 0.72299999 -0.035494477 5.5191275e-39 313 268
-0.0075954394 0.722 -0.035445385 5.1492632e-39 314 268
-0.0063120001 0.72000003 -0.035347197 4.7804793e-39 315 268
-0.0050425865 0.71899998 -0.035298105 4.3195025e-39 316 268
-0.0037714199 0.71700001 -0.035199918 3.7663315e-39 317 268
-0.0025037599 0.71399999 -0.035052639 3.5815844e-39 318 268
-0.00125188 0.71399999 -0.035052639 3.3979134e-39 319 268
0 0.713 -0.035003547 3.5815844e-39 320 268
0.0012448666 0.70999998 -0.034856264 3.5815844e-39 321 268
0.00248272 0.708 -0.034758076 3.4897503e-39 322 268
0.0037188199 0.70700002 -0.034708988 3.8570978e-39 323 268
0.0049514128 0.70599997 -0.034659892 4.0429352e-39 324 268
0.0061892662 0.70599997 -0.034659892 5.9790435e-39 325 268
0.0074060797 0.704 -0.034561705 7.0875574e-39 326 268
0.0086404262 0.704 -0.034561705 9.2080569e-39 327 268
0.0098607466 0.70300001 -0.034512613 8.5698804e-39 328 268
0.011061779 0.70099998 -0.034414422 8.1089022e-39 329 268
0.012290866 0.70099998 -0.034414422 7.6400124e-39 330 268
0.013500666 0.69999999 -0.034365334 5.8882954e-39 331 268
0.014727999 0.69999999 -0.034365334 5.4244264e-39 332 268
0.015955333 0.69999999 -0.034365334 5.2396764e-39 333 268
0.017182667 0.69999999 -0.034365334 5.1467451e-39 334 268
0.018409999 0.69999999 -0.034365334 5.3307762e-39 335 268
0.019581227 0.69800001 -0.034267146 5.3300601e-39 336 268
0.020805053 0.69800001 -0.034267146 5.3300601e-39 337 268
0.02202888 0.69800001 -0.034267146 5.8789179e-39 338 268
0.023252707 0.69800001 -0.034267146 5.5101368e-39 339 268
0.024476532 0.69800001 -0.034267146 6.3366562e-39 340 268
0.025700359 0.69800001 -0.034267146 6.3366562e-39 341 268
0.026885614 0.69700003 -0.034218054 6.7040024e-39 342 268
0.028107686 0.69700003 -0.034218054 6.9795131e-39 343 268
0.029371841 0.69800001 -0.034267146 7.347211e-39 344 268
0.030595668 0.69800001 -0.034267146 7.347211e-39 345 268
0.031819493 0.69800001 -0.034267146 7.3475614e-39 346 268
0.033043321 0.69800001 -0.034267146 7.3475614e-39 347 268
0.034267146 0.69800001 -0.034267146 7.3475614e-39 348 268
0.035592664 0.69999999 -0.034365334 7.2553657e-39 349 268
0.036819998 0.69999999 -0.034365334 7.2550042e-39 350 268
0.038047329 0.69999999 -0.034365334 7.3471984e-39 351 268
0.039274666 0.69999999 -0.034365334 7.3471984e-39 352 268
0.040502001 0.69999999 -0.034365334 7.2550042e-39 353 268
0.041729331 0.69999999 -0.034365334 7.0720535e-39 354 268
0.043018032 0.70099998 -0.034414422 6.9798578e-39 355 268
0.04437336 0.70300001 -0.034512613 6.7961897e-39 356 268
0.045670826 0.704 -0.034561705 6.9802208e-39 357 268
0.046905171 0.704 -0.034561705 6.7961925e-39 358 268
0.048139516 0.704 -0.034561705 6.7961925e-39 359 268
0.04951413 0.70599997 -0.034659892 6.4288491e-39 360 268
0.050751984 0.70599997 -0.034659892 6.5210447e-39 361 268
0.051989835 0.70599997 -0.034659892 6.0633064e-39 362 268
0.053227689 0.70599997 -0.034659892 5.8789151e-39 363 268
0.054542694 0.70700002 -0.034708988 5.41866e-39 364 268
0.055782299 0.70700002 -0.034708988 5.2346275e-39 365 268
0.057102561 0.708 -0.034758076 5.0524012e-39 366 268
0.058591139 0.71100003 -0.034905359 5.1445969e-39 367 268
0.060006075 0.713 -0.035003547 4.8726749e-39 368 268
0.061599858 0.71700001 -0.035199918 6.7165875e-39 369 268
0.062856995 0.71700001 -0.035199918 1.0683502e-38 370 268
-0.011519399 0.73000002 -0.037118066 1.0226137e-38 311 269
-0.010211413 0.72799999 -0.037016369 7.3634002e-39 312 269
-0.0088736191 0.72299999 -0.036762137 5.7042376e-39 313 269
-0.0075743999 0.72000003 -0.036609601 6.0697804e-39 314 269
-0.0063032326 0.71899998 -0.036558751 5.6084421e-39 315 269
-0.0050285598 0.71700001 -0.036457058 4.5971642e-39 316 269
-0.00376616 0.71600002 -0.036406212 4.0439904e-39 317 269
-0.0025037599 0.71399999 -0.036304519 3.8570908e-39 318 269
-0.00125188 0.71399999 -0.036304519 3.5815844e-39 319 269
0 0.713 -0.036253672 3.3979134e-39 320 269
0.0012448666 0.70999998 -0.036101133 3.3979134e-39 321 269
0.00248272 0.708 -0.03599944 3.4897489e-39 322 269
0.0037188199 0.70700002 -0.035948593 3.857095e-39 323 269
0.0049514128 0.70599997 -0.035897743 4.2255328e-39 324 269
0.0061892662 0.70599997 -0.035897743 6.8992075e-39 325 269
0.0074060797 0.704 -0.035796054 8.4715877e-39 326 269
0.0086281532 0.70300001 -0.035745207 9.4857382e-39 327 269
0.0098607466 0.70300001 -0.035745207 7.2780696e-39 328 269
0.011061779 0.70099998 -0.035643511 5.2497657e-39 329 269
0.012290866 0.70099998 -0.035643511 5.5180737e-39 330 269
0.013500666 0.69999999 -0.035592664 5.1489311e-39 331 269
0.014727999 0.69999999 -0.035592664 5.239326e-39 332 269
0.015955333 0.69999999 -0.035592664 4.9630993e-39 333 269
0.017182667 0.69999999 -0.035592664 5.0549208e-39 334 269
0.018409999 0.69999999 -0.035592664 5.0549208e-39 335 269
0.019581227 0.69800001 -0.035490975 5.1463947e-39 336 269
0.020805053 0.69800001 -0.035490975 5.0541991e-39 337 269
0.02202888 0.69800001 -0.035490975 5.5108584e-39 338 269
0.023252707 0.69800001 -0.035490975 5.1427934e-39 339 269
0.024476532 0.69800001 -0.035490975 5.7856391e-39 340 269
0.025663542 0.69700003 -0.035440128 5.7856391e-39 341 269
0.026885614 0.69700003 -0.035440128 6.3366576e-39 342 269
0.028107686 0.69700003 -0.035440128 6.5203328e-39 343 269
0.029371841 0.69800001 -0.035490975 6.7958337e-39 344 269
0.030551834 0.69700003 -0.035440128 6.9795075e-39 345 269
0.03177391 0.69700003 -0.035440128 6.9795019e-39 346 269
0.033043321 0.69800001 -0.035490975 6.887665e-39 347 269
0.034267146 0.69800001 -0.035490975 6.8876636e-39 348 269
0.035490975 0.69800001 -0.035490975 6.8876636e-39 349 269
0.0367148 0.69800001 -0.035490975 6.8876636e-39 350 269
0.038047329 0.69999999 -0.035592664 6.9795005e-39 351 269
0.039274666 0.69999999 -0.035592664 6.7961897e-39 352 269
0.040502001 0.69999999 -0.035592664 6.6121571e-39 353 269
0.041729331 0.69999999 -0.035592664 6.520323e-39 354 269
0.042956665 0.69999999 -0.035592664 6.6121599e-39 355 269
0.044247117 0.70099998 -0.035643511 6.4288519e-39 356 269
0.04560595 0.70300001 -0.035745207 6.5210475e-39 357 269
0.046838548 0.70300001 -0.035745207 6.4288491e-39 358 269
0.048139516 0.704 -0.035796054 6.4288491e-39 359 269
0.049373865 0.704 -0.035796054 6.1533412e-39 360 269
0.050608214 0.704 -0.035796054 6.1533412e-39 361 269
0.051842559 0.704 -0.035796054 5.694884e-39 362 269
0.053227689 0.70599997 -0.035897743 5.6026883e-39 363 269
0.054542694 0.70700002 -0.035948593 5.3264616e-39 364 269
0.055782299 0.70700002 -0.035948593 5.2346247e-39 365 269
0.057102561 0.708 -0.03599944 4.7768905e-39 366 269
0.058591139 0.71100003 -0.036151983 5.0531173e-39 367 269
0.060006075 0.713 -0.036253672 4.5964453e-39 368 269
0.061513945 0.71600002 -0.036406212 6.5325536e-39 369 269
0.062769331 0.71600002 -0.036406212 1.0407992e-38 370 269
-0.012799333 0.73000002 -0.038398001 1.3638454e-38 310 270
-0.011519399 0.73000002 -0.038398001 1.0226856e-38 311 270
-0.010197386 0.727 -0.038240198 7.2722864e-39 312 270
-0.0088981669 0.72500002 -0.038135 5.2439826e-39 313 270
-0.0075743999 0.72000003 -0.037871998 6.4374839e-39 314 270
-0.0063032326 0.71899998 -0.037819397 6.160897e-39 315 270
-0.0050285598 0.71700001 -0.037714198 5.0581367e-39 316 270
-0.00376616 0.71600002 -0.037661601 4.4127673e-39 317 270
-0.0025037599 0.71399999 -0.037556399 3.8585258e-39 318 270
-0.00125188 0.71399999 -0.037556399 3.3060779e-39 319 270
0 0.713 -0.037503798 3.3060793e-39 320 270
0.0012448666 0.70999998 -0.037345998 3.3979162e-39 321 270
0.0024792133 0.70700002 -0.037188202 3.4897531e-39 322 270
0.0037188199 0.70700002 -0.037188202 3.6734283e-39 323 270
0.0049514128 0.70599997 -0.037135597 3.8581923e-39 324 270
0.0061892662 0.70599997 -0.037135597 5.0567354e-39 325 270
0.0074060797 0.704 -0.037030395 6.3474953e-39 326 270
0.0086281532 0.70300001 -0.036977798 6.808472e-39 327 270
0.0098607466 0.70300001 -0.036977798 5.5202387e-39 328 270
0.011061779 0.70099998 -0.036872596 4.413531e-39 329 270
0.012290866 0.70099998 -0.036872596 5.0542173e-39 330 270
0.013500666 0.69999999 -0.036819998 5.0542173e-39 331 270
0.014727999 0.69999999 -0.036819998 4.9620189e-39 332 270
0.015955333 0.69999999 -0.036819998 5.0542145e-39 333 270
0.017182667 0.69999999 -0.036819998 4.7790569e-39 334 270
0.018409999 0.69999999 -0.036819998 4.7790569e-39 335 270
0.019581227 0.69800001 -0.0367148 4.9623664e-39 336 270
0.020805053 0.69800001 -0.0367148 4.6861396e-39 337 270
0.02202888 0.69800001 -0.0367148 5.1428004e-39 338 270
0.023252707 0.69800001 -0.0367148 4.6836173e-39 339 270
0.024476532 0.69800001 -0.0367148 5.0509551e-39 340 270
0.025663542 0.69700003 -0.036662199 5.0509551e-39 341 270
0.026885614 0.69700003 -0.036662199 5.6938036e-39 342 270
0.028107686 0.69700003 -0.036662199 5.8774774e-39 343 270
0.029371841 0.69800001 -0.0367148 6.1529852e-39 344 270
0.030551834 0.69700003 -0.036662199 6.2448221e-39 345 270
0.03177391 0.69700003 -0.036662199 6.5203258e-39 346 270
0.033043321 0.69800001 -0.0367148 6.5203258e-39 347 270
0.034267146 0.69800001 -0.0367148 6.4284889e-39 348 270
0.035490975 0.69800001 -0.0367148 6.4284889e-39 349 270
0.0367148 0.69800001 -0.0367148 6.4284889e-39 350 270
0.038047329 0.69999999 -0.036819998 6.5203258e-39 351 270
0.039274666 0.69999999 -0.036819998 6.3366562e-39 352 270
0.040502001 0.69999999 -0.036819998 6.1529824e-39 353 270
0.041729331 0.69999999 -0.036819998 6.1529852e-39 354 270
0.042956665 0.69999999 -0.036819998 6.336659e-39 355 270
0.044247117 0.70099998 -0.036872596 5.9703947e-39 356 270
0.04560595 0.70300001 -0.036977798 6.0625903e-39 357 270
0.046838548 0.70300001 -0.036977798 6.2455396e-39 358 270
0.048139516 0.704 -0.037030395 6.153344e-39 359 270
0.049373865 0.704 -0.037030395 5.694884e-39 360 270
0.050608214 0.704 -0.037030395 5.6026883e-39 361 270
0.051842559 0.704 -0.037030395 5.41866e-39 362 270
0.053227689 0.70599997 -0.037135597 5.1427906e-39 363 270
0.054465543 0.70599997 -0.037135597 5.0509565e-39 364 270
0.055703394 0.70599997 -0.037135597 5.1427934e-39 365 270
0.057263866 0.70999998 -0.037345998 4.8680086e-39 366 270
0.058591139 0.71100003 -0.037398599 5.2367925e-39 367 270
0.060090236 0.71399999 -0.037556399 4.8726749e-39 368 270
0.061513945 0.71600002 -0.037661601 6.7165875e-39 369 270
0.062856995 0.71700001 -0.037714198 1.0315795e-38 370 270
-0.011519399 0.73000002 -0.039677933 1.0687831e-38 311 271
-0.010197386 0.727 -0.039514873 7.917653e-39 312 271
-0.0088981669 0.72500002 -0.039406165 5.5205652e-39 313 271
-0.0075954394 0.722 -0.039243106 6.8062664e-39 314 271
-0.0063032326 0.71899998 -0.039080046 6.3452882e-39 315 271
-0.0050285598 0.71700001 -0.038971342 5.4276325e-39 316 271
-0.0037714199 0.71700001 -0.038971342 4.7822631e-39 317 271
-0.0025107733 0.71600002 -0.038916986 4.1347497e-39 318 271
-0.00125188 0.71399999 -0.038808275 3.6737786e-39 319 271
0 0.713 -0.038753927 3.0305714e-39 320 271
0.0012448666 0.70999998 -0.038590867 3.2142424e-39 321 271
0.0024792133 0.70700002 -0.038427804 3.3060863e-39 322 271
0.0037188199 0.70700002 -0.038427804 3.4901202e-39 323 271
0.0049514128 0.70599997 -0.038373452 3.7656281e-39 324 271
0.0061892662 0.70599997 -0.038373452 4.2266062e-39 325 271
0.0074060797 0.704 -0.038264744 4.8716197e-39 326 271
0.0086404262 0.704 -0.038264744 4.5953916e-39 327 271
0.0098607466 0.70300001 -0.038210396 4.0425877e-39 328 271
0.011061779 0.70099998 -0.038101684 4.0425877e-39 329 271
0.012290866 0.70099998 -0.038101684 4.5006918e-39 330 271
0.013519952 0.70099998 -0.038101684 4.5928874e-39 331 271
0.014727999 0.69999999 -0.038047329 4.5939594e-39 332 271
0.015955333 0.69999999 -0.038047329 4.5939594e-39 333 271
0.017182667 0.69999999 -0.038047329 4.5953888e-39 334 271
0.018409999 0.69999999 -0.038047329 4.5031931e-39 335 271
0.019581227 0.69800001 -0.037938625 4.6861425e-39 336 271
0.020805053 0.69800001 -0.037938625 4.5013925e-39 337 271
0.02202888 0.69800001 -0.037938625 4.5917846e-39 338 271
0.023252707 0.69800001 -0.037938625 4.3162739e-39 339 271
0.024476532 0.69800001 -0.037938625 4.7754486e-39 340 271
0.025700359 0.69800001 -0.037938625 4.7754486e-39 341 271
0.026885614 0.69700003 -0.037884273 4.8672855e-39 342 271
0.028107686 0.69700003 -0.037884273 4.9591224e-39 343 271
0.029371841 0.69800001 -0.037938625 5.4183027e-39 344 271
0.030595668 0.69800001 -0.037938625 5.4183027e-39 345 271
0.031819493 0.69800001 -0.037938625 5.6938078e-39 346 271
0.033043321 0.69800001 -0.037938625 5.6938078e-39 347 271
0.034267146 0.69800001 -0.037938625 6.1529852e-39 348 271
0.035490975 0.69800001 -0.037938625 6.1529852e-39 349 271
0.0367148 0.69800001 -0.037938625 5.7856405e-39 350 271
0.038047329 0.69999999 -0.038047329 5.9693129e-39 351 271
0.039274666 0.69999999 -0.038047329 5.7856363e-39 352 271
0.040502001 0.69999999 -0.038047329 5.7856363e-39 353 271
0.041729331 0.69999999 -0.038047329 5.7860006e-39 354 271
0.042956665 0.69999999 -0.038047329 5.8781962e-39 355 271
0.044247117 0.70099998 -0.038101684 5.6956056e-39 356 271
0.045476202 0.70099998 -0.038101684 5.7878013e-39 357 271
0.046838548 0.70300001 -0.038210396 5.9703919e-39 358 271
0.048071139 0.70300001 -0.038210396 5.7860006e-39 359 271
0.049373865 0.704 -0.038264744 6.0618644e-39 360 271
0.050608214 0.704 -0.038264744 5.9696688e-39 361 271
0.051842559 0.704 -0.038264744 5.6938008e-39 362 271
0.053227689 0.70599997 -0.038373452 5.3264588e-39 363 271
0.054465543 0.70599997 -0.038373452 4.9591168e-39 364 271
0.055703394 0.70599997 -0.038373452 5.0509537e-39 365 271
0.057263866 0.70999998 -0.038590867 4.6843404e-39 366 271
0.058591139 0.71100003 -0.038645219 5.1453185e-39 367 271
0.060090236 0.71399999 -0.038808275 4.6897298e-39 368 271
0.061599858 0.71700001 -0.038971342 6.533641e-39 369 271
0.062856995 0.71700001 -0.038971342 1.0408355e-38 370 271
0.064114138 0.71700001 -0.038971342 1.2989832e-38 371 271
-0.012799333 0.73000002 -0.040957868 1.3914312e-38 310 272
-0.01148784 0.72799999 -0.040845651 1.1240639e-38 311 272
-0.010211413 0.72799999 -0.040845651 8.5633756e-39 312 272
-0.0088981669 0.72500002 -0.040677335 5.7975067e-39 313 272
-0.0076059597 0.72299999 -0.040565118 6.7140708e-39 314 272
-0.0063120001 0.72000003 -0.040396802 6.7140708e-39 315 272
-0.0050285598 0.71700001 -0.040228479 5.5205596e-39 316 272
-0.00376616 0.71600002 -0.040172372 4.6911591e-39 317 272
-0.0025107733 0.71600002 -0.040172372 3.9535969e-39 318 272
-0.00125188 0.71399999 -0.040060159 3.1234831e-39 319 272
0 0.713 -0.040004052 2.9387359e-39 320 272
0.0012448666 0.70999998 -0.039835732 3.0305714e-39 321 272
0.0024792133 0.70700002 -0.039667413 3.3060835e-39 322 272
0.0037188199 0.70700002 -0.039667413 3.4901174e-39 323 272
0.0049514128 0.70599997 -0.039611302 3.6734255e-39 324 272
0.0061892662 0.70599997 -0.039611302 4.0414891e-39 325 272
0.0074060797 0.704 -0.039499093 4.2266006e-39 326 272
0.0086404262 0.704 -0.039499093 3.8581768e-39 327 272
0.0098607466 0.70300001 -0.039442986 4.041136e-39 328 272
0.011061779 0.70099998 -0.039330769 4.041136e-39 329 272
0.012290866 0.70099998 -0.039330769 4.1326155e-39 330 272
0.013519952 0.70099998 -0.039330769 4.3166467e-39 331 272
0.014727999 0.69999999 -0.039274666 4.4088423e-39 332 272
0.015955333 0.69999999 -0.039274666 4.5013981e-39 333 272
0.017182667 0.69999999 -0.039274666 4.5021141e-39 334 272
0.018409999 0.69999999 -0.039274666 4.5021141e-39 335 272
0.019581227 0.69800001 -0.039162453 4.5017484e-39 336 272
0.020805053 0.69800001 -0.039162453 4.316997e-39 337 272
0.02202888 0.69800001 -0.039162453 4.4081094e-39 338 272
0.023252707 0.69800001 -0.039162453 4.1326001e-39 339 272
0.024476532 0.69800001 -0.039162453 4.3162683e-39 340 272
0.025700359 0.69800001 -0.039162453 4.3162683e-39 341 272
0.026885614 0.69700003 -0.039106347 4.7754458e-39 342 272
0.028107686 0.69700003 -0.039106347 4.9591196e-39 343 272
0.029371841 0.69800001 -0.039162453 5.2346261e-39 344 272
0.030595668 0.69800001 -0.039162453 5.326463e-39 345 272
0.031819493 0.69800001 -0.039162453 5.5101312e-39 346 272
0.033043321 0.69800001 -0.039162453 5.6019681e-39 347 272
0.034267146 0.69800001 -0.039162453 5.7856363e-39 348 272
0.035490975 0.69800001 -0.039162453 5.7856363e-39 349 272
0.0367148 0.69800001 -0.039162453 5.6019653e-39 350 272
0.038047329 0.69999999 -0.039274666 5.6938008e-39 351 272
0.039274666 0.69999999 -0.039274666 5.6938008e-39 352 272
0.040502001 0.69999999 -0.039274666 5.6019653e-39 353 272
0.041729331 0.69999999 -0.039274666 5.6019653e-39 354 272
0.042956665 0.69999999 -0.039274666 5.7863537e-39 355 272
0.044183996 0.69999999 -0.039274666 5.6034044e-39 356 272
0.045476202 0.70099998 -0.039330769 5.6956e-39 357 272
0.046838548 0.70300001 -0.039442986 6.0629434e-39 358 272
0.048071139 0.70300001 -0.039442986 6.0629434e-39 359 272
0.049373865 0.704 -0.039499093 6.1544132e-39 360 272
0.050608214 0.704 -0.039499093 6.1544132e-39 361 272
0.051842559 0.704 -0.039499093 5.6037589e-39 362 272
0.053227689 0.70599997 -0.039611302 5.4193705e-39 363 272
0.054465543 0.70599997 -0.039611302 4.7754458e-39 364 272
0.055703394 0.70599997 -0.039611302 4.8672813e-39 365 272
0.057263866 0.70999998 -0.039835732 4.685411e-39 366 272
0.058591139 0.71100003 -0.039891839 4.8698022e-39 367 272
0.060090236 0.71399999 -0.040060159 4.5049686e-39 368 272
0.061599858 0.71700001 -0.040228479 6.6254681e-39 369 272
0.062856995 0.71700001 -0.040228479 1.0500906e-38 370 272
0.064114138 0.71700001 -0.040228479 1.2990188e-38 371 272
-0.01148784 0.72799999 -0.042122077 1.1517582e-38 311 273
-0.010197386 0.727 -0.042064216 9.3920474e-39 312 273
-0.0088981669 0.72500002 -0.041948501 6.1652004e-39 313 273
-0.0076059597 0.72299999 -0.041832779 6.0715712e-39 314 273
-0.0063120001 0.72000003 -0.041659199 6.3481595e-39 315 273
-0.0050285598 0.71700001 -0.041485619 5.8882505e-39 316 273
-0.00376616 0.71600002 -0.041427758 5.3354355e-39 317 273
-0.0025037599 0.71399999 -0.041312039 4.5957209e-39 318 273
-0.0012501266 0.713 -0.041254178 3.9503613e-39 319 273
0 0.71100003 -0.041138459 3.0305714e-39 320 273
0.0012448666 0.70999998 -0.041080594 3.2142424e-39 321 273
0.00248272 0.708 -0.040964879 3.1227768e-39 322 273
0.0037188199 0.70700002 -0.040907022 3.2149724e-39 323 273
0.0049514128 0.70599997 -0.040849157 3.4908391e-39 324 273
0.0061892662 0.70599997 -0.040849157 3.4908391e-39 325 273
0.0074060797 0.704 -0.040733438 3.8571035e-39 326 273
0.0086404262 0.704 -0.040733438 3.9489403e-39 327 273
0.0098607466 0.70300001 -0.040675577 3.4901202e-39 328 273
0.01109334 0.70300001 -0.040675577 3.6741513e-39 329 273
0.012290866 0.70099998 -0.040559858 3.6737954e-39 330 273
0.013519952 0.70099998 -0.040559858 3.6737954e-39 331 273
0.014727999 0.69999999 -0.040502001 3.8574734e-39 332 273
0.015955333 0.69999999 -0.040502001 3.949669e-39 333 273
0.017182667 0.69999999 -0.040502001 3.8581895e-39 334 273
0.018409999 0.69999999 -0.040502001 3.8581895e-39 335 273
0.019637333 0.69999999 -0.040502001 3.8578209e-39 336 273
0.020805053 0.69800001 -0.040386278 3.8578209e-39 337 273
0.02202888 0.69800001 -0.040386278 3.857451e-39 338 273
0.023252707 0.69800001 -0.040386278 3.5815844e-39 339 273
0.024476532 0.69800001 -0.040386278 4.0407618e-39 340 273
0.025700359 0.69800001 -0.040386278 4.0407618e-39 341 273
0.026924185 0.69800001 -0.040386278 4.0407618e-39 342 273
0.028148014 0.69800001 -0.040386278 4.224437e-39 343 273
0.029371841 0.69800001 -0.040386278 4.5917818e-39 344 273
0.030595668 0.69800001 -0.040386278 4.6836187e-39 345 273
0.031819493 0.69800001 -0.040386278 4.7754528e-39 346 273
0.033043321 0.69800001 -0.040386278 4.7754528e-39 347 273
0.034267146 0.69800001 -0.040386278 4.9591224e-39 348 273
0.035490975 0.69800001 -0.040386278 4.9591224e-39 349 273
0.0367148 0.69800001 -0.040386278 4.8672827e-39 350 273
0.038047329 0.69999999 -0.040502001 4.8672827e-39 351 273
0.039274666 0.69999999 -0.040502001 4.86764e-39 352 273
0.040502001 0.69999999 -0.040502001 4.9598343e-39 353 273
0.041729331 0.69999999 -0.040502001 4.9598343e-39 354 273
0.042956665 0.69999999 -0.040502001 5.0520285e-39 355 273
0.044183996 0.69999999 -0.040502001 5.6956e-39 356 273
0.045476202 0.70099998 -0.040559858 5.7877957e-39 357 273
0.046838548 0.70300001 -0.040675577 6.7972616e-39 358 273
0.048071139 0.70300001 -0.040675577 6.9820102e-39 359 273
0.049373865 0.704 -0.040733438 6.983085e-39 360 273
0.050608214 0.704 -0.040733438 6.983085e-39 361 273
0.051842559 0.704 -0.040733438 6.9834438e-39 362 273
0.053227689 0.70599997 -0.040849157 6.4302784e-39 363 273
0.054465543 0.70599997 -0.040849157 5.3264588e-39 364 273
0.055782299 0.70700002 -0.040907022 5.6945182e-39 365 273
0.057263866 0.70999998 -0.041080594 5.5119374e-39 366 273
0.058591139 0.71100003 -0.041138459 5.5119374e-39 367 273
0.060090236 0.71399999 -0.041312039 4.4134988e-39 368 273
0.061599858 0.71700001 -0.041485619 6.6258352e-39 369 273
0.062856995 0.71700001 -0.041485619 1.0775695e-38 370 273
0.064114138 0.71700001 -0.041485619 1.3264977e-38 371 273
-0.010197386 0.727 -0.043338891 9.7622691e-39 312 274
-0.0089227129 0.727 -0.043338891 5.797857e-39 313 274
-0.0076059597 0.72299999 -0.043100435 5.8871842e-39 314 274
-0.0063295332 0.722 -0.043040827 6.4403579e-39 315 274
-0.0050425865 0.71899998 -0.042861983 5.7049537e-39 316 274
-0.00376616 0.71600002 -0.042683143 5.0595843e-39 317 274
-0.0025037599 0.71399999 -0.042563915 4.4142149e-39 318 274
-0.0012501266 0.713 -0.042504307 3.49226e-39 319 274
0 0.71100003 -0.042385083 3.1224069e-39 320 274
0.0012448666 0.70999998 -0.042325463 2.8469004e-39 321 274
0.00248272 0.708 -0.042206239 3.2142466e-39 322 274
0.00372408 0.708 -0.042206239 3.3060835e-39 323 274
0.0049584266 0.70700002 -0.042146627 3.5815872e-39 324 274
0.0061892662 0.70599997 -0.042087011 3.7659784e-39 325 274
0.0074060797 0.704 -0.041967787 3.5815872e-39 326 274
0.0086404262 0.704 -0.041967787 3.5815872e-39 327 274
0.0098607466 0.70300001 -0.041908171 3.4904705e-39 328 274
0.01109334 0.70300001 -0.041908171 3.6745016e-39 329 274
0.012290866 0.70099998 -0.041788943 3.5815872e-39 330 274
0.013519952 0.70099998 -0.041788943 3.6737828e-39 331 274
0.014749039 0.70099998 -0.041788943 3.6734283e-39 332 274
0.015955333 0.69999999 -0.041729331 4.0414919e-39 333 274
0.017182667 0.69999999 -0.041729331 3.9503753e-39 334 274
0.018409999 0.69999999 -0.041729331 3.8578209e-39 335 274
0.019581227 0.69800001 -0.041610107 3.8581768e-39 336 274
0.020805053 0.69800001 -0.041610107 3.6737856e-39 337 274
0.02202888 0.69800001 -0.041610107 3.7652553e-39 338 274
0.023252707 0.69800001 -0.041610107 3.8570908e-39 339 274
0.024476532 0.69800001 -0.041610107 3.7652553e-39 340 274
0.025700359 0.69800001 -0.041610107 3.7652553e-39 341 274
0.026924185 0.69800001 -0.041610107 3.9489263e-39 342 274
0.028148014 0.69800001 -0.041610107 4.0407618e-39 343 274
0.029371841 0.69800001 -0.041610107 4.4081038e-39 344 274
0.030595668 0.69800001 -0.041610107 4.4081038e-39 345 274
0.031910665 0.69999999 -0.041729331 4.5917748e-39 346 274
0.033043321 0.69800001 -0.041610107 4.8672827e-39 347 274
0.034267146 0.69800001 -0.041610107 4.5917748e-39 348 274
0.035490975 0.69800001 -0.041610107 4.6836103e-39 349 274
0.0367148 0.69800001 -0.041610107 4.6836103e-39 350 274
0.038047329 0.69999999 -0.041729331 4.7754458e-39 351 274
0.039274666 0.69999999 -0.041729331 4.6843278e-39 352 274
0.040502001 0.69999999 -0.041729331 4.5917748e-39 353 274
0.041729331 0.69999999 -0.041729331 4.8672827e-39 354 274
0.042956665 0.69999999 -0.041729331 5.3275434e-39 355 274
0.044247117 0.70099998 -0.041788943 6.1558579e-39 356 274
0.045476202 0.70099998 -0.041788943 6.5242817e-39 357 274
0.046838548 0.70300001 -0.041908171 6.9848899e-39 358 274
0.048071139 0.70300001 -0.041908171 7.2618369e-39 359 274
0.049373865 0.704 -0.041967787 7.0792407e-39 360 274
0.050608214 0.704 -0.041967787 7.5402189e-39 361 274
0.051989835 0.70599997 -0.042087011 7.1743258e-39 362 274
0.053227689 0.70599997 -0.042087011 7.7274996e-39 363 274
0.054542694 0.70700002 -0.042146627 7.725706e-39 364 274
0.055782299 0.70700002 -0.042146627 6.6189983e-39 365 274
0.057263866 0.70999998 -0.042325463 5.5137255e-39 366 274
0.058591139 0.71100003 -0.042385083 5.3296944e-39 367 274
0.060090236 0.71399999 -0.042563915 4.9627041e-39 368 274
0.061599858 0.71700001 -0.042742759 7.6363774e-39 369 274
0.062856995 0.71700001 -0.042742759 1.0868244e-38 370 274
0.064114138 0.71700001 -0.042742759 1.2896548e-38 371 274
-0.0075638802 0.71899998 -0.044122629 5.7027901e-39 314 275
-0.0050425865 0.71899998 -0.044122629 5.9808161e-39 316 275
-0.00376616 0.71600002 -0.043938532 5.4280011e-39 317 275
-0.0025037599 0.71399999 -0.043815799 4.7819072e-39 318 275
-0.0012501266 0.713 -0.043754432 4.1365434e-39 319 275
0 0.71100003 -0.043631699 3.1227656e-39 320 275
0.0012448666 0.70999998 -0.043570329 2.9387359e-39 321 275
0.00248272 0.708 -0.043447599 2.9387387e-39 322 275
0.00372408 0.708 -0.043447599 3.0305756e-39 323 275
0.0049584266 0.70700002 -0.043386232 3.1224125e-39 324 275
0.0061892662 0.70599997 -0.043324865 3.1224125e-39 325 275
0.0074060797 0.704 -0.043202132 3.1224097e-39 326 275
0.0086404262 0.704 -0.043202132 3.3064422e-39 327 275
0.0098607466 0.70300001 -0.043140765 3.2153256e-39 328 275
0.01109334 0.70300001 -0.043140765 3.2153256e-39 329 275
0.012325933 0.70300001 -0.043140765 3.306445e-39 330 275
0.013519952 0.70099998 -0.043018032 3.3986406e-39 331 275
0.014749039 0.70099998 -0.043018032 3.3979218e-39 332 275
0.015955333 0.69999999 -0.042956665 3.6741485e-39 333 275
0.017182667 0.69999999 -0.042956665 3.5830319e-39 334 275
0.018409999 0.69999999 -0.042956665 3.3986406e-39 335 275
0.019581227 0.69800001 -0.042833932 3.4901146e-39 336 275
0.020805053 0.69800001 -0.042833932 3.4901146e-39 337 275
0.02202888 0.69800001 -0.042833932 3.3060779e-39 338 275
0.023252707 0.69800001 -0.042833932 3.3060779e-39 339 275
0.024476532 0.69800001 -0.042833932 3.4897489e-39 340 275
0.025700359 0.69800001 -0.042833932 3.2142424e-39 341 275
0.026924185 0.69800001 -0.042833932 3.7652553e-39 342 275
0.028148014 0.69800001 -0.042833932 3.7652553e-39 343 275
0.029455997 0.69999999 -0.042956665 4.0407618e-39 344 275
0.030683333 0.69999999 -0.042956665 4.2244328e-39 345 275
0.031910665 0.69999999 -0.042956665 4.0407618e-39 346 275
0.033137999 0.69999999 -0.042956665 4.0407618e-39 347 275
0.034365334 0.69999999 -0.042956665 3.8570908e-39 348 275
0.035490975 0.69800001 -0.042833932 3.9489277e-39 349 275
0.0367148 0.69800001 -0.042833932 3.9496466e-39 350 275
0.038047329 0.69999999 -0.042956665 4.0418422e-39 351 275
0.039274666 0.69999999 -0.042956665 4.3166313e-39 352 275
0.040502001 0.69999999 -0.042956665 4.5013812e-39 353 275
0.041729331 0.69999999 -0.042956665 5.6055694e-39 354 275
0.043018032 0.70099998 -0.043018032 6.2509374e-39 355 275
0.044247117 0.70099998 -0.043018032 7.0788876e-39 356 275
0.04560595 0.70300001 -0.043140765 7.4476701e-39 357 275
0.046838548 0.70300001 -0.043140765 8.0008243e-39 358 275
0.048139516 0.704 -0.043202132 8.1852155e-39 359 275
0.049373865 0.704 -0.043202132 7.8207462e-39 360 275
0.050608214 0.704 -0.043202132 8.1898889e-39 361 275
0.051989835 0.70599997 -0.043324865 7.8240084e-39 362 275
0.053227689 0.70599997 -0.043324865 8.3771822e-39 363 275
0.054542694 0.70700002 -0.043386232 9.1143969e-39 364 275
0.055782299 0.70700002 -0.043386232 7.2704843e-39 365 275
0.057263866 0.70999998 -0.043570329 5.3329342e-39 366 275
0.058591139 0.71100003 -0.043631699 4.3187837e-39 367 275
0.060090236 0.71399999 -0.043815799 4.9645048e-39 368 275
0.061599858 0.71700001 -0.043999899 7.6381795e-39 369 275
0.062856995 0.71700001 -0.043999899 1.0960798e-38 370 275
0.064114138 0.71700001 -0.043999899 1.2804352e-38 371 275
-0.0050636264 0.722 -0.045572639 5.8896995e-39 316 276
-0.00376616 0.71600002 -0.045193922 5.3368844e-39 317 276
-0.0025037599 0.71399999 -0.045067675 4.6915094e-39 318 276
-0.0012501266 0.713 -0.045004558 3.9539486e-39 319 276
0 0.71100003 -0.044878319 3.4915425e-39 320 276
0.0012448666 0.70999998 -0.044815198 3.0309301e-39 321 276
0.0024897333 0.70999998 -0.044815198 3.1224069e-39 322 276
0.00372408 0.708 -0.044688959 3.2142424e-39 323 276
0.0049584266 0.70700002 -0.044625837 3.2142438e-39 324 276
0.0061892662 0.70599997 -0.044562716 3.2142438e-39 325 276
0.0074060797 0.704 -0.044436477 3.0305756e-39 326 276
0.0086404262 0.704 -0.044436477 3.1224125e-39 327 276
0.0098607466 0.70300001 -0.04437336 2.9398177e-39 328 276
0.01109334 0.70300001 -0.04437336 2.9398177e-39 329 276
0.012325933 0.70300001 -0.04437336 3.1224097e-39 330 276
0.013519952 0.70099998 -0.044247117 3.3064422e-39 331 276
0.014749039 0.70099998 -0.044247117 3.306445e-39 332 276
0.015955333 0.69999999 -0.044183996 3.4908363e-39 333 276
0.017182667 0.69999999 -0.044183996 3.4908335e-39 334 276
0.018409999 0.69999999 -0.044183996 3.4908335e-39 335 276
0.019637333 0.69999999 -0.044183996 3.6737828e-39 336 276
0.020805053 0.69800001 -0.04405776 3.4897489e-39 337 276
0.02202888 0.69800001 -0.04405776 3.1224069e-39 338 276
0.023252707 0.69800001 -0.04405776 3.1224069e-39 339 276
0.024546666 0.69999999 -0.044183996 3.4897489e-39 340 276
0.025773998 0.69999999 -0.044183996 3.3060779e-39 341 276
0.027001332 0.69999999 -0.044183996 3.6734198e-39 342 276
0.028228667 0.69999999 -0.044183996 3.7652553e-39 343 276
0.029455997 0.69999999 -0.044183996 3.7652553e-39 344 276
0.030683333 0.69999999 -0.044183996 3.7652553e-39 345 276
0.031910665 0.69999999 -0.044183996 3.8570908e-39 346 276
0.033137999 0.69999999 -0.044183996 3.8570908e-39 347 276
0.034365334 0.69999999 -0.044183996 3.7652553e-39 348 276
0.035592664 0.69999999 -0.044183996 3.8570908e-39 349 276
0.036819998 0.69999999 -0.044183996 3.9489305e-39 350 276
0.038047329 0.69999999 -0.044183996 3.9489305e-39 351 276
0.039274666 0.69999999 -0.044183996 4.4999463e-39 352 276
0.040502001 0.69999999 -0.044183996 5.1453157e-39 353 276
0.041788943 0.70099998 -0.044247117 6.3449351e-39 354 276
0.043018032 0.70099998 -0.044247117 7.5434783e-39 355 276
0.044247117 0.70099998 -0.044247117 7.5459796e-39 356 276
0.04560595 0.70300001 -0.04437336 7.8225665e-39 357 276
0.046838548 0.70300001 -0.04437336 8.0073053e-39 358 276
0.048139516 0.704 -0.044436477 8.1920553e-39 359 276
0.049373865 0.704 -0.044436477 7.6432171e-39 360 276
0.050751984 0.70599997 -0.044562716 8.2885865e-39 361 276
0.051989835 0.70599997 -0.044562716 8.2896809e-39 362 276
0.053227689 0.70599997 -0.044562716 8.4737135e-39 363 276
0.054542694 0.70700002 -0.044625837 8.9343245e-39 364 276
0.055782299 0.70700002 -0.044625837 7.5510313e-39 365 276
0.057263866 0.70999998 -0.044815198 5.9808161e-39 366 276
0.058591139 0.71100003 -0.044878319 3.399707e-39 367 276
0.060090236 0.71399999 -0.045067675 4.7797506e-39 368 276
0.061599858 0.71700001 -0.045257039 8.46721e-39 369 276
0.062856995 0.71700001 -0.045257039 1.123667e-38 370 276
0.064114138 0.71700001 -0.045257039 1.3080582e-38 371 276
-0.00376616 0.71600002 -0.046449307 5.6131112e-39 317 277
-0.0025037599 0.71399999 -0.046319555 5.0602905e-39 318 277
-0.0012501266 0.713 -0.046254687 4.4149211e-39 319 277
0 0.71100003 -0.046124939 3.7684839e-39 320 277
0.0012448666 0.70999998 -0.046060063 3.399707e-39 321 277
0.0024897333 0.70999998 -0.046060063 3.0305714e-39 322 277
0.00372408 0.708 -0.045930319 3.0305714e-39 323 277
0.0049584266 0.70700002 -0.045865446 3.2142438e-39 324 277
0.0061892662 0.70599997 -0.04580057 3.1224069e-39 325 277
0.0074271196 0.70599997 -0.04580057 3.1224097e-39 326 277
0.0086404262 0.704 -0.045670826 3.2142466e-39 327 277
0.0098747732 0.704 -0.045670826 3.030577e-39 328 277
0.01109334 0.70300001 -0.04560595 3.030577e-39 329 277
0.012325933 0.70300001 -0.04560595 3.3060835e-39 330 277
0.013558527 0.70300001 -0.04560595 3.3979218e-39 331 277
0.014791119 0.70300001 -0.04560595 3.1238488e-39 332 277
0.015978126 0.70099998 -0.045476202 3.1238488e-39 333 277
0.017207211 0.70099998 -0.045476202 3.123846e-39 334 277
0.018409999 0.69999999 -0.04541133 3.123846e-39 335 277
0.019637333 0.69999999 -0.04541133 3.3064422e-39 336 277
0.020864666 0.69999999 -0.04541133 3.3064422e-39 337 277
0.022091998 0.69999999 -0.04541133 3.3060807e-39 338 277
0.023252707 0.69800001 -0.045281585 3.2142438e-39 339 277
0.024476532 0.69800001 -0.045281585 3.2142424e-39 340 277
0.025773998 0.69999999 -0.04541133 3.1224069e-39 341 277
0.027001332 0.69999999 -0.04541133 3.3979134e-39 342 277
0.028228667 0.69999999 -0.04541133 3.5815844e-39 343 277
0.029455997 0.69999999 -0.04541133 3.7652553e-39 344 277
0.030683333 0.69999999 -0.04541133 3.7652553e-39 345 277
0.031910665 0.69999999 -0.04541133 3.4897489e-39 346 277
0.033137999 0.69999999 -0.04541133 3.4897489e-39 347 277
0.034365334 0.69999999 -0.04541133 3.4897489e-39 348 277
0.035592664 0.69999999 -0.04541133 3.5815844e-39 349 277
0.036819998 0.69999999 -0.04541133 3.9489333e-39 350 277
0.038047329 0.69999999 -0.04541133 4.0407702e-39 351 277
0.039274666 0.69999999 -0.04541133 4.7815723e-39 352 277
0.040502001 0.69999999 -0.04541133 6.7176805e-39 353 277
0.041788943 0.70099998 -0.045476202 7.2737269e-39 354 277
0.043018032 0.70099998 -0.045476202 8.011292e-39 355 277
0.04437336 0.70300001 -0.04560595 7.9194467e-39 356 277
0.04560595 0.70300001 -0.04560595 7.7354156e-39 357 277
0.046838548 0.70300001 -0.04560595 7.7357659e-39 358 277
0.048139516 0.704 -0.045670826 8.0119926e-39 359 277
0.049373865 0.704 -0.045670826 7.8301293e-39 360 277
0.050751984 0.70599997 -0.04580057 8.1985517e-39 361 277
0.051989835 0.70599997 -0.04580057 8.0148891e-39 362 277
0.053227689 0.70599997 -0.04580057 7.9226935e-39 363 277
0.054542694 0.70700002 -0.045865446 7.8308608e-39 364 277
0.055861197 0.708 -0.045930319 7.0014603e-39 365 277
0.057263866 0.70999998 -0.046060063 6.1677311e-39 366 277
0.058591139 0.71100003 -0.046124939 2.848694e-39 367 277
0.060090236 0.71399999 -0.046319555 4.8726623e-39 368 277
0.061513945 0.71600002 -0.046449307 8.8370716e-39 369 277
0.062769331 0.71600002 -0.046449307 1.1604733e-38 370 277
0.064024724 0.71600002 -0.046449307 1.3172058e-38 371 277
-0.0037977197 0.722 -0.048104454 5.9800986e-39 317 278
-0.0025037599 0.71399999 -0.047571439 5.4276325e-39 318 278
-0.0012501266 0.713 -0.047504812 4.9662942e-39 319 278
0 0.71100003 -0.047371563 4.3209318e-39 320 278
0.0012448666 0.70999998 -0.047304932 3.9525137e-39 321 278
0.0024897333 0.70999998 -0.047304932 3.674496e-39 322 278
0.00372408 0.708 -0.047171678 3.4901076e-39 323 278
0.0049584266 0.70700002 -0.047105055 3.3060779e-39 324 278
0.0061892662 0.70599997 -0.047038425 3.1224069e-39 325 278
0.0074271196 0.70599997 -0.047038425 3.1224069e-39 326 278
0.0086404262 0.704 -0.046905171 3.2142438e-39 327 278
0.0098747732 0.704 -0.046905171 2.9387359e-39 328 278
0.011109119 0.704 -0.046905171 3.0309301e-39 329 278
0.012343466 0.704 -0.046905171 3.3060807e-39 330 278
0.013558527 0.70300001 -0.046838548 3.397919e-39 331 278
0.014791119 0.70300001 -0.046838548 3.3064422e-39 332 278
0.016023712 0.70300001 -0.046838548 3.3986378e-39 333 278
0.017256306 0.70300001 -0.046838548 3.2153256e-39 334 278
0.018436298 0.70099998 -0.046705291 3.2153256e-39 335 278
0.019665385 0.70099998 -0.046705291 3.2153256e-39 336 278
0.020864666 0.69999999 -0.046638668 3.1231299e-39 337 278
0.022091998 0.69999999 -0.046638668 3.3064422e-39 338 278
0.023252707 0.69800001 -0.046505414 3.1224097e-39 339 278
0.024476532 0.69800001 -0.046505414 3.2142424e-39 340 278
0.025773998 0.69999999 -0.046638668 3.1224069e-39 341 278
0.027001332 0.69999999 -0.046638668 3.3060779e-39 342 278
0.028228667 0.69999999 -0.046638668 3.3060779e-39 343 278
0.029455997 0.69999999 -0.046638668 3.3979134e-39 344 278
0.030683333 0.69999999 -0.046638668 3.3979134e-39 345 278
0.031910665 0.69999999 -0.046638668 3.2142424e-39 346 278
0.033137999 0.69999999 -0.046638668 3.3060793e-39 347 278
0.034365334 0.69999999 -0.046638668 3.3060821e-39 348 278
0.035592664 0.69999999 -0.046638668 3.3060821e-39 349 278
0.036819998 0.69999999 -0.046638668 3.3060863e-39 350 278
0.038047329 0.69999999 -0.046638668 4.780859e-39 351 278
0.039274666 0.69999999 -0.046638668 5.9844217e-39 352 278
0.040502001 0.69999999 -0.046638668 7.9201712e-39 353 278
0.041788943 0.70099998 -0.046705291 7.9248403e-39 354 278
0.043140765 0.70300001 -0.046838548 7.648252e-39 355 278
0.04437336 0.70300001 -0.046838548 7.0043315e-39 356 278
0.04560595 0.70300001 -0.046838548 6.8199389e-39 357 278
0.046905171 0.704 -0.046905171 6.8199389e-39 358 278
0.048139516 0.704 -0.046905171 7.0965271e-39 359 278
0.04951413 0.70599997 -0.047038425 7.0961768e-39 360 278
0.050751984 0.70599997 -0.047038425 6.9117856e-39 361 278
0.05206348 0.70700002 -0.047105055 6.4511732e-39 362 278
0.053303085 0.70700002 -0.047105055 6.5433688e-39 363 278
0.054619838 0.708 -0.047171678 6.9099835e-39 364 278
0.055861197 0.708 -0.047171678 6.4490053e-39 365 278
0.057344519 0.71100003 -0.047371563 6.3524909e-39 366 278
0.058755953 0.713 -0.047504812 3.4025909e-39 367 278
0.060090236 0.71399999 -0.047571439 5.4247739e-39 368 278
0.061513945 0.71600002 -0.047704693 9.389186e-39 369 278
0.062769331 0.71600002 -0.047704693 1.1696212e-38 370 278
0.064024724 0.71600002 -0.047704693 1.3079147e-38 371 278
-0.0037819401 0.71899998 -0.049165215 6.1634137e-39 317 279
-0.0025037599 0.71399999 -0.048823316 5.3372474e-39 318 279
-0.0012501266 0.713 -0.048754938 4.691878e-39 319 279
0 0.71100003 -0.048618179 4.414568e-39 320 279
0.00124662 0.71100003 -0.048618179 3.7692014e-39 321 279
0.0024897333 0.70999998 -0.048549797 3.5837381e-39 322 279
0.0037345996 0.70999998 -0.048549797 3.4915425e-39 323 279
0.0049654399 0.708 -0.048413038 3.3067953e-39 324 279
0.0061980332 0.70700002 -0.048344657 3.3067953e-39 325 279
0.0074271196 0.70599997 -0.048276275 3.1224069e-39 326 279
0.0086404262 0.704 -0.048139516 3.3060779e-39 327 279
0.0098747732 0.704 -0.048139516 3.0309301e-39 328 279
0.011109119 0.704 -0.048139516 3.0309301e-39 329 279
0.012343466 0.704 -0.048139516 3.3064394e-39 330 279
0.013577812 0.704 -0.048139516 3.3064394e-39 331 279
0.014791119 0.70300001 -0.048071139 3.1224097e-39 332 279
0.016023712 0.70300001 -0.048071139 3.1224097e-39 333 279
0.017256306 0.70300001 -0.048071139 3.1224125e-39 334 279
0.018488899 0.70300001 -0.048071139 3.1224125e-39 335 279
0.019665385 0.70099998 -0.047934376 3.1224125e-39 336 279
0.020864666 0.69999999 -0.047865998 3.0305756e-39 337 279
0.022091998 0.69999999 -0.047865998 3.0305756e-39 338 279
0.023319334 0.69999999 -0.047865998 3.1224125e-39 339 279
0.024546666 0.69999999 -0.047865998 3.0305728e-39 340 279
0.025773998 0.69999999 -0.047865998 2.8469004e-39 341 279
0.027001332 0.69999999 -0.047865998 3.2142424e-39 342 279
0.028228667 0.69999999 -0.047865998 3.3060779e-39 343 279
0.029455997 0.69999999 -0.047865998 3.4897489e-39 344 279
0.030683333 0.69999999 -0.047865998 3.5815858e-39 345 279
0.031910665 0.69999999 -0.047865998 3.2142424e-39 346 279
0.033137999 0.69999999 -0.047865998 3.2142424e-39 347 279
0.034365334 0.69999999 -0.047865998 3.2142424e-39 348 279
0.035592664 0.69999999 -0.047865998 3.0305714e-39 349 279
0.036819998 0.69999999 -0.047865998 2.5713939e-39 350 279
0.038047329 0.69999999 -0.047865998 6.4400174e-39 351 279
0.039274666 0.69999999 -0.047865998 8.107089e-39 352 279
0.040559858 0.70099998 -0.047934376 8.6602613e-39 353 279
0.041788943 0.70099998 -0.047934376 7.0046973e-39 354 279
0.043140765 0.70300001 -0.048071139 6.5437191e-39 355 279
0.04437336 0.70300001 -0.048071139 6.5419268e-39 356 279
0.045670826 0.704 -0.048139516 6.6341225e-39 357 279
0.046905171 0.704 -0.048139516 6.7263181e-39 358 279
0.048139516 0.704 -0.048139516 6.4493725e-39 359 279
0.04951413 0.70599997 -0.048276275 6.3557405e-39 360 279
0.050751984 0.70599997 -0.048276275 5.0650017e-39 361 279
0.05206348 0.70700002 -0.048344657 5.0675226e-39 362 279
0.053378478 0.708 -0.048413038 6.0813144e-39 363 279
0.054774132 0.70999998 -0.048549797 6.2660602e-39 364 279
0.056018997 0.70999998 -0.048549797 6.2660602e-39 365 279
0.057344519 0.71100003 -0.048618179 6.349977e-39 366 279
0.058755953 0.713 -0.048754938 4.5060644e-39 367 279
0.06025856 0.71600002 -0.048960082 6.0704992e-39 368 279
0.061599858 0.71700001 -0.04902846 9.9427157e-39 369 279
0.062856995 0.71700001 -0.04902846 1.1788408e-38 370 279
0.064114138 0.71700001 -0.04902846 1.2986951e-38 371 279
-0.0037819401 0.71899998 -0.050425861 6.3488756e-39 317 280
-0.0025107733 0.71600002 -0.050215468 5.7960549e-39 318 280
-0.0012501266 0.713 -0.050005067 5.2432399e-39 319 280
0 0.713 -0.050005067 4.5978733e-39 320 280
0.00124662 0.71100003 -0.049864799 4.3209318e-39 321 280
0.0024897333 0.70999998 -0.049794663 3.9528724e-39 322 280
0.0037345996 0.70999998 -0.049794663 3.7688427e-39 323 280
0.0049654399 0.708 -0.049654398 3.6748548e-39 324 280
0.0061980332 0.70700002 -0.049584266 3.3986308e-39 325 280
0.0074376399 0.70700002 -0.049584266 3.3982721e-39 326 280
0.0086649731 0.70599997 -0.04951413 3.3060779e-39 327 280
0.0098747732 0.704 -0.049373865 3.1224097e-39 328 280
0.011109119 0.704 -0.049373865 3.3064422e-39 329 280
0.012343466 0.704 -0.049373865 3.1231299e-39 330 280
0.013577812 0.704 -0.049373865 3.1231299e-39 331 280
0.014791119 0.70300001 -0.049303733 2.9387401e-39 332 280
0.016023712 0.70300001 -0.049303733 2.9387401e-39 333 280
0.017256306 0.70300001 -0.049303733 3.2142494e-39 334 280
0.018488899 0.70300001 -0.049303733 3.2142494e-39 335 280
0.019665385 0.70099998 -0.049163464 3.2142494e-39 336 280
0.020864666 0.69999999 -0.049093332 3.2142494e-39 337 280
0.022091998 0.69999999 -0.049093332 2.9387401e-39 338 280
0.023319334 0.69999999 -0.049093332 2.5713939e-39 339 280
0.024546666 0.69999999 -0.049093332 3.0305742e-39 340 280
0.025773998 0.69999999 -0.049093332 2.9387373e-39 341 280
0.027001332 0.69999999 -0.049093332 2.9387401e-39 342 280
0.028228667 0.69999999 -0.049093332 2.9387401e-39 343 280
0.029455997 0.69999999 -0.049093332 3.0305756e-39 344 280
0.030683333 0.69999999 -0.049093332 3.214248e-39 345 280
0.031910665 0.69999999 -0.049093332 3.0305756e-39 346 280
0.033137999 0.69999999 -0.049093332 3.0305756e-39 347 280
0.034365334 0.69999999 -0.049093332 2.8469004e-39 348 280
0.035592664 0.69999999 -0.049093332 2.3877229e-39 349 280
0.036819998 0.69999999 -0.049093332 2.4795584e-39 350 280
0.038047329 0.69999999 -0.049093332 6.9931912e-39 351 280
0.039330769 0.70099998 -0.049163464 9.2152316e-39 352 280
0.040559858 0.70099998 -0.049163464 8.2929151e-39 353 280
0.041788943 0.70099998 -0.049163464 7.2791205e-39 354 280
