# .PCD v.7 - Point Cloud Data file format
FIELDS x y z rgb imX imY
SIZE 4 4 4 4 4 4
TYPE F F F F F F
COUNT 1 1 1 1 1 1
WIDTH 837
HEIGHT 1
VIEWPOINT 0 0 0 1 0 0 0
POINTS 837
DATA ascii
0.031819493 0.69800001 -0.050176892 8.4801833e-39 346 281
0.033043321 0.69800001 -0.050176892 8.6645759e-39 347 281
0.034267146 0.69800001 -0.050176892 8.8489308e-39 348 281
0.035490975 0.69800001 -0.050176892 7.7422231e-39 349 281
0.0367148 0.69800001 -0.050176892 6.5454371e-39 350 281
0.037938625 0.69800001 -0.050176892 6.5454371e-39 351 281
0.039274666 0.69999999 -0.050320663 6.4550309e-39 352 281
0.040502001 0.69999999 -0.050320663 6.4550309e-39 353 281
0.041788943 0.70099998 -0.050392549 6.6383432e-39 354 281
0.043140765 0.70300001 -0.050536323 6.546149e-39 355 281
0.044436477 0.704 -0.050608214 6.453596e-39 356 281
0.045670826 0.704 -0.050608214 6.3614018e-39 357 281
0.046905171 0.704 -0.050608214 6.5439966e-39 358 281
0.048276275 0.70599997 -0.050751984 6.2674139e-39 359 281
0.04951413 0.70599997 -0.050751984 5.9919074e-39 360 281
0.050823875 0.70700002 -0.050823875 5.9919074e-39 361 281
0.052137118 0.708 -0.050895758 6.1755798e-39 362 281
0.053529263 0.70999998 -0.051039528 6.359971e-39 363 281
0.054851279 0.71100003 -0.051111419 6.5443651e-39 364 281
0.056097899 0.71100003 -0.051111419 6.820952e-39 365 281
0.057505824 0.713 -0.051255193 7.1875863e-39 366 281
0.059003171 0.71600002 -0.051470853 1.0045651e-38 367 281
0.060342718 0.71700001 -0.051542737 1.1883825e-38 368 281
-0.0164112 0.72000003 -0.053020801 1.280652e-38 307 282
-0.0151488 0.72000003 -0.053020801 1.0779638e-38 308 282
-0.013828539 0.71700001 -0.052799881 9.2126714e-39 309 282
-0.012553867 0.71600002 -0.052726239 8.1059357e-39 310 282
-0.01129848 0.71600002 -0.052726239 7.5527619e-39 311 282
-0.01001504 0.71399999 -0.052578956 5.9919074e-39 312 282
-0.0087508867 0.713 -0.052505318 5.7153247e-39 313 282
-0.0074797203 0.71100003 -0.052358042 5.2568647e-39 314 282
-0.0062243328 0.70999998 -0.052284397 5.2568647e-39 315 282
-0.0049654399 0.708 -0.052137118 5.1657467e-39 316 282
-0.0037188199 0.70700002 -0.05206348 5.8111161e-39 317 282
-0.0024757064 0.70599997 -0.051989835 7.0118425e-39 318 282
-0.0012378532 0.70599997 -0.051989835 8.5795269e-39 319 282
0 0.704 -0.051842559 9.4085855e-39 320 282
0.0012343467 0.704 -0.051842559 9.4085855e-39 321 282
0.0024651866 0.70300001 -0.051768921 9.3167402e-39 322 282
0.0036977797 0.70300001 -0.051768921 8.0260014e-39 323 282
0.0049163462 0.70099998 -0.051621638 8.0220189e-39 324 282
0.0061454331 0.70099998 -0.051621638 7.9298233e-39 325 282
0.0073745195 0.70099998 -0.051621638 7.6557321e-39 326 282
0.0085913334 0.69999999 -0.051547997 7.6557321e-39 327 282
0.0098186666 0.69999999 -0.051547997 7.8386814e-39 328 282
0.011045999 0.69999999 -0.051547997 7.8386814e-39 329 282
0.012273333 0.69999999 -0.051547997 7.6532336e-39 330 282
0.013500666 0.69999999 -0.051547997 8.3907986e-39 331 282
0.01468592 0.69800001 -0.051400717 9.9570874e-39 332 282
0.015909746 0.69800001 -0.051400717 1.0049283e-38 333 282
0.017133573 0.69800001 -0.051400717 9.7683997e-39 334 282
0.0183574 0.69800001 -0.051400717 9.4918115e-39 335 282
0.019581227 0.69800001 -0.051400717 8.9407929e-39 336 282
0.020775247 0.69700003 -0.051327083 8.8485972e-39 337 282
0.02199732 0.69700003 -0.051327083 8.4801805e-39 338 282
0.023219392 0.69700003 -0.051327083 8.0195624e-39 339 282
0.024441468 0.69700003 -0.051327083 8.1096057e-39 340 282
0.025700359 0.69800001 -0.051400717 8.0174101e-39 341 282
0.026924185 0.69800001 -0.051400717 7.9259277e-39 342 282
0.028107686 0.69700003 -0.051327083 7.7418966e-39 343 282
0.02932976 0.69700003 -0.051327083 7.4645894e-39 344 282
0.030595668 0.69800001 -0.051400717 7.0954481e-39 345 282
0.031819493 0.69800001 -0.051400717 7.5596689e-39 346 282
0.033043321 0.69800001 -0.051400717 7.5596689e-39 347 282
0.034267146 0.69800001 -0.051400717 8.5698327e-39 348 282
0.035490975 0.69800001 -0.051400717 7.8322677e-39 349 282
0.0367148 0.69800001 -0.051400717 6.8209492e-39 350 282
0.037938625 0.69800001 -0.051400717 6.6369167e-39 351 282
0.039274666 0.69999999 -0.051547997 6.2710012e-39 352 282
0.040502001 0.69999999 -0.051547997 6.0869715e-39 353 282
0.041729331 0.69999999 -0.051547997 6.1777308e-39 354 282
0.043140765 0.70300001 -0.051768921 6.0855366e-39 355 282
0.044436477 0.704 -0.051842559 6.1770147e-39 356 282
0.045670826 0.704 -0.051842559 5.9922661e-39 357 282
0.046905171 0.704 -0.051842559 5.9000719e-39 358 282
0.048276275 0.70599997 -0.051989835 5.8078777e-39 359 282
0.04951413 0.70599997 -0.051989835 5.8071602e-39 360 282
0.050823875 0.70700002 -0.05206348 5.8993544e-39 361 282
0.052137118 0.708 -0.052137118 5.8997146e-39 362 282
0.053529263 0.70999998 -0.052284397 6.084466e-39 363 282
0.054774132 0.70999998 -0.052284397 6.4521695e-39 364 282
0.056097899 0.71100003 -0.052358042 6.820952e-39 365 282
0.057586476 0.71399999 -0.052578956 7.279782e-39 366 282
0.059085581 0.71700001 -0.052799881 1.0230041e-38 367 282
0.060342718 0.71700001 -0.052799881 1.2160408e-38 368 282
-0.0151488 0.72000003 -0.054283202 1.0963667e-38 308 283
-0.013828539 0.71700001 -0.054057021 9.5807323e-39 309 283
-0.012553867 0.71600002 -0.053981625 7.6471253e-39 310 283
-0.01129848 0.71600002 -0.053981625 7.2779827e-39 311 283
-0.01001504 0.71399999 -0.053830836 6.3585319e-39 312 283
-0.0087508867 0.713 -0.053755447 6.0819492e-39 313 283
-0.0074797203 0.71100003 -0.053604662 5.440177e-39 314 283
-0.0062243328 0.70999998 -0.053529263 5.3479827e-39 315 283
-0.0049654399 0.708 -0.053378478 5.3487002e-39 316 283
-0.0037188199 0.70700002 -0.053303085 5.8093182e-39 317 283
-0.0024757064 0.70599997 -0.053227689 6.0909652e-39 318 283
-0.0012378532 0.70599997 -0.053227689 7.4738996e-39 319 283
0 0.704 -0.053076904 9.1316287e-39 320 283
0.0012343467 0.704 -0.053076904 9.1316287e-39 321 283
0.0024651866 0.70300001 -0.053001512 8.6699191e-39 322 283
0.0036977797 0.70300001 -0.053001512 8.0245497e-39 323 283
0.0049163462 0.70099998 -0.052850723 7.9301862e-39 324 283
0.0061454331 0.70099998 -0.052850723 7.9301862e-39 325 283
0.0073745195 0.70099998 -0.052850723 7.8404961e-39 326 283
0.0085913334 0.69999999 -0.052775331 7.9326918e-39 327 283
0.0098186666 0.69999999 -0.052775331 8.0230755e-39 328 283
0.011045999 0.69999999 -0.052775331 7.9308799e-39 329 283
0.012273333 0.69999999 -0.052775331 7.9287387e-39 330 283
0.013500666 0.69999999 -0.052775331 8.1134887e-39 331 283
0.01468592 0.69800001 -0.052624546 9.3124396e-39 332 283
0.015909746 0.69800001 -0.052624546 9.7737779e-39 333 283
0.017133573 0.69800001 -0.052624546 9.6780048e-39 334 283
0.0183574 0.69800001 -0.052624546 9.4014165e-39 335 283
0.019581227 0.69800001 -0.052624546 9.3088621e-39 336 283
0.020775247 0.69700003 -0.052549154 8.8482441e-39 337 283
0.02199732 0.69700003 -0.052549154 8.2025216e-39 338 283
0.023186078 0.69599998 -0.052473757 7.6493478e-39 339 283
0.0244064 0.69599998 -0.052473757 7.7415462e-39 340 283
0.025663542 0.69700003 -0.052549154 7.7415462e-39 341 283
0.026885614 0.69700003 -0.052549154 7.8344579e-39 342 283
0.028107686 0.69700003 -0.052549154 8.2954361e-39 343 283
0.02932976 0.69700003 -0.052549154 8.4805364e-39 344 283
0.030595668 0.69800001 -0.052624546 8.387982e-39 345 283
0.031819493 0.69800001 -0.052624546 7.8373194e-39 346 283
0.033043321 0.69800001 -0.052624546 7.5603724e-39 347 283
0.034267146 0.69800001 -0.052624546 7.7422203e-39 348 283
0.035490975 0.69800001 -0.052624546 7.1890479e-39 349 283
0.0367148 0.69800001 -0.052624546 6.6369167e-39 350 283
0.037938625 0.69800001 -0.052624546 6.6369167e-39 351 283
0.039274666 0.69999999 -0.052775331 6.2702837e-39 352 283
0.040502001 0.69999999 -0.052775331 6.1777308e-39 353 283
0.041729331 0.69999999 -0.052775331 6.0848191e-39 354 283
0.043140765 0.70300001 -0.053001512 5.9926249e-39 355 283
0.044436477 0.704 -0.053076904 5.9000719e-39 356 283
0.045670826 0.704 -0.053076904 5.8078777e-39 357 283
0.047038425 0.70599997 -0.053227689 5.8071602e-39 358 283
0.048276275 0.70599997 -0.053227689 5.714966e-39 359 283
0.049584266 0.70700002 -0.053303085 5.714966e-39 360 283
0.050823875 0.70700002 -0.053303085 5.8071602e-39 361 283
0.052137118 0.708 -0.053378478 5.9000719e-39 362 283
0.053529263 0.70999998 -0.053529263 6.0844632e-39 363 283
0.054774132 0.70999998 -0.053529263 6.5443679e-39 364 283
0.056097899 0.71100003 -0.053604662 6.9127917e-39 365 283
0.057747785 0.71600002 -0.053981625 7.6474911e-39 366 283
0.059332799 0.72000003 -0.054283202 1.0505557e-38 367 283
0.060595199 0.72000003 -0.054283202 1.2251885e-38 368 283
-0.013809253 0.71600002 -0.055237014 9.8562429e-39 309 284
-0.012553867 0.71600002 -0.055237014 7.8311593e-39 310 284
-0.01129848 0.71600002 -0.055237014 7.2779869e-39 311 284
-0.01001504 0.71399999 -0.05508272 6.4503716e-39 312 284
-0.0087263398 0.71100003 -0.054851279 6.0819492e-39 313 284
-0.0074691991 0.70999998 -0.054774132 5.347624e-39 314 284
-0.0062067998 0.708 -0.054619838 5.347624e-39 315 284
-0.0049584266 0.70700002 -0.054542694 5.2561472e-39 316 284
-0.0037188199 0.70700002 -0.054542694 5.6249255e-39 317 284
-0.0024757064 0.70599997 -0.054465543 5.9036872e-39 318 284
-0.0012378532 0.70599997 -0.054465543 6.6412523e-39 319 284
0 0.704 -0.054311249 7.471013e-39 320 284
0.0012343467 0.704 -0.054311249 7.7472397e-39 321 284
0.0024651866 0.70300001 -0.054234106 7.8379934e-39 322 284
0.0036977797 0.70300001 -0.054234106 7.7457978e-39 323 284
0.0049163462 0.70099998 -0.054079808 7.7450761e-39 324 284
0.0061454331 0.70099998 -0.054079808 7.9294674e-39 325 284
0.0073745195 0.70099998 -0.054079808 7.8404989e-39 326 284
0.0085913334 0.69999999 -0.054002665 7.9326946e-39 327 284
0.0098186666 0.69999999 -0.054002665 8.2067507e-39 328 284
0.011045999 0.69999999 -0.054002665 7.9305239e-39 329 284
0.012273333 0.69999999 -0.054002665 7.9280198e-39 330 284
0.013462093 0.69800001 -0.053848371 8.0205742e-39 331 284
0.01468592 0.69800001 -0.053848371 8.022054e-39 332 284
0.015909746 0.69800001 -0.053848371 8.9440103e-39 333 284
0.017133573 0.69800001 -0.053848371 1.0140781e-38 334 284
0.0183574 0.69800001 -0.053848371 9.7716381e-39 335 284
0.019581227 0.69800001 -0.053848371 9.6780076e-39 336 284
0.020775247 0.69700003 -0.053771228 9.2166693e-39 337 284
0.02199732 0.69700003 -0.053771228 8.570581e-39 338 284
0.023186078 0.69599998 -0.053694077 8.0174073e-39 339 284
0.0244064 0.69599998 -0.053694077 7.3738371e-39 340 284
0.025663542 0.69700003 -0.053771228 6.9124988e-39 341 284
0.026885614 0.69700003 -0.053771228 6.0852647e-39 342 284
0.028107686 0.69700003 -0.053771228 6.3614929e-39 343 284
0.02932976 0.69700003 -0.053771228 7.1919654e-39 344 284
0.030595668 0.69800001 -0.053848371 8.0217261e-39 345 284
0.031819493 0.69800001 -0.053848371 7.8358802e-39 346 284
0.033043321 0.69800001 -0.053848371 7.2830666e-39 347 284
0.034267146 0.69800001 -0.053848371 6.5458351e-39 348 284
0.035490975 0.69800001 -0.053848371 6.4532807e-39 349 284
0.0367148 0.69800001 -0.053848371 6.1763057e-39 350 284
0.037938625 0.69800001 -0.053848371 6.1763057e-39 351 284
0.039274666 0.69999999 -0.054002665 5.8089553e-39 352 284
0.040502001 0.69999999 -0.054002665 5.8089553e-39 353 284
0.041729331 0.69999999 -0.054002665 5.9000719e-39 354 284
0.043140765 0.70300001 -0.054234106 5.8078777e-39 355 284
0.044436477 0.704 -0.054311249 5.531295e-39 356 284
0.045670826 0.704 -0.054311249 5.4391008e-39 357 284
0.047038425 0.70599997 -0.054465543 5.622413e-39 358 284
0.048276275 0.70599997 -0.054465543 5.622413e-39 359 284
0.049584266 0.70700002 -0.054542694 5.6227717e-39 360 284
0.050823875 0.70700002 -0.054542694 5.8071602e-39 361 284
0.052137118 0.708 -0.054619838 5.8075189e-39 362 284
0.053529263 0.70999998 -0.054774132 5.9922703e-39 363 284
0.054774132 0.70999998 -0.054774132 6.4525352e-39 364 284
0.056097899 0.71100003 -0.054851279 6.8216779e-39 365 284
0.057747785 0.71600002 -0.055237014 8.015196e-39 366 284
0.059332799 0.72000003 -0.055545598 1.0781424e-38 367 284
-0.013809253 0.71600002 -0.056492399 1.0133183e-38 309 285
-0.012553867 0.71600002 -0.056492399 7.8304348e-39 310 285
-0.01129848 0.71600002 -0.056492399 7.3698154e-39 311 285
-0.01001504 0.71399999 -0.0563346 6.8187856e-39 312 285
-0.0087263398 0.71100003 -0.056097899 6.3578144e-39 313 285
-0.0074691991 0.70999998 -0.056018997 5.7153247e-39 314 285
-0.0062067998 0.708 -0.055861197 5.6227717e-39 315 285
-0.0049584266 0.70700002 -0.055782299 5.163953e-39 316 285
-0.0037188199 0.70700002 -0.055782299 5.3487002e-39 317 285
-0.0024757064 0.70599997 -0.055703394 5.6263717e-39 318 285
-0.0012378532 0.70599997 -0.055703394 6.0873498e-39 319 285
0 0.704 -0.055545598 6.6401565e-39 320 285
0.0012343467 0.704 -0.055545598 6.9167448e-39 321 285
0.0024651866 0.70300001 -0.0554667 7.1004256e-39 322 285
0.0036977797 0.70300001 -0.0554667 7.1926212e-39 323 285
0.0049163462 0.70099998 -0.055308893 7.0093117e-39 324 285
0.0061454331 0.70099998 -0.055308893 7.4699312e-39 325 285
0.0073745195 0.70099998 -0.055308893 7.4731569e-39 326 285
0.0085913334 0.69999999 -0.055229999 7.4731569e-39 327 285
0.0098186666 0.69999999 -0.055229999 8.2060374e-39 328 285
0.011045999 0.69999999 -0.055229999 7.9290918e-39 329 285
0.012238266 0.69800001 -0.0550722 8.1116908e-39 330 285
0.013462093 0.69800001 -0.0550722 8.2038864e-39 331 285
0.01468592 0.69800001 -0.0550722 7.3759629e-39 332 285
0.015909746 0.69800001 -0.0550722 8.0213323e-39 333 285
0.017133573 0.69800001 -0.0550722 9.9560308e-39 334 285
0.0183574 0.69800001 -0.0550722 1.06014e-38 335 285
0.019553173 0.69700003 -0.054993302 1.0415219e-38 336 285
0.020775247 0.69700003 -0.054993302 9.8616856e-39 337 285
0.02199732 0.69700003 -0.054993302 9.5840099e-39 338 285
0.023219392 0.69700003 -0.054993302 8.9386405e-39 339 285
0.024441468 0.69700003 -0.054993302 8.0195596e-39 340 285
0.025663542 0.69700003 -0.054993302 7.2819932e-39 341 285
0.026885614 0.69700003 -0.054993302 6.269649e-39 342 285
0.028107686 0.69700003 -0.054993302 6.0856178e-39 343 285
0.02932976 0.69700003 -0.054993302 6.8239031e-39 344 285
0.030551834 0.69700003 -0.054993302 8.2068376e-39 345 285
0.031819493 0.69800001 -0.0550722 7.9280801e-39 346 285
0.033043321 0.69800001 -0.0550722 6.9142869e-39 347 285
0.034267146 0.69800001 -0.0550722 5.8079113e-39 348 285
0.035490975 0.69800001 -0.0550722 5.9004657e-39 349 285
0.0367148 0.69800001 -0.0550722 5.808249e-39 350 285
0.038047329 0.69999999 -0.055229999 5.7160534e-39 351 285
0.039274666 0.69999999 -0.055229999 5.7164023e-39 352 285
0.040502001 0.69999999 -0.055229999 5.5320124e-39 353 285
0.041788943 0.70099998 -0.055308893 5.7146072e-39 354 285
0.043140765 0.70300001 -0.0554667 5.622413e-39 355 285
0.044436477 0.704 -0.055545598 5.3465478e-39 356 285
0.045670826 0.704 -0.055545598 5.2543536e-39 357 285
0.047038425 0.70599997 -0.055703394 5.3461891e-39 358 285
0.048276275 0.70599997 -0.055703394 5.5302188e-39 359 285
0.049654398 0.708 -0.055861197 5.622413e-39 360 285
0.050895758 0.708 -0.055861197 5.622413e-39 361 285
0.052137118 0.708 -0.055861197 5.7149702e-39 362 285
0.053604662 0.71100003 -0.056097899 5.9919172e-39 363 285
0.054851279 0.71100003 -0.056097899 6.4521849e-39 364 285
0.056255698 0.713 -0.056255698 7.0053587e-39 365 285
0.057828441 0.71700001 -0.056571297 7.1911989e-39 366 285
-0.012553867 0.71600002 -0.057747785 8.1981439e-39 310 286
-0.011266919 0.71399999 -0.057586476 7.921557e-39 311 286
-0.01001504 0.71399999 -0.057586476 6.7280361e-39 312 286
-0.0087263398 0.71100003 -0.057344519 6.359255e-39 313 286
-0.0074691991 0.70999998 -0.057263866 5.7156834e-39 314 286
-0.0062067998 0.708 -0.057102561 5.5316537e-39 315 286
-0.0049584266 0.70700002 -0.057021905 5.3479827e-39 316 286
-0.0037188199 0.70700002 -0.057021905 5.440177e-39 317 286
-0.0024757064 0.70599997 -0.056941248 5.6245654e-39 318 286
-0.0012378532 0.70599997 -0.056941248 5.8093126e-39 319 286
0 0.70599997 -0.056941248 6.5450728e-39 320 286
0.0012343467 0.704 -0.056779943 7.0060495e-39 321 286
0.0024651866 0.70300001 -0.056699295 6.8230974e-39 322 286
0.0036977797 0.70300001 -0.056699295 7.0078474e-39 323 286
0.0049163462 0.70099998 -0.056537982 7.1004073e-39 324 286
0.0061454331 0.70099998 -0.056537982 7.377353e-39 325 286
0.0073639993 0.69999999 -0.056457333 7.6553818e-39 326 286
0.0085913334 0.69999999 -0.056457333 7.6553818e-39 327 286
0.0098186666 0.69999999 -0.056457333 8.1131201e-39 328 286
0.011045999 0.69999999 -0.056457333 8.0209245e-39 329 286
0.012238266 0.69800001 -0.056296028 8.1120411e-39 330 286
0.013462093 0.69800001 -0.056296028 8.1120411e-39 331 286
0.01468592 0.69800001 -0.056296028 7.9273192e-39 332 286
0.015909746 0.69800001 -0.056296028 7.7429265e-39 333 286
0.017133573 0.69800001 -0.056296028 8.6656479e-39 334 286
0.0183574 0.69800001 -0.056296028 1.0048582e-38 335 286
0.019553173 0.69700003 -0.056215372 1.1059157e-38 336 286
0.020775247 0.69700003 -0.056215372 9.3074398e-39 337 286
0.02199732 0.69700003 -0.056215372 9.1205332e-39 338 286
0.023219392 0.69700003 -0.056215372 8.9357832e-39 339 286
0.024441468 0.69700003 -0.056215372 8.8493357e-39 340 286
0.025663542 0.69700003 -0.056215372 8.7571401e-39 341 286
0.026885614 0.69700003 -0.056215372 9.0330011e-39 342 286
0.028107686 0.69700003 -0.056215372 8.9408055e-39 343 286
0.02932976 0.69700003 -0.056215372 8.5752474e-39 344 286
0.030551834 0.69700003 -0.056215372 8.5752474e-39 345 286
0.031819493 0.69800001 -0.056296028 7.7465405e-39 346 286
0.033043321 0.69800001 -0.056296028 5.9948235e-39 347 286
0.034267146 0.69800001 -0.056296028 5.7146171e-39 348 286
0.035490975 0.69800001 -0.056296028 5.8071714e-39 349 286
0.0367148 0.69800001 -0.056296028 5.5320124e-39 350 286
0.038047329 0.69999999 -0.056457333 5.6242067e-39 351 286
0.039274666 0.69999999 -0.056457333 5.5320124e-39 352 286
0.040502001 0.69999999 -0.056457333 5.5320124e-39 353 286
0.041788943 0.70099998 -0.056537982 5.4391008e-39 354 286
0.043140765 0.70300001 -0.056699295 5.4391008e-39 355 286
0.044436477 0.704 -0.056779943 5.3469065e-39 356 286
0.045670826 0.704 -0.056779943 5.2547123e-39 357 286
0.047038425 0.70599997 -0.056941248 5.5305775e-39 358 286
0.048276275 0.70599997 -0.056941248 5.6227717e-39 359 286
0.049654398 0.708 -0.057102561 5.622413e-39 360 286
0.050895758 0.708 -0.057102561 5.7146072e-39 361 286
0.052137118 0.708 -0.057102561 5.9901151e-39 362 286
0.053604662 0.71100003 -0.057344519 6.3592578e-39 363 286
0.054851279 0.71100003 -0.057344519 6.9120756e-39 364 286
0.056255698 0.713 -0.057505824 7.1883024e-39 365 286
0.057505824 0.713 -0.057505824 8.4761756e-39 366 286
-0.012553867 0.71600002 -0.059003171 8.3832555e-39 310 287
-0.011266919 0.71399999 -0.058838356 7.922636e-39 311 287
-0.01001504 0.71399999 -0.058838356 7.5541982e-39 312 287
-0.0087263398 0.71100003 -0.058591139 6.9088288e-39 313 287
-0.0074691991 0.70999998 -0.058508728 6.1745022e-39 314 287
-0.0062067998 0.708 -0.058343921 5.9901137e-39 315 287
-0.0049584266 0.70700002 -0.05826151 5.2568647e-39 316 287
-0.0037188199 0.70700002 -0.05826151 5.2568647e-39 317 287
-0.0024757064 0.70599997 -0.058179103 5.2568647e-39 318 287
-0.0012378532 0.70599997 -0.058179103 5.4416133e-39 319 287
0 0.70599997 -0.058179103 5.6267276e-39 320 287
0.0012343467 0.704 -0.058014292 5.9033145e-39 321 287
0.0024686933 0.704 -0.058014292 6.4546876e-39 322 287
0.0036977797 0.70300001 -0.057931885 6.6394376e-39 323 287
0.0049163462 0.70099998 -0.057767071 6.7323493e-39 324 287
0.0061454331 0.70099998 -0.057767071 7.1933274e-39 325 287
0.0073639993 0.69999999 -0.05768466 7.1029269e-39 326 287
0.0085913334 0.69999999 -0.05768466 7.2873195e-39 327 287
0.0098186666 0.69999999 -0.05768466 7.7461327e-39 328 287
0.011045999 0.69999999 -0.05768466 7.6539371e-39 329 287
0.012238266 0.69800001 -0.057519849 8.0209217e-39 330 287
0.013462093 0.69800001 -0.057519849 7.9287261e-39 331 287
0.01468592 0.69800001 -0.057519849 7.6525133e-39 332 287
0.015909746 0.69800001 -0.057519849 7.6525133e-39 333 287
0.017133573 0.69800001 -0.057519849 7.8365893e-39 334 287
0.0183574 0.69800001 -0.057519849 9.496112e-39 335 287
0.019581227 0.69800001 -0.057519849 1.0878714e-38 336 287
0.020775247 0.69700003 -0.05743745 7.7440644e-39 337 287
0.02199732 0.69700003 -0.05743745 6.2592261e-39 338 287
0.023219392 0.69700003 -0.05743745 9.025095e-39 339 287
0.024441468 0.69700003 -0.05743745 9.9542371e-39 340 287
0.025663542 0.69700003 -0.05743745 9.585456e-39 341 287
0.026885614 0.69700003 -0.05743745 9.9538686e-39 342 287
0.028107686 0.69700003 -0.05743745 9.4928905e-39 343 287
0.02932976 0.69700003 -0.05743745 8.8496664e-39 344 287
0.030551834 0.69700003 -0.05743745 8.2964927e-39 345 287
0.031819493 0.69800001 -0.057519849 6.4539898e-39 346 287
0.033043321 0.69800001 -0.057519849 5.8086204e-39 347 287
0.034267146 0.69800001 -0.057519849 5.6249255e-39 348 287
0.035490975 0.69800001 -0.057519849 5.5327299e-39 349 287
0.036819998 0.69999999 -0.05768466 5.2568647e-39 350 287
0.038047329 0.69999999 -0.05768466 5.2568647e-39 351 287
0.039274666 0.69999999 -0.05768466 5.4398182e-39 352 287
0.040502001 0.69999999 -0.05768466 5.4398182e-39 353 287
0.041788943 0.70099998 -0.057767071 5.4398182e-39 354 287
0.043140765 0.70300001 -0.057931885 5.1635943e-39 355 287
0.044436477 0.704 -0.058014292 5.255071e-39 356 287
0.045670826 0.704 -0.058014292 5.255071e-39 357 287
0.047038425 0.70599997 -0.058179103 5.3472653e-39 358 287
0.048344657 0.70700002 -0.05826151 5.3472653e-39 359 287
0.049654398 0.708 -0.058343921 5.622413e-39 360 287
0.050895758 0.708 -0.058343921 5.7146072e-39 361 287
0.052284397 0.70999998 -0.058508728 5.8071658e-39 362 287
0.053604662 0.71100003 -0.058591139 6.0841128e-39 363 287
0.054851279 0.71100003 -0.058591139 6.6362146e-39 364 287
0.0563346 0.71399999 -0.058838356 7.5578108e-39 365 287
0.057586476 0.71399999 -0.058838356 9.3034223e-39 366 287
-0.012518799 0.71399999 -0.060090236 8.5683684e-39 310 288
-0.011266919 0.71399999 -0.060090236 8.1077504e-39 311 288
-0.01001504 0.71399999 -0.060090236 7.4627285e-39 312 288
-0.0087263398 0.71100003 -0.059837762 6.9095547e-39 313 288
-0.0074797203 0.71100003 -0.059837762 5.9000719e-39 314 288
-0.0062330998 0.71100003 -0.059837762 5.7153247e-39 315 288
-0.0049794666 0.70999998 -0.059753593 5.4398182e-39 316 288
-0.0037188199 0.70700002 -0.059501119 5.347624e-39 317 288
-0.0024757064 0.70599997 -0.059416957 5.256506e-39 318 288
-0.0012378532 0.70599997 -0.059416957 5.5330886e-39 319 288
0 0.70599997 -0.059416957 5.7178358e-39 320 288
0.0012343467 0.704 -0.059248637 5.9022243e-39 321 288
0.0024686933 0.704 -0.059248637 6.2702837e-39 322 288
0.0036977797 0.70300001 -0.059164476 6.4546722e-39 323 288
0.0049163462 0.70099998 -0.058996156 6.8234533e-39 324 288
0.0061454331 0.70099998 -0.058996156 7.2840727e-39 325 288
0.0073745195 0.70099998 -0.058996156 7.2851545e-39 326 288
0.0085913334 0.69999999 -0.058911994 7.3773502e-39 327 288
0.0098186666 0.69999999 -0.058911994 7.5610212e-39 328 288
0.011045999 0.69999999 -0.058911994 7.6532168e-39 329 288
0.012238266 0.69800001 -0.058743682 7.7443306e-39 330 288
0.013462093 0.69800001 -0.058743682 7.7443306e-39 331 288
0.01468592 0.69800001 -0.058743682 7.5595932e-39 332 288
0.015909746 0.69800001 -0.058743682 7.5595932e-39 333 288
0.017133573 0.69800001 -0.058743682 7.8344201e-39 334 288
0.0183574 0.69800001 -0.058743682 9.2173545e-39 335 288
0.019581227 0.69800001 -0.058743682 1.01415e-38 336 288
0.020775247 0.69700003 -0.05865952 7.3756308e-39 337 288
0.02199732 0.69700003 -0.05865952 7.4534533e-39 338 288
0.023219392 0.69700003 -0.05865952 9.5739528e-39 339 288
0.024441468 0.69700003 -0.05865952 9.3106642e-39 340 288
0.025663542 0.69700003 -0.05865952 8.6652948e-39 341 288
0.026885614 0.69700003 -0.05865952 8.2943276e-39 342 288
0.028107686 0.69700003 -0.05865952 7.5564039e-39 343 288
0.02932976 0.69700003 -0.05865952 6.6355112e-39 344 288
0.030551834 0.69700003 -0.05865952 6.1741729e-39 345 288
0.031819493 0.69800001 -0.058743682 4.9788569e-39 346 288
0.033043321 0.69800001 -0.058743682 5.3476394e-39 347 288
0.034267146 0.69800001 -0.058743682 5.5316551e-39 348 288
0.035592664 0.69999999 -0.058911994 5.4394595e-39 349 288
0.036819998 0.69999999 -0.058911994 5.347624e-39 350 288
0.038047329 0.69999999 -0.058911994 5.347624e-39 351 288
0.039274666 0.69999999 -0.058911994 5.347624e-39 352 288
0.040559858 0.70099998 -0.058996156 5.1635943e-39 353 288
0.041788943 0.70099998 -0.058996156 5.3461891e-39 354 288
0.043140765 0.70300001 -0.059164476 5.2539948e-39 355 288
0.044436477 0.704 -0.059248637 5.2539948e-39 356 288
0.045670826 0.704 -0.059248637 5.3461891e-39 357 288
0.047038425 0.70599997 -0.059416957 5.5305775e-39 358 288
0.048344657 0.70700002 -0.059501119 5.5305775e-39 359 288
0.049654398 0.708 -0.059585281 5.622413e-39 360 288
0.051039528 0.70999998 -0.059753593 5.7146072e-39 361 288
0.052284397 0.70999998 -0.059753593 5.8064469e-39 362 288
0.053604662 0.71100003 -0.059837762 6.2674251e-39 363 288
0.054851279 0.71100003 -0.059837762 7.0953907e-39 364 288
0.0563346 0.71399999 -0.060090236 7.8329557e-39 365 288
0.057586476 0.71399999 -0.060090236 9.8555185e-39 366 288
-0.012501267 0.713 -0.061256204 9.3052146e-39 310 289
-0.011251139 0.713 -0.061256204 8.2910626e-39 311 289
-0.010001013 0.713 -0.061256204 7.9215416e-39 312 289
-0.0087263398 0.71100003 -0.061084379 7.4605635e-39 313 289
-0.0074797203 0.71100003 -0.061084379 6.1759371e-39 314 289
-0.0062330998 0.71100003 -0.061084379 5.8997132e-39 315 289
-0.0049794666 0.70999998 -0.060998458 5.440177e-39 316 289
-0.00372408 0.708 -0.060826641 5.3479827e-39 317 289
-0.0024757064 0.70599997 -0.060654808 4.9809995e-39 318 289
-0.0012378532 0.70599997 -0.060654808 5.1650292e-39 319 289
0 0.70599997 -0.060654808 5.1661054e-39 320 289
0.0012343467 0.704 -0.060482983 5.4426881e-39 321 289
0.0024686933 0.704 -0.060482983 5.8103888e-39 322 289
0.0036977797 0.70300001 -0.06039707 6.087333e-39 323 289
0.0049163462 0.70099998 -0.060225245 6.5475895e-39 324 289
0.0061454331 0.70099998 -0.060225245 6.9163706e-39 325 289
0.0073745195 0.70099998 -0.060225245 7.1007633e-39 326 289
0.0085913334 0.69999999 -0.060139328 7.1929589e-39 327 289
0.0098186666 0.69999999 -0.060139328 7.2851545e-39 328 289
0.011045999 0.69999999 -0.060139328 7.2851545e-39 329 289
0.012238266 0.69800001 -0.059967503 7.4684668e-39 330 289
0.013462093 0.69800001 -0.059967503 7.3762712e-39 331 289
0.01468592 0.69800001 -0.059967503 7.2837252e-39 332 289
0.015909746 0.69800001 -0.059967503 7.0996941e-39 333 289
0.017133573 0.69800001 -0.059967503 6.8234926e-39 334 289
0.0183574 0.69800001 -0.059967503 7.2844693e-39 335 289
0.019581227 0.69800001 -0.059967503 8.2961269e-39 336 289
0.020775247 0.69700003 -0.05988159 7.3738105e-39 337 289
0.02199732 0.69700003 -0.05988159 7.183325e-39 338 289
0.023219392 0.69700003 -0.05988159 8.6588138e-39 339 289
0.024441468 0.69700003 -0.05988159 8.3879694e-39 340 289
0.025663542 0.69700003 -0.05988159 6.8206423e-39 341 289
0.026885614 0.69700003 -0.05988159 6.1763211e-39 342 289
0.028107686 0.69700003 -0.05988159 6.0841254e-39 343 289
0.02932976 0.69700003 -0.05988159 6.1752323e-39 344 289
0.030551834 0.69700003 -0.05988159 5.7142541e-39 345 289
0.031819493 0.69800001 -0.059967503 5.25615e-39 346 289
0.033043321 0.69800001 -0.059967503 5.25615e-39 347 289
0.034267146 0.69800001 -0.059967503 5.163953e-39 348 289
0.035592664 0.69999999 -0.060139328 5.163953e-39 349 289
0.036819998 0.69999999 -0.060139328 5.1635943e-39 350 289
0.038047329 0.69999999 -0.060139328 5.0714e-39 351 289
0.039274666 0.69999999 -0.060139328 5.0714e-39 352 289
0.040559858 0.70099998 -0.060225245 4.9792058e-39 353 289
0.041788943 0.70099998 -0.060225245 5.2539948e-39 354 289
0.043140765 0.70300001 -0.06039707 5.2539948e-39 355 289
0.044436477 0.704 -0.060482983 5.1625181e-39 356 289
0.045670826 0.704 -0.060482983 5.1625181e-39 357 289
0.047038425 0.70599997 -0.060654808 5.3461891e-39 358 289
0.048344657 0.70700002 -0.060740728 5.5302188e-39 359 289
0.049794663 0.70999998 -0.060998458 5.622413e-39 360 289
0.051039528 0.70999998 -0.060998458 5.7146072e-39 361 289
0.052284397 0.70999998 -0.060998458 5.8986454e-39 362 289
0.053604662 0.71100003 -0.061084379 6.3596235e-39 363 289
0.054851279 0.71100003 -0.061084379 6.8198814e-39 364 289
0.0563346 0.71399999 -0.061342116 8.2028173e-39 365 289
0.057586476 0.71399999 -0.061342116 1.0684203e-38 366 289
-0.011251139 0.713 -0.062506333 8.2910626e-39 311 290
-0.0099729598 0.71100003 -0.062331002 8.1970495e-39 312 290
-0.0087263398 0.71100003 -0.062331002 7.6438757e-39 313 290
-0.0074797203 0.71100003 -0.062331002 6.3599668e-39 314 290
-0.0062243328 0.70999998 -0.062243331 6.1752197e-39 315 290
-0.0049794666 0.70999998 -0.062243331 5.440177e-39 316 290
-0.0037345996 0.70999998 -0.062243331 5.3479827e-39 317 290
-0.0024792133 0.70700002 -0.061980337 5.1646705e-39 318 290
-0.0012396066 0.70700002 -0.061980337 5.2568647e-39 319 290
0 0.70599997 -0.061892662 5.1653879e-39 320 290
0.0012378532 0.70599997 -0.061892662 5.4423293e-39 321 290
0.0024686933 0.704 -0.061717331 5.5345236e-39 322 290
0.0037030398 0.704 -0.061717331 5.9029418e-39 323 290
0.0049373866 0.704 -0.061717331 6.1798832e-39 324 290
0.0061629666 0.70300001 -0.061629668 6.4564659e-39 325 290
0.0073745195 0.70099998 -0.06145433 6.7323367e-39 326 290
0.0085913334 0.69999999 -0.061366666 6.9163678e-39 327 290
0.0098186666 0.69999999 -0.061366666 6.8248967e-39 328 290
0.011045999 0.69999999 -0.061366666 6.917451e-39 329 290
0.012273333 0.69999999 -0.061366666 7.0085676e-39 330 290
0.013500666 0.69999999 -0.061366666 7.0085676e-39 331 290
0.01468592 0.69800001 -0.061191335 6.9160147e-39 332 290
0.015909746 0.69800001 -0.061191335 6.7319836e-39 333 290
0.017133573 0.69800001 -0.061191335 6.4557624e-39 334 290
0.0183574 0.69800001 -0.061191335 6.1791769e-39 335 290
0.019581227 0.69800001 -0.061191335 6.5447336e-39 336 290
0.020805053 0.69800001 -0.061191335 6.6369307e-39 337 290
0.02202888 0.69800001 -0.061191335 7.2790785e-39 338 290
0.023252707 0.69800001 -0.061191335 7.647861e-39 339 290
0.024476532 0.69800001 -0.061191335 5.9933619e-39 340 290
0.025700359 0.69800001 -0.061191335 4.7026231e-39 341 290
0.026924185 0.69800001 -0.061191335 4.7958935e-39 342 290
0.028148014 0.69800001 -0.061191335 5.1646733e-39 343 290
0.029371841 0.69800001 -0.061191335 5.5313048e-39 344 290
0.030595668 0.69800001 -0.061191335 5.3469135e-39 345 290
0.031819493 0.69800001 -0.061191335 5.163953e-39 346 290
0.033043321 0.69800001 -0.061191335 5.0717588e-39 347 290
0.034365334 0.69999999 -0.061366666 5.0721175e-39 348 290
0.035592664 0.69999999 -0.061366666 5.0721175e-39 349 290
0.036819998 0.69999999 -0.061366666 5.0714e-39 350 290
0.038047329 0.69999999 -0.061366666 5.0714e-39 351 290
0.039330769 0.70099998 -0.06145433 5.0703238e-39 352 290
0.040559858 0.70099998 -0.06145433 5.0703238e-39 353 290
0.041788943 0.70099998 -0.06145433 5.0706826e-39 354 290
0.043140765 0.70300001 -0.061629668 5.1628768e-39 355 290
0.044436477 0.704 -0.061717331 5.1625181e-39 356 290
0.04580057 0.70599997 -0.061892662 5.3472653e-39 357 290
0.047105055 0.70700002 -0.061980337 5.4391008e-39 358 290
0.048413038 0.708 -0.062068 5.4391008e-39 359 290
0.049794663 0.70999998 -0.062243331 5.7135324e-39 360 290
0.051039528 0.70999998 -0.062243331 6.0823136e-39 361 290
0.052358042 0.71100003 -0.062331002 6.266709e-39 362 290
0.053604662 0.71100003 -0.062331002 6.5429358e-39 363 290
0.054851279 0.71100003 -0.062331002 6.9102792e-39 364 290
0.0563346 0.71399999 -0.062593997 8.938583e-39 365 290
0.057586476 0.71399999 -0.062593997 1.1238809e-38 366 290
-0.011251139 0.713 -0.063756458 8.2907067e-39 311 291
-0.0099729598 0.71100003 -0.063577622 8.1970523e-39 312 291
-0.0087263398 0.71100003 -0.063577622 7.7360742e-39 313 291
-0.0074797203 0.71100003 -0.063577622 6.359971e-39 314 291
-0.0062243328 0.70999998 -0.063488193 6.1755798e-39 315 291
-0.0049794666 0.70999998 -0.063488193 5.8078777e-39 316 291
-0.0037398601 0.71100003 -0.063577622 5.5316537e-39 317 291
-0.0024897333 0.70999998 -0.063488193 5.1650292e-39 318 291
-0.00124136 0.708 -0.063309364 5.1650292e-39 319 291
0 0.70700002 -0.063219935 4.9820757e-39 320 291
0.0012378532 0.70599997 -0.063130513 5.0742699e-39 321 291
0.0024686933 0.704 -0.062951677 5.4419706e-39 322 291
0.0037030398 0.704 -0.062951677 5.6267178e-39 323 291
0.0049373866 0.704 -0.062951677 6.0869715e-39 324 291
0.0061717331 0.704 -0.062951677 6.3631954e-39 325 291
0.0073955595 0.70300001 -0.062862262 6.5479426e-39 326 291
0.0086036054 0.70099998 -0.062683418 6.6401383e-39 327 291
0.0098186666 0.69999999 -0.062593997 6.7319808e-39 328 291
0.011045999 0.69999999 -0.062593997 6.7319808e-39 329 291
0.012273333 0.69999999 -0.062593997 6.7319836e-39 330 291
0.013500666 0.69999999 -0.062593997 6.7319836e-39 331 291
0.01468592 0.69800001 -0.062415157 6.5483112e-39 332 291
0.015909746 0.69800001 -0.062415157 6.17953e-39 333 291
0.017133573 0.69800001 -0.062415157 6.2710012e-39 334 291
0.0183574 0.69800001 -0.062415157 6.0869715e-39 335 291
0.019581227 0.69800001 -0.062415157 6.361043e-39 336 291
0.020805053 0.69800001 -0.062415157 6.361043e-39 337 291
0.02202888 0.69800001 -0.062415157 6.5443679e-39 338 291
0.023252707 0.69800001 -0.062415157 6.3599767e-39 339 291
0.024476532 0.69800001 -0.062415157 5.532374e-39 340 291
0.025700359 0.69800001 -0.062415157 5.0717588e-39 341 291
0.026924185 0.69800001 -0.062415157 4.7969697e-39 342 291
0.028148014 0.69800001 -0.062415157 4.889164e-39 343 291
0.029371841 0.69800001 -0.062415157 5.163953e-39 344 291
0.030595668 0.69800001 -0.062415157 5.0717588e-39 345 291
0.031819493 0.69800001 -0.062415157 5.1635943e-39 346 291
0.033137999 0.69999999 -0.062593997 5.0714e-39 347 291
0.034365334 0.69999999 -0.062593997 5.0714e-39 348 291
0.035592664 0.69999999 -0.062593997 5.0714e-39 349 291
0.036819998 0.69999999 -0.062593997 5.1625181e-39 350 291
0.038047329 0.69999999 -0.062593997 5.0703238e-39 351 291
0.039330769 0.70099998 -0.062683418 5.0703238e-39 352 291
0.040559858 0.70099998 -0.062683418 5.0703238e-39 353 291
0.041788943 0.70099998 -0.062683418 4.9792058e-39 354 291
0.043140765 0.70300001 -0.062862262 5.0714e-39 355 291
0.044436477 0.704 -0.062951677 4.9799233e-39 356 291
0.04580057 0.70599997 -0.063130513 5.1643117e-39 357 291
0.047105055 0.70700002 -0.063219935 5.4391008e-39 358 291
0.048413038 0.708 -0.063309364 5.531295e-39 359 291
0.049794663 0.70999998 -0.063488193 5.7146072e-39 360 291
0.051111419 0.71100003 -0.063577622 5.9911941e-39 361 291
0.052358042 0.71100003 -0.063577622 6.2674279e-39 362 291
0.053604662 0.71100003 -0.063577622 6.4518192e-39 363 291
0.055005573 0.713 -0.063756458 6.8188094e-39 364 291
0.0563346 0.71399999 -0.063845873 9.400287e-39 365 291
-0.010001013 0.713 -0.065006584 7.4627285e-39 312 292
-0.0087263398 0.71100003 -0.064824238 7.3705328e-39 313 292
-0.0074797203 0.71100003 -0.064824238 6.8184311e-39 314 292
-0.0062330998 0.71100003 -0.064824238 6.5422043e-39 315 292
-0.0049864799 0.71100003 -0.064824238 5.9919074e-39 316 292
-0.0037345996 0.70999998 -0.064733058 5.8997132e-39 317 292
-0.0024897333 0.70999998 -0.064733058 5.5323712e-39 318 292
-0.00124136 0.708 -0.06455072 5.5323712e-39 319 292
0 0.70700002 -0.064459547 5.3494177e-39 320 292
0.0012378532 0.70599997 -0.064368367 5.5334474e-39 321 292
0.0024757064 0.70599997 -0.064368367 5.1664641e-39 322 292
0.0037135598 0.70599997 -0.064368367 5.4426881e-39 323 292
0.0049373866 0.704 -0.064186029 5.8107475e-39 324 292
0.0061717331 0.704 -0.064186029 5.995136e-39 325 292
0.0073955595 0.70300001 -0.064094849 6.0873302e-39 326 292
0.0086036054 0.70099998 -0.063912503 6.179886e-39 327 292
0.0098186666 0.69999999 -0.063821331 6.2717257e-39 328 292
0.011045999 0.69999999 -0.063821331 6.2717257e-39 329 292
0.012273333 0.69999999 -0.063821331 6.4557624e-39 330 292
0.013500666 0.69999999 -0.063821331 6.2717313e-39 331 292
0.014727999 0.69999999 -0.063821331 6.1795328e-39 332 292
0.015909746 0.69800001 -0.063638985 5.9947815e-39 333 292
0.017133573 0.69800001 -0.063638985 5.8103888e-39 334 292
0.0183574 0.69800001 -0.063638985 5.8103888e-39 335 292
0.019581227 0.69800001 -0.063638985 5.8096741e-39 336 292
0.020805053 0.69800001 -0.063638985 5.8096741e-39 337 292
0.02202888 0.69800001 -0.063638985 5.7167694e-39 338 292
0.023252707 0.69800001 -0.063638985 5.3483457e-39 339 292
0.024476532 0.69800001 -0.063638985 5.1646705e-39 340 292
0.025700359 0.69800001 -0.063638985 4.8884465e-39 341 292
0.026924185 0.69800001 -0.063638985 4.7973285e-39 342 292
0.028148014 0.69800001 -0.063638985 4.7973285e-39 343 292
0.029371841 0.69800001 -0.063638985 4.796611e-39 344 292
0.030595668 0.69800001 -0.063638985 4.796611e-39 345 292
0.031819493 0.69800001 -0.063638985 5.0714e-39 346 292
0.033137999 0.69999999 -0.063821331 5.0714e-39 347 292
0.034365334 0.69999999 -0.063821331 4.9795645e-39 348 292
0.035592664 0.69999999 -0.063821331 4.8873703e-39 349 292
0.036819998 0.69999999 -0.063821331 4.887729e-39 350 292
0.038101684 0.70099998 -0.063912503 4.7033406e-39 351 292
0.039330769 0.70099998 -0.063912503 5.0706826e-39 352 292
0.040559858 0.70099998 -0.063912503 5.1628768e-39 353 292
0.041908171 0.70300001 -0.064094849 5.0714e-39 354 292
0.043140765 0.70300001 -0.064094849 5.163953e-39 355 292
0.044436477 0.704 -0.064186029 5.0721175e-39 356 292
0.04580057 0.70599997 -0.064368367 5.1643117e-39 357 292
0.047105055 0.70700002 -0.064459547 5.5309362e-39 358 292
0.048413038 0.708 -0.06455072 5.5309362e-39 359 292
0.049794663 0.70999998 -0.064733058 6.0819576e-39 360 292
0.051111419 0.71100003 -0.064824238 6.266709e-39 361 292
0.052358042 0.71100003 -0.064824238 6.451822e-39 362 292
0.053755447 0.713 -0.065006584 6.8202457e-39 363 292
0.055005573 0.713 -0.065006584 8.0152016e-39 364 292
0.056492399 0.71600002 -0.06528011 1.0227897e-38 365 292
-0.011266919 0.71399999 -0.066349633 9.4889024e-39 311 293
-0.01001504 0.71399999 -0.066349633 8.199946e-39 312 293
-0.0087508867 0.713 -0.066256717 7.8308033e-39 313 293
-0.0075007593 0.713 -0.066256717 6.6354873e-39 314 293
-0.0062330998 0.71100003 -0.066070862 6.3589019e-39 315 293
-0.0049864799 0.71100003 -0.066070862 5.7167596e-39 316 293
-0.0037345996 0.70999998 -0.065977924 5.6242067e-39 317 293
-0.0024897333 0.70999998 -0.065977924 5.5330886e-39 318 293
-0.00124136 0.708 -0.065792084 5.5330886e-39 319 293
0 0.70700002 -0.065699153 5.2575822e-39 320 293
0.0012396066 0.70700002 -0.065699153 5.2575822e-39 321 293
0.0024757064 0.70599997 -0.065606222 5.2575822e-39 322 293
0.0037135598 0.70599997 -0.065606222 5.4423293e-39 323 293
0.0049373866 0.704 -0.065420374 5.7181946e-39 324 293
0.0061717331 0.704 -0.065420374 5.902583e-39 325 293
0.0074060797 0.704 -0.065420374 5.9947773e-39 326 293
0.0086036054 0.70099998 -0.065141588 6.0873302e-39 327 293
0.0098186666 0.69999999 -0.065048665 6.0869715e-39 328 293
0.011045999 0.69999999 -0.065048665 6.2710012e-39 329 293
0.012273333 0.69999999 -0.065048665 6.2702837e-39 330 293
0.013500666 0.69999999 -0.065048665 6.1780895e-39 331 293
0.014727999 0.69999999 -0.065048665 6.177372e-39 332 293
0.015955333 0.69999999 -0.065048665 6.0851778e-39 333 293
0.017133573 0.69800001 -0.06486281 5.9937011e-39 334 293
0.0183574 0.69800001 -0.06486281 5.8096713e-39 335 293
0.019581227 0.69800001 -0.06486281 5.7174771e-39 336 293
0.020805053 0.69800001 -0.06486281 5.5330886e-39 337 293
0.02202888 0.69800001 -0.06486281 5.2568647e-39 338 293
0.023252707 0.69800001 -0.06486281 5.1646705e-39 339 293
0.024476532 0.69800001 -0.06486281 4.8888052e-39 340 293
0.025700359 0.69800001 -0.06486281 4.796611e-39 341 293
0.026924185 0.69800001 -0.06486281 4.796611e-39 342 293
0.028148014 0.69800001 -0.06486281 4.796611e-39 343 293
0.029371841 0.69800001 -0.06486281 5.0714e-39 344 293
0.030683333 0.69999999 -0.065048665 5.0714e-39 345 293
0.031910665 0.69999999 -0.065048665 5.2543536e-39 346 293
0.033137999 0.69999999 -0.065048665 5.2543536e-39 347 293
0.034365334 0.69999999 -0.065048665 4.9792058e-39 348 293
0.035592664 0.69999999 -0.065048665 4.9792058e-39 349 293
0.036872596 0.70099998 -0.065141588 4.8870116e-39 350 293
0.038101684 0.70099998 -0.065141588 4.8870116e-39 351 293
0.039442986 0.70300001 -0.065327443 5.1618006e-39 352 293
0.040675577 0.70300001 -0.065327443 5.2543536e-39 353 293
0.041908171 0.70300001 -0.065327443 5.0714e-39 354 293
0.043202132 0.704 -0.065420374 5.0714e-39 355 293
0.044436477 0.704 -0.065420374 5.1632355e-39 356 293
0.04580057 0.70599997 -0.065606222 5.347624e-39 357 293
0.047171678 0.708 -0.065792084 5.5309419e-39 358 293
0.048549797 0.70999998 -0.065977924 5.714973e-39 359 293
0.049864799 0.71100003 -0.066070862 5.9908424e-39 360 293
0.051111419 0.71100003 -0.066070862 6.2674279e-39 361 293
0.052358042 0.71100003 -0.066070862 7.0028391e-39 362 293
0.053755447 0.713 -0.066256717 7.8329585e-39 363 293
0.055005573 0.713 -0.066256717 9.1197541e-39 364 293
0.056492399 0.71600002 -0.066535495 1.0871471e-38 365 293
-0.01001504 0.71399999 -0.067601517 9.0289808e-39 312 294
-0.0087631596 0.71399999 -0.067601517 7.738242e-39 313 294
-0.0075007593 0.713 -0.067506835 7.0028223e-39 314 294
-0.0062506334 0.713 -0.067506835 6.8184311e-39 315 294
-0.0049864799 0.71100003 -0.067317478 6.1759371e-39 316 294
-0.0037345996 0.70999998 -0.067222796 5.9919074e-39 317 294
-0.0024897333 0.70999998 -0.067222796 5.6245654e-39 318 294
-0.00124136 0.708 -0.067033432 5.6245654e-39 319 294
0 0.708 -0.067033432 5.5323712e-39 320 294
0.0012396066 0.70700002 -0.066938758 5.6249241e-39 321 294
0.0024757064 0.70599997 -0.066844068 5.5334474e-39 322 294
0.0037135598 0.70599997 -0.066844068 5.6256416e-39 323 294
0.0049514128 0.70599997 -0.066844068 5.4423293e-39 324 294
0.0061717331 0.704 -0.066654719 5.6267178e-39 325 294
0.0074060797 0.704 -0.066654719 5.6274353e-39 326 294
0.0086281532 0.70300001 -0.066560037 5.7196295e-39 327 294
0.0098326923 0.70099998 -0.066370681 5.7196295e-39 328 294
0.011061779 0.70099998 -0.066370681 5.7196295e-39 329 294
0.012273333 0.69999999 -0.066275999 5.9022243e-39 330 294
0.013500666 0.69999999 -0.066275999 5.9022243e-39 331 294
0.014727999 0.69999999 -0.066275999 5.9933423e-39 332 294
0.015955333 0.69999999 -0.066275999 5.9933423e-39 333 294
0.017182667 0.69999999 -0.066275999 5.6256416e-39 334 294
0.018409999 0.69999999 -0.066275999 5.6256416e-39 335 294
0.019637333 0.69999999 -0.066275999 5.3497764e-39 336 294
0.020864666 0.69999999 -0.066275999 5.2575822e-39 337 294
0.022091998 0.69999999 -0.066275999 5.1653879e-39 338 294
0.023319334 0.69999999 -0.066275999 4.889164e-39 339 294
0.024546666 0.69999999 -0.066275999 5.0724762e-39 340 294
0.025773998 0.69999999 -0.066275999 4.8880878e-39 341 294
0.027001332 0.69999999 -0.066275999 4.9799233e-39 342 294
0.028228667 0.69999999 -0.066275999 4.887729e-39 343 294
0.029455997 0.69999999 -0.066275999 4.9792058e-39 344 294
0.030683333 0.69999999 -0.066275999 5.0714e-39 345 294
0.031910665 0.69999999 -0.066275999 5.1625181e-39 346 294
0.033137999 0.69999999 -0.066275999 5.1625181e-39 347 294
0.034365334 0.69999999 -0.066275999 4.7033406e-39 348 294
0.035643511 0.70099998 -0.066370681 4.887729e-39 349 294
0.036872596 0.70099998 -0.066370681 4.7033406e-39 350 294
0.038101684 0.70099998 -0.066370681 4.7033406e-39 351 294
0.039442986 0.70300001 -0.066560037 5.1618006e-39 352 294
0.040675577 0.70300001 -0.066560037 5.2543536e-39 353 294
0.041967787 0.704 -0.066654719 5.2539948e-39 354 294
0.043202132 0.704 -0.066654719 5.3461891e-39 355 294
0.044562716 0.70599997 -0.066844068 5.1632355e-39 356 294
0.04580057 0.70599997 -0.066844068 5.3472653e-39 357 294
0.047171678 0.708 -0.067033432 5.5309391e-39 358 294
0.048549797 0.70999998 -0.067222796 5.7149702e-39 359 294
0.049864799 0.71100003 -0.067317478 5.9908452e-39 360 294
0.051111419 0.71100003 -0.067317478 6.3592676e-39 361 294
0.052505318 0.713 -0.067506835 6.8198926e-39 362 294
0.053755447 0.713 -0.067506835 7.8344033e-39 363 294
0.05508272 0.71399999 -0.067601517 9.7651263e-39 364 294
-0.0087877065 0.71600002 -0.069046266 8.0148359e-39 313 295
-0.00753232 0.71600002 -0.069046266 7.8289929e-39 314 295
-0.0062593995 0.71399999 -0.068853401 7.4602103e-39 315 295
-0.0050005065 0.713 -0.068756968 6.2670594e-39 316 295
-0.0037398601 0.71100003 -0.068564095 6.1748623e-39 317 295
-0.0024897333 0.70999998 -0.068467662 5.8993544e-39 318 295
-0.0012448666 0.70999998 -0.068467662 5.8993544e-39 319 295
0 0.708 -0.068274796 5.5323712e-39 320 295
0.00124136 0.708 -0.068274796 5.5323712e-39 321 295
0.0024792133 0.70700002 -0.068178371 5.5330886e-39 322 295
0.0037135598 0.70599997 -0.06808193 5.5330886e-39 323 295
0.0049514128 0.70599997 -0.06808193 5.6252829e-39 324 295
0.0061717331 0.704 -0.067889065 5.7174771e-39 325 295
0.0074060797 0.704 -0.067889065 5.6267178e-39 326 295
0.0086281532 0.70300001 -0.067792632 5.8107475e-39 327 295
0.0098326923 0.70099998 -0.067599766 5.8107475e-39 328 295
0.011061779 0.70099998 -0.067599766 5.8107475e-39 329 295
0.012290866 0.70099998 -0.067599766 5.8107475e-39 330 295
0.013519952 0.70099998 -0.067599766 5.6267178e-39 331 295
0.014727999 0.69999999 -0.067503333 5.8096713e-39 332 295
0.015955333 0.69999999 -0.067503333 5.7174771e-39 333 295
0.017182667 0.69999999 -0.067503333 5.7171184e-39 334 295
0.018409999 0.69999999 -0.067503333 5.6249241e-39 335 295
0.019637333 0.69999999 -0.067503333 5.3490589e-39 336 295
0.020864666 0.69999999 -0.067503333 5.2568647e-39 337 295
0.022091998 0.69999999 -0.067503333 5.1646705e-39 338 295
0.023319334 0.69999999 -0.067503333 5.1646705e-39 339 295
0.024546666 0.69999999 -0.067503333 5.0714e-39 340 295
0.025773998 0.69999999 -0.067503333 4.9792058e-39 341 295
0.027001332 0.69999999 -0.067503333 4.887729e-39 342 295
0.028228667 0.69999999 -0.067503333 4.887729e-39 343 295
0.029455997 0.69999999 -0.067503333 5.0714e-39 344 295
0.030683333 0.69999999 -0.067503333 5.0714e-39 345 295
0.031956252 0.70099998 -0.067599766 5.0714e-39 346 295
0.03318534 0.70099998 -0.067599766 4.9792058e-39 347 295
0.034414422 0.70099998 -0.067599766 4.7044168e-39 348 295
0.035643511 0.70099998 -0.067599766 4.6122226e-39 349 295
0.036977798 0.70300001 -0.067792632 4.9792058e-39 350 295
0.038210396 0.70300001 -0.067792632 4.9792058e-39 351 295
0.039442986 0.70300001 -0.067792632 5.2547123e-39 352 295
0.040733438 0.704 -0.067889065 5.1625181e-39 353 295
0.041967787 0.704 -0.067889065 5.2543536e-39 354 295
0.043324865 0.70599997 -0.06808193 5.2543536e-39 355 295
0.044562716 0.70599997 -0.06808193 5.1632355e-39 356 295
0.045865446 0.70700002 -0.068178371 5.4394623e-39 357 295
0.047171678 0.708 -0.068274796 5.714973e-39 358 295
0.048549797 0.70999998 -0.068467662 5.8993656e-39 359 295
0.049864799 0.71100003 -0.068564095 6.2663531e-39 360 295
0.051255193 0.713 -0.068756968 6.5429386e-39 361 295
0.052505318 0.713 -0.068756968 7.1872388e-39 362 295
0.053830836 0.71399999 -0.068853401 8.3854233e-39 363 295
-0.0087877065 0.71600002 -0.070301652 8.2921444e-39 313 296
-0.00753232 0.71600002 -0.070301652 8.1977782e-39 314 296
-0.0062593995 0.71399999 -0.070105277 7.5524088e-39 315 296
-0.0050005065 0.713 -0.070007093 6.7262354e-39 316 296
-0.0037398601 0.71100003 -0.069810718 6.4500087e-39 317 296
-0.0024932399 0.71100003 -0.069810718 5.8993544e-39 318 296
-0.0012448666 0.70999998 -0.069712527 5.8993544e-39 319 296
0 0.70999998 -0.069712527 5.6245654e-39 320 296
0.00124136 0.708 -0.069516152 5.6245654e-39 321 296
0.0024792133 0.70700002 -0.069417976 5.5330886e-39 322 296
0.0037135598 0.70599997 -0.069319785 5.5330886e-39 323 296
0.0049514128 0.70599997 -0.069319785 5.4416119e-39 324 296
0.0061717331 0.704 -0.06912341 5.4416119e-39 325 296
0.0074060797 0.704 -0.06912341 5.4416119e-39 326 296
0.0086404262 0.704 -0.06912341 5.6263619e-39 327 296
0.0098607466 0.70300001 -0.069025226 5.9022243e-39 328 296
0.01109334 0.70300001 -0.069025226 5.9022243e-39 329 296
0.012290866 0.70099998 -0.068828844 5.9022243e-39 330 296
0.013519952 0.70099998 -0.068828844 5.7178358e-39 331 296
0.014749039 0.70099998 -0.068828844 5.8096713e-39 332 296
0.015978126 0.70099998 -0.068828844 5.8096713e-39 333 296
0.017207211 0.70099998 -0.068828844 5.7171184e-39 334 296
