# .PCD v.7 - Point Cloud Data file format
FIELDS x y z rgb imX imY
SIZE 4 4 4 4 4 4
TYPE F F F F F F
COUNT 1 1 1 1 1 1
WIDTH 834
HEIGHT 1
VIEWPOINT 0 0 0 1 0 0 0
POINTS 834
DATA ascii
0.0024231065 0.69099998 -0.019384852 1.3267746e-38 322 256
0.0036346598 0.69099998 -0.019384852 1.3267746e-38 323 256
0.0048462129 0.69099998 -0.019384852 1.3174833e-38 324 256
0.0060577663 0.69099998 -0.019384852 1.3082637e-38 325 256
0.0072693196 0.69099998 -0.019384852 1.3081919e-38 326 256
0.0085054198 0.69300002 -0.01944096 1.3081919e-38 327 256
0.0097204801 0.69300002 -0.01944096 1.298972e-38 328 256
0.01095132 0.69400001 -0.019469013 1.2897524e-38 329 256
0.012168133 0.69400001 -0.019469013 1.2713856e-38 330 256
0.013384946 0.69400001 -0.019469013 1.2621661e-38 331 256
0.01460176 0.69400001 -0.019469013 1.2529464e-38 332 256
0.015818574 0.69400001 -0.019469013 1.2345072e-38 333 256
0.017084479 0.69599998 -0.019525118 1.2345072e-38 334 256
0.018331099 0.69700003 -0.019553173 1.2160682e-38 335 256
0.019581227 0.69800001 -0.019581227 1.2068134e-38 336 256
0.020805053 0.69800001 -0.019581227 1.1975938e-38 337 256
0.02202888 0.69800001 -0.019581227 1.1975221e-38 338 256
0.023319334 0.69999999 -0.019637333 1.1975221e-38 339 256
0.024546666 0.69999999 -0.019637333 1.1883391e-38 340 256
0.025810819 0.70099998 -0.019665385 1.1883391e-38 341 256
0.027039904 0.70099998 -0.019665385 1.2067433e-38 342 256
0.028389972 0.704 -0.019749546 1.234366e-38 343 256
0.029708479 0.70599997 -0.019805651 1.3265285e-38 344 256
0.030946331 0.70599997 -0.019805651 1.4371993e-38 345 256
0.032184184 0.70599997 -0.019805651 1.5573095e-38 346 256
-0.041080594 0.70999998 -0.021162732 1.3917517e-38 287 257
-0.039723519 0.708 -0.021103119 1.4376633e-38 288 257
-0.038482159 0.708 -0.021103119 1.4100406e-38 289 257
-0.037188202 0.70700002 -0.021073313 1.3917422e-38 290 257
-0.035897743 0.70599997 -0.021043506 1.373267e-38 291 257
-0.034659892 0.70599997 -0.021043506 1.3364964e-38 292 257
-0.03332736 0.704 -0.020983893 1.3364964e-38 293 257
-0.031956252 0.70099998 -0.020894472 1.3181649e-38 294 257
-0.030683333 0.69999999 -0.020864666 1.3274203e-38 295 257
-0.02932976 0.69700003 -0.020775247 1.3274566e-38 296 257
-0.028067358 0.69599998 -0.020745439 1.3366762e-38 297 257
-0.026769891 0.69400001 -0.020685827 1.3275312e-38 298 257
-0.025553079 0.69400001 -0.020685827 1.3644093e-38 299 257
-0.024301201 0.69300002 -0.020656019 1.4104785e-38 300 257
-0.02308614 0.69300002 -0.020656019 1.46576e-38 301 257
-0.021871079 0.69300002 -0.020656019 1.3917928e-38 302 257
-0.020656019 0.69300002 -0.020656019 1.2719384e-38 303 257
-0.01944096 0.69300002 -0.020656019 1.2076539e-38 304 257
-0.018225901 0.69300002 -0.020656019 1.2168734e-38 305 257
-0.01701084 0.69300002 -0.020656019 1.1065273e-38 306 257
-0.015795778 0.69300002 -0.020656019 1.115747e-38 307 257
-0.014538639 0.69099998 -0.020596405 1.1341136e-38 308 257
-0.013327086 0.69099998 -0.020596405 1.0880158e-38 309 257
-0.012097999 0.69 -0.020566599 9.9585503e-39 310 257
-0.010888199 0.69 -0.020566599 8.2071935e-39 311 257
-0.0096783992 0.69 -0.020566599 8.0260421e-39 312 257
-0.0084440531 0.68800002 -0.020506985 1.0423128e-38 313 257
-0.0072377604 0.68800002 -0.020506985 1.1982891e-38 314 257
-0.0060314666 0.68800002 -0.020506985 1.161411e-38 315 257
-0.0048251734 0.68800002 -0.020506985 1.2353807e-38 316 257
-0.0036188802 0.68800002 -0.020506985 1.2446002e-38 317 257
-0.0024125867 0.68800002 -0.020506985 1.2992647e-38 318 257
-0.0012097999 0.69 -0.020566599 1.2623866e-38 319 257
0 0.69 -0.020566599 1.2901124e-38 320 257
0.0012097999 0.69 -0.020566599 1.280857e-38 321 257
0.0024231065 0.69099998 -0.020596405 1.2992241e-38 322 257
0.0036346598 0.69099998 -0.020596405 1.2992241e-38 323 257
0.0048462129 0.69099998 -0.020596405 1.3174477e-38 324 257
0.0060753003 0.69300002 -0.020656019 1.2990086e-38 325 257
0.0072903596 0.69300002 -0.020656019 1.2989367e-38 326 257
0.0085054198 0.69300002 -0.020656019 1.2897171e-38 327 257
0.0097204801 0.69300002 -0.020656019 1.2897169e-38 328 257
0.01095132 0.69400001 -0.020685827 1.262094e-38 329 257
0.012168133 0.69400001 -0.020685827 1.2529108e-38 330 257
0.013384946 0.69400001 -0.020685827 1.2436912e-38 331 257
0.014643839 0.69599998 -0.020745439 1.2436912e-38 332 257
0.015864158 0.69599998 -0.020745439 1.2160685e-38 333 257
0.017109027 0.69700003 -0.020775247 1.206849e-38 334 257
0.018331099 0.69700003 -0.020775247 1.206849e-38 335 257
0.019581227 0.69800001 -0.020805053 1.1975938e-38 336 257
0.020805053 0.69800001 -0.020805053 1.1975938e-38 337 257
0.02202888 0.69800001 -0.020805053 1.1975941e-38 338 257
0.023319334 0.69999999 -0.020864666 1.1883744e-38 339 257
0.024546666 0.69999999 -0.020864666 1.1883391e-38 340 257
0.025810819 0.70099998 -0.020894472 1.1975588e-38 341 257
0.027039904 0.70099998 -0.020894472 1.2159629e-38 342 257
0.028389972 0.704 -0.020983893 1.252841e-38 343 257
0.029624319 0.704 -0.020983893 1.3266367e-38 344 257
0.030858666 0.704 -0.020983893 1.446491e-38 345 257
-0.041138459 0.71100003 -0.022439159 1.4193751e-38 287 258
-0.039835732 0.70999998 -0.022407599 1.4469554e-38 288 258
-0.038482159 0.708 -0.022344479 1.4193326e-38 289 258
-0.037188202 0.70700002 -0.022312919 1.3734472e-38 290 258
-0.035897743 0.70599997 -0.022281358 1.355008e-38 291 258
-0.034659892 0.70599997 -0.022281358 1.3274569e-38 292 258
-0.03332736 0.704 -0.022218239 1.3182373e-38 293 258
-0.031956252 0.70099998 -0.022123558 1.3274566e-38 294 258
-0.030683333 0.69999999 -0.022091998 1.3182371e-38 295 258
-0.029371841 0.69800001 -0.02202888 1.3273847e-38 296 258
-0.028107686 0.69700003 -0.02199732 1.3457878e-38 297 258
-0.026847038 0.69599998 -0.021965759 1.3274935e-38 298 258
-0.025553079 0.69400001 -0.021902639 1.3367132e-38 299 258
-0.024301201 0.69300002 -0.021871079 1.3643785e-38 300 258
-0.02308614 0.69300002 -0.021871079 1.4289154e-38 301 258
-0.021871079 0.69300002 -0.021871079 1.2997766e-38 302 258
-0.020656019 0.69300002 -0.021871079 1.207581e-38 303 258
-0.01944096 0.69300002 -0.021871079 1.1524448e-38 304 258
-0.018225901 0.69300002 -0.021871079 1.1617002e-38 305 258
-0.01701084 0.69300002 -0.021871079 1.0882681e-38 306 258
-0.015795778 0.69300002 -0.021871079 1.0145115e-38 307 258
-0.014580719 0.69300002 -0.021871079 9.3121089e-39 308 258
-0.013327086 0.69099998 -0.021807959 8.297957e-39 309 258
-0.012115533 0.69099998 -0.021807959 8.7517283e-39 310 258
-0.010888199 0.69 -0.021776399 7.8297734e-39 311 258
-0.0096783992 0.69 -0.021776399 6.6420258e-39 312 258
-0.0084686 0.69 -0.021776399 1.0791188e-38 313 258
-0.0072587994 0.69 -0.021776399 1.2813009e-38 314 258
-0.0060314666 0.68800002 -0.021713281 1.2536062e-38 315 258
-0.0048251734 0.68800002 -0.021713281 1.2446353e-38 316 258
-0.0036188802 0.68800002 -0.021713281 1.1893179e-38 317 258
-0.0024125867 0.68800002 -0.021713281 1.2532377e-38 318 258
-0.0012097999 0.69 -0.021776399 1.2532377e-38 319 258
0 0.69 -0.021776399 1.2900041e-38 320 258
0.0012097999 0.69 -0.021776399 1.2992237e-38 321 258
0.0024231065 0.69099998 -0.021807959 1.280857e-38 322 258
0.0036346598 0.69099998 -0.021807959 1.280857e-38 323 258
0.0048462129 0.69099998 -0.021807959 1.2898966e-38 324 258
0.0060753003 0.69300002 -0.021871079 1.2806771e-38 325 258
0.0072903596 0.69300002 -0.021871079 1.2897524e-38 326 258
0.0085054198 0.69300002 -0.021871079 1.2897524e-38 327 258
0.0097345067 0.69400001 -0.021902639 1.2804253e-38 328 258
0.01095132 0.69400001 -0.021902639 1.2712057e-38 329 258
0.012168133 0.69400001 -0.021902639 1.2436196e-38 330 258
0.013423519 0.69599998 -0.021965759 1.2436196e-38 331 258
0.014643839 0.69599998 -0.021965759 1.2160685e-38 332 258
0.015864158 0.69599998 -0.021965759 1.206849e-38 333 258
0.017109027 0.69700003 -0.02199732 1.206849e-38 334 258
0.0183574 0.69800001 -0.02202888 1.206849e-38 335 258
0.019581227 0.69800001 -0.02202888 1.1975938e-38 336 258
0.020864666 0.69999999 -0.022091998 1.1883741e-38 337 258
0.022091998 0.69999999 -0.022091998 1.1975585e-38 338 258
0.023319334 0.69999999 -0.022091998 1.1883388e-38 339 258
0.024546666 0.69999999 -0.022091998 1.1974867e-38 340 258
0.025810819 0.70099998 -0.022123558 1.21589e-38 341 258
0.027039904 0.70099998 -0.022123558 1.234366e-38 342 258
0.028389972 0.704 -0.022218239 1.252841e-38 343 258
0.029624319 0.704 -0.022218239 1.3267089e-38 344 258
0.030858666 0.704 -0.022218239 1.4557828e-38 345 258
-0.041080594 0.70999998 -0.023652466 1.4838044e-38 287 259
-0.039835732 0.70999998 -0.023652466 1.4653948e-38 288 259
-0.038482159 0.708 -0.023585839 1.4285167e-38 289 259
-0.037188202 0.70700002 -0.023552528 1.4101816e-38 290 259
-0.035897743 0.70599997 -0.023519212 1.3917066e-38 291 259
-0.034659892 0.70599997 -0.023519212 1.3549711e-38 292 259
-0.03332736 0.704 -0.023452586 1.3549711e-38 293 259
-0.031956252 0.70099998 -0.023352645 1.3550064e-38 294 259
-0.030683333 0.69999999 -0.023319334 1.3457869e-38 295 259
-0.029371841 0.69800001 -0.023252707 1.3549711e-38 296 259
-0.028107686 0.69700003 -0.023219392 1.3549711e-38 297 259
-0.026885614 0.69700003 -0.023219392 1.327423e-38 298 259
-0.025626717 0.69599998 -0.023186078 1.3366784e-38 299 259
-0.024336265 0.69400001 -0.023119451 1.33654e-38 300 259
-0.02308614 0.69300002 -0.02308614 1.3549431e-38 301 259
-0.021871079 0.69300002 -0.02308614 1.2722956e-38 302 259
-0.020685827 0.69400001 -0.023119451 1.2446368e-38 303 259
-0.01944096 0.69300002 -0.02308614 1.2077608e-38 304 259
-0.018225901 0.69300002 -0.02308614 1.1708827e-38 305 259
-0.01701084 0.69300002 -0.02308614 1.1248936e-38 306 259
-0.015795778 0.69300002 -0.02308614 1.0603567e-38 307 259
-0.014580719 0.69300002 -0.02308614 1.0509193e-38 308 259
-0.01336566 0.69300002 -0.02308614 9.0337046e-39 309 259
-0.012115533 0.69099998 -0.023019511 7.5560536e-39 310 259
-0.01090398 0.69099998 -0.023019511 6.6344574e-39 311 259
-0.0096783992 0.69 -0.022986198 5.4427637e-39 312 259
-0.0084686 0.69 -0.022986198 1.1343284e-38 313 259
-0.0072587994 0.69 -0.022986198 1.3826804e-38 314 259
-0.0060489997 0.69 -0.022986198 1.3550218e-38 315 259
-0.0048251734 0.68800002 -0.022919573 1.2904441e-38 316 259
-0.0036188802 0.68800002 -0.022919573 1.1889929e-38 317 259
-0.0024125867 0.68800002 -0.022919573 1.253308e-38 318 259
-0.0012097999 0.69 -0.022986198 1.253308e-38 319 259
0 0.69 -0.022986198 1.2899685e-38 320 259
0.0012115532 0.69099998 -0.023019511 1.2992241e-38 321 259
0.0024231065 0.69099998 -0.023019511 1.2899685e-38 322 259
0.0036346598 0.69099998 -0.023019511 1.2899685e-38 323 259
0.0048462129 0.69099998 -0.023019511 1.2623458e-38 324 259
0.0060753003 0.69300002 -0.02308614 1.2439067e-38 325 259
0.0072903596 0.69300002 -0.02308614 1.2346518e-38 326 259
0.0085054198 0.69300002 -0.02308614 1.207029e-38 327 259
0.0097345067 0.69400001 -0.023119451 1.2435843e-38 328 259
0.01095132 0.69400001 -0.023119451 1.2343647e-38 329 259
0.012168133 0.69400001 -0.023119451 1.2343644e-38 330 259
0.013423519 0.69599998 -0.023186078 1.2343644e-38 331 259
0.014643839 0.69599998 -0.023186078 1.206849e-38 332 259
0.015864158 0.69599998 -0.023186078 1.206849e-38 333 259
0.017109027 0.69700003 -0.023219392 1.206849e-38 334 259
0.0183574 0.69800001 -0.023252707 1.1976294e-38 335 259
0.019581227 0.69800001 -0.023252707 1.1975941e-38 336 259
0.020805053 0.69800001 -0.023252707 1.1883744e-38 337 259
0.022091998 0.69999999 -0.023319334 1.1975221e-38 338 259
0.023319334 0.69999999 -0.023319334 1.1975221e-38 339 259
0.024581732 0.70099998 -0.023352645 1.1974865e-38 340 259
0.025810819 0.70099998 -0.023352645 1.2251452e-38 341 259
0.027039904 0.70099998 -0.023352645 1.2344743e-38 342 259
0.028389972 0.704 -0.023452586 1.262097e-38 343 259
0.029624319 0.704 -0.023452586 1.3543677e-38 344 259
0.030858666 0.704 -0.023452586 1.474222e-38 345 259
-0.041080594 0.70999998 -0.024897331 1.5205754e-38 287 260
-0.039835732 0.70999998 -0.024897331 1.4930189e-38 288 260
-0.038482159 0.708 -0.024827199 1.428482e-38 289 260
-0.037188202 0.70700002 -0.024792133 1.4011433e-38 290 260
-0.035948593 0.70700002 -0.024792133 1.3734488e-38 291 260
-0.034659892 0.70599997 -0.024757065 1.364228e-38 292 260
-0.03332736 0.704 -0.024686933 1.3549724e-38 293 260
-0.031956252 0.70099998 -0.024581732 1.3550427e-38 294 260
-0.030683333 0.69999999 -0.024546666 1.3458232e-38 295 260
-0.029371841 0.69800001 -0.024476532 1.3458232e-38 296 260
-0.028107686 0.69700003 -0.024441468 1.3458232e-38 297 260
-0.026885614 0.69700003 -0.024441468 1.3274213e-38 298 260
-0.025626717 0.69599998 -0.0244064 1.3274213e-38 299 260
-0.0244064 0.69599998 -0.0244064 1.3180611e-38 300 260
-0.023119451 0.69400001 -0.024336265 1.2996219e-38 301 260
-0.021902639 0.69400001 -0.024336265 1.2447422e-38 302 260
-0.020685827 0.69400001 -0.024336265 1.3184987e-38 303 260
-0.01944096 0.69300002 -0.024301201 1.3735687e-38 304 260
-0.018225901 0.69300002 -0.024301201 1.3643133e-38 305 260
-0.01701084 0.69300002 -0.024301201 1.3458389e-38 306 260
-0.015795778 0.69300002 -0.024301201 1.318216e-38 307 260
-0.014580719 0.69300002 -0.024301201 1.3550224e-38 308 260
-0.01336566 0.69300002 -0.024301201 1.2627908e-38 309 260
-0.012115533 0.69099998 -0.024231065 1.1523712e-38 310 260
-0.01090398 0.69099998 -0.024231065 1.1062733e-38 311 260
-0.0096783992 0.69 -0.024195999 1.1340766e-38 312 260
-0.0084686 0.69 -0.024195999 1.3184679e-38 313 260
-0.0072587994 0.69 -0.024195999 1.3550927e-38 314 260
-0.0060489997 0.69 -0.024195999 1.2905558e-38 315 260
-0.0048251734 0.68800002 -0.024125867 1.2994096e-38 316 260
-0.0036188802 0.68800002 -0.024125867 1.2348727e-38 317 260
-0.0024195998 0.69 -0.024195999 1.2809294e-38 318 260
-0.0012097999 0.69 -0.024195999 1.2532708e-38 319 260
0 0.69 -0.024195999 1.2900038e-38 320 260
0.0012115532 0.69099998 -0.024231065 1.2900038e-38 321 260
0.0024231065 0.69099998 -0.024231065 1.2900038e-38 322 260
0.0036346598 0.69099998 -0.024231065 1.2716007e-38 323 260
0.00486024 0.69300002 -0.024301201 1.243942e-38 324 260
0.0060753003 0.69300002 -0.024301201 1.2254669e-38 325 260
0.0072903596 0.69300002 -0.024301201 1.2343998e-38 326 260
0.0085054198 0.69300002 -0.024301201 1.2251802e-38 327 260
0.0097345067 0.69400001 -0.024336265 1.2341845e-38 328 260
0.01095132 0.69400001 -0.024336265 1.2434042e-38 329 260
0.0122032 0.69599998 -0.0244064 1.2251802e-38 330 260
0.013423519 0.69599998 -0.0244064 1.2251802e-38 331 260
0.014643839 0.69599998 -0.0244064 1.206849e-38 332 260
0.015864158 0.69599998 -0.0244064 1.1976294e-38 333 260
0.017109027 0.69700003 -0.024441468 1.1975938e-38 334 260
0.0183574 0.69800001 -0.024476532 1.1975938e-38 335 260
0.019581227 0.69800001 -0.024476532 1.1975221e-38 336 260
0.020805053 0.69800001 -0.024476532 1.1975221e-38 337 260
0.022091998 0.69999999 -0.024546666 1.1975585e-38 338 260
0.023319334 0.69999999 -0.024546666 1.1975585e-38 339 260
0.024581732 0.70099998 -0.024581732 1.21589e-38 340 260
0.025884461 0.70300001 -0.024651866 1.234365e-38 341 260
0.027117053 0.70300001 -0.024651866 1.2435858e-38 342 260
0.028389972 0.704 -0.024686933 1.2712805e-38 343 260
0.029624319 0.704 -0.024686933 1.4003579e-38 344 260
0.030858666 0.704 -0.024686933 1.5478709e-38 345 260
-0.041254178 0.713 -0.026252659 1.5758931e-38 287 261
-0.039891839 0.71100003 -0.026179021 1.5022753e-38 288 261
-0.038590867 0.70999998 -0.026142199 1.4100438e-38 289 261
-0.0372408 0.708 -0.026068559 1.3918879e-38 290 261
-0.03599944 0.708 -0.026068559 1.3734488e-38 291 261
-0.034708988 0.70700002 -0.02603174 1.3825945e-38 292 261
-0.03332736 0.704 -0.02592128 1.3641554e-38 293 261
-0.031910665 0.69999999 -0.025773998 1.3825575e-38 294 261
-0.030683333 0.69999999 -0.025773998 1.3825575e-38 295 261
-0.029371841 0.69800001 -0.025700359 1.3642263e-38 296 261
-0.028107686 0.69700003 -0.025663542 1.3549708e-38 297 261
-0.026885614 0.69700003 -0.025663542 1.3457884e-38 298 261
-0.025663542 0.69700003 -0.025663542 1.3273494e-38 299 261
-0.0244064 0.69599998 -0.025626717 1.3089118e-38 300 261
-0.023119451 0.69400001 -0.025553079 1.2443749e-38 301 261
-0.021902639 0.69400001 -0.025553079 1.2445239e-38 302 261
-0.020685827 0.69400001 -0.025553079 1.3182804e-38 303 261
-0.019469013 0.69400001 -0.025553079 1.3277931e-38 304 261
-0.018225901 0.69300002 -0.02551626 1.3554157e-38 305 261
-0.01701084 0.69300002 -0.02551626 1.3090318e-38 306 261
-0.015795778 0.69300002 -0.02551626 1.2444948e-38 307 261
-0.014580719 0.69300002 -0.02551626 1.3086368e-38 308 261
-0.013327086 0.69099998 -0.025442619 1.3731737e-38 309 261
-0.012115533 0.69099998 -0.025442619 1.2998482e-38 310 261
-0.01090398 0.69099998 -0.025442619 1.2998482e-38 311 261
-0.0096783992 0.69 -0.025405798 1.3458379e-38 312 261
-0.0084686 0.69 -0.025405798 1.3365823e-38 313 261
-0.0072587994 0.69 -0.025405798 1.2997003e-38 314 261
-0.0060489997 0.69 -0.025405798 1.2351633e-38 315 261
-0.0048251734 0.68800002 -0.02533216 1.2994434e-38 316 261
-0.0036188802 0.68800002 -0.02533216 1.2717487e-38 317 261
-0.0024195998 0.69 -0.025405798 1.2900771e-38 318 261
-0.0012097999 0.69 -0.025405798 1.271602e-38 319 261
0 0.69 -0.025405798 1.2900038e-38 320 261
0.0012115532 0.69099998 -0.025442619 1.2900038e-38 321 261
0.0024231065 0.69099998 -0.025442619 1.2624175e-38 322 261
0.0036346598 0.69099998 -0.025442619 1.2531979e-38 323 261
0.00486024 0.69300002 -0.02551626 1.2438348e-38 324 261
0.0060753003 0.69300002 -0.02551626 1.2069206e-38 325 261
0.0073008798 0.69400001 -0.025553079 1.2159253e-38 326 261
0.0085176928 0.69400001 -0.025553079 1.1975221e-38 327 261
0.0097345067 0.69400001 -0.025553079 1.1882672e-38 328 261
0.010982879 0.69599998 -0.025626717 1.1974867e-38 329 261
0.0122032 0.69599998 -0.025626717 1.2068137e-38 330 261
0.013423519 0.69599998 -0.025626717 1.1975941e-38 331 261
0.01466488 0.69700003 -0.025663542 1.1976294e-38 332 261
0.015886955 0.69700003 -0.025663542 1.1976294e-38 333 261
0.017133573 0.69800001 -0.025700359 1.1792626e-38 334 261
0.0183574 0.69800001 -0.025700359 1.1792626e-38 335 261
0.019581227 0.69800001 -0.025700359 1.1883388e-38 336 261
0.020864666 0.69999999 -0.025773998 1.1975585e-38 337 261
0.022091998 0.69999999 -0.025773998 1.1792276e-38 338 261
0.023319334 0.69999999 -0.025773998 1.1976307e-38 339 261
0.024581732 0.70099998 -0.025810819 1.2067433e-38 340 261
0.025884461 0.70300001 -0.025884461 1.234366e-38 341 261
0.027117053 0.70300001 -0.025884461 1.2436944e-38 342 261
0.028349647 0.70300001 -0.025884461 1.2805367e-38 343 261
0.029582238 0.70300001 -0.025884461 1.4188699e-38 344 261
0.030814834 0.70300001 -0.025884461 1.5571634e-38 345 261
-0.041254178 0.713 -0.027502786 1.6035168e-38 287 262
-0.040004052 0.713 -0.027502786 1.5207515e-38 288 262
-0.038645219 0.71100003 -0.027425639 1.4008971e-38 289 262
-0.037345998 0.70999998 -0.027387066 1.4010726e-38 290 262
-0.03599944 0.708 -0.027309919 1.3734137e-38 291 262
-0.034708988 0.70700002 -0.027271347 1.3734122e-38 292 262
-0.03332736 0.704 -0.027155625 1.3641926e-38 293 262
-0.031910665 0.69999999 -0.027001332 1.3825589e-38 294 262
-0.030683333 0.69999999 -0.027001332 1.3825589e-38 295 262
-0.029371841 0.69800001 -0.026924185 1.3550077e-38 296 262
-0.028107686 0.69700003 -0.026885614 1.3550077e-38 297 262
-0.026885614 0.69700003 -0.026885614 1.3366412e-38 298 262
-0.025663542 0.69700003 -0.026885614 1.3274216e-38 299 262
-0.0244064 0.69599998 -0.026847038 1.3271712e-38 300 262
-0.023186078 0.69599998 -0.026847038 1.3179516e-38 301 262
-0.021965759 0.69599998 -0.026847038 1.2351581e-38 302 262
-0.020685827 0.69400001 -0.026769891 1.2443778e-38 303 262
-0.019469013 0.69400001 -0.026769891 1.2816933e-38 304 262
-0.018225901 0.69300002 -0.02673132 1.3738891e-38 305 262
-0.01701084 0.69300002 -0.02673132 1.2719735e-38 306 262
-0.015795778 0.69300002 -0.02673132 1.050704e-38 307 262
-0.014580719 0.69300002 -0.02673132 1.0687471e-38 308 262
-0.013327086 0.69099998 -0.026654173 1.3084198e-38 309 262
-0.012115533 0.69099998 -0.026654173 1.373424e-38 310 262
-0.01090398 0.69099998 -0.026654173 1.3642044e-38 311 262
-0.0096783992 0.69 -0.026615599 1.3732057e-38 312 262
-0.0084686 0.69 -0.026615599 1.2717544e-38 313 262
-0.0072587994 0.69 -0.026615599 1.2716784e-38 314 262
-0.0060489997 0.69 -0.026615599 1.2716784e-38 315 262
-0.0048391996 0.69 -0.026615599 1.2993698e-38 316 262
-0.0036293997 0.69 -0.026615599 1.2901503e-38 317 262
-0.0024195998 0.69 -0.026615599 1.2809289e-38 318 262
-0.0012097999 0.69 -0.026615599 1.2717093e-38 319 262
0 0.69099998 -0.026654173 1.2809278e-38 320 262
0.0012115532 0.69099998 -0.026654173 1.2624528e-38 321 262
0.0024231065 0.69099998 -0.026654173 1.2531979e-38 322 262
0.0036451798 0.69300002 -0.02673132 1.2255752e-38 323 262
0.00486024 0.69300002 -0.02673132 1.22536e-38 324 262
0.0060840664 0.69400001 -0.026769891 1.1977013e-38 325 262
0.0073008798 0.69400001 -0.026769891 1.1883022e-38 326 262
0.0085176928 0.69400001 -0.026769891 1.1883022e-38 327 262
0.0097625591 0.69599998 -0.026847038 1.1790829e-38 328 262
0.010982879 0.69599998 -0.026847038 1.1975221e-38 329 262
0.0122032 0.69599998 -0.026847038 1.1975941e-38 330 262
0.013423519 0.69599998 -0.026847038 1.1975941e-38 331 262
0.01466488 0.69700003 -0.026885614 1.1883741e-38 332 262
0.015886955 0.69700003 -0.026885614 1.1883741e-38 333 262
0.017133573 0.69800001 -0.026924185 1.1883741e-38 334 262
0.0183574 0.69800001 -0.026924185 1.1883741e-38 335 262
0.019581227 0.69800001 -0.026924185 1.1883744e-38 336 262
0.020864666 0.69999999 -0.027001332 1.1975941e-38 337 262
0.022091998 0.69999999 -0.027001332 1.1975588e-38 338 262
0.023352645 0.70099998 -0.027039904 1.1975588e-38 339 262
0.024651866 0.70300001 -0.027117053 1.234366e-38 340 262
0.025884461 0.70300001 -0.027117053 1.252841e-38 341 262
0.027117053 0.70300001 -0.027117053 1.2620975e-38 342 262
0.028349647 0.70300001 -0.027117053 1.2989759e-38 343 262
0.029582238 0.70300001 -0.027117053 1.4649318e-38 344 262
0.030814834 0.70300001 -0.027117053 1.5755665e-38 345 262
-0.041254178 0.713 -0.028752912 1.6311397e-38 287 263
-0.040004052 0.713 -0.028752912 1.5483751e-38 288 263
-0.038645219 0.71100003 -0.028672259 1.4377043e-38 289 263
-0.037398599 0.71100003 -0.028672259 1.4102924e-38 290 263
-0.036151983 0.71100003 -0.028672259 1.3918532e-38 291 263
-0.034758076 0.708 -0.02855128 1.4009633e-38 292 263
-0.033422034 0.70599997 -0.028470624 1.3917437e-38 293 263
-0.031910665 0.69999999 -0.028228667 1.3734475e-38 294 263
-0.030683333 0.69999999 -0.028228667 1.364228e-38 295 263
-0.029371841 0.69800001 -0.028148014 1.364228e-38 296 263
-0.028107686 0.69700003 -0.028107686 1.364228e-38 297 263
-0.026885614 0.69700003 -0.028107686 1.3549727e-38 298 263
-0.025663542 0.69700003 -0.028107686 1.3457531e-38 299 263
-0.0244064 0.69599998 -0.028067358 1.3272068e-38 300 263
-0.023186078 0.69599998 -0.028067358 1.2995482e-38 301 263
-0.021965759 0.69599998 -0.028067358 1.2810742e-38 302 263
-0.020745439 0.69599998 -0.028067358 1.2718188e-38 303 263
-0.019469013 0.69400001 -0.027986705 1.2812949e-38 304 263
-0.0182522 0.69400001 -0.027986705 1.3826741e-38 305 263
-0.017035386 0.69400001 -0.027986705 1.3086334e-38 306 263
-0.015795778 0.69300002 -0.027946379 1.105803e-38 307 263
-0.014580719 0.69300002 -0.027946379 1.1238108e-38 308 263
-0.01336566 0.69300002 -0.027946379 1.3450443e-38 309 263
-0.012115533 0.69099998 -0.027865725 1.3733138e-38 310 263
-0.01090398 0.69099998 -0.027865725 1.2811542e-38 311 263
-0.0096783992 0.69 -0.027825398 1.2993731e-38 312 263
-0.0084686 0.69 -0.027825398 1.2624588e-38 313 263
-0.0072587994 0.69 -0.027825398 1.2900787e-38 314 263
-0.0060489997 0.69 -0.027825398 1.2992982e-38 315 263
-0.0048391996 0.69 -0.027825398 1.2993689e-38 316 263
-0.0036293997 0.69 -0.027825398 1.2901134e-38 317 263
-0.0024195998 0.69 -0.027825398 1.3085506e-38 318 263
-0.0012115532 0.69099998 -0.027865725 1.2901475e-38 319 263
0 0.69099998 -0.027865725 1.2809275e-38 320 263
0.00121506 0.69300002 -0.027946379 1.2717079e-38 321 263
0.00243012 0.69300002 -0.027946379 1.2532335e-38 322 263
0.0036451798 0.69300002 -0.027946379 1.2163552e-38 323 263
0.00486024 0.69300002 -0.027946379 1.2161401e-38 324 263
0.0060840664 0.69400001 -0.027986705 1.1792979e-38 325 263
0.0073008798 0.69400001 -0.027986705 1.1790829e-38 326 263
0.0085176928 0.69400001 -0.027986705 1.1698275e-38 327 263
0.0097625591 0.69599998 -0.028067358 1.1698997e-38 328 263
0.010982879 0.69599998 -0.028067358 1.1791192e-38 329 263
0.0122032 0.69599998 -0.028067358 1.1883388e-38 330 263
0.013442807 0.69700003 -0.028107686 1.1883388e-38 331 263
0.01466488 0.69700003 -0.028107686 1.1791548e-38 332 263
0.015886955 0.69700003 -0.028107686 1.1791548e-38 333 263
0.017133573 0.69800001 -0.028148014 1.1883744e-38 334 263
0.0183574 0.69800001 -0.028148014 1.1883744e-38 335 263
0.019637333 0.69999999 -0.028228667 1.1791548e-38 336 263
0.020864666 0.69999999 -0.028228667 1.1975941e-38 337 263
0.022091998 0.69999999 -0.028228667 1.1792276e-38 338 263
0.023352645 0.70099998 -0.028268991 1.1976307e-38 339 263
0.024651866 0.70300001 -0.028349647 1.234366e-38 340 263
0.025884461 0.70300001 -0.028349647 1.2620607e-38 341 263
0.027117053 0.70300001 -0.028349647 1.2805369e-38 342 263
0.028349647 0.70300001 -0.028349647 1.3635132e-38 343 263
0.029582238 0.70300001 -0.028349647 1.5109939e-38 344 263
0.030814834 0.70300001 -0.028349647 1.594006e-38 345 263
-0.040060159 0.71399999 -0.030045118 1.5759628e-38 288 264
-0.038808275 0.71399999 -0.030045118 1.4561086e-38 289 264
-0.037503798 0.713 -0.030003037 1.4378438e-38 290 264
-0.036253672 0.713 -0.030003037 1.4101491e-38 291 264
-0.034758076 0.708 -0.02979264 1.400963e-38 292 264
-0.033422034 0.70599997 -0.029708479 1.400963e-38 293 264
-0.031956252 0.70099998 -0.029498078 1.3734119e-38 294 264
-0.030683333 0.69999999 -0.029455997 1.3641924e-38 295 264
-0.029371841 0.69800001 -0.029371841 1.3825236e-38 296 264
-0.028148014 0.69800001 -0.029371841 1.3641203e-38 297 264
-0.026885614 0.69700003 -0.02932976 1.3549727e-38 298 264
-0.025663542 0.69700003 -0.02932976 1.32735e-38 299 264
-0.024441468 0.69700003 -0.02932976 1.3272065e-38 300 264
-0.023186078 0.69599998 -0.029287677 1.2995837e-38 301 264
-0.021965759 0.69599998 -0.029287677 1.3086247e-38 302 264
-0.020745439 0.69599998 -0.029287677 1.3086247e-38 303 264
-0.019469013 0.69400001 -0.029203519 1.2902604e-38 304 264
-0.0182522 0.69400001 -0.029203519 1.3271387e-38 305 264
-0.017035386 0.69400001 -0.029203519 1.3086658e-38 306 264
-0.015795778 0.69300002 -0.029161438 1.2349093e-38 307 264
-0.014580719 0.69300002 -0.029161438 1.2346949e-38 308 264
-0.01336566 0.69300002 -0.029161438 1.3361099e-38 309 264
-0.012115533 0.69099998 -0.029077278 1.3088457e-38 310 264
-0.01090398 0.69099998 -0.029077278 1.1982468e-38 311 264
-0.0096924258 0.69099998 -0.029077278 1.2439455e-38 312 264
-0.0084686 0.69 -0.029035198 1.2808238e-38 313 264
-0.0072587994 0.69 -0.029035198 1.2901853e-38 314 264
-0.0060489997 0.69 -0.029035198 1.2901853e-38 315 264
-0.0048391996 0.69 -0.029035198 1.2994036e-38 316 264
-0.0036293997 0.69 -0.029035198 1.290184e-38 317 264
-0.0024231065 0.69099998 -0.029077278 1.3084787e-38 318 264
-0.0012115532 0.69099998 -0.029077278 1.299259e-38 319 264
0 0.69099998 -0.029077278 1.2900391e-38 320 264
0.00121506 0.69300002 -0.029161438 1.271636e-38 321 264
0.00243012 0.69300002 -0.029161438 1.2531613e-38 322 264
0.0036451798 0.69300002 -0.029161438 1.2255025e-38 323 264
0.00486024 0.69300002 -0.029161438 1.2160685e-38 324 264
0.0060840664 0.69400001 -0.029203519 1.1791543e-38 325 264
0.0073008798 0.69400001 -0.029203519 1.1514966e-38 326 264
0.0085176928 0.69400001 -0.029203519 1.142277e-38 327 264
0.0097625591 0.69599998 -0.029287677 1.151461e-38 328 264
0.010982879 0.69599998 -0.029287677 1.1698999e-38 329 264
0.0122032 0.69599998 -0.029287677 1.1700076e-38 330 264
0.013442807 0.69700003 -0.02932976 1.1700076e-38 331 264
0.01466488 0.69700003 -0.02932976 1.1883744e-38 332 264
0.015886955 0.69700003 -0.02932976 1.1883744e-38 333 264
0.017133573 0.69800001 -0.029371841 1.1700073e-38 334 264
0.0183574 0.69800001 -0.029371841 1.1700073e-38 335 264
0.019637333 0.69999999 -0.029455997 1.1700073e-38 336 264
0.020894472 0.70099998 -0.029498078 1.1792629e-38 337 264
0.022123558 0.70099998 -0.029498078 1.1792994e-38 338 264
0.023419274 0.70300001 -0.029582238 1.188519e-38 339 264
0.024651866 0.70300001 -0.029582238 1.2160348e-38 340 264
0.02592128 0.704 -0.029624319 1.2437295e-38 341 264
0.027117053 0.70300001 -0.029582238 1.3173077e-38 342 264
0.028349647 0.70300001 -0.029582238 1.4187229e-38 343 264
0.029582238 0.70300001 -0.029582238 1.5202139e-38 344 264
0.030814834 0.70300001 -0.029582238 1.5939704e-38 345 264
-0.040060159 0.71399999 -0.031296998 1.5944392e-38 288 265
-0.038808275 0.71399999 -0.031296998 1.4838044e-38 289 265
-0.037556399 0.71399999 -0.031296998 1.4469927e-38 290 265
-0.036253672 0.713 -0.031253166 1.4101143e-38 291 265
-0.034758076 0.708 -0.031034 1.3918516e-38 292 265
-0.033422034 0.70599997 -0.030946331 1.382632e-38 293 265
-0.031956252 0.70099998 -0.030727165 1.3826674e-38 294 265
-0.030683333 0.69999999 -0.030683333 1.3641924e-38 295 265
-0.029371841 0.69800001 -0.030595668 1.3825236e-38 296 265
-0.028148014 0.69800001 -0.030595668 1.3825236e-38 297 265
-0.026924185 0.69800001 -0.030595668 1.3549729e-38 298 265
-0.025700359 0.69800001 -0.030595668 1.3273144e-38 299 265
-0.024441468 0.69700003 -0.030551834 1.3272065e-38 300 265
-0.023219392 0.69700003 -0.030551834 1.3272065e-38 301 265
-0.02199732 0.69700003 -0.030551834 1.3179516e-38 302 265
-0.020745439 0.69599998 -0.030507999 1.3179516e-38 303 265
-0.019469013 0.69400001 -0.030420333 1.2995498e-38 304 265
-0.0182522 0.69400001 -0.030420333 1.2995498e-38 305 265
-0.017035386 0.69400001 -0.030420333 1.299515e-38 306 265
-0.015795778 0.69300002 -0.0303765 1.2626368e-38 307 265
-0.014580719 0.69300002 -0.0303765 1.2534187e-38 308 265
-0.01336566 0.69300002 -0.0303765 1.2534187e-38 309 265
-0.012150601 0.69300002 -0.0303765 1.2534175e-38 310 265
-0.010935539 0.69300002 -0.0303765 1.2349783e-38 311 265
-0.0096924258 0.69099998 -0.030288832 1.2808939e-38 312 265
-0.008480873 0.69099998 -0.030288832 1.2901134e-38 313 265
-0.0072693196 0.69099998 -0.030288832 1.2994039e-38 314 265
-0.0060577663 0.69099998 -0.030288832 1.2994039e-38 315 265
-0.0048462129 0.69099998 -0.030288832 1.3177704e-38 316 265
-0.0036346598 0.69099998 -0.030288832 1.2901119e-38 317 265
-0.0024231065 0.69099998 -0.030288832 1.308479e-38 318 265
-0.00121506 0.69300002 -0.0303765 1.2900038e-38 319 265
0 0.69300002 -0.0303765 1.2900038e-38 320 265
0.00121506 0.69300002 -0.0303765 1.2531616e-38 321 265
0.00243012 0.69300002 -0.0303765 1.2439064e-38 322 265
0.0036451798 0.69300002 -0.0303765 1.2254672e-38 323 265
0.00486024 0.69300002 -0.0303765 1.2068853e-38 324 265
0.0060840664 0.69400001 -0.030420333 1.1700429e-38 325 265
0.0073008798 0.69400001 -0.030420333 1.1514966e-38 326 265
0.0085422397 0.69599998 -0.030507999 1.142277e-38 327 265
0.0097625591 0.69599998 -0.030507999 1.1515684e-38 328 265
0.010982879 0.69599998 -0.030507999 1.160788e-38 329 265
0.012220734 0.69700003 -0.030551834 1.1883744e-38 330 265
0.013442807 0.69700003 -0.030551834 1.1791548e-38 331 265
0.01466488 0.69700003 -0.030551834 1.1791548e-38 332 265
0.015909746 0.69800001 -0.030595668 1.1883744e-38 333 265
0.017133573 0.69800001 -0.030595668 1.1700076e-38 334 265
0.018409999 0.69999999 -0.030683333 1.1700076e-38 335 265
0.019637333 0.69999999 -0.030683333 1.1700076e-38 336 265
0.020894472 0.70099998 -0.030727165 1.1792273e-38 337 265
0.02218668 0.70300001 -0.030814834 1.1976307e-38 338 265
0.023419274 0.70300001 -0.030814834 1.2068502e-38 339 265
0.024686933 0.704 -0.030858666 1.2252899e-38 340 265
0.02592128 0.704 -0.030858666 1.2345095e-38 341 265
0.027155625 0.704 -0.030858666 1.3265639e-38 342 265
0.028389972 0.704 -0.030858666 1.4740769e-38 343 265
0.029624319 0.704 -0.030858666 1.5386533e-38 344 265
-0.040172372 0.71600002 -0.032640055 1.5945117e-38 288 266
-0.038916986 0.71600002 -0.032640055 1.5115357e-38 289 266
-0.037661601 0.71600002 -0.032640055 1.446958e-38 290 266
-0.036406212 0.71600002 -0.032640055 1.3916406e-38 291 266
-0.035150826 0.71600002 -0.032640055 1.3918513e-38 292 266
-0.03389544 0.71600002 -0.032640055 1.3826318e-38 293 266
-0.032047424 0.70300001 -0.032047424 1.3917785e-38 294 266
-0.030727165 0.70099998 -0.031956252 1.3917785e-38 295 266
-0.029371841 0.69800001 -0.031819493 1.3825589e-38 296 266
-0.028148014 0.69800001 -0.031819493 1.3825589e-38 297 266
-0.026924185 0.69800001 -0.031819493 1.3641556e-38 298 266
-0.025700359 0.69800001 -0.031819493 1.3549361e-38 299 266
-0.024441468 0.69700003 -0.03177391 1.3731954e-38 300 266
-0.023219392 0.69700003 -0.03177391 1.3639759e-38 301 266
-0.02199732 0.69700003 -0.03177391 1.354721e-38 302 266
-0.020745439 0.69599998 -0.031728316 1.3455014e-38 303 266
-0.019469013 0.69400001 -0.031637147 1.3179516e-38 304 266
-0.0182522 0.69400001 -0.031637147 1.3179516e-38 305 266
-0.017035386 0.69400001 -0.031637147 1.2903652e-38 306 266
-0.015795778 0.69300002 -0.031591557 1.2811455e-38 307 266
-0.014580719 0.69300002 -0.031591557 1.2626342e-38 308 266
-0.01336566 0.69300002 -0.031591557 1.2534147e-38 309 266
-0.012150601 0.69300002 -0.031591557 1.2808576e-38 310 266
-0.010935539 0.69300002 -0.031591557 1.2900771e-38 311 266
-0.0097204801 0.69300002 -0.031591557 1.2809289e-38 312 266
-0.0085054198 0.69300002 -0.031591557 1.2901843e-38 313 266
-0.0072903596 0.69300002 -0.031591557 1.2994392e-38 314 266
-0.0060753003 0.69300002 -0.031591557 1.2994392e-38 315 266
-0.00486024 0.69300002 -0.031591557 1.3085153e-38 316 266
-0.0036451798 0.69300002 -0.031591557 1.2808925e-38 317 266
-0.00243012 0.69300002 -0.031591557 1.2992237e-38 318 266
-0.00121506 0.69300002 -0.031591557 1.2900041e-38 319 266
0 0.69300002 -0.031591557 1.2623814e-38 320 266
0.0012168133 0.69400001 -0.031637147 1.253126e-38 321 266
0.0024336267 0.69400001 -0.031637147 1.2438346e-38 322 266
0.0036504399 0.69400001 -0.031637147 1.2253953e-38 323 266
0.0048672534 0.69400001 -0.031637147 1.2068487e-38 324 266
0.0061015999 0.69599998 -0.031728316 1.1791899e-38 325 266
0.0073219193 0.69599998 -0.031728316 1.1790829e-38 326 266
0.0085422397 0.69599998 -0.031728316 1.1790829e-38 327 266
0.0097765867 0.69700003 -0.03177391 1.1791548e-38 328 266
0.01099866 0.69700003 -0.03177391 1.1791548e-38 329 266
0.012220734 0.69700003 -0.03177391 1.1883744e-38 330 266
0.013442807 0.69700003 -0.03177391 1.1883744e-38 331 266
0.01468592 0.69800001 -0.031819493 1.1883388e-38 332 266
0.015909746 0.69800001 -0.031819493 1.1883388e-38 333 266
0.017133573 0.69800001 -0.031819493 1.1700078e-38 334 266
0.018409999 0.69999999 -0.031910665 1.1792276e-38 335 266
0.019637333 0.69999999 -0.031910665 1.1792276e-38 336 266
0.020894472 0.70099998 -0.031956252 1.1976307e-38 337 266
0.02218668 0.70300001 -0.032047424 1.1792641e-38 338 266
0.023419274 0.70300001 -0.032047424 1.1977032e-38 339 266
0.024686933 0.704 -0.032093015 1.1886635e-38 340 266
0.02592128 0.704 -0.032093015 1.2163222e-38 341 266
0.027155625 0.704 -0.032093015 1.3635144e-38 342 266
0.028389972 0.704 -0.032093015 1.5295024e-38 343 266
-0.038916986 0.71600002 -0.03389544 1.5575985e-38 289 267
-0.037661601 0.71600002 -0.03389544 1.4746539e-38 290 267
-0.036406212 0.71600002 -0.03389544 1.4008974e-38 291 267
-0.035150826 0.71600002 -0.03389544 1.4286592e-38 292 267
-0.03389544 0.71600002 -0.03389544 1.391781e-38 293 267
-0.032093015 0.704 -0.03332736 1.3827034e-38 294 267
-0.030814834 0.70300001 -0.033280019 1.3642642e-38 295 267
-0.029582238 0.70300001 -0.033280019 1.3642277e-38 296 267
-0.028268991 0.70099998 -0.03318534 1.3642277e-38 297 267
-0.026924185 0.69800001 -0.033043321 1.3825592e-38 298 267
-0.025700359 0.69800001 -0.033043321 1.3641559e-38 299 267
-0.024476532 0.69800001 -0.033043321 1.3549008e-38 300 267
-0.023252707 0.69800001 -0.033043321 1.3549008e-38 301 267
-0.02202888 0.69800001 -0.033043321 1.3364261e-38 302 267
-0.020745439 0.69599998 -0.032948639 1.3364261e-38 303 267
-0.019469013 0.69400001 -0.032853961 1.3180948e-38 304 267
-0.0182522 0.69400001 -0.032853961 1.2996557e-38 305 267
-0.017035386 0.69400001 -0.032853961 1.2904354e-38 306 267
-0.015818574 0.69400001 -0.032853961 1.2535932e-38 307 267
-0.014580719 0.69300002 -0.03280662 1.2718525e-38 308 267
-0.01336566 0.69300002 -0.03280662 1.262633e-38 309 267
-0.012150601 0.69300002 -0.03280662 1.2716376e-38 310 267
-0.010935539 0.69300002 -0.03280662 1.262418e-38 311 267
-0.0097204801 0.69300002 -0.03280662 1.2808576e-38 312 267
-0.0085054198 0.69300002 -0.03280662 1.2900771e-38 313 267
-0.0072903596 0.69300002 -0.03280662 1.2994039e-38 314 267
-0.0060753003 0.69300002 -0.03280662 1.2994039e-38 315 267
-0.00486024 0.69300002 -0.03280662 1.3176632e-38 316 267
-0.0036504399 0.69400001 -0.032853961 1.2992241e-38 317 267
-0.0024336267 0.69400001 -0.032853961 1.2992241e-38 318 267
-0.0012168133 0.69400001 -0.032853961 1.2623458e-38 319 267
0 0.69400001 -0.032853961 1.2806774e-38 320 267
0.0012168133 0.69400001 -0.032853961 1.2622382e-38 321 267
0.0024336267 0.69400001 -0.032853961 1.2437995e-38 322 267
0.0036504399 0.69400001 -0.032853961 1.2345798e-38 323 267
0.0048812795 0.69599998 -0.032948639 1.2068855e-38 324 267
0.0061015999 0.69599998 -0.032948639 1.1700073e-38 325 267
0.0073219193 0.69599998 -0.032948639 1.1791195e-38 326 267
0.0085545136 0.69700003 -0.03299598 1.1791195e-38 327 267
0.0097906133 0.69800001 -0.033043321 1.1791548e-38 328 267
0.01101444 0.69800001 -0.033043321 1.1791548e-38 329 267
0.012238266 0.69800001 -0.033043321 1.1791548e-38 330 267
0.013462093 0.69800001 -0.033043321 1.1883744e-38 331 267
0.014727999 0.69999999 -0.033137999 1.1700076e-38 332 267
0.015955333 0.69999999 -0.033137999 1.1700076e-38 333 267
0.017207211 0.70099998 -0.03318534 1.1700076e-38 334 267
0.018436298 0.70099998 -0.03318534 1.1700076e-38 335 267
0.019721493 0.70300001 -0.033280019 1.1700076e-38 336 267
0.020954086 0.70300001 -0.033280019 1.1792273e-38 337 267
0.022218239 0.704 -0.03332736 1.1792638e-38 338 267
0.023452586 0.704 -0.03332736 1.1885193e-38 339 267
0.024686933 0.704 -0.03332736 1.2254698e-38 340 267
0.02592128 0.704 -0.03332736 1.2254698e-38 341 267
0.027155625 0.704 -0.03332736 1.382134e-38 342 267
-0.037661601 0.71600002 -0.035150826 1.5206808e-38 290 268
-0.036406212 0.71600002 -0.035150826 1.4377046e-38 291 268
-0.035150826 0.71600002 -0.035150826 1.4469189e-38 292 268
-0.03332736 0.704 -0.034561705 1.4100406e-38 293 268
-0.032093015 0.704 -0.034561705 1.4009986e-38 294 268
-0.030858666 0.704 -0.034561705 1.391779e-38 295 268
-0.029624319 0.704 -0.034561705 1.3825592e-38 296 268
-0.028349647 0.70300001 -0.034512613 1.3825592e-38 297 268
-0.027117053 0.70300001 -0.034512613 1.3825592e-38 298 268
-0.025773998 0.69999999 -0.034365334 1.3641559e-38 299 268
-0.024476532 0.69800001 -0.034267146 1.3549008e-38 300 268
-0.023252707 0.69800001 -0.034267146 1.3549008e-38 301 268
-0.02202888 0.69800001 -0.034267146 1.32735e-38 302 268
-0.020805053 0.69800001 -0.034267146 1.3181304e-38 303 268
-0.019581227 0.69800001 -0.034267146 1.3363895e-38 304 268
-0.018331099 0.69700003 -0.034218054 1.3271699e-38 305 268
-0.017109027 0.69700003 -0.034218054 1.3087304e-38 306 268
-0.015864158 0.69599998 -0.034168959 1.2995108e-38 307 268
-0.01460176 0.69400001 -0.034070771 1.2901838e-38 308 268
-0.013384946 0.69400001 -0.034070771 1.2717445e-38 309 268
-0.012168133 0.69400001 -0.034070771 1.2899691e-38 310 268
-0.01095132 0.69400001 -0.034070771 1.2715301e-38 311 268
-0.0097345067 0.69400001 -0.034070771 1.2808576e-38 312 268
-0.0085176928 0.69400001 -0.034070771 1.2900771e-38 313 268
-0.0073008798 0.69400001 -0.034070771 1.2901487e-38 314 268
-0.0060840664 0.69400001 -0.034070771 1.2901487e-38 315 268
-0.0048672534 0.69400001 -0.034070771 1.3084081e-38 316 268
-0.0036504399 0.69400001 -0.034070771 1.2991885e-38 317 268
-0.0024336267 0.69400001 -0.034070771 1.2899688e-38 318 268
-0.0012168133 0.69400001 -0.034070771 1.2623461e-38 319 268
0 0.69400001 -0.034070771 1.262131e-38 320 268
0.0012168133 0.69400001 -0.034070771 1.262131e-38 321 268
0.0024336267 0.69400001 -0.034070771 1.2528757e-38 322 268
0.0036609597 0.69599998 -0.034168959 1.2344366e-38 323 268
0.0048812795 0.69599998 -0.034168959 1.2251452e-38 324 268
0.0061103669 0.69700003 -0.034218054 1.1974865e-38 325 268
0.00733244 0.69700003 -0.034218054 1.1883388e-38 326 268
0.0085545136 0.69700003 -0.034218054 1.1883388e-38 327 268
0.0097906133 0.69800001 -0.034267146 1.1883744e-38 328 268
0.01101444 0.69800001 -0.034267146 1.1975941e-38 329 268
0.012238266 0.69800001 -0.034267146 1.1700073e-38 330 268
0.013500666 0.69999999 -0.034365334 1.1700073e-38 331 268
0.014727999 0.69999999 -0.034365334 1.1608596e-38 332 268
0.015955333 0.69999999 -0.034365334 1.1700793e-38 333 268
0.017207211 0.70099998 -0.034414422 1.1700076e-38 334 268
0.018436298 0.70099998 -0.034414422 1.1700076e-38 335 268
0.019721493 0.70300001 -0.034512613 1.1699723e-38 336 268
0.020983893 0.704 -0.034561705 1.179192e-38 337 268
0.022218239 0.704 -0.034561705 1.188484e-38 338 268
0.023452586 0.704 -0.034561705 1.2253262e-38 339 268
0.024686933 0.704 -0.034561705 1.2254348e-38 340 268
0.02592128 0.704 -0.034561705 1.3175944e-38 341 268
0.027155625 0.704 -0.034561705 1.4649672e-38 342 268
-0.030858666 0.704 -0.035796054 1.3917437e-38 295 269
-0.029624319 0.704 -0.035796054 1.391779e-38 296 269
-0.028349647 0.70300001 -0.035745207 1.3825236e-38 297 269
-0.027117053 0.70300001 -0.035745207 1.3549724e-38 298 269
-0.025810819 0.70099998 -0.035643511 1.3549724e-38 299 269
-0.024546666 0.69999999 -0.035592664 1.3549011e-38 300 269
-0.023319334 0.69999999 -0.035592664 1.3456456e-38 301 269
-0.022091998 0.69999999 -0.035592664 1.3273144e-38 302 269
-0.020864666 0.69999999 -0.035592664 1.3273144e-38 303 269
-0.019637333 0.69999999 -0.035592664 1.3272418e-38 304 269
-0.0183574 0.69800001 -0.035490975 1.3180222e-38 305 269
-0.017109027 0.69700003 -0.035440128 1.2996187e-38 306 269
-0.015886955 0.69700003 -0.035440128 1.2811796e-38 307 269
-0.014643839 0.69599998 -0.035389278 1.2902557e-38 308 269
-0.013423519 0.69599998 -0.035389278 1.262633e-38 309 269
-0.0122032 0.69599998 -0.035389278 1.2715654e-38 310 269
-0.010982879 0.69599998 -0.035389278 1.2715654e-38 311 269
-0.0097625591 0.69599998 -0.035389278 1.2716376e-38 312 269
-0.0085422397 0.69599998 -0.035389278 1.2900768e-38 313 269
-0.0073219193 0.69599998 -0.035389278 1.30848e-38 314 269
-0.0060840664 0.69400001 -0.035287585 1.30848e-38 315 269
-0.0048672534 0.69400001 -0.035287585 1.3084081e-38 316 269
-0.0036609597 0.69599998 -0.035389278 1.2899688e-38 317 269
-0.0024336267 0.69400001 -0.035287585 1.2715301e-38 318 269
-0.0012168133 0.69400001 -0.035287585 1.253091e-38 319 269
0 0.69400001 -0.035287585 1.2437998e-38 320 269
0.0012203199 0.69599998 -0.035389278 1.2345442e-38 321 269
0.0024406398 0.69599998 -0.035389278 1.2345442e-38 322 269
0.0036609597 0.69599998 -0.035389278 1.2161051e-38 323 269
0.0048882933 0.69700003 -0.035440128 1.2068137e-38 324 269
0.006119133 0.69800001 -0.035490975 1.1975941e-38 325 269
0.0073429602 0.69800001 -0.035490975 1.1792629e-38 326 269
0.0085667865 0.69800001 -0.035490975 1.1792629e-38 327 269
0.0097906133 0.69800001 -0.035490975 1.1792629e-38 328 269
0.01101444 0.69800001 -0.035490975 1.1700073e-38 329 269
0.012273333 0.69999999 -0.035592664 1.1700429e-38 330 269
0.013500666 0.69999999 -0.035592664 1.1700429e-38 331 269
0.014727999 0.69999999 -0.035592664 1.1700073e-38 332 269
0.015978126 0.70099998 -0.035643511 1.1792629e-38 333 269
0.017207211 0.70099998 -0.035643511 1.1792276e-38 334 269
0.018488899 0.70300001 -0.035745207 1.1792276e-38 335 269
0.019721493 0.70300001 -0.035745207 1.1791922e-38 336 269
0.020983893 0.704 -0.035796054 1.1975953e-38 337 269
0.022218239 0.704 -0.035796054 1.1885556e-38 338 269
0.023452586 0.704 -0.035796054 1.2070306e-38 339 269
0.024686933 0.704 -0.035796054 1.2436588e-38 340 269
0.025994917 0.70599997 -0.035897743 1.4188304e-38 341 269
-0.030858666 0.704 -0.037030395 1.382632e-38 295 270
-0.029624319 0.704 -0.037030395 1.4009986e-38 296 270
-0.028389972 0.704 -0.037030395 1.3825236e-38 297 270
-0.027117053 0.70300001 -0.036977798 1.3825236e-38 298 270
-0.025810819 0.70099998 -0.036872596 1.3549008e-38 299 270
-0.024581732 0.70099998 -0.036872596 1.3456456e-38 300 270
-0.023319334 0.69999999 -0.036819998 1.3456456e-38 301 270
-0.022091998 0.69999999 -0.036819998 1.3364261e-38 302 270
-0.020864666 0.69999999 -0.036819998 1.3364261e-38 303 270
-0.019637333 0.69999999 -0.036819998 1.336497e-38 304 270
-0.018409999 0.69999999 -0.036819998 1.318022e-38 305 270
-0.017133573 0.69800001 -0.0367148 1.3272052e-38 306 270
-0.015909746 0.69800001 -0.0367148 1.3087301e-38 307 270
-0.01466488 0.69700003 -0.036662199 1.2902557e-38 308 270
-0.013442807 0.69700003 -0.036662199 1.2718525e-38 309 270
-0.012220734 0.69700003 -0.036662199 1.2900041e-38 310 270
-0.01099866 0.69700003 -0.036662199 1.2900041e-38 311 270
-0.0097765867 0.69700003 -0.036662199 1.2901124e-38 312 270
-0.0085545136 0.69700003 -0.036662199 1.2901124e-38 313 270
-0.00733244 0.69700003 -0.036662199 1.2901843e-38 314 270
-0.0061015999 0.69599998 -0.036609598 1.2901843e-38 315 270
-0.0048812795 0.69599998 -0.036609598 1.2900768e-38 316 270
-0.0036609597 0.69599998 -0.036609598 1.2716376e-38 317 270
-0.0024406398 0.69599998 -0.036609598 1.2715657e-38 318 270
-0.0012203199 0.69599998 -0.036609598 1.2531266e-38 319 270
0 0.69599998 -0.036609598 1.2622382e-38 320 270
0.0012203199 0.69599998 -0.036609598 1.2622382e-38 321 270
0.0024406398 0.69599998 -0.036609598 1.2254321e-38 322 270
0.0036609597 0.69599998 -0.036609598 1.207029e-38 323 270
0.0048953067 0.69800001 -0.0367148 1.2344363e-38 324 270
0.006119133 0.69800001 -0.0367148 1.2160332e-38 325 270
0.0073429602 0.69800001 -0.0367148 1.2160335e-38 326 270
0.0085667865 0.69800001 -0.0367148 1.2068139e-38 327 270
0.0097906133 0.69800001 -0.0367148 1.1975941e-38 328 270
0.011045999 0.69999999 -0.036819998 1.1883744e-38 329 270
0.012273333 0.69999999 -0.036819998 1.1883744e-38 330 270
0.013519952 0.70099998 -0.036872596 1.1883744e-38 331 270
0.014749039 0.70099998 -0.036872596 1.1883388e-38 332 270
0.016023712 0.70300001 -0.036977798 1.1883388e-38 333 270
0.017256306 0.70300001 -0.036977798 1.1700078e-38 334 270
0.018488899 0.70300001 -0.036977798 1.1792276e-38 335 270
0.019721493 0.70300001 -0.036977798 1.1700446e-38 336 270
0.020983893 0.704 -0.037030395 1.1884837e-38 337 270
0.022218239 0.704 -0.037030395 1.1977754e-38 338 270
0.023519212 0.70599997 -0.037135597 1.1977754e-38 339 270
0.024757065 0.70599997 -0.037135597 1.2804663e-38 340 270
0.025994917 0.70599997 -0.037135597 1.4925164e-38 341 270
-0.029624319 0.704 -0.038264744 1.3917787e-38 296 271
-0.028389972 0.704 -0.038264744 1.3825592e-38 297 271
-0.027155625 0.704 -0.038264744 1.3641559e-38 298 271
-0.025884461 0.70300001 -0.038210396 1.3549005e-38 299 271
-0.024651866 0.70300001 -0.038210396 1.3732676e-38 300 271
-0.023352645 0.70099998 -0.038101684 1.345609e-38 301 271
-0.022123558 0.70099998 -0.038101684 1.3364614e-38 302 271
-0.020894472 0.70099998 -0.038101684 1.3272418e-38 303 271
-0.019665385 0.70099998 -0.038101684 1.3089106e-38 304 271
-0.018409999 0.69999999 -0.038047329 1.299691e-38 305 271
-0.017182667 0.69999999 -0.038047329 1.2996187e-38 306 271
-0.015909746 0.69800001 -0.037938625 1.2903991e-38 307 271
-0.01468592 0.69800001 -0.037938625 1.3086585e-38 308 271
-0.013462093 0.69800001 -0.037938625 1.2902194e-38 309 271
-0.012220734 0.69700003 -0.037884273 1.3084787e-38 310 271
-0.01099866 0.69700003 -0.037884273 1.3084787e-38 311 271
-0.0097765867 0.69700003 -0.037884273 1.2902194e-38 312 271
-0.0085545136 0.69700003 -0.037884273 1.2902194e-38 313 271
-0.00733244 0.69700003 -0.037884273 1.3177348e-38 314 271
-0.0061103669 0.69700003 -0.037884273 1.3085153e-38 315 271
-0.0048882933 0.69700003 -0.037884273 1.2901122e-38 316 271
-0.00366622 0.69700003 -0.037884273 1.2716729e-38 317 271
-0.0024441467 0.69700003 -0.037884273 1.2899322e-38 318 271
-0.0012220733 0.69700003 -0.037884273 1.2807127e-38 319 271
