# .PCD v.7 - Point Cloud Data file format
FIELDS x y z rgb imX imY
SIZE 4 4 4 4 4 4
TYPE F F F F F F
COUNT 1 1 1 1 1 1
WIDTH 830
HEIGHT 1
VIEWPOINT 0 0 0 1 0 0 0
POINTS 830
DATA ascii
0.021192541 0.71100003 -0.01620606 1.1786979e-38 337 253
0.022439159 0.71100003 -0.01620606 1.5665306e-38 338 253
0.023685781 0.71100003 -0.01620606 1.6495427e-38 339 253
-0.053378478 0.708 -0.017379038 1.6035183e-38 277 254
-0.05206348 0.70700002 -0.017354494 1.3640632e-38 278 254
-0.050823875 0.70700002 -0.017354494 1.2073665e-38 279 254
-0.049373865 0.704 -0.017280852 9.2224469e-39 280 254
-0.048071139 0.70300001 -0.017256306 9.4993925e-39 281 254
-0.046705291 0.70099998 -0.017207211 1.1618097e-38 282 254
-0.04541133 0.69999999 -0.017182667 1.2078716e-38 283 254
-0.04405776 0.69800001 -0.017133573 1.2814486e-38 284 254
-0.042772565 0.69700003 -0.017109027 7.7437267e-39 285 254
-0.041490879 0.69599998 -0.017084479 6.9856508e-39 286 254
-0.040154841 0.69400001 -0.017035386 6.6172284e-39 287 254
-0.038938027 0.69400001 -0.017035386 8.3660587e-39 288 254
-0.037666857 0.69300002 -0.01701084 9.3798505e-39 289 254
-0.036451802 0.69300002 -0.01701084 9.5642418e-39 290 254
-0.035236739 0.69300002 -0.01701084 9.3798505e-39 291 254
-0.034021679 0.69300002 -0.01701084 7.9061526e-39 292 254
-0.032711938 0.69099998 -0.016961746 7.3529788e-39 293 254
-0.031500384 0.69099998 -0.016961746 7.4433793e-39 294 254
-0.030288832 0.69099998 -0.016961746 7.535575e-39 295 254
-0.029077278 0.69099998 -0.016961746 7.5362882e-39 296 254
-0.027865725 0.69099998 -0.016961746 7.5362882e-39 297 254
-0.026615599 0.69 -0.0169372 7.9947356e-39 298 254
-0.02533216 0.68800002 -0.016888106 7.9021813e-39 299 254
-0.024125867 0.68800002 -0.016888106 7.9021841e-39 300 254
-0.022919573 0.68800002 -0.016888106 7.7177914e-39 301 254
-0.021713281 0.68800002 -0.016888106 7.4426437e-39 302 254
-0.020506985 0.68800002 -0.016888106 7.1664169e-39 303 254
-0.019300694 0.68800002 -0.016888106 6.706159e-39 304 254
-0.0180944 0.68800002 -0.016888106 6.706159e-39 305 254
-0.016888106 0.68800002 -0.016888106 6.1558607e-39 306 254
-0.015681813 0.68800002 -0.016888106 6.1558607e-39 307 254
-0.014517599 0.69 -0.0169372 6.0625903e-39 308 254
-0.0133078 0.69 -0.0169372 5.9703947e-39 309 254
-0.012062933 0.68800002 -0.016888106 5.8778459e-39 310 254
-0.010856641 0.68800002 -0.016888106 5.8778459e-39 311 254
-0.0096783992 0.69 -0.0169372 5.6030569e-39 312 254
-0.0084686 0.69 -0.0169372 5.6952525e-39 313 254
-0.0072693196 0.69099998 -0.016961746 5.6959686e-39 314 254
-0.0060577663 0.69099998 -0.016961746 5.6959686e-39 315 254
-0.0048462129 0.69099998 -0.016961746 5.6959686e-39 316 254
-0.0036346598 0.69099998 -0.016961746 5.7881642e-39 317 254
-0.0024231065 0.69099998 -0.016961746 5.329707e-39 318 254
-0.00121506 0.69300002 -0.01701084 5.329707e-39 319 254
0 0.69300002 -0.01701084 5.1471178e-39 320 254
0.00121506 0.69300002 -0.01701084 5.1471178e-39 321 254
0.00243012 0.69300002 -0.01701084 4.9638055e-39 322 254
0.0036504399 0.69400001 -0.017035386 4.8712498e-39 323 254
0.0048672534 0.69400001 -0.017035386 4.7790541e-39 324 254
0.0060840664 0.69400001 -0.017035386 4.6868585e-39 325 254
0.00733244 0.69700003 -0.017109027 4.5024673e-39 326 254
0.0085667865 0.69800001 -0.017133573 4.5024673e-39 327 254
0.0098186666 0.69999999 -0.017182667 4.1354868e-39 328 254
0.011045999 0.69999999 -0.017182667 4.1354868e-39 329 254
0.012290866 0.70099998 -0.017207211 4.1354896e-39 330 254
0.013519952 0.70099998 -0.017207211 4.1354896e-39 331 254
0.014749039 0.70099998 -0.017207211 4.0450918e-39 332 254
0.016183265 0.70999998 -0.017428132 4.5057113e-39 333 254
0.017428132 0.70999998 -0.017428132 5.5202121e-39 334 254
0.018672999 0.70999998 -0.017428132 5.9815504e-39 335 254
0.019917866 0.70999998 -0.017428132 8.0044396e-39 336 254
0.021162732 0.70999998 -0.017428132 1.3351788e-38 337 254
0.022596961 0.71600002 -0.017575413 1.6218483e-38 338 254
-0.053378478 0.708 -0.0186204 1.6035183e-38 277 255
-0.05206348 0.70700002 -0.018594101 1.4285637e-38 278 255
-0.050823875 0.70700002 -0.018594101 1.3087095e-38 279 255
-0.049373865 0.704 -0.018515198 9.5901434e-39 280 255
-0.048071139 0.70300001 -0.018488899 9.682339e-39 281 255
-0.046705291 0.70099998 -0.018436298 1.14337e-38 282 255
-0.04541133 0.69999999 -0.018409999 1.2171265e-38 283 255
-0.04405776 0.69800001 -0.0183574 1.272337e-38 284 255
-0.042772565 0.69700003 -0.018331099 6.6384567e-39 285 255
-0.041490879 0.69599998 -0.018304799 5.8800291e-39 286 255
-0.040270556 0.69599998 -0.018304799 6.3413674e-39 287 255
-0.038938027 0.69400001 -0.0182522 8.1795123e-39 288 255
-0.037666857 0.69300002 -0.018225901 8.3639035e-39 289 255
-0.036451802 0.69300002 -0.018225901 7.9962e-39 290 255
-0.035236739 0.69300002 -0.018225901 7.719253e-39 291 255
-0.034021679 0.69300002 -0.018225901 6.8923678e-39 292 255
-0.032711938 0.69099998 -0.0181733 6.8923678e-39 293 255
-0.031500384 0.69099998 -0.0181733 7.2589853e-39 294 255
-0.030288832 0.69099998 -0.0181733 7.3511809e-39 295 255
-0.029077278 0.69099998 -0.0181733 7.4437297e-39 296 255
-0.027865725 0.69099998 -0.0181733 7.7199564e-39 297 255
-0.026615599 0.69 -0.018146999 7.7195907e-39 298 255
-0.02533216 0.68800002 -0.0180944 7.8117863e-39 299 255
-0.024125867 0.68800002 -0.0180944 7.5362784e-39 300 255
-0.022919573 0.68800002 -0.0180944 7.4437241e-39 301 255
-0.021713281 0.68800002 -0.0180944 7.0760219e-39 302 255
-0.020506985 0.68800002 -0.0180944 6.9834676e-39 303 255
-0.019300694 0.68800002 -0.0180944 6.5232125e-39 304 255
-0.0180944 0.68800002 -0.0180944 6.4310169e-39 305 255
-0.016888106 0.68800002 -0.0180944 6.155509e-39 306 255
-0.015681813 0.68800002 -0.0180944 6.063312e-39 307 255
-0.014517599 0.69 -0.018146999 5.9703975e-39 308 255
-0.0133078 0.69 -0.018146999 5.8778431e-39 309 255
-0.012062933 0.68800002 -0.0180944 5.6023352e-39 310 255
-0.010856641 0.68800002 -0.0180944 5.6023352e-39 311 255
-0.0096783992 0.69 -0.018146999 5.3282651e-39 312 255
-0.0084686 0.69 -0.018146999 5.3282651e-39 313 255
-0.0072693196 0.69099998 -0.0181733 5.5126535e-39 314 255
-0.0060577663 0.69099998 -0.0181733 5.4204579e-39 315 255
-0.0048462129 0.69099998 -0.0181733 5.3293412e-39 316 255
-0.0036346598 0.69099998 -0.0181733 5.3293412e-39 317 255
-0.00243012 0.69300002 -0.018225901 5.3293441e-39 318 255
-0.00121506 0.69300002 -0.018225901 5.2371484e-39 319 255
0 0.69300002 -0.018225901 5.1453157e-39 320 255
0.00121506 0.69300002 -0.018225901 5.1453157e-39 321 255
0.00243012 0.69300002 -0.018225901 4.7783353e-39 322 255
0.0036504399 0.69400001 -0.0182522 4.7783353e-39 323 255
0.0048812795 0.69599998 -0.018304799 4.5946629e-39 324 255
0.0061103669 0.69700003 -0.018331099 4.5024673e-39 325 255
0.00733244 0.69700003 -0.018331099 4.3191522e-39 326 255
0.0085667865 0.69800001 -0.0183574 4.3191522e-39 327 255
0.0098186666 0.69999999 -0.018409999 4.1365588e-39 328 255
0.011045999 0.69999999 -0.018409999 4.1365588e-39 329 255
0.012290866 0.70099998 -0.018436298 4.0454422e-39 330 255
0.013519952 0.70099998 -0.018436298 4.2294733e-39 331 255
0.014749039 0.70099998 -0.018436298 4.413866e-39 332 255
0.016046507 0.704 -0.018515198 5.151431e-39 333 255
0.017428132 0.70999998 -0.018672999 5.6149133e-39 334 255
0.018672999 0.70999998 -0.018672999 6.3524783e-39 335 255
0.01994592 0.71100003 -0.0186993 8.8359898e-39 336 255
0.021341572 0.71600002 -0.0188308 1.4091141e-38 337 255
0.022596961 0.71600002 -0.0188308 1.6493988e-38 338 255
-0.053378478 0.708 -0.01986176 1.612738e-38 277 256
-0.05206348 0.70700002 -0.019833706 1.4561502e-38 278 256
-0.050823875 0.70700002 -0.019833706 1.3823577e-38 279 256
-0.049373865 0.704 -0.019749546 1.1156387e-38 280 256
-0.048139516 0.704 -0.019749546 1.0326987e-38 281 256
-0.046705291 0.70099998 -0.019665385 1.1617375e-38 282 256
-0.04541133 0.69999999 -0.019637333 1.2446776e-38 283 256
-0.044183996 0.69999999 -0.019637333 1.226276e-38 284 256
-0.042772565 0.69700003 -0.019553173 4.5183272e-39 285 256
-0.041490879 0.69599998 -0.019525118 5.3265036e-39 286 256
-0.040270556 0.69599998 -0.019525118 7.1675464e-39 287 256
-0.038938027 0.69400001 -0.019469013 7.5352345e-39 288 256
-0.037666857 0.69300002 -0.01944096 7.5352345e-39 289 256
-0.036451802 0.69300002 -0.01944096 7.4426731e-39 290 256
-0.035236739 0.69300002 -0.01944096 7.2582818e-39 291 256
-0.034021679 0.69300002 -0.01944096 6.707622e-39 292 256
-0.032711938 0.69099998 -0.019384852 6.6154264e-39 293 256
-0.031500384 0.69099998 -0.019384852 6.8916433e-39 294 256
-0.030288832 0.69099998 -0.019384852 7.076036e-39 295 256
-0.029077278 0.69099998 -0.019384852 7.2607775e-39 296 256
-0.027865725 0.69099998 -0.019384852 7.3533319e-39 297 256
-0.026615599 0.69 -0.019356798 7.5359225e-39 298 256
-0.025405798 0.69 -0.019356798 7.7199536e-39 299 256
-0.024195999 0.69 -0.019356798 7.4444457e-39 300 256
-0.022986198 0.69 -0.019356798 7.3522501e-39 301 256
-0.021776399 0.69 -0.019356798 6.8008784e-39 302 256
-0.020566599 0.69 -0.019356798 6.7086814e-39 303 256
-0.019356798 0.69 -0.019356798 6.2477046e-39 304 256
-0.0180944 0.68800002 -0.019300694 6.063312e-39 305 256
-0.016888106 0.68800002 -0.019300694 5.9711163e-39 306 256
-0.015681813 0.68800002 -0.019300694 5.878562e-39 307 256
-0.014517599 0.69 -0.019356798 5.8778431e-39 308 256
-0.0133078 0.69 -0.019356798 5.7856475e-39 309 256
-0.012062933 0.68800002 -0.019300694 5.4186628e-39 310 256
-0.010856641 0.68800002 -0.019300694 5.6030541e-39 311 256
-0.0096783992 0.69 -0.019356798 5.1445941e-39 312 256
-0.0084686 0.69 -0.019356798 5.1445941e-39 313 256
-0.0072693196 0.69099998 -0.019384852 5.2371484e-39 314 256
-0.0060753003 0.69300002 -0.01944096 5.2371484e-39 315 256
-0.0048462129 0.69099998 -0.019384852 5.1453129e-39 316 256
-0.0036346598 0.69099998 -0.019384852 5.1453129e-39 317 256
-0.00243012 0.69300002 -0.01944096 5.2367953e-39 318 256
-0.00121506 0.69300002 -0.01944096 5.0520453e-39 319 256
0 0.69300002 -0.01944096 4.7765402e-39 320 256
0.0012168133 0.69400001 -0.019469013 4.8687358e-39 321 256
0.0024336267 0.69400001 -0.019469013 4.5021113e-39 322 256
0.0036504399 0.69400001 -0.019469013 4.5946657e-39 323 256
0.0048812795 0.69599998 -0.019525118 4.319155e-39 324 256
0.0061103669 0.69700003 -0.019553173 4.319155e-39 325 256
0.00733244 0.69700003 -0.019553173 4.3198683e-39 326 256
0.0085667865 0.69800001 -0.019581227 4.3198683e-39 327 256
0.0098186666 0.69999999 -0.019637333 3.9532437e-39 328 256
0.011045999 0.69999999 -0.019637333 4.2294705e-39 329 256
0.012290866 0.70099998 -0.019665385 4.3216661e-39 330 256
0.013558527 0.70300001 -0.019721493 4.5064175e-39 331 256
0.014812159 0.704 -0.019749546 4.7837233e-39 332 256
0.016046507 0.704 -0.019749546 5.336897e-39 333 256
0.017428132 0.70999998 -0.019917866 5.9833356e-39 334 256
0.018672999 0.70999998 -0.019917866 6.7209007e-39 335 256
0.01994592 0.71100003 -0.01994592 1.0126729e-38 336 256
0.021341572 0.71600002 -0.020086186 1.4552479e-38 337 256
0.022596961 0.71600002 -0.020086186 1.6493622e-38 338 256
-0.054619838 0.708 -0.021103119 1.6679831e-38 276 257
-0.053378478 0.708 -0.021103119 1.6311048e-38 277 257
-0.05206348 0.70700002 -0.021073313 1.4376751e-38 278 257
-0.050823875 0.70700002 -0.021073313 1.4008328e-38 279 257
-0.049373865 0.704 -0.020983893 1.2353861e-38 280 257
-0.048139516 0.704 -0.020983893 1.1892883e-38 281 257
-0.046705291 0.70099998 -0.020894472 1.2906685e-38 282 257
-0.04541133 0.69999999 -0.020864666 1.299888e-38 283 257
-0.04405776 0.69800001 -0.020805053 1.115677e-38 284 257
-0.042833932 0.69800001 -0.020805053 3.0431943e-39 285 257
-0.041550495 0.69700003 -0.020775247 4.9591392e-39 286 257
-0.040270556 0.69599998 -0.020745439 7.2575728e-39 287 257
-0.038938027 0.69400001 -0.020685827 7.2586322e-39 288 257
-0.037721213 0.69400001 -0.020685827 7.2586322e-39 289 257
-0.036451802 0.69300002 -0.020656019 7.0742367e-39 290 257
-0.035236739 0.69300002 -0.020656019 6.8902056e-39 291 257
-0.034021679 0.69300002 -0.020656019 6.3395499e-39 292 257
-0.03280662 0.69300002 -0.020656019 6.3395499e-39 293 257
-0.031591557 0.69300002 -0.020656019 6.523581e-39 294 257
-0.030288832 0.69099998 -0.020596405 6.7079723e-39 295 257
-0.029077278 0.69099998 -0.020596405 6.8927209e-39 296 257
-0.027865725 0.69099998 -0.020596405 6.9849165e-39 297 257
-0.026654173 0.69099998 -0.020596405 7.351897e-39 298 257
-0.025405798 0.69 -0.020566599 7.351897e-39 299 257
-0.024195999 0.69 -0.020566599 7.1685847e-39 300 257
-0.022986198 0.69 -0.020566599 6.9841935e-39 301 257
-0.021776399 0.69 -0.020566599 6.8916377e-39 302 257
-0.020566599 0.69 -0.020566599 6.5232153e-39 303 257
-0.019356798 0.69 -0.020566599 6.2462683e-39 304 257
-0.018146999 0.69 -0.020566599 5.9700415e-39 305 257
-0.0169372 0.69 -0.020566599 5.6945336e-39 306 257
-0.015727401 0.69 -0.020566599 5.602338e-39 307 257
-0.014517599 0.69 -0.020566599 5.6938134e-39 308 257
-0.0133078 0.69 -0.020566599 5.6938134e-39 309 257
-0.012097999 0.69 -0.020566599 5.4186628e-39 310 257
-0.010888199 0.69 -0.020566599 5.4186628e-39 311 257
-0.0096924258 0.69099998 -0.020596405 4.9602056e-39 312 257
-0.008480873 0.69099998 -0.020596405 4.9602056e-39 313 257
-0.0072693196 0.69099998 -0.020596405 4.868733e-39 314 257
-0.0060753003 0.69300002 -0.020656019 4.868733e-39 315 257
-0.0048462129 0.69099998 -0.020596405 5.0531201e-39 316 257
-0.0036346598 0.69099998 -0.020596405 5.0531201e-39 317 257
-0.00243012 0.69300002 -0.020656019 4.868733e-39 318 257
-0.00121506 0.69300002 -0.020656019 4.7765374e-39 319 257
0 0.69400001 -0.020685827 4.593944e-39 320 257
0.0012168133 0.69400001 -0.020685827 4.5017484e-39 321 257
0.0024336267 0.69400001 -0.020685827 4.3184361e-39 322 257
0.0036504399 0.69400001 -0.020685827 4.3184361e-39 323 257
0.0048812795 0.69599998 -0.020745439 4.135484e-39 324 257
0.0061103669 0.69700003 -0.020775247 4.135484e-39 325 257
0.00733244 0.69700003 -0.020775247 4.0443632e-39 326 257
0.0085667865 0.69800001 -0.020805053 4.1365588e-39 327 257
0.0098186666 0.69999999 -0.020864666 3.9539654e-39 328 257
0.011045999 0.69999999 -0.020864666 4.1383567e-39 329 257
0.012290866 0.70099998 -0.020894472 4.5060616e-39 330 257
0.013558527 0.70300001 -0.020954086 4.8748427e-39 331 257
0.014812159 0.704 -0.020983893 5.1525058e-39 332 257
0.016046507 0.704 -0.020983893 5.7056796e-39 333 257
0.017428132 0.70999998 -0.021162732 6.4432292e-39 334 257
0.018672999 0.70999998 -0.021162732 7.2729899e-39 335 257
0.020114239 0.71700001 -0.021371379 1.1234508e-38 336 257
0.021371379 0.71700001 -0.021371379 1.501417e-38 337 257
0.02262852 0.71700001 -0.021371379 1.6308512e-38 338 257
-0.054774132 0.70999998 -0.022407599 1.6588357e-38 276 258
-0.053529263 0.70999998 -0.022407599 1.612738e-38 277 258
-0.052137118 0.708 -0.022344479 1.3546271e-38 278 258
-0.050823875 0.70700002 -0.022312919 1.3177488e-38 279 258
-0.04951413 0.70599997 -0.022281358 1.318218e-38 280 258
-0.048139516 0.704 -0.022218239 1.4104136e-38 281 258
-0.046705291 0.70099998 -0.022123558 1.4565483e-38 282 258
-0.04541133 0.69999999 -0.022091998 1.2076201e-38 283 258
-0.04405776 0.69800001 -0.02202888 8.6617257e-39 284 258
-0.042833932 0.69800001 -0.02202888 3.1296292e-39 285 258
-0.041550495 0.69700003 -0.02199732 6.5203426e-39 286 258
-0.040270556 0.69599998 -0.021965759 7.8071354e-39 287 258
-0.039050236 0.69599998 -0.021965759 6.8909216e-39 288 258
-0.037721213 0.69400001 -0.021902639 6.8909216e-39 289 258
-0.036451802 0.69300002 -0.021871079 6.5232181e-39 290 258
-0.035236739 0.69300002 -0.021871079 6.3384681e-39 291 258
-0.034021679 0.69300002 -0.021871079 6.0633232e-39 292 258
-0.03280662 0.69300002 -0.021871079 6.0633232e-39 293 258
-0.031591557 0.69300002 -0.021871079 6.1558775e-39 294 258
-0.0303765 0.69300002 -0.021871079 6.3402688e-39 295 258
-0.029077278 0.69099998 -0.021807959 6.7076094e-39 296 258
-0.027865725 0.69099998 -0.021807959 6.8916405e-39 297 258
-0.026654173 0.69099998 -0.021807959 7.1667855e-39 298 258
-0.025442619 0.69099998 -0.021807959 7.1667855e-39 299 258
-0.024195999 0.69 -0.021776399 6.7987232e-39 300 258
-0.022986198 0.69 -0.021776399 6.7065276e-39 301 258
-0.021776399 0.69 -0.021776399 6.3377479e-39 302 258
-0.020596405 0.69099998 -0.021807959 6.2455522e-39 303 258
-0.019384852 0.69099998 -0.021807959 6.0611582e-39 304 258
-0.0181733 0.69099998 -0.021807959 6.0611582e-39 305 258
-0.016961746 0.69099998 -0.021807959 5.6023352e-39 306 258
-0.015750192 0.69099998 -0.021807959 5.5101396e-39 307 258
-0.014538639 0.69099998 -0.021807959 5.4183013e-39 308 258
-0.013327086 0.69099998 -0.021807959 5.4183013e-39 309 258
-0.012115533 0.69099998 -0.021807959 5.1427962e-39 310 258
-0.01090398 0.69099998 -0.021807959 5.2346331e-39 311 258
-0.0096924258 0.69099998 -0.021807959 4.9602056e-39 312 258
-0.008480873 0.69099998 -0.021807959 4.9602056e-39 313 258
-0.0072693196 0.69099998 -0.021807959 4.6843404e-39 314 258
-0.0060753003 0.69300002 -0.021871079 4.7765374e-39 315 258
-0.0048462129 0.69099998 -0.021807959 4.7765374e-39 316 258
-0.0036346598 0.69099998 -0.021807959 4.7765374e-39 317 258
-0.00243012 0.69300002 -0.021871079 4.5010281e-39 318 258
-0.00121506 0.69300002 -0.021871079 4.6850606e-39 319 258
0 0.69400001 -0.021902639 4.3184361e-39 320 258
0.0012168133 0.69400001 -0.021902639 4.2258804e-39 321 258
0.0024336267 0.69400001 -0.021902639 4.1344036e-39 322 258
0.0036504399 0.69400001 -0.021902639 4.1344036e-39 323 258
0.0048812795 0.69599998 -0.021965759 4.2266006e-39 324 258
0.0061103669 0.69700003 -0.02199732 4.319155e-39 325 258
0.00733244 0.69700003 -0.02199732 4.0440072e-39 326 258
0.0085667865 0.69800001 -0.02202888 4.1362029e-39 327 258
0.0098186666 0.69999999 -0.022091998 4.1380007e-39 328 258
0.011061779 0.70099998 -0.022123558 4.2305565e-39 329 258
0.012325933 0.70300001 -0.02218668 4.6915276e-39 330 258
0.013558527 0.70300001 -0.02218668 5.1525058e-39 331 258
0.014812159 0.704 -0.022218239 5.6124049e-39 332 258
0.016046507 0.704 -0.022218239 6.1655787e-39 333 258
0.017428132 0.70999998 -0.022407599 6.2581149e-39 334 258
0.0186993 0.71100003 -0.022439159 7.6410493e-39 335 258
0.020114239 0.71700001 -0.02262852 1.2618159e-38 336 258
0.021430992 0.71899998 -0.022691639 1.5384386e-38 337 258
0.022691639 0.71899998 -0.022691639 1.6399624e-38 338 258
-0.054774132 0.70999998 -0.023652466 1.6772029e-38 276 259
-0.053529263 0.70999998 -0.023652466 1.6587638e-38 277 259
-0.052284397 0.70999998 -0.023652466 1.3545549e-38 278 259
-0.050895758 0.708 -0.023585839 1.225481e-38 279 259
-0.049584266 0.70700002 -0.023552528 1.391794e-38 280 259
-0.048139516 0.704 -0.023452586 1.4840257e-38 281 259
-0.046638668 0.69999999 -0.023319334 1.447147e-38 282 259
-0.045281585 0.69800001 -0.023252707 1.0322668e-38 283 259
-0.04405776 0.69800001 -0.023252707 6.4396517e-39 284 259
-0.042833932 0.69800001 -0.023252707 4.2269566e-39 285 259
-0.041550495 0.69700003 -0.023219392 7.0742339e-39 286 259
-0.040328421 0.69700003 -0.023219392 6.7980071e-39 287 259
-0.039050236 0.69599998 -0.023186078 6.4306638e-39 288 259
-0.037721213 0.69400001 -0.023119451 6.4306638e-39 289 259
-0.036504399 0.69400001 -0.023119451 5.8796466e-39 290 259
-0.035236739 0.69300002 -0.02308614 5.7874509e-39 291 259
-0.034021679 0.69300002 -0.02308614 5.6956182e-39 292 259
-0.03280662 0.69300002 -0.02308614 5.7878139e-39 293 259
-0.031591557 0.69300002 -0.02308614 5.8792962e-39 294 259
-0.0303765 0.69300002 -0.02308614 5.8792962e-39 295 259
-0.029161438 0.69300002 -0.02308614 6.2469984e-39 296 259
-0.027865725 0.69099998 -0.023019511 6.2469984e-39 297 259
-0.026654173 0.69099998 -0.023019511 6.7058115e-39 298 259
-0.025442619 0.69099998 -0.023019511 6.6136159e-39 299 259
-0.024231065 0.69099998 -0.023019511 6.5210629e-39 300 259
-0.023019511 0.69099998 -0.023019511 6.4288673e-39 301 259
-0.021807959 0.69099998 -0.023019511 6.1529993e-39 302 259
-0.020596405 0.69099998 -0.023019511 6.0611624e-39 303 259
-0.019384852 0.69099998 -0.023019511 5.6019821e-39 304 259
-0.0181733 0.69099998 -0.023019511 5.5101452e-39 305 259
-0.016961746 0.69099998 -0.023019511 5.3271903e-39 306 259
-0.015750192 0.69099998 -0.023019511 5.2349946e-39 307 259
-0.014538639 0.69099998 -0.023019511 5.4186628e-39 308 259
-0.013327086 0.69099998 -0.023019511 5.2346303e-39 309 259
-0.012115533 0.69099998 -0.023019511 5.2346303e-39 310 259
-0.01090398 0.69099998 -0.023019511 5.4186628e-39 311 259
-0.0096924258 0.69099998 -0.023019511 4.8680086e-39 312 259
-0.008480873 0.69099998 -0.023019511 4.8680086e-39 313 259
-0.0072693196 0.69099998 -0.023019511 4.6850606e-39 314 259
-0.0060753003 0.69300002 -0.02308614 4.6850606e-39 315 259
-0.00486024 0.69300002 -0.02308614 4.5010281e-39 316 259
-0.0036451798 0.69300002 -0.02308614 4.5010281e-39 317 259
-0.00243012 0.69300002 -0.02308614 4.3184361e-39 318 259
-0.0012168133 0.69400001 -0.023119451 4.5024673e-39 319 259
0 0.69400001 -0.023119451 3.9510913e-39 320 259
0.0012168133 0.69400001 -0.023119451 3.9510913e-39 321 259
0.0024336267 0.69400001 -0.023119451 3.9510941e-39 322 259
0.0036504399 0.69400001 -0.023119451 3.9510941e-39 323 259
0.0048812795 0.69599998 -0.023186078 3.9507382e-39 324 259
0.0061103669 0.69700003 -0.023219392 4.0429352e-39 325 259
0.0073429602 0.69800001 -0.023252707 3.7688623e-39 326 259
0.0085667865 0.69800001 -0.023252707 3.9536123e-39 327 259
0.0098186666 0.69999999 -0.023319334 4.1390741e-39 328 259
0.011061779 0.70099998 -0.023352645 4.4160198e-39 329 259
0.012343466 0.704 -0.023452586 4.8769951e-39 330 259
0.013577812 0.704 -0.023452586 5.153582e-39 331 259
0.014812159 0.704 -0.023452586 5.7978752e-39 332 259
0.01613768 0.708 -0.023585839 6.1666577e-39 333 259
0.017501773 0.713 -0.023752406 6.7165693e-39 334 259
0.018751899 0.713 -0.023752406 8.5604819e-39 335 259
0.020114239 0.71700001 -0.02388566 1.363374e-38 336 259
0.021430992 0.71899998 -0.023952285 1.5569848e-38 337 259
0.022691639 0.71899998 -0.023952285 1.5755691e-38 338 259
-0.053529263 0.70999998 -0.024897331 1.6772749e-38 277 260
-0.052284397 0.70999998 -0.024897331 1.4558978e-38 278 260
-0.051039528 0.70999998 -0.024897331 1.3729218e-38 279 260
-0.049794663 0.70999998 -0.024897331 1.3458391e-38 280 260
-0.048413038 0.708 -0.024827199 1.0876914e-38 281 260
-0.046638668 0.69999999 -0.024546666 8.3692887e-39 282 260
-0.045281585 0.69800001 -0.024476532 4.7754542e-39 283 260
-0.04405776 0.69800001 -0.024476532 4.8672813e-39 284 260
-0.042833932 0.69800001 -0.024476532 6.2455494e-39 285 260
-0.041550495 0.69700003 -0.024441468 6.4310169e-39 286 260
-0.040328421 0.69700003 -0.024441468 6.4310169e-39 287 260
-0.039050236 0.69599998 -0.0244064 6.2477046e-39 288 260
-0.037829921 0.69599998 -0.0244064 6.155509e-39 289 260
-0.036504399 0.69400001 -0.024336265 5.6952525e-39 290 260
-0.035287585 0.69400001 -0.024336265 5.6952525e-39 291 260
-0.034070771 0.69400001 -0.024336265 5.6945336e-39 292 260
-0.03280662 0.69300002 -0.024301201 5.8785648e-39 293 260
-0.031591557 0.69300002 -0.024301201 5.9707604e-39 294 260
-0.0303765 0.69300002 -0.024301201 5.9707604e-39 295 260
-0.029161438 0.69300002 -0.024301201 6.4292204e-39 296 260
-0.027946379 0.69300002 -0.024301201 6.4292204e-39 297 260
-0.026654173 0.69099998 -0.024231065 6.4284987e-39 298 260
-0.025442619 0.69099998 -0.024231065 6.5206944e-39 299 260
-0.024231065 0.69099998 -0.024231065 6.2455494e-39 300 260
-0.023019511 0.69099998 -0.024231065 5.9693213e-39 301 260
-0.021807959 0.69099998 -0.024231065 6.0611568e-39 302 260
-0.020596405 0.69099998 -0.024231065 6.0611568e-39 303 260
-0.019384852 0.69099998 -0.024231065 5.5101396e-39 304 260
-0.0181733 0.69099998 -0.024231065 5.6023352e-39 305 260
-0.016961746 0.69099998 -0.024231065 5.2349918e-39 306 260
-0.015750192 0.69099998 -0.024231065 5.3275462e-39 307 260
-0.014538639 0.69099998 -0.024231065 5.4183069e-39 308 260
-0.013327086 0.69099998 -0.024231065 5.2346331e-39 309 260
-0.012115533 0.69099998 -0.024231065 5.1427948e-39 310 260
-0.01090398 0.69099998 -0.024231065 5.1427948e-39 311 260
-0.0096924258 0.69099998 -0.024231065 4.6846935e-39 312 260
-0.0085054198 0.69300002 -0.024301201 4.6846935e-39 313 260
-0.0072903596 0.69300002 -0.024301201 4.5010253e-39 314 260
-0.0060753003 0.69300002 -0.024301201 4.5010253e-39 315 260
-0.00486024 0.69300002 -0.024301201 4.5017456e-39 316 260
-0.0036451798 0.69300002 -0.024301201 4.5017456e-39 317 260
-0.0024336267 0.69400001 -0.024336265 4.3184333e-39 318 260
-0.0012168133 0.69400001 -0.024336265 4.3184333e-39 319 260
0 0.69400001 -0.024336265 4.2266006e-39 320 260
0.0012168133 0.69400001 -0.024336265 4.1344036e-39 321 260
0.0024336267 0.69400001 -0.024336265 4.1344064e-39 322 260
0.0036504399 0.69400001 -0.024336265 4.2266034e-39 323 260
0.0048812795 0.69599998 -0.0244064 3.8606978e-39 324 260
0.0061103669 0.69700003 -0.024441468 3.8606978e-39 325 260
0.0073429602 0.69800001 -0.024476532 4.0450862e-39 326 260
0.0085667865 0.69800001 -0.024476532 4.3216717e-39 327 260
0.0098326923 0.70099998 -0.024581732 4.4160198e-39 328 260
0.011061779 0.70099998 -0.024581732 4.7844435e-39 329 260
0.012343466 0.704 -0.024686933 5.0613864e-39 330 260
0.013577812 0.704 -0.024686933 5.4301675e-39 331 260
0.014854239 0.70599997 -0.024757065 5.9815448e-39 332 260
0.016183265 0.70999998 -0.024897331 6.8113041e-39 333 260
0.017501773 0.713 -0.025002534 6.7169224e-39 334 260
0.018751899 0.713 -0.025002534 9.2984e-39 335 260
0.020114239 0.71700001 -0.0251428 1.4556419e-38 336 260
0.021430992 0.71899998 -0.025212931 1.5754961e-38 337 260
-0.053604662 0.71100003 -0.026179021 1.7140812e-38 277 261
-0.052284397 0.70999998 -0.026142199 1.4928484e-38 278 261
-0.051039528 0.70999998 -0.026142199 1.3361157e-38 279 261
-0.049794663 0.70999998 -0.026142199 1.1057342e-38 280 261
-0.048413038 0.708 -0.026068559 8.7524528e-39 281 261
-0.046705291 0.70099998 -0.025810819 5.6059239e-39 282 261
-0.045281585 0.69800001 -0.025700359 4.4081038e-39 283 261
-0.04405776 0.69800001 -0.025700359 5.878199e-39 284 261
-0.042833932 0.69800001 -0.025700359 6.4313728e-39 285 261
-0.041550495 0.69700003 -0.025663542 6.4313728e-39 286 261
-0.040328421 0.69700003 -0.025663542 6.4313728e-39 287 261
-0.039050236 0.69599998 -0.025626717 6.155509e-39 288 261
-0.037829921 0.69599998 -0.025626717 6.063312e-39 289 261
-0.036504399 0.69400001 -0.025553079 5.5119402e-39 290 261
-0.035287585 0.69400001 -0.025553079 5.4193859e-39 291 261
-0.034070771 0.69400001 -0.025553079 5.6030569e-39 292 261
-0.03280662 0.69300002 -0.02551626 5.6952525e-39 293 261
-0.031591557 0.69300002 -0.02551626 5.8785648e-39 294 261
-0.0303765 0.69300002 -0.02551626 5.8785648e-39 295 261
-0.029161438 0.69300002 -0.02551626 6.0622372e-39 296 261
-0.027946379 0.69300002 -0.02551626 5.9700415e-39 297 261
-0.026654173 0.69099998 -0.025442619 6.1529909e-39 298 261
-0.025442619 0.69099998 -0.025442619 6.1529909e-39 299 261
-0.024231065 0.69099998 -0.025442619 6.0611512e-39 300 261
-0.023019511 0.69099998 -0.025442619 6.0611512e-39 301 261
-0.021807959 0.69099998 -0.025442619 5.9693185e-39 302 261
-0.020656019 0.69300002 -0.02551626 5.7856461e-39 303 261
-0.019384852 0.69099998 -0.025442619 5.6019751e-39 304 261
-0.0181733 0.69099998 -0.025442619 5.6019751e-39 305 261
-0.01701084 0.69300002 -0.02551626 5.2357135e-39 306 261
-0.015795778 0.69300002 -0.02551626 5.2357135e-39 307 261
-0.014580719 0.69300002 -0.02551626 5.2349918e-39 308 261
-0.01336566 0.69300002 -0.02551626 5.2349918e-39 309 261
-0.012115533 0.69099998 -0.025442619 4.9594825e-39 310 261
-0.01090398 0.69099998 -0.025442619 4.9594825e-39 311 261
-0.0096924258 0.69099998 -0.025442619 4.8680058e-39 312 261
-0.008480873 0.69099998 -0.025442619 4.8680058e-39 313 261
-0.0072903596 0.69300002 -0.02551626 4.5013812e-39 314 261
-0.0060753003 0.69300002 -0.02551626 4.5013812e-39 315 261
-0.00486024 0.69300002 -0.02551626 4.3184333e-39 316 261
-0.0036451798 0.69300002 -0.02551626 4.3184333e-39 317 261
-0.0024336267 0.69400001 -0.025553079 4.2262363e-39 318 261
-0.0012168133 0.69400001 -0.025553079 4.3184333e-39 319 261
0 0.69400001 -0.025553079 4.2266006e-39 320 261
0.0012168133 0.69400001 -0.025553079 4.1344036e-39 321 261
0.0024336267 0.69400001 -0.025553079 4.2266006e-39 322 261
0.0036504399 0.69400001 -0.025553079 4.319155e-39 323 261
0.0048812795 0.69599998 -0.025626717 3.9532465e-39 324 261
0.0061103669 0.69700003 -0.025663542 4.0454422e-39 325 261
0.0073429602 0.69800001 -0.025700359 4.2294705e-39 326 261
0.0085913334 0.69999999 -0.025773998 4.5064175e-39 327 261
0.0098326923 0.70099998 -0.025810819 4.5082154e-39 328 261
0.011109119 0.704 -0.02592128 4.8766392e-39 329 261
0.012343466 0.704 -0.02592128 5.3368999e-39 330 261
0.013577812 0.704 -0.02592128 5.7053236e-39 331 261
0.014854239 0.70599997 -0.025994917 6.0751838e-39 332 261
0.016183265 0.70999998 -0.026142199 6.351772e-39 333 261
0.017501773 0.713 -0.026252659 7.6370836e-39 334 261
0.018751899 0.713 -0.026252659 1.0586984e-38 335 261
0.020086186 0.71600002 -0.026363119 1.5110675e-38 336 261
0.021341572 0.71600002 -0.026363119 1.5756044e-38 337 261
-0.053604662 0.71100003 -0.027425639 1.7140812e-38 277 262
-0.052358042 0.71100003 -0.027425639 1.5114306e-38 278 262
-0.051039528 0.70999998 -0.027387066 1.2625024e-38 279 262
-0.049794663 0.70999998 -0.027387066 7.4566679e-39 280 262
-0.048413038 0.708 -0.027309919 6.9960484e-39 281 262
-0.047038425 0.70599997 -0.027232772 7.0817743e-39 282 262
-0.04541133 0.69999999 -0.027001332 7.0817743e-39 283 262
-0.04405776 0.69800001 -0.026924185 6.9863416e-39 284 262
-0.042833932 0.69800001 -0.026924185 6.5253635e-39 285 262
-0.041550495 0.69700003 -0.026885614 6.5242845e-39 286 262
-0.040328421 0.69700003 -0.026885614 6.3402534e-39 287 262
-0.039050236 0.69599998 -0.026847038 6.1562251e-39 288 262
-0.037829921 0.69599998 -0.026847038 5.8799969e-39 289 262
-0.036504399 0.69400001 -0.026769891 5.5119374e-39 290 262
-0.035287585 0.69400001 -0.026769891 5.5119374e-39 291 262
-0.034070771 0.69400001 -0.026769891 5.6956056e-39 292 262
-0.03280662 0.69300002 -0.02673132 5.7878013e-39 293 262
-0.031591557 0.69300002 -0.02673132 5.8789179e-39 294 262
-0.0303765 0.69300002 -0.02673132 5.8789179e-39 295 262
-0.029161438 0.69300002 -0.02673132 6.0625903e-39 296 262
-0.027946379 0.69300002 -0.02673132 5.878199e-39 297 262
-0.026654173 0.69099998 -0.026654173 6.0611512e-39 298 262
-0.025442619 0.69099998 -0.026654173 6.0611512e-39 299 262
-0.024231065 0.69099998 -0.026654173 6.2448221e-39 300 262
-0.023019511 0.69099998 -0.026654173 6.2448221e-39 301 262
-0.021807959 0.69099998 -0.026654173 5.7856475e-39 302 262
-0.020656019 0.69300002 -0.02673132 5.6938106e-39 303 262
-0.01944096 0.69300002 -0.02673132 5.5101396e-39 304 262
-0.018225901 0.69300002 -0.02673132 5.6023352e-39 305 262
-0.01701084 0.69300002 -0.02673132 5.3282651e-39 306 262
-0.015795778 0.69300002 -0.02673132 5.2357107e-39 307 262
-0.014580719 0.69300002 -0.02673132 5.2357107e-39 308 262
-0.01336566 0.69300002 -0.02673132 5.2357107e-39 309 262
-0.012115533 0.69099998 -0.026654173 5.0523984e-39 310 262
-0.01090398 0.69099998 -0.026654173 4.9602028e-39 311 262
-0.0096924258 0.69099998 -0.026654173 4.7768905e-39 312 262
-0.008480873 0.69099998 -0.026654173 4.6846935e-39 313 262
-0.0072903596 0.69300002 -0.02673132 4.6854138e-39 314 262
-0.0060753003 0.69300002 -0.02673132 4.6854138e-39 315 262
-0.00486024 0.69300002 -0.02673132 4.4095458e-39 316 262
-0.0036451798 0.69300002 -0.02673132 4.5021015e-39 317 262
-0.0024336267 0.69400001 -0.026769891 4.3184333e-39 318 262
-0.0012168133 0.69400001 -0.026769891 4.5024645e-39 319 262
0 0.69400001 -0.026769891 4.3191522e-39 320 262
0.0012168133 0.69400001 -0.026769891 4.3191522e-39 321 262
0.0024406398 0.69599998 -0.026847038 4.135484e-39 322 262
0.0036609597 0.69599998 -0.026847038 4.3198739e-39 323 262
0.0048882933 0.69700003 -0.026885614 4.2294733e-39 324 262
0.006119133 0.69800001 -0.026924185 4.2294733e-39 325 262
0.0073639993 0.69999999 -0.027001332 4.4135016e-39 326 262
0.0086036054 0.70099998 -0.027039904 4.6897298e-39 327 262
0.0098607466 0.70300001 -0.027117053 4.7840792e-39 328 262
0.011109119 0.704 -0.027155625 5.152503e-39 329 262
0.012343466 0.704 -0.027155625 5.4290927e-39 330 262
0.013635674 0.70700002 -0.027271347 5.7978752e-39 331 262
0.01489632 0.708 -0.027309919 6.1655787e-39 332 262
0.016183265 0.70999998 -0.027387066 6.1655787e-39 333 262
0.017501773 0.713 -0.027502786 8.4657681e-39 334 262
0.018751899 0.713 -0.027502786 1.1969202e-38 335 262
0.020086186 0.71600002 -0.027618507 1.5571293e-38 336 262
-0.052358042 0.71100003 -0.028672259 1.5942622e-38 278 263
-0.051111419 0.71100003 -0.028672259 1.3821763e-38 279 263
-0.049794663 0.70999998 -0.028631933 9.1118662e-39 280 263
-0.048413038 0.708 -0.02855128 8.1895512e-39 281 263
-0.047038425 0.70599997 -0.028470624 8.0040837e-39 282 263
-0.04541133 0.69999999 -0.028228667 7.4512701e-39 283 263
-0.044183996 0.69999999 -0.028228667 7.2640047e-39 284 263
-0.042833932 0.69800001 -0.028148014 6.710831e-39 285 263
-0.041610107 0.69800001 -0.028148014 6.8012273e-39 286 263
-0.040328421 0.69700003 -0.028107686 6.6168361e-39 287 263
-0.039106347 0.69700003 -0.028107686 6.3402534e-39 288 263
-0.037829921 0.69599998 -0.028067358 6.1558607e-39 289 263
-0.036609598 0.69599998 -0.028067358 5.7885201e-39 290 263
-0.035287585 0.69400001 -0.027986705 5.6963245e-39 291 263
-0.034070771 0.69400001 -0.027986705 5.8789179e-39 292 263
-0.03280662 0.69300002 -0.027946379 5.9711135e-39 293 263
-0.031591557 0.69300002 -0.027946379 5.8789179e-39 294 263
-0.0303765 0.69300002 -0.027946379 5.8789179e-39 295 263
-0.029161438 0.69300002 -0.027946379 5.8789179e-39 296 263
-0.027946379 0.69300002 -0.027946379 5.8789179e-39 297 263
-0.02673132 0.69300002 -0.027946379 6.1537069e-39 298 263
-0.02551626 0.69300002 -0.027946379 5.9693157e-39 299 263
-0.024301201 0.69300002 -0.027946379 6.0611512e-39 300 263
-0.02308614 0.69300002 -0.027946379 6.0611512e-39 301 263
-0.021871079 0.69300002 -0.027946379 5.9693157e-39 302 263
-0.020656019 0.69300002 -0.027946379 5.9693157e-39 303 263
-0.01944096 0.69300002 -0.027946379 5.6023324e-39 304 263
-0.018225901 0.69300002 -0.027946379 5.8789179e-39 305 263
-0.01701084 0.69300002 -0.027946379 5.5119346e-39 306 263
-0.015795778 0.69300002 -0.027946379 5.419739e-39 307 263
-0.014580719 0.69300002 -0.027946379 5.2371456e-39 308 263
-0.01336566 0.69300002 -0.027946379 5.2371456e-39 309 263
-0.012150601 0.69300002 -0.027946379 5.1456689e-39 310 263
-0.010935539 0.69300002 -0.027946379 5.0534732e-39 311 263
-0.0097204801 0.69300002 -0.027946379 5.0534732e-39 312 263
-0.0085054198 0.69300002 -0.027946379 4.7768877e-39 313 263
-0.0072903596 0.69300002 -0.027946379 4.7768905e-39 314 263
-0.0060753003 0.69300002 -0.027946379 4.7768905e-39 315 263
-0.00486024 0.69300002 -0.027946379 4.5942971e-39 316 263
-0.0036504399 0.69400001 -0.027986705 4.5942971e-39 317 263
-0.0024336267 0.69400001 -0.027986705 4.3191522e-39 318 263
-0.0012168133 0.69400001 -0.027986705 4.4113478e-39 319 263
0 0.69400001 -0.027986705 4.4120667e-39 320 263
0.0012168133 0.69400001 -0.027986705 4.4120667e-39 321 263
0.0024406398 0.69599998 -0.028067358 4.4120667e-39 322 263
0.0036609597 0.69599998 -0.028067358 4.5042623e-39 323 263
0.0048882933 0.69700003 -0.028107686 4.2294733e-39 324 263
0.006119133 0.69800001 -0.028148014 4.3216689e-39 325 263
0.0073639993 0.69999999 -0.028228667 4.5971782e-39 326 263
0.0086036054 0.70099998 -0.028268991 4.7819282e-39 327 263
0.0098607466 0.70300001 -0.028349647 5.0595913e-39 328 263
0.011109119 0.704 -0.028389972 5.2439826e-39 329 263
0.012378532 0.70599997 -0.028470624 5.6124049e-39 330 263
0.013635674 0.70700002 -0.028510952 5.7049593e-39 331 263
0.01489632 0.708 -0.02855128 5.7042376e-39 332 263
0.016183265 0.70999998 -0.028631933 5.427292e-39 333 263
0.017501773 0.713 -0.028752912 9.4806403e-39 334 263
0.018751899 0.713 -0.028752912 1.3168464e-38 335 263
-0.051111419 0.71100003 -0.029918881 1.5388369e-38 279 264
-0.049864799 0.71100003 -0.029918881 1.077031e-38 280 264
-0.048549797 0.70999998 -0.029876797 8.8342017e-39 281 264
-0.047304932 0.70999998 -0.029876797 8.5572575e-39 282 264
-0.045476202 0.70099998 -0.029498078 7.9118881e-39 283 264
-0.044183996 0.69999999 -0.029455997 7.6324271e-39 284 264
-0.042956665 0.69999999 -0.029455997 7.1718077e-39 285 264
-0.041610107 0.69800001 -0.029371841 7.170007e-39 286 264
-0.040328421 0.69700003 -0.02932976 6.8937803e-39 287 264
-0.039106347 0.69700003 -0.02932976 6.6168361e-39 288 264
-0.037884273 0.69700003 -0.02932976 6.3402506e-39 289 264
-0.036609598 0.69599998 -0.029287677 6.1558579e-39 290 264
-0.035389278 0.69599998 -0.029287677 6.1558579e-39 291 264
-0.034168959 0.69599998 -0.029287677 6.0625875e-39 292 264
-0.032853961 0.69400001 -0.029203519 6.0625875e-39 293 264
-0.031637147 0.69400001 -0.029203519 6.0625875e-39 294 264
-0.0303765 0.69300002 -0.029161438 6.0625875e-39 295 264
-0.029161438 0.69300002 -0.029161438 5.9711135e-39 296 264
-0.027946379 0.69300002 -0.029161438 5.9711135e-39 297 264
-0.02673132 0.69300002 -0.029161438 5.9711163e-39 298 264
-0.02551626 0.69300002 -0.029161438 5.6945308e-39 299 264
-0.024301201 0.69300002 -0.029161438 5.8778431e-39 300 264
-0.02308614 0.69300002 -0.029161438 5.8778431e-39 301 264
-0.021871079 0.69300002 -0.029161438 5.6948868e-39 302 264
-0.020685827 0.69400001 -0.029203519 5.8789179e-39 303 264
-0.01944096 0.69300002 -0.029161438 5.6956028e-39 304 264
-0.018225901 0.69300002 -0.029161438 5.7877985e-39 305 264
-0.01701084 0.69300002 -0.029161438 5.7885173e-39 306 264
-0.015795778 0.69300002 -0.029161438 5.6963217e-39 307 264
-0.014580719 0.69300002 -0.029161438 5.5126535e-39 308 264
-0.01336566 0.69300002 -0.029161438 5.5126535e-39 309 264
-0.012150601 0.69300002 -0.029161438 5.2371456e-39 310 264
-0.010935539 0.69300002 -0.029161438 5.2371456e-39 311 264
-0.0097204801 0.69300002 -0.029161438 5.1453129e-39 312 264
-0.0085054198 0.69300002 -0.029161438 5.0531173e-39 313 264
-0.0072903596 0.69300002 -0.029161438 4.7772535e-39 314 264
-0.0060753003 0.69300002 -0.029161438 4.7772535e-39 315 264
-0.00486024 0.69300002 -0.029161438 4.5939412e-39 316 264
-0.0036504399 0.69400001 -0.029203519 4.6861368e-39 317 264
-0.0024336267 0.69400001 -0.029203519 4.4113478e-39 318 264
-0.0012168133 0.69400001 -0.029203519 4.5035435e-39 319 264
0 0.69400001 -0.029203519 4.4120667e-39 320 264
0.0012203199 0.69599998 -0.029287677 4.4120667e-39 321 264
0.0024441467 0.69700003 -0.02932976 4.4131485e-39 322 264
0.00366622 0.69700003 -0.02932976 4.4131485e-39 323 264
0.0048953067 0.69800001 -0.029371841 4.2291174e-39 324 264
0.0061366665 0.69999999 -0.029455997 4.4138688e-39 325 264
0.0073745195 0.70099998 -0.029498078 4.5060644e-39 326 264
0.0086281532 0.70300001 -0.029582238 4.59826e-39 327 264
0.0098747732 0.704 -0.029624319 4.7837261e-39 328 264
0.011109119 0.704 -0.029624319 5.0599542e-39 329 264
0.012378532 0.70599997 -0.029708479 5.5202121e-39 330 264
0.013635674 0.70700002 -0.029750559 5.5202121e-39 331 264
0.014938398 0.70999998 -0.029876797 5.4272794e-39 332 264
0.01620606 0.71100003 -0.029918881 4.9659411e-39 333 264
0.017526319 0.71399999 -0.030045118 1.0866082e-38 334 264
0.018778199 0.71399999 -0.030045118 1.3908179e-38 335 264
-0.049864799 0.71100003 -0.031165501 1.2063921e-38 280 265
-0.048549797 0.70999998 -0.031121666 9.2976938e-39 281 265
-0.047304932 0.70999998 -0.031121666 9.0167951e-39 282 265
-0.045930319 0.708 -0.031034 8.7402068e-39 283 265
-0.044436477 0.704 -0.030858666 7.8186205e-39 284 265
-0.043018032 0.70099998 -0.030727165 7.2654467e-39 285 265
-0.041729331 0.69999999 -0.030683333 7.354764e-39 286 265
-0.040386278 0.69800001 -0.030595668 7.0785373e-39 287 265
-0.039106347 0.69700003 -0.030551834 6.8019504e-39 288 265
-0.037884273 0.69700003 -0.030551834 6.7093946e-39 289 265
-0.036662199 0.69700003 -0.030551834 6.3416911e-39 290 265
-0.035440128 0.69700003 -0.030551834 6.15766e-39 291 265
-0.034168959 0.69599998 -0.030507999 6.2487766e-39 292 265
-0.032853961 0.69400001 -0.030420333 6.156581e-39 293 265
-0.031637147 0.69400001 -0.030420333 6.1562251e-39 294 265
-0.0303765 0.69300002 -0.0303765 6.0640294e-39 295 265
-0.029161438 0.69300002 -0.0303765 6.0640322e-39 296 265
-0.027946379 0.69300002 -0.0303765 5.879641e-39 297 265
-0.02673132 0.69300002 -0.0303765 5.9711163e-39 298 265
-0.02551626 0.69300002 -0.0303765 5.878562e-39 299 265
-0.024301201 0.69300002 -0.0303765 5.878562e-39 300 265
-0.02308614 0.69300002 -0.0303765 5.9711163e-39 301 265
-0.021871079 0.69300002 -0.0303765 5.8799969e-39 302 265
-0.020685827 0.69400001 -0.030420333 5.8799969e-39 303 265
-0.019469013 0.69400001 -0.030420333 5.7885201e-39 304 265
-0.0182522 0.69400001 -0.030420333 5.7885201e-39 305 265
-0.017035386 0.69400001 -0.030420333 5.8807172e-39 306 265
-0.015795778 0.69300002 -0.0303765 5.8807172e-39 307 265
-0.014580719 0.69300002 -0.0303765 5.6048491e-39 308 265
-0.01336566 0.69300002 -0.0303765 5.5126535e-39 309 265
-0.012150601 0.69300002 -0.0303765 5.3293412e-39 310 265
-0.010935539 0.69300002 -0.0303765 5.3293412e-39 311 265
-0.0097204801 0.69300002 -0.0303765 5.0541963e-39 312 265
-0.0085054198 0.69300002 -0.0303765 4.9620007e-39 313 265
-0.0072903596 0.69300002 -0.0303765 4.6868557e-39 314 265
-0.0060840664 0.69400001 -0.030420333 4.5946601e-39 315 265
-0.0048672534 0.69400001 -0.030420333 4.6861368e-39 316 265
-0.0036504399 0.69400001 -0.030420333 4.7786912e-39 317 265
-0.0024336267 0.69400001 -0.030420333 4.5035435e-39 318 265
-0.0012203199 0.69599998 -0.030507999 4.5035435e-39 319 265
0 0.69599998 -0.030507999 4.4120695e-39 320 265
0.0012203199 0.69599998 -0.030507999 4.5042651e-39 321 265
0.0024441467 0.69700003 -0.030551834 4.3209529e-39 322 265
0.00366622 0.69700003 -0.030551834 4.3209529e-39 323 265
0.0048953067 0.69800001 -0.030595668 4.3216717e-39 324 265
0.0061454331 0.70099998 -0.030727165 4.4138688e-39 325 265
0.0073955595 0.70300001 -0.030814834 4.5060616e-39 326 265
0.0086404262 0.704 -0.030858666 4.5986159e-39 327 265
0.0098747732 0.704 -0.030858666 4.8744868e-39 328 265
0.011140679 0.70599997 -0.030946331 5.0592382e-39 329 265
0.012396066 0.70700002 -0.030990168 5.4269417e-39 330 265
0.013635674 0.70700002 -0.030990168 5.5191373e-39 331 265
0.014938398 0.70999998 -0.031121666 4.9659439e-39 332 265
0.01620606 0.71100003 -0.031165501 4.5971614e-39 333 265
0.017526319 0.71399999 -0.031296998 1.2434849e-38 334 265
0.018778199 0.71399999 -0.031296998 1.4831577e-38 335 265
-0.051111419 0.71100003 -0.032412119 1.6955695e-38 279 266
-0.049864799 0.71100003 -0.032412119 1.3818154e-38 280 266
-0.048549797 0.70999998 -0.032366529 1.031472e-38 281 266
-0.047171678 0.708 -0.03227536 9.2011794e-39 282 266
-0.045930319 0.708 -0.03227536 8.7405599e-39 283 266
-0.044436477 0.704 -0.032093015 8.5540205e-39 284 266
-0.043202132 0.704 -0.032093015 8.0004866e-39 285 266
-0.041788943 0.70099998 -0.031956252 7.8153764e-39 286 266
-0.040502001 0.69999999 -0.031910665 7.2622027e-39 287 266
-0.039162453 0.69800001 -0.031819493 7.2622055e-39 288 266
-0.037938625 0.69800001 -0.031819493 7.1696511e-39 289 266
-0.036662199 0.69700003 -0.03177391 6.8937803e-39 290 266
-0.035440128 0.69700003 -0.03177391 6.8012245e-39 291 266
-0.034218054 0.69700003 -0.03177391 6.7093848e-39 292 266
-0.032948639 0.69599998 -0.031728316 6.6168305e-39 293 266
-0.031637147 0.69400001 -0.031637147 6.3406065e-39 294 266
-0.030420333 0.69400001 -0.031637147 6.3406065e-39 295 266
-0.029161438 0.69300002 -0.031591557 6.2480549e-39 296 266
-0.027946379 0.69300002 -0.031591557 6.1558579e-39 297 266
-0.02673132 0.69300002 -0.031591557 6.339173e-39 298 266
-0.02551626 0.69300002 -0.031591557 6.2469773e-39 299 266
-0.024301201 0.69300002 -0.031591557 6.0633064e-39 300 266
-0.02308614 0.69300002 -0.031591557 6.1558607e-39 301 266
-0.021871079 0.69300002 -0.031591557 6.0640252e-39 302 266
-0.020685827 0.69400001 -0.031637147 5.8799941e-39 303 266
-0.019469013 0.69400001 -0.031637147 6.1558607e-39 304 266
-0.0182522 0.69400001 -0.031637147 6.1558607e-39 305 266
-0.017035386 0.69400001 -0.031637147 5.880713e-39 306 266
-0.015795778 0.69300002 -0.031591557 5.880713e-39 307 266
-0.014580719 0.69300002 -0.031591557 5.7885173e-39 308 266
-0.01336566 0.69300002 -0.031591557 5.7885173e-39 309 266
-0.012150601 0.69300002 -0.031591557 5.6963245e-39 310 266
-0.010935539 0.69300002 -0.031591557 5.6963245e-39 311 266
-0.0097345067 0.69400001 -0.031637147 5.2378673e-39 312 266
-0.0085176928 0.69400001 -0.031637147 5.2378673e-39 313 266
-0.0073008798 0.69400001 -0.031637147 4.7786884e-39 314 266
-0.0061015999 0.69599998 -0.031728316 4.7786884e-39 315 266
-0.0048812795 0.69599998 -0.031728316 4.6872116e-39 316 266
-0.0036609597 0.69599998 -0.031728316 4.6872116e-39 317 266
-0.0024406398 0.69599998 -0.031728316 4.6868557e-39 318 266
-0.0012203199 0.69599998 -0.031728316 4.6868557e-39 319 266
0 0.69700003 -0.03177391 4.4120695e-39 320 266
0.0012220733 0.69700003 -0.03177391 4.5042651e-39 321 266
0.0024476533 0.69800001 -0.031819493 4.3209529e-39 322 266
0.0036714801 0.69800001 -0.031819493 4.4131485e-39 323 266
0.0049163462 0.70099998 -0.031956252 4.3216717e-39 324 266
0.0061629666 0.70300001 -0.032047424 4.5060644e-39 325 266
0.0074060797 0.704 -0.032093015 4.5060672e-39 326 266
0.0086404262 0.704 -0.032093015 4.6904584e-39 327 266
0.0098747732 0.704 -0.032093015 4.9670411e-39 328 266
0.011140679 0.70599997 -0.032184184 5.1514338e-39 329 266
0.012396066 0.70700002 -0.032229774 5.3358251e-39 330 266
0.013635674 0.70700002 -0.032229774 5.3358251e-39 331 266
0.014959441 0.71100003 -0.032412119 5.3332817e-39 332 266
0.016251646 0.713 -0.032503292 5.7942598e-39 333 266
0.017575413 0.71600002 -0.032640055 1.3727385e-38 334 266
-0.049654398 0.708 -0.033516716 1.5202533e-38 280 267
-0.048413038 0.708 -0.033516716 1.1975686e-38 281 267
-0.047171678 0.708 -0.033516716 9.477769e-39 282 267
-0.045865446 0.70700002 -0.033469379 8.740204e-39 283 267
-0.044562716 0.70599997 -0.033422034 8.3692733e-39 284 267
-0.043324865 0.70599997 -0.033422034 8.184882e-39 285 267
-0.041967787 0.704 -0.03332736 7.6313579e-39 286 267
-0.040675577 0.70300001 -0.033280019 7.4469667e-39 287 267
-0.039330769 0.70099998 -0.03318534 7.0785401e-39 288 267
-0.037938625 0.69800001 -0.033043321 7.1707357e-39 289 267
-0.0367148 0.69800001 -0.033043321 6.7115526e-39 290 267
-0.035440128 0.69700003 -0.03299598 6.6189983e-39 291 267
-0.034218054 0.69700003 -0.03299598 6.5268026e-39 292 267
-0.03299598 0.69700003 -0.03299598 6.3427701e-39 293 267
-0.031728316 0.69599998 -0.032948639 6.5253635e-39 294 267
-0.030507999 0.69599998 -0.032948639 6.3409722e-39 295 267
-0.029203519 0.69400001 -0.032853961 6.340975e-39 296 267
-0.027946379 0.69300002 -0.03280662 6.1562251e-39 297 267
-0.02673132 0.69300002 -0.03280662 6.2477018e-39 298 267
-0.02551626 0.69300002 -0.03280662 6.2477018e-39 299 267
-0.024301201 0.69300002 -0.03280662 6.1558607e-39 300 267
-0.02308614 0.69300002 -0.03280662 6.1558607e-39 301 267
-0.021871079 0.69300002 -0.03280662 5.9729128e-39 302 267
-0.020685827 0.69400001 -0.032853961 5.8807172e-39 303 267
-0.019469013 0.69400001 -0.032853961 6.155509e-39 304 267
-0.0182522 0.69400001 -0.032853961 6.155509e-39 305 267
-0.017035386 0.69400001 -0.032853961 6.0640322e-39 306 267
-0.015818574 0.69400001 -0.032853961 5.879641e-39 307 267
-0.01460176 0.69400001 -0.032853961 5.7885201e-39 308 267
-0.013384946 0.69400001 -0.032853961 5.6963245e-39 309 267
-0.012168133 0.69400001 -0.032853961 5.5126563e-39 310 267
-0.01095132 0.69400001 -0.032853961 5.4204607e-39 311 267
-0.0097345067 0.69400001 -0.032853961 5.1453129e-39 312 267
-0.0085176928 0.69400001 -0.032853961 5.1453129e-39 313 267
-0.0073219193 0.69599998 -0.032948639 4.6872116e-39 314 267
-0.0061015999 0.69599998 -0.032948639 4.6872116e-39 315 267
-0.0048812795 0.69599998 -0.032948639 4.6872116e-39 316 267
-0.00366622 0.69700003 -0.03299598 4.6872116e-39 317 267
-0.0024441467 0.69700003 -0.03299598 4.6868557e-39 318 267
-0.0012220733 0.69700003 -0.03299598 4.6868557e-39 319 267
0 0.69800001 -0.033043321 4.4120695e-39 320 267
0.0012238267 0.69800001 -0.033043321 4.4120695e-39 321 267
0.0024546667 0.69999999 -0.033137999 4.4117136e-39 322 267
