# .PCD v.7 - Point Cloud Data file format
FIELDS x y z rgb imX imY
SIZE 4 4 4 4 4 4
TYPE F F F F F F
COUNT 1 1 1 1 1 1
WIDTH 864
HEIGHT 1
VIEWPOINT 0 0 0 1 0 0 0
POINTS 864
DATA ascii
-0.023954039 0.759 0.023954039 1.6683293e-38 302 222
-0.022563647 0.75700003 0.02389092 1.6406346e-38 303 222
-0.021236373 0.75700003 0.02389092 1.6222293e-38 304 222
-0.019909101 0.75700003 0.02389092 1.6037541e-38 305 222
-0.018581826 0.75700003 0.02389092 1.6128645e-38 306 222
-0.017208965 0.755 0.023827799 1.5852419e-38 307 222
-0.015885198 0.755 0.023827799 1.5943165e-38 308 222
-0.014600007 0.75700003 0.02389092 1.5758415e-38 309 222
-0.013272733 0.75700003 0.02389092 1.5482191e-38 310 222
-0.01194546 0.75700003 0.02389092 1.5389996e-38 311 222
-0.010618187 0.75700003 0.02389092 1.4931185e-38 312 222
-0.00931546 0.759 0.023954039 1.4931185e-38 313 222
-0.0079846792 0.759 0.023954039 1.4931904e-38 314 222
-0.0066538998 0.759 0.023954039 1.5300327e-38 315 222
-0.0053231199 0.759 0.023954039 1.530176e-38 316 222
-0.0040028598 0.76099998 0.024017159 1.5577987e-38 317 222
-0.0026685731 0.76099998 0.024017159 1.5763453e-38 318 222
-0.0013342865 0.76099998 0.024017159 1.585565e-38 319 222
0 0.76099998 0.024017159 1.5763809e-38 320 222
0.0013342865 0.76099998 0.024017159 1.5579419e-38 321 222
0.0026685731 0.76099998 0.024017159 1.5670889e-38 322 222
0.0040028598 0.76099998 0.024017159 1.5670889e-38 323 222
0.0053231199 0.759 0.023954039 1.5761643e-38 324 222
0.0066538998 0.759 0.023954039 1.5853838e-38 325 222
0.0079636406 0.75700003 0.02389092 1.5304646e-38 326 222
0.0092909131 0.75700003 0.02389092 1.2262191e-38 327 222
0.01064624 0.759 0.023954039 1.0873897e-38 328 222
0.01197702 0.759 0.023954039 1.0781702e-38 329 222
0.0133078 0.759 0.023954039 1.2812494e-38 330 222
0.014638579 0.759 0.023954039 1.4287982e-38 331 222
0.016011439 0.76099998 0.024017159 1.4837551e-38 332 222
0.017345725 0.76099998 0.024017159 1.4930105e-38 333 222
0.01870456 0.76200002 0.02404872 1.4746087e-38 334 222
0.0200406 0.76200002 0.02404872 1.4376945e-38 335 222
0.02137664 0.76200002 0.02404872 1.3732718e-38 336 222
0.02271268 0.76200002 0.02404872 1.5207848e-38 337 222
0.024111839 0.764 0.024111839 1.5762175e-38 338 222
-0.033488665 0.764 0.022772292 1.7146194e-38 295 223
-0.032149121 0.764 0.022772292 1.6317105e-38 296 223
-0.030809574 0.764 0.022772292 1.6132713e-38 297 223
-0.029354304 0.76099998 0.022682872 1.6500376e-38 298 223
-0.027946379 0.759 0.02262326 1.6500376e-38 299 223
-0.026615599 0.759 0.02262326 1.650071e-38 300 223
-0.025284819 0.759 0.02262326 1.6132287e-38 301 223
-0.02389092 0.75700003 0.022563647 1.6407047e-38 302 223
-0.022504034 0.755 0.022504034 1.6038625e-38 303 223
-0.021180267 0.755 0.022504034 1.6129724e-38 304 223
-0.0198565 0.755 0.022504034 1.5945333e-38 305 223
-0.018532733 0.755 0.022504034 1.6036081e-38 306 223
-0.017208965 0.755 0.022504034 1.5851689e-38 307 223
-0.015885198 0.755 0.022504034 1.5758769e-38 308 223
-0.014561433 0.755 0.022504034 1.5482542e-38 309 223
-0.013237666 0.755 0.022504034 1.5205963e-38 310 223
-0.011913899 0.755 0.022504034 1.5205963e-38 311 223
-0.010618187 0.75700003 0.022563647 1.465496e-38 312 223
-0.0092909131 0.75700003 0.022563647 1.4470929e-38 313 223
-0.0079636406 0.75700003 0.022563647 1.4378733e-38 314 223
-0.0066538998 0.759 0.02262326 1.4470929e-38 315 223
-0.0053231199 0.759 0.02262326 1.4747509e-38 316 223
-0.0040028598 0.76099998 0.022682872 1.4931902e-38 317 223
-0.0026685731 0.76099998 0.022682872 1.4659629e-38 318 223
-0.0013342865 0.76099998 0.022682872 1.4751826e-38 319 223
0 0.76099998 0.022682872 1.4934418e-38 320 223
0.0013342865 0.76099998 0.022682872 1.511917e-38 321 223
0.0026685731 0.76099998 0.022682872 1.5302479e-38 322 223
0.0039923396 0.759 0.02262326 1.5302479e-38 323 223
0.0053231199 0.759 0.02262326 1.539468e-38 324 223
0.0066363667 0.75700003 0.022563647 1.520993e-38 325 223
0.0079636406 0.75700003 0.022563647 1.4380558e-38 326 223
0.0092909131 0.75700003 0.022563647 1.0047736e-38 327 223
0.010618187 0.75700003 0.022563647 8.0237677e-39 328 223
0.01194546 0.75700003 0.022563647 9.7750994e-39 329 223
0.0133078 0.759 0.02262326 1.3362784e-38 330 223
0.014638579 0.759 0.02262326 1.4837554e-38 331 223
0.015969358 0.759 0.02262326 1.4562396e-38 332 223
0.017345725 0.76099998 0.022682872 1.4654592e-38 333 223
0.01870456 0.76200002 0.02271268 1.4654589e-38 334 223
0.0200406 0.76200002 0.02271268 1.4193969e-38 335 223
0.02137664 0.76200002 0.02271268 1.4099663e-38 336 223
0.022772292 0.764 0.022772292 1.4745033e-38 337 223
0.024111839 0.764 0.022772292 1.4473212e-38 338 223
0.025451386 0.764 0.022772292 1.6224569e-38 339 223
-0.034737039 0.76200002 0.02137664 1.71469e-38 294 224
-0.033488665 0.764 0.021432746 1.6225304e-38 295 224
-0.032149121 0.764 0.021432746 1.5855751e-38 296 224
-0.030809574 0.764 0.021432746 1.6040142e-38 297 224
-0.029354304 0.76099998 0.021348584 1.6316691e-38 298 224
-0.027946379 0.759 0.02129248 1.6316691e-38 299 224
-0.026545467 0.75700003 0.021236373 1.6776205e-38 300 224
-0.025151566 0.755 0.021180267 1.6315228e-38 301 224
-0.02379624 0.75400001 0.021152213 1.6590349e-38 302 224
-0.022474226 0.75400001 0.021152213 1.6221568e-38 303 224
-0.021152213 0.75400001 0.021152213 1.6128999e-38 304 224
-0.019830201 0.75400001 0.021152213 1.5852413e-38 305 224
-0.018532733 0.755 0.021180267 1.5852039e-38 306 224
-0.017208965 0.755 0.021180267 1.5575453e-38 307 224
-0.015885198 0.755 0.021180267 1.5391059e-38 308 224
-0.014561433 0.755 0.021180267 1.5298862e-38 309 224
-0.013237666 0.755 0.021180267 1.4930453e-38 310 224
-0.011913899 0.755 0.021180267 1.4930453e-38 311 224
-0.010590133 0.755 0.021180267 1.4562046e-38 312 224
-0.0092663663 0.755 0.021180267 1.4377296e-38 313 224
-0.0079636406 0.75700003 0.021236373 1.4011021e-38 314 224
-0.0066363667 0.75700003 0.021236373 1.3642238e-38 315 224
-0.0053231199 0.759 0.02129248 1.3825913e-38 316 224
-0.0039923396 0.759 0.02129248 1.4102139e-38 317 224
-0.0026685731 0.76099998 0.021348584 1.355438e-38 318 224
-0.00133078 0.759 0.02129248 1.3830608e-38 319 224
0 0.759 0.02129248 1.4197949e-38 320 224
0.00133078 0.759 0.02129248 1.456673e-38 321 224
0.00266156 0.759 0.02129248 1.4841875e-38 322 224
0.0039923396 0.759 0.02129248 1.4934071e-38 323 224
0.0053090933 0.75700003 0.021236373 1.4752586e-38 324 224
0.0066188332 0.755 0.021180267 1.318562e-38 325 224
0.0079425992 0.755 0.021180267 1.2167891e-38 326 224
0.0092663663 0.755 0.021180267 8.4800754e-39 327 224
0.010590133 0.755 0.021180267 8.114527e-39 328 224
0.011913899 0.755 0.021180267 1.1525721e-38 329 224
0.013272733 0.75700003 0.021236373 1.4009218e-38 330 224
0.014600007 0.75700003 0.021236373 1.446983e-38 331 224
0.015969358 0.759 0.02129248 1.4654578e-38 332 224
0.017300138 0.759 0.02129248 1.4838966e-38 333 224
0.018680012 0.76099998 0.021348584 1.4654579e-38 334 224
0.0200406 0.76200002 0.02137664 1.4562025e-38 335 224
0.02137664 0.76200002 0.02137664 1.4469481e-38 336 224
0.02271268 0.76200002 0.02137664 1.4008503e-38 337 224
0.02404872 0.76200002 0.02137664 1.33661e-38 338 224
0.025451386 0.764 0.021432746 1.5670991e-38 339 224
0.026790932 0.764 0.021432746 1.7143323e-38 340 224
-0.036073081 0.76200002 0.0200406 1.7515705e-38 293 225
-0.034737039 0.76200002 0.0200406 1.6040891e-38 294 225
-0.033401001 0.76200002 0.0200406 1.5856499e-38 295 225
-0.032022879 0.76099998 0.020014299 1.6038682e-38 296 225
-0.030688593 0.76099998 0.020014299 1.6314909e-38 297 225
-0.029277159 0.759 0.0199617 1.6316319e-38 298 225
-0.027872739 0.75700003 0.019909101 1.6316319e-38 299 225
-0.026440267 0.75400001 0.019830201 1.6683644e-38 300 225
-0.025118252 0.75400001 0.019830201 1.6406697e-38 301 225
-0.023733119 0.75199997 0.0197776 1.6222643e-38 302 225
-0.022414612 0.75199997 0.0197776 1.6037892e-38 303 225
-0.021096105 0.75199997 0.0197776 1.5852763e-38 304 225
-0.019830201 0.75400001 0.019830201 1.5668371e-38 305 225
-0.018508185 0.75400001 0.019830201 1.5576879e-38 306 225
-0.017186172 0.75400001 0.019830201 1.5208102e-38 307 225
-0.01586416 0.75400001 0.019830201 1.529922e-38 308 225
-0.014542146 0.75400001 0.019830201 1.5207025e-38 309 225
-0.013220133 0.75400001 0.019830201 1.4930453e-38 310 225
-0.011913899 0.755 0.0198565 1.4838257e-38 311 225
-0.010590133 0.755 0.0198565 1.4102514e-38 312 225
-0.0092663663 0.755 0.0198565 1.4010318e-38 313 225
-0.0079425992 0.755 0.0198565 1.3641166e-38 314 225
-0.0066188332 0.755 0.0198565 1.2995799e-38 315 225
-0.0053090933 0.75700003 0.019909101 1.281141e-38 316 225
-0.0039923396 0.759 0.0199617 1.2719216e-38 317 225
-0.00266156 0.759 0.0199617 1.2263644e-38 318 225
-0.00133078 0.759 0.0199617 1.2909014e-38 319 225
0 0.759 0.0199617 1.3552595e-38 320 225
0.00133078 0.759 0.0199617 1.3829542e-38 321 225
0.0026545466 0.75700003 0.019909101 1.4290166e-38 322 225
0.0039712996 0.755 0.0198565 1.4935535e-38 323 225
0.0052950666 0.755 0.0198565 1.4201227e-38 324 225
0.0066188332 0.755 0.0198565 9.5914452e-39 325 225
0.0079425992 0.755 0.0198565 7.4720443e-39 326 225
0.0092663663 0.755 0.0198565 8.301805e-39 327 225
0.010590133 0.755 0.0198565 1.2163203e-38 328 225
0.011913899 0.755 0.0198565 1.4191507e-38 329 225
0.013272733 0.75700003 0.019909101 1.4470198e-38 330 225
0.014600007 0.75700003 0.019909101 1.4562393e-38 331 225
0.015969358 0.759 0.0199617 1.456346e-38 332 225
0.017300138 0.759 0.0199617 1.4655654e-38 333 225
0.018680012 0.76099998 0.020014299 1.4838966e-38 334 225
0.020014299 0.76099998 0.020014299 1.4654936e-38 335 225
0.02137664 0.76200002 0.0200406 1.4563101e-38 336 225
0.02271268 0.76200002 0.0200406 1.410213e-38 337 225
0.02404872 0.76200002 0.0200406 1.3640504e-38 338 225
0.02538476 0.76200002 0.0200406 1.5115274e-38 339 225
0.026790932 0.764 0.020093199 1.61306e-38 340 225
-0.037507307 0.764 0.018753653 1.7975958e-38 292 226
-0.036073081 0.76200002 0.01870456 1.7238393e-38 293 226
-0.034691449 0.76099998 0.018680012 1.5854682e-38 294 226
-0.033357166 0.76099998 0.018680012 1.5946877e-38 295 226
-0.031938717 0.759 0.01863092 1.6040102e-38 296 226
-0.030527288 0.75700003 0.018581826 1.5947906e-38 297 226
-0.029084291 0.75400001 0.018508185 1.631595e-38 298 226
-0.027762281 0.75400001 0.018508185 1.631595e-38 299 226
-0.02637013 0.75199997 0.018459093 1.6500669e-38 300 226
-0.024984999 0.75 0.018409999 1.6132245e-38 301 226
-0.023669999 0.75 0.018409999 1.6498839e-38 302 226
-0.022355 0.75 0.018409999 1.6129696e-38 303 226
-0.021096105 0.75199997 0.018459093 1.6036774e-38 304 226
-0.0197776 0.75199997 0.018459093 1.5852026e-38 305 226
-0.018459093 0.75199997 0.018459093 1.5760191e-38 306 226
-0.017140586 0.75199997 0.018459093 1.5667997e-38 307 226
-0.015822079 0.75199997 0.018459093 1.5391055e-38 308 226
-0.014542146 0.75400001 0.018508185 1.5298861e-38 309 226
-0.013220133 0.75400001 0.018508185 1.4838254e-38 310 226
-0.01189812 0.75400001 0.018508185 1.4654223e-38 311 226
-0.010590133 0.755 0.018532733 1.4377652e-38 312 226
-0.0092540924 0.75400001 0.018508185 1.4008869e-38 313 226
-0.00793208 0.75400001 0.018508185 1.3824127e-38 314 226
-0.0066188332 0.755 0.018532733 1.3086562e-38 315 226
-0.0053090933 0.75700003 0.018581826 1.1983109e-38 316 226
-0.0039923396 0.759 0.01863092 1.152177e-38 317 226
-0.00266156 0.759 0.01863092 1.1340273e-38 318 226
-0.00133078 0.759 0.01863092 1.1985642e-38 319 226
0 0.759 0.01863092 1.2722857e-38 320 226
0.00133078 0.759 0.01863092 1.3460781e-38 321 226
0.0026545466 0.75700003 0.018581826 1.4381303e-38 322 226
0.0039712996 0.755 0.018532733 1.4566053e-38 323 226
0.0052950666 0.755 0.018532733 1.2819373e-38 324 226
0.0066188332 0.755 0.018532733 8.5783722e-39 325 226
0.0079425992 0.755 0.018532733 6.8234491e-39 326 226
0.0092663663 0.755 0.018532733 1.1248427e-38 327 226
0.010590133 0.755 0.018532733 1.3640812e-38 328 226
0.011913899 0.755 0.018532733 1.4470573e-38 329 226
0.013272733 0.75700003 0.018581826 1.4655298e-38 330 226
0.014600007 0.75700003 0.018581826 1.4655298e-38 331 226
0.015969358 0.759 0.01863092 1.4931878e-38 332 226
0.017300138 0.759 0.01863092 1.4931878e-38 333 226
0.01863092 0.759 0.01863092 1.493116e-38 334 226
0.020014299 0.76099998 0.018680012 1.4838966e-38 335 226
0.021348584 0.76099998 0.018680012 1.4746413e-38 336 226
0.022682872 0.76099998 0.018680012 1.4377636e-38 337 226
0.024017159 0.76099998 0.018680012 1.3824872e-38 338 226
0.02538476 0.76200002 0.01870456 1.4378045e-38 339 226
0.0267208 0.76200002 0.01870456 1.5393736e-38 340 226
0.028056841 0.76200002 0.01870456 1.7053616e-38 341 226
-0.038745161 0.76200002 0.01736852 1.7791939e-38 291 227
-0.037360024 0.76099998 0.017345725 1.7054336e-38 292 227
-0.036025736 0.76099998 0.017345725 1.6224574e-38 293 227
-0.034600276 0.759 0.017300138 1.5946486e-38 294 227
-0.033269498 0.759 0.017300138 1.6038682e-38 295 227
-0.031854562 0.75700003 0.017254554 1.6131557e-38 296 227
-0.030446632 0.755 0.017208965 1.6223754e-38 297 227
-0.029084291 0.75400001 0.017186172 1.6224103e-38 298 227
-0.027615 0.75 0.017095 1.63163e-38 299 227
-0.0263 0.75 0.017095 1.622516e-38 300 227
-0.024951685 0.74900001 0.017072206 1.6132964e-38 301 227
-0.02363844 0.74900001 0.017072206 1.6406992e-38 302 227
-0.022325192 0.74900001 0.017072206 1.6222601e-38 303 227
-0.02104 0.75 0.017095 1.5946732e-38 304 227
-0.019724999 0.75 0.017095 1.5762343e-38 305 227
-0.018409999 0.75 0.017095 1.5669432e-38 306 227
-0.017095 0.75 0.017095 1.5485043e-38 307 227
-0.015822079 0.75199997 0.017140586 1.5299943e-38 308 227
-0.014503572 0.75199997 0.017140586 1.493116e-38 309 227
-0.013185065 0.75199997 0.017140586 1.4654942e-38 310 227
-0.011866559 0.75199997 0.017140586 1.4654942e-38 311 227
-0.010548052 0.75199997 0.017140586 1.4286535e-38 312 227
-0.0092295464 0.75199997 0.017140586 1.4101784e-38 313 227
-0.00793208 0.75400001 0.017186172 1.3089806e-38 314 227
-0.0066188332 0.755 0.017208965 1.2260044e-38 315 227
-0.0053090933 0.75700003 0.017254554 1.1245543e-38 316 227
-0.0039923396 0.759 0.017300138 9.9548243e-39 317 227
-0.00266156 0.759 0.017300138 1.0323242e-38 318 227
-0.00133078 0.759 0.017300138 1.1153351e-38 319 227
0 0.759 0.017300138 1.1339203e-38 320 227
0.00133078 0.759 0.017300138 1.2445551e-38 321 227
0.0026545466 0.75700003 0.017254554 1.3182763e-38 322 227
0.0039712996 0.755 0.017208965 1.2353001e-38 323 227
0.0052950666 0.755 0.017208965 1.1061165e-38 324 227
0.0066188332 0.755 0.017208965 9.7704358e-39 325 227
0.0079425992 0.755 0.017208965 1.1424192e-38 326 227
0.0092663663 0.755 0.017208965 1.4466628e-38 327 227
0.010590133 0.755 0.017208965 1.4287627e-38 328 227
0.011913899 0.755 0.017208965 1.5209583e-38 329 227
0.013272733 0.75700003 0.017254554 1.4841854e-38 330 227
0.014600007 0.75700003 0.017254554 1.447307e-38 331 227
0.015927281 0.75700003 0.017254554 1.484076e-38 332 227
0.017254554 0.75700003 0.017254554 1.484076e-38 333 227
0.01863092 0.759 0.017300138 1.4840401e-38 334 227
0.0199617 0.759 0.017300138 1.4656012e-38 335 227
0.021348584 0.76099998 0.017345725 1.4838607e-38 336 227
0.022682872 0.76099998 0.017345725 1.4562383e-38 337 227
0.024017159 0.76099998 0.017345725 1.419328e-38 338 227
0.02538476 0.76200002 0.01736852 1.4008887e-38 339 227
0.0267208 0.76200002 0.01736852 1.4471394e-38 340 227
0.028056841 0.76200002 0.01736852 1.6868481e-38 341 227
-0.038745161 0.76200002 0.01603248 1.742351e-38 291 228
-0.037360024 0.76099998 0.016011439 1.6225628e-38 292 228
-0.036025736 0.76099998 0.016011439 1.5303673e-38 293 228
-0.034600276 0.759 0.015969358 1.6130485e-38 294 228
-0.033269498 0.759 0.015969358 1.6498909e-38 295 228
-0.031854562 0.75700003 0.015927281 1.6776909e-38 296 228
-0.030446632 0.755 0.015885198 1.6869104e-38 297 228
-0.029084291 0.75400001 0.01586416 1.6685779e-38 298 228
-0.027615 0.75 0.01578 1.6501748e-38 299 228
-0.0263 0.75 0.01578 1.6593554e-38 300 228
-0.024951685 0.74900001 0.01575896 1.6501359e-38 301 228
-0.023575317 0.74699998 0.015716879 1.7051269e-38 302 228
-0.022265578 0.74699998 0.015716879 1.6775045e-38 303 228
-0.021011947 0.74900001 0.01575896 1.6497745e-38 304 228
-0.019724999 0.75 0.01578 1.6313356e-38 305 228
-0.018385453 0.74900001 0.01575896 1.6128968e-38 306 228
-0.017072206 0.74900001 0.01575896 1.6036415e-38 307 228
-0.01575896 0.74900001 0.01575896 1.5391059e-38 308 228
-0.014465 0.75 0.01578 1.5206667e-38 309 228
-0.013185065 0.75199997 0.015822079 1.493116e-38 310 228
-0.011835 0.75 0.01578 1.4562383e-38 311 228
-0.01052 0.75 0.01578 1.4377999e-38 312 228
-0.0092295464 0.75199997 0.015822079 1.3917382e-38 313 228
-0.0079110395 0.75199997 0.015822079 1.3272756e-38 314 228
-0.0066100666 0.75400001 0.01586416 1.2350439e-38 315 228
-0.0053090933 0.75700003 0.015927281 1.0877853e-38 316 228
-0.0039923396 0.759 0.015969358 9.3105409e-39 317 228
-0.00266156 0.759 0.015969358 9.309106e-39 318 228
-0.00133078 0.759 0.015969358 9.7700771e-39 319 228
0 0.759 0.015969358 1.0416171e-38 320 228
0.00133078 0.759 0.015969358 1.1154095e-38 321 228
0.0026545466 0.75700003 0.015927281 1.2166439e-38 322 228
0.0039712996 0.755 0.015885198 1.1244843e-38 323 228
0.0052950666 0.755 0.015885198 9.6796765e-39 324 228
0.0066188332 0.755 0.015885198 1.0970404e-38 325 228
0.0079425992 0.755 0.015885198 1.2625587e-38 326 228
0.0092663663 0.755 0.015885198 1.4100717e-38 327 228
0.010590133 0.755 0.015885198 1.4104645e-38 328 228
0.011913899 0.755 0.015885198 1.465746e-38 329 228
0.013272733 0.75700003 0.015927281 1.493403e-38 330 228
0.014600007 0.75700003 0.015927281 1.4657447e-38 331 228
0.015927281 0.75700003 0.015927281 1.5116625e-38 332 228
0.017254554 0.75700003 0.015927281 1.5116625e-38 333 228
0.01863092 0.759 0.015969358 1.5207384e-38 334 228
0.0199617 0.759 0.015969358 1.493116e-38 335 228
0.02129248 0.759 0.015969358 1.502192e-38 336 228
0.022682872 0.76099998 0.016011439 1.4837531e-38 337 228
0.024017159 0.76099998 0.016011439 1.4469479e-38 338 228
0.025351444 0.76099998 0.016011439 1.419289e-38 339 228
0.0267208 0.76200002 0.01603248 1.4102221e-38 340 228
0.028056841 0.76200002 0.01603248 1.640711e-38 341 228
-0.038694311 0.76099998 0.014677152 1.686997e-38 291 229
-0.037360024 0.76099998 0.014677152 1.5764632e-38 292 229
-0.035931058 0.759 0.014638579 1.5395849e-38 293 229
-0.034600276 0.759 0.014638579 1.6591811e-38 294 229
-0.033094164 0.755 0.014561433 1.6960952e-38 295 229
-0.03172832 0.75400001 0.014542146 1.7422994e-38 296 229
-0.030325651 0.75199997 0.014503572 1.7330798e-38 297 229
-0.029007144 0.75199997 0.014503572 1.6870526e-38 298 229
-0.027615 0.75 0.014465 1.6778331e-38 299 229
-0.026264934 0.74900001 0.014445714 1.6870138e-38 300 229
-0.024951685 0.74900001 0.014445714 1.6685748e-38 301 229
-0.023575317 0.74699998 0.014407139 1.7235659e-38 302 229
-0.022265578 0.74699998 0.014407139 1.6959075e-38 303 229
-0.020955838 0.74699998 0.014407139 1.6957998e-38 304 229
-0.0196987 0.74900001 0.014445714 1.6865804e-38 305 229
-0.018385453 0.74900001 0.014445714 1.631515e-38 306 229
-0.017072206 0.74900001 0.014445714 1.6130761e-38 307 229
-0.01575896 0.74900001 0.014445714 1.5850954e-38 308 229
-0.014465 0.75 0.014465 1.5666204e-38 309 229
-0.013132467 0.74900001 0.014445714 1.4839692e-38 310 229
-0.01181922 0.74900001 0.014445714 1.4654942e-38 311 229
-0.01052 0.75 0.014465 1.446985e-38 312 229
-0.0092049995 0.75 0.014465 1.4101067e-38 313 229
-0.0079110395 0.75199997 0.014503572 1.3272052e-38 314 229
-0.0066100666 0.75400001 0.014542146 1.225754e-38 315 229
-0.0053090933 0.75700003 0.014600007 1.0784956e-38 316 229
-0.0039923396 0.759 0.014638579 8.9410465e-39 317 229
-0.00266156 0.759 0.014638579 8.2002641e-39 318 229
-0.00133078 0.759 0.014638579 8.1080699e-39 319 229
0 0.759 0.014638579 8.8477761e-39 320 229
0.00133078 0.759 0.014638579 9.5853411e-39 321 229
0.0026545466 0.75700003 0.014600007 9.8612021e-39 322 229
0.0039818203 0.75700003 0.014600007 9.2158355e-39 323 229
0.0053090933 0.75700003 0.014600007 9.2169117e-39 324 229
0.0066188332 0.755 0.014561433 1.2167522e-38 325 229
0.0079425992 0.755 0.014561433 1.3181652e-38 326 229
0.0092663663 0.755 0.014561433 1.3827021e-38 327 229
0.010590133 0.755 0.014561433 1.3920974e-38 328 229
0.01194546 0.75700003 0.014600007 1.4105005e-38 329 229
0.013272733 0.75700003 0.014600007 1.4565612e-38 330 229
0.014600007 0.75700003 0.014600007 1.4657806e-38 331 229
0.015927281 0.75700003 0.014600007 1.5117342e-38 332 229
0.017254554 0.75700003 0.014600007 1.5117342e-38 333 229
0.018581826 0.75700003 0.014600007 1.5299937e-38 334 229
0.019909101 0.75700003 0.014600007 1.5023354e-38 335 229
0.02129248 0.759 0.014638579 1.5114114e-38 336 229
0.02262326 0.759 0.014638579 1.483789e-38 337 229
0.024017159 0.76099998 0.014677152 1.4653501e-38 338 229
0.025351444 0.76099998 0.014677152 1.4560948e-38 339 229
0.0267208 0.76200002 0.01469644 1.4285518e-38 340 229
0.028056841 0.76200002 0.01469644 1.5576256e-38 341 229
-0.040028598 0.76099998 0.013342866 1.71469e-38 290 230
-0.038694311 0.76099998 0.013342866 1.6409335e-38 291 230
-0.03726184 0.759 0.0133078 1.6131597e-38 292 230
-0.035931058 0.759 0.0133078 1.6039401e-38 293 230
-0.034417931 0.755 0.013237666 1.6685079e-38 294 230
-0.033050332 0.75400001 0.013220133 1.686947e-38 295 230
-0.03172832 0.75400001 0.013220133 1.7515548e-38 296 230
-0.030325651 0.75199997 0.013185065 1.7422994e-38 297 230
-0.028929999 0.75 0.01315 1.714639e-38 298 230
-0.027615 0.75 0.01315 1.6962359e-38 299 230
-0.026194798 0.74699998 0.013097399 1.7053811e-38 300 230
-0.024885058 0.74699998 0.013097399 1.7053811e-38 301 230
-0.023575317 0.74699998 0.013097399 1.7328573e-38 302 230
-0.022265578 0.74699998 0.013097399 1.7052346e-38 303 230
-0.020955838 0.74699998 0.013097399 1.7143104e-38 304 230
-0.0196987 0.74900001 0.013132467 1.6958357e-38 305 230
-0.018385453 0.74900001 0.013132467 1.6776125e-38 306 230
-0.017072206 0.74900001 0.013132467 1.6499538e-38 307 230
-0.01575896 0.74900001 0.013132467 1.6219727e-38 308 230
-0.014445714 0.74900001 0.013132467 1.5666562e-38 309 230
-0.013132467 0.74900001 0.013132467 1.4930084e-38 310 230
-0.01181922 0.74900001 0.013132467 1.5022638e-38 311 230
-0.010505973 0.74900001 0.013132467 1.4562043e-38 312 230
-0.0091927266 0.74900001 0.013132467 1.4101065e-38 313 230
-0.00789 0.75 0.01315 1.317985e-38 314 230
-0.0065925326 0.75199997 0.013185065 1.2073862e-38 315 230
-0.0053090933 0.75700003 0.013272733 1.0324341e-38 316 230
-0.0039923396 0.759 0.0133078 8.3885986e-39 317 230
-0.00266156 0.759 0.0133078 7.0939333e-39 318 230
-0.0013342865 0.76099998 0.013342866 6.9095449e-39 319 230
0 0.76099998 0.013342866 7.5566982e-39 320 230
0.00133078 0.759 0.0133078 8.2946205e-39 321 230
0.00266156 0.759 0.0133078 9.1229336e-39 322 230
0.0039818203 0.75700003 0.013272733 9.5839118e-39 323 230
0.0053090933 0.75700003 0.013272733 9.9544726e-39 324 230
0.0066363667 0.75700003 0.013272733 1.2074973e-38 325 230
0.0079636406 0.75700003 0.013272733 1.2631349e-38 326 230
0.0092909131 0.75700003 0.013272733 1.3092326e-38 327 230
0.010618187 0.75700003 0.013272733 1.4012093e-38 328 230
0.01194546 0.75700003 0.013272733 1.4196485e-38 329 230
0.013272733 0.75700003 0.013272733 1.4657806e-38 330 230
0.014600007 0.75700003 0.013272733 1.475e-38 331 230
0.015927281 0.75700003 0.013272733 1.5392131e-38 332 230
0.017254554 0.75700003 0.013272733 1.5392131e-38 333 230
0.018581826 0.75700003 0.013272733 1.529922e-38 334 230
0.019909101 0.75700003 0.013272733 1.5114472e-38 335 230
0.02129248 0.759 0.0133078 1.5114472e-38 336 230
0.02262326 0.759 0.0133078 1.4745696e-38 337 230
0.024017159 0.76099998 0.013342866 1.4652784e-38 338 230
0.025351444 0.76099998 0.013342866 1.4652784e-38 339 230
0.026685731 0.76099998 0.013342866 1.4376617e-38 340 230
0.028056841 0.76200002 0.0133604 1.47454e-38 341 230
0.029392879 0.76200002 0.0133604 1.5484487e-38 342 230
-0.040028598 0.76099998 0.012008579 1.6870644e-38 290 231
-0.038694311 0.76099998 0.012008579 1.5672101e-38 291 231
-0.03726184 0.759 0.01197702 1.6315247e-38 292 231
-0.035931058 0.759 0.01197702 1.6499638e-38 293 231
-0.034417931 0.755 0.011913899 1.6776911e-38 294 231
-0.033050332 0.75400001 0.01189812 1.6961303e-38 295 231
-0.03172832 0.75400001 0.01189812 1.7331154e-38 296 231
-0.030325651 0.75199997 0.011866559 1.7147123e-38 297 231
-0.028929999 0.75 0.011835 1.7237867e-38 298 231
-0.027615 0.75 0.011835 1.7145671e-38 299 231
-0.026194798 0.74699998 0.011787659 1.7329672e-38 300 231
-0.024885058 0.74699998 0.011787659 1.7237476e-38 301 231
-0.023575317 0.74699998 0.011787659 1.7420763e-38 302 231
-0.022265578 0.74699998 0.011787659 1.7236016e-38 303 231
-0.020955838 0.74699998 0.011787659 1.7143104e-38 304 231
-0.019646099 0.74699998 0.011787659 1.705091e-38 305 231
-0.018336359 0.74699998 0.011787659 1.6959075e-38 306 231
-0.017026618 0.74699998 0.011787659 1.6682851e-38 307 231
-0.015716879 0.74699998 0.011787659 1.6587786e-38 308 231
-0.014407139 0.74699998 0.011787659 1.6218651e-38 309 231
-0.013132467 0.74900001 0.01181922 1.5665844e-38 310 231
-0.01181922 0.74900001 0.01181922 1.557365e-38 311 231
-0.010505973 0.74900001 0.01181922 1.4654942e-38 312 231
-0.0091927266 0.74900001 0.01181922 1.4194324e-38 313 231
-0.0078794798 0.74900001 0.01181922 1.3548247e-38 314 231
-0.006575 0.75 0.011835 1.2441557e-38 315 231
-0.0052880533 0.75400001 0.01189812 1.0506925e-38 316 231
-0.0039818203 0.75700003 0.01194546 8.2938932e-39 317 231
-0.00266156 0.759 0.01197702 6.9073925e-39 318 231
-0.00133078 0.759 0.01197702 6.9073925e-39 319 231
0 0.76099998 0.012008579 6.7269641e-39 320 231
0.00133078 0.759 0.01197702 7.2801379e-39 321 231
0.00266156 0.759 0.01197702 7.6485421e-39 322 231
0.0039818203 0.75700003 0.01194546 8.4786629e-39 323 231
0.0053090933 0.75700003 0.01194546 9.8647951e-39 324 231
0.0066363667 0.75700003 0.01194546 1.1339925e-38 325 231
0.0079636406 0.75700003 0.01194546 1.2445156e-38 326 231
0.0092663663 0.755 0.011913899 1.3182721e-38 327 231
0.010590133 0.755 0.011913899 1.3919895e-38 328 231
0.011913899 0.755 0.011913899 1.4196841e-38 329 231
0.013237666 0.755 0.011913899 1.484076e-38 330 231
0.014561433 0.755 0.011913899 1.4932955e-38 331 231
0.015885198 0.755 0.011913899 1.5299578e-38 332 231
0.017208965 0.755 0.011913899 1.5299578e-38 333 231
0.018532733 0.755 0.011913899 1.529922e-38 334 231
0.019909101 0.75700003 0.01194546 1.5114472e-38 335 231
0.021236373 0.75700003 0.01194546 1.5113755e-38 336 231
0.02262326 0.759 0.01197702 1.4929008e-38 337 231
0.023954039 0.759 0.01197702 1.4652784e-38 338 231
0.025351444 0.76099998 0.012008579 1.4652784e-38 339 231
0.026685731 0.76099998 0.012008579 1.419293e-38 340 231
0.028056841 0.76200002 0.01202436 1.3824506e-38 341 231
0.029392879 0.76200002 0.01202436 1.5206438e-38 342 231
-0.040028598 0.76099998 0.010674292 1.6593686e-38 290 232
-0.038694311 0.76099998 0.010674292 1.5948317e-38 291 232
-0.03726184 0.759 0.01064624 1.6317748e-38 292 232
-0.03583638 0.75700003 0.010618187 1.6317748e-38 293 232
-0.034417931 0.755 0.010590133 1.686946e-38 294 232
-0.033050332 0.75400001 0.010576107 1.7145688e-38 295 232
-0.031644158 0.75199997 0.010548052 1.7513748e-38 296 232
-0.030325651 0.75199997 0.010548052 1.7513748e-38 297 232
-0.028929999 0.75 0.01052 1.733007e-38 298 232
-0.027578179 0.74900001 0.010505973 1.733007e-38 299 232
-0.026194798 0.74699998 0.010477919 1.7697025e-38 300 232
-0.024885058 0.74699998 0.010477919 1.7604829e-38 301 232
-0.023543758 0.74599999 0.010463892 1.7696281e-38 302 232
-0.022235774 0.74599999 0.010463892 1.7420053e-38 303 232
-0.020927785 0.74599999 0.010463892 1.7235659e-38 304 232
-0.019646099 0.74699998 0.010477919 1.7051269e-38 305 232
-0.018336359 0.74699998 0.010477919 1.6959075e-38 306 232
-0.017026618 0.74699998 0.010477919 1.6498103e-38 307 232
-0.015716879 0.74699998 0.010477919 1.6497386e-38 308 232
-0.014407139 0.74699998 0.010477919 1.612825e-38 309 232
-0.013097399 0.74699998 0.010477919 1.5759115e-38 310 232
-0.011787659 0.74699998 0.010477919 1.5482173e-38 311 232
-0.010477919 0.74699998 0.010477919 1.4930803e-38 312 232
-0.0091681797 0.74699998 0.010477919 1.4562383e-38 313 232
-0.0078794798 0.74900001 0.010505973 1.4284367e-38 314 232
-0.006575 0.75 0.01052 1.3085841e-38 315 232
-0.0052740262 0.75199997 0.010548052 1.0598031e-38 316 232
-0.0039712996 0.755 0.010590133 7.555622e-39 317 232
-0.0026545466 0.75700003 0.010618187 5.4344372e-39 318 232
-0.0013272733 0.75700003 0.010618187 5.2500488e-39 319 232
0 0.759 0.01064624 6.0794381e-39 320 232
0.00133078 0.759 0.01064624 5.8946909e-39 321 232
0.00266156 0.759 0.01064624 6.0787206e-39 322 232
0.0039818203 0.75700003 0.010618187 7.3694398e-39 323 232
0.0053090933 0.75700003 0.010618187 8.5762157e-39 324 232
0.0066363667 0.75700003 0.010618187 1.0327921e-38 325 232
0.0079636406 0.75700003 0.010618187 1.2260039e-38 326 232
0.0092663663 0.755 0.010590133 1.3181622e-38 327 232
0.010590133 0.755 0.010590133 1.3827699e-38 328 232
0.011913899 0.755 0.010590133 1.4104642e-38 329 232
0.013237666 0.755 0.010590133 1.4931519e-38 330 232
0.014561433 0.755 0.010590133 1.4931519e-38 331 232
0.015885198 0.755 0.010590133 1.529922e-38 332 232
0.017208965 0.755 0.010590133 1.529922e-38 333 232
0.018532733 0.755 0.010590133 1.5206667e-38 334 232
0.0198565 0.755 0.010590133 1.4838249e-38 335 232
0.021236373 0.75700003 0.010618187 1.5021202e-38 336 232
0.022563647 0.75700003 0.010618187 1.4836814e-38 337 232
0.023954039 0.759 0.01064624 1.4377277e-38 338 232
0.025284819 0.759 0.01064624 1.4377277e-38 339 232
0.026685731 0.76099998 0.010674292 1.4193619e-38 340 232
0.028020019 0.76099998 0.010674292 1.3916673e-38 341 232
0.029354304 0.76099998 0.010674292 1.5022748e-38 342 232
-0.040028598 0.76099998 0.0093400059 1.650112e-38 290 233
-0.038694311 0.76099998 0.0093400059 1.6132698e-38 291 233
-0.03726184 0.759 0.00931546 1.6593965e-38 292 233
-0.03583638 0.75700003 0.0092909131 1.6501769e-38 293 233
-0.034372345 0.75400001 0.0092540924 1.6961656e-38 294 233
-0.033050332 0.75400001 0.0092540924 1.7237884e-38 295 233
-0.031644158 0.75199997 0.0092295464 1.7513748e-38 296 233
-0.030244999 0.75 0.0092049995 1.7513748e-38 297 233
-0.028891427 0.74900001 0.0091927266 1.7513729e-38 298 233
-0.027578179 0.74900001 0.0091927266 1.7513729e-38 299 233
-0.026194798 0.74699998 0.0091681797 1.7698084e-38 300 233
-0.024885058 0.74699998 0.0091681797 1.7513334e-38 301 233
-0.023543758 0.74599999 0.0091559067 1.7879941e-38 302 233
-0.022235774 0.74599999 0.0091559067 1.7603358e-38 303 233
-0.020927785 0.74599999 0.0091559067 1.7326775e-38 304 233
-0.019646099 0.74699998 0.0091681797 1.7326775e-38 305 233
-0.018336359 0.74699998 0.0091681797 1.7233864e-38 306 233
-0.017003827 0.74599999 0.0091559067 1.7049475e-38 307 233
-0.015695838 0.74599999 0.0091559067 1.6588145e-38 308 233
-0.014407139 0.74699998 0.0091681797 1.6403757e-38 309 233
-0.013097399 0.74699998 0.0091681797 1.6402322e-38 310 233
-0.011787659 0.74699998 0.0091681797 1.6125739e-38 311 233
-0.010477919 0.74699998 0.0091681797 1.5574726e-38 312 233
-0.0091681797 0.74699998 0.0091681797 1.5206308e-38 313 233
-0.0078584393 0.74699998 0.0091681797 1.4838249e-38 314 233
-0.0065662335 0.74900001 0.0091927266 1.3731918e-38 315 233
-0.0052529867 0.74900001 0.0091927266 1.271527e-38 316 233
-0.00396604 0.75400001 0.0092540924 9.8568903e-39 317 233
-0.0026475333 0.755 0.0092663663 7.2768869e-39 318 233
-0.0013272733 0.75700003 0.0092909131 6.1701974e-39 319 233
0 0.759 0.00931546 5.8010618e-39 320 233
0.00133078 0.759 0.00931546 5.8010618e-39 321 233
0.00266156 0.759 0.00931546 6.6329622e-39 322 233
0.0039818203 0.75700003 0.0092909131 7.923687e-39 323 233
0.0053090933 0.75700003 0.0092909131 9.5864061e-39 324 233
0.0066188332 0.755 0.0092663663 1.1245912e-38 325 233
0.0079425992 0.755 0.0092663663 1.2811052e-38 326 233
0.0092663663 0.755 0.0092663663 1.3548964e-38 327 233
0.010590133 0.755 0.0092663663 1.3825188e-38 328 233
0.011913899 0.755 0.0092663663 1.4378354e-38 329 233
0.013220133 0.75400001 0.0092540924 1.4379797e-38 330 233
0.014542146 0.75400001 0.0092540924 1.4472351e-38 331 233
0.01586416 0.75400001 0.0092540924 1.474821e-38 332 233
0.017208965 0.755 0.0092663663 1.474821e-38 333 233
0.018532733 0.755 0.0092663663 1.502192e-38 334 233
0.0198565 0.755 0.0092663663 1.4837531e-38 335 233
0.021180267 0.755 0.0092663663 1.483789e-38 336 233
0.022563647 0.75700003 0.0092909131 1.4745696e-38 337 233
0.023954039 0.759 0.00931546 1.4560948e-38 338 233
0.025284819 0.759 0.00931546 1.4560948e-38 339 233
0.026615599 0.759 0.00931546 1.4376242e-38 340 233
0.028020019 0.76099998 0.0093400059 1.4192211e-38 341 233
0.029354304 0.76099998 0.0093400059 1.5390107e-38 342 233
0.030688593 0.76099998 0.0093400059 1.7326215e-38 343 233
-0.041362885 0.76099998 0.0080057196 1.6133474e-38 289 234
-0.040028598 0.76099998 0.0080057196 1.6408556e-38 290 234
-0.038592618 0.759 0.0079846792 1.6316361e-38 291 234
-0.037163652 0.75700003 0.0079636406 1.6502135e-38 292 234
-0.035741698 0.755 0.0079425992 1.6318104e-38 293 234
-0.034372345 0.75400001 0.00793208 1.7052416e-38 294 234
-0.032962665 0.75199997 0.0079110395 1.7237168e-38 295 234
-0.031644158 0.75199997 0.0079110395 1.7513382e-38 296 234
-0.030204674 0.74900001 0.0078794798 1.7605578e-38 297 234
-0.028891427 0.74900001 0.0078794798 1.7606281e-38 298 234
-0.027504537 0.74699998 0.0078584393 1.7606281e-38 299 234
-0.026159734 0.74599999 0.0078479191 1.7881776e-38 300 234
-0.024851745 0.74599999 0.0078479191 1.7789581e-38 301 234
-0.023543758 0.74599999 0.0078479191 1.7697365e-38 302 234
-0.022235774 0.74599999 0.0078479191 1.7512615e-38 303 234
-0.020927785 0.74599999 0.0078479191 1.7787388e-38 304 234
-0.019619798 0.74599999 0.0078479191 1.7511164e-38 305 234
-0.018311813 0.74599999 0.0078479191 1.7601923e-38 306 234
-0.017003827 0.74599999 0.0078479191 1.7509729e-38 307 234
-0.015695838 0.74599999 0.0078479191 1.7049116e-38 308 234
-0.014387853 0.74599999 0.0078479191 1.6864728e-38 309 234
-0.0130448 0.74400002 0.0078268806 1.6220086e-38 310 234
-0.011740319 0.74400002 0.0078268806 1.6035697e-38 311 234
-0.01043584 0.74400002 0.0078268806 1.5299948e-38 312 234
-0.0091313599 0.74400002 0.0078268806 1.5207394e-38 313 234
-0.0078268806 0.74400002 0.0078268806 1.5113046e-38 314 234
-0.0065486995 0.74699998 0.0078584393 1.4836819e-38 315 234
-0.0052389596 0.74699998 0.0078584393 1.4559878e-38 316 234
-0.0039397399 0.74900001 0.0078794798 1.3729765e-38 317 234
-0.00263 0.75 0.00789 1.2255734e-38 318 234
-0.0013220133 0.75400001 0.00793208 1.1610374e-38 319 234
0 0.75700003 0.0079636406 1.1240524e-38 320 234
0.0013272733 0.75700003 0.0079636406 1.1793698e-38 321 234
0.00266156 0.759 0.0079846792 1.1888424e-38 322 234
0.0039712996 0.755 0.0079425992 1.216537e-38 323 234
0.0052950666 0.755 0.0079425992 1.2627036e-38 324 234
0.0066100666 0.75400001 0.00793208 1.2995458e-38 325 234
0.00793208 0.75400001 0.00793208 1.3456411e-38 326 234
0.0092540924 0.75400001 0.00793208 1.3917382e-38 327 234
0.010576107 0.75400001 0.00793208 1.4102488e-38 328 234
0.01189812 0.75400001 0.00793208 1.4194683e-38 329 234
0.013220133 0.75400001 0.00793208 1.4562742e-38 330 234
0.014542146 0.75400001 0.00793208 1.4654936e-38 331 234
0.01586416 0.75400001 0.00793208 1.4838249e-38 332 234
0.017186172 0.75400001 0.00793208 1.4838249e-38 333 234
0.018508185 0.75400001 0.00793208 1.502192e-38 334 234
0.0198565 0.755 0.0079425992 1.4745696e-38 335 234
0.021180267 0.755 0.0079425992 1.4745696e-38 336 234
0.022504034 0.755 0.0079425992 1.4745696e-38 337 234
0.023954039 0.759 0.0079846792 1.4560948e-38 338 234
0.025284819 0.759 0.0079846792 1.4560948e-38 339 234
0.026615599 0.759 0.0079846792 1.4376575e-38 340 234
0.027946379 0.759 0.0079846792 1.4192184e-38 341 234
0.029354304 0.76099998 0.0080057196 1.5298967e-38 342 234
0.030688593 0.76099998 0.0080057196 1.7419467e-38 343 234
0.032022879 0.76099998 0.0080057196 1.7325904e-38 344 234
-0.041362885 0.76099998 0.0066714329 1.5948354e-38 289 235
-0.040028598 0.76099998 0.0066714329 1.6225597e-38 290 235
-0.038592618 0.759 0.0066538998 1.6133401e-38 291 235
-0.037163652 0.75700003 0.0066363667 1.6593614e-38 292 235
-0.035694357 0.75400001 0.0066100666 1.6593614e-38 293 235
-0.034281172 0.75199997 0.0065925326 1.6869104e-38 294 235
-0.032962665 0.75199997 0.0065925326 1.7145691e-38 295 235
-0.031517919 0.74900001 0.0065662335 1.7238234e-38 296 235
-0.030124018 0.74699998 0.0065486995 1.733043e-38 297 235
-0.028814279 0.74699998 0.0065486995 1.7514804e-38 298 235
-0.027504537 0.74699998 0.0065486995 1.7514804e-38 299 235
-0.026159734 0.74599999 0.0065399334 1.7882846e-38 300 235
-0.024851745 0.74599999 0.0065399334 1.7882846e-38 301 235
-0.023543758 0.74599999 0.0065399334 1.7973577e-38 302 235
-0.022176161 0.74400002 0.0065223998 1.7881381e-38 303 235
-0.02087168 0.74400002 0.0065223998 1.778954e-38 304 235
-0.019619798 0.74599999 0.0065399334 1.7697346e-38 305 235
-0.018311813 0.74599999 0.0065399334 1.7879941e-38 306 235
-0.016958239 0.74400002 0.0065223998 1.7511164e-38 307 235
-0.015653761 0.74400002 0.0065223998 1.7325699e-38 308 235
-0.01434928 0.74400002 0.0065223998 1.7141311e-38 309 235
-0.0130448 0.74400002 0.0065223998 1.6588145e-38 310 235
-0.011740319 0.74400002 0.0065223998 1.6219368e-38 311 235
-0.01043584 0.74400002 0.0065223998 1.5668002e-38 312 235
-0.0091313599 0.74400002 0.0065223998 1.5391415e-38 313 235
-0.0078268806 0.74400002 0.0065223998 1.5389262e-38 314 235
-0.0065399334 0.74599999 0.0065399334 1.5205232e-38 315 235
-0.0052319462 0.74599999 0.0065399334 1.493009e-38 316 235
-0.0039239596 0.74599999 0.0065399334 1.474534e-38 317 235
-0.0026194798 0.74699998 0.0065486995 1.4008153e-38 318 235
-0.0013132467 0.74900001 0.0065662335 1.3731206e-38 319 235
0 0.74900001 0.0065662335 1.3454641e-38 320 235
0.0013132467 0.74900001 0.0065662335 1.3362446e-38 321 235
0.0026264933 0.74900001 0.0065662335 1.3363165e-38 322 235
0.003945 0.75 0.006575 1.3363165e-38 323 235
0.00526 0.75 0.006575 1.3272753e-38 324 235
0.006575 0.75 0.006575 1.3641534e-38 325 235
0.00789 0.75 0.006575 1.4192889e-38 326 235
0.0092295464 0.75199997 0.0065925326 1.4192889e-38 327 235
0.010548052 0.75199997 0.0065925326 1.4377995e-38 328 235
0.01189812 0.75400001 0.0066100666 1.4470189e-38 329 235
0.013185065 0.75199997 0.0065925326 1.4562743e-38 330 235
0.014503572 0.75199997 0.0065925326 1.4562743e-38 331 235
0.015822079 0.75199997 0.0065925326 1.4562746e-38 332 235
0.017186172 0.75400001 0.0066100666 1.4470551e-38 333 235
0.018508185 0.75400001 0.0066100666 1.4470189e-38 334 235
0.019830201 0.75400001 0.0066100666 1.4470189e-38 335 235
0.021152213 0.75400001 0.0066100666 1.4377995e-38 336 235
0.022504034 0.755 0.0066188332 1.4470189e-38 337 235
0.02389092 0.75700003 0.0066363667 1.4560948e-38 338 235
0.025284819 0.759 0.0066538998 1.4560948e-38 339 235
0.026615599 0.759 0.0066538998 1.419291e-38 340 235
0.027946379 0.759 0.0066538998 1.3916323e-38 341 235
0.029354304 0.76099998 0.0066714329 1.4746157e-38 342 235
0.030688593 0.76099998 0.0066714329 1.7051407e-38 343 235
0.032022879 0.76099998 0.0066714329 1.7418818e-38 344 235
-0.042753279 0.76200002 0.0053441599 1.6778472e-38 288 236
-0.041362885 0.76099998 0.0053371461 1.6040906e-38 289 236
-0.0399234 0.759 0.0053231199 1.622596e-38 290 236
-0.038490929 0.75700003 0.0053090933 1.6133764e-38 291 236
-0.037163652 0.75700003 0.0053090933 1.6685458e-38 292 236
-0.035694357 0.75400001 0.0052880533 1.6593261e-38 293 236
-0.034281172 0.75199997 0.0052740262 1.69613e-38 294 236
-0.032962665 0.75199997 0.0052740262 1.7145691e-38 295 236
-0.031517919 0.74900001 0.0052529867 1.733007e-38 296 236
-0.030124018 0.74699998 0.0052389596 1.7514101e-38 297 236
-0.028814279 0.74699998 0.0052389596 1.7607e-38 298 236
-0.027504537 0.74699998 0.0052389596 1.7607e-38 299 236
-0.026159734 0.74599999 0.0052319462 1.7791373e-38 300 236
-0.024851745 0.74599999 0.0052319462 1.7791373e-38 301 236
-0.023480639 0.74400002 0.0052179201 1.8066142e-38 302 236
-0.022176161 0.74400002 0.0052179201 1.7973945e-38 303 236
-0.02087168 0.74400002 0.0052179201 1.7882097e-38 304 236
-0.019567199 0.74400002 0.0052179201 1.760587e-38 305 236
-0.01826272 0.74400002 0.0052179201 1.7698066e-38 306 236
-0.016912652 0.74199998 0.0052038929 1.7328928e-38 307 236
-0.015611678 0.74199998 0.0052038929 1.7418969e-38 308 236
-0.014310705 0.74199998 0.0052038929 1.7234222e-38 309 236
-0.013009733 0.74199998 0.0052038929 1.6865445e-38 310 236
-0.01170876 0.74199998 0.0052038929 1.631228e-38 311 236
-0.010407786 0.74199998 0.0052038929 1.5851668e-38 312 236
-0.009106813 0.74199998 0.0052038929 1.5667279e-38 313 236
-0.0078058392 0.74199998 0.0052038929 1.5298143e-38 314 236
-0.0065223998 0.74400002 0.0052179201 1.5298143e-38 315 236
-0.0052179201 0.74400002 0.0052179201 1.4930803e-38 316 236
-0.0039134403 0.74400002 0.0052179201 1.4930803e-38 317 236
-0.0026159731 0.74599999 0.0052319462 1.4837907e-38 318 236
-0.0013097399 0.74699998 0.0052389596 1.5114495e-38 319 236
0 0.74699998 0.0052389596 1.493192e-38 320 236
0.0013097399 0.74699998 0.0052389596 1.4655334e-38 321 236
0.0026194798 0.74699998 0.0052389596 1.4746084e-38 322 236
0.0039292197 0.74699998 0.0052389596 1.4469497e-38 323 236
0.0052529867 0.74900001 0.0052529867 1.4102493e-38 324 236
0.0065662335 0.74900001 0.0052529867 1.419469e-38 325 236
0.0078794798 0.74900001 0.0052529867 1.4194324e-38 326 236
0.0091927266 0.74900001 0.0052529867 1.4194324e-38 327 236
0.01052 0.75 0.00526 1.4379071e-38 328 236
0.011866559 0.75199997 0.0052740262 1.4379071e-38 329 236
0.01315 0.75 0.00526 1.4562383e-38 330 236
0.014465 0.75 0.00526 1.4562383e-38 331 236
0.015822079 0.75199997 0.0052740262 1.4470189e-38 332 236
0.017140586 0.75199997 0.0052740262 1.4470189e-38 333 236
0.018508185 0.75400001 0.0052880533 1.4379071e-38 334 236
0.019830201 0.75400001 0.0052880533 1.4195041e-38 335 236
0.021152213 0.75400001 0.0052880533 1.4377995e-38 336 236
0.022504034 0.755 0.0052950666 1.4377995e-38 337 236
0.023827799 0.755 0.0052950666 1.4285442e-38 338 236
0.025218192 0.75700003 0.0053090933 1.4285442e-38 339 236
0.026615599 0.759 0.0053231199 1.4101067e-38 340 236
0.028020019 0.76099998 0.0053371461 1.3824481e-38 341 236
0.029354304 0.76099998 0.0053371461 1.4652879e-38 342 236
0.030688593 0.76099998 0.0053371461 1.7049607e-38 343 236
0.032022879 0.76099998 0.0053371461 1.7602489e-38 344 236
-0.042753279 0.76200002 0.0040081199 1.6319285e-38 288 237
-0.041362885 0.76099998 0.0040028598 1.5673916e-38 289 237
-0.0399234 0.759 0.0039923396 1.6409625e-38 290 237
-0.038490929 0.75700003 0.0039818203 1.6133399e-38 291 237
-0.037163652 0.75700003 0.0039818203 1.6776574e-38 292 237
-0.035694357 0.75400001 0.00396604 1.6776574e-38 293 237
-0.034281172 0.75199997 0.0039555198 1.7144615e-38 294 237
-0.032962665 0.75199997 0.0039555198 1.7236812e-38 295 237
-0.03156 0.75 0.003945 1.733043e-38 296 237
-0.030124018 0.74699998 0.0039292197 1.7422984e-38 297 237
-0.028814279 0.74699998 0.0039292197 1.7515883e-38 298 237
-0.027467718 0.74599999 0.0039239596 1.7515883e-38 299 237
-0.026159734 0.74599999 0.0039239596 1.8066886e-38 300 237
-0.024851745 0.74599999 0.0039239596 1.7974691e-38 301 237
-0.023480639 0.74400002 0.0039134403 1.8066511e-38 302 237
-0.022176161 0.74400002 0.0039134403 1.7790283e-38 303 237
-0.02087168 0.74400002 0.0039134403 1.7881747e-38 304 237
-0.019567199 0.74400002 0.0039134403 1.760552e-38 305 237
-0.018213626 0.74199998 0.0039029196 1.7696637e-38 306 237
-0.016912652 0.74199998 0.0039029196 1.7604441e-38 307 237
-0.015611678 0.74199998 0.0039029196 1.7603721e-38 308 237
-0.014310705 0.74199998 0.0039029196 1.7418971e-38 309 237
-0.013009733 0.74199998 0.0039029196 1.7326059e-38 310 237
-0.01170876 0.74199998 0.0039029196 1.6772892e-38 311 237
-0.010407786 0.74199998 0.0039029196 1.5761626e-38 312 237
-0.009106813 0.74199998 0.0039029196 1.5116266e-38 313 237
-0.0078058392 0.74199998 0.0039029196 1.5391055e-38 314 237
-0.0065223998 0.74400002 0.0039134403 1.5483249e-38 315 237
-0.0052179201 0.74400002 0.0039134403 1.5115907e-38 316 237
-0.0039134403 0.74400002 0.0039134403 1.5023713e-38 317 237
-0.00260896 0.74400002 0.0039134403 1.4747491e-38 318 237
-0.0013079866 0.74599999 0.0039239596 1.4747491e-38 319 237
0 0.74599999 0.0039239596 1.4839692e-38 320 237
0.0013097399 0.74699998 0.0039292197 1.4839692e-38 321 237
0.0026159731 0.74599999 0.0039239596 1.4930806e-38 322 237
0.0039239596 0.74599999 0.0039239596 1.483861e-38 323 237
0.0052389596 0.74699998 0.0039292197 1.4470907e-38 324 237
0.0065486995 0.74699998 0.0039292197 1.4470907e-38 325 237
0.0078584393 0.74699998 0.0039292197 1.4470548e-38 326 237
0.0091927266 0.74900001 0.0039397399 1.4562742e-38 327 237
0.010505973 0.74900001 0.0039397399 1.4562742e-38 328 237
0.01181922 0.74900001 0.0039397399 1.4562742e-38 329 237
0.01315 0.75 0.003945 1.4562383e-38 330 237
0.014465 0.75 0.003945 1.4562383e-38 331 237
0.01578 0.75 0.003945 1.4378712e-38 332 237
0.017140586 0.75199997 0.0039555198 1.4194683e-38 333 237
0.018459093 0.75199997 0.0039555198 1.4103206e-38 334 237
0.019830201 0.75400001 0.00396604 1.4011012e-38 335 237
0.021152213 0.75400001 0.00396604 1.4102488e-38 336 237
0.022504034 0.755 0.0039712996 1.4102488e-38 337 237
0.023827799 0.755 0.0039712996 1.4193248e-38 338 237
0.025151566 0.755 0.0039712996 1.4009218e-38 339 237
0.026545467 0.75700003 0.0039818203 1.4101065e-38 340 237
0.027946379 0.759 0.0039923396 1.3824478e-38 341 237
0.029277159 0.759 0.0039923396 1.4745075e-38 342 237
0.030728921 0.76200002 0.0040081199 1.6865214e-38 343 237
-0.042753279 0.76200002 0.00267208 1.6411115e-38 288 238
-0.041362885 0.76099998 0.0026685731 1.5765746e-38 289 238
-0.0399234 0.759 0.00266156 1.6409979e-38 290 238
-0.038592618 0.759 0.00266156 1.6133752e-38 291 238
-0.037163652 0.75700003 0.0026545466 1.6593259e-38 292 238
-0.035694357 0.75400001 0.0026440267 1.6593259e-38 293 238
-0.034281172 0.75199997 0.0026370131 1.7145335e-38 294 238
-0.032962665 0.75199997 0.0026370131 1.7145335e-38 295 238
-0.03156 0.75 0.00263 1.7147118e-38 296 238
-0.030124018 0.74699998 0.0026194798 1.7423703e-38 297 238
-0.028814279 0.74699998 0.0026194798 1.7516249e-38 298 238
-0.027467718 0.74599999 0.0026159731 1.7608445e-38 299 238
-0.026159734 0.74599999 0.0026159731 1.8067252e-38 300 238
-0.024851745 0.74599999 0.0026159731 1.7975057e-38 301 238
-0.023480639 0.74400002 0.00260896 1.8066155e-38 302 238
-0.022176161 0.74400002 0.00260896 1.7789927e-38 303 238
-0.02087168 0.74400002 0.00260896 1.7697363e-38 304 238
-0.019567199 0.74400002 0.00260896 1.7512971e-38 305 238
-0.018213626 0.74199998 0.0026019465 1.7420423e-38 306 238
-0.016912652 0.74199998 0.0026019465 1.7328226e-38 307 238
-0.015611678 0.74199998 0.0026019465 1.7328226e-38 308 238
-0.014310705 0.74199998 0.0026019465 1.723603e-38 309 238
-0.0129922 0.741 0.0025984398 1.7418255e-38 310 238
-0.01169298 0.741 0.0025984398 1.6865087e-38 311 238
-0.010393759 0.741 0.0025984398 1.6313356e-38 312 238
-0.009106813 0.74199998 0.0026019465 1.5852744e-38 313 238
-0.0078058392 0.74199998 0.0026019465 1.5667997e-38 314 238
-0.0065048663 0.74199998 0.0026019465 1.5760191e-38 315 238
-0.0052038929 0.74199998 0.0026019465 1.5667638e-38 316 238
-0.0039029196 0.74199998 0.0026019465 1.5483608e-38 317 238
-0.0026019465 0.74199998 0.0026019465 1.5299578e-38 318 238
-0.00130448 0.74400002 0.00260896 1.5023354e-38 319 238
0 0.74400002 0.00260896 1.5023713e-38 320 238
0.00130448 0.74400002 0.00260896 1.5023713e-38 321 238
0.00260896 0.74400002 0.00260896 1.5207384e-38 322 238
0.0039134403 0.74400002 0.00260896 1.5023354e-38 323 238
0.0052319462 0.74599999 0.0026159731 1.4930802e-38 324 238
0.0065399334 0.74599999 0.0026159731 1.4838607e-38 325 238
0.0078584393 0.74699998 0.0026194798 1.4838607e-38 326 238
0.0091681797 0.74699998 0.0026194798 1.4746413e-38 327 238
0.010477919 0.74699998 0.0026194798 1.4562742e-38 328 238
0.01181922 0.74900001 0.0026264933 1.4562742e-38 329 238
0.013132467 0.74900001 0.0026264933 1.4562742e-38 330 238
0.014445714 0.74900001 0.0026264933 1.4470189e-38 331 238
0.01575896 0.74900001 0.0026264933 1.4194683e-38 332 238
0.017095 0.75 0.00263 1.4194683e-38 333 238
