# .PCD v.7 - Point Cloud Data file format
FIELDS x y z rgb imX imY
SIZE 4 4 4 4 4 4
TYPE F F F F F F
COUNT 1 1 1 1 1 1
WIDTH 835
HEIGHT 1
VIEWPOINT 0 0 0 1 0 0 0
POINTS 835
DATA ascii
-0.0190675 0.72500002 -0.016525166 1.1607992e-38 305 253
-0.017796334 0.72500002 -0.016525166 7.2715605e-39 306 253
-0.016525166 0.72500002 -0.016525166 5.2432553e-39 307 253
-0.015254001 0.72500002 -0.016525166 4.3169872e-39 308 253
-0.013982833 0.72500002 -0.016525166 4.5013784e-39 309 253
-0.012676599 0.72299999 -0.01647958 5.0516796e-39 310 253
-0.01140894 0.72299999 -0.01647958 5.2357107e-39 311 253
-0.01014128 0.72299999 -0.01647958 5.8817864e-39 312 253
-0.0088736191 0.72299999 -0.01647958 6.2509276e-39 313 253
-0.0076059597 0.72299999 -0.01647958 7.0770729e-39 314 253
-0.0063382997 0.72299999 -0.01647958 7.16927e-39 315 253
-0.0050706398 0.72299999 -0.01647958 7.62773e-39 316 253
-0.0038029798 0.72299999 -0.01647958 7.9039567e-39 317 253
-0.0025353199 0.72299999 -0.01647958 8.270947e-39 318 253
-0.0012676599 0.72299999 -0.01647958 8.5475353e-39 319 253
0 0.72299999 -0.01647958 8.7319223e-39 320 253
0.0012711667 0.72500002 -0.016525166 9.0085092e-39 321 253
0.0025423334 0.72500002 -0.016525166 8.5504051e-39 322 253
0.0038135003 0.72500002 -0.016525166 8.6426008e-39 323 253
0.0050706398 0.72299999 -0.01647958 8.2756161e-39 324 253
0.0063382997 0.72299999 -0.01647958 8.0912249e-39 325 253
0.0076059597 0.72299999 -0.01647958 6.529304e-39 326 253
0.0088736191 0.72299999 -0.01647958 5.9761302e-39 327 253
0.01014128 0.72299999 -0.01647958 5.6087924e-39 328 253
0.01140894 0.72299999 -0.01647958 5.977935e-39 329 253
0.012676599 0.72299999 -0.01647958 6.7140511e-39 330 253
0.01394426 0.72299999 -0.01647958 6.7140511e-39 331 253
0.015211919 0.72299999 -0.01647958 7.9976013e-39 332 253
0.016456785 0.722 -0.016456785 7.9054043e-39 333 253
0.017649053 0.71899998 -0.016388407 8.2705939e-39 334 253
0.0188308 0.71600002 -0.016320027 7.9021715e-39 335 253
0.020030079 0.71399999 -0.016274439 7.5330316e-39 336 253
0.021252153 0.713 -0.016251646 7.0720535e-39 337 253
0.022502279 0.713 -0.016251646 6.6125173e-39 338 253
0.023752406 0.713 -0.016251646 6.6125173e-39 339 253
0.025002534 0.713 -0.016251646 6.3366492e-39 340 253
0.026252659 0.713 -0.016251646 6.8894601e-39 341 253
0.027502786 0.713 -0.016251646 6.5249908e-39 342 253
0.028752912 0.713 -0.016251646 6.3409596e-39 343 253
0.030003037 0.713 -0.016251646 6.7083128e-39 344 253
0.031253166 0.713 -0.016251646 6.9845396e-39 345 253
0.032503292 0.713 -0.016251646 6.8937929e-39 346 253
0.033800758 0.71399999 -0.016274439 7.0781842e-39 347 253
0.035150826 0.71600002 -0.016320027 6.5275313e-39 348 253
0.036406212 0.71600002 -0.016320027 6.2509444e-39 349 253
0.037661601 0.71600002 -0.016320027 4.2402731e-39 350 253
0.038916986 0.71600002 -0.016320027 7.8362628e-39 351 253
0.040172372 0.71600002 -0.016320027 1.1153506e-38 352 253
-0.021460801 0.72000003 -0.017673599 1.4098709e-38 303 254
-0.020338668 0.72500002 -0.017796334 1.1515799e-38 304 254
-0.0190675 0.72500002 -0.017796334 8.2889523e-39 305 254
-0.017796334 0.72500002 -0.017796334 5.8871968e-39 306 254
-0.016525166 0.72500002 -0.017796334 4.9652405e-39 307 254
-0.015211919 0.72299999 -0.017747238 5.1449626e-39 308 254
-0.01394426 0.72299999 -0.017747238 5.052767e-39 309 254
-0.012676599 0.72299999 -0.017747238 4.8698078e-39 310 254
-0.01139316 0.722 -0.017722692 5.1463947e-39 311 254
-0.010127253 0.722 -0.017722692 5.4236823e-39 312 254
-0.0088736191 0.72299999 -0.017747238 5.7924648e-39 313 254
-0.0076059597 0.72299999 -0.017747238 6.9845242e-39 314 254
-0.0063382997 0.72299999 -0.017747238 7.1689168e-39 315 254
-0.0050706398 0.72299999 -0.017747238 7.6280985e-39 316 254
-0.0038029798 0.72299999 -0.017747238 7.7202941e-39 317 254
-0.0025353199 0.72299999 -0.017747238 7.7206599e-39 318 254
-0.0012676599 0.72299999 -0.017747238 7.7206599e-39 319 254
0 0.72299999 -0.017747238 7.7220948e-39 320 254
0.0012711667 0.72500002 -0.017796334 8.0905186e-39 321 254
0.0025423334 0.72500002 -0.017796334 7.5420139e-39 322 254
0.0038029798 0.72299999 -0.017747238 7.5420139e-39 323 254
0.0050706398 0.72299999 -0.017747238 7.3576199e-39 324 254
0.0063382997 0.72299999 -0.017747238 6.8044461e-39 325 254
0.0076059597 0.72299999 -0.017747238 5.6105917e-39 326 254
0.0088736191 0.72299999 -0.017747238 5.1499722e-39 327 254
0.01014128 0.72299999 -0.017747238 5.2432497e-39 328 254
0.01139316 0.722 -0.017722692 5.4280011e-39 329 254
0.012659066 0.722 -0.017722692 6.3467106e-39 330 254
0.0138864 0.72000003 -0.017673599 6.4389062e-39 331 254
0.0151488 0.72000003 -0.017673599 7.5380665e-39 332 254
0.016388407 0.71899998 -0.017649053 7.3540354e-39 333 254
0.017575413 0.71600002 -0.017575413 8.2705967e-39 334 254
0.018778199 0.71399999 -0.017526319 7.9018155e-39 335 254
0.020002026 0.713 -0.017501773 7.9914832e-39 336 254
0.021252153 0.713 -0.017501773 7.7152579e-39 337 254
0.022439159 0.71100003 -0.01745268 7.5315869e-39 338 254
0.023685781 0.71100003 -0.01745268 7.6237811e-39 339 254
0.024932399 0.71100003 -0.01745268 7.350427e-39 340 254
0.026179021 0.71100003 -0.01745268 7.626651e-39 341 254
0.027425639 0.71100003 -0.01745268 7.4426212e-39 342 254
0.028672259 0.71100003 -0.01745268 7.2578741e-39 343 254
0.029918881 0.71100003 -0.01745268 6.4313728e-39 344 254
0.031253166 0.713 -0.017501773 6.4313728e-39 345 254
0.032412119 0.71100003 -0.01745268 5.8825332e-39 346 254
0.033658739 0.71100003 -0.01745268 5.8825332e-39 347 254
0.034905359 0.71100003 -0.01745268 5.6095407e-39 348 254
0.036304519 0.71399999 -0.017526319 5.6095407e-39 349 254
0.037556399 0.71399999 -0.017526319 3.8646579e-39 350 254
0.038808275 0.71399999 -0.017526319 5.247951e-39 351 254
0.040060159 0.71399999 -0.017526319 7.6515142e-39 352 254
0.041312039 0.71399999 -0.017526319 1.1708123e-38 353 254
-0.022723202 0.72000003 -0.018935999 1.3821047e-38 302 255
-0.021460801 0.72000003 -0.018935999 1.2438112e-38 303 255
-0.020198401 0.72000003 -0.018935999 7.2737213e-39 304 255
-0.019014901 0.72299999 -0.019014901 3.4940606e-39 305 255
-0.017747238 0.72299999 -0.019014901 5.0570704e-39 306 255
-0.01647958 0.72299999 -0.019014901 5.149266e-39 307 255
-0.015211919 0.72299999 -0.019014901 5.3293441e-39 308 255
-0.01394426 0.72299999 -0.019014901 5.0523984e-39 309 255
-0.012676599 0.72299999 -0.019014901 5.1449472e-39 310 255
-0.01139316 0.722 -0.0189886 5.3296972e-39 311 255
-0.010127253 0.722 -0.0189886 5.8810633e-39 312 255
-0.0088736191 0.72299999 -0.019014901 6.1580103e-39 313 255
-0.0076059597 0.72299999 -0.019014901 7.1678392e-39 314 255
-0.0063382997 0.72299999 -0.019014901 7.1678392e-39 315 255
-0.0050706398 0.72299999 -0.019014901 7.4433471e-39 316 255
-0.0038029798 0.72299999 -0.019014901 7.6280985e-39 317 255
-0.0025353199 0.72299999 -0.019014901 7.4444303e-39 318 255
-0.0012711667 0.72500002 -0.0190675 7.4444303e-39 319 255
0 0.72500002 -0.0190675 7.3540298e-39 320 255
0.0012711667 0.72500002 -0.0190675 7.7228123e-39 321 255
0.0025423334 0.72500002 -0.0190675 7.1743076e-39 322 255
0.0038029798 0.72299999 -0.019014901 7.1743076e-39 323 255
0.0050706398 0.72299999 -0.019014901 6.6236548e-39 324 255
0.0063382997 0.72299999 -0.019014901 5.9782854e-39 325 255
0.0076059597 0.72299999 -0.019014901 5.6080763e-39 326 255
0.0088736191 0.72299999 -0.019014901 5.4233263e-39 327 255
0.01014128 0.72299999 -0.019014901 5.1503352e-39 328 255
0.01139316 0.722 -0.0189886 5.703509e-39 329 255
0.012624 0.72000003 -0.018935999 6.4381901e-39 330 255
0.013867113 0.71899998 -0.018909698 6.4381901e-39 331 255
0.01512776 0.71899998 -0.018909698 7.5384196e-39 332 255
0.016342819 0.71700001 -0.018857099 7.6306152e-39 333 255
0.017526319 0.71399999 -0.018778199 8.2716659e-39 334 255
0.018751899 0.713 -0.018751899 7.9028847e-39 335 255
0.020002026 0.713 -0.018751899 7.9925622e-39 336 255
0.021192541 0.71100003 -0.0186993 7.9003666e-39 337 255
0.022439159 0.71100003 -0.0186993 7.811045e-39 338 255
0.023685781 0.71100003 -0.0186993 7.9954363e-39 339 255
0.024932399 0.71100003 -0.0186993 7.9064622e-39 340 255
0.026179021 0.71100003 -0.0186993 7.9064622e-39 341 255
0.027425639 0.71100003 -0.0186993 7.5366091e-39 342 255
0.028672259 0.71100003 -0.0186993 7.075638e-39 343 255
0.029918881 0.71100003 -0.0186993 6.3388016e-39 344 255
0.031165501 0.71100003 -0.0186993 6.3388016e-39 345 255
0.032412119 0.71100003 -0.0186993 5.6055694e-39 346 255
0.033658739 0.71100003 -0.0186993 5.6981238e-39 347 255
0.034905359 0.71100003 -0.0186993 5.6073729e-39 348 255
0.036253672 0.713 -0.018751899 5.6995685e-39 349 255
0.037503798 0.713 -0.018751899 5.2411113e-39 350 255
0.038808275 0.71399999 -0.018778199 3.8581768e-39 351 255
0.040060159 0.71399999 -0.018778199 2.8584177e-39 352 255
0.041312039 0.71399999 -0.018778199 9.6808943e-39 353 255
0.042683143 0.71600002 -0.0188308 1.3178563e-38 354 255
-0.022723202 0.72000003 -0.020198401 1.2622507e-38 302 256
-0.021460801 0.72000003 -0.020198401 8.6580949e-39 303 256
-0.020198401 0.72000003 -0.020198401 5.3368999e-39 304 256
-0.0189886 0.722 -0.020254506 3.9539654e-39 305 256
-0.017722692 0.722 -0.020254506 5.5169723e-39 306 256
-0.016456785 0.722 -0.020254506 5.1478311e-39 307 256
-0.015190879 0.722 -0.020254506 5.330416e-39 308 256
-0.013924973 0.722 -0.020254506 5.5148087e-39 309 256
-0.012659066 0.722 -0.020254506 5.6073547e-39 310 256
-0.011361601 0.72000003 -0.020198401 5.7913858e-39 311 256
-0.010099201 0.72000003 -0.020198401 6.3413198e-39 312 256
-0.0088613462 0.722 -0.020254506 6.5260698e-39 313 256
-0.0076059597 0.72299999 -0.020282559 6.8015776e-39 314 256
-0.0063382997 0.72299999 -0.020282559 6.8015776e-39 315 256
-0.0050846669 0.72500002 -0.020338668 7.0767254e-39 316 256
-0.0038029798 0.72299999 -0.020282559 7.1689224e-39 317 256
-0.0025353199 0.72299999 -0.020282559 6.8015776e-39 318 256
-0.0012711667 0.72500002 -0.020338668 6.8937747e-39 319 256
0 0.72500002 -0.020338668 6.6197045e-39 320 256
0.0012711667 0.72500002 -0.020338668 6.8040958e-39 321 256
0.0025423334 0.72500002 -0.020338668 6.2555939e-39 322 256
0.0038029798 0.72299999 -0.020282559 6.4396265e-39 323 256
0.0050706398 0.72299999 -0.020282559 6.1630424e-39 324 256
0.0063382997 0.72299999 -0.020282559 5.7942598e-39 325 256
0.0076059597 0.72299999 -0.020282559 5.3322097e-39 326 256
0.0088736191 0.72299999 -0.020282559 5.147817e-39 327 256
0.01014128 0.72299999 -0.020282559 4.9677418e-39 328 256
0.01139316 0.722 -0.020254506 5.2443301e-39 329 256
0.012624 0.72000003 -0.020198401 6.1630424e-39 330 256
0.013867113 0.71899998 -0.020170346 6.1630424e-39 331 256
0.015085679 0.71700001 -0.020114239 7.6306124e-39 332 256
0.016320027 0.71600002 -0.020086186 7.7228095e-39 333 256
0.017501773 0.713 -0.020002026 8.3642146e-39 334 256
0.018751899 0.713 -0.020002026 7.9954335e-39 335 256
0.01994592 0.71100003 -0.01994592 8.4520942e-39 336 256
0.021192541 0.71100003 -0.01994592 8.5442913e-39 337 256
0.022407599 0.70999998 -0.019917866 8.2712945e-39 338 256
0.023652466 0.70999998 -0.019917866 8.4560445e-39 339 256
0.024897331 0.70999998 -0.019917866 8.6422252e-39 340 256
0.026068559 0.708 -0.01986176 8.3659985e-39 341 256
0.027309919 0.708 -0.01986176 7.8113982e-39 342 256
0.02855128 0.708 -0.01986176 7.2582328e-39 343 256
0.029876797 0.70999998 -0.019917866 6.3395233e-39 344 256
0.031121666 0.70999998 -0.019917866 6.2473277e-39 345 256
0.032366529 0.70999998 -0.019917866 5.5133752e-39 346 256
0.033611398 0.70999998 -0.019917866 5.3293441e-39 347 256
0.034856264 0.70999998 -0.019917866 5.1471178e-39 348 256
0.036151983 0.71100003 -0.01994592 5.2393134e-39 349 256
0.037398599 0.71100003 -0.01994592 5.1492688e-39 350 256
0.038753927 0.713 -0.020002026 4.2269538e-39 351 256
0.040004052 0.713 -0.020002026 2.2047694e-39 352 256
0.041312039 0.71399999 -0.020030079 8.5659091e-39 353 256
0.042683143 0.71600002 -0.020086186 1.1888908e-38 354 256
0.043938532 0.71600002 -0.020086186 1.3455873e-38 355 256
-0.02388566 0.71700001 -0.021371379 1.3913959e-38 301 257
-0.022786319 0.722 -0.021520413 1.0411975e-38 302 257
-0.021520413 0.722 -0.021520413 3.8660858e-39 303 257
-0.020254506 0.722 -0.021520413 4.5035435e-39 304 257
-0.018935999 0.72000003 -0.021460801 5.609891e-39 305 257
-0.017673599 0.72000003 -0.021460801 5.9761456e-39 306 257
-0.0164112 0.72000003 -0.021460801 5.6999188e-39 307 257
-0.0151488 0.72000003 -0.021460801 6.2527269e-39 308 257
-0.0138864 0.72000003 -0.021460801 6.5289536e-39 309 257
-0.012624 0.72000003 -0.021460801 6.8048146e-39 310 257
-0.011361601 0.72000003 -0.021460801 6.6207835e-39 311 257
-0.0098326923 0.70099998 -0.020894472 6.9870451e-39 312 257
-0.0086036054 0.70099998 -0.020894472 6.8948495e-39 313 257
-0.0073745195 0.70099998 -0.020894472 6.9859703e-39 314 257
-0.0061454331 0.70099998 -0.020894472 6.9859703e-39 315 257
-0.0050846669 0.72500002 -0.021609833 6.9859703e-39 316 257
-0.0038029798 0.72299999 -0.021550218 6.9859703e-39 317 257
-0.0025353199 0.72299999 -0.021550218 6.8941278e-39 318 257
-0.0012711667 0.72500002 -0.021609833 6.8941278e-39 319 257
0 0.72299999 -0.021550218 6.3434708e-39 320 257
0.0012676599 0.72299999 -0.021550218 6.527862e-39 321 257
0.0025353199 0.72299999 -0.021550218 5.9779322e-39 322 257
0.0038029798 0.72299999 -0.021550218 6.0701279e-39 323 257
0.0050706398 0.72299999 -0.021550218 5.6105945e-39 324 257
0.0063382997 0.72299999 -0.021550218 5.0574207e-39 325 257
0.0076059597 0.72299999 -0.021550218 4.7804793e-39 326 257
0.0088736191 0.72299999 -0.021550218 4.7804793e-39 327 257
0.01014128 0.72299999 -0.021550218 4.4163701e-39 328 257
0.01139316 0.722 -0.021520413 4.7847925e-39 329 257
0.012624 0.72000003 -0.021460801 5.9786539e-39 330 257
0.013828539 0.71700001 -0.021371379 6.2552408e-39 331 257
0.015085679 0.71700001 -0.021371379 7.8150079e-39 332 257
0.016274439 0.71399999 -0.021281958 7.8150079e-39 333 257
0.017501773 0.713 -0.021252153 8.4560585e-39 334 257
0.0186993 0.71100003 -0.021192541 8.0876347e-39 335 257
0.01994592 0.71100003 -0.021192541 8.5439381e-39 336 257
0.021162732 0.70999998 -0.021162732 8.5439381e-39 337 257
0.022407599 0.70999998 -0.021162732 8.545736e-39 338 257
0.023652466 0.70999998 -0.021162732 8.9145185e-39 339 257
0.024827199 0.708 -0.021103119 8.7329985e-39 340 257
0.026068559 0.708 -0.021103119 8.3642146e-39 341 257
0.027309919 0.708 -0.021103119 7.8103248e-39 342 257
0.02855128 0.708 -0.021103119 7.4411863e-39 343 257
0.02979264 0.708 -0.021103119 6.2473277e-39 344 257
0.031121666 0.70999998 -0.021162732 6.0632965e-39 345 257
0.032366529 0.70999998 -0.021162732 5.3296972e-39 346 257
0.033611398 0.70999998 -0.021162732 5.2371428e-39 347 257
0.034856264 0.70999998 -0.021162732 5.0541991e-39 348 257
0.036151983 0.71100003 -0.021192541 5.1463947e-39 349 257
0.037398599 0.71100003 -0.021192541 4.9637999e-39 350 257
0.038645219 0.71100003 -0.021192541 4.6872116e-39 351 257
0.040004052 0.713 -0.021252153 3.5815928e-39 352 257
0.041254178 0.713 -0.021252153 6.9924723e-39 353 257
0.042563915 0.71399999 -0.021281958 9.6776545e-39 354 257
0.043815799 0.71399999 -0.021281958 1.2904502e-38 355 257
0.045067675 0.71399999 -0.021281958 1.409763e-38 356 257
-0.02388566 0.71700001 -0.02262852 1.2070052e-38 301 258
-0.02262852 0.71700001 -0.02262852 7.8308608e-39 302 258
-0.021371379 0.71700001 -0.02262852 2.1150919e-39 303 258
-0.020114239 0.71700001 -0.02262852 5.3315063e-39 304 258
-0.018857099 0.71700001 -0.02262852 6.6222451e-39 305 258
-0.017599959 0.71700001 -0.02262852 7.6324299e-39 306 258
-0.016388407 0.71899998 -0.022691639 8.0937682e-39 307 258
-0.01512776 0.71899998 -0.022691639 8.1888323e-39 308 258
-0.013828539 0.71700001 -0.02262852 8.0966367e-39 309 258
-0.0125714 0.71700001 -0.02262852 7.5463355e-39 310 258
-0.01131426 0.71700001 -0.02262852 6.9931632e-39 311 258
-0.0098326923 0.70099998 -0.022123558 7.0806897e-39 312 258
-0.0086036054 0.70099998 -0.022123558 7.0806897e-39 313 258
-0.0073745195 0.70099998 -0.022123558 6.8037427e-39 314 258
-0.0061454331 0.70099998 -0.022123558 6.896297e-39 315 258
-0.0049093333 0.69999999 -0.022091998 6.896297e-39 316 258
-0.0036819996 0.69999999 -0.022091998 6.896297e-39 317 258
-0.0024546667 0.69999999 -0.022091998 6.8040958e-39 318 258
-0.0012711667 0.72500002 -0.022880999 6.7119001e-39 319 258
0 0.72299999 -0.02281788 6.1605284e-39 320 258
0.0012676599 0.72299999 -0.02281788 6.0683314e-39 321 258
0.0025353199 0.72299999 -0.02281788 5.6095183e-39 322 258
0.0038029798 0.72299999 -0.02281788 5.6095183e-39 323 258
0.0050706398 0.72299999 -0.02281788 5.0574235e-39 324 258
0.0063382997 0.72299999 -0.02281788 4.7804765e-39 325 258
0.0076059597 0.72299999 -0.02281788 4.3194997e-39 326 258
0.0088736191 0.72299999 -0.02281788 4.4120541e-39 327 258
0.01014128 0.72299999 -0.02281788 4.5067678e-39 328 258
0.01139316 0.722 -0.022786319 4.8751902e-39 329 258
0.012624 0.72000003 -0.022723202 5.977935e-39 330 258
0.013828539 0.71700001 -0.02262852 6.3463574e-39 331 258
0.015085679 0.71700001 -0.02262852 7.9976041e-39 332 258
0.01620606 0.71100003 -0.022439159 7.9976041e-39 333 258
0.017428132 0.70999998 -0.022407599 8.455341e-39 334 258
0.018672999 0.70999998 -0.022407599 8.2709498e-39 335 258
0.01986176 0.708 -0.022344479 8.4517411e-39 336 258
0.021103119 0.708 -0.022344479 8.3595455e-39 337 258
0.022344479 0.708 -0.022344479 8.6354149e-39 338 258
0.023552528 0.70700002 -0.022312919 9.004196e-39 339 258
0.024792133 0.70700002 -0.022312919 8.6390064e-39 340 258
0.02603174 0.70700002 -0.022312919 8.1780297e-39 341 258
0.027271347 0.70700002 -0.022312919 7.7156222e-39 342 258
0.028510952 0.70700002 -0.022312919 7.5312296e-39 343 258
0.02979264 0.708 -0.022344479 6.0636595e-39 344 258
0.031034 0.708 -0.022344479 5.8792682e-39 345 258
0.03227536 0.708 -0.022344479 5.3282594e-39 346 258
0.033516716 0.708 -0.022344479 5.3282594e-39 347 258
0.034856264 0.70999998 -0.022407599 4.9620007e-39 348 258
0.036101133 0.70999998 -0.022407599 5.0541963e-39 349 258
0.037398599 0.71100003 -0.022439159 4.8716029e-39 350 258
0.038645219 0.71100003 -0.022439159 4.8716029e-39 351 258
0.039891839 0.71100003 -0.022439159 4.7790541e-39 352 258
0.041254178 0.713 -0.022502279 4.1336847e-39 353 258
0.042563915 0.71399999 -0.022533838 6.5455212e-39 354 258
0.043815799 0.71399999 -0.022533838 1.2261649e-38 355 258
0.045067675 0.71399999 -0.022533838 1.4098353e-38 356 258
-0.02262852 0.71700001 -0.02388566 6.5343654e-39 302 259
-0.021371379 0.71700001 -0.02388566 3.9532465e-39 303 259
-0.020114239 0.71700001 -0.02388566 6.620436e-39 304 259
-0.018857099 0.71700001 -0.02388566 7.2654467e-39 305 259
-0.017599959 0.71700001 -0.02388566 8.1873862e-39 306 259
-0.016342819 0.71700001 -0.02388566 8.7405599e-39 307 259
-0.01512776 0.71899998 -0.023952285 8.2831719e-39 308 259
-0.013828539 0.71700001 -0.02388566 8.1909763e-39 309 259
-0.0125714 0.71700001 -0.02388566 7.7285758e-39 310 259
-0.01109334 0.70300001 -0.023419274 7.2672375e-39 311 259
-0.0098607466 0.70300001 -0.023419274 6.9903045e-39 312 259
-0.0086036054 0.70099998 -0.023352645 6.4374895e-39 313 259
-0.0073745195 0.70099998 -0.023352645 5.9775973e-39 314 259
-0.0061454331 0.70099998 -0.023352645 5.9775973e-39 315 259
-0.0049093333 0.69999999 -0.023319334 6.0690741e-39 316 259
-0.0036714801 0.69800001 -0.023252707 5.9768785e-39 317 259
-0.0024441467 0.69700003 -0.023219392 6.0694244e-39 318 259
-0.0012220733 0.69700003 -0.023219392 5.9772288e-39 319 259
0 0.72500002 -0.024152167 5.8853835e-39 320 259
0.0012711667 0.72500002 -0.024152167 5.8853835e-39 321 259
0.0025423334 0.72500002 -0.024152167 5.9761358e-39 322 259
0.0038135003 0.72500002 -0.024152167 5.8839401e-39 323 259
0.0050706398 0.72299999 -0.024085538 5.3325628e-39 324 259
0.0063382997 0.72299999 -0.024085538 4.9637803e-39 325 259
0.0076059597 0.72299999 -0.024085538 4.5042497e-39 326 259
0.0088736191 0.72299999 -0.024085538 4.3194997e-39 327 259
0.01014128 0.72299999 -0.024085538 4.3220221e-39 328 259
0.01140894 0.72299999 -0.024085538 4.690806e-39 329 259
0.012659066 0.722 -0.024052227 5.8850304e-39 330 259
0.013924973 0.722 -0.024052227 6.2538115e-39 331 259
0.015190879 0.722 -0.024052227 7.7213858e-39 332 259
0.01620606 0.71100003 -0.023685781 7.7213858e-39 333 259
0.017354494 0.70700002 -0.023552528 8.3635084e-39 334 259
0.018567799 0.70599997 -0.023519212 7.995086e-39 335 259
0.019805651 0.70599997 -0.023519212 8.3606259e-39 336 259
0.021043506 0.70599997 -0.023519212 8.2684289e-39 337 259
0.022312919 0.70700002 -0.023552528 8.5435738e-39 338 259
0.023519212 0.70599997 -0.023519212 8.819802e-39 339 259
0.024757065 0.70599997 -0.023519212 8.5439381e-39 340 259
0.025994917 0.70599997 -0.023519212 8.1755144e-39 341 259
0.027232772 0.70599997 -0.023519212 7.4397584e-39 342 259
0.028470624 0.70599997 -0.023519212 7.2553657e-39 343 259
0.029750559 0.70700002 -0.023552528 6.1540572e-39 344 259
0.030990168 0.70700002 -0.023552528 6.1540572e-39 345 259
0.032229774 0.70700002 -0.023552528 5.3282594e-39 346 259
0.033469379 0.70700002 -0.023552528 5.3282594e-39 347 259
0.034758076 0.708 -0.023585839 4.8698078e-39 348 259
0.036101133 0.70999998 -0.023652466 4.9620035e-39 349 259
0.037345998 0.70999998 -0.023652466 4.596095e-39 350 259
0.038645219 0.71100003 -0.023685781 4.7801261e-39 351 259
0.039891839 0.71100003 -0.023685781 4.9655908e-39 352 259
0.041254178 0.713 -0.023752406 2.8469004e-39 353 259
0.042563915 0.71399999 -0.02378572 3.870399e-39 354 259
0.043815799 0.71399999 -0.02378572 1.1430441e-38 355 259
0.045067675 0.71399999 -0.02378572 1.363882e-38 356 259
-0.02262852 0.71700001 -0.0251428 4.8719588e-39 302 260
-0.021371379 0.71700001 -0.0251428 5.7935564e-39 303 260
-0.020086186 0.71600002 -0.025107734 7.447317e-39 304 260
-0.0188308 0.71600002 -0.025107734 7.7239039e-39 305 260
-0.017575413 0.71600002 -0.025107734 8.1848848e-39 306 260
-0.016320027 0.71600002 -0.025107734 8.3692761e-39 307 260
-0.01506464 0.71600002 -0.025107734 8.0019383e-39 308 260
-0.013616386 0.70599997 -0.024757065 7.3565689e-39 309 260
-0.012325933 0.70300001 -0.024651866 6.8015945e-39 310 260
-0.01109334 0.70300001 -0.024651866 6.0640294e-39 311 260
-0.0098607466 0.70300001 -0.024651866 5.8810829e-39 312 260
-0.0086036054 0.70099998 -0.024581732 5.6970518e-39 313 260
-0.0073745195 0.70099998 -0.024581732 5.7874607e-39 314 260
-0.0061454331 0.70099998 -0.024581732 5.6952651e-39 315 260
-0.0048953067 0.69800001 -0.024476532 5.7867419e-39 316 260
-0.0036714801 0.69800001 -0.024476532 5.8792962e-39 317 260
-0.0024441467 0.69700003 -0.024441468 6.1551559e-39 318 260
-0.0012220733 0.69700003 -0.024441468 6.523937e-39 319 260
0 0.69700003 -0.024441468 5.9736317e-39 320 260
0.0012220733 0.69700003 -0.024441468 6.3427729e-39 321 260
0.0024476533 0.69800001 -0.024476532 5.8832311e-39 322 260
0.0038135003 0.72500002 -0.025423333 5.8832311e-39 323 260
0.0050846669 0.72500002 -0.025423333 5.1492632e-39 324 260
0.0063382997 0.72299999 -0.025353199 4.9648719e-39 325 260
0.0076059597 0.72299999 -0.025353199 4.5038938e-39 326 260
0.0085913334 0.69999999 -0.024546666 4.5038938e-39 327 260
0.0097906133 0.69800001 -0.024476532 4.9648691e-39 328 260
0.01101444 0.69800001 -0.024476532 5.2418147e-39 329 260
0.012273333 0.69999999 -0.024546666 6.4360391e-39 330 260
0.013500666 0.69999999 -0.024546666 6.6204304e-39 331 260
0.014727999 0.69999999 -0.024546666 7.6295461e-39 332 260
0.015978126 0.70099998 -0.024581732 7.8139387e-39 333 260
0.017256306 0.70300001 -0.024651866 8.2727491e-39 334 260
0.018515198 0.704 -0.024686933 7.995802e-39 335 260
0.019749546 0.704 -0.024686933 8.5442941e-39 336 260
0.020983893 0.704 -0.024686933 8.3595427e-39 337 260
0.022281358 0.70599997 -0.024757065 8.4513768e-39 338 260
0.023519212 0.70599997 -0.024757065 8.543571e-39 339 260
0.024757065 0.70599997 -0.024757065 8.1762304e-39 340 260
0.025994917 0.70599997 -0.024757065 7.7152579e-39 341 260
0.027232772 0.70599997 -0.024757065 6.9805767e-39 342 260
0.028470624 0.70599997 -0.024757065 6.7965456e-39 343 260
0.029708479 0.70599997 -0.024757065 5.970745e-39 344 260
0.030990168 0.70700002 -0.024792133 5.8785494e-39 345 260
0.032229774 0.70700002 -0.024792133 5.3282594e-39 346 260
0.033469379 0.70700002 -0.024792133 5.2360638e-39 347 260
0.034708988 0.70700002 -0.024792133 4.8701582e-39 348 260
0.03599944 0.708 -0.024827199 4.8701582e-39 349 260
0.037345998 0.70999998 -0.024897331 4.6875648e-39 350 260
0.038645219 0.71100003 -0.024932399 4.6875648e-39 351 260
0.039891839 0.71100003 -0.024932399 4.8719532e-39 352 260
0.041138459 0.71100003 -0.024932399 3.8578083e-39 353 260
0.042563915 0.71399999 -0.025037598 3.3111113e-39 354 260
0.043815799 0.71399999 -0.025037598 1.0041392e-38 355 260
-0.02262852 0.71700001 -0.02639994 5.1427976e-39 302 261
-0.021371379 0.71700001 -0.02639994 6.9867102e-39 303 261
-0.020086186 0.71600002 -0.026363119 7.8135884e-39 304 261
-0.018778199 0.71399999 -0.026289478 8.0898151e-39 305 261
-0.017501773 0.713 -0.026252659 8.4575215e-39 306 261
-0.016251646 0.713 -0.026252659 8.5497171e-39 307 261
-0.014854239 0.70599997 -0.025994917 8.1823793e-39 308 261
-0.013558527 0.70300001 -0.025884461 7.3529788e-39 309 261
-0.012325933 0.70300001 -0.025884461 6.5232153e-39 310 261
-0.011061779 0.70099998 -0.025810819 6.2462683e-39 311 261
-0.0098326923 0.70099998 -0.025810819 5.6941805e-39 312 261
-0.0086036054 0.70099998 -0.025810819 5.4183097e-39 313 261
-0.0073745195 0.70099998 -0.025810819 5.326484e-39 314 261
-0.0061366665 0.69999999 -0.025773998 5.2346471e-39 315 261
-0.0048953067 0.69800001 -0.025700359 5.0509761e-39 316 261
-0.0036714801 0.69800001 -0.025700359 5.2346499e-39 317 261
-0.0024441467 0.69700003 -0.025663542 5.511234e-39 318 261
-0.0012203199 0.69599998 -0.025626717 5.8800165e-39 319 261
0 0.69599998 -0.025626717 6.339903e-39 320 261
0.0012220733 0.69700003 -0.025663542 6.5239342e-39 321 261
0.0024441467 0.69700003 -0.025663542 6.0651084e-39 322 261
0.00366622 0.69700003 -0.025663542 6.0651084e-39 323 261
0.0048953067 0.69800001 -0.025700359 5.3307804e-39 324 261
0.006119133 0.69800001 -0.025700359 5.3307804e-39 325 261
0.0073429602 0.69800001 -0.025700359 5.0552711e-39 326 261
0.0085667865 0.69800001 -0.025700359 5.0552711e-39 327 261
0.0097906133 0.69800001 -0.025700359 5.148187e-39 328 261
0.01101444 0.69800001 -0.025700359 5.3325782e-39 329 261
0.012238266 0.69800001 -0.025700359 5.8832367e-39 330 261
0.013462093 0.69800001 -0.025700359 6.0676294e-39 331 261
0.01468592 0.69800001 -0.025700359 7.0763891e-39 332 261
0.015955333 0.69999999 -0.025773998 7.1685847e-39 333 261
0.017207211 0.70099998 -0.025810819 8.2695247e-39 334 261
0.018488899 0.70300001 -0.025884461 8.177329e-39 335 261
0.019749546 0.704 -0.02592128 8.3606231e-39 336 261
0.020983893 0.704 -0.02592128 8.268426e-39 337 261
0.022218239 0.704 -0.02592128 8.176229e-39 338 261
0.023452586 0.704 -0.02592128 8.0840348e-39 339 261
0.024686933 0.704 -0.02592128 7.8074521e-39 340 261
0.02592128 0.704 -0.02592128 7.7152579e-39 341 261
0.027155625 0.704 -0.02592128 6.6135935e-39 342 261
0.028470624 0.70599997 -0.025994917 6.5213978e-39 343 261
0.029708479 0.70599997 -0.025994917 5.8785494e-39 344 261
0.030946331 0.70599997 -0.025994917 5.8785494e-39 345 261
0.032229774 0.70700002 -0.02603174 5.3286154e-39 346 261
0.033469379 0.70700002 -0.02603174 5.3286154e-39 347 261
0.034708988 0.70700002 -0.02603174 5.0534732e-39 348 261
0.03599944 0.708 -0.026068559 5.0534732e-39 349 261
0.037345998 0.70999998 -0.026142199 4.6872088e-39 350 261
0.038590867 0.70999998 -0.026142199 4.6872088e-39 351 261
0.039835732 0.70999998 -0.026142199 4.4120639e-39 352 261
0.041138459 0.71100003 -0.026179021 3.7666945e-39 353 261
0.042385083 0.71100003 -0.026179021 3.0305784e-39 354 261
0.043631699 0.71100003 -0.026179021 8.2850118e-39 355 261
-0.025107734 0.71600002 -0.027618507 9.7666061e-39 300 262
-0.023852346 0.71600002 -0.027618507 2.2065658e-39 301 262
-0.022596961 0.71600002 -0.027618507 5.6023324e-39 302 262
-0.021341572 0.71600002 -0.027618507 7.1696567e-39 303 262
-0.020030079 0.71399999 -0.02754136 7.9039819e-39 304 262
-0.018751899 0.713 -0.027502786 8.1802101e-39 305 262
-0.017501773 0.713 -0.027502786 8.7326538e-39 306 262
-0.016092092 0.70599997 -0.027232772 9.1010776e-39 307 262
-0.014812159 0.704 -0.027155625 8.5507765e-39 308 262
-0.013558527 0.70300001 -0.027117053 7.9054071e-39 309 262
-0.012290866 0.70099998 -0.027039904 7.167842e-39 310 262
-0.011061779 0.70099998 -0.027039904 6.6146683e-39 311 262
-0.0098326923 0.70099998 -0.027039904 5.9693115e-39 312 262
-0.0086036054 0.70099998 -0.027039904 5.5101298e-39 313 262
-0.0073745195 0.70099998 -0.027039904 5.3264602e-39 314 262
-0.0061366665 0.69999999 -0.027001332 5.4182971e-39 315 262
-0.0048882933 0.69700003 -0.026885614 5.3264588e-39 316 262
-0.00366622 0.69700003 -0.026885614 5.6026883e-39 317 262
-0.0024406398 0.69599998 -0.026847038 5.879271e-39 318 262
-0.0012203199 0.69599998 -0.026847038 6.1558579e-39 319 262
0 0.69599998 -0.026847038 6.3416883e-39 320 262
0.0012220733 0.69700003 -0.026885614 6.1576572e-39 321 262
0.0024406398 0.69599998 -0.026847038 6.156581e-39 322 262
0.0036609597 0.69599998 -0.026847038 6.0640252e-39 323 262
0.0048882933 0.69700003 -0.026885614 5.6059239e-39 324 262
0.0061103669 0.69700003 -0.026885614 5.5137283e-39 325 262
0.00733244 0.69700003 -0.026885614 5.6052023e-39 326 262
0.0085545136 0.69700003 -0.026885614 5.6052023e-39 327 262
0.0097765867 0.69700003 -0.026885614 5.5137255e-39 328 262
0.01099866 0.69700003 -0.026885614 5.6059211e-39 329 262
0.012238266 0.69800001 -0.026924185 6.063312e-39 330 262
0.013462093 0.69800001 -0.026924185 6.063312e-39 331 262
0.01468592 0.69800001 -0.026924185 6.888758e-39 332 262
0.015955333 0.69999999 -0.027001332 7.2571804e-39 333 262
0.017182667 0.69999999 -0.027001332 7.9911357e-39 334 262
0.018436298 0.70099998 -0.027039904 8.175527e-39 335 262
0.019665385 0.70099998 -0.027039904 8.1762332e-39 336 262
0.020894472 0.70099998 -0.027039904 8.1762332e-39 337 262
0.022123558 0.70099998 -0.027039904 7.9007225e-39 338 262
0.023419274 0.70300001 -0.027117053 7.8085283e-39 339 262
0.024686933 0.704 -0.027155625 7.4408304e-39 340 262
0.02592128 0.704 -0.027155625 7.1646036e-39 341 262
0.027155625 0.704 -0.027155625 6.4299239e-39 342 262
0.028389972 0.704 -0.027155625 6.4299239e-39 343 262
0.029708479 0.70599997 -0.027232772 5.6956e-39 344 262
0.030946331 0.70599997 -0.027232772 5.6034044e-39 345 262
0.032184184 0.70599997 -0.027232772 5.3286154e-39 346 262
0.033422034 0.70599997 -0.027232772 5.3286154e-39 347 262
0.034708988 0.70700002 -0.027271347 4.8698022e-39 348 262
0.03599944 0.708 -0.027309919 4.8698022e-39 349 262
0.0372408 0.708 -0.027309919 4.5950132e-39 350 262
0.038590867 0.70999998 -0.027387066 4.6872088e-39 351 262
0.039835732 0.70999998 -0.027387066 4.2287516e-39 352 262
0.041080594 0.70999998 -0.027387066 4.136556e-39 353 262
0.042385083 0.71100003 -0.027425639 3.0305756e-39 354 262
0.043631699 0.71100003 -0.027425639 5.6113357e-39 355 262
-0.027618507 0.71600002 -0.028873893 1.4374584e-38 298 263
-0.026363119 0.71600002 -0.028873893 1.1516878e-38 299 263
-0.025037598 0.71399999 -0.028793238 8.1074421e-39 300 263
-0.023852346 0.71600002 -0.028873893 2.5753442e-39 301 263
-0.022596961 0.71600002 -0.028873893 6.4295707e-39 302 263
-0.021281958 0.71399999 -0.028793238 7.2593314e-39 303 263
-0.01994592 0.71100003 -0.028672259 7.9943797e-39 304 263
-0.0186204 0.708 -0.02855128 8.5475535e-39 305 263
-0.017329946 0.70599997 -0.028470624 9.0085246e-39 306 263
-0.016092092 0.70599997 -0.028470624 1.0023037e-38 307 263
-0.014812159 0.704 -0.028389972 9.1982983e-39 308 263
-0.013558527 0.70300001 -0.028349647 8.2759818e-39 309 263
-0.012290866 0.70099998 -0.028268991 7.9036036e-39 310 263
-0.011045999 0.69999999 -0.028228667 6.8898146e-39 311 263
-0.0098186666 0.69999999 -0.028228667 6.4284847e-39 312 263
-0.0085913334 0.69999999 -0.028228667 6.0611427e-39 313 263
-0.0073639993 0.69999999 -0.028228667 5.6019653e-39 314 263
-0.006119133 0.69800001 -0.028148014 5.8774732e-39 315 263
-0.0048812795 0.69599998 -0.028067358 5.5126409e-39 316 263
-0.0036609597 0.69599998 -0.028067358 5.8814192e-39 317 263
-0.0024406398 0.69599998 -0.028067358 5.9736134e-39 318 263
-0.0012203199 0.69599998 -0.028067358 6.0661678e-39 319 263
0 0.69599998 -0.028067358 6.5260698e-39 320 263
0.0012203199 0.69599998 -0.028067358 6.4338741e-39 321 263
0.0024406398 0.69599998 -0.028067358 6.2491241e-39 322 263
0.0036609597 0.69599998 -0.028067358 6.3413198e-39 323 263
0.0048882933 0.69700003 -0.028107686 6.3423918e-39 324 263
0.0061103669 0.69700003 -0.028107686 6.1583606e-39 325 263
0.00733244 0.69700003 -0.028107686 6.4342244e-39 326 263
0.0085545136 0.69700003 -0.028107686 6.2494773e-39 327 263
0.0097765867 0.69700003 -0.028107686 6.0640154e-39 328 263
0.01099866 0.69700003 -0.028107686 5.971461e-39 329 263
0.012220734 0.69700003 -0.028107686 5.9703919e-39 330 263
0.013442807 0.69700003 -0.028107686 5.9703919e-39 331 263
0.01466488 0.69700003 -0.028107686 6.4295707e-39 332 263
0.015909746 0.69800001 -0.028148014 6.613962e-39 333 263
0.017182667 0.69999999 -0.028228667 7.4404801e-39 334 263
0.018409999 0.69999999 -0.028228667 7.5326757e-39 335 263
0.019637333 0.69999999 -0.028228667 7.9003722e-39 336 263
0.020894472 0.70099998 -0.028268991 7.9003722e-39 337 263
0.022123558 0.70099998 -0.028268991 7.6252244e-39 338 263
0.023419274 0.70300001 -0.028349647 7.4408332e-39 339 263
0.024651866 0.70300001 -0.028349647 7.0738527e-39 340 263
0.025884461 0.70300001 -0.028349647 6.8894601e-39 341 263
0.027155625 0.704 -0.028389972 6.0629434e-39 342 263
0.028389972 0.704 -0.028389972 5.9707478e-39 343 263
0.029708479 0.70599997 -0.028470624 5.5122906e-39 344 263
0.030946331 0.70599997 -0.028470624 5.4200949e-39 345 263
0.032184184 0.70599997 -0.028470624 5.3282622e-39 346 263
0.033422034 0.70599997 -0.028470624 5.2360666e-39 347 263
0.034708988 0.70700002 -0.028510952 4.7768905e-39 348 263
0.03599944 0.708 -0.02855128 4.7768905e-39 349 263
0.0372408 0.708 -0.02855128 4.5028204e-39 350 263
0.038590867 0.70999998 -0.028631933 4.595016e-39 351 263
0.039835732 0.70999998 -0.028631933 4.3198711e-39 352 263
0.041080594 0.70999998 -0.028631933 4.1358399e-39 353 263
0.042385083 0.71100003 -0.028672259 3.4901174e-39 354 263
0.043815799 0.71399999 -0.028793238 3.7663442e-39 355 263
-0.028873893 0.71600002 -0.03012928 1.4189107e-38 297 264
-0.027618507 0.71600002 -0.03012928 1.4099075e-38 298 264
-0.026363119 0.71600002 -0.03012928 1.0411251e-38 299 264
-0.025037598 0.71399999 -0.030045118 6.9060178e-39 300 264
-0.023752406 0.713 -0.030003037 3.3103897e-39 301 264
-0.022502279 0.713 -0.030003037 5.9711135e-39 302 264
-0.021252153 0.713 -0.030003037 6.5242873e-39 303 264
-0.019917866 0.70999998 -0.029876797 7.4433737e-39 304 264
-0.018594101 0.70700002 -0.029750559 8.3653286e-39 305 264
-0.017329946 0.70599997 -0.029708479 9.4738244e-39 306 264
-0.016046507 0.704 -0.029624319 1.0856759e-38 307 264
-0.014791119 0.70300001 -0.029582238 9.7558035e-39 308 264
-0.013519952 0.70099998 -0.029498078 8.0962835e-39 309 264
-0.012273333 0.69999999 -0.029455997 7.9025372e-39 310 264
-0.011045999 0.69999999 -0.029455997 7.1649722e-39 311 264
-0.0097906133 0.69800001 -0.029371841 6.7958267e-39 312 264
-0.0085667865 0.69800001 -0.029371841 6.6121557e-39 313 264
-0.0073429602 0.69800001 -0.029371841 5.7867125e-39 314 264
-0.0061103669 0.69700003 -0.02932976 6.0632951e-39 315 264
-0.0048812795 0.69599998 -0.029287677 5.882494e-39 316 264
-0.0036609597 0.69599998 -0.029287677 6.0668825e-39 317 264
-0.0024406398 0.69599998 -0.029287677 6.3427477e-39 318 264
-0.0012203199 0.69599998 -0.029287677 6.4349419e-39 319 264
0 0.69599998 -0.029287677 6.4338685e-39 320 264
0.0012203199 0.69599998 -0.029287677 6.4338685e-39 321 264
0.0024406398 0.69599998 -0.029287677 6.3416729e-39 322 264
0.0036609597 0.69599998 -0.029287677 6.5264229e-39 323 264
0.0048812795 0.69599998 -0.029287677 6.7108071e-39 324 264
0.0061015999 0.69599998 -0.029287677 6.9873926e-39 325 264
0.0073219193 0.69599998 -0.029287677 6.8040804e-39 326 264
0.0085422397 0.69599998 -0.029287677 6.3427477e-39 327 264
0.0097765867 0.69700003 -0.02932976 6.1572844e-39 328 264
0.01099866 0.69700003 -0.02932976 5.8807003e-39 329 264
0.012220734 0.69700003 -0.02932976 5.6959532e-39 330 264
0.013442807 0.69700003 -0.02932976 5.6959532e-39 331 264
0.01466488 0.69700003 -0.02932976 6.2466088e-39 332 264
0.015886955 0.69700003 -0.02932976 6.3388044e-39 333 264
0.017133573 0.69800001 -0.029371841 6.7969085e-39 334 264
0.0183574 0.69800001 -0.029371841 6.8891041e-39 335 264
0.019637333 0.69999999 -0.029455997 7.1646162e-39 336 264
0.020864666 0.69999999 -0.029455997 7.1646162e-39 337 264
0.022091998 0.69999999 -0.029455997 6.98202e-39 338 264
0.023319334 0.69999999 -0.029455997 6.98202e-39 339 264
0.024581732 0.70099998 -0.029498078 6.706515e-39 340 264
0.025810819 0.70099998 -0.029498078 6.4295679e-39 341 264
0.027117053 0.70300001 -0.029582238 5.8789179e-39 342 264
0.028349647 0.70300001 -0.029582238 5.6948868e-39 343 264
0.029624319 0.704 -0.029624319 5.1445941e-39 344 264
0.030946331 0.70599997 -0.029708479 5.0523984e-39 345 264
0.032184184 0.70599997 -0.029708479 5.0524012e-39 346 264
0.033422034 0.70599997 -0.029708479 4.9602056e-39 347 264
0.034708988 0.70700002 -0.029750559 4.6850606e-39 348 264
0.035948593 0.70700002 -0.029750559 4.5010281e-39 349 264
0.037188202 0.70700002 -0.029750559 4.3184361e-39 350 264
0.038482159 0.708 -0.02979264 4.5024673e-39 351 264
0.039835732 0.70999998 -0.029876797 4.0432884e-39 352 264
0.041080594 0.70999998 -0.029876797 4.135484e-39 353 264
0.042385083 0.71100003 -0.029918881 3.4915551e-39 354 264
0.043631699 0.71100003 -0.029918881 2.2958874e-39 355 264
0.044878319 0.71100003 -0.029918881 6.0766271e-39 356 264
-0.02754136 0.71399999 -0.031296998 1.3914678e-38 298 265
-0.026289478 0.71399999 -0.031296998 9.3974508e-39 299 265
-0.025002534 0.713 -0.031253166 6.443239e-39 300 265
-0.023752406 0.713 -0.031253166 3.9543157e-39 301 265
-0.022502279 0.713 -0.031253166 5.4222599e-39 302 265
-0.021252153 0.713 -0.031253166 5.6066512e-39 303 265
-0.01986176 0.708 -0.031034 7.5344904e-39 304 265
-0.018594101 0.70700002 -0.030990168 9.0099792e-39 305 265
-0.017280852 0.704 -0.030858666 1.0400101e-38 306 265
-0.016023712 0.70300001 -0.030814834 1.0768523e-38 307 265
-0.014749039 0.70099998 -0.030727165 1.0034555e-38 308 265
-0.013500666 0.69999999 -0.030683333 8.0062515e-39 309 265
-0.012273333 0.69999999 -0.030683333 8.1758927e-39 310 265
-0.01101444 0.69800001 -0.030595668 7.7152747e-39 311 265
-0.0097765867 0.69700003 -0.030551834 6.7972616e-39 312 265
-0.0085422397 0.69599998 -0.030507999 6.7050674e-39 313 265
-0.0073219193 0.69599998 -0.030507999 6.0643713e-39 314 265
-0.0061015999 0.69599998 -0.030507999 6.3413128e-39 315 265
-0.0048672534 0.69400001 -0.030420333 6.3413128e-39 316 265
-0.0036504399 0.69400001 -0.030420333 6.5253425e-39 317 265
-0.0024336267 0.69400001 -0.030420333 6.6175367e-39 318 265
-0.0012168133 0.69400001 -0.030420333 6.6175367e-39 319 265
0 0.69400001 -0.030420333 6.5249851e-39 320 265
0.0012203199 0.69599998 -0.030507999 6.5249851e-39 321 265
0.0024406398 0.69599998 -0.030507999 6.6164647e-39 322 265
0.0036609597 0.69599998 -0.030507999 6.7086603e-39 323 265
0.0048812795 0.69599998 -0.030507999 6.985243e-39 324 265
0.0060840664 0.69400001 -0.030420333 7.0774401e-39 325 265
0.0073008798 0.69400001 -0.030420333 6.710454e-39 326 265
0.0085176928 0.69400001 -0.030420333 6.2494773e-39 327 265
0.0097345067 0.69400001 -0.030420333 6.0632965e-39 328 265
0.01095132 0.69400001 -0.030420333 5.9707422e-39 329 265
0.012168133 0.69400001 -0.030420333 5.6026855e-39 330 265
0.013384946 0.69400001 -0.030420333 5.6026855e-39 331 265
0.01460176 0.69400001 -0.030420333 6.0615085e-39 332 265
0.015864158 0.69599998 -0.030507999 6.1537041e-39 333 265
0.017084479 0.69599998 -0.030507999 6.4284945e-39 334 265
0.018304799 0.69599998 -0.030507999 6.6121669e-39 335 265
0.019553173 0.69700003 -0.030551834 6.7043598e-39 336 265
0.020775247 0.69700003 -0.030551834 6.7965554e-39 337 265
0.02199732 0.69700003 -0.030551834 6.8898272e-39 338 265
0.023252707 0.69800001 -0.030595668 6.8898272e-39 339 265
0.024476532 0.69800001 -0.030595668 6.3384541e-39 340 265
0.025773998 0.69999999 -0.030683333 6.2462585e-39 341 265
0.027001332 0.69999999 -0.030683333 5.6956056e-39 342 265
0.028268991 0.70099998 -0.030727165 5.6956056e-39 343 265
0.029582238 0.70300001 -0.030814834 5.1445941e-39 344 265
0.030858666 0.704 -0.030858666 4.9602028e-39 345 265
0.032184184 0.70599997 -0.030946331 4.8680086e-39 346 265
0.033422034 0.70599997 -0.030946331 4.8680086e-39 347 265
0.034659892 0.70599997 -0.030946331 4.4095486e-39 348 265
0.035897743 0.70599997 -0.030946331 4.3173529e-39 349 265
0.037135597 0.70599997 -0.030946331 4.0418422e-39 350 265
0.038427804 0.70700002 -0.030990168 4.1340379e-39 351 265
0.039723519 0.708 -0.031034 3.9503697e-39 352 265
0.041080594 0.70999998 -0.031121666 3.858174e-39 353 265
0.042325463 0.70999998 -0.031121666 3.8588929e-39 354 265
0.043631699 0.71100003 -0.031165501 3.0305714e-39 355 265
0.045004558 0.713 -0.031253166 5.1535848e-39 356 265
-0.02754136 0.71399999 -0.032548878 1.3361863e-38 298 266
-0.026289478 0.71399999 -0.032548878 8.4754959e-39 299 266
-0.025002534 0.713 -0.032503292 5.9804658e-39 300 266
-0.023752406 0.713 -0.032503292 4.3213032e-39 301 266
-0.022502279 0.713 -0.032503292 4.8712554e-39 302 266
-0.021252153 0.713 -0.032503292 4.8712554e-39 303 266
-0.019833706 0.70700002 -0.032229774 5.7914278e-39 304 266
-0.018567799 0.70599997 -0.032184184 7.912286e-39 305 266
-0.017256306 0.70300001 -0.032047424 9.5732465e-39 306 266
-0.015978126 0.70099998 -0.031956252 1.0034225e-38 307 266
-0.014727999 0.69999999 -0.031910665 1.0032057e-38 308 266
-0.013500666 0.69999999 -0.031910665 8.003753e-39 309 266
-0.012238266 0.69800001 -0.031819493 7.1664197e-39 310 266
-0.01099866 0.69700003 -0.03177391 6.9816697e-39 311 266
-0.0097625591 0.69599998 -0.031728316 6.8894601e-39 312 266
-0.0085422397 0.69599998 -0.031728316 6.8894601e-39 313 266
-0.0073219193 0.69599998 -0.031728316 6.156211e-39 314 266
-0.0060840664 0.69400001 -0.031637147 5.971461e-39 315 266
-0.0048672534 0.69400001 -0.031637147 5.6052023e-39 316 266
-0.0036504399 0.69400001 -0.031637147 5.6052023e-39 317 266
-0.0024336267 0.69400001 -0.031637147 5.6973979e-39 318 266
-0.0012168133 0.69400001 -0.031637147 5.6973979e-39 319 266
0 0.69400001 -0.031637147 5.8817892e-39 320 266
0.0012168133 0.69400001 -0.031637147 5.8817892e-39 321 266
0.0024336267 0.69400001 -0.031637147 6.0654615e-39 322 266
0.0036504399 0.69400001 -0.031637147 6.1576572e-39 323 266
0.0048672534 0.69400001 -0.031637147 6.433521e-39 324 266
0.0060840664 0.69400001 -0.031637147 6.2491297e-39 325 266
0.0073008798 0.69400001 -0.031637147 6.6135963e-39 326 266
0.0085176928 0.69400001 -0.031637147 6.5214006e-39 327 266
0.0097345067 0.69400001 -0.031637147 6.0615085e-39 328 266
0.01095132 0.69400001 -0.031637147 5.6938022e-39 329 266
0.012168133 0.69400001 -0.031637147 5.6019709e-39 330 266
0.013384946 0.69400001 -0.031637147 5.6938078e-39 331 266
0.01460176 0.69400001 -0.031637147 5.6938134e-39 332 266
0.015818574 0.69400001 -0.031637147 5.6019751e-39 333 266
0.017084479 0.69599998 -0.031728316 5.7856517e-39 334 266
0.018304799 0.69599998 -0.031728316 5.9693241e-39 335 266
0.019525118 0.69599998 -0.031728316 6.1529909e-39 336 266
0.020745439 0.69599998 -0.031728316 6.2451865e-39 337 266
0.021965759 0.69599998 -0.031728316 6.4292148e-39 338 266
0.023219392 0.69700003 -0.03177391 6.4292148e-39 339 266
0.024476532 0.69800001 -0.031819493 6.2451837e-39 340 266
0.025700359 0.69800001 -0.031819493 6.2451837e-39 341 266
0.026924185 0.69800001 -0.031819493 5.5119346e-39 342 266
0.028228667 0.69999999 -0.031910665 5.5119346e-39 343 266
0.029582238 0.70300001 -0.032047424 5.0523984e-39 344 266
0.030858666 0.704 -0.032093015 4.9602028e-39 345 266
0.032093015 0.704 -0.032093015 4.6843376e-39 346 266
0.033422034 0.70599997 -0.032184184 4.6843376e-39 347 266
0.034659892 0.70599997 -0.032184184 4.2262363e-39 348 266
0.035897743 0.70599997 -0.032184184 4.1340407e-39 349 266
0.037135597 0.70599997 -0.032184184 4.0414863e-39 350 266
0.038427804 0.70700002 -0.032229774 4.0414863e-39 351 266
0.039723519 0.708 -0.03227536 3.6734325e-39 352 266
0.041080594 0.70999998 -0.032366529 3.5815956e-39 353 266
0.042325463 0.70999998 -0.032366529 3.4915551e-39 354 266
0.043631699 0.71100003 -0.032412119 3.122774e-39 355 266
0.045004558 0.713 -0.032503292 4.6915276e-39 356 266
-0.027618507 0.71600002 -0.03389544 1.3085999e-38 298 267
-0.026363119 0.71600002 -0.03389544 7.8308482e-39 299 267
-0.025037598 0.71399999 -0.033800758 5.3361782e-39 300 267
-0.023752406 0.713 -0.033753417 3.8610481e-39 301 267
-0.022439159 0.71100003 -0.033658739 5.3275588e-39 302 267
-0.021192541 0.71100003 -0.033658739 5.051332e-39 303 267
-0.019833706 0.70700002 -0.033469379 4.7776374e-39 304 267
-0.018567799 0.70599997 -0.033422034 6.4368e-39 305 267
-0.017256306 0.70300001 -0.033280019 8.0995612e-39 306 267
-0.015978126 0.70099998 -0.03318534 7.5463874e-39 307 267
-0.014727999 0.69999999 -0.033137999 7.1707525e-39 308 267
-0.013500666 0.69999999 -0.033137999 6.1566006e-39 309 267
-0.012238266 0.69800001 -0.033043321 6.5217692e-39 310 267
-0.01099866 0.69700003 -0.03299598 6.6139662e-39 311 267
-0.0097625591 0.69599998 -0.032948639 6.3384513e-39 312 267
-0.0085176928 0.69400001 -0.032853961 6.2462557e-39 313 267
-0.0073008798 0.69400001 -0.032853961 5.7860006e-39 314 267
-0.0060840664 0.69400001 -0.032853961 5.4182943e-39 315 267
-0.0048672534 0.69400001 -0.032853961 5.510134e-39 316 267
-0.0036504399 0.69400001 -0.032853961 5.6019709e-39 317 267
-0.0024336267 0.69400001 -0.032853961 5.6019667e-39 318 267
-0.0012168133 0.69400001 -0.032853961 5.877476e-39 319 267
0 0.69400001 -0.032853961 5.693805e-39 320 267
0.0012168133 0.69400001 -0.032853961 5.9703919e-39 321 267
0.0024336267 0.69400001 -0.032853961 6.0636595e-39 322 267
0.0036504399 0.69400001 -0.032853961 6.2484109e-39 323 267
0.0048672534 0.69400001 -0.032853961 6.3395233e-39 324 267
0.0060840664 0.69400001 -0.032853961 6.2473277e-39 325 267
0.0073008798 0.69400001 -0.032853961 6.4299211e-39 326 267
0.0085176928 0.69400001 -0.032853961 6.2458899e-39 327 267
0.0097345067 0.69400001 -0.032853961 5.6959532e-39 328 267
0.01095132 0.69400001 -0.032853961 5.5115647e-39 329 267
0.012168133 0.69400001 -0.032853961 5.6019653e-39 330 267
0.013384946 0.69400001 -0.032853961 5.6938008e-39 331 267
0.01460176 0.69400001 -0.032853961 5.6019681e-39 332 267
0.015818574 0.69400001 -0.032853961 5.693805e-39 333 267
0.017035386 0.69400001 -0.032853961 5.7856433e-39 334 267
0.0182522 0.69400001 -0.032853961 5.7856433e-39 335 267
0.019469013 0.69400001 -0.032853961 6.1529824e-39 336 267
0.020745439 0.69599998 -0.032948639 6.2448193e-39 337 267
0.021965759 0.69599998 -0.032948639 6.1537041e-39 338 267
0.023186078 0.69599998 -0.032948639 6.2462585e-39 339 267
0.024441468 0.69700003 -0.03299598 5.878199e-39 340 267
0.025663542 0.69700003 -0.03299598 5.878199e-39 341 267
0.026924185 0.69800001 -0.033043321 5.3282651e-39 342 267
0.028148014 0.69800001 -0.033043321 5.3282651e-39 343 267
0.029455997 0.69999999 -0.033137999 4.869089e-39 344 267
0.030814834 0.70300001 -0.033280019 4.7768933e-39 345 267
0.032093015 0.704 -0.03332736 4.6843376e-39 346 267
0.033422034 0.70599997 -0.033422034 4.6843376e-39 347 267
0.034659892 0.70599997 -0.033422034 4.2262335e-39 348 267
0.035897743 0.70599997 -0.033422034 4.1340379e-39 349 267
0.037135597 0.70599997 -0.033422034 3.8592488e-39 350 267
0.038427804 0.70700002 -0.033469379 3.7666945e-39 351 267
0.039723519 0.708 -0.033516716 3.857095e-39 352 267
0.041080594 0.70999998 -0.033611398 3.857095e-39 353 267
0.042325463 0.70999998 -0.033611398 3.5841011e-39 354 267
0.043631699 0.71100003 -0.033658739 3.4919055e-39 355 267
0.045004558 0.713 -0.033753417 3.9557591e-39 356 267
0.046254687 0.713 -0.033753417 8.0127255e-39 357 267
-0.02754136 0.71399999 -0.035052639 1.2993085e-38 298 268
-0.026289478 0.71399999 -0.035052639 7.5531823e-39 299 268
