# .PCD v.7 - Point Cloud Data file format
FIELDS x y z rgb imX imY
SIZE 4 4 4 4 4 4
TYPE F F F F F F
COUNT 1 1 1 1 1 1
WIDTH 851
HEIGHT 1
VIEWPOINT 0 0 0 1 0 0 0
POINTS 851
DATA ascii
0.010716373 0.764 0.0080372803 1.0146746e-38 328 234
0.01205592 0.764 0.0080372803 1.0331135e-38 329 234
0.013395466 0.764 0.0080372803 1.042297e-38 330 234
0.014735013 0.764 0.0080372803 1.0515164e-38 331 234
0.016116638 0.76599997 0.0080583189 1.0790323e-38 332 234
0.017459691 0.76599997 0.0080583189 1.0882519e-38 333 234
0.018827293 0.76700002 0.00806884 1.0882525e-38 334 234
0.0202247 0.76899999 0.0080898795 1.0697775e-38 335 234
0.021629119 0.77100003 0.0081109209 1.0329716e-38 336 234
0.023040552 0.773 0.0081319595 1.0145325e-38 337 234
0.024395877 0.773 0.0081319595 9.7776441e-39 338 234
0.025751207 0.773 0.0081319595 1.0053871e-38 339 234
0.027106533 0.773 0.0081319595 1.0973724e-38 340 234
0.028461859 0.773 0.0081319595 1.4384962e-38 341 234
0.029817186 0.773 0.0081319595 1.6590506e-38 342 234
-0.046140719 0.77399999 0.0067853997 1.3189307e-38 286 235
-0.044725779 0.773 0.0067766332 9.96246e-39 287 235
-0.043370452 0.773 0.0067766332 8.9521938e-39 288 235
-0.04190642 0.77100003 0.0067590997 8.7678026e-39 289 235
-0.0404494 0.76899999 0.0067415666 9.5046193e-39 290 235
-0.038999394 0.76700002 0.006724033 9.5046193e-39 291 235
-0.037507307 0.764 0.006697733 9.5968178e-39 292 235
-0.036167759 0.764 0.006697733 9.6890134e-39 293 235
-0.034737039 0.76200002 0.0066801999 9.6900868e-39 294 235
-0.033401001 0.76200002 0.0066801999 9.7822824e-39 295 235
-0.032022879 0.76099998 0.0066714329 1.0058139e-38 296 235
-0.030688593 0.76099998 0.0066714329 1.0150333e-38 297 235
-0.029354304 0.76099998 0.0066714329 1.0333646e-38 298 235
-0.028020019 0.76099998 0.0066714329 9.9648688e-39 299 235
-0.026685731 0.76099998 0.0066714329 1.0057793e-38 300 235
-0.025284819 0.759 0.0066538998 1.1164501e-38 301 235
-0.023954039 0.759 0.0066538998 1.235656e-38 302 235
-0.02262326 0.759 0.0066538998 1.1342048e-38 303 235
-0.021348584 0.76099998 0.0066714329 1.0420818e-38 304 235
-0.020014299 0.76099998 0.0066714329 1.0144235e-38 305 235
-0.018680012 0.76099998 0.0066714329 9.2248038e-39 306 235
-0.01736852 0.76200002 0.0066801999 9.0404154e-39 307 235
-0.01603248 0.76200002 0.0066801999 8.5787268e-39 308 235
-0.01469644 0.76200002 0.0066801999 8.3943383e-39 309 235
-0.013395466 0.764 0.006697733 7.7504137e-39 310 235
-0.01205592 0.764 0.006697733 7.4734722e-39 311 235
-0.010716373 0.764 0.006697733 7.3802018e-39 312 235
-0.0094136465 0.76700002 0.006724033 6.8270364e-39 313 235
-0.0080898795 0.76899999 0.0067415666 7.2858552e-39 314 235
-0.0067415666 0.76899999 0.0067415666 7.3780494e-39 315 235
-0.0053792265 0.76700002 0.006724033 7.0117836e-39 316 235
-0.00403442 0.76700002 0.006724033 7.1965308e-39 317 235
-0.0026896133 0.76700002 0.006724033 7.3802018e-39 318 235
-0.0013430532 0.76599997 0.0067152665 7.3802018e-39 319 235
0 0.764 0.006697733 7.2894425e-39 320 235
0.0013395466 0.764 0.006697733 7.6578607e-39 321 235
0.00267208 0.76200002 0.0066801999 7.6607305e-39 322 235
0.0040081199 0.76200002 0.0066801999 8.5826728e-39 323 235
0.0053441599 0.76200002 0.0066801999 1.0055987e-38 324 235
0.0066801999 0.76200002 0.0066801999 9.9637926e-39 325 235
0.0080162399 0.76200002 0.0066801999 9.9634339e-39 326 235
0.0093768267 0.764 0.006697733 9.594657e-39 327 235
0.010716373 0.764 0.006697733 8.8610492e-39 328 235
0.01205592 0.764 0.006697733 9.1376319e-39 329 235
0.013395466 0.764 0.006697733 8.4947904e-39 330 235
0.014735013 0.764 0.006697733 8.6791803e-39 331 235
0.016116638 0.76599997 0.0067152665 9.5961143e-39 332 235
0.017459691 0.76599997 0.0067152665 9.7808657e-39 333 235
0.018827293 0.76700002 0.006724033 1.0514112e-38 334 235
0.020172099 0.76700002 0.006724033 1.0329719e-38 335 235
0.021573013 0.76899999 0.0067415666 1.0053853e-38 336 235
0.02298094 0.77100003 0.0067590997 9.8694614e-39 337 235
0.02442744 0.77399999 0.0067853997 9.9613067e-39 338 235
0.025784519 0.77399999 0.0067853997 9.9613067e-39 339 235
0.027106533 0.773 0.0067766332 1.0881879e-38 340 235
0.028461859 0.773 0.0067766332 1.4108726e-38 341 235
0.029817186 0.773 0.0067766332 1.5946938e-38 342 235
-0.047620531 0.77600002 0.0054423464 1.5304099e-38 285 236
-0.046140719 0.77399999 0.0054283198 1.3372255e-38 286 236
-0.044725779 0.773 0.0054213065 1.0237605e-38 287 236
-0.043258239 0.77100003 0.0054072798 9.4120986e-39 288 236
-0.04190642 0.77100003 0.0054072798 9.2277073e-39 289 236
-0.0404494 0.76899999 0.0053932532 9.687947e-39 290 236
-0.038999394 0.76700002 0.0053792265 9.687947e-39 291 236
-0.037507307 0.764 0.0053581866 9.5053522e-39 292 236
-0.036167759 0.764 0.0053581866 9.6893833e-39 293 236
-0.034737039 0.76200002 0.0053441599 9.5064214e-39 294 236
-0.033357166 0.76099998 0.0053371461 9.8752025e-39 295 236
-0.032022879 0.76099998 0.0053371461 1.0150692e-38 296 236
-0.030688593 0.76099998 0.0053371461 1.0243247e-38 297 236
-0.029354304 0.76099998 0.0053371461 1.0426557e-38 298 236
-0.028020019 0.76099998 0.0053371461 1.005778e-38 299 236
-0.026685731 0.76099998 0.0053371461 9.9663037e-39 300 236
-0.025284819 0.759 0.0053231199 1.0611663e-38 301 236
-0.023954039 0.759 0.0053231199 1.1896288e-38 302 236
-0.02262326 0.759 0.0053231199 1.1619343e-38 303 236
-0.021348584 0.76099998 0.0053371461 1.0605924e-38 304 236
-0.020014299 0.76099998 0.0053371461 9.960564e-39 305 236
-0.018680012 0.76099998 0.0053371461 9.2255213e-39 306 236
-0.017345725 0.76099998 0.0053371461 9.1333271e-39 307 236
-0.01603248 0.76200002 0.0053441599 8.7641914e-39 308 236
-0.01469644 0.76200002 0.0053441599 8.6719972e-39 309 236
-0.0133604 0.76200002 0.0053441599 8.3039378e-39 310 236
-0.01202436 0.76200002 0.0053441599 8.1191906e-39 311 236
-0.010716373 0.764 0.0053581866 8.1181144e-39 312 236
-0.0093768267 0.764 0.0053581866 7.7493375e-39 313 236
-0.0080372803 0.764 0.0053581866 7.3823542e-39 314 236
-0.006697733 0.764 0.0053581866 7.4745484e-39 315 236
-0.0053581866 0.764 0.0053581866 7.4745484e-39 316 236
-0.0040186401 0.764 0.0053581866 7.7511311e-39 317 236
-0.0026790933 0.764 0.0053581866 7.8426079e-39 318 236
-0.00133604 0.76200002 0.0053441599 7.7504137e-39 319 236
0 0.76200002 0.0053441599 7.5678189e-39 320 236
0.00133604 0.76200002 0.0053441599 8.2131785e-39 321 236
0.00267208 0.76200002 0.0053441599 9.6846988e-39 322 236
0.0040081199 0.76200002 0.0053441599 1.0607014e-38 323 236
0.0053441599 0.76200002 0.0053441599 1.0241093e-38 324 236
0.0066801999 0.76200002 0.0053441599 9.6879274e-39 325 236
0.0080162399 0.76200002 0.0053441599 9.2280324e-39 326 236
0.0093522798 0.76200002 0.0053441599 8.9518085e-39 327 236
0.01068832 0.76200002 0.0053441599 8.2189182e-39 328 236
0.01205592 0.764 0.0053581866 8.2189182e-39 329 236
0.013395466 0.764 0.0053581866 7.5768026e-39 330 236
0.014735013 0.764 0.0053581866 7.5768026e-39 331 236
0.016074561 0.764 0.0053581866 9.0436664e-39 332 236
0.017459691 0.76599997 0.0053722127 9.5046459e-39 333 236
0.018802745 0.76599997 0.0053722127 1.0421914e-38 334 236
0.020172099 0.76700002 0.0053792265 1.0237521e-38 335 236
0.021573013 0.76899999 0.0053932532 9.6861463e-39 336 236
0.02298094 0.77100003 0.0054072798 9.5017551e-39 337 236
0.024395877 0.773 0.0054213065 9.7779944e-39 338 236
0.025784519 0.77399999 0.0054283198 9.7779944e-39 339 236
0.027106533 0.773 0.0054213065 1.078933e-38 340 236
0.028461859 0.773 0.0054213065 1.3923981e-38 341 236
0.029817186 0.773 0.0054213065 1.576219e-38 342 236
-0.047620531 0.77600002 0.0040817601 1.5027872e-38 285 237
-0.046140719 0.77399999 0.0040712398 1.3647044e-38 286 237
-0.044725779 0.773 0.0040659797 1.0788979e-38 287 237
-0.043258239 0.77100003 0.0040554604 9.8727236e-39 288 237
-0.04190642 0.77100003 0.0040554604 9.6883324e-39 289 237
-0.0404494 0.76899999 0.0040449398 9.5961199e-39 290 237
-0.038999394 0.76700002 0.00403442 9.5961199e-39 291 237
-0.037605491 0.76599997 0.0040291594 9.3213253e-39 292 237
-0.036167759 0.764 0.0040186401 9.5057179e-39 293 237
-0.034828212 0.764 0.0040186401 9.5982667e-39 294 237
-0.033357166 0.76099998 0.0040028598 9.9670478e-39 295 237
-0.032022879 0.76099998 0.0040028598 1.0151777e-38 296 237
-0.030688593 0.76099998 0.0040028598 1.0335809e-38 297 237
-0.029354304 0.76099998 0.0040028598 1.0335081e-38 298 237
-0.028020019 0.76099998 0.0040028598 1.0058139e-38 299 237
-0.026685731 0.76099998 0.0040028598 9.5975268e-39 300 237
-0.025284819 0.759 0.0039923396 9.4131384e-39 301 237
-0.023954039 0.759 0.0039923396 9.9641513e-39 302 237
-0.02262326 0.759 0.0039923396 1.0240734e-38 303 237
-0.021348584 0.76099998 0.0040028598 1.023894e-38 304 237
-0.020014299 0.76099998 0.0040028598 9.7779692e-39 305 237
-0.018680012 0.76099998 0.0040028598 9.318433e-39 306 237
-0.017345725 0.76099998 0.0040028598 9.1344033e-39 307 237
-0.016011439 0.76099998 0.0040028598 9.2255213e-39 308 237
-0.014677152 0.76099998 0.0040028598 9.2255213e-39 309 237
-0.013342866 0.76099998 0.0040028598 8.9496561e-39 310 237
-0.012008579 0.76099998 0.0040028598 8.9496561e-39 311 237
-0.01068832 0.76200002 0.0040081199 9.0396979e-39 312 237
-0.0093522798 0.76200002 0.0040081199 8.6712797e-39 313 237
-0.0080162399 0.76200002 0.0040081199 8.8549507e-39 314 237
-0.0066801999 0.76200002 0.0040081199 9.0393392e-39 315 237
-0.0053441599 0.76200002 0.0040081199 8.7641914e-39 316 237
-0.0040081199 0.76200002 0.0040081199 8.8567444e-39 317 237
-0.00267208 0.76200002 0.0040081199 8.9485813e-39 318 237
-0.00133604 0.76200002 0.0040081199 9.3170037e-39 319 237
0 0.76200002 0.0040081199 9.8694614e-39 320 237
0.00133604 0.76200002 0.0040081199 1.0238604e-38 321 237
0.00267208 0.76200002 0.0040081199 1.0698128e-38 322 237
0.0040081199 0.76200002 0.0040081199 1.0698128e-38 323 237
0.0053441599 0.76200002 0.0040081199 9.4127796e-39 324 237
0.0066801999 0.76200002 0.0040081199 9.1365557e-39 325 237
0.0080162399 0.76200002 0.0040081199 7.7604652e-39 326 237
0.0093522798 0.76200002 0.0040081199 8.0370521e-39 327 237
0.01068832 0.76200002 0.0040081199 8.4969792e-39 328 237
0.01202436 0.76200002 0.0040081199 8.7735661e-39 329 237
0.0133604 0.76200002 0.0040081199 9.3253358e-39 330 237
0.014735013 0.764 0.0040186401 9.3253358e-39 331 237
0.016074561 0.764 0.0040186401 1.0426287e-38 332 237
0.017459691 0.76599997 0.0040291594 1.033409e-38 333 237
0.018802745 0.76599997 0.0040291594 1.0698168e-38 334 237
0.020172099 0.76700002 0.00403442 1.0052799e-38 335 237
0.021573013 0.76899999 0.0040449398 9.4092049e-39 336 237
0.02298094 0.77100003 0.0040554604 9.3170093e-39 337 237
0.024395877 0.773 0.0040659797 9.5010488e-39 338 237
0.025784519 0.77399999 0.0040712398 9.6857988e-39 339 237
0.027106533 0.773 0.0040659797 1.1064119e-38 340 237
0.028461859 0.773 0.0040659797 1.4106573e-38 341 237
-0.047620531 0.77600002 0.0027211732 1.5211185e-38 285 238
-0.046140719 0.77399999 0.0027141599 1.3830359e-38 286 238
-0.044783637 0.77399999 0.0027141599 1.1248881e-38 287 238
-0.043370452 0.773 0.0027106532 1.0608488e-38 288 238
-0.04190642 0.77100003 0.0027036399 1.0055673e-38 289 238
-0.0404494 0.76899999 0.0026966266 9.6875967e-39 290 238
-0.038999394 0.76700002 0.0026896133 9.595401e-39 291 238
-0.037605491 0.76599997 0.0026861064 9.320975e-39 292 238
-0.036167759 0.764 0.0026790933 9.5053676e-39 293 238
-0.034828212 0.764 0.0026790933 9.6908309e-39 294 238
-0.033401001 0.76200002 0.00267208 9.7830265e-39 295 238
-0.032022879 0.76099998 0.0026685731 1.0152141e-38 296 238
-0.030688593 0.76099998 0.0026685731 1.0059944e-38 297 238
-0.029354304 0.76099998 0.0026685731 1.0426199e-38 298 238
-0.028020019 0.76099998 0.0026685731 1.005778e-38 299 238
-0.026615599 0.759 0.00266156 9.9641513e-39 300 238
-0.025284819 0.759 0.00266156 9.5035389e-39 301 238
-0.023954039 0.759 0.00266156 9.0454376e-39 302 238
-0.02262326 0.759 0.00266156 9.0454376e-39 303 238
-0.02129248 0.759 0.00266156 9.5953744e-39 304 238
-0.0199617 0.759 0.00266156 9.5953744e-39 305 238
-0.01863092 0.759 0.00266156 9.594657e-39 306 238
-0.017300138 0.759 0.00266156 9.5024627e-39 307 238
-0.015969358 0.759 0.00266156 1.0145311e-38 308 238
-0.014638579 0.759 0.00266156 1.0514088e-38 309 238
-0.0133078 0.759 0.00266156 1.0421535e-38 310 238
-0.012008579 0.76099998 0.0026685731 1.0421535e-38 311 238
-0.010674292 0.76099998 0.0026685731 1.0328265e-38 312 238
-0.0093400059 0.76099998 0.0026685731 1.0051682e-38 313 238
-0.0080162399 0.76200002 0.00267208 9.3169981e-39 314 238
-0.0066714329 0.76099998 0.0026685731 9.7779692e-39 315 238
-0.0053371461 0.76099998 0.0026685731 1.0053117e-38 316 238
-0.0040028598 0.76099998 0.0026685731 1.0145311e-38 317 238
-0.0026685731 0.76099998 0.0026685731 1.0054559e-38 318 238
-0.0013342865 0.76099998 0.0026685731 1.0422983e-38 319 238
0 0.76099998 0.0026685731 1.0883947e-38 320 238
0.0013342865 0.76099998 0.0026685731 1.0791392e-38 321 238
0.0026685731 0.76099998 0.0026685731 1.0239658e-38 322 238
0.0040028598 0.76099998 0.0026685731 1.0055269e-38 323 238
0.0053371461 0.76099998 0.0026685731 8.8632184e-39 324 238
0.0066714329 0.76099998 0.0026685731 9.3241965e-39 325 238
0.0080057196 0.76099998 0.0026685731 9.233122e-39 326 238
0.0093522798 0.76200002 0.00267208 9.5093487e-39 327 238
0.01068832 0.76200002 0.00267208 1.0243709e-38 328 238
0.01202436 0.76200002 0.00267208 1.0705047e-38 329 238
0.0133604 0.76200002 0.00267208 1.1347934e-38 330 238
0.01469644 0.76200002 0.00267208 1.1532325e-38 331 238
0.016074561 0.764 0.0026790933 1.2359218e-38 332 238
0.017414106 0.764 0.0026790933 1.2267023e-38 333 238
0.018802745 0.76599997 0.0026861064 1.1066273e-38 334 238
0.020172099 0.76700002 0.0026896133 1.0051762e-38 335 238
0.021573013 0.76899999 0.0026966266 9.1311929e-39 336 238
0.02298094 0.77100003 0.0027036399 9.3155842e-39 337 238
0.024395877 0.773 0.0027106532 9.1337068e-39 338 238
0.025784519 0.77399999 0.0027141599 9.3184582e-39 339 238
0.027141599 0.77399999 0.0027141599 1.0788611e-38 340 238
0.028498679 0.77399999 0.0027141599 1.3830707e-38 341 238
-0.047497798 0.77399999 0.0013570799 1.530338e-38 285 239
-0.046140719 0.77399999 0.0013570799 1.3923278e-38 286 239
-0.044783637 0.77399999 0.0013570799 1.1433996e-38 287 239
-0.043370452 0.773 0.0013553266 1.1068396e-38 288 239
-0.04190642 0.77100003 0.00135182 1.0054245e-38 289 239
-0.0404494 0.76899999 0.0013483133 9.5961199e-39 290 239
-0.038999394 0.76700002 0.0013448066 9.5035655e-39 291 239
-0.037605491 0.76599997 0.0013430532 9.2291297e-39 292 239
-0.036167759 0.764 0.0013395466 9.5057179e-39 293 239
-0.034737039 0.76200002 0.00133604 9.6904623e-39 294 239
-0.033357166 0.76099998 0.0013342865 1.015144e-38 295 239
-0.032022879 0.76099998 0.0013342865 1.0427657e-38 296 239
-0.030688593 0.76099998 0.0013342865 1.0335103e-38 297 239
-0.029354304 0.76099998 0.0013342865 1.0150342e-38 298 239
-0.028020019 0.76099998 0.0013342865 1.0058146e-38 299 239
-0.026615599 0.759 0.00133078 9.5046151e-39 300 239
-0.025284819 0.759 0.00133078 9.4124209e-39 301 239
-0.023954039 0.759 0.00133078 9.0450789e-39 302 239
-0.02262326 0.759 0.00133078 9.1372731e-39 303 239
-0.02129248 0.759 0.00133078 9.5953744e-39 304 239
-0.0199617 0.759 0.00133078 1.0056346e-38 305 239
-0.01863092 0.759 0.00133078 1.0332572e-38 306 239
-0.017300138 0.759 0.00133078 1.1070137e-38 307 239
-0.015969358 0.759 0.00133078 1.1711559e-38 308 239
-0.014638579 0.759 0.00133078 1.1711559e-38 309 239
-0.0133078 0.759 0.00133078 1.171084e-38 310 239
-0.01197702 0.759 0.00133078 1.1895232e-38 311 239
-0.01064624 0.759 0.00133078 1.2260044e-38 312 239
-0.0093400059 0.76099998 0.0013342865 1.1429932e-38 313 239
-0.0080057196 0.76099998 0.0013342865 1.0513371e-38 314 239
-0.0066714329 0.76099998 0.0013342865 1.0881789e-38 315 239
-0.0053371461 0.76099998 0.0013342865 1.0608435e-38 316 239
-0.0040028598 0.76099998 0.0013342865 1.0608435e-38 317 239
-0.0026685731 0.76099998 0.0013342865 1.0609155e-38 318 239
-0.0013342865 0.76099998 0.0013342865 1.0424765e-38 319 239
0 0.76099998 0.0013342865 1.0422616e-38 320 239
0.0013342865 0.76099998 0.0013342865 9.7772517e-39 321 239
0.0026685731 0.76099998 0.0013342865 7.7543751e-39 322 239
0.0040028598 0.76099998 0.0013342865 9.5057334e-39 323 239
0.0053371461 0.76099998 0.0013342865 1.089088e-38 324 239
0.0066714329 0.76099998 0.0013342865 1.1812837e-38 325 239
0.0080057196 0.76099998 0.0013342865 1.3006013e-38 326 239
0.0093400059 0.76099998 0.0013342865 1.2821262e-38 327 239
0.01068832 0.76200002 0.00133604 1.2542884e-38 328 239
0.01202436 0.76200002 0.00133604 1.2265937e-38 329 239
0.0133604 0.76200002 0.00133604 1.1531621e-38 330 239
0.01469644 0.76200002 0.00133604 1.1531621e-38 331 239
0.016074561 0.764 0.0013395466 1.1991528e-38 332 239
0.017414106 0.764 0.0013395466 1.2175919e-38 333 239
0.018802745 0.76599997 0.0013430532 1.152691e-38 334 239
0.020172099 0.76700002 0.0013448066 1.005214e-38 335 239
0.021573013 0.76899999 0.0013483133 8.5791149e-39 336 239
0.022921326 0.76899999 0.0013483133 8.9478961e-39 337 239
0.024395877 0.773 0.0013553266 9.3173862e-39 338 239
0.025784519 0.77399999 0.0013570799 9.2251892e-39 339 239
0.027141599 0.77399999 0.0013570799 1.0421621e-38 340 239
-0.047497798 0.77399999 -0 1.5486695e-38 285 240
-0.046140719 0.77399999 -0 1.3924004e-38 286 240
-0.044783637 0.77399999 -0 1.1526557e-38 287 240
-0.043370452 0.773 -0 1.0884733e-38 288 240
-0.04190642 0.77100003 -0 9.9624179e-39 289 240
-0.0404494 0.76899999 -0 9.1376627e-39 290 240
-0.038999394 0.76700002 -0 9.0451083e-39 291 240
-0.037605491 0.76599997 -0 8.8621492e-39 292 240
-0.036167759 0.764 -0 9.1383774e-39 293 240
-0.034737039 0.76200002 -0 9.3234903e-39 294 240
-0.033357166 0.76099998 -0 9.6004373e-39 295 240
-0.032022879 0.76099998 -0 1.0152157e-38 296 240
-0.030688593 0.76099998 -0 1.0152157e-38 297 240
-0.029354304 0.76099998 -0 1.0059576e-38 298 240
-0.027946379 0.759 -0 9.7829915e-39 299 240
-0.026615599 0.759 -0 1.0424405e-38 300 240
-0.025284819 0.759 -0 9.9634339e-39 301 240
-0.023954039 0.759 -0 9.3205854e-39 302 240
-0.02262326 0.759 -0 9.3205854e-39 303 240
-0.02129248 0.759 -0 9.2294674e-39 304 240
-0.0199617 0.759 -0 9.4134971e-39 305 240
-0.01863092 0.759 -0 9.965945e-39 306 240
-0.017254554 0.75700003 -0 1.0335081e-38 307 240
-0.015927281 0.75700003 -0 1.1528948e-38 308 240
-0.014600007 0.75700003 -0 1.1436752e-38 309 240
-0.013272733 0.75700003 -0 1.1619701e-38 310 240
-0.01197702 0.759 -0 1.1711896e-38 311 240
-0.01064624 0.759 -0 1.1985967e-38 312 240
-0.0093400059 0.76099998 -0 1.1617549e-38 313 240
-0.0080057196 0.76099998 -0 1.1342401e-38 314 240
-0.0066538998 0.759 -0 1.1158013e-38 315 240
-0.0053231199 0.759 -0 1.079103e-38 316 240
-0.0039923396 0.759 -0 1.0698835e-38 317 240
-0.0026685731 0.76099998 -0 1.0423329e-38 318 240
-0.0013342865 0.76099998 -0 1.0331135e-38 319 240
0 0.76099998 -0 1.0052408e-38 320 240
0.0013342865 0.76099998 -0 1.0144604e-38 321 240
0.0026685731 0.76099998 -0 1.0791828e-38 322 240
0.0040028598 0.76099998 -0 1.2267318e-38 323 240
0.0053371461 0.76099998 -0 1.3463767e-38 324 240
0.0066714329 0.76099998 -0 1.3555962e-38 325 240
0.0080057196 0.76099998 -0 1.3370509e-38 326 240
0.0093400059 0.76099998 -0 1.3186478e-38 327 240
0.010674292 0.76099998 -0 1.2542546e-38 328 240
0.01202436 0.76200002 -0 1.1989372e-38 329 240
0.0133604 0.76200002 -0 1.189718e-38 330 240
0.01469644 0.76200002 -0 1.189718e-38 331 240
0.016074561 0.764 -0 1.2356363e-38 332 240
0.017414106 0.764 -0 1.2540755e-38 333 240
0.018802745 0.76599997 -0 1.0791167e-38 334 240
0.020172099 0.76700002 -0 9.500428e-39 335 240
0.021573013 0.76899999 -0 8.3951118e-39 336 240
0.022921326 0.76899999 -0 8.763893e-39 337 240
0.02433276 0.77100003 -0 8.765674e-39 338 240
0.025751207 0.773 -0 9.2266508e-39 339 240
0.027106533 0.773 -0 1.0513466e-38 340 240
-0.047497798 0.77399999 -0.0013570799 1.5486698e-38 285 241
-0.046140719 0.77399999 -0.0013570799 1.4015849e-38 286 241
-0.044783637 0.77399999 -0.0013570799 1.1710599e-38 287 241
-0.043370452 0.773 -0.0013553266 1.0976574e-38 288 241
-0.04190642 0.77100003 -0.00135182 1.0054616e-38 289 241
-0.0404494 0.76899999 -0.0013483133 9.1383802e-39 290 241
-0.038999394 0.76700002 -0.0013448066 8.862152e-39 291 241
-0.037605491 0.76599997 -0.0013430532 9.0450957e-39 292 241
-0.036167759 0.764 -0.0013395466 9.2291268e-39 293 241
-0.034737039 0.76200002 -0.00133604 9.2298569e-39 294 241
-0.033401001 0.76200002 -0.00133604 9.7830293e-39 295 241
-0.032022879 0.76099998 -0.0013342865 1.061174e-38 296 241
-0.030688593 0.76099998 -0.0013342865 1.1441141e-38 297 241
-0.029354304 0.76099998 -0.0013342865 1.1073415e-38 298 241
-0.027946379 0.759 -0.00133078 9.9670688e-39 299 241
-0.026615599 0.759 -0.00133078 1.0333646e-38 300 241
-0.025284819 0.759 -0.00133078 9.9652275e-39 301 241
-0.023954039 0.759 -0.00133078 9.3227378e-39 302 241
-0.02262326 0.759 -0.00133078 9.3227378e-39 303 241
-0.02129248 0.759 -0.00133078 9.2294674e-39 304 241
-0.019909101 0.75700003 -0.0013272733 9.2294674e-39 305 241
-0.018581826 0.75700003 -0.0013272733 1.0056346e-38 306 241
-0.017254554 0.75700003 -0.0013272733 1.0240734e-38 307 241
-0.015927281 0.75700003 -0.0013272733 1.08843e-38 308 241
-0.014600007 0.75700003 -0.0013272733 1.08843e-38 309 241
-0.013272733 0.75700003 -0.0013272733 1.134276e-38 310 241
-0.01197702 0.759 -0.00133078 1.134276e-38 311 241
-0.01064624 0.759 -0.00133078 1.1619701e-38 312 241
-0.00931546 0.759 -0.00133078 1.1435313e-38 313 241
-0.0079846792 0.759 -0.00133078 1.1067612e-38 314 241
-0.0066538998 0.759 -0.00133078 1.0791388e-38 315 241
-0.0053231199 0.759 -0.00133078 1.0606282e-38 316 241
-0.0039923396 0.759 -0.00133078 1.0514088e-38 317 241
-0.00266156 0.759 -0.00133078 1.0238582e-38 318 241
-0.00133078 0.759 -0.00133078 9.8698047e-39 319 241
0 0.759 -0.00133078 9.8666097e-39 320 241
0.00133078 0.759 -0.00133078 1.300162e-38 321 241
0.0026685731 0.76099998 -0.0013342865 1.5857241e-38 322 241
0.0040028598 0.76099998 -0.0013342865 1.5119676e-38 323 241
0.0053371461 0.76099998 -0.0013342865 1.3735334e-38 324 241
0.0066714329 0.76099998 -0.0013342865 1.2444595e-38 325 241
0.0080057196 0.76099998 -0.0013342865 1.1617002e-38 326 241
0.0093400059 0.76099998 -0.0013342865 1.124822e-38 327 241
0.010674292 0.76099998 -0.0013342865 1.0423138e-38 328 241
0.01202436 0.76200002 -0.00133604 1.1068508e-38 329 241
0.0133604 0.76200002 -0.00133604 1.1803193e-38 330 241
0.01469644 0.76200002 -0.00133604 1.1341855e-38 331 241
0.01603248 0.76200002 -0.00133604 1.1155303e-38 332 241
0.017459691 0.76599997 -0.0013430532 1.0970911e-38 333 241
0.018802745 0.76599997 -0.0013430532 9.8710084e-39 334 241
0.020172099 0.76700002 -0.0013448066 8.6724652e-39 335 241
0.021573013 0.76899999 -0.0013483133 8.1188767e-39 336 241
0.022921326 0.76899999 -0.0013483133 8.7642461e-39 337 241
0.024269639 0.76899999 -0.0013483133 9.2255591e-39 338 241
0.025751207 0.773 -0.0013553266 9.3177548e-39 339 241
0.027106533 0.773 -0.0013553266 1.0697134e-38 340 241
-0.047497798 0.77399999 -0.0027141599 1.5303746e-38 285 242
-0.046140719 0.77399999 -0.0027141599 1.4384278e-38 286 242
-0.044783637 0.77399999 -0.0027141599 1.1987192e-38 287 242
-0.043426558 0.77399999 -0.0027141599 1.116169e-38 288 242
-0.04190642 0.77100003 -0.0027036399 1.0239375e-38 289 242
-0.040554602 0.77100003 -0.0027036399 9.689033e-39 290 242
-0.038999394 0.76700002 -0.0026896133 9.4128048e-39 291 242
-0.037605491 0.76599997 -0.0026861064 9.0450929e-39 292 242
-0.036167759 0.764 -0.0026790933 9.0450929e-39 293 242
-0.034737039 0.76200002 -0.00267208 8.5866539e-39 294 242
-0.033401001 0.76200002 -0.00267208 9.1398277e-39 295 242
-0.032022879 0.76099998 -0.0026685731 1.0430258e-38 296 242
-0.030688593 0.76099998 -0.0026685731 1.2181615e-38 297 242
-0.029354304 0.76099998 -0.0026685731 1.2272716e-38 298 242
-0.028020019 0.76099998 -0.0026685731 1.0889782e-38 299 242
-0.026615599 0.759 -0.00266156 1.0795364e-38 300 242
-0.025284819 0.759 -0.00266156 1.0149994e-38 301 242
-0.023954039 0.759 -0.00266156 9.5067675e-39 302 242
-0.02262326 0.759 -0.00266156 9.3223791e-39 303 242
-0.02129248 0.759 -0.00266156 9.2301848e-39 304 242
-0.019909101 0.75700003 -0.0026545466 9.1379906e-39 305 242
-0.018581826 0.75700003 -0.0026545466 9.4131384e-39 306 242
-0.017254554 0.75700003 -0.0026545466 9.5053326e-39 307 242
-0.015927281 0.75700003 -0.0026545466 1.0147827e-38 308 242
-0.014600007 0.75700003 -0.0026545466 1.0147827e-38 309 242
-0.013272733 0.75700003 -0.0026545466 1.0515166e-38 310 242
-0.01194546 0.75700003 -0.0026545466 1.0515166e-38 311 242
-0.01064624 0.759 -0.00266156 1.0426199e-38 312 242
-0.00931546 0.759 -0.00266156 1.0610587e-38 313 242
-0.0079846792 0.759 -0.00266156 1.1619701e-38 314 242
-0.0066538998 0.759 -0.00266156 1.1435313e-38 315 242
-0.0053231199 0.759 -0.00266156 1.0791388e-38 316 242
-0.0039923396 0.759 -0.00266156 1.0607e-38 317 242
-0.00266156 0.759 -0.00266156 1.0147464e-38 318 242
-0.00133078 0.759 -0.00266156 1.0147464e-38 319 242
0 0.759 -0.00266156 1.0605638e-38 320 242
0.00133078 0.759 -0.00266156 1.3463704e-38 321 242
0.00266156 0.759 -0.00266156 1.6042017e-38 322 242
0.0040028598 0.76099998 -0.0026685731 1.4659083e-38 323 242
0.0053371461 0.76099998 -0.0026685731 1.2538956e-38 324 242
0.0066714329 0.76099998 -0.0026685731 1.1063826e-38 325 242
0.0080057196 0.76099998 -0.0026685731 1.0420624e-38 326 242
0.0093400059 0.76099998 -0.0026685731 9.7752549e-39 327 242
0.010674292 0.76099998 -0.0026685731 9.0398563e-39 328 242
0.012008579 0.76099998 -0.0026685731 1.023876e-38 329 242
0.0133604 0.76200002 -0.00267208 1.0607537e-38 330 242
0.01469644 0.76200002 -0.00267208 1.0054363e-38 331 242
0.01603248 0.76200002 -0.00267208 1.1155668e-38 332 242
0.017414106 0.764 -0.0026790933 1.1340418e-38 333 242
0.018802745 0.76599997 -0.0026861064 1.0421308e-38 334 242
0.020172099 0.76700002 -0.0026896133 9.1305693e-39 335 242
0.021573013 0.76899999 -0.0026966266 8.2103534e-39 336 242
0.022921326 0.76899999 -0.0026966266 8.8557228e-39 337 242
0.024269639 0.76899999 -0.0026966266 8.6741972e-39 338 242
0.025751207 0.773 -0.0027106532 9.2273696e-39 339 242
0.027106533 0.773 -0.0027106532 1.1064487e-38 340 242
-0.047620531 0.77600002 -0.0040817601 1.5396297e-38 285 243
-0.046259947 0.77600002 -0.0040817601 1.4569391e-38 286 243
-0.044899363 0.77600002 -0.0040817601 1.2264502e-38 287 243
-0.043426558 0.77399999 -0.0040712398 1.1529763e-38 288 243
-0.042015124 0.773 -0.0040659797 1.0792197e-38 289 243
-0.040554602 0.77100003 -0.0040554604 1.0241489e-38 290 243
-0.038999394 0.76700002 -0.00403442 9.6883169e-39 291 243
-0.037654586 0.76700002 -0.00403442 9.2298331e-39 292 243
-0.036167759 0.764 -0.0040186401 8.9532476e-39 293 243
-0.034737039 0.76200002 -0.0040081199 8.6781237e-39 294 243
-0.033401001 0.76200002 -0.0040081199 9.139462e-39 295 243
-0.032064959 0.76200002 -0.0040081199 9.6019423e-39 296 243
-0.030688593 0.76099998 -0.0040028598 1.2091224e-38 297 243
-0.029354304 0.76099998 -0.0040028598 1.3103594e-38 298 243
-0.028020019 0.76099998 -0.0040028598 1.1905051e-38 299 243
-0.026685731 0.76099998 -0.0040028598 1.1351836e-38 300 243
-0.025351444 0.76099998 -0.0040028598 1.0522076e-38 301 243
-0.023954039 0.759 -0.0039923396 1.0059245e-38 302 243
-0.02262326 0.759 -0.0039923396 9.0450929e-39 303 243
-0.021348584 0.76099998 -0.0040028598 9.4134971e-39 304 243
-0.0199617 0.759 -0.0039923396 9.4134971e-39 305 243
-0.01863092 0.759 -0.0039923396 9.4127796e-39 306 243
-0.017300138 0.759 -0.0039923396 9.4127796e-39 307 243
-0.015969358 0.759 -0.0039923396 9.7801216e-39 308 243
-0.014600007 0.75700003 -0.0039818203 9.7801216e-39 309 243
-0.013272733 0.75700003 -0.0039818203 9.9641513e-39 310 243
-0.01194546 0.75700003 -0.0039818203 9.7801216e-39 311 243
-0.010618187 0.75700003 -0.0039818203 9.5071276e-39 312 243
-0.0092909131 0.75700003 -0.0039818203 1.0152497e-38 313 243
-0.0079636406 0.75700003 -0.0039818203 1.1804102e-38 314 243
-0.0066363667 0.75700003 -0.0039818203 1.143568e-38 315 243
-0.0053090933 0.75700003 -0.0039818203 1.0976135e-38 316 243
-0.0039923396 0.759 -0.0039923396 1.0791388e-38 317 243
-0.00266156 0.759 -0.0039923396 1.0423692e-38 318 243
-0.00133078 0.759 -0.0039923396 1.0792474e-38 319 243
0 0.759 -0.0039923396 1.0975873e-38 320 243
0.00133078 0.759 -0.0039923396 1.3465154e-38 321 243
0.00266156 0.759 -0.0039923396 1.5122586e-38 322 243
0.0039923396 0.759 -0.0039923396 1.3831847e-38 323 243
0.0053371461 0.76099998 -0.0040028598 1.1801744e-38 324 243
0.0066714329 0.76099998 -0.0040028598 9.6812446e-39 325 243
0.0080057196 0.76099998 -0.0040028598 7.934215e-39 326 243
0.0093400059 0.76099998 -0.0040028598 8.2108033e-39 327 243
0.010674292 0.76099998 -0.0040028598 8.6703619e-39 328 243
0.012008579 0.76099998 -0.0040028598 9.8685449e-39 329 243
0.0133604 0.76200002 -0.0040081199 9.7785017e-39 330 243
0.01469644 0.76200002 -0.0040081199 1.0054728e-38 331 243
0.016074561 0.764 -0.0040186401 1.1158545e-38 332 243
0.017414106 0.764 -0.0040186401 1.1435132e-38 333 243
0.018802745 0.76599997 -0.0040291594 1.0791167e-38 334 243
0.020172099 0.76700002 -0.00403442 9.3160368e-39 335 243
0.021573013 0.76899999 -0.0040449398 8.2103506e-39 336 243
0.022921326 0.76899999 -0.0040449398 8.85572e-39 337 243
0.024269639 0.76899999 -0.0040449398 9.0415406e-39 338 243
0.025617953 0.76899999 -0.0040449398 9.7791057e-39 339 243
-0.046259947 0.77600002 -0.0054423464 1.4936746e-38 286 244
-0.044899363 0.77600002 -0.0054423464 1.3000638e-38 287 244
-0.043426558 0.77399999 -0.0054283198 1.1988949e-38 288 244
-0.042015124 0.773 -0.0054213065 1.1251384e-38 289 244
-0.040554602 0.77100003 -0.0054072798 1.0701393e-38 290 244
-0.039101087 0.76899999 -0.0053932532 1.0056023e-38 291 244
-0.037654586 0.76700002 -0.0053792265 9.1383633e-39 292 244
-0.036262438 0.76599997 -0.0053722127 8.9539721e-39 293 244
-0.034828212 0.764 -0.0053581866 8.7703165e-39 294 244
-0.033401001 0.76200002 -0.0053441599 9.0472635e-39 295 244
-0.032064959 0.76200002 -0.0053441599 8.588861e-39 296 244
-0.030688593 0.76099998 -0.0053371461 9.8795998e-39 297 244
-0.029354304 0.76099998 -0.0053371461 1.0527528e-38 298 244
-0.028020019 0.76099998 -0.0053371461 1.2279245e-38 299 244
-0.026685731 0.76099998 -0.0053371461 1.3288708e-38 300 244
-0.025351444 0.76099998 -0.0053371461 1.2735534e-38 301 244
-0.023954039 0.759 -0.0053231199 1.2638262e-38 302 244
-0.02262326 0.759 -0.0053231199 1.097874e-38 303 244
-0.02129248 0.759 -0.0053231199 9.8744963e-39 304 244
-0.0199617 0.759 -0.0053231199 9.5982695e-39 305 244
-0.01863092 0.759 -0.0053231199 9.5056913e-39 306 244
-0.017254554 0.75700003 -0.0053090933 9.4134971e-39 307 244
-0.015927281 0.75700003 -0.0053090933 9.50605e-39 308 244
-0.014600007 0.75700003 -0.0053090933 9.4138558e-39 309 244
-0.013272733 0.75700003 -0.0053090933 9.4134971e-39 310 244
-0.01194546 0.75700003 -0.0053090933 9.50605e-39 311 244
-0.010618187 0.75700003 -0.0053090933 9.8730347e-39 312 244
-0.0092909131 0.75700003 -0.0053090933 1.0610601e-38 313 244
-0.0079636406 0.75700003 -0.0053090933 1.1252734e-38 314 244
-0.0066363667 0.75700003 -0.0053090933 1.1068341e-38 315 244
-0.0053090933 0.75700003 -0.0053090933 1.1159448e-38 316 244
-0.0039818203 0.75700003 -0.0053090933 1.1066895e-38 317 244
-0.0026545466 0.75700003 -0.0053090933 1.0791395e-38 318 244
-0.0013272733 0.75700003 -0.0053090933 1.0975787e-38 319 244
0 0.759 -0.0053231199 1.0056434e-38 320 244
0.00133078 0.759 -0.0053231199 1.2545357e-38 321 244
0.00266156 0.759 -0.0053231199 1.3374112e-38 322 244
0.0039923396 0.759 -0.0053231199 1.2451795e-38 323 244
0.0053371461 0.76099998 -0.0053371461 1.1618079e-38 324 244
0.0066714329 0.76099998 -0.0053371461 1.0511371e-38 325 244
0.0080057196 0.76099998 -0.0053371461 9.6841355e-39 326 244
0.0093400059 0.76099998 -0.0053371461 1.0237309e-38 327 244
0.010674292 0.76099998 -0.0053371461 1.0697217e-38 328 244
0.012008579 0.76099998 -0.0053371461 1.1065641e-38 329 244
0.0133604 0.76200002 -0.0053441599 1.0511021e-38 330 244
0.01469644 0.76200002 -0.0053441599 1.0234794e-38 331 244
0.016074561 0.764 -0.0053581866 8.7657777e-39 332 244
0.017414106 0.764 -0.0053581866 9.8717665e-39 333 244
0.018753653 0.764 -0.0053581866 1.0885883e-38 334 244
0.020145798 0.76599997 -0.0053722127 9.0416107e-39 335 244
0.021516906 0.76700002 -0.0053792265 8.3936657e-39 336 244
0.022921326 0.76899999 -0.0053932532 9.0390351e-39 337 244
0.024269639 0.76899999 -0.0053932532 9.1337391e-39 338 244
0.025751207 0.773 -0.0054213065 1.0147531e-38 339 244
-0.044899363 0.77600002 -0.0068029333 1.3828603e-38 287 245
-0.043426558 0.77399999 -0.0067853997 1.2631798e-38 288 245
-0.042069476 0.77399999 -0.0067853997 1.1617646e-38 289 245
-0.0406598 0.773 -0.0067766332 1.0976184e-38 290 245
-0.03920278 0.77100003 -0.0067590997 1.0699237e-38 291 245
-0.037654586 0.76700002 -0.006724033 9.4142272e-39 292 245
-0.036262438 0.76599997 -0.0067152665 9.2294772e-39 293 245
-0.034828212 0.764 -0.006697733 8.8614233e-39 294 245
-0.033401001 0.76200002 -0.0066801999 9.1380102e-39 295 245
-0.032064959 0.76200002 -0.0066801999 8.4962758e-39 296 245
-0.030728921 0.76200002 -0.0066801999 8.5884714e-39 297 245
-0.029354304 0.76099998 -0.0066714329 7.9492747e-39 298 245
-0.028020019 0.76099998 -0.0066714329 1.1268317e-38 299 245
-0.026685731 0.76099998 -0.0066714329 1.5037927e-38 300 245
-0.025351444 0.76099998 -0.0066714329 1.476134e-38 301 245
-0.023954039 0.759 -0.0066538998 1.2832052e-38 302 245
-0.02262326 0.759 -0.0066538998 1.1172172e-38 303 245
-0.02129248 0.759 -0.0066538998 9.8781536e-39 304 245
-0.0199617 0.759 -0.0066538998 8.9561973e-39 305 245
-0.01863092 0.759 -0.0066538998 9.5067745e-39 306 245
-0.017254554 0.75700003 -0.0066363667 9.4145775e-39 307 245
-0.015927281 0.75700003 -0.0066363667 9.414932e-39 308 245
-0.014600007 0.75700003 -0.0066363667 9.414932e-39 309 245
-0.013272733 0.75700003 -0.0066363667 9.414932e-39 310 245
-0.01194546 0.75700003 -0.0066363667 9.3227378e-39 311 245
-0.010618187 0.75700003 -0.0066363667 9.5064088e-39 312 245
-0.0092909131 0.75700003 -0.0066363667 9.8751871e-39 313 245
-0.0079636406 0.75700003 -0.0066363667 1.0149989e-38 314 245
-0.0066188332 0.755 -0.0066188332 1.0057793e-38 315 245
-0.0052950666 0.755 -0.0066188332 1.0332216e-38 316 245
-0.0039818203 0.75700003 -0.0066363667 1.0240021e-38 317 245
-0.0026545466 0.75700003 -0.0066363667 1.0056724e-38 318 245
-0.0013272733 0.75700003 -0.0066363667 1.033367e-38 319 245
0 0.75700003 -0.0066363667 9.5032601e-39 320 245
0.0013272733 0.75700003 -0.0066363667 1.1992542e-38 321 245
0.0026545466 0.75700003 -0.0066363667 1.2637616e-38 322 245
0.0039923396 0.759 -0.0066538998 1.2084442e-38 323 245
0.0053231199 0.759 -0.0066538998 1.2448558e-38 324 245
0.0066538998 0.759 -0.0066538998 1.1710993e-38 325 245
0.0080057196 0.76099998 -0.0066714329 1.1528048e-38 326 245
0.0093400059 0.76099998 -0.0066714329 1.1896829e-38 327 245
0.010674292 0.76099998 -0.0066714329 1.1435848e-38 328 245
0.012008579 0.76099998 -0.0066714329 1.0606088e-38 329 245
0.0133604 0.76200002 -0.0066801999 9.7752353e-39 330 245
0.01469644 0.76200002 -0.0066801999 9.6830397e-39 331 245
0.016074561 0.764 -0.006697733 9.2249384e-39 332 245
0.017414106 0.764 -0.006697733 9.9625034e-39 333 245
0.018753653 0.764 -0.006697733 1.0148669e-38 334 245
0.020145798 0.76599997 -0.0067152665 8.8579299e-39 335 245
0.021516906 0.76700002 -0.006724033 8.3032721e-39 336 245
0.02298094 0.77100003 -0.0067590997 8.8564459e-39 337 245
0.02433276 0.77100003 -0.0067590997 9.5010923e-39 338 245
0.025751207 0.773 -0.0067766332 1.0330854e-38 339 245
-0.044899363 0.77600002 -0.0081635201 1.4473617e-38 287 246
-0.043426558 0.77399999 -0.0081424797 1.3460135e-38 288 246
-0.042069476 0.77399999 -0.0081424797 1.20772e-38 289 246
-0.0406598 0.773 -0.0081319595 1.1160225e-38 290 246
-0.03920278 0.77100003 -0.0081109209 1.0791084e-38 291 246
-0.037654586 0.76700002 -0.00806884 9.415323e-39 292 246
-0.036262438 0.76599997 -0.0080583189 8.8621492e-39 293 246
-0.034828212 0.764 -0.0080372803 8.7703067e-39 294 246
-0.033401001 0.76200002 -0.0080162399 8.6777523e-39 295 246
-0.032064959 0.76200002 -0.0080162399 8.8621464e-39 296 246
-0.030728921 0.76200002 -0.0080162399 9.0465363e-39 297 246
-0.029354304 0.76099998 -0.0080057196 7.4864623e-39 298 246
-0.028020019 0.76099998 -0.0080057196 9.1456235e-39 299 246
-0.026685731 0.76099998 -0.0080057196 1.0982741e-38 300 246
-0.025284819 0.759 -0.0079846792 1.1259328e-38 301 246
-0.023954039 0.759 -0.0079846792 1.1537713e-38 302 246
-0.02262326 0.759 -0.0079846792 1.1445517e-38 303 246
-0.02129248 0.759 -0.0079846792 9.7856077e-39 304 246
-0.0199617 0.759 -0.0079846792 9.0480427e-39 305 246
-0.01863092 0.759 -0.0079846792 9.4171222e-39 306 246
-0.017254554 0.75700003 -0.0079636406 9.1401752e-39 307 246
-0.015927281 0.75700003 -0.0079636406 9.4163796e-39 308 246
-0.014600007 0.75700003 -0.0079636406 9.3238252e-39 309 246
-0.013272733 0.75700003 -0.0079636406 9.5078465e-39 310 246
-0.01194546 0.75700003 -0.0079636406 9.3238154e-39 311 246
-0.010618187 0.75700003 -0.0079636406 9.5071262e-39 312 246
-0.0092909131 0.75700003 -0.0079636406 9.5071262e-39 313 246
-0.0079636406 0.75700003 -0.0079636406 1.014854e-38 314 246
-0.0066188332 0.755 -0.0079425992 1.0056346e-38 315 246
-0.0052950666 0.755 -0.0079425992 1.0055628e-38 316 246
-0.0039818203 0.75700003 -0.0079636406 1.0147822e-38 317 246
-0.0026545466 0.75700003 -0.0079636406 9.9645115e-39 318 246
-0.0013272733 0.75700003 -0.0079636406 1.0332935e-38 319 246
0 0.75700003 -0.0079636406 9.0437042e-39 320 246
0.0013272733 0.75700003 -0.0079636406 1.1072009e-38 321 246
0.0026545466 0.75700003 -0.0079636406 1.3280817e-38 322 246
0.0039923396 0.759 -0.0079846792 1.3373013e-38 323 246
0.0053231199 0.759 -0.0079846792 1.346271e-38 324 246
0.0066538998 0.759 -0.0079846792 1.2171971e-38 325 246
0.0080057196 0.76099998 -0.0080057196 1.1525896e-38 326 246
0.0093400059 0.76099998 -0.0080057196 1.1710646e-38 327 246
0.010674292 0.76099998 -0.0080057196 1.1067441e-38 328 246
0.012008579 0.76099998 -0.0080057196 1.0606463e-38 329 246
0.0133604 0.76200002 -0.0080162399 1.0515693e-38 330 246
0.01469644 0.76200002 -0.0080162399 1.0792281e-38 331 246
0.016074561 0.764 -0.0080372803 1.2632224e-38 332 246
0.017414106 0.764 -0.0080372803 1.1986854e-38 333 246
0.018802745 0.76599997 -0.0080583189 9.5922481e-39 334 246
0.020172099 0.76700002 -0.00806884 8.5784549e-39 335 246
0.021516906 0.76700002 -0.00806884 8.2121499e-39 336 246
0.02298094 0.77100003 -0.0081109209 8.7653237e-39 337 246
0.024395877 0.773 -0.0081319595 9.5010951e-39 338 246
0.025751207 0.773 -0.0081319595 1.088403e-38 339 246
-0.044899363 0.77600002 -0.009524107 1.4565818e-38 287 247
-0.043538772 0.77600002 -0.009524107 1.3737813e-38 288 247
-0.042069476 0.77399999 -0.0094995592 1.2170489e-38 289 247
-0.0406598 0.773 -0.0094872871 1.1528652e-38 290 247
-0.03920278 0.77100003 -0.0094627403 1.0975478e-38 291 247
-0.037654586 0.76700002 -0.0094136465 1.0333667e-38 292 247
-0.036309779 0.76700002 -0.0094136465 9.8723284e-39 293 247
-0.034919381 0.76599997 -0.0094013726 9.3213099e-39 294 247
-0.033488665 0.764 -0.0093768267 9.2291142e-39 295 247
-0.032064959 0.76200002 -0.0093522798 8.7703221e-39 296 247
-0.030728921 0.76200002 -0.0093522798 8.8625177e-39 297 247
-0.029354304 0.76099998 -0.0093400059 7.5757614e-39 298 247
-0.028020019 0.76099998 -0.0093400059 7.8523483e-39 299 247
-0.026685731 0.76099998 -0.0093400059 9.2324185e-39 300 247
-0.025284819 0.759 -0.00931546 9.6008409e-39 301 247
-0.023954039 0.759 -0.00931546 9.6023052e-39 302 247
-0.02262326 0.759 -0.00931546 9.7870566e-39 303 247
-0.021348584 0.76099998 -0.0093400059 9.3249827e-39 304 247
-0.0199617 0.759 -0.00931546 9.1405914e-39 305 247
-0.01863092 0.759 -0.00931546 9.324219e-39 306 247
-0.017300138 0.759 -0.00931546 9.1398277e-39 307 247
-0.015969358 0.759 -0.00931546 9.4160236e-39 308 247
-0.014600007 0.75700003 -0.0092909131 9.4160236e-39 309 247
-0.013272733 0.75700003 -0.0092909131 9.6915189e-39 310 247
-0.01194546 0.75700003 -0.0092909131 9.6915189e-39 311 247
-0.010618187 0.75700003 -0.0092909131 9.6907972e-39 312 247
-0.0092909131 0.75700003 -0.0092909131 9.5067675e-39 313 247
-0.0079636406 0.75700003 -0.0092909131 9.5978855e-39 314 247
-0.0066363667 0.75700003 -0.0092909131 9.5056913e-39 315 247
-0.0053090933 0.75700003 -0.0092909131 9.5968093e-39 316 247
-0.0039818203 0.75700003 -0.0092909131 9.6890036e-39 317 247
-0.0026545466 0.75700003 -0.0092909131 9.4142272e-39 318 247
-0.0013272733 0.75700003 -0.0092909131 9.5986198e-39 319 247
0 0.75700003 -0.0092909131 9.228806e-39 320 247
0.0013272733 0.75700003 -0.0092909131 9.966371e-39 321 247
0.0026545466 0.75700003 -0.0092909131 1.1625239e-38 322 247
0.0039923396 0.759 -0.00931546 1.3008174e-38 323 247
0.0053231199 0.759 -0.00931546 1.3648901e-38 324 247
0.0066538998 0.759 -0.00931546 1.2358162e-38 325 247
0.0080057196 0.76099998 -0.0093400059 1.115999e-38 326 247
0.0093400059 0.76099998 -0.0093400059 1.1620968e-38 327 247
0.010674292 0.76099998 -0.0093400059 1.2261668e-38 328 247
0.01202436 0.76200002 -0.0093522798 1.2261668e-38 329 247
0.0133604 0.76200002 -0.0093522798 1.2263461e-38 330 247
0.01469644 0.76200002 -0.0093522798 1.2540408e-38 331 247
0.016074561 0.764 -0.0093768267 1.2724423e-38 332 247
0.017414106 0.764 -0.0093768267 1.1894661e-38 333 247
0.018802745 0.76599997 -0.0094013726 8.8543131e-39 334 247
0.020172099 0.76700002 -0.0094136465 8.5777263e-39 335 247
0.021516906 0.76700002 -0.0094136465 8.7642461e-39 336 247
0.02298094 0.77100003 -0.0094627403 9.2255844e-39 337 247
0.024395877 0.773 -0.0094872871 9.9606481e-39 338 247
-0.044783637 0.77399999 -0.01085664 1.4933524e-38 287 248
-0.043426558 0.77399999 -0.01085664 1.3738906e-38 288 248
-0.042069476 0.77399999 -0.01085664 1.2263776e-38 289 248
-0.0406598 0.773 -0.010842613 1.1620513e-38 290 248
-0.03920278 0.77100003 -0.01081456 1.1159536e-38 291 248
-0.037654586 0.76700002 -0.010758453 1.015039e-38 292 248
-0.036309779 0.76700002 -0.010758453 9.5972157e-39 293 248
-0.034919381 0.76599997 -0.010744425 9.138013e-39 294 248
-0.033488665 0.764 -0.010716373 8.953263e-39 295 248
-0.032064959 0.76200002 -0.01068832 8.6781055e-39 296 248
-0.030728921 0.76200002 -0.01068832 8.6781055e-39 297 248
-0.029354304 0.76099998 -0.010674292 8.4948086e-39 298 248
-0.028020019 0.76099998 -0.010674292 8.5870042e-39 299 248
-0.026685731 0.76099998 -0.010674292 8.4944709e-39 300 248
-0.025284819 0.759 -0.01064624 8.9558092e-39 301 248
-0.023954039 0.759 -0.01064624 9.1402201e-39 302 248
-0.02262326 0.759 -0.01064624 9.1402201e-39 303 248
-0.021348584 0.76099998 -0.010674292 8.8636262e-39 304 248
-0.020014299 0.76099998 -0.010674292 8.9561805e-39 305 248
-0.018680012 0.76099998 -0.010674292 9.2313171e-39 306 248
-0.017345725 0.76099998 -0.010674292 9.3238728e-39 307 248
-0.015969358 0.759 -0.01064624 9.5075312e-39 308 248
-0.014638579 0.759 -0.01064624 9.600087e-39 309 248
-0.0133078 0.759 -0.01064624 9.6004345e-39 310 248
-0.01197702 0.759 -0.01064624 9.5082375e-39 311 248
-0.010618187 0.75700003 -0.010618187 9.5082221e-39 312 248
-0.0092909131 0.75700003 -0.010618187 9.4160264e-39 313 248
-0.0079636406 0.75700003 -0.010618187 9.5978855e-39 314 248
-0.0066363667 0.75700003 -0.010618187 9.5053326e-39 315 248
-0.0053090933 0.75700003 -0.010618187 9.6886448e-39 316 248
-0.0039818203 0.75700003 -0.010618187 9.7808391e-39 317 248
-0.0026545466 0.75700003 -0.010618187 9.5053326e-39 318 248
-0.0013272733 0.75700003 -0.010618187 9.782274e-39 319 248
0 0.75700003 -0.010618187 9.7805098e-39 320 248
0.00133078 0.759 -0.01064624 1.0057095e-38 321 248
0.00266156 0.759 -0.01064624 9.0473336e-39 322 248
0.0040028598 0.76099998 -0.010674292 1.1075996e-38 323 248
0.0053371461 0.76099998 -0.010674292 1.2821654e-38 324 248
0.0066714329 0.76099998 -0.010674292 1.2453232e-38 325 248
0.0080057196 0.76099998 -0.010674292 1.3187568e-38 326 248
0.0093400059 0.76099998 -0.010674292 1.3556352e-38 327 248
0.01068832 0.76200002 -0.01068832 1.336729e-38 328 248
0.01202436 0.76200002 -0.01068832 1.1800325e-38 329 248
0.0133604 0.76200002 -0.01068832 1.2168028e-38 330 248
0.014735013 0.764 -0.010716373 1.318218e-38 331 248
0.016074561 0.764 -0.010716373 1.0974132e-38 332 248
0.017414106 0.764 -0.010716373 9.0380234e-39 333 248
0.018802745 0.76599997 -0.010744425 8.4858781e-39 334 248
0.020172099 0.76700002 -0.010758453 8.8550194e-39 335 248
0.021573013 0.76899999 -0.010786506 8.9479227e-39 336 248
0.02307036 0.77399999 -0.01085664 9.4085407e-39 337 248
0.02442744 0.77399999 -0.01085664 1.032872e-38 338 248
-0.044783637 0.77399999 -0.01221372 1.5025723e-38 287 249
-0.043426558 0.77399999 -0.01221372 1.4015499e-38 288 249
-0.042069476 0.77399999 -0.01221372 1.2908792e-38 289 249
-0.0406598 0.773 -0.012197939 1.1988949e-38 290 249
-0.03920278 0.77100003 -0.01216638 1.1527611e-38 291 249
-0.03775277 0.76899999 -0.012134819 1.0424828e-38 292 249
-0.036309779 0.76700002 -0.01210326 1.0147881e-38 293 249
-0.034964975 0.76700002 -0.01210326 9.5053648e-39 294 249
-0.033576332 0.76599997 -0.012087479 9.3209722e-39 295 249
-0.032149121 0.764 -0.01205592 8.7703067e-39 296 249
-0.030728921 0.76200002 -0.01202436 8.6777523e-39 297 249
-0.029392879 0.76200002 -0.01202436 8.4022599e-39 298 249
-0.028020019 0.76099998 -0.012008579 8.4022599e-39 299 249
-0.026685731 0.76099998 -0.012008579 8.4019095e-39 300 249
-0.025351444 0.76099998 -0.012008579 8.6784978e-39 301 249
-0.024017159 0.76099998 -0.012008579 9.0472789e-39 302 249
-0.022682872 0.76099998 -0.012008579 9.1394746e-39 303 249
-0.021348584 0.76099998 -0.012008579 8.9558092e-39 304 249
-0.020014299 0.76099998 -0.012008579 8.9558092e-39 305 249
-0.018680012 0.76099998 -0.012008579 9.1398431e-39 306 249
-0.017345725 0.76099998 -0.012008579 9.1398431e-39 307 249
-0.016011439 0.76099998 -0.012008579 9.4164216e-39 308 249
-0.014638579 0.759 -0.01197702 9.4164216e-39 309 249
-0.0133078 0.759 -0.01197702 9.4171222e-39 310 249
-0.01197702 0.759 -0.01197702 9.4171222e-39 311 249
-0.010618187 0.75700003 -0.01194546 9.78373e-39 312 249
-0.0092909131 0.75700003 -0.01194546 9.6915343e-39 313 249
-0.0079636406 0.75700003 -0.01194546 9.782274e-39 314 249
-0.0066363667 0.75700003 -0.01194546 9.5975268e-39 315 249
-0.0053090933 0.75700003 -0.01194546 9.5975268e-39 316 249
-0.0039818203 0.75700003 -0.01194546 9.5975268e-39 317 249
-0.0026545466 0.75700003 -0.01194546 9.5978855e-39 318 249
-0.0013272733 0.75700003 -0.01194546 9.782274e-39 319 249
0 0.759 -0.01197702 9.782288e-39 320 249
0.00133078 0.759 -0.01197702 9.782288e-39 321 249
0.0026685731 0.76099998 -0.012008579 9.5043166e-39 322 249
0.0040028598 0.76099998 -0.012008579 1.0334077e-38 323 249
0.0053371461 0.76099998 -0.012008579 1.1437977e-38 324 249
0.0066714329 0.76099998 -0.012008579 1.2083346e-38 325 249
0.0080162399 0.76200002 -0.01202436 1.2360681e-38 326 249
0.0093522798 0.76200002 -0.01202436 1.3374475e-38 327 249
0.01068832 0.76200002 -0.01202436 1.3186496e-38 328 249
0.01202436 0.76200002 -0.01202436 1.0328071e-38 329 249
0.0133604 0.76200002 -0.01202436 1.1060602e-38 330 249
0.014735013 0.764 -0.01205592 1.2812318e-38 331 249
0.016074561 0.764 -0.01205592 1.0235471e-38 332 249
0.017414106 0.764 -0.01205592 8.1153314e-39 333 249
0.018802745 0.76599997 -0.012087479 8.4876634e-39 334 249
0.020172099 0.76700002 -0.01210326 8.7638902e-39 335 249
0.021685226 0.773 -0.012197939 8.9479227e-39 336 249
0.02307036 0.77399999 -0.01221372 9.5010951e-39 337 249
0.024490559 0.77600002 -0.01224528 1.0513118e-38 338 249
-0.043370452 0.773 -0.013553266 1.4014792e-38 288 250
-0.042015124 0.773 -0.013553266 1.3185032e-38 289 250
-0.0406598 0.773 -0.013553266 1.2632536e-38 290 250
-0.039304473 0.773 -0.013553266 1.1987167e-38 291 250
-0.03775277 0.76899999 -0.013483133 1.0792888e-38 292 250
-0.036404461 0.76899999 -0.013483133 1.0515942e-38 293 250
-0.034964975 0.76700002 -0.013448066 9.6904679e-39 294 250
-0.033576332 0.76599997 -0.013430533 9.4135223e-39 295 250
-0.032149121 0.764 -0.013395466 9.138013e-39 296 250
-0.030809574 0.764 -0.013395466 8.953263e-39 297 250
-0.029392879 0.76200002 -0.0133604 8.6777551e-39 298 250
-0.028056841 0.76200002 -0.0133604 8.5855595e-39 299 250
