# .PCD v.7 - Point Cloud Data file format
FIELDS x y z rgb imX imY
SIZE 4 4 4 4 4 4
TYPE F F F F F F
COUNT 1 1 1 1 1 1
WIDTH 839
HEIGHT 1
VIEWPOINT 0 0 0 1 0 0 0
POINTS 839
DATA ascii
-0.0086404262 0.704 -0.061717331 5.3322153e-39 313 290
-0.0073955595 0.70300001 -0.061629668 4.9623566e-39 314 290
-0.0061629666 0.70300001 -0.061629668 4.685411e-39 315 290
-0.0049163462 0.70099998 -0.06145433 4.1351099e-39 316 290
-0.0036872597 0.70099998 -0.06145433 3.9510787e-39 317 290
-0.0024546667 0.69999999 -0.061366666 3.767049e-39 318 290
-0.0012238267 0.69800001 -0.061191335 3.4908251e-39 319 290
0 0.69800001 -0.061191335 3.6734198e-39 320 290
0.0012238267 0.69800001 -0.061191335 3.5815844e-39 321 290
0.0024441467 0.69700003 -0.061103668 4.0407618e-39 322 290
0.0036609597 0.69599998 -0.061015997 4.0407618e-39 323 290
0.0048672534 0.69400001 -0.060840666 3.8570908e-39 324 290
0.0060840664 0.69400001 -0.060840666 3.8570908e-39 325 290
0.0072903596 0.69300002 -0.060752999 3.9489263e-39 326 290
0.008480873 0.69099998 -0.060577665 3.8570908e-39 327 290
0.0096783992 0.69 -0.060489997 3.4897489e-39 328 290
0.010888199 0.69 -0.060489997 3.3979134e-39 329 290
0.012062933 0.68800002 -0.060314666 3.4897489e-39 330 290
0.013269227 0.68800002 -0.060314666 3.4897489e-39 331 290
0.014475521 0.68800002 -0.060314666 3.3979134e-39 332 290
0.015659019 0.68699998 -0.060226995 3.2142424e-39 333 290
0.01686356 0.68699998 -0.060226995 3.3979134e-39 334 290
0.018068098 0.68699998 -0.060226995 3.3979134e-39 335 290
0.019272638 0.68699998 -0.060226995 3.2142424e-39 336 290
0.020477179 0.68699998 -0.060226995 3.3979148e-39 337 290
0.021681719 0.68699998 -0.060226995 3.2142438e-39 338 290
0.022852944 0.68599999 -0.060139328 3.2142438e-39 339 290
0.024055731 0.68599999 -0.060139328 3.3979134e-39 340 290
0.025258519 0.68599999 -0.060139328 3.3979134e-39 341 290
0.026461305 0.68599999 -0.060139328 3.2142424e-39 342 290
0.027664091 0.68599999 -0.060139328 3.2142424e-39 343 290
0.028908957 0.68699998 -0.060226995 3.0305714e-39 344 290
0.030113498 0.68699998 -0.060226995 3.0305714e-39 345 290
0.031318039 0.68699998 -0.060226995 2.8469032e-39 346 290
0.032522578 0.68699998 -0.060226995 2.8469032e-39 347 290
0.033727121 0.68699998 -0.060226995 3.0305714e-39 348 290
0.034931656 0.68699998 -0.060226995 3.0305714e-39 349 290
0.0361888 0.68800002 -0.060314666 2.7550649e-39 350 290
0.037395094 0.68800002 -0.060314666 2.7550649e-39 351 290
0.038601387 0.68800002 -0.060314666 2.6632294e-39 352 290
0.039807681 0.68800002 -0.060314666 2.6632294e-39 353 290
0.041013971 0.68800002 -0.060314666 2.4795584e-39 354 290
0.042342998 0.69 -0.060489997 2.6632294e-39 355 290
0.043615919 0.69099998 -0.060577665 2.5713939e-39 356 290
0.044957221 0.69300002 -0.060752999 2.8469004e-39 357 290
0.046238903 0.69400001 -0.060840666 2.5721114e-39 358 290
0.047592476 0.69599998 -0.061015997 2.9405337e-39 359 290
0.048882935 0.69700003 -0.061103668 2.7579403e-39 360 290
0.050105009 0.69700003 -0.061103668 3.0345272e-39 361 290
0.051327083 0.69700003 -0.061103668 3.2199975e-39 362 290
0.052624546 0.69800001 -0.061191335 3.5884199e-39 363 290
0.054002665 0.69999999 -0.061366666 3.8653641e-39 364 290
0.055308893 0.70099998 -0.06145433 4.3263423e-39 365 290
0.056699295 0.70300001 -0.061629668 5.1568092e-39 366 290
0.057931885 0.70300001 -0.061629668 6.5397436e-39 367 290
0.059248637 0.704 -0.061717331 9.4817151e-39 368 290
-0.011109119 0.704 -0.062951677 8.1027435e-39 311 291
-0.0098747732 0.704 -0.062951677 5.8861024e-39 312 291
-0.0086404262 0.704 -0.062951677 5.1485373e-39 313 291
-0.0073955595 0.70300001 -0.062862262 5.0545494e-39 314 291
-0.0061629666 0.70300001 -0.062862262 4.8701582e-39 315 291
-0.0049303733 0.70300001 -0.062862262 4.2273097e-39 316 291
-0.0036872597 0.70099998 -0.062683418 4.1347539e-39 317 291
-0.0024546667 0.69999999 -0.062593997 3.8592432e-39 318 291
-0.0012273333 0.69999999 -0.062593997 3.767049e-39 319 291
0 0.69999999 -0.062593997 3.7663315e-39 320 291
0.0012238267 0.69800001 -0.062415157 3.7663315e-39 321 291
0.0024476533 0.69800001 -0.062415157 4.0414793e-39 322 291
0.00366622 0.69700003 -0.062325738 4.0414793e-39 323 291
0.0048672534 0.69400001 -0.06205748 3.9489263e-39 324 291
0.0060840664 0.69400001 -0.06205748 3.8570908e-39 325 291
0.0072903596 0.69300002 -0.061968062 4.0407618e-39 326 291
0.0085054198 0.69300002 -0.061968062 4.0407618e-39 327 291
0.0096924258 0.69099998 -0.061789215 3.6734198e-39 328 291
0.010888199 0.69 -0.061699796 3.5815844e-39 329 291
0.012097999 0.69 -0.061699796 3.3979134e-39 330 291
0.013269227 0.68800002 -0.06152096 3.3060779e-39 331 291
0.014475521 0.68800002 -0.06152096 3.3060779e-39 332 291
0.015681813 0.68800002 -0.06152096 3.2142424e-39 333 291
0.016888106 0.68800002 -0.06152096 3.2142424e-39 334 291
0.0180944 0.68800002 -0.06152096 3.2142424e-39 335 291
0.019272638 0.68699998 -0.061431535 3.2142438e-39 336 291
0.020477179 0.68699998 -0.061431535 3.1224069e-39 337 291
0.021681719 0.68699998 -0.061431535 3.0305728e-39 338 291
0.022886258 0.68699998 -0.061431535 3.2142452e-39 339 291
0.024090799 0.68699998 -0.061431535 3.0305714e-39 340 291
0.025295338 0.68699998 -0.061431535 3.0305714e-39 341 291
0.026499879 0.68699998 -0.061431535 3.0305714e-39 342 291
0.027704418 0.68699998 -0.061431535 3.0305714e-39 343 291
0.028908957 0.68699998 -0.061431535 2.9387359e-39 344 291
0.030113498 0.68699998 -0.061431535 2.9387359e-39 345 291
0.031318039 0.68699998 -0.061431535 2.7550649e-39 346 291
0.032522578 0.68699998 -0.061431535 2.7550649e-39 347 291
0.033776212 0.68800002 -0.06152096 2.8469004e-39 348 291
0.03498251 0.68800002 -0.06152096 2.7550649e-39 349 291
0.0361888 0.68800002 -0.06152096 2.7550649e-39 350 291
0.037395094 0.68800002 -0.06152096 2.7550649e-39 351 291
0.038601387 0.68800002 -0.06152096 2.4795584e-39 352 291
0.0399234 0.69 -0.061699796 2.4795584e-39 353 291
0.041133199 0.69 -0.061699796 2.2958874e-39 354 291
0.042342998 0.69 -0.061699796 2.4795584e-39 355 291
0.043615919 0.69099998 -0.061789215 2.5721114e-39 356 291
0.044957221 0.69300002 -0.061968062 2.8483381e-39 357 291
0.046238903 0.69400001 -0.06205748 2.6657447e-39 358 291
0.047592476 0.69599998 -0.062236317 2.850136e-39 359 291
0.048882935 0.69700003 -0.062325738 2.9423344e-39 360 291
0.050105009 0.69700003 -0.062325738 3.2185626e-39 361 291
0.051400717 0.69800001 -0.062415157 3.4955054e-39 362 291
0.052775331 0.69999999 -0.062593997 3.8639292e-39 363 291
0.054079808 0.70099998 -0.062683418 4.1419468e-39 364 291
0.055308893 0.70099998 -0.062683418 4.6032851e-39 365 291
0.056699295 0.70300001 -0.062862262 5.6170643e-39 366 291
0.057931885 0.70300001 -0.062862262 7.6453681e-39 367 291
-0.0098747732 0.704 -0.064186029 6.8087677e-39 312 292
-0.0086404262 0.704 -0.064186029 5.2410833e-39 313 292
-0.0074060797 0.704 -0.064186029 4.6868431e-39 314 292
-0.0061717331 0.704 -0.064186029 4.6868431e-39 315 292
-0.0049303733 0.70300001 -0.064094849 4.5942943e-39 316 292
-0.0036977797 0.70300001 -0.064094849 4.5020987e-39 317 292
-0.0024581731 0.70099998 -0.063912503 4.1347539e-39 318 292
-0.0012290865 0.70099998 -0.063912503 3.8585272e-39 319 292
0 0.69999999 -0.063821331 3.9507228e-39 320 292
0.0012273333 0.69999999 -0.063821331 3.8585272e-39 321 292
0.0024476533 0.69800001 -0.063638985 4.0411206e-39 322 292
0.00366622 0.69700003 -0.06354782 4.0411206e-39 323 292
0.0048882933 0.69700003 -0.06354782 4.0411206e-39 324 292
0.0060840664 0.69400001 -0.063274294 3.9489263e-39 325 292
0.0073008798 0.69400001 -0.063274294 4.1325973e-39 326 292
0.0085054198 0.69300002 -0.063183114 4.1325973e-39 327 292
0.0096924258 0.69099998 -0.063000768 3.9489263e-39 328 292
0.010888199 0.69 -0.062909603 3.8570908e-39 329 292
0.012097999 0.69 -0.062909603 3.7652553e-39 330 292
0.013269227 0.68800002 -0.06272725 3.6734198e-39 331 292
0.014475521 0.68800002 -0.06272725 3.3979134e-39 332 292
0.015681813 0.68800002 -0.06272725 3.3979134e-39 333 292
0.016888106 0.68800002 -0.06272725 3.3060779e-39 334 292
0.0180944 0.68800002 -0.06272725 3.2142424e-39 335 292
0.019300694 0.68800002 -0.06272725 3.2142424e-39 336 292
0.020506985 0.68800002 -0.06272725 3.3060779e-39 337 292
0.021681719 0.68699998 -0.062636077 3.0305714e-39 338 292
0.022886258 0.68699998 -0.062636077 2.8469004e-39 339 292
0.024090799 0.68699998 -0.062636077 3.0305714e-39 340 292
0.025295338 0.68699998 -0.062636077 2.9387359e-39 341 292
0.026499879 0.68699998 -0.062636077 3.0305714e-39 342 292
0.027704418 0.68699998 -0.062636077 3.0305714e-39 343 292
0.028908957 0.68699998 -0.062636077 2.9387359e-39 344 292
0.030113498 0.68699998 -0.062636077 2.9387359e-39 345 292
0.031318039 0.68699998 -0.062636077 2.7550649e-39 346 292
0.032569919 0.68800002 -0.06272725 2.7550649e-39 347 292
0.033776212 0.68800002 -0.06272725 2.7550649e-39 348 292
0.03498251 0.68800002 -0.06272725 2.7550649e-39 349 292
0.036293998 0.69 -0.062909603 2.7550649e-39 350 292
0.037503798 0.69 -0.062909603 2.7550649e-39 351 292
0.038713597 0.69 -0.062909603 2.4795584e-39 352 292
0.0399234 0.69 -0.062909603 2.4795584e-39 353 292
0.041192811 0.69099998 -0.063000768 2.6632294e-39 354 292
0.042527102 0.69300002 -0.063183114 2.9387359e-39 355 292
0.043742158 0.69300002 -0.063183114 2.7572187e-39 356 292
0.044957221 0.69300002 -0.063183114 2.9412498e-39 357 292
0.046238903 0.69400001 -0.063274294 3.1252809e-39 358 292
0.047660861 0.69700003 -0.06354782 3.2174766e-39 359 292
0.048882935 0.69700003 -0.06354782 3.4015105e-39 360 292
0.050176892 0.69800001 -0.063638985 3.6780988e-39 361 292
0.051400717 0.69800001 -0.063638985 3.8632089e-39 362 292
0.052775331 0.69999999 -0.063821331 4.2319914e-39 363 292
0.054079808 0.70099998 -0.063912503 4.3263423e-39 364 292
0.055308893 0.70099998 -0.063912503 5.0639073e-39 365 292
0.056699295 0.70300001 -0.064094849 5.3444346e-39 366 292
0.057931885 0.70300001 -0.064094849 7.8337166e-39 367 292
-0.0099028256 0.70599997 -0.065606222 8.1002254e-39 312 293
-0.0086649731 0.70599997 -0.065606222 5.242521e-39 313 293
-0.0074060797 0.704 -0.065420374 4.5971642e-39 314 293
-0.0061717331 0.704 -0.065420374 4.6893598e-39 315 293
-0.0049373866 0.704 -0.065420374 4.5028204e-39 316 293
-0.0036977797 0.70300001 -0.065327443 4.2262335e-39 317 293
-0.0024651866 0.70300001 -0.065327443 3.9507256e-39 318 293
-0.0012290865 0.70099998 -0.065141588 3.85853e-39 319 293
0 0.69999999 -0.065048665 3.8585272e-39 320 293
0.0012273333 0.69999999 -0.065048665 3.9507228e-39 321 293
0.0024476533 0.69800001 -0.06486281 4.0411206e-39 322 293
0.0036714801 0.69800001 -0.06486281 4.0411206e-39 323 293
0.0048882933 0.69700003 -0.064769886 4.0411234e-39 324 293
0.0061015999 0.69599998 -0.064676955 4.0411234e-39 325 293
0.0073008798 0.69400001 -0.064491108 4.1325987e-39 326 293
0.0085054198 0.69300002 -0.064398177 4.1325987e-39 327 293
0.0097204801 0.69300002 -0.064398177 3.857451e-39 328 293
0.01090398 0.69099998 -0.06421233 3.857451e-39 329 293
0.012097999 0.69 -0.064119399 3.6734198e-39 330 293
0.0133078 0.69 -0.064119399 3.8574496e-39 331 293
0.014475521 0.68800002 -0.063933544 3.3982721e-39 332 293
0.015681813 0.68800002 -0.063933544 3.1224069e-39 333 293
0.016888106 0.68800002 -0.063933544 3.1224069e-39 334 293
0.0180944 0.68800002 -0.063933544 3.1224069e-39 335 293
0.019300694 0.68800002 -0.063933544 3.0305714e-39 336 293
0.020506985 0.68800002 -0.063933544 3.1224069e-39 337 293
0.021713281 0.68800002 -0.063933544 2.9387359e-39 338 293
0.022919573 0.68800002 -0.063933544 2.9387359e-39 339 293
0.024125867 0.68800002 -0.063933544 3.0305714e-39 340 293
0.02533216 0.68800002 -0.063933544 3.0305714e-39 341 293
0.026538454 0.68800002 -0.063933544 2.9387359e-39 342 293
0.027744746 0.68800002 -0.063933544 2.9387359e-39 343 293
0.028951041 0.68800002 -0.063933544 2.7550649e-39 344 293
0.030157333 0.68800002 -0.063933544 2.7550649e-39 345 293
0.031363625 0.68800002 -0.063933544 2.5713939e-39 346 293
0.032569919 0.68800002 -0.063933544 2.5713939e-39 347 293
0.033776212 0.68800002 -0.063933544 2.7550649e-39 348 293
0.035084199 0.69 -0.064119399 2.8469004e-39 349 293
0.036293998 0.69 -0.064119399 2.6632294e-39 350 293
0.037503798 0.69 -0.064119399 2.5713939e-39 351 293
0.038769703 0.69099998 -0.06421233 2.5713939e-39 352 293
0.039981257 0.69099998 -0.06421233 2.5713939e-39 353 293
0.041192811 0.69099998 -0.06421233 2.7561411e-39 354 293
0.042527102 0.69300002 -0.064398177 2.9405337e-39 355 293
0.043742158 0.69300002 -0.064398177 2.9412498e-39 356 293
0.045022093 0.69400001 -0.064491108 3.0338042e-39 357 293
0.046372157 0.69599998 -0.064676955 3.124925e-39 358 293
0.047660861 0.69700003 -0.064769886 3.4937075e-39 359 293
0.048953064 0.69800001 -0.06486281 3.585906e-39 360 293
0.050176892 0.69800001 -0.06486281 3.8624928e-39 361 293
0.051547997 0.69999999 -0.065048665 3.9557647e-39 362 293
0.052775331 0.69999999 -0.065048665 4.4163827e-39 363 293
0.054079808 0.70099998 -0.065141588 4.7858785e-39 364 293
0.055308893 0.70099998 -0.065141588 5.2464965e-39 365 293
0.056699295 0.70300001 -0.065327443 6.5361409e-39 366 293
-0.0099028256 0.70599997 -0.066844068 9.6661092e-39 312 294
-0.0086649731 0.70599997 -0.066844068 6.4392621e-39 313 294
-0.0074060797 0.704 -0.066654719 5.1499694e-39 314 294
-0.0061717331 0.704 -0.066654719 4.9655782e-39 315 294
-0.0049373866 0.704 -0.066654719 4.9623538e-39 316 294
-0.0037030398 0.704 -0.066654719 4.6857669e-39 317 294
-0.0024651866 0.70300001 -0.066560037 4.4098989e-39 318 294
-0.0012325933 0.70300001 -0.066560037 4.4098989e-39 319 294
0 0.70099998 -0.066370681 4.134391e-39 320 294
0.0012273333 0.69999999 -0.066275999 4.134391e-39 321 294
0.0024546667 0.69999999 -0.066275999 4.0411206e-39 322 294
0.0036714801 0.69800001 -0.066086642 4.1333162e-39 323 294
0.0048953067 0.69800001 -0.066086642 4.0411206e-39 324 294
0.0061103669 0.69700003 -0.06599196 4.0411206e-39 325 294
0.0073008798 0.69400001 -0.065707922 4.0414793e-39 326 294
0.0085176928 0.69400001 -0.065707922 4.0414793e-39 327 294
0.0097204801 0.69300002 -0.06561324 4.1336735e-39 328 294
0.010935539 0.69300002 -0.06561324 4.0414793e-39 329 294
0.012115533 0.69099998 -0.065423876 3.9496438e-39 330 294
0.013327086 0.69099998 -0.065423876 3.8574496e-39 331 294
0.014517599 0.69 -0.065329194 3.6741373e-39 332 294
0.015727401 0.69 -0.065329194 3.4897489e-39 333 294
0.0169372 0.69 -0.065329194 3.4897489e-39 334 294
0.018146999 0.69 -0.065329194 3.4897489e-39 335 294
0.019356798 0.69 -0.065329194 3.3060779e-39 336 294
0.020506985 0.68800002 -0.065139838 3.3060779e-39 337 294
0.021713281 0.68800002 -0.065139838 3.0305714e-39 338 294
0.022919573 0.68800002 -0.065139838 2.8469004e-39 339 294
0.024125867 0.68800002 -0.065139838 3.1224069e-39 340 294
0.02533216 0.68800002 -0.065139838 3.1224069e-39 341 294
0.026538454 0.68800002 -0.065139838 3.0305714e-39 342 294
0.027744746 0.68800002 -0.065139838 3.0305714e-39 343 294
0.028951041 0.68800002 -0.065139838 3.0305714e-39 344 294
0.030157333 0.68800002 -0.065139838 3.0305714e-39 345 294
0.031363625 0.68800002 -0.065139838 2.6632294e-39 346 294
0.032664597 0.69 -0.065329194 2.6632294e-39 347 294
0.0338744 0.69 -0.065329194 2.6632294e-39 348 294
0.035135046 0.69099998 -0.065423876 2.8469004e-39 349 294
0.036346599 0.69099998 -0.065423876 2.6632294e-39 350 294
0.03755815 0.69099998 -0.065423876 2.6632294e-39 351 294
0.038769703 0.69099998 -0.065423876 2.7554236e-39 352 294
0.04009698 0.69300002 -0.06561324 2.7554236e-39 353 294
0.041312039 0.69300002 -0.06561324 2.6650231e-39 354 294
0.042588469 0.69400001 -0.065707922 2.9412498e-39 355 294
0.043805279 0.69400001 -0.065707922 2.9412526e-39 356 294
0.045022093 0.69400001 -0.065707922 3.1256439e-39 357 294
0.046438783 0.69700003 -0.06599196 3.3103953e-39 358 294
0.047660861 0.69700003 -0.06599196 3.586622e-39 359 294
0.048953064 0.69800001 -0.066086642 3.8635648e-39 360 294
0.050320663 0.69999999 -0.066275999 4.0479575e-39 361 294
0.051547997 0.69999999 -0.066275999 4.324543e-39 362 294
0.052775331 0.69999999 -0.066275999 4.6933269e-39 363 294
0.054234106 0.70300001 -0.066560037 4.9709858e-39 364 294
0.0554667 0.70300001 -0.066560037 6.0773333e-39 365 294
-0.0099028256 0.70599997 -0.06808193 1.0497666e-38 312 295
-0.0086649731 0.70599997 -0.06808193 7.086428e-39 313 295
-0.0074271196 0.70599997 -0.06808193 5.6102273e-39 314 295
-0.0061892662 0.70599997 -0.06808193 5.4254773e-39 315 295
-0.0049373866 0.704 -0.067889065 4.7797604e-39 316 295
-0.0037030398 0.704 -0.067889065 4.5028148e-39 317 295
-0.0024651866 0.70300001 -0.067792632 4.5028148e-39 318 295
-0.0012325933 0.70300001 -0.067792632 4.2265866e-39 319 295
0 0.70099998 -0.067599766 4.2265866e-39 320 295
0.0012273333 0.69999999 -0.067503333 4.134391e-39 321 295
0.0024546667 0.69999999 -0.067503333 4.1340351e-39 322 295
0.0036714801 0.69800001 -0.06731046 4.0418394e-39 323 295
0.0048953067 0.69800001 -0.06731046 4.0418394e-39 324 295
0.0061103669 0.69700003 -0.067214034 4.0418394e-39 325 295
0.00733244 0.69700003 -0.067214034 4.0421968e-39 326 295
0.0085176928 0.69400001 -0.066924736 4.0421968e-39 327 295
0.0097345067 0.69400001 -0.066924736 4.0411206e-39 328 295
0.010935539 0.69300002 -0.066828303 4.0411206e-39 329 295
0.012150601 0.69300002 -0.066828303 3.9496438e-39 330 295
0.01336566 0.69300002 -0.066828303 3.9496438e-39 331 295
0.014538639 0.69099998 -0.06663543 3.3982721e-39 332 295
0.015750192 0.69099998 -0.06663543 3.3982721e-39 333 295
0.016961746 0.69099998 -0.06663543 3.3982749e-39 334 295
0.0181733 0.69099998 -0.06663543 3.3060779e-39 335 295
0.019356798 0.69 -0.066538997 3.1224069e-39 336 295
0.020566599 0.69 -0.066538997 3.1224069e-39 337 295
0.021776399 0.69 -0.066538997 2.9387373e-39 338 295
0.022986198 0.69 -0.066538997 2.9387373e-39 339 295
0.024195999 0.69 -0.066538997 3.0305714e-39 340 295
0.02533216 0.68800002 -0.066346131 3.0305714e-39 341 295
0.026538454 0.68800002 -0.066346131 2.9387359e-39 342 295
0.027744746 0.68800002 -0.066346131 2.9387359e-39 343 295
0.028951041 0.68800002 -0.066346131 2.8469004e-39 344 295
0.030244999 0.69 -0.066538997 2.9387359e-39 345 295
0.031454802 0.69 -0.066538997 2.5721114e-39 346 295
0.032664597 0.69 -0.066538997 2.4799171e-39 347 295
0.033923492 0.69099998 -0.06663543 2.5721114e-39 348 295
0.035135046 0.69099998 -0.06663543 2.7561411e-39 349 295
0.036451802 0.69300002 -0.066828303 2.7561411e-39 350 295
0.037666857 0.69300002 -0.066828303 2.7561411e-39 351 295
0.03888192 0.69300002 -0.066828303 2.8483381e-39 352 295
0.040154841 0.69400001 -0.066924736 2.9405337e-39 353 295
0.041371655 0.69400001 -0.066924736 2.7579403e-39 354 295
0.042588469 0.69400001 -0.066924736 2.850136e-39 355 295
0.043931518 0.69599998 -0.067117594 2.9423344e-39 356 295
0.045216713 0.69700003 -0.067214034 3.2185626e-39 357 295
0.046438783 0.69700003 -0.067214034 3.402235e-39 358 295
0.047729239 0.69800001 -0.06731046 3.7710161e-39 359 295
0.049093332 0.69999999 -0.067503333 3.8639292e-39 360 295
0.050392549 0.70099998 -0.067599766 4.2330704e-39 361 295
0.051621638 0.70099998 -0.067599766 4.5096545e-39 362 295
0.05722354 0.759 -0.073192894 4.878437e-39 363 295
-0.0099028256 0.70599997 -0.069319785 1.0960089e-38 312 296
-0.0086649731 0.70599997 -0.069319785 8.2864159e-39 313 296
-0.0074271196 0.70599997 -0.069319785 6.8984466e-39 314 296
-0.0061892662 0.70599997 -0.069319785 5.6077078e-39 315 296
-0.0049514128 0.70599997 -0.069319785 4.8719532e-39 316 296
-0.0037030398 0.704 -0.06912341 4.687562e-39 317 296
-0.0024686933 0.704 -0.06912341 4.5950104e-39 318 296
-0.0012325933 0.70300001 -0.069025226 4.5028148e-39 319 296
0 0.70300001 -0.069025226 4.2265894e-39 320 296
0.0012290865 0.70099998 -0.068828844 4.1340351e-39 321 296
0.0024546667 0.69999999 -0.068730667 4.2265894e-39 322 296
0.0036819996 0.69999999 -0.068730667 4.1340351e-39 323 296
0.0048953067 0.69800001 -0.068534292 4.1340351e-39 324 296
0.006119133 0.69800001 -0.068534292 4.1340351e-39 325 296
0.00733244 0.69700003 -0.068436109 3.9507228e-39 326 296
0.0085176928 0.69400001 -0.068141542 3.8585272e-39 327 296
0.0097345067 0.69400001 -0.068141542 4.0418422e-39 328 296
0.01095132 0.69400001 -0.068141542 3.9496466e-39 329 296
0.012150601 0.69300002 -0.068043359 3.7663343e-39 330 296
0.01336566 0.69300002 -0.068043359 3.7663343e-39 331 296
0.014538639 0.69099998 -0.067846984 3.4904677e-39 332 296
0.015750192 0.69099998 -0.067846984 3.3982721e-39 333 296
0.016961746 0.69099998 -0.067846984 3.5815872e-39 334 296
0.0181733 0.69099998 -0.067846984 3.4897489e-39 335 296
0.019384852 0.69099998 -0.067846984 3.1224097e-39 336 296
0.020566599 0.69 -0.0677488 3.3064422e-39 337 296
0.021776399 0.69 -0.0677488 3.1224097e-39 338 296
0.022986198 0.69 -0.0677488 3.0305728e-39 339 296
0.024195999 0.69 -0.0677488 2.8476178e-39 340 296
0.025405798 0.69 -0.0677488 2.8476178e-39 341 296
0.026615599 0.69 -0.0677488 3.0305728e-39 342 296
0.027825398 0.69 -0.0677488 3.0305728e-39 343 296
0.029035198 0.69 -0.0677488 2.571754e-39 344 296
0.030244999 0.69 -0.0677488 2.7557852e-39 345 296
0.031500384 0.69099998 -0.067846984 2.7561411e-39 346 296
0.032711938 0.69099998 -0.067846984 2.7561411e-39 347 296
0.033923492 0.69099998 -0.067846984 2.7561411e-39 348 296
0.035236739 0.69300002 -0.068043359 2.7561411e-39 349 296
0.036451802 0.69300002 -0.068043359 2.8483381e-39 350 296
0.037666857 0.69300002 -0.068043359 2.9405337e-39 351 296
0.038938027 0.69400001 -0.068141542 2.7568656e-39 352 296
0.040154841 0.69400001 -0.068141542 2.9412554e-39 353 296
0.041490879 0.69599998 -0.068337917 2.850136e-39 354 296
0.042711195 0.69599998 -0.068337917 2.9423316e-39 355 296
0.043931518 0.69599998 -0.068337917 3.3100393e-39 356 296
0.045281585 0.69800001 -0.068534292 3.5866248e-39 357 296
0.046505414 0.69800001 -0.068534292 3.4955082e-39 358 296
0.047865998 0.69999999 -0.068730667 3.863932e-39 359 296
0.049163464 0.70099998 -0.068828844 4.2319914e-39 360 296
0.050392549 0.70099998 -0.068828844 4.6011341e-39 361 296
-0.008677247 0.70700002 -0.070657574 9.2090953e-39 313 297
-0.0074271196 0.70599997 -0.070557632 8.0973527e-39 314 297
-0.0061892662 0.70599997 -0.070557632 5.7928207e-39 315 297
-0.0049514128 0.70599997 -0.070557632 5.1485345e-39 316 297
-0.0037135598 0.70599997 -0.070557632 4.964502e-39 317 297
-0.0024686933 0.704 -0.070357755 4.687562e-39 318 297
-0.0012343467 0.704 -0.070357755 4.5953663e-39 319 297
0 0.704 -0.070357755 4.3187865e-39 320 297
0.0012325933 0.70300001 -0.070257813 4.2265894e-39 321 297
0.0024581731 0.70099998 -0.070057929 4.5020987e-39 322 297
0.0036819996 0.69999999 -0.069957994 4.4099017e-39 323 297
0.0049093333 0.69999999 -0.069957994 4.4099017e-39 324 297
0.006119133 0.69800001 -0.069758117 4.3177061e-39 325 297
0.00733244 0.69700003 -0.069658175 4.1340407e-39 326 297
0.0085422397 0.69599998 -0.069558233 4.0414863e-39 327 297
0.0097345067 0.69400001 -0.069358356 3.9492907e-39 328 297
0.01095132 0.69400001 -0.069358356 4.0414863e-39 329 297
0.012168133 0.69400001 -0.069358356 3.6745045e-39 330 297
0.01336566 0.69300002 -0.069258414 3.4901146e-39 331 297
0.014580719 0.69300002 -0.069258414 3.4901146e-39 332 297
0.015795778 0.69300002 -0.069258414 3.397919e-39 333 297
0.01701084 0.69300002 -0.069258414 3.397919e-39 334 297
0.0181733 0.69099998 -0.069058537 3.397919e-39 335 297
0.019384852 0.69099998 -0.069058537 3.1224097e-39 336 297
0.020596405 0.69099998 -0.069058537 3.3064422e-39 337 297
0.021807959 0.69099998 -0.069058537 3.1231299e-39 338 297
0.023019511 0.69099998 -0.069058537 3.0309329e-39 339 297
0.024231065 0.69099998 -0.069058537 2.9398177e-39 340 297
0.025405798 0.69 -0.068958595 2.8472619e-39 341 297
0.026615599 0.69 -0.068958595 2.8472647e-39 342 297
0.027865725 0.69099998 -0.069058537 2.8472647e-39 343 297
0.029077278 0.69099998 -0.069058537 2.847985e-39 344 297
0.030288832 0.69099998 -0.069058537 2.847985e-39 345 297
0.031500384 0.69099998 -0.069058537 2.6650259e-39 346 297
0.032711938 0.69099998 -0.069058537 2.6650259e-39 347 297
0.034021679 0.69300002 -0.069258414 2.6650259e-39 348 297
0.035287585 0.69400001 -0.069358356 2.6650259e-39 349 297
0.036504399 0.69400001 -0.069358356 2.6653888e-39 350 297
0.037721213 0.69400001 -0.069358356 2.7575844e-39 351 297
0.038938027 0.69400001 -0.069358356 3.0334482e-39 352 297
0.040154841 0.69400001 -0.069358356 3.0334482e-39 353 297
0.041490879 0.69599998 -0.069558233 3.2171234e-39 354 297
0.042711195 0.69599998 -0.069558233 3.4933516e-39 355 297
0.043994639 0.69700003 -0.069658175 3.5866248e-39 356 297
0.045281585 0.69800001 -0.069758117 3.7710161e-39 357 297
0.046505414 0.69800001 -0.069758117 3.8642851e-39 358 297
0.048071139 0.70300001 -0.070257813 4.140872e-39 359 297
0.049373865 0.704 -0.070357755 4.5089342e-39 360 297
0.050751984 0.70599997 -0.070557632 4.7855225e-39 361 297
-0.0074376399 0.70700002 -0.071897186 8.8370716e-39 314 298
-0.0061980332 0.70700002 -0.071897186 6.5318221e-39 315 298
-0.0049584266 0.70700002 -0.071897186 5.7006223e-39 316 298
-0.0037135598 0.70599997 -0.071795486 5.4240354e-39 317 298
-0.0024757064 0.70599997 -0.071795486 4.7804765e-39 318 298
-0.0012343467 0.704 -0.071592107 4.5042497e-39 319 298
0 0.704 -0.071592107 4.5028176e-39 320 298
0.0012325933 0.70300001 -0.071490414 4.3187865e-39 321 298
0.0024581731 0.70099998 -0.071287021 4.5028176e-39 322 298
0.0036819996 0.69999999 -0.071185328 4.3187865e-39 323 298
0.0049093333 0.69999999 -0.071185328 4.2262335e-39 324 298
0.006119133 0.69800001 -0.07098195 4.0418422e-39 325 298
0.0073429602 0.69800001 -0.07098195 4.1340407e-39 326 298
0.0085545136 0.69700003 -0.070880257 4.1340407e-39 327 298
0.0097625591 0.69599998 -0.070778556 3.9492907e-39 328 298
0.01095132 0.69400001 -0.07057517 4.0414863e-39 329 298
0.012168133 0.69400001 -0.07057517 3.7659812e-39 330 298
0.013384946 0.69400001 -0.07057517 3.6737856e-39 331 298
0.01460176 0.69400001 -0.07057517 3.67378e-39 332 298
0.015818574 0.69400001 -0.07057517 3.67378e-39 333 298
0.017035386 0.69400001 -0.07057517 3.398991e-39 334 298
0.018225901 0.69300002 -0.070473477 3.398991e-39 335 298
0.01944096 0.69300002 -0.070473477 3.1231271e-39 336 298
0.020656019 0.69300002 -0.070473477 3.2153228e-39 337 298
0.021871079 0.69300002 -0.070473477 3.1238488e-39 338 298
0.02308614 0.69300002 -0.070473477 2.9398177e-39 339 298
0.024231065 0.69099998 -0.070270091 2.9398177e-39 340 298
0.025442619 0.69099998 -0.070270091 2.8472619e-39 341 298
0.026654173 0.69099998 -0.070270091 2.8472619e-39 342 298
0.027865725 0.69099998 -0.070270091 2.9398177e-39 343 298
0.029077278 0.69099998 -0.070270091 2.6650259e-39 344 298
0.030288832 0.69099998 -0.070270091 2.6650259e-39 345 298
0.031591557 0.69300002 -0.070473477 2.6650259e-39 346 298
0.03280662 0.69300002 -0.070473477 2.6650259e-39 347 298
0.034021679 0.69300002 -0.070473477 2.6646699e-39 348 298
0.035287585 0.69400001 -0.07057517 2.7568656e-39 349 298
0.036504399 0.69400001 -0.07057517 2.7575872e-39 350 298
0.037721213 0.69400001 -0.07057517 2.7575872e-39 351 298
0.039050236 0.69599998 -0.070778556 3.1256467e-39 352 298
0.040270556 0.69599998 -0.070778556 3.1256467e-39 353 298
0.041550495 0.69700003 -0.070880257 3.2178423e-39 354 298
0.042772565 0.69700003 -0.070880257 3.402235e-39 355 298
0.043994639 0.69700003 -0.070880257 3.587701e-39 356 298
0.04541133 0.69999999 -0.071185328 3.8639292e-39 357 298
0.046638668 0.69999999 -0.071185328 3.8653641e-39 358 298
0.048071139 0.70300001 -0.071490414 4.2337865e-39 359 298
0.049373865 0.704 -0.071592107 4.6944017e-39 360 298
0.050751984 0.70599997 -0.071795486 5.1550197e-39 361 298
-0.0049654399 0.708 -0.073240235 6.4371055e-39 316 299
-0.0037188199 0.70700002 -0.073136792 5.8842905e-39 317 299
-0.0024792133 0.70700002 -0.073136792 5.24037e-39 318 299
-0.0012378532 0.70599997 -0.07303334 5.0556186e-39 319 299
0 0.70599997 -0.07303334 4.5946447e-39 320 299
0.0012343467 0.704 -0.072826453 4.6868403e-39 321 299
0.0024651866 0.70300001 -0.072723009 4.5028176e-39 322 299
0.0036872597 0.70099998 -0.072516106 4.3187865e-39 323 299
0.0049163462 0.70099998 -0.072516106 4.3184305e-39 324 299
0.0061366665 0.69999999 -0.072412662 4.2262335e-39 325 299
0.0073429602 0.69800001 -0.072205767 4.1347567e-39 326 299
0.0085667865 0.69800001 -0.072205767 3.85853e-39 327 299
0.0097765867 0.69700003 -0.072102323 4.0414863e-39 328 299
0.010982879 0.69599998 -0.071998879 4.0414863e-39 329 299
0.0122032 0.69599998 -0.071998879 3.9492907e-39 330 299
0.013423519 0.69599998 -0.071998879 3.9492907e-39 331 299
0.014643839 0.69599998 -0.071998879 3.857451e-39 332 299
0.015864158 0.69599998 -0.071998879 3.857451e-39 333 299
0.017084479 0.69599998 -0.071998879 3.4904677e-39 334 299
0.0182522 0.69400001 -0.071791984 3.4904677e-39 335 299
0.019469013 0.69400001 -0.071791984 3.1231271e-39 336 299
0.020656019 0.69300002 -0.07168854 3.2153228e-39 337 299
0.021871079 0.69300002 -0.07168854 3.123846e-39 338 299
0.02308614 0.69300002 -0.07168854 2.9398149e-39 339 299
0.024301201 0.69300002 -0.07168854 2.9398177e-39 340 299
0.02551626 0.69300002 -0.07168854 2.8472619e-39 341 299
0.02673132 0.69300002 -0.07168854 2.7557852e-39 342 299
0.027946379 0.69300002 -0.07168854 2.8479822e-39 343 299
0.029161438 0.69300002 -0.07168854 2.8483381e-39 344 299
0.0303765 0.69300002 -0.07168854 2.9405337e-39 345 299
0.031637147 0.69400001 -0.071791984 2.7572187e-39 346 299
0.032853961 0.69400001 -0.071791984 2.9412498e-39 347 299
0.034070771 0.69400001 -0.071791984 2.6653888e-39 348 299
0.035389278 0.69599998 -0.071998879 2.6653888e-39 349 299
0.036609598 0.69599998 -0.071998879 2.574275e-39 350 299
0.037829921 0.69599998 -0.071998879 2.7583061e-39 351 299
0.039106347 0.69700003 -0.072102323 2.8508576e-39 352 299
0.040328421 0.69700003 -0.072102323 3.0352503e-39 353 299
0.041550495 0.69700003 -0.072102323 3.4025909e-39 354 299
0.042833932 0.69800001 -0.072205767 3.6788176e-39 355 299
0.044183996 0.69999999 -0.072412662 3.8642851e-39 356 299
0.045476202 0.70099998 -0.072516106 4.2330676e-39 357 299
0.046705291 0.70099998 -0.072516106 4.5089314e-39 358 299
0.048139516 0.704 -0.072826453 4.6936828e-39 359 299
0.04951413 0.70599997 -0.07303334 5.062108e-39 360 299
0.050751984 0.70599997 -0.07303334 5.4308919e-39 361 299
-0.0049654399 0.708 -0.074481599 7.3608695e-39 316 300
-0.00372408 0.708 -0.074481599 5.977935e-39 317 300
-0.00248272 0.708 -0.074481599 5.4262018e-39 318 300
-0.0012396066 0.70700002 -0.074376404 4.7808324e-39 319 300
0 0.70599997 -0.074271195 4.5038938e-39 320 300
0.0012343467 0.704 -0.07406079 4.3195025e-39 321 300
0.0024686933 0.704 -0.07406079 4.5028176e-39 322 300
0.0036977797 0.70300001 -0.073955595 4.5028176e-39 323 300
0.0049303733 0.70300001 -0.073955595 4.2273097e-39 324 300
0.0061454331 0.70099998 -0.073745191 4.1347539e-39 325 300
0.0073639993 0.69999999 -0.073639996 4.1347539e-39 326 300
0.0085667865 0.69800001 -0.073429599 4.1347539e-39 327 300
0.0097906133 0.69800001 -0.073429599 3.85853e-39 328 300
0.01099866 0.69700003 -0.073324397 3.9507256e-39 329 300
0.012220734 0.69700003 -0.073324397 3.7666945e-39 330 300
0.013442807 0.69700003 -0.073324397 3.6744988e-39 331 300
0.01466488 0.69700003 -0.073324397 3.8574496e-39 332 300
0.015886955 0.69700003 -0.073324397 3.9496438e-39 333 300
0.017109027 0.69700003 -0.073324397 3.4908251e-39 334 300
0.018331099 0.69700003 -0.073324397 3.3982721e-39 335 300
0.019469013 0.69400001 -0.073008798 3.1231271e-39 336 300
0.020685827 0.69400001 -0.073008798 3.1231271e-39 337 300
0.021902639 0.69400001 -0.073008798 2.9398177e-39 338 300
0.023119451 0.69400001 -0.073008798 2.9398177e-39 339 300
0.024301201 0.69300002 -0.072903603 2.9398149e-39 340 300
0.02551626 0.69300002 -0.072903603 2.9398149e-39 341 300
0.02673132 0.69300002 -0.072903603 2.8483381e-39 342 300
0.027946379 0.69300002 -0.072903603 2.8483381e-39 343 300
0.029203519 0.69400001 -0.073008798 2.6650259e-39 344 300
0.030420333 0.69400001 -0.073008798 2.7572215e-39 345 300
0.031637147 0.69400001 -0.073008798 2.7579403e-39 346 300
0.032853961 0.69400001 -0.073008798 2.7579403e-39 347 300
0.034168959 0.69599998 -0.073219195 2.7575872e-39 348 300
0.035389278 0.69599998 -0.073219195 2.7575872e-39 349 300
0.036662199 0.69700003 -0.073324397 2.574275e-39 350 300
0.037884273 0.69700003 -0.073324397 2.7583061e-39 351 300
0.039106347 0.69700003 -0.073324397 3.0345328e-39 352 300
0.040386278 0.69800001 -0.073429599 3.2185654e-39 353 300
0.041610107 0.69800001 -0.073429599 3.6788176e-39 354 300
0.042956665 0.69999999 -0.073639996 3.9557647e-39 355 300
0.044247117 0.70099998 -0.073745191 4.140872e-39 356 300
0.045476202 0.70099998 -0.073745191 4.2330676e-39 357 300
0.046838548 0.70300001 -0.073955595 4.6018529e-39 358 300
0.048071139 0.70300001 -0.073955595 4.8784398e-39 359 300
0.049303733 0.70300001 -0.073955595 5.2465035e-39 360 300
0.050536323 0.70300001 -0.073955595 5.9840685e-39 361 300
-0.0037398601 0.71100003 -0.076043822 6.4392733e-39 317 301
-0.0024932399 0.71100003 -0.076043822 5.7942598e-39 318 301
-0.00124136 0.708 -0.075722955 5.3332817e-39 319 301
0 0.70700002 -0.07561601 4.8723064e-39 320 301
0.0012378532 0.70599997 -0.075509049 4.6879151e-39 321 301
0.0024757064 0.70599997 -0.075509049 4.6875648e-39 322 301
0.0037030398 0.704 -0.075295143 4.5950104e-39 323 301
0.0049373866 0.704 -0.075295143 4.3187837e-39 324 301
0.0061629666 0.70300001 -0.07518819 4.3187837e-39 325 301
0.0073745195 0.70099998 -0.074974284 4.2265894e-39 326 301
0.0085913334 0.69999999 -0.07486733 4.1340351e-39 327 301
0.0098186666 0.69999999 -0.07486733 3.9507228e-39 328 301
0.01101444 0.69800001 -0.074653424 3.9507228e-39 329 301
0.012238266 0.69800001 -0.074653424 3.7670504e-39 330 301
0.013462093 0.69800001 -0.074653424 3.6748548e-39 331 301
0.01468592 0.69800001 -0.074653424 3.7663343e-39 332 301
0.015909746 0.69800001 -0.074653424 3.5815844e-39 333 301
0.017133573 0.69800001 -0.074653424 3.4904677e-39 334 301
0.018331099 0.69700003 -0.074546471 3.4904677e-39 335 301
0.019553173 0.69700003 -0.074546471 3.1231271e-39 336 301
0.020745439 0.69599998 -0.074439511 3.1231271e-39 337 301
0.021965759 0.69599998 -0.074439511 2.9398149e-39 338 301
0.023119451 0.69400001 -0.074225612 2.9398149e-39 339 301
0.024336265 0.69400001 -0.074225612 2.9398149e-39 340 301
0.025553079 0.69400001 -0.074225612 2.9398149e-39 341 301
0.026769891 0.69400001 -0.074225612 2.6646699e-39 342 301
0.027986705 0.69400001 -0.074225612 2.7568656e-39 343 301
0.029203519 0.69400001 -0.074225612 2.6653888e-39 344 301
0.030420333 0.69400001 -0.074225612 2.6653888e-39 345 301
0.031728316 0.69599998 -0.074439511 2.7575844e-39 346 301
0.032948639 0.69599998 -0.074439511 2.7575844e-39 347 301
0.034218054 0.69700003 -0.074546471 2.574275e-39 348 301
0.035440128 0.69700003 -0.074546471 2.574275e-39 349 301
0.0367148 0.69800001 -0.074653424 2.7583061e-39 350 301
0.037938625 0.69800001 -0.074653424 2.9426973e-39 351 301
0.039162453 0.69800001 -0.074653424 3.0359664e-39 352 301
0.040386278 0.69800001 -0.074653424 3.312912e-39 353 301
0.041729331 0.69999999 -0.07486733 3.7731657e-39 354 301
0.042956665 0.69999999 -0.07486733 4.1419468e-39 355 301
0.044247117 0.70099998 -0.074974284 4.5096503e-39 356 301
0.045476202 0.70099998 -0.074974284 4.6018473e-39 357 301
0.047038425 0.70599997 -0.075509049 4.7855253e-39 358 301
0.048071139 0.70300001 -0.07518819 5.0617521e-39 359 301
0.049303733 0.70300001 -0.07518819 5.5238092e-39 360 301
-0.0025002533 0.713 -0.077507854 5.8886191e-39 318 302
-0.00124136 0.708 -0.076964319 4.9670229e-39 319 302
0 0.70700002 -0.076855607 4.7815597e-39 320 302
0.0012396066 0.70700002 -0.076855607 4.597167e-39 321 302
0.0024757064 0.70599997 -0.076746903 4.5046126e-39 322 302
0.0037135598 0.70599997 -0.076746903 4.412417e-39 323 302
0.0049373866 0.704 -0.076529488 4.4117009e-39 324 302
0.0061717331 0.704 -0.076529488 4.3195053e-39 325 302
0.0074060797 0.704 -0.076529488 4.3187865e-39 326 302
0.0086281532 0.70300001 -0.076420791 4.3187865e-39 327 302
0.0098326923 0.70099998 -0.076203369 3.9514445e-39 328 302
0.011045999 0.69999999 -0.076094657 3.9514445e-39 329 302
0.012273333 0.69999999 -0.076094657 3.8592488e-39 330 302
0.013500666 0.69999999 -0.076094657 3.7666945e-39 331 302
0.014727999 0.69999999 -0.076094657 3.5833822e-39 332 302
0.015955333 0.69999999 -0.076094657 3.4911866e-39 333 302
0.017182667 0.69999999 -0.076094657 3.4911866e-39 334 302
0.0183574 0.69800001 -0.075877249 3.4911866e-39 335 302
0.019553173 0.69700003 -0.075768545 3.2163976e-39 336 302
0.020775247 0.69700003 -0.075768545 3.1242019e-39 337 302
0.02199732 0.69700003 -0.075768545 2.9405337e-39 338 302
0.023219392 0.69700003 -0.075768545 2.9405337e-39 339 302
0.0244064 0.69599998 -0.075659841 2.7568656e-39 340 302
0.025553079 0.69400001 -0.075442426 2.7568656e-39 341 302
0.026769891 0.69400001 -0.075442426 2.7568684e-39 342 302
0.028067358 0.69599998 -0.075659841 2.9408995e-39 343 302
0.029287677 0.69599998 -0.075659841 2.574275e-39 344 302
0.030507999 0.69599998 -0.075659841 2.574275e-39 345 302
0.03177391 0.69700003 -0.075768545 2.5742722e-39 346 302
0.033043321 0.69800001 -0.075877249 2.5742722e-39 347 302
0.034267146 0.69800001 -0.075877249 2.574275e-39 348 302
0.035490975 0.69800001 -0.075877249 2.7583061e-39 349 302
0.036819998 0.69999999 -0.076094657 2.9426973e-39 350 302
0.038047329 0.69999999 -0.076094657 3.1274487e-39 351 302
0.039274666 0.69999999 -0.076094657 3.3125561e-39 352 302
0.040502001 0.69999999 -0.076094657 3.4973075e-39 353 302
0.041788943 0.70099998 -0.076203369 3.8660858e-39 354 302
0.043018032 0.70099998 -0.076203369 4.1426741e-39 355 302
0.044247117 0.70099998 -0.076203369 4.418182e-39 356 302
0.04580057 0.70599997 -0.076746903 4.5107363e-39 357 302
0.047038425 0.70599997 -0.076746903 5.061036e-39 358 302
0.048139516 0.704 -0.076529488 5.4294598e-39 359 302
-0.00124662 0.71100003 -0.078537062 5.5180415e-39 319 303
0 0.70999998 -0.0784266 4.9666698e-39 320 303
0.00124136 0.708 -0.078205675 4.5978859e-39 321 303
0.0024792133 0.70700002 -0.07809522 4.6893626e-39 322 303
0.0037188199 0.70700002 -0.07809522 4.5046126e-39 323 303
0.0049514128 0.70599997 -0.07798475 4.6872088e-39 324 303
0.0061892662 0.70599997 -0.07798475 4.5028176e-39 325 303
0.0074271196 0.70599997 -0.07798475 4.3191494e-39 326 303
0.0086649731 0.70599997 -0.07798475 4.2269538e-39 327 303
0.0098747732 0.704 -0.077763841 4.1347567e-39 328 303
0.01109334 0.70300001 -0.077653378 4.1347567e-39 329 303
0.012325933 0.70300001 -0.077653378 3.6755778e-39 330 303
0.013558527 0.70300001 -0.077653378 3.6755778e-39 331 303
0.014749039 0.70099998 -0.077432454 3.7666973e-39 332 303
0.015978126 0.70099998 -0.077432454 3.6745016e-39 333 303
0.017182667 0.69999999 -0.077321991 3.583385e-39 334 303
0.018409999 0.69999999 -0.077321991 3.4911894e-39 335 303
0.019581227 0.69800001 -0.077101074 3.3078771e-39 336 303
0.020805053 0.69800001 -0.077101074 3.2153228e-39 337 303
0.02202888 0.69800001 -0.077101074 3.1238488e-39 338 303
0.023252707 0.69800001 -0.077101074 3.1238488e-39 339 303
0.024441468 0.69700003 -0.076990619 2.7568712e-39 340 303
0.025663542 0.69700003 -0.076990619 2.7568712e-39 341 303
0.026847038 0.69599998 -0.076880157 2.7568712e-39 342 303
0.028067358 0.69599998 -0.076880157 2.7568712e-39 343 303
0.02932976 0.69700003 -0.076990619 2.6650357e-39 344 303
0.030595668 0.69800001 -0.077101074 2.6650357e-39 345 303
0.031910665 0.69999999 -0.077321991 2.6653916e-39 346 303
0.033137999 0.69999999 -0.077321991 2.7575872e-39 347 303
0.034365334 0.69999999 -0.077321991 2.7575872e-39 348 303
0.035592664 0.69999999 -0.077321991 2.9419785e-39 349 303
0.036872596 0.70099998 -0.077432454 3.1274459e-39 350 303
0.038101684 0.70099998 -0.077432454 3.3118372e-39 351 303
0.039330769 0.70099998 -0.077432454 3.6806169e-39 352 303
0.040559858 0.70099998 -0.077432454 3.9575625e-39 353 303
0.041788943 0.70099998 -0.077432454 4.2337893e-39 354 303
0.043018032 0.70099998 -0.077432454 4.3259863e-39 355 303
0 0.71100003 -0.079783678 5.3354467e-39 320 304
0.0012448666 0.70999998 -0.079671465 4.9670229e-39 321 304
0.00248272 0.708 -0.079447038 4.7815569e-39 322 304
0.00372408 0.708 -0.079447038 4.5971642e-39 323 304
0.0049584266 0.70700002 -0.079334825 4.6872088e-39 324 304
0.0061980332 0.70700002 -0.079334825 4.5950132e-39 325 304
0.0074376399 0.70700002 -0.079334825 4.5024645e-39 326 304
0.0086649731 0.70599997 -0.079222605 4.5024645e-39 327 304
0.0099028256 0.70599997 -0.079222605 4.1358371e-39 328 304
0.011109119 0.704 -0.078998186 4.0436415e-39 329 304
0.012343466 0.704 -0.078998186 3.9514417e-39 330 304
0.013577812 0.704 -0.078998186 3.9514417e-39 331 304
0.014791119 0.70300001 -0.078885972 3.8592488e-39 332 304
0.016023712 0.70300001 -0.078885972 3.7666945e-39 333 304
0.017207211 0.70099998 -0.078661539 3.6745016e-39 334 304
0.018409999 0.69999999 -0.078549333 3.7666973e-39 335 304
0.019637333 0.69999999 -0.078549333 3.4911894e-39 336 304
0.020864666 0.69999999 -0.078549333 3.4911894e-39 337 304
0.022091998 0.69999999 -0.078549333 3.2160472e-39 338 304
0.023319334 0.69999999 -0.078549333 3.1234929e-39 339 304
0.024476532 0.69800001 -0.078324907 2.7568712e-39 340 304
0.025700359 0.69800001 -0.078324907 2.9409023e-39 341 304
0.026885614 0.69700003 -0.078212693 2.75759e-39 342 304
0.028107686 0.69700003 -0.078212693 2.75759e-39 343 304
0.029455997 0.69999999 -0.078549333 2.75759e-39 344 304
0.030683333 0.69999999 -0.078549333 2.75759e-39 345 304
0.031910665 0.69999999 -0.078549333 2.9408995e-39 346 304
0.03318534 0.70099998 -0.078661539 3.0330951e-39 347 304
0.034414422 0.70099998 -0.078661539 3.1256467e-39 348 304
0.035745207 0.70300001 -0.078885972 3.3100393e-39 349 304
0.036977798 0.70300001 -0.078885972 3.3121931e-39 350 304
0.038210396 0.70300001 -0.078885972 3.6806169e-39 351 304
0.039442986 0.70300001 -0.078885972 3.8653641e-39 352 304
0.040675577 0.70300001 -0.078885972 4.1415909e-39 353 304
0.041908171 0.70300001 -0.078885972 4.5085783e-39 354 304
0.00125188 0.71399999 -0.081372194 4.1433789e-39 321 305
0.0025002533 0.713 -0.08125823 4.6911619e-39 322 305
0.0037398601 0.71100003 -0.081030294 4.4142149e-39 323 305
0.0049864799 0.71100003 -0.081030294 4.7801261e-39 324 305
0.0062067998 0.708 -0.080688395 4.5038994e-39 325 305
0.0074376399 0.70700002 -0.080574431 4.4113478e-39 326 305
0.008677247 0.70700002 -0.080574431 4.4113478e-39 327 305
0.0099168532 0.70700002 -0.080574431 4.1358399e-39 328 305
0.011140679 0.70599997 -0.080460466 4.1358399e-39 329 305
0.012378532 0.70599997 -0.080460466 3.9518088e-39 330 305
0.013577812 0.704 -0.080232531 3.7677763e-39 331 305
0.014812159 0.704 -0.080232531 3.6755835e-39 332 305
0.016046507 0.704 -0.080232531 3.6755835e-39 333 305
0.017256306 0.70300001 -0.080118567 3.6755835e-39 334 305
0.018436298 0.70099998 -0.079890631 3.6755835e-39 335 305
0.019637333 0.69999999 -0.079776667 3.5833878e-39 336 305
0.020864666 0.69999999 -0.079776667 3.4908335e-39 337 305
0.022091998 0.69999999 -0.079776667 3.033451e-39 338 305
0.023319334 0.69999999 -0.079776667 2.9412554e-39 339 305
0.024546666 0.69999999 -0.079776667 2.9408995e-39 340 305
0.025773998 0.69999999 -0.079776667 2.9408995e-39 341 305
0.027001332 0.69999999 -0.079776667 2.75759e-39 342 305
0.028268991 0.70099998 -0.079890631 2.8497857e-39 343 305
0.029498078 0.70099998 -0.079890631 2.7575872e-39 344 305
0.030727165 0.70099998 -0.079890631 2.9419785e-39 345 305
0.032047424 0.70300001 -0.080118567 2.9419785e-39 346 305
0.03332736 0.704 -0.080232531 3.0345328e-39 347 305
0.034561705 0.704 -0.080232531 3.310761e-39 348 305
0.035897743 0.70599997 -0.080460466 3.4951523e-39 349 305
0.037030395 0.704 -0.080232531 3.8639292e-39 350 305
0.038264744 0.704 -0.080232531 4.0486792e-39 351 305
0.039611302 0.70599997 -0.080460466 4.324543e-39 352 305
0.040907022 0.70700002 -0.080574431 4.4167386e-39 353 305
0.042146627 0.70700002 -0.080574431 4.6922493e-39 354 305
0.0025037599 0.71399999 -0.082624078 5.3354327e-39 322 306
0.0037503797 0.713 -0.082508355 5.0588458e-39 323 306
0.0050005065 0.713 -0.082508355 4.6893598e-39 324 306
0.0062330998 0.71100003 -0.082276918 4.5049686e-39 325 306
0.0074691991 0.70999998 -0.082161188 4.597167e-39 326 306
0.0087140659 0.70999998 -0.082161188 4.5046126e-39 327 306
0.0099308798 0.708 -0.081929758 4.5038938e-39 328 306
0.011156459 0.70700002 -0.081814043 4.4116981e-39 329 306
0.012396066 0.70700002 -0.081814043 4.5028176e-39 330 306
0.013616386 0.70599997 -0.081698313 4.3187865e-39 331 306
0.014854239 0.70599997 -0.081698313 3.9514445e-39 332 306
0.016092092 0.70599997 -0.081698313 3.9514445e-39 333 306
0.017280852 0.704 -0.081466876 3.8588929e-39 334 306
0.018488899 0.70300001 -0.081351154 3.8588929e-39 335 306
0.019721493 0.70300001 -0.081351154 3.6755806e-39 336 306
0.020954086 0.70300001 -0.081351154 3.583385e-39 337 306
0.02218668 0.70300001 -0.081351154 3.308596e-39 338 306
0.023419274 0.70300001 -0.081351154 3.308596e-39 339 306
0.024651866 0.70300001 -0.081351154 3.124925e-39 340 306
0.025884461 0.70300001 -0.081351154 3.0327294e-39 341 306
0.027117053 0.70300001 -0.081351154 3.0334482e-39 342 306
0.028349647 0.70300001 -0.081351154 3.0334482e-39 343 306
0.029624319 0.704 -0.081466876 3.1256467e-39 344 306
0.030858666 0.704 -0.081466876 3.2178423e-39 345 306
0.032184184 0.70599997 -0.081698313 3.4933516e-39 346 306
0.033422034 0.70599997 -0.081698313 3.585906e-39 347 306
0.034659892 0.70599997 -0.081698313 3.7702972e-39 348 306
0.035897743 0.70599997 -0.081698313 4.046524e-39 349 306
0.037135597 0.70599997 -0.081698313 3.9561276e-39 350 306
0.038373452 0.70599997 -0.081698313 4.1408776e-39 351 306
0.039667413 0.70700002 -0.081814043 4.1408776e-39 352 306
0.040964879 0.708 -0.081929758 4.2330732e-39 353 306
0.042206239 0.708 -0.081929758 4.6918962e-39 354 306
0.0037503797 0.713 -0.083758481 4.3263352e-39 323 307
0.0050005065 0.713 -0.083758481 4.5993292e-39 324 307
0.0062506334 0.713 -0.083758481 4.4149379e-39 325 307
0.0074797203 0.71100003 -0.083523542 4.597167e-39 326 307
0.0087140659 0.70999998 -0.083406061 4.597167e-39 327 307
0.0099308798 0.708 -0.083171122 4.5038966e-39 328 307
0.011156459 0.70700002 -0.083053641 4.4117009e-39 329 307
0.012396066 0.70700002 -0.083053641 4.1358399e-39 330 307
0.013616386 0.70599997 -0.082936168 4.0436443e-39 331 307
0.014854239 0.70599997 -0.082936168 3.7684993e-39 332 307
0.016092092 0.70599997 -0.082936168 3.6763023e-39 333 307
0.017280852 0.704 -0.082701221 3.6763023e-39 334 307
0.018515198 0.704 -0.082701221 3.583748e-39 335 307
0.019749546 0.704 -0.082701221 3.5841039e-39 336 307
0.020983893 0.704 -0.082701221 3.5841039e-39 337 307
0.022218239 0.704 -0.082701221 3.2178395e-39 338 307
0.023452586 0.704 -0.082701221 3.2178395e-39 339 307
0.024686933 0.704 -0.082701221 3.1256467e-39 340 307
0.02592128 0.704 -0.082701221 3.1256467e-39 341 307
0.027155625 0.704 -0.082701221 2.8497829e-39 342 307
0.028389972 0.704 -0.082701221 3.0345328e-39 343 307
0.029708479 0.70599997 -0.082936168 3.0345328e-39 344 307
0.030946331 0.70599997 -0.082936168 3.310761e-39 345 307
0.032184184 0.70599997 -0.082936168 3.4022378e-39 346 307
0.033422034 0.70599997 -0.082936168 3.6784645e-39 347 307
0.034659892 0.70599997 -0.082936168 3.7710161e-39 348 307
0.035897743 0.70599997 -0.082936168 3.9554087e-39 349 307
0.037135597 0.70599997 -0.082936168 4.0483232e-39 350 307
0.038373452 0.70599997 -0.082936168 3.9561276e-39 351 307
0.039723519 0.708 -0.083171122 4.3241899e-39 352 307
0.041080594 0.70999998 -0.083406061 4.5085811e-39 353 307
0.043756187 0.73400003 -0.086225428 4.6936926e-39 354 307
0.008689519 0.708 -0.084412478 4.413496e-39 327 308
0.0099308798 0.708 -0.084412478 4.5046154e-39 328 308
0.011156459 0.70700002 -0.084293254 4.5046154e-39 329 308
0.012396066 0.70700002 -0.084293254 4.5946601e-39 330 308
0.013635674 0.70700002 -0.084293254 4.5024645e-39 331 308
0.014854239 0.70599997 -0.084174022 4.0436443e-39 332 308
0.016092092 0.70599997 -0.084174022 4.0436443e-39 333 308
0.017329946 0.70599997 -0.084174022 3.7688525e-39 334 308
0.018567799 0.70599997 -0.084174022 3.7688525e-39 335 308
0.019805651 0.70599997 -0.084174022 3.6762995e-39 336 308
0.021043506 0.70599997 -0.084174022 3.6762995e-39 337 308
0.022281358 0.70599997 -0.084174022 3.6762995e-39 338 308
0.023519212 0.70599997 -0.084174022 3.6762995e-39 339 308
