# .PCD v.7 - Point Cloud Data file format
FIELDS x y z rgb imX imY
SIZE 4 4 4 4 4 4
TYPE F F F F F F
COUNT 1 1 1 1 1 1
WIDTH 860
HEIGHT 1
VIEWPOINT 0 0 0 1 0 0 0
POINTS 860
DATA ascii
-0.028020019 0.76099998 0.022682872 1.5857466e-38 299 223
-0.026685731 0.76099998 0.022682872 1.6040394e-38 300 223
-0.025284819 0.759 0.02262326 1.5856002e-38 301 223
-0.023954039 0.759 0.02262326 1.6221879e-38 302 223
-0.022563647 0.75700003 0.022563647 1.6129685e-38 303 223
-0.021236373 0.75700003 0.022563647 1.612825e-38 304 223
-0.0199617 0.759 0.02262326 1.612825e-38 305 223
-0.01863092 0.759 0.02262326 1.612825e-38 306 223
-0.017300138 0.759 0.02262326 1.612825e-38 307 223
-0.015969358 0.759 0.02262326 1.6036056e-38 308 223
-0.014638579 0.759 0.02262326 1.5667279e-38 309 223
-0.0133078 0.759 0.02262326 1.5665127e-38 310 223
-0.01197702 0.759 0.02262326 1.5388903e-38 311 223
-0.01064624 0.759 0.02262326 1.4745337e-38 312 223
-0.00931546 0.759 0.02262326 1.4653143e-38 313 223
-0.0080057196 0.76099998 0.022682872 1.4192171e-38 314 223
-0.0066714329 0.76099998 0.022682872 1.4007783e-38 315 223
-0.0053371461 0.76099998 0.022682872 1.3639366e-38 316 223
-0.0040081199 0.76200002 0.02271268 1.3362782e-38 317 223
-0.00267208 0.76200002 0.02271268 1.2534828e-38 318 223
-0.0013395466 0.764 0.022772292 1.2258245e-38 319 223
0 0.76599997 0.022831906 1.1889468e-38 320 223
0.0013430532 0.76599997 0.022831906 1.2350081e-38 321 223
0.0026896133 0.76700002 0.022861714 1.2813218e-38 322 223
0.00403442 0.76700002 0.022861714 1.3182002e-38 323 223
0.0053722127 0.76599997 0.022831906 1.2816112e-38 324 223
0.0067152665 0.76599997 0.022831906 1.3369286e-38 325 223
0.0080583189 0.76599997 0.022831906 1.3830261e-38 326 223
0.0093768267 0.764 0.022772292 1.3830261e-38 327 223
0.010716373 0.764 0.022772292 1.4474148e-38 328 223
0.01205592 0.764 0.022772292 1.4381952e-38 329 223
0.0133604 0.76200002 0.02271268 1.4933313e-38 330 223
0.01469644 0.76200002 0.02271268 1.511806e-38 331 223
0.01603248 0.76200002 0.02271268 1.5393216e-38 332 223
0.01736852 0.76200002 0.02271268 1.5485412e-38 333 223
0.01870456 0.76200002 0.02271268 1.5485061e-38 334 223
0.0200406 0.76200002 0.02271268 1.5485061e-38 335 223
0.021432746 0.764 0.022772292 1.5575822e-38 336 223
0.022772292 0.764 0.022772292 1.5483626e-38 337 223
0.024111839 0.764 0.022772292 1.548291e-38 338 223
0.025451386 0.764 0.022772292 1.548291e-38 339 223
0.026861066 0.76599997 0.022831906 1.5481841e-38 340 223
0.028204117 0.76599997 0.022831906 1.5389287e-38 341 223
0.029547172 0.76599997 0.022831906 1.4927976e-38 342 223
0.030890226 0.76599997 0.022831906 1.5020172e-38 343 223
0.032064959 0.76200002 0.02271268 1.5209312e-38 344 223
0.033401001 0.76200002 0.02271268 1.6592247e-38 345 223
-0.035056144 0.76899999 0.021573013 1.5212534e-38 294 224
-0.033620168 0.76700002 0.021516906 1.4013991e-38 295 224
-0.03227536 0.76700002 0.021516906 1.4749674e-38 296 224
-0.030890226 0.76599997 0.021488851 1.5395043e-38 297 224
-0.029392879 0.76200002 0.02137664 1.6040413e-38 298 224
-0.028020019 0.76099998 0.021348584 1.6501751e-38 299 224
-0.026685731 0.76099998 0.021348584 1.6500655e-38 300 224
-0.025284819 0.759 0.02129248 1.6039678e-38 301 224
-0.023954039 0.759 0.02129248 1.6681057e-38 302 224
-0.022563647 0.75700003 0.021236373 1.6497027e-38 303 224
-0.021236373 0.75700003 0.021236373 1.6220803e-38 304 224
-0.019909101 0.75700003 0.021236373 1.6220803e-38 305 224
-0.018581826 0.75700003 0.021236373 1.6220803e-38 306 224
-0.017254554 0.75700003 0.021236373 1.6220803e-38 307 224
-0.015927281 0.75700003 0.021236373 1.6495592e-38 308 224
-0.014600007 0.75700003 0.021236373 1.6218651e-38 309 224
-0.013272733 0.75700003 0.021236373 1.5482532e-38 310 224
-0.01197702 0.759 0.02129248 1.5206308e-38 311 224
-0.01064624 0.759 0.02129248 1.483789e-38 312 224
-0.00931546 0.759 0.02129248 1.4561307e-38 313 224
-0.0080057196 0.76099998 0.021348584 1.4009218e-38 314 224
-0.0066714329 0.76099998 0.021348584 1.3640441e-38 315 224
-0.0053371461 0.76099998 0.021348584 1.3454618e-38 316 224
-0.0040081199 0.76200002 0.02137664 1.2901452e-38 317 224
-0.00267208 0.76200002 0.02137664 1.1980586e-38 318 224
-0.0013395466 0.764 0.021432746 1.1427421e-38 319 224
0 0.76599997 0.021488851 1.0228896e-38 320 224
0.0013448066 0.76700002 0.021516906 1.0228896e-38 321 224
0.0026896133 0.76700002 0.021516906 1.1521054e-38 322 224
0.00403442 0.76700002 0.021516906 1.2074228e-38 323 224
0.0053792265 0.76700002 0.021516906 1.0972582e-38 324 224
0.0067152665 0.76599997 0.021488851 1.2355516e-38 325 224
0.0080583189 0.76599997 0.021488851 1.3645536e-38 326 224
0.0093768267 0.764 0.021432746 1.3368948e-38 327 224
0.010716373 0.764 0.021432746 1.4012835e-38 328 224
0.01202436 0.76200002 0.02137664 1.4105389e-38 329 224
0.0133604 0.76200002 0.02137664 1.4565267e-38 330 224
0.01469644 0.76200002 0.02137664 1.4749658e-38 331 224
0.01603248 0.76200002 0.02137664 1.5024447e-38 332 224
0.01736852 0.76200002 0.02137664 1.5301033e-38 333 224
0.01870456 0.76200002 0.02137664 1.5300677e-38 334 224
0.0200406 0.76200002 0.02137664 1.5300677e-38 335 224
0.02137664 0.76200002 0.02137664 1.5575103e-38 336 224
0.02271268 0.76200002 0.02137664 1.5575103e-38 337 224
0.02404872 0.76200002 0.02137664 1.548291e-38 338 224
0.025451386 0.764 0.021432746 1.548291e-38 339 224
0.026790932 0.764 0.021432746 1.5390359e-38 340 224
0.028130481 0.764 0.021432746 1.5298163e-38 341 224
0.029547172 0.76599997 0.021488851 1.5204911e-38 342 224
0.030890226 0.76599997 0.021488851 1.4928683e-38 343 224
0.032064959 0.76200002 0.02137664 1.4655766e-38 344 224
0.033401001 0.76200002 0.02137664 1.5946505e-38 345 224
0.034737039 0.76200002 0.02137664 1.68678e-38 346 224
-0.036404461 0.76899999 0.0202247 1.6685219e-38 293 225
-0.035056144 0.76899999 0.0202247 1.5028126e-38 294 225
-0.033707831 0.76899999 0.0202247 1.4105811e-38 295 225
-0.03227536 0.76700002 0.020172099 1.4749674e-38 296 225
-0.030890226 0.76599997 0.020145798 1.5856382e-38 297 225
-0.029354304 0.76099998 0.020014299 1.6776909e-38 298 225
-0.028020019 0.76099998 0.020014299 1.6869104e-38 299 225
-0.026615599 0.759 0.0199617 1.668397e-38 300 225
-0.025218192 0.75700003 0.019909101 1.6407385e-38 301 225
-0.02389092 0.75700003 0.019909101 1.677361e-38 302 225
-0.022563647 0.75700003 0.019909101 1.6404833e-38 303 225
-0.021236373 0.75700003 0.019909101 1.6495592e-38 304 225
-0.019909101 0.75700003 0.019909101 1.6403398e-38 305 225
-0.018581826 0.75700003 0.019909101 1.6403398e-38 306 225
-0.017254554 0.75700003 0.019909101 1.6495592e-38 307 225
-0.015927281 0.75700003 0.019909101 1.6771099e-38 308 225
-0.014600007 0.75700003 0.019909101 1.6494875e-38 309 225
-0.013272733 0.75700003 0.019909101 1.5666203e-38 310 225
-0.01194546 0.75700003 0.019909101 1.5481814e-38 311 225
-0.010618187 0.75700003 0.019909101 1.502192e-38 312 225
-0.0092909131 0.75700003 0.019909101 1.4653143e-38 313 225
-0.0079846792 0.759 0.0199617 1.410213e-38 314 225
-0.0066714329 0.76099998 0.020014299 1.345677e-38 315 225
-0.0053371461 0.76099998 0.020014299 1.2810693e-38 316 225
-0.0040081199 0.76200002 0.0200406 1.2441557e-38 317 225
-0.0026790933 0.764 0.020093199 1.1427062e-38 318 225
-0.0013430532 0.76599997 0.020145798 1.0781702e-38 319 225
0 0.76599997 0.020145798 8.6598003e-39 320 225
0.0013448066 0.76700002 0.020172099 8.5676061e-39 321 225
0.0026896133 0.76700002 0.020172099 9.1222064e-39 322 225
0.00403442 0.76700002 0.020172099 9.767566e-39 323 225
0.0053792265 0.76700002 0.020172099 9.4034638e-39 324 225
0.0067152665 0.76599997 0.020145798 1.1523963e-38 325 225
0.0080583189 0.76599997 0.020145798 1.2264756e-38 326 225
0.0093768267 0.764 0.020093199 1.2633179e-38 327 225
0.010716373 0.764 0.020093199 1.3828443e-38 328 225
0.01202436 0.76200002 0.0200406 1.3920639e-38 329 225
0.0133604 0.76200002 0.0200406 1.4564911e-38 330 225
0.014677152 0.76099998 0.020014299 1.4841857e-38 331 225
0.016011439 0.76099998 0.020014299 1.5025169e-38 332 225
0.017345725 0.76099998 0.020014299 1.520956e-38 333 225
0.018680012 0.76099998 0.020014299 1.5209916e-38 334 225
0.020014299 0.76099998 0.020014299 1.5117721e-38 335 225
0.021348584 0.76099998 0.020014299 1.5576178e-38 336 225
0.022682872 0.76099998 0.020014299 1.5483624e-38 337 225
0.024017159 0.76099998 0.020014299 1.5483629e-38 338 225
0.02538476 0.76200002 0.0200406 1.5483629e-38 339 225
0.0267208 0.76200002 0.0200406 1.5206693e-38 340 225
0.028130481 0.764 0.020093199 1.5206693e-38 341 225
0.029547172 0.76599997 0.020145798 1.5297109e-38 342 225
0.030930554 0.76700002 0.020172099 1.5204914e-38 343 225
0.032149121 0.764 0.020093199 1.4285536e-38 344 225
0.033488665 0.764 0.020093199 1.5484079e-38 345 225
0.034964975 0.76700002 0.020172099 1.6591207e-38 346 225
-0.037850961 0.77100003 0.018925481 1.687032e-38 292 226
-0.036404461 0.76899999 0.018876385 1.6132755e-38 293 226
-0.035056144 0.76899999 0.018876385 1.4934479e-38 294 226
-0.033707831 0.76899999 0.018876385 1.4473502e-38 295 226
-0.03227536 0.76700002 0.018827293 1.4933349e-38 296 226
-0.030809574 0.764 0.018753653 1.6224088e-38 297 226
-0.029354304 0.76099998 0.018680012 1.6962739e-38 298 226
-0.027946379 0.759 0.01863092 1.650212e-38 299 226
-0.026545467 0.75700003 0.018581826 1.6776145e-38 300 226
-0.025218192 0.75700003 0.018581826 1.6499558e-38 301 226
-0.023827799 0.755 0.018532733 1.7140593e-38 302 226
-0.022504034 0.755 0.018532733 1.6955846e-38 303 226
-0.021180267 0.755 0.018532733 1.6771457e-38 304 226
-0.0198565 0.755 0.018532733 1.6679263e-38 305 226
-0.018532733 0.755 0.018532733 1.6494875e-38 306 226
-0.017208965 0.755 0.018532733 1.6678905e-38 307 226
-0.015885198 0.755 0.018532733 1.7138799e-38 308 226
-0.014561433 0.755 0.018532733 1.6770381e-38 309 226
-0.013237666 0.755 0.018532733 1.6033186e-38 310 226
-0.011913899 0.755 0.018532733 1.5756604e-38 311 226
-0.010590133 0.755 0.018532733 1.5389262e-38 312 226
-0.0092909131 0.75700003 0.018581826 1.492829e-38 313 226
-0.0079636406 0.75700003 0.018581826 1.4468395e-38 314 226
-0.0066538998 0.759 0.01863092 1.3823036e-38 315 226
-0.0053371461 0.76099998 0.018680012 1.2534469e-38 316 226
-0.0040081199 0.76200002 0.01870456 1.2165692e-38 317 226
-0.0026790933 0.764 0.018753653 1.0597673e-38 318 226
-0.0013430532 0.76599997 0.018802745 9.8601189e-39 319 226
0 0.76599997 0.018802745 8.1973942e-39 320 226
0.0013448066 0.76700002 0.018827293 8.0130058e-39 321 226
0.0026896133 0.76700002 0.018827293 8.2895885e-39 322 226
0.00403442 0.76700002 0.018827293 8.5661711e-39 323 226
0.0053792265 0.76700002 0.018827293 8.7562993e-39 324 226
0.0067152665 0.76599997 0.018802745 1.0692402e-38 325 226
0.0080583189 0.76599997 0.018802745 1.1617566e-38 326 226
0.0093768267 0.764 0.018753653 1.2539522e-38 327 226
0.01068832 0.76200002 0.01870456 1.3644033e-38 328 226
0.01202436 0.76200002 0.01870456 1.4105011e-38 329 226
0.013342866 0.76099998 0.018680012 1.4749305e-38 330 226
0.014677152 0.76099998 0.018680012 1.5210283e-38 331 226
0.016011439 0.76099998 0.018680012 1.5484708e-38 332 226
0.017300138 0.759 0.01863092 1.5484708e-38 333 226
0.01863092 0.759 0.01863092 1.5668721e-38 334 226
0.0199617 0.759 0.01863092 1.5576525e-38 335 226
0.02129248 0.759 0.01863092 1.5851673e-38 336 226
0.022682872 0.76099998 0.018680012 1.5759119e-38 337 226
0.024017159 0.76099998 0.018680012 1.5575103e-38 338 226
0.025351444 0.76099998 0.018680012 1.5575103e-38 339 226
0.026685731 0.76099998 0.018680012 1.5482557e-38 340 226
0.028056841 0.76200002 0.01870456 1.5390362e-38 341 226
0.029392879 0.76200002 0.01870456 1.5388939e-38 342 226
0.030890226 0.76599997 0.018802745 1.5388939e-38 343 226
0.032233275 0.76599997 0.018802745 1.4375917e-38 344 226
0.033576332 0.76599997 0.018802745 1.5297514e-38 345 226
0.034964975 0.76700002 0.018827293 1.6406802e-38 346 226
0.036309779 0.76700002 0.018827293 1.6959617e-38 347 226
-0.03775277 0.76899999 0.017528072 1.6593727e-38 292 227
-0.036309779 0.76700002 0.017482487 1.5856162e-38 293 227
-0.034964975 0.76700002 0.017482487 1.4657899e-38 294 227
-0.033620168 0.76700002 0.017482487 1.484193e-38 295 227
-0.032233275 0.76599997 0.017459691 1.521103e-38 296 227
-0.030728921 0.76200002 0.01736852 1.5763845e-38 297 227
-0.029354304 0.76099998 0.017345725 1.6317022e-38 298 227
-0.027946379 0.759 0.017300138 1.6501413e-38 299 227
-0.026545467 0.75700003 0.017254554 1.6867647e-38 300 227
-0.025151566 0.755 0.017208965 1.6682895e-38 301 227
-0.02379624 0.75400001 0.017186172 1.713952e-38 302 227
-0.022474226 0.75400001 0.017186172 1.6955128e-38 303 227
-0.021152213 0.75400001 0.017186172 1.6771099e-38 304 227
-0.0198565 0.755 0.017208965 1.6494875e-38 305 227
-0.018532733 0.755 0.017208965 1.6678905e-38 306 227
-0.017208965 0.755 0.017208965 1.6494875e-38 307 227
-0.015885198 0.755 0.017208965 1.7230276e-38 308 227
-0.014561433 0.755 0.017208965 1.7138082e-38 309 227
-0.013237666 0.755 0.017208965 1.6400528e-38 310 227
-0.011913899 0.755 0.017208965 1.6124304e-38 311 227
-0.010590133 0.755 0.017208965 1.5205951e-38 312 227
-0.0092663663 0.755 0.017208965 1.5113755e-38 313 227
-0.0079425992 0.755 0.017208965 1.4378355e-38 314 227
-0.0066363667 0.75700003 0.017254554 1.3548964e-38 315 227
-0.0053231199 0.759 0.017300138 1.2442992e-38 316 227
-0.0040081199 0.76200002 0.01736852 1.1244467e-38 317 227
-0.0026790933 0.764 0.017414106 9.400224e-39 318 227
-0.0013430532 0.76599997 0.017459691 8.7548644e-39 319 227
0 0.76599997 0.017459691 8.2877948e-39 320 227
0.0013448066 0.76700002 0.017482487 8.379989e-39 321 227
0.0026896133 0.76700002 0.017482487 8.8381001e-39 322 227
0.00403442 0.76700002 0.017482487 9.0224914e-39 323 227
0.0053792265 0.76700002 0.017482487 8.477923e-39 324 227
0.0067152665 0.76599997 0.017459691 9.6764578e-39 325 227
0.0080583189 0.76599997 0.017459691 1.087856e-38 326 227
0.0093768267 0.764 0.017414106 1.2353311e-38 327 227
0.01068832 0.76200002 0.01736852 1.3552193e-38 328 227
0.012008579 0.76099998 0.017345725 1.4474148e-38 329 227
0.013342866 0.76099998 0.017345725 1.5210281e-38 330 227
0.014638579 0.759 0.017300138 1.5395031e-38 331 227
0.015927281 0.75700003 0.017254554 1.5485426e-38 332 227
0.017254554 0.75700003 0.017254554 1.5485426e-38 333 227
0.018581826 0.75700003 0.017254554 1.5761643e-38 334 227
0.019909101 0.75700003 0.017254554 1.5485056e-38 335 227
0.021236373 0.75700003 0.017254554 1.5851683e-38 336 227
0.022563647 0.75700003 0.017254554 1.5667652e-38 337 227
0.02389092 0.75700003 0.017254554 1.5575469e-38 338 227
0.025284819 0.759 0.017300138 1.5483273e-38 339 227
0.026685731 0.76099998 0.017345725 1.548292e-38 340 227
0.028020019 0.76099998 0.017345725 1.548292e-38 341 227
0.029354304 0.76099998 0.017345725 1.5389655e-38 342 227
0.030728921 0.76200002 0.01736852 1.529746e-38 343 227
0.032149121 0.764 0.017414106 1.5018746e-38 344 227
0.033488665 0.764 0.017414106 1.538753e-38 345 227
0.034828212 0.764 0.017414106 1.6036922e-38 346 227
0.036167759 0.764 0.017414106 1.7051073e-38 347 227
-0.03775277 0.76899999 0.016179759 1.6408967e-38 292 228
-0.036309779 0.76700002 0.01613768 1.5763597e-38 293 228
-0.034919381 0.76599997 0.016116638 1.4934481e-38 294 228
-0.033576332 0.76599997 0.016116638 1.4657896e-38 295 228
-0.032233275 0.76599997 0.016116638 1.5303223e-38 296 228
-0.030728921 0.76200002 0.01603248 1.5487616e-38 297 228
-0.029354304 0.76099998 0.016011439 1.6040795e-38 298 228
-0.027946379 0.759 0.015969358 1.6409218e-38 299 228
-0.026545467 0.75700003 0.015927281 1.6867291e-38 300 228
-0.025151566 0.755 0.015885198 1.6405953e-38 301 228
-0.02379624 0.75400001 0.01586416 1.6955128e-38 302 228
-0.022474226 0.75400001 0.01586416 1.6862934e-38 303 228
-0.021152213 0.75400001 0.01586416 1.7046247e-38 304 228
-0.0198565 0.755 0.015885198 1.6954052e-38 305 228
-0.018508185 0.75400001 0.01586416 1.6860782e-38 306 228
-0.017186172 0.75400001 0.01586416 1.6860782e-38 307 228
-0.01586416 0.75400001 0.01586416 1.72292e-38 308 228
-0.014542146 0.75400001 0.01586416 1.7321753e-38 309 228
-0.013220133 0.75400001 0.01586416 1.6861499e-38 310 228
-0.01189812 0.75400001 0.01586416 1.6400528e-38 311 228
-0.010576107 0.75400001 0.01586416 1.5481814e-38 312 228
-0.0092540924 0.75400001 0.01586416 1.538962e-38 313 228
-0.0079425992 0.755 0.015885198 1.483789e-38 314 228
-0.0066188332 0.755 0.015885198 1.4284724e-38 315 228
-0.0053090933 0.75700003 0.015927281 1.3179111e-38 316 228
-0.0039923396 0.759 0.015969358 1.1519974e-38 317 228
-0.0026685731 0.76099998 0.016011439 9.5821013e-39 318 228
-0.0013395466 0.764 0.016074561 8.9367417e-39 319 228
0 0.76700002 0.01613768 8.4711071e-39 320 228
0.0013448066 0.76700002 0.01613768 8.1023301e-39 321 228
0.0026861064 0.76599997 0.016116638 7.6438785e-39 322 228
0.0040291594 0.76599997 0.016116638 7.9204668e-39 323 228
0.0053722127 0.76599997 0.016116638 8.5661711e-39 324 228
0.0067152665 0.76599997 0.016116638 1.0133846e-38 325 228
0.0080372803 0.764 0.016074561 1.0783496e-38 326 228
0.0093522798 0.76200002 0.01603248 1.2719579e-38 327 228
0.010674292 0.76099998 0.016011439 1.4101771e-38 328 228
0.01197702 0.759 0.015969358 1.5300314e-38 329 228
0.0133078 0.759 0.015969358 1.5393582e-38 330 228
0.014600007 0.75700003 0.015927281 1.5577974e-38 331 228
0.015927281 0.75700003 0.015927281 1.6036785e-38 332 228
0.017254554 0.75700003 0.015927281 1.6036785e-38 333 228
0.018581826 0.75700003 0.015927281 1.621973e-38 334 228
0.0198565 0.755 0.015885198 1.6311927e-38 335 228
0.021180267 0.755 0.015885198 1.6218655e-38 336 228
0.022563647 0.75700003 0.015927281 1.6126459e-38 337 228
0.02389092 0.75700003 0.015927281 1.6034279e-38 338 228
0.025218192 0.75700003 0.015927281 1.5850248e-38 339 228
0.026615599 0.759 0.015969358 1.5758418e-38 340 228
0.027946379 0.759 0.015969358 1.5666223e-38 341 228
0.029354304 0.76099998 0.016011439 1.5572602e-38 342 228
0.030688593 0.76099998 0.016011439 1.5480405e-38 343 228
0.032064959 0.76200002 0.01603248 1.4835784e-38 344 228
0.033488665 0.764 0.016074561 1.5020175e-38 345 228
0.034828212 0.764 0.016074561 1.5852164e-38 346 228
0.036167759 0.764 0.016074561 1.6865957e-38 347 228
-0.039101087 0.76899999 0.014831445 1.7330242e-38 291 229
-0.03775277 0.76899999 0.014831445 1.5949063e-38 292 229
-0.036309779 0.76700002 0.014792874 1.5303694e-38 293 229
-0.034919381 0.76599997 0.014773586 1.5302183e-38 294 229
-0.033576332 0.76599997 0.014773586 1.493376e-38 295 229
-0.032149121 0.764 0.014735013 1.5210659e-38 296 229
-0.030688593 0.76099998 0.014677152 1.5486886e-38 297 229
-0.029277159 0.759 0.014638579 1.5763833e-38 298 229
-0.027872739 0.75700003 0.014600007 1.604006e-38 299 229
-0.026545467 0.75700003 0.014600007 1.6590349e-38 300 229
-0.025151566 0.755 0.014561433 1.6405958e-38 301 229
-0.02379624 0.75400001 0.014542146 1.7138816e-38 302 229
-0.022474226 0.75400001 0.014542146 1.6954425e-38 303 229
-0.021152213 0.75400001 0.014542146 1.7045888e-38 304 229
-0.019830201 0.75400001 0.014542146 1.6861499e-38 305 229
-0.018508185 0.75400001 0.014542146 1.6952976e-38 306 229
-0.017186172 0.75400001 0.014542146 1.6860782e-38 307 229
-0.01586416 0.75400001 0.014542146 1.7321394e-38 308 229
-0.014542146 0.75400001 0.014542146 1.7413588e-38 309 229
-0.013220133 0.75400001 0.014542146 1.7321753e-38 310 229
-0.01189812 0.75400001 0.014542146 1.6860782e-38 311 229
-0.010576107 0.75400001 0.014542146 1.5849515e-38 312 229
-0.0092540924 0.75400001 0.014542146 1.5757321e-38 313 229
-0.00793208 0.75400001 0.014542146 1.5113046e-38 314 229
-0.0066188332 0.755 0.014561433 1.5113046e-38 315 229
-0.0052950666 0.755 0.014561433 1.3915955e-38 316 229
-0.0039818203 0.75700003 0.014600007 1.2533034e-38 317 229
-0.00266156 0.759 0.014638579 1.077955e-38 318 229
-0.0013342865 0.76099998 0.014677152 9.3962779e-39 319 229
0 0.76599997 0.014773586 8.1956006e-39 320 229
0.0013430532 0.76599997 0.014773586 6.5361045e-39 321 229
0.0026861064 0.76599997 0.014773586 6.8126871e-39 322 229
0.0040291594 0.76599997 0.014773586 7.2732995e-39 323 229
0.0053581866 0.764 0.014735013 8.3807065e-39 324 229
0.0066801999 0.76200002 0.01469644 1.0501539e-38 325 229
0.0080162399 0.76200002 0.01469644 1.1980227e-38 326 229
0.0093400059 0.76099998 0.014677152 1.4192537e-38 327 229
0.01064624 0.759 0.014638579 1.4930084e-38 328 229
0.01194546 0.75700003 0.014600007 1.5483258e-38 329 229
0.013272733 0.75700003 0.014600007 1.5668371e-38 330 229
0.014600007 0.75700003 0.014600007 1.5668371e-38 331 229
0.015885198 0.755 0.014561433 1.5943866e-38 332 229
0.017208965 0.755 0.014561433 1.6128259e-38 333 229
0.018532733 0.755 0.014561433 1.6495239e-38 334 229
0.0198565 0.755 0.014561433 1.6587435e-38 335 229
0.021180267 0.755 0.014561433 1.6311209e-38 336 229
0.022504034 0.755 0.014561433 1.6218655e-38 337 229
0.023827799 0.755 0.014561433 1.6126828e-38 338 229
0.025151566 0.755 0.014561433 1.6034632e-38 339 229
0.026475333 0.755 0.014561433 1.585097e-38 340 229
0.027872739 0.75700003 0.014600007 1.566622e-38 341 229
0.029200014 0.75700003 0.014600007 1.5572955e-38 342 229
0.030607941 0.759 0.014638579 1.5480758e-38 343 229
0.032022879 0.76099998 0.014677152 1.5111645e-38 344 229
0.033401001 0.76200002 0.01469644 1.520384e-38 345 229
0.034737039 0.76200002 0.01469644 1.5575571e-38 346 229
0.036073081 0.76200002 0.01469644 1.6681919e-38 347 229
-0.038999394 0.76700002 0.013448066 1.7330961e-38 291 230
-0.037654586 0.76700002 0.013448066 1.5764669e-38 292 230
-0.036262438 0.76599997 0.013430533 1.5211496e-38 293 230
-0.034828212 0.764 0.013395466 1.521034e-38 294 230
-0.033488665 0.764 0.013395466 1.4841917e-38 295 230
-0.032064959 0.76200002 0.0133604 1.5302129e-38 296 230
-0.030688593 0.76099998 0.013342866 1.5394324e-38 297 230
-0.029277159 0.759 0.0133078 1.5579072e-38 298 230
-0.027872739 0.75700003 0.013272733 1.5763103e-38 299 230
-0.026475333 0.755 0.013237666 1.6497429e-38 300 230
-0.025151566 0.755 0.013237666 1.6405234e-38 301 230
-0.02379624 0.75400001 0.013220133 1.6954794e-38 302 230
-0.022474226 0.75400001 0.013220133 1.6862598e-38 303 230
-0.021152213 0.75400001 0.013220133 1.7137369e-38 304 230
-0.019830201 0.75400001 0.013220133 1.7137369e-38 305 230
-0.018508185 0.75400001 0.013220133 1.7230276e-38 306 230
-0.017186172 0.75400001 0.013220133 1.7230276e-38 307 230
-0.01586416 0.75400001 0.013220133 1.7231352e-38 308 230
-0.014542146 0.75400001 0.013220133 1.7139158e-38 309 230
-0.013220133 0.75400001 0.013220133 1.7414306e-38 310 230
-0.01189812 0.75400001 0.013220133 1.7230276e-38 311 230
-0.010576107 0.75400001 0.013220133 1.6310486e-38 312 230
-0.0092540924 0.75400001 0.013220133 1.5942068e-38 313 230
-0.00793208 0.75400001 0.013220133 1.5389266e-38 314 230
-0.0066100666 0.75400001 0.013220133 1.5481461e-38 315 230
-0.0052880533 0.75400001 0.013220133 1.4561674e-38 316 230
-0.00396604 0.75400001 0.013220133 1.3731918e-38 317 230
-0.0026475333 0.755 0.013237666 1.3267001e-38 318 230
-0.0013237667 0.755 0.013237666 1.1884087e-38 319 230
0 0.76200002 0.0133604 1.0683051e-38 320 230
0.0013430532 0.76599997 0.013430533 8.6544193e-39 321 230
0.0026861064 0.76599997 0.013430533 7.8271824e-39 322 230
0.0040291594 0.76599997 0.013430533 8.7487659e-39 323 230
0.0053581866 0.764 0.013395466 9.6739368e-39 324 230
0.0066801999 0.76200002 0.0133604 1.2071006e-38 325 230
0.0080057196 0.76099998 0.013342866 1.3914158e-38 326 230
0.00931546 0.759 0.0133078 1.538929e-38 327 230
0.010618187 0.75700003 0.013272733 1.5482186e-38 328 230
0.01194546 0.75700003 0.013272733 1.5666576e-38 329 230
0.013272733 0.75700003 0.013272733 1.5759122e-38 330 230
0.014561433 0.755 0.013237666 1.5851317e-38 331 230
0.015885198 0.755 0.013237666 1.621901e-38 332 230
0.017186172 0.75400001 0.013220133 1.6495595e-38 333 230
0.018508185 0.75400001 0.013220133 1.6679267e-38 334 230
0.019830201 0.75400001 0.013220133 1.6679267e-38 335 230
0.021152213 0.75400001 0.013220133 1.6678187e-38 336 230
0.022474226 0.75400001 0.013220133 1.6401963e-38 337 230
0.023827799 0.755 0.013237666 1.6310128e-38 338 230
0.025151566 0.755 0.013237666 1.6310128e-38 339 230
0.026475333 0.755 0.013237666 1.5850967e-38 340 230
0.027799098 0.755 0.013237666 1.5666576e-38 341 230
0.029122867 0.755 0.013237666 1.5572955e-38 342 230
0.030527288 0.75700003 0.013272733 1.5388562e-38 343 230
0.031938717 0.759 0.0133078 1.5111645e-38 344 230
0.033357166 0.76099998 0.013342866 1.520384e-38 345 230
0.034737039 0.76200002 0.0133604 1.5114949e-38 346 230
-0.038999394 0.76700002 0.01210326 1.705473e-38 291 231
-0.037605491 0.76599997 0.012087479 1.5488436e-38 292 231
-0.036262438 0.76599997 0.012087479 1.4935263e-38 293 231
-0.034828212 0.764 0.01205592 1.4934463e-38 294 231
-0.033401001 0.76200002 0.01202436 1.4750072e-38 295 231
-0.032064959 0.76200002 0.01202436 1.5026615e-38 296 231
-0.030688593 0.76099998 0.012008579 1.511917e-38 297 231
-0.029277159 0.759 0.01197702 1.5394675e-38 298 231
-0.027872739 0.75700003 0.01194546 1.5579425e-38 299 231
-0.026475333 0.755 0.011913899 1.6313037e-38 300 231
-0.025118252 0.75400001 0.01189812 1.6313037e-38 301 231
-0.02379624 0.75400001 0.01189812 1.6771128e-38 302 231
-0.022474226 0.75400001 0.01189812 1.6771128e-38 303 231
-0.021152213 0.75400001 0.01189812 1.7230286e-38 304 231
-0.019830201 0.75400001 0.01189812 1.7230286e-38 305 231
-0.018508185 0.75400001 0.01189812 1.7507935e-38 306 231
-0.017186172 0.75400001 0.01189812 1.7692324e-38 307 231
-0.015822079 0.75199997 0.011866559 1.74161e-38 308 231
-0.014503572 0.75199997 0.011866559 1.7323905e-38 309 231
-0.013220133 0.75400001 0.01189812 1.7414665e-38 310 231
-0.011835 0.75 0.011835 1.7230635e-38 311 231
-0.01052 0.75 0.011835 1.6678905e-38 312 231
-0.0092049995 0.75 0.011835 1.6217933e-38 313 231
-0.00789 0.75 0.011835 1.5574726e-38 314 231
-0.0065925326 0.75199997 0.011866559 1.5482173e-38 315 231
-0.0052740262 0.75199997 0.011866559 1.4930802e-38 316 231
-0.0039555198 0.75199997 0.011866559 1.465386e-38 317 231
-0.0026370131 0.75199997 0.011866559 1.4743184e-38 318 231
-0.0013220133 0.75400001 0.01189812 1.4190019e-38 319 231
0 0.755 0.011913899 1.2806029e-38 320 231
0.00133604 0.76200002 0.01202436 1.1699699e-38 321 231
0.0026685731 0.76099998 0.012008579 1.0779191e-38 322 231
0.0040028598 0.76099998 0.012008579 1.1424551e-38 323 231
0.0053371461 0.76099998 0.012008579 1.2163903e-38 324 231
0.0066538998 0.759 0.01197702 1.3731228e-38 325 231
0.0079846792 0.759 0.01197702 1.5112696e-38 326 231
0.0092909131 0.75700003 0.01194546 1.5850261e-38 327 231
0.010590133 0.755 0.011913899 1.5942071e-38 328 231
0.011913899 0.755 0.011913899 1.5849517e-38 329 231
0.013237666 0.755 0.011913899 1.6218292e-38 330 231
0.014542146 0.75400001 0.01189812 1.6218292e-38 331 231
0.01586416 0.75400001 0.01189812 1.6677828e-38 332 231
0.017186172 0.75400001 0.01189812 1.7138441e-38 333 231
0.018508185 0.75400001 0.01189812 1.6954775e-38 334 231
0.019830201 0.75400001 0.01189812 1.6770384e-38 335 231
0.021152213 0.75400001 0.01189812 1.6494157e-38 336 231
0.022474226 0.75400001 0.01189812 1.6309769e-38 337 231
0.02379624 0.75400001 0.01189812 1.6309772e-38 338 231
0.025118252 0.75400001 0.01189812 1.6217576e-38 339 231
0.026475333 0.755 0.011913899 1.6033563e-38 340 231
0.027799098 0.755 0.011913899 1.5848813e-38 341 231
0.029122867 0.755 0.011913899 1.5664432e-38 342 231
0.030446632 0.755 0.011913899 1.5572235e-38 343 231
0.031854562 0.75700003 0.01194546 1.4928695e-38 344 231
0.033181835 0.75700003 0.01194546 1.5020892e-38 345 231
0.034691449 0.76099998 0.012008579 1.4745087e-38 346 231
-0.038948543 0.76599997 0.010744425 1.6963253e-38 291 232
-0.037605491 0.76599997 0.010744425 1.5489156e-38 292 232
-0.036167759 0.764 0.010716373 1.5028178e-38 293 232
-0.034737039 0.76200002 0.01068832 1.5026662e-38 294 232
-0.033401001 0.76200002 0.01068832 1.4749716e-38 295 232
-0.032022879 0.76099998 0.010674292 1.5210286e-38 296 232
-0.030688593 0.76099998 0.010674292 1.5117731e-38 297 232
-0.029277159 0.759 0.01064624 1.5302109e-38 298 232
-0.027872739 0.75700003 0.010618187 1.5578696e-38 299 232
-0.026475333 0.755 0.010590133 1.6312668e-38 300 232
-0.025118252 0.75400001 0.010576107 1.6220473e-38 301 232
-0.02379624 0.75400001 0.010576107 1.6771125e-38 302 232
-0.022474226 0.75400001 0.010576107 1.6955875e-38 303 232
-0.021152213 0.75400001 0.010576107 1.7232088e-38 304 232
-0.019830201 0.75400001 0.010576107 1.7324284e-38 305 232
-0.018508185 0.75400001 0.010576107 1.7510097e-38 306 232
-0.017140586 0.75199997 0.010548052 1.7510097e-38 307 232
-0.015822079 0.75199997 0.010548052 1.732534e-38 308 232
-0.014503572 0.75199997 0.010548052 1.7140952e-38 309 232
-0.01315 0.75 0.01052 1.7047681e-38 310 232
-0.01181922 0.74900001 0.010505973 1.6863293e-38 311 232
-0.010505973 0.74900001 0.010505973 1.631228e-38 312 232
-0.0091927266 0.74900001 0.010505973 1.6127533e-38 313 232
-0.00789 0.75 0.01052 1.5667997e-38 314 232
-0.0065662335 0.74900001 0.010505973 1.5483608e-38 315 232
-0.0052529867 0.74900001 0.010505973 1.5023713e-38 316 232
-0.003945 0.75 0.01052 1.4839325e-38 317 232
-0.00263 0.75 0.01052 1.5113755e-38 318 232
-0.001315 0.75 0.01052 1.5113755e-38 319 232
0 0.75199997 0.010548052 1.4654241e-38 320 232
0.0013220133 0.75400001 0.010576107 1.446985e-38 321 232
0.0026475333 0.755 0.010590133 1.4192211e-38 322 232
0.0039818203 0.75700003 0.010618187 1.4653187e-38 323 232
0.0053090933 0.75700003 0.010618187 1.4930132e-38 324 232
0.0066363667 0.75700003 0.010618187 1.5114163e-38 325 232
0.0079636406 0.75700003 0.010618187 1.5481105e-38 326 232
0.0092663663 0.755 0.010590133 1.5573302e-38 327 232
0.010590133 0.755 0.010590133 1.6034262e-38 328 232
0.01189812 0.75400001 0.010576107 1.6034262e-38 329 232
0.013220133 0.75400001 0.010576107 1.6310845e-38 330 232
0.014542146 0.75400001 0.010576107 1.6495592e-38 331 232
0.01586416 0.75400001 0.010576107 1.7413947e-38 332 232
0.017186172 0.75400001 0.010576107 1.7413947e-38 333 232
0.018508185 0.75400001 0.010576107 1.6862576e-38 334 232
0.019830201 0.75400001 0.010576107 1.6677828e-38 335 232
0.021152213 0.75400001 0.010576107 1.6585275e-38 336 232
0.022474226 0.75400001 0.010576107 1.6400887e-38 337 232
0.02379624 0.75400001 0.010576107 1.6216857e-38 338 232
0.025118252 0.75400001 0.010576107 1.6216857e-38 339 232
0.026440267 0.75400001 0.010576107 1.5940649e-38 340 232
0.027762281 0.75400001 0.010576107 1.5940649e-38 341 232
0.029122867 0.755 0.010590133 1.5389292e-38 342 232
0.030446632 0.755 0.010590133 1.5296737e-38 343 232
0.031770397 0.755 0.010590133 1.4928698e-38 344 232
0.033181835 0.75700003 0.010618187 1.4928698e-38 345 232
0.034509107 0.75700003 0.010618187 1.4468135e-38 346 232
0.03583638 0.75700003 0.010618187 1.5851069e-38 347 232
-0.038948543 0.76599997 0.0094013726 1.6962532e-38 291 233
-0.037605491 0.76599997 0.0094013726 1.5581352e-38 292 233
-0.036167759 0.764 0.0093768267 1.4935982e-38 293 233
-0.034737039 0.76200002 0.0093522798 1.5026659e-38 294 233
-0.033357166 0.76099998 0.0093400059 1.4750072e-38 295 233
-0.032022879 0.76099998 0.0093400059 1.4934774e-38 296 233
-0.030688593 0.76099998 0.0093400059 1.5026971e-38 297 233
-0.029277159 0.759 0.00931546 1.5302479e-38 298 233
-0.027872739 0.75700003 0.0092909131 1.5394675e-38 299 233
-0.026475333 0.755 0.0092663663 1.594533e-38 300 233
-0.025118252 0.75400001 0.0092540924 1.6037526e-38 301 233
-0.02379624 0.75400001 0.0092540924 1.640522e-38 302 233
-0.022474226 0.75400001 0.0092540924 1.6589251e-38 303 233
-0.021152213 0.75400001 0.0092540924 1.6958018e-38 304 233
-0.0197776 0.75199997 0.0092295464 1.7142409e-38 305 233
-0.018409999 0.75 0.0092049995 1.7418976e-38 306 233
-0.017095 0.75 0.0092049995 1.7418976e-38 307 233
-0.01578 0.75 0.0092049995 1.732534e-38 308 233
-0.014465 0.75 0.0092049995 1.7140952e-38 309 233
-0.013132467 0.74900001 0.0091927266 1.704804e-38 310 233
-0.01181922 0.74900001 0.0091927266 1.6955846e-38 311 233
-0.010505973 0.74900001 0.0091927266 1.6587786e-38 312 233
-0.0091927266 0.74900001 0.0091927266 1.6495592e-38 313 233
-0.0078794798 0.74900001 0.0091927266 1.6403398e-38 314 233
-0.0065662335 0.74900001 0.0091927266 1.6034621e-38 315 233
-0.0052529867 0.74900001 0.0091927266 1.5850591e-38 316 233
-0.003945 0.75 0.0092049995 1.5666562e-38 317 233
-0.00263 0.75 0.0092049995 1.5574726e-38 318 233
-0.001315 0.75 0.0092049995 1.5390338e-38 319 233
0 0.75 0.0092049995 1.5298861e-38 320 233
0.001315 0.75 0.0092049995 1.5298861e-38 321 233
0.0026370131 0.75199997 0.0092295464 1.5206308e-38 322 233
0.0039555198 0.75199997 0.0092295464 1.5298502e-38 323 233
0.0052740262 0.75199997 0.0092295464 1.5666562e-38 324 233
0.0065925326 0.75199997 0.0092295464 1.5481814e-38 325 233
0.00793208 0.75400001 0.0092540924 1.5757321e-38 326 233
0.0092540924 0.75400001 0.0092540924 1.5942068e-38 327 233
0.010548052 0.75199997 0.0092295464 1.6585275e-38 328 233
0.011866559 0.75199997 0.0092295464 1.6769305e-38 329 233
0.013185065 0.75199997 0.0092295464 1.7045888e-38 330 233
0.014503572 0.75199997 0.0092295464 1.7230635e-38 331 233
0.015822079 0.75199997 0.0092295464 1.7321753e-38 332 233
0.017140586 0.75199997 0.0092295464 1.7229559e-38 333 233
0.018459093 0.75199997 0.0092295464 1.7045529e-38 334 233
0.0197776 0.75199997 0.0092295464 1.6768588e-38 335 233
0.021152213 0.75400001 0.0092540924 1.6492722e-38 336 233
0.022474226 0.75400001 0.0092540924 1.6400169e-38 337 233
0.02379624 0.75400001 0.0092540924 1.6400528e-38 338 233
0.025118252 0.75400001 0.0092540924 1.6400528e-38 339 233
0.026440267 0.75400001 0.0092540924 1.6033197e-38 340 233
0.027762281 0.75400001 0.0092540924 1.5940643e-38 341 233
0.029122867 0.755 0.0092663663 1.5664429e-38 342 233
0.030446632 0.755 0.0092663663 1.5572232e-38 343 233
0.031770397 0.755 0.0092663663 1.520384e-38 344 233
0.033094164 0.755 0.0092663663 1.5296037e-38 345 233
0.034509107 0.75700003 0.0092909131 1.4283018e-38 346 233
0.03583638 0.75700003 0.0092909131 1.5389365e-38 347 233
-0.038948543 0.76599997 0.0080583189 1.6962897e-38 291 234
-0.037605491 0.76599997 0.0080583189 1.5673553e-38 292 234
-0.036262438 0.76599997 0.0080583189 1.4935988e-38 293 234
-0.034737039 0.76200002 0.0080162399 1.4933757e-38 294 234
-0.033357166 0.76099998 0.0080057196 1.4749366e-38 295 234
-0.032022879 0.76099998 0.0080057196 1.4934065e-38 296 234
-0.030688593 0.76099998 0.0080057196 1.484187e-38 297 234
-0.029277159 0.759 0.0079846792 1.5485426e-38 298 234
-0.027799098 0.755 0.0079425992 1.5577621e-38 299 234
-0.026475333 0.755 0.0079425992 1.5945681e-38 300 234
-0.025118252 0.75400001 0.00793208 1.6130431e-38 301 234
-0.02379624 0.75400001 0.00793208 1.6406656e-38 302 234
-0.022414612 0.75199997 0.0079110395 1.6498852e-38 303 234
-0.021096105 0.75199997 0.0079110395 1.704986e-38 304 234
-0.0197776 0.75199997 0.0079110395 1.7234252e-38 305 234
-0.018409999 0.75 0.00789 1.7234958e-38 306 234
-0.017095 0.75 0.00789 1.7419351e-38 307 234
-0.01575896 0.74900001 0.0078794798 1.7143113e-38 308 234
-0.014445714 0.74900001 0.0078794798 1.6958363e-38 309 234
-0.013132467 0.74900001 0.0078794798 1.6682492e-38 310 234
-0.01181922 0.74900001 0.0078794798 1.6498103e-38 311 234
-0.010505973 0.74900001 0.0078794798 1.6497386e-38 312 234
-0.0091927266 0.74900001 0.0078794798 1.6497386e-38 313 234
-0.0078794798 0.74900001 0.0078794798 1.6313356e-38 314 234
-0.0065662335 0.74900001 0.0078794798 1.5944579e-38 315 234
-0.0052529867 0.74900001 0.0078794798 1.5852744e-38 316 234
-0.0039397399 0.74900001 0.0078794798 1.5667997e-38 317 234
-0.0026264933 0.74900001 0.0078794798 1.557652e-38 318 234
-0.0013132467 0.74900001 0.0078794798 1.5484326e-38 319 234
0 0.74900001 0.0078794798 1.5759115e-38 320 234
0.0013132467 0.74900001 0.0078794798 1.5574726e-38 321 234
0.0026264933 0.74900001 0.0078794798 1.5023713e-38 322 234
0.0039397399 0.74900001 0.0078794798 1.520846e-38 323 234
0.0052529867 0.74900001 0.0078794798 1.5850233e-38 324 234
0.0065662335 0.74900001 0.0078794798 1.5665844e-38 325 234
0.00789 0.75 0.00789 1.6125739e-38 326 234
0.0092295464 0.75199997 0.0079110395 1.6217933e-38 327 234
0.010548052 0.75199997 0.0079110395 1.6585275e-38 328 234
0.011866559 0.75199997 0.0079110395 1.6861499e-38 329 234
0.01315 0.75 0.00789 1.7321753e-38 330 234
0.014465 0.75 0.00789 1.7229559e-38 331 234
0.01578 0.75 0.00789 1.7228841e-38 332 234
0.017095 0.75 0.00789 1.7136647e-38 333 234
0.018409999 0.75 0.00789 1.7044453e-38 334 234
0.019724999 0.75 0.00789 1.69519e-38 335 234
0.021096105 0.75199997 0.0079110395 1.6492722e-38 336 234
0.022414612 0.75199997 0.0079110395 1.6492722e-38 337 234
0.02379624 0.75400001 0.00793208 1.6125022e-38 338 234
0.025118252 0.75400001 0.00793208 1.6125022e-38 339 234
0.026440267 0.75400001 0.00793208 1.5849517e-38 340 234
0.027762281 0.75400001 0.00793208 1.5942071e-38 341 234
0.029084291 0.75400001 0.00793208 1.5389996e-38 342 234
0.030446632 0.755 0.0079425992 1.529744e-38 343 234
0.031770397 0.755 0.0079425992 1.5020878e-38 344 234
0.033094164 0.755 0.0079425992 1.4836487e-38 345 234
0.034509107 0.75700003 0.0079636406 1.4556715e-38 346 234
0.03583638 0.75700003 0.0079636406 1.5662702e-38 347 234
-0.038948543 0.76599997 0.0067152665 1.705473e-38 291 235
-0.037605491 0.76599997 0.0067152665 1.5765748e-38 292 235
-0.036262438 0.76599997 0.0067152665 1.5120379e-38 293 235
-0.034737039 0.76200002 0.0066801999 1.4934476e-38 294 235
-0.033357166 0.76099998 0.0066714329 1.4658249e-38 295 235
-0.032022879 0.76099998 0.0066714329 1.4934065e-38 296 235
-0.030607941 0.759 0.0066538998 1.4934065e-38 297 235
-0.029277159 0.759 0.0066538998 1.530176e-38 298 235
-0.027799098 0.755 0.0066188332 1.5393956e-38 299 235
-0.026475333 0.755 0.0066188332 1.576309e-38 300 235
-0.025118252 0.75400001 0.0066100666 1.5947481e-38 301 235
-0.023733119 0.75199997 0.0065925326 1.6223347e-38 302 235
-0.022414612 0.75199997 0.0065925326 1.6407738e-38 303 235
-0.021096105 0.75199997 0.0065925326 1.6683602e-38 304 235
-0.019724999 0.75 0.006575 1.6775797e-38 305 235
-0.018409999 0.75 0.006575 1.6868699e-38 306 235
-0.017095 0.75 0.006575 1.6868699e-38 307 235
-0.01575896 0.74900001 0.0065662335 1.6959795e-38 308 235
-0.014445714 0.74900001 0.0065662335 1.6867599e-38 309 235
-0.013132467 0.74900001 0.0065662335 1.7051627e-38 310 235
-0.01181922 0.74900001 0.0065662335 1.6959075e-38 311 235
-0.010505973 0.74900001 0.0065662335 1.6867957e-38 312 235
-0.0091927266 0.74900001 0.0065662335 1.6775404e-38 313 235
-0.0078794798 0.74900001 0.0065662335 1.6683568e-38 314 235
-0.0065662335 0.74900001 0.0065662335 1.6038208e-38 315 235
-0.0052529867 0.74900001 0.0065662335 1.6220803e-38 316 235
-0.0039397399 0.74900001 0.0065662335 1.612825e-38 317 235
-0.0026264933 0.74900001 0.0065662335 1.6496668e-38 318 235
-0.0013132467 0.74900001 0.0065662335 1.6681058e-38 319 235
0 0.74900001 0.0065662335 1.6679984e-38 320 235
0.0013132467 0.74900001 0.0065662335 1.6495592e-38 321 235
0.0026194798 0.74699998 0.0065486995 1.6310128e-38 322 235
0.0039292197 0.74699998 0.0065486995 1.6402323e-38 323 235
0.0052529867 0.74900001 0.0065662335 1.6494157e-38 324 235
0.0065662335 0.74900001 0.0065662335 1.630941e-38 325 235
0.00789 0.75 0.006575 1.649344e-38 326 235
0.0092049995 0.75 0.006575 1.6401246e-38 327 235
0.01052 0.75 0.006575 1.6585275e-38 328 235
0.011835 0.75 0.006575 1.6769305e-38 329 235
0.01315 0.75 0.006575 1.6952976e-38 330 235
0.014465 0.75 0.006575 1.6860782e-38 331 235
0.01578 0.75 0.006575 1.7044453e-38 332 235
0.017095 0.75 0.006575 1.7044453e-38 333 235
0.018409999 0.75 0.006575 1.6585275e-38 334 235
0.019724999 0.75 0.006575 1.6585275e-38 335 235
0.021096105 0.75199997 0.0065925326 1.6492722e-38 336 235
0.022414612 0.75199997 0.0065925326 1.6400528e-38 337 235
0.02379624 0.75400001 0.0066100666 1.6217216e-38 338 235
0.025118252 0.75400001 0.0066100666 1.6217216e-38 339 235
0.026440267 0.75400001 0.0066100666 1.5850233e-38 340 235
0.027762281 0.75400001 0.0066100666 1.5850233e-38 341 235
0.029084291 0.75400001 0.0066100666 1.5482542e-38 342 235
0.030446632 0.755 0.0066188332 1.5390345e-38 343 235
0.031770397 0.755 0.0066188332 1.5204544e-38 344 235
0.033094164 0.755 0.0066188332 1.5204544e-38 345 235
0.034509107 0.75700003 0.0066363667 1.446667e-38 346 235
0.03583638 0.75700003 0.0066363667 1.5296431e-38 347 235
-0.038999394 0.76700002 0.0053792265 1.696325e-38 291 236
-0.037605491 0.76599997 0.0053722127 1.5949061e-38 292 236
-0.036262438 0.76599997 0.0053722127 1.51193e-38 293 236
-0.034828212 0.764 0.0053581866 1.5027394e-38 294 236
-0.033357166 0.76099998 0.0053371461 1.4658971e-38 295 236
-0.032022879 0.76099998 0.0053371461 1.5209577e-38 296 236
-0.030607941 0.759 0.0053231199 1.511738e-38 297 236
-0.029277159 0.759 0.0053231199 1.530176e-38 298 236
-0.027799098 0.755 0.0052950666 1.5393956e-38 299 236
-0.026475333 0.755 0.0052950666 1.5762734e-38 300 236
-0.025118252 0.75400001 0.0052880533 1.5947486e-38 301 236
-0.023733119 0.75199997 0.0052740262 1.622371e-38 302 236
-0.022414612 0.75199997 0.0052740262 1.6315905e-38 303 236
-0.021096105 0.75199997 0.0052740262 1.6501003e-38 304 236
-0.019724999 0.75 0.00526 1.6501003e-38 305 236
-0.018385453 0.74900001 0.0052529867 1.6776498e-38 306 236
-0.017072206 0.74900001 0.0052529867 1.6868694e-38 307 236
-0.01575896 0.74900001 0.0052529867 1.6869047e-38 308 236
-0.014445714 0.74900001 0.0052529867 1.6869047e-38 309 236
-0.013132467 0.74900001 0.0052529867 1.686905e-38 310 236
-0.01181922 0.74900001 0.0052529867 1.7053082e-38 311 236
-0.010505973 0.74900001 0.0052529867 1.677757e-38 312 236
-0.0091927266 0.74900001 0.0052529867 1.677757e-38 313 236
-0.0078794798 0.74900001 0.0052529867 1.6774686e-38 314 236
-0.0065662335 0.74900001 0.0052529867 1.6129326e-38 315 236
-0.0052389596 0.74699998 0.0052389596 1.6037132e-38 316 236
-0.0039292197 0.74699998 0.0052389596 1.6129685e-38 317 236
-0.0026194798 0.74699998 0.0052389596 1.686545e-38 318 236
-0.0013132467 0.74900001 0.0052529867 1.7142038e-38 319 236
0 0.74900001 0.0052529867 1.7326075e-38 320 236
0.0013132467 0.74900001 0.0052529867 1.7142043e-38 321 236
0.0026194798 0.74699998 0.0052389596 1.6956929e-38 322 236
0.0039292197 0.74699998 0.0052389596 1.6956929e-38 323 236
0.0052389596 0.74699998 0.0052389596 1.6863652e-38 324 236
0.0065486995 0.74699998 0.0052389596 1.6495234e-38 325 236
0.0078584393 0.74699998 0.0052389596 1.6769305e-38 326 236
0.0091927266 0.74900001 0.0052529867 1.6585275e-38 327 236
0.010505973 0.74900001 0.0052529867 1.6676035e-38 328 236
0.01181922 0.74900001 0.0052529867 1.6768229e-38 329 236
0.01315 0.75 0.00526 1.6676035e-38 330 236
0.014465 0.75 0.00526 1.6676035e-38 331 236
0.01578 0.75 0.00526 1.69519e-38 332 236
0.017095 0.75 0.00526 1.69519e-38 333 236
0.018409999 0.75 0.00526 1.6768229e-38 334 236
0.019724999 0.75 0.00526 1.6676035e-38 335 236
0.021096105 0.75199997 0.0052740262 1.6401246e-38 336 236
0.022414612 0.75199997 0.0052740262 1.6217216e-38 337 236
0.023733119 0.75199997 0.0052740262 1.6125739e-38 338 236
0.025118252 0.75400001 0.0052880533 1.6125739e-38 339 236
0.026440267 0.75400001 0.0052880533 1.5850233e-38 340 236
0.027762281 0.75400001 0.0052880533 1.5850233e-38 341 236
0.029122867 0.755 0.0052950666 1.5482186e-38 342 236
0.030446632 0.755 0.0052950666 1.538999e-38 343 236
0.031770397 0.755 0.0052950666 1.5204544e-38 344 236
0.033094164 0.755 0.0052950666 1.5204544e-38 345 236
0.034509107 0.75700003 0.0053090933 1.4466665e-38 346 236
0.03583638 0.75700003 0.0053090933 1.5296784e-38 347 236
0.037163652 0.75700003 0.0053090933 1.6312801e-38 348 236
-0.038999394 0.76700002 0.00403442 1.6686668e-38 291 237
-0.037605491 0.76599997 0.0040291594 1.5948708e-38 292 237
-0.036262438 0.76599997 0.0040291594 1.5211142e-38 293 237
-0.034828212 0.764 0.0040186401 1.484301e-38 294 237
-0.033357166 0.76099998 0.0040028598 1.4750813e-38 295 237
-0.032022879 0.76099998 0.0040028598 1.5118466e-38 296 237
-0.030688593 0.76099998 0.0040028598 1.4933715e-38 297 237
-0.029200014 0.75700003 0.0039818203 1.5301763e-38 298 237
-0.027799098 0.755 0.0039712996 1.5301763e-38 299 237
-0.026475333 0.755 0.0039712996 1.5762018e-38 300 237
-0.025118252 0.75400001 0.00396604 1.6038245e-38 301 237
-0.023733119 0.75199997 0.0039555198 1.6132959e-38 302 237
-0.022414612 0.75199997 0.0039555198 1.631771e-38 303 237
-0.02104 0.75 0.003945 1.631769e-38 304 237
-0.019724999 0.75 0.003945 1.631769e-38 305 237
-0.018385453 0.74900001 0.0039397399 1.6593551e-38 306 237
-0.017072206 0.74900001 0.0039397399 1.6593551e-38 307 237
-0.01575896 0.74900001 0.0039397399 1.6685748e-38 308 237
-0.014445714 0.74900001 0.0039397399 1.6593551e-38 309 237
-0.013132467 0.74900001 0.0039397399 1.6593907e-38 310 237
-0.01181922 0.74900001 0.0039397399 1.6686104e-38 311 237
-0.010477919 0.74699998 0.0039292197 1.6868696e-38 312 237
-0.0091681797 0.74699998 0.0039292197 1.6868696e-38 313 237
-0.0078584393 0.74699998 0.0039292197 1.6682853e-38 314 237
-0.0065486995 0.74699998 0.0039292197 1.6314432e-38 315 237
-0.0052389596 0.74699998 0.0039292197 1.6038208e-38 316 237
-0.0039292197 0.74699998 0.0039292197 1.6130403e-38 317 237
-0.0026194798 0.74699998 0.0039292197 1.6683209e-38 318 237
-0.0013097399 0.74699998 0.0039292197 1.6775404e-38 319 237
0 0.74699998 0.0039292197 1.7142747e-38 320 237
0.0013132467 0.74900001 0.0039397399 1.7050193e-38 321 237
0.0026194798 0.74699998 0.0039292197 1.6866163e-38 322 237
0.0039292197 0.74699998 0.0039292197 1.677361e-38 323 237
0.0052389596 0.74699998 0.0039292197 1.6771099e-38 324 237
0.0065486995 0.74699998 0.0039292197 1.6494875e-38 325 237
0.0078584393 0.74699998 0.0039292197 1.6769305e-38 326 237
0.0091927266 0.74900001 0.0039397399 1.6585275e-38 327 237
0.010505973 0.74900001 0.0039397399 1.6768229e-38 328 237
0.01181922 0.74900001 0.0039397399 1.6676035e-38 329 237
0.013132467 0.74900001 0.0039397399 1.6676035e-38 330 237
0.014445714 0.74900001 0.0039397399 1.6768229e-38 331 237
0.01575896 0.74900001 0.0039397399 1.6767511e-38 332 237
0.017095 0.75 0.003945 1.6767511e-38 333 237
0.018409999 0.75 0.003945 1.6492722e-38 334 237
0.019724999 0.75 0.003945 1.6492722e-38 335 237
0.021096105 0.75199997 0.0039555198 1.6217216e-38 336 237
0.022414612 0.75199997 0.0039555198 1.6217216e-38 337 237
0.023733119 0.75199997 0.0039555198 1.5942068e-38 338 237
0.025118252 0.75400001 0.00396604 1.5942068e-38 339 237
0.026440267 0.75400001 0.00396604 1.5758756e-38 340 237
0.027762281 0.75400001 0.00396604 1.5758756e-38 341 237
0.029084291 0.75400001 0.00396604 1.5482191e-38 342 237
0.030446632 0.755 0.0039712996 1.5389996e-38 343 237
0.031770397 0.755 0.0039712996 1.5020876e-38 344 237
0.033094164 0.755 0.0039712996 1.5020876e-38 345 237
0.034509107 0.75700003 0.0039818203 1.4558866e-38 346 237
0.03583638 0.75700003 0.0039818203 1.5480462e-38 347 237
0.037360024 0.76099998 0.0040028598 1.6129492e-38 348 237
-0.038999394 0.76700002 0.0026896133 1.6685589e-38 291 238
-0.037605491 0.76599997 0.0026861064 1.594871e-38 292 238
-0.036262438 0.76599997 0.0026861064 1.5487734e-38 293 238
-0.034828212 0.764 0.0026790933 1.5026322e-38 294 238
-0.033357166 0.76099998 0.0026685731 1.4934125e-38 295 238
-0.032022879 0.76099998 0.0026685731 1.5026268e-38 296 238
-0.030688593 0.76099998 0.0026685731 1.4841875e-38 297 238
-0.029200014 0.75700003 0.0026545466 1.5209213e-38 298 238
-0.027799098 0.755 0.0026475333 1.530141e-38 299 238
-0.026475333 0.755 0.0026475333 1.5301776e-38 300 238
-0.025118252 0.75400001 0.0026440267 1.5762752e-38 301 238
-0.023733119 0.75199997 0.0026370131 1.5673432e-38 302 238
-0.022355 0.75 0.00263 1.5950018e-38 303 238
-0.02104 0.75 0.00263 1.6042551e-38 304 238
-0.0196987 0.74900001 0.0026264933 1.6134747e-38 305 238
-0.018385453 0.74900001 0.0026264933 1.6594272e-38 306 238
-0.017072206 0.74900001 0.0026264933 1.6594272e-38 307 238
-0.01575896 0.74900001 0.0026264933 1.6593551e-38 308 238
-0.014445714 0.74900001 0.0026264933 1.6593551e-38 309 238
-0.013097399 0.74699998 0.0026194798 1.6501724e-38 310 238
-0.011787659 0.74699998 0.0026194798 1.6317693e-38 311 238
-0.010477919 0.74699998 0.0026194798 1.6592848e-38 312 238
-0.0091681797 0.74699998 0.0026194798 1.6500652e-38 313 238
-0.0078584393 0.74699998 0.0026194798 1.6775419e-38 314 238
-0.0065486995 0.74699998 0.0026194798 1.6499192e-38 315 238
