# .PCD v.7 - Point Cloud Data file format
FIELDS x y z rgb imX imY
SIZE 4 4 4 4 4 4
TYPE F F F F F F
COUNT 1 1 1 1 1 1
WIDTH 861
HEIGHT 1
VIEWPOINT 0 0 0 1 0 0 0
POINTS 861
DATA ascii
0.0094627403 0.77100003 0.01757366 8.2135372e-39 327 227
0.01081456 0.77100003 0.01757366 8.9496561e-39 328 227
0.01216638 0.77100003 0.01757366 9.779414e-39 329 227
0.013518199 0.77100003 0.01757366 1.0605928e-38 330 227
0.01487002 0.77100003 0.01757366 1.0421897e-38 331 227
0.016221842 0.77100003 0.01757366 1.0422618e-38 332 227
0.017528072 0.76899999 0.017528072 1.0514815e-38 333 227
0.018876385 0.76899999 0.017528072 8.7674523e-39 334 227
0.0202247 0.76899999 0.017528072 8.6752566e-39 335 227
0.021573013 0.76899999 0.017528072 9.413605e-39 336 227
0.022921326 0.76899999 0.017528072 1.1165322e-38 337 227
0.024269639 0.76899999 0.017528072 1.3093186e-38 338 227
0.025617953 0.76899999 0.017528072 1.2816239e-38 339 227
0.027036399 0.77100003 0.01757366 1.2632574e-38 340 227
-0.028314579 0.76899999 0.016179759 1.5210822e-38 299 228
-0.026896132 0.76700002 0.01613768 1.3461946e-38 300 228
-0.025551327 0.76700002 0.01613768 1.1986816e-38 301 228
-0.024174958 0.76599997 0.016116638 1.2172965e-38 302 228
-0.022831906 0.76599997 0.016116638 1.2172965e-38 303 228
-0.021516906 0.76700002 0.01613768 1.2447717e-38 304 228
-0.020145798 0.76599997 0.016116638 1.2078936e-38 305 228
-0.018802745 0.76599997 0.016116638 1.1620458e-38 306 228
-0.017414106 0.764 0.016074561 1.0975089e-38 307 228
-0.016074561 0.764 0.016074561 1.0605577e-38 308 228
-0.014735013 0.764 0.016074561 1.0237155e-38 309 228
-0.0133604 0.76200002 0.01603248 1.0144954e-38 310 228
-0.01202436 0.76200002 0.01603248 1.0052758e-38 311 228
-0.01068832 0.76200002 0.01603248 9.8698047e-39 312 228
-0.0093522798 0.76200002 0.01603248 9.8698047e-39 313 228
-0.0080162399 0.76200002 0.01603248 9.8705222e-39 314 228
-0.006697733 0.764 0.016074561 9.5939395e-39 315 228
-0.0053581866 0.764 0.016074561 9.5925046e-39 316 228
-0.0040291594 0.76599997 0.016116638 9.5925046e-39 317 228
-0.0026861064 0.76599997 0.016116638 9.0414986e-39 318 228
-0.0013430532 0.76599997 0.016116638 8.949303e-39 319 228
0 0.76700002 0.01613768 8.6723699e-39 320 228
0.0013448066 0.76700002 0.01613768 8.4876186e-39 321 228
0.0026896133 0.76700002 0.01613768 8.1202836e-39 322 228
0.00403442 0.76700002 0.01613768 7.8436981e-39 323 228
0.0053932532 0.76899999 0.016179759 7.1090057e-39 324 228
0.0067415666 0.76899999 0.016179759 7.2012027e-39 325 228
0.0080898795 0.76899999 0.016179759 6.9264109e-39 326 228
0.0094627403 0.77100003 0.016221842 7.3873877e-39 327 228
0.01081456 0.77100003 0.016221842 8.6734391e-39 328 228
0.01216638 0.77100003 0.016221842 9.3188085e-39 329 228
0.013518199 0.77100003 0.016221842 1.0054203e-38 330 228
0.014831445 0.76899999 0.016179759 9.9620073e-39 331 228
0.016179759 0.76899999 0.016179759 1.0144601e-38 332 228
0.017528072 0.76899999 0.016179759 1.0421546e-38 333 228
0.018876385 0.76899999 0.016179759 9.9612885e-39 334 228
0.0202247 0.76899999 0.016179759 9.6847002e-39 335 228
0.021573013 0.76899999 0.016179759 9.4103133e-39 336 228
0.022921326 0.76899999 0.016179759 1.0148237e-38 337 228
0.024269639 0.76899999 0.016179759 1.0883325e-38 338 228
0.025617953 0.76899999 0.016179759 1.1159551e-38 339 228
0.027036399 0.77100003 0.016221842 1.1159557e-38 340 228
0.028388219 0.77100003 0.016221842 1.0790774e-38 341 228
-0.029740039 0.77100003 0.01487002 1.5857611e-38 298 229
-0.028314579 0.76899999 0.014831445 1.3276133e-38 299 229
-0.026896132 0.76700002 0.014792874 1.1803456e-38 300 229
-0.025518013 0.76599997 0.014773586 1.1065891e-38 301 229
-0.024174958 0.76599997 0.014773586 1.1436793e-38 302 229
-0.022831906 0.76599997 0.014773586 1.1713021e-38 303 229
-0.021488851 0.76599997 0.014773586 1.1893822e-38 304 229
-0.020093199 0.764 0.014735013 1.1801626e-38 305 229
-0.018753653 0.764 0.014735013 1.1525743e-38 306 229
-0.01736852 0.76200002 0.01469644 1.0972569e-38 307 229
-0.01603248 0.76200002 0.01469644 1.04201e-38 308 229
-0.01469644 0.76200002 0.01469644 1.0327906e-38 309 229
-0.0133604 0.76200002 0.01469644 1.0143876e-38 310 229
-0.01202436 0.76200002 0.01469644 1.0051682e-38 311 229
-0.01068832 0.76200002 0.01469644 9.8690872e-39 312 229
-0.0093522798 0.76200002 0.01469644 9.9612815e-39 313 229
-0.0080162399 0.76200002 0.01469644 9.5925046e-39 314 229
-0.0066801999 0.76200002 0.01469644 9.4999516e-39 315 229
-0.0053441599 0.76200002 0.01469644 9.3152044e-39 316 229
-0.0040186401 0.764 0.014735013 9.2226514e-39 317 229
-0.0026790933 0.764 0.014735013 8.8553123e-39 318 229
-0.0013395466 0.764 0.014735013 8.670921e-39 319 229
0 0.76599997 0.014773586 8.3947041e-39 320 229
0.0013430532 0.76599997 0.014773586 8.2103128e-39 321 229
0.0026861064 0.76599997 0.014773586 7.5671098e-39 322 229
0.00403442 0.76700002 0.014792874 7.1983287e-39 323 229
0.0053932532 0.76899999 0.014831445 6.830272e-39 324 229
0.0067415666 0.76899999 0.014831445 7.0143032e-39 325 229
0.0080898795 0.76899999 0.014831445 6.7405931e-39 326 229
0.0094381925 0.76899999 0.014831445 6.9249844e-39 327 229
0.010786506 0.76899999 0.014831445 7.4763421e-39 328 229
0.01216638 0.77100003 0.01487002 7.8451232e-39 329 229
0.013483133 0.76899999 0.014831445 9.4995929e-39 330 229
0.014831445 0.76899999 0.014831445 9.6839813e-39 331 229
0.016179759 0.76899999 0.014831445 9.7776105e-39 332 229
0.017482487 0.76700002 0.014792874 9.7776105e-39 333 229
0.018827293 0.76700002 0.014792874 1.0513371e-38 334 229
0.020172099 0.76700002 0.014792874 1.0789955e-38 335 229
0.021516906 0.76700002 0.014792874 9.961657e-39 336 229
0.022861714 0.76700002 0.014792874 9.7772658e-39 337 229
0.024269639 0.76899999 0.014831445 9.5028523e-39 338 229
0.025617953 0.76899999 0.014831445 9.5028523e-39 339 229
0.026966266 0.76899999 0.014831445 9.4103035e-39 340 229
0.028388219 0.77100003 0.01487002 8.9493254e-39 341 229
0.029740039 0.77100003 0.01487002 8.3079511e-39 342 229
-0.029740039 0.77100003 0.013518199 1.3924001e-38 298 230
-0.028314579 0.76899999 0.013483133 1.1158132e-38 299 230
-0.026896132 0.76700002 0.013448066 1.0789272e-38 300 230
-0.025518013 0.76599997 0.013430533 1.0697077e-38 301 230
-0.024174958 0.76599997 0.013430533 1.1252027e-38 302 230
-0.022831906 0.76599997 0.013430533 1.1528613e-38 303 230
-0.021488851 0.76599997 0.013430533 1.152719e-38 304 230
-0.020093199 0.764 0.013395466 1.1250245e-38 305 230
-0.018753653 0.764 0.013395466 1.1157316e-38 306 230
-0.01736852 0.76200002 0.0133604 1.0788174e-38 307 230
-0.016011439 0.76099998 0.013342866 1.0512653e-38 308 230
-0.014677152 0.76099998 0.013342866 1.0143876e-38 309 230
-0.0133604 0.76200002 0.0133604 9.960564e-39 310 230
-0.012008579 0.76099998 0.013342866 9.8683698e-39 311 230
-0.010674292 0.76099998 0.013342866 9.685775e-39 312 230
-0.0093400059 0.76099998 0.013342866 9.5935808e-39 313 230
-0.0080057196 0.76099998 0.013342866 9.4999516e-39 314 230
-0.0066801999 0.76200002 0.0133604 9.3155631e-39 315 230
-0.0053441599 0.76200002 0.0133604 8.8556682e-39 316 230
-0.0040081199 0.76200002 0.0133604 8.763474e-39 317 230
-0.00267208 0.76200002 0.0133604 8.1199122e-39 318 230
-0.0013395466 0.764 0.013395466 7.935521e-39 319 230
0 0.764 0.013395466 7.567107e-39 320 230
0.0013430532 0.76599997 0.013430533 7.1986846e-39 321 230
0.0026861064 0.76599997 0.013430533 6.8291944e-39 322 230
0.00403442 0.76700002 0.013448066 6.5526089e-39 323 230
0.0053932532 0.76899999 0.013483133 6.3682331e-39 324 230
0.0067415666 0.76899999 0.013483133 6.4604287e-39 325 230
0.0080898795 0.76899999 0.013483133 6.3700338e-39 326 230
0.0094381925 0.76899999 0.013483133 6.6466221e-39 327 230
0.010786506 0.76899999 0.013483133 7.0157353e-39 328 230
0.01216638 0.77100003 0.013518199 7.3845178e-39 329 230
0.013483133 0.76899999 0.013483133 8.763474e-39 330 230
0.014831445 0.76899999 0.013483133 9.2244451e-39 331 230
0.016179759 0.76899999 0.013483133 9.3169981e-39 332 230
0.017482487 0.76700002 0.013448066 9.1326096e-39 333 230
0.018827293 0.76700002 0.013448066 1.0237864e-38 334 230
0.020172099 0.76700002 0.013448066 1.0790674e-38 335 230
0.021516906 0.76700002 0.013448066 1.0330058e-38 336 230
0.022861714 0.76700002 0.013448066 1.0145311e-38 337 230
0.024206521 0.76700002 0.013448066 9.7790454e-39 338 230
0.025551327 0.76700002 0.013448066 9.6868512e-39 339 230
0.026966266 0.76899999 0.013483133 9.6868652e-39 340 230
0.028314579 0.76899999 0.013483133 9.4106384e-39 341 230
0.02966289 0.76899999 0.013483133 9.0418938e-39 342 230
-0.028314579 0.76899999 0.012134819 9.7758981e-39 299 231
-0.026861066 0.76599997 0.012087479 9.9591557e-39 300 231
-0.025518013 0.76599997 0.012087479 1.0604525e-38 301 231
-0.024111839 0.764 0.01205592 1.0883973e-38 302 231
-0.022772292 0.764 0.01205592 1.1068005e-38 303 231
-0.021432746 0.764 0.01205592 1.125095e-38 304 231
-0.020093199 0.764 0.01205592 1.0882169e-38 305 231
-0.01870456 0.76200002 0.01202436 1.0697407e-38 306 231
-0.017345725 0.76099998 0.012008579 1.042082e-38 307 231
-0.016011439 0.76099998 0.012008579 1.0144952e-38 308 231
-0.014677152 0.76099998 0.012008579 1.0052758e-38 309 231
-0.013342866 0.76099998 0.012008579 9.869446e-39 310 231
-0.01197702 0.759 0.01197702 9.869446e-39 311 231
-0.01064624 0.759 0.01197702 9.9612815e-39 312 231
-0.00931546 0.759 0.01197702 9.8690872e-39 313 231
-0.0080057196 0.76099998 0.012008579 9.5925046e-39 314 231
-0.0066714329 0.76099998 0.012008579 9.4081161e-39 315 231
-0.0053371461 0.76099998 0.012008579 8.8560269e-39 316 231
-0.0040028598 0.76099998 0.012008579 8.5794442e-39 317 231
-0.00267208 0.76200002 0.01202436 8.0273551e-39 318 231
-0.00133604 0.76200002 0.01202436 7.7504137e-39 319 231
0 0.764 0.01205592 7.106489e-39 320 231
0.0013395466 0.764 0.01205592 6.8295476e-39 321 231
0.0026861064 0.76599997 0.012087479 6.2756703e-39 322 231
0.00403442 0.76700002 0.01210326 5.9068892e-39 323 231
0.0053932532 0.76899999 0.012134819 5.9969493e-39 324 231
0.0067415666 0.76899999 0.012134819 6.1816993e-39 325 231
0.0080898795 0.76899999 0.012134819 6.0920162e-39 326 231
0.0094381925 0.76899999 0.012134819 6.4611574e-39 327 231
0.010786506 0.76899999 0.012134819 6.8302748e-39 328 231
0.012134819 0.76899999 0.012134819 7.2908929e-39 329 231
0.013483133 0.76899999 0.012134819 8.1202668e-39 330 231
0.014792874 0.76700002 0.01210326 8.5812407e-39 331 231
0.01613768 0.76700002 0.01210326 8.7659851e-39 332 231
0.017482487 0.76700002 0.01210326 8.9500148e-39 333 231
0.018827293 0.76700002 0.01210326 9.5950157e-39 334 231
0.020172099 0.76700002 0.01210326 9.9637926e-39 335 231
0.021516906 0.76700002 0.01210326 1.0422611e-38 336 231
0.022861714 0.76700002 0.01210326 1.0237864e-38 337 231
0.024206521 0.76700002 0.01210326 1.0146029e-38 338 231
0.025551327 0.76700002 0.01210326 9.9616402e-39 339 231
0.026896132 0.76700002 0.01210326 9.5035557e-39 340 231
0.02824094 0.76700002 0.01210326 9.4110014e-39 341 231
0.02966289 0.76899999 0.012134819 9.0429475e-39 342 231
0.031011207 0.76899999 0.012134819 8.4897738e-39 343 231
0.032443684 0.77100003 0.01216638 1.0240472e-38 344 231
-0.02824094 0.76700002 0.010758453 9.3156262e-39 299 232
-0.026861066 0.76599997 0.010744425 1.0418695e-38 300 232
-0.025451386 0.764 0.010716373 1.1064064e-38 301 232
-0.02404872 0.76200002 0.01068832 1.0699593e-38 302 232
-0.02271268 0.76200002 0.01068832 1.0883986e-38 303 232
-0.02137664 0.76200002 0.01068832 1.0975086e-38 304 232
-0.0200406 0.76200002 0.01068832 1.0606663e-38 305 232
-0.018680012 0.76099998 0.010674292 1.0330417e-38 306 232
-0.017345725 0.76099998 0.010674292 9.8698047e-39 307 232
-0.015969358 0.759 0.01064624 9.9612815e-39 308 232
-0.014638579 0.759 0.01064624 9.8690872e-39 309 232
-0.0133078 0.759 0.01064624 9.9612815e-39 310 232
-0.01194546 0.75700003 0.010618187 1.0053476e-38 311 232
-0.010618187 0.75700003 0.010618187 9.7786867e-39 312 232
-0.00931546 0.759 0.01064624 9.594657e-39 313 232
-0.0079846792 0.759 0.01064624 9.409551e-39 314 232
-0.0066714329 0.76099998 0.010674292 9.3173568e-39 315 232
-0.0053371461 0.76099998 0.010674292 8.6737923e-39 316 232
-0.0040028598 0.76099998 0.010674292 8.305014e-39 317 232
-0.0026685731 0.76099998 0.010674292 7.8440512e-39 318 232
-0.00133604 0.76200002 0.01068832 7.1986832e-39 319 232
0 0.76200002 0.01068832 6.738075e-39 320 232
0.0013395466 0.764 0.010716373 6.1849054e-39 321 232
0.0026861064 0.76599997 0.010744425 5.9980058e-39 322 232
0.00403442 0.76700002 0.010758453 5.5370347e-39 323 232
0.0053932532 0.76899999 0.010786506 5.8114692e-39 324 232
0.0067415666 0.76899999 0.010786506 6.0880561e-39 325 232
0.0080898795 0.76899999 0.010786506 6.365359e-39 326 232
0.0094381925 0.76899999 0.010786506 6.7345017e-39 327 232
0.010786506 0.76899999 0.010786506 6.9206656e-39 328 232
0.012134819 0.76899999 0.010786506 7.3816437e-39 329 232
0.013483133 0.76899999 0.010786506 7.9355196e-39 330 232
0.014792874 0.76700002 0.010758453 8.4886849e-39 331 232
0.01613768 0.76700002 0.010758453 8.6745083e-39 332 232
0.017482487 0.76700002 0.010758453 8.8592555e-39 333 232
0.018827293 0.76700002 0.010758453 9.5953744e-39 334 232
0.020172099 0.76700002 0.010758453 9.7797629e-39 335 232
0.021488851 0.76599997 0.010744425 1.042297e-38 336 232
0.022831906 0.76599997 0.010744425 1.042297e-38 337 232
0.024206521 0.76700002 0.010758453 1.0146029e-38 338 232
0.025551327 0.76700002 0.010758453 9.9619989e-39 339 232
0.026896132 0.76700002 0.010758453 9.3191617e-39 340 232
0.02824094 0.76700002 0.010758453 9.3191617e-39 341 232
0.029585747 0.76700002 0.010758453 9.3180897e-39 342 232
0.030930554 0.76700002 0.010758453 8.7649159e-39 343 232
0.032359518 0.76899999 0.010786506 8.858241e-39 344 232
0.033707831 0.76899999 0.010786506 1.1070936e-38 345 232
-0.030930554 0.76700002 0.0094136465 1.1802432e-38 297 233
-0.029547172 0.76599997 0.0094013726 9.9609984e-39 298 233
-0.028204117 0.76599997 0.0094013726 9.6840514e-39 299 233
-0.026790932 0.764 0.0093768267 1.023541e-38 300 233
-0.025451386 0.764 0.0093768267 1.1249923e-38 301 233
-0.02404872 0.76200002 0.0093522798 1.1526502e-38 302 233
-0.02271268 0.76200002 0.0093522798 1.1618699e-38 303 233
-0.02137664 0.76200002 0.0093522798 1.1250601e-38 304 233
-0.020014299 0.76099998 0.0093400059 1.0697427e-38 305 233
-0.018680012 0.76099998 0.0093400059 1.0421535e-38 306 233
-0.017300138 0.759 0.00931546 1.0329341e-38 307 233
-0.015927281 0.75700003 0.0092909131 1.0144235e-38 308 233
-0.014600007 0.75700003 0.0092909131 1.0236429e-38 309 233
-0.013272733 0.75700003 0.0092909131 9.8705222e-39 310 233
-0.011913899 0.755 0.0092663663 9.9627164e-39 311 233
-0.010590133 0.755 0.0092663663 1.0421176e-38 312 233
-0.0092663663 0.755 0.0092663663 1.0513371e-38 313 233
-0.0079636406 0.75700003 0.0092909131 1.0328623e-38 314 233
-0.0066538998 0.759 0.00931546 1.0144235e-38 315 233
-0.0053231199 0.759 0.00931546 9.4999516e-39 316 233
-0.0039923396 0.759 0.00931546 9.2233689e-39 317 233
-0.00266156 0.759 0.00931546 8.4861738e-39 318 233
-0.0013342865 0.76099998 0.0093400059 7.9333672e-39 319 233
0 0.76200002 0.0093522798 6.8288301e-39 320 233
0.00133604 0.76200002 0.0093522798 6.367859e-39 321 233
0.0026861064 0.76599997 0.0094013726 5.6295877e-39 322 233
0.00403442 0.76700002 0.0094136465 5.353005e-39 323 233
0.0053932532 0.76899999 0.0094381925 5.4434154e-39 324 233
0.0067415666 0.76899999 0.0094381925 5.7196421e-39 325 233
0.0080898795 0.76899999 0.0094381925 5.9040348e-39 326 233
0.0094381925 0.76899999 0.0094381925 6.3650115e-39 327 233
0.010786506 0.76899999 0.0094381925 6.6433781e-39 328 233
0.012134819 0.76899999 0.0094381925 7.1961931e-39 329 233
0.013448066 0.76700002 0.0094136465 7.2915991e-39 330 233
0.014792874 0.76700002 0.0094136465 7.7525773e-39 331 233
0.01613768 0.76700002 0.0094136465 8.3982844e-39 332 233
0.017482487 0.76700002 0.0094136465 8.4904786e-39 333 233
0.018802745 0.76599997 0.0094013726 8.859973e-39 334 233
0.020145798 0.76599997 0.0094013726 9.2291086e-39 335 233
0.021488851 0.76599997 0.0094013726 1.0424046e-38 336 233
0.022831906 0.76599997 0.0094013726 1.0240017e-38 337 233
0.024174958 0.76599997 0.0094013726 1.0512294e-38 338 233
0.025518013 0.76599997 0.0094013726 1.0327906e-38 339 233
0.026861066 0.76599997 0.0094013726 9.4113573e-39 340 233
0.02824094 0.76700002 0.0094136465 9.3191617e-39 341 233
0.029547172 0.76599997 0.0094013726 9.1351432e-39 342 233
0.030890226 0.76599997 0.0094013726 8.9507505e-39 343 233
0.03227536 0.76700002 0.0094136465 8.6731267e-39 344 233
0.033707831 0.76899999 0.0094381925 9.7794742e-39 345 233
0.035056144 0.76899999 0.0094381925 1.3463042e-38 346 233
-0.032359518 0.76899999 0.0080898795 1.3001324e-38 296 234
-0.030930554 0.76700002 0.00806884 1.0880825e-38 297 234
-0.029585747 0.76700002 0.00806884 9.4070819e-39 298 234
-0.028204117 0.76599997 0.0080583189 9.3145276e-39 299 234
-0.026790932 0.764 0.0080372803 1.0236143e-38 300 234
-0.02538476 0.76200002 0.0080162399 1.3278239e-38 301 234
-0.024017159 0.76099998 0.0080057196 1.3645599e-38 302 234
-0.022682872 0.76099998 0.0080057196 1.281548e-38 303 234
-0.021348584 0.76099998 0.0080057196 1.134209e-38 304 234
-0.020014299 0.76099998 0.0080057196 1.0696721e-38 305 234
-0.01863092 0.759 0.0079846792 1.0423329e-38 306 234
-0.017254554 0.75700003 0.0079636406 1.0146746e-38 307 234
-0.015885198 0.755 0.0079425992 1.0053834e-38 308 234
-0.014561433 0.755 0.0079425992 9.9616402e-39 309 234
-0.013237666 0.755 0.0079425992 1.0145311e-38 310 234
-0.011913899 0.755 0.0079425992 1.0329341e-38 311 234
-0.010590133 0.755 0.0079425992 1.06974e-38 312 234
-0.0092663663 0.755 0.0079425992 1.0881789e-38 313 234
-0.0079425992 0.755 0.0079425992 1.0330417e-38 314 234
-0.0066188332 0.755 0.0079425992 1.0146029e-38 315 234
-0.0052950666 0.755 0.0079425992 9.594657e-39 316 234
-0.0039818203 0.75700003 0.0079636406 9.1336858e-39 317 234
-0.0026545466 0.75700003 0.0079636406 8.2142603e-39 318 234
-0.0013272733 0.75700003 0.0079636406 7.7529248e-39 319 234
0 0.76099998 0.0080057196 7.0132186e-39 320 234
0.0013342865 0.76099998 0.0080057196 6.1834705e-39 321 234
0.0026861064 0.76599997 0.0080583189 5.5373934e-39 322 234
0.00403442 0.76700002 0.00806884 5.0764223e-39 323 234
0.0053932532 0.76899999 0.0080898795 5.7167596e-39 324 234
0.0067415666 0.76899999 0.0080898795 5.8089539e-39 325 234
0.0080898795 0.76899999 0.0080898795 6.1766588e-39 326 234
0.0094381925 0.76899999 0.0080898795 6.5454399e-39 327 234
0.010786506 0.76899999 0.0080898795 6.7326898e-39 328 234
0.01210326 0.76700002 0.00806884 7.2855049e-39 329 234
0.013448066 0.76700002 0.00806884 7.657502e-39 330 234
0.014792874 0.76700002 0.00806884 8.2106673e-39 331 234
0.01613768 0.76700002 0.00806884 8.4890437e-39 332 234
0.017459691 0.76599997 0.0080583189 8.7656264e-39 333 234
0.018802745 0.76599997 0.0080583189 9.0425678e-39 334 234
0.020145798 0.76599997 0.0080583189 9.4117034e-39 335 234
0.021432746 0.764 0.0080372803 1.0698835e-38 336 234
0.022772292 0.764 0.0080372803 1.0606641e-38 337 234
0.024174958 0.76599997 0.0080583189 1.0237864e-38 338 234
0.025518013 0.76599997 0.0080583189 1.0053117e-38 339 234
0.026861066 0.76599997 0.0080583189 9.4109916e-39 340 234
0.028204117 0.76599997 0.0080583189 9.4109916e-39 341 234
0.029470026 0.764 0.0080372803 9.226257e-39 342 234
0.030809574 0.764 0.0080372803 9.3184526e-39 343 234
0.032233275 0.76599997 0.0080583189 9.3170485e-39 344 234
0.033620168 0.76700002 0.00806884 9.5014398e-39 345 234
0.034964975 0.76700002 0.00806884 1.217301e-38 346 234
0.036404461 0.76899999 0.0080898795 1.4201314e-38 347 234
-0.033707831 0.76899999 0.0067415666 1.4750928e-38 295 235
-0.032359518 0.76899999 0.0067415666 1.1988602e-38 296 235
-0.030930554 0.76700002 0.006724033 1.0236525e-38 297 235
-0.029547172 0.76599997 0.0067152665 9.6811395e-39 298 235
-0.028130481 0.764 0.006697733 9.2205201e-39 299 235
-0.026790932 0.764 0.006697733 9.9617173e-39 300 235
-0.02538476 0.76200002 0.0066801999 1.3926129e-38 301 235
-0.024017159 0.76099998 0.0066714329 1.3833973e-38 302 235
-0.022682872 0.76099998 0.0066714329 1.2358841e-38 303 235
-0.021348584 0.76099998 0.0066714329 1.1066948e-38 304 235
-0.0199617 0.759 0.0066538998 1.060597e-38 305 235
-0.018581826 0.75700003 0.0066363667 1.0791388e-38 306 235
-0.017254554 0.75700003 0.0066363667 1.042297e-38 307 235
-0.015885198 0.755 0.0066188332 1.0329341e-38 308 235
-0.014561433 0.755 0.0066188332 1.0145311e-38 309 235
-0.013237666 0.755 0.0066188332 9.9616402e-39 310 235
-0.011913899 0.755 0.0066188332 1.0053834e-38 311 235
-0.010590133 0.755 0.0066188332 1.0421894e-38 312 235
-0.0092663663 0.755 0.0066188332 1.0790671e-38 313 235
-0.0079425992 0.755 0.0066188332 1.0698477e-38 314 235
-0.0066188332 0.755 0.0066188332 1.0514088e-38 315 235
-0.0052950666 0.755 0.0066188332 1.014567e-38 316 235
-0.0039712996 0.755 0.0066188332 9.9612815e-39 317 235
-0.0026475333 0.755 0.0066188332 9.1336858e-39 318 235
-0.0013237667 0.755 0.0066188332 8.8571031e-39 319 235
0 0.759 0.0066538998 7.6585782e-39 320 235
0.0013237667 0.755 0.0066188332 6.6444416e-39 321 235
0.0026475333 0.755 0.0066188332 5.9962122e-39 322 235
0.0040291594 0.76599997 0.0067152665 5.4430468e-39 323 235
0.0053932532 0.76899999 0.0067415666 5.8064469e-39 324 235
0.0067415666 0.76899999 0.0067415666 5.7142513e-39 325 235
0.0080898795 0.76899999 0.0067415666 5.5313076e-39 326 235
0.0094381925 0.76899999 0.0067415666 6.0844814e-39 327 235
0.010786506 0.76899999 0.0067415666 6.0891295e-39 328 235
0.01210326 0.76700002 0.006724033 6.9188887e-39 329 235
0.013448066 0.76700002 0.006724033 7.2898012e-39 330 235
0.014773586 0.76599997 0.0067152665 7.6589397e-39 331 235
0.016116638 0.76599997 0.0067152665 8.2131785e-39 332 235
0.017459691 0.76599997 0.0067152665 8.4894024e-39 333 235
0.018753653 0.764 0.006697733 8.4908373e-39 334 235
0.020093199 0.764 0.006697733 8.9518085e-39 335 235
0.021432746 0.764 0.006697733 1.0882872e-38 336 235
0.022772292 0.764 0.006697733 1.0790676e-38 337 235
0.024111839 0.764 0.006697733 1.0421176e-38 338 235
0.025518013 0.76599997 0.0067152665 1.0144952e-38 339 235
0.026861066 0.76599997 0.0067152665 9.594657e-39 340 235
0.028204117 0.76599997 0.0067152665 9.594657e-39 341 235
0.029470026 0.764 0.006697733 9.2266129e-39 342 235
0.030809574 0.764 0.006697733 9.2266129e-39 343 235
0.032233275 0.76599997 0.0067152665 9.1330048e-39 344 235
0.033620168 0.76700002 0.006724033 9.2255591e-39 345 235
0.034964975 0.76700002 0.006724033 1.0975889e-38 346 235
0.036309779 0.76700002 0.006724033 1.3188943e-38 347 235
-0.033707831 0.76899999 0.0053932532 1.3646007e-38 295 236
-0.03227536 0.76700002 0.0053792265 1.0882974e-38 296 236
-0.030890226 0.76599997 0.0053722127 9.8684623e-39 297 236
-0.029547172 0.76599997 0.0053722127 1.0325074e-38 298 236
-0.028130481 0.764 0.0053581866 9.5875089e-39 299 236
-0.0267208 0.76200002 0.0053441599 9.8702503e-39 300 236
-0.025351444 0.76099998 0.0053371461 1.3742108e-38 301 236
-0.023954039 0.759 0.0053231199 1.3375168e-38 302 236
-0.02262326 0.759 0.0053231199 1.2452852e-38 303 236
-0.02129248 0.759 0.0053231199 1.0975141e-38 304 236
-0.019909101 0.75700003 0.0053090933 1.0514523e-38 305 236
-0.018532733 0.755 0.0052950666 1.0792477e-38 306 236
-0.017208965 0.755 0.0052950666 1.0239303e-38 307 236
-0.015885198 0.755 0.0052950666 1.0513729e-38 308 236
-0.014561433 0.755 0.0052950666 1.0145311e-38 309 236
-0.013237666 0.755 0.0052950666 1.0145311e-38 310 236
-0.01189812 0.75400001 0.0052880533 1.0329341e-38 311 236
-0.010576107 0.75400001 0.0052880533 1.0514088e-38 312 236
-0.0092540924 0.75400001 0.0052880533 1.0698477e-38 313 236
-0.00793208 0.75400001 0.0052880533 1.0790671e-38 314 236
-0.0066100666 0.75400001 0.0052880533 1.0698477e-38 315 236
-0.0052880533 0.75400001 0.0052880533 1.0238582e-38 316 236
-0.00396604 0.75400001 0.0052880533 9.9623577e-39 317 236
-0.0026440267 0.75400001 0.0052880533 9.3184428e-39 318 236
-0.0013237667 0.755 0.0052950666 9.225887e-39 319 236
0 0.755 0.0052950666 8.39506e-39 320 236
0.0013220133 0.75400001 0.0052880533 7.6571432e-39 321 236
0.0026440267 0.75400001 0.0052880533 7.0089138e-39 322 236
0.0039712996 0.755 0.0052950666 6.0866127e-39 323 236
0.0053792265 0.76700002 0.0053792265 5.2539948e-39 324 236
0.006724033 0.76700002 0.0053792265 5.2539948e-39 325 236
0.0080898795 0.76899999 0.0053932532 5.7138898e-39 326 236
0.0094381925 0.76899999 0.0053932532 6.3592578e-39 327 236
0.010758453 0.76700002 0.0053792265 6.3653478e-39 328 236
0.01210326 0.76700002 0.0053792265 6.8263246e-39 329 236
0.013430533 0.76599997 0.0053722127 7.3816367e-39 330 236
0.014773586 0.76599997 0.0053722127 7.8422491e-39 331 236
0.016074561 0.764 0.0053581866 8.1209842e-39 332 236
0.017414106 0.764 0.0053581866 8.4894024e-39 333 236
0.018753653 0.764 0.0053581866 8.5819554e-39 334 236
0.020093199 0.764 0.0053581866 8.8588968e-39 335 236
0.021432746 0.764 0.0053581866 1.0698478e-38 336 236
0.02271268 0.76200002 0.0053441599 1.0698478e-38 337 236
0.02404872 0.76200002 0.0053441599 1.014567e-38 338 236
0.025451386 0.764 0.0053581866 9.9612815e-39 339 236
0.026790932 0.764 0.0053581866 9.5028215e-39 340 236
0.028130481 0.764 0.0053581866 9.5028215e-39 341 236
0.029547172 0.76599997 0.0053722127 9.1344103e-39 342 236
0.030890226 0.76599997 0.0053722127 9.1344103e-39 343 236
0.032233275 0.76599997 0.0053722127 8.9493226e-39 344 236
0.033620168 0.76700002 0.0053792265 8.9493226e-39 345 236
0.034964975 0.76700002 0.0053792265 9.9631662e-39 346 236
0.036309779 0.76700002 0.0053792265 1.199147e-38 347 236
-0.033707831 0.76899999 0.0040449398 1.2632574e-38 295 237
-0.03227536 0.76700002 0.00403442 9.7784176e-39 296 237
-0.030890226 0.76599997 0.0040291594 9.0408526e-39 297 237
-0.029547172 0.76599997 0.0040291594 9.8666069e-39 298 237
-0.028130481 0.764 0.0040186401 9.4056288e-39 299 237
-0.0267208 0.76200002 0.0040081199 9.7780491e-39 300 237
-0.025351444 0.76099998 0.0040028598 1.2820505e-38 301 237
-0.023954039 0.759 0.0039923396 1.2912744e-38 302 237
-0.02262326 0.759 0.0039923396 1.217482e-38 303 237
-0.02129248 0.759 0.0039923396 1.0975141e-38 304 237
-0.019909101 0.75700003 0.0039818203 1.0422325e-38 305 237
-0.018532733 0.755 0.0039712996 1.097472e-38 306 237
-0.017208965 0.755 0.0039712996 1.0697775e-38 307 237
-0.015885198 0.755 0.0039712996 1.0605924e-38 308 237
-0.014542146 0.75400001 0.00396604 1.0421176e-38 309 237
-0.013220133 0.75400001 0.00396604 1.014567e-38 310 237
-0.01189812 0.75400001 0.00396604 1.014567e-38 311 237
-0.010576107 0.75400001 0.00396604 1.0513371e-38 312 237
-0.0092540924 0.75400001 0.00396604 1.0789595e-38 313 237
-0.00793208 0.75400001 0.00396604 1.1157654e-38 314 237
-0.0066100666 0.75400001 0.00396604 1.1157654e-38 315 237
-0.0052880533 0.75400001 0.00396604 1.0607e-38 316 237
-0.00396604 0.75400001 0.00396604 1.0330417e-38 317 237
-0.0026440267 0.75400001 0.00396604 9.8701634e-39 318 237
-0.0013220133 0.75400001 0.00396604 9.5939395e-39 319 237
0 0.755 0.0039712996 8.8581863e-39 320 237
0.0013220133 0.75400001 0.00396604 8.4890437e-39 321 237
0.0026440267 0.75400001 0.00396604 8.2077975e-39 322 237
0.0039712996 0.755 0.0039712996 6.824884e-39 323 237
0.0052950666 0.755 0.0039712996 5.7174771e-39 324 237
0.0066363667 0.75700003 0.0039818203 5.8096713e-39 325 237
0.00806884 0.76700002 0.00403442 5.7178358e-39 326 237
0.0094013726 0.76599997 0.0040291594 6.0869715e-39 327 237
0.010744425 0.76599997 0.0040291594 6.2735123e-39 328 237
0.012087479 0.76599997 0.0040291594 6.826319e-39 329 237
0.013395466 0.764 0.0040186401 6.9217418e-39 330 237
0.014735013 0.764 0.0040186401 7.5671098e-39 331 237
0.01603248 0.76200002 0.0040081199 7.9369545e-39 332 237
0.01736852 0.76200002 0.0040081199 8.2135372e-39 333 237
0.01870456 0.76200002 0.0040081199 8.4890437e-39 334 237
0.0200406 0.76200002 0.0040081199 9.042209e-39 335 237
0.02137664 0.76200002 0.0040081199 9.8705222e-39 336 237
0.02271268 0.76200002 0.0040081199 9.9627164e-39 337 237
0.02404872 0.76200002 0.0040081199 9.7786867e-39 338 237
0.025451386 0.764 0.0040186401 9.502104e-39 339 237
0.026790932 0.764 0.0040186401 9.3180743e-39 340 237
0.028130481 0.764 0.0040186401 9.3180743e-39 341 237
0.029470026 0.764 0.0040186401 8.9507351e-39 342 237
0.030809574 0.764 0.0040186401 8.9507351e-39 343 237
0.032233275 0.76599997 0.0040291594 8.8574801e-39 344 237
0.033620168 0.76700002 0.00403442 8.8574801e-39 345 237
0.034964975 0.76700002 0.00403442 9.0426378e-39 346 237
0.036404461 0.76899999 0.0040449398 1.0793996e-38 347 237
0.037850961 0.77100003 0.0040554604 1.4934575e-38 348 237
-0.035056144 0.76899999 0.0026966266 1.3738919e-38 294 238
-0.033707831 0.76899999 0.0026966266 1.198756e-38 295 238
-0.03227536 0.76700002 0.0026896133 9.7766029e-39 296 238
-0.030890226 0.76599997 0.0026861064 8.9468423e-39 297 238
-0.029547172 0.76599997 0.0026861064 9.6821961e-39 298 238
-0.028130481 0.764 0.0026790933 9.4059693e-39 299 238
-0.0267208 0.76200002 0.00267208 9.5921963e-39 300 238
-0.025351444 0.76099998 0.0026685731 1.1527946e-38 301 238
-0.023954039 0.759 0.00266156 1.1897122e-38 302 238
-0.02262326 0.759 0.00266156 1.1528341e-38 303 238
-0.021236373 0.75700003 0.0026545466 1.1066242e-38 304 238
-0.0198565 0.755 0.0026475333 1.0697818e-38 305 238
-0.018532733 0.755 0.0026475333 1.0882171e-38 306 238
-0.017186172 0.75400001 0.0026440267 1.0789976e-38 307 238
-0.01586416 0.75400001 0.0026440267 1.0697759e-38 308 238
-0.014542146 0.75400001 0.0026440267 1.0513371e-38 309 238
-0.013220133 0.75400001 0.0026440267 1.0421894e-38 310 238
-0.01189812 0.75400001 0.0026440267 1.0421894e-38 311 238
-0.010548052 0.75199997 0.0026370131 1.0697042e-38 312 238
-0.0092295464 0.75199997 0.0026370131 1.0789236e-38 313 238
-0.0079110395 0.75199997 0.0026370131 1.0973983e-38 314 238
-0.0065925326 0.75199997 0.0026370131 1.1066177e-38 315 238
-0.0052740262 0.75199997 0.0026370131 1.1157654e-38 316 238
-0.0039555198 0.75199997 0.0026370131 1.088143e-38 317 238
-0.0026370131 0.75199997 0.0026370131 1.0146746e-38 318 238
-0.0013220133 0.75400001 0.0026440267 9.8701634e-39 319 238
0 0.75400001 0.0026440267 9.4095524e-39 320 238
0.0013220133 0.75400001 0.0026440267 9.4095524e-39 321 238
0.0026440267 0.75400001 0.0026440267 8.6705651e-39 322 238
0.00396604 0.75400001 0.0026440267 7.9330084e-39 323 238
0.0052880533 0.75400001 0.0026440267 6.7352009e-39 324 238
0.0066188332 0.755 0.0026475333 6.4586183e-39 325 238
0.0079636406 0.75700003 0.0026545466 6.5508125e-39 326 238
0.0092909131 0.75700003 0.0026545466 6.366424e-39 327 238
0.010674292 0.76099998 0.0026685731 6.4586183e-39 328 238
0.01202436 0.76200002 0.00267208 7.0117836e-39 329 238
0.0133604 0.76200002 0.00267208 7.106489e-39 330 238
0.01469644 0.76200002 0.00267208 7.6596558e-39 331 238
0.01603248 0.76200002 0.00267208 7.937672e-39 332 238
0.01736852 0.76200002 0.00267208 7.937672e-39 333 238
0.01870456 0.76200002 0.00267208 8.4886849e-39 334 238
0.0200406 0.76200002 0.00267208 8.7652676e-39 335 238
0.02137664 0.76200002 0.00267208 9.2265975e-39 336 238
0.02271268 0.76200002 0.00267208 9.3187917e-39 337 238
0.02404872 0.76200002 0.00267208 9.4102685e-39 338 238
0.02538476 0.76200002 0.00267208 9.3180743e-39 339 238
0.026790932 0.764 0.0026790933 9.1344033e-39 340 238
0.028130481 0.764 0.0026790933 9.1344033e-39 341 238
0.029470026 0.764 0.0026790933 8.9503792e-39 342 238
0.030809574 0.764 0.0026790933 8.8581835e-39 343 238
0.032233275 0.76599997 0.0026861064 8.7649285e-39 344 238
0.033576332 0.76599997 0.0026861064 8.6727329e-39 345 238
0.034964975 0.76700002 0.0026896133 8.7653237e-39 346 238
0.036309779 0.76700002 0.0026896133 1.0332648e-38 347 238
0.03775277 0.76899999 0.0026966266 1.4014051e-38 348 238
0.039101087 0.76899999 0.0026966266 1.530479e-38 349 238
-0.035056144 0.76899999 0.0013483133 1.3186101e-38 294 239
-0.033620168 0.76700002 0.0013448066 1.1619135e-38 295 239
-0.03227536 0.76700002 0.0013448066 1.0419102e-38 296 239
-0.030890226 0.76599997 0.0013430532 9.4971448e-39 297 239
-0.029547172 0.76599997 0.0013430532 9.5878621e-39 298 239
-0.028130481 0.764 0.0013395466 9.6800577e-39 299 239
-0.0267208 0.76200002 0.00133604 9.5896725e-39 300 239
-0.025351444 0.76099998 0.0013342865 1.0235042e-38 301 239
-0.023954039 0.759 0.00133078 1.0329408e-38 302 239
-0.02262326 0.759 0.00133078 1.0605635e-38 303 239
-0.021236373 0.75700003 0.0013272733 1.1339941e-38 304 239
-0.0198565 0.755 0.0013237667 1.1063714e-38 305 239
-0.018508185 0.75400001 0.0013220133 1.1065481e-38 306 239
-0.017186172 0.75400001 0.0013220133 1.0973285e-38 307 239
-0.01586416 0.75400001 0.0013220133 1.0790312e-38 308 239
-0.014542146 0.75400001 0.0013220133 1.0605924e-38 309 239
-0.013220133 0.75400001 0.0013220133 1.0330776e-38 310 239
-0.011866559 0.75199997 0.0013185065 1.0330776e-38 311 239
-0.010548052 0.75199997 0.0013185065 1.0513371e-38 312 239
-0.0092295464 0.75199997 0.0013185065 1.0421176e-38 313 239
-0.0079110395 0.75199997 0.0013185065 1.0146746e-38 314 239
-0.0065925326 0.75199997 0.0013185065 1.0792106e-38 315 239
-0.0052740262 0.75199997 0.0013185065 1.1984174e-38 316 239
-0.0039555198 0.75199997 0.0013185065 1.1615397e-38 317 239
-0.0026370131 0.75199997 0.0013185065 1.0330417e-38 318 239
-0.0013220133 0.75400001 0.0013220133 1.0053834e-38 319 239
0 0.75400001 0.0013220133 9.5024627e-39 320 239
0.0013220133 0.75400001 0.0013220133 9.3177155e-39 321 239
0.0026440267 0.75400001 0.0013220133 8.4904786e-39 322 239
0.00396604 0.75400001 0.0013220133 8.2135372e-39 323 239
0.0052880533 0.75400001 0.0013220133 7.6603788e-39 324 239
0.0066188332 0.755 0.0013237667 7.2915963e-39 325 239
0.0079425992 0.755 0.0013237667 6.9217418e-39 326 239
0.0092663663 0.755 0.0013237667 6.6455178e-39 327 239
0.010590133 0.755 0.0013237667 6.7387883e-39 328 239
0.01197702 0.759 0.00133078 7.0150122e-39 329 239
0.0133078 0.759 0.00133078 7.2022705e-39 330 239
0.014638579 0.759 0.00133078 7.4792148e-39 331 239
0.016011439 0.76099998 0.0013342865 7.9387482e-39 332 239
0.017345725 0.76099998 0.0013342865 7.7543597e-39 333 239
0.018680012 0.76099998 0.0013342865 8.4879675e-39 334 239
0.020014299 0.76099998 0.0013342865 8.8567444e-39 335 239
0.021348584 0.76099998 0.0013342865 9.0414916e-39 336 239
0.02271268 0.76200002 0.00133604 9.1336858e-39 337 239
0.02404872 0.76200002 0.00133604 9.1340445e-39 338 239
0.02538476 0.76200002 0.00133604 9.3180743e-39 339 239
0.0267208 0.76200002 0.00133604 8.951091e-39 340 239
0.028056841 0.76200002 0.00133604 8.951091e-39 341 239
0.029392879 0.76200002 0.00133604 9.0418503e-39 342 239
0.030809574 0.764 0.0013395466 8.9496561e-39 343 239
0.032149121 0.764 0.0013395466 8.8556794e-39 344 239
0.033576332 0.76599997 0.0013430532 9.0404294e-39 345 239
0.034964975 0.76700002 0.0013448066 8.7645992e-39 346 239
0.036309779 0.76700002 0.0013448066 1.0054979e-38 347 239
0.03775277 0.76899999 0.0013483133 1.309389e-38 348 239
0.039101087 0.76899999 0.0013483133 1.4661216e-38 349 239
-0.036499143 0.77100003 -0 1.6317175e-38 293 240
-0.035056144 0.76899999 -0 1.3000269e-38 294 240
-0.033620168 0.76700002 -0 1.1617333e-38 295 240
-0.03227536 0.76700002 -0 1.0419468e-38 296 240
-0.030890226 0.76599997 -0 9.3134794e-39 297 240
-0.029470026 0.764 -0 9.8626693e-39 298 240
-0.028056841 0.76200002 -0 9.8626693e-39 299 240
-0.0267208 0.76200002 -0 9.5878719e-39 300 240
-0.025351444 0.76099998 -0 9.8648175e-39 301 240
-0.023954039 0.759 -0 9.684036e-39 302 240
-0.02262326 0.759 -0 1.0145014e-38 303 240
-0.021180267 0.755 -0 1.0421228e-38 304 240
-0.0198565 0.755 -0 1.0513424e-38 305 240
-0.018508185 0.75400001 -0 1.0789976e-38 306 240
-0.017186172 0.75400001 -0 1.0789976e-38 307 240
-0.015822079 0.75199997 -0 1.1157295e-38 308 240
-0.014503572 0.75199997 -0 1.1157295e-38 309 240
-0.013185065 0.75199997 -0 1.1249131e-38 310 240
-0.011866559 0.75199997 -0 1.1249131e-38 311 240
-0.01052 0.75 -0 1.1340249e-38 312 240
-0.0092049995 0.75 -0 1.1340249e-38 313 240
-0.0079110395 0.75199997 -0 1.0881071e-38 314 240
-0.0065925326 0.75199997 -0 1.1895208e-38 315 240
-0.00526 0.75 -0 1.2169638e-38 316 240
-0.003945 0.75 -0 1.1708308e-38 317 240
-0.00263 0.75 -0 1.0789236e-38 318 240
-0.0013185065 0.75199997 -0 1.0697042e-38 319 240
0 0.75400001 -0 9.8705222e-39 320 240
0.0013185065 0.75199997 -0 9.7779692e-39 321 240
0.0026370131 0.75199997 -0 9.4099098e-39 322 240
0.0039555198 0.75199997 -0 9.1329683e-39 323 240
0.0052740262 0.75199997 -0 8.7641914e-39 324 240
0.0066100666 0.75400001 -0 8.48725e-39 325 240
0.00793208 0.75400001 -0 8.0277138e-39 326 240
0.0092663663 0.755 -0 7.8433253e-39 327 240
0.010590133 0.755 -0 7.6607305e-39 328 240
0.011913899 0.755 -0 7.9373132e-39 329 240
0.013272733 0.75700003 -0 8.0305837e-39 330 240
0.014600007 0.75700003 -0 8.0305837e-39 331 240
0.015969358 0.759 -0 8.3053727e-39 332 240
0.017300138 0.759 -0 8.2131785e-39 333 240
0.01863092 0.759 -0 8.6723559e-39 334 240
0.0199617 0.759 -0 8.7649089e-39 335 240
0.021348584 0.76099998 -0 8.7656264e-39 336 240
0.022682872 0.76099998 -0 9.042209e-39 337 240
0.024017159 0.76099998 -0 8.8588968e-39 338 240
0.025351444 0.76099998 -0 8.8588968e-39 339 240
0.0267208 0.76200002 -0 8.951091e-39 340 240
0.028056841 0.76200002 -0 8.8588968e-39 341 240
0.029392879 0.76200002 -0 8.765269e-39 342 240
0.030728921 0.76200002 -0 8.6730734e-39 343 240
0.032149121 0.764 -0 8.6720168e-39 344 240
0.033488665 0.764 -0 8.7642125e-39 345 240
0.034919381 0.76599997 -0 8.4880165e-39 346 240
0.036262438 0.76599997 -0 9.2255816e-39 347 240
0.037605491 0.76599997 -0 1.2356678e-38 348 240
0.038948543 0.76599997 -0 1.4384982e-38 349 240
-0.036499143 0.77100003 -0.00135182 1.558069e-38 293 241
-0.035056144 0.76899999 -0.0013483133 1.2632564e-38 294 241
-0.033620168 0.76700002 -0.0013448066 1.1618053e-38 295 241
-0.03227536 0.76700002 -0.0013448066 1.023544e-38 296 241
-0.030890226 0.76599997 -0.0013430532 9.1287322e-39 297 241
-0.029470026 0.764 -0.0013395466 9.677199e-39 298 241
-0.028056841 0.76200002 -0.00133604 9.677199e-39 299 241
-0.026685731 0.76099998 -0.0013342865 9.5875061e-39 300 241
-0.025284819 0.759 -0.00133078 9.8640916e-39 301 241
-0.023954039 0.759 -0.00133078 9.6825744e-39 302 241
-0.02262326 0.759 -0.00133078 1.0143553e-38 303 241
-0.021180267 0.755 -0.0013237667 1.0420493e-38 304 241
-0.019830201 0.75400001 -0.0013220133 1.0604525e-38 305 241
-0.018508185 0.75400001 -0.0013220133 1.0972216e-38 306 241
-0.017140586 0.75199997 -0.0013185065 1.1064412e-38 307 241
-0.015822079 0.75199997 -0.0013185065 1.1065471e-38 308 241
-0.014503572 0.75199997 -0.0013185065 1.1065471e-38 309 241
-0.013185065 0.75199997 -0.0013185065 1.1342048e-38 310 241
-0.011835 0.75 -0.001315 1.1342048e-38 311 241
-0.01052 0.75 -0.001315 1.1526092e-38 312 241
-0.0092049995 0.75 -0.001315 1.2263658e-38 313 241
-0.00789 0.75 -0.001315 1.2262935e-38 314 241
-0.006575 0.75 -0.001315 1.2078544e-38 315 241
-0.00526 0.75 -0.001315 1.1711541e-38 316 241
-0.003945 0.75 -0.001315 1.1158372e-38 317 241
-0.00263 0.75 -0.001315 1.0698477e-38 318 241
-0.001315 0.75 -0.001315 1.0514088e-38 319 241
0 0.75199997 -0.0013185065 9.8705222e-39 320 241
0.0013185065 0.75199997 -0.0013185065 9.8705222e-39 321 241
0.0026370131 0.75199997 -0.0013185065 9.5024627e-39 322 241
0.0039555198 0.75199997 -0.0013185065 9.1336858e-39 323 241
0.0052740262 0.75199997 -0.0013185065 8.5808792e-39 324 241
0.0066100666 0.75400001 -0.0013220133 8.3964907e-39 325 241
0.00793208 0.75400001 -0.0013220133 8.1202668e-39 326 241
0.0092540924 0.75400001 -0.0013220133 8.0280725e-39 327 241
0.010576107 0.75400001 -0.0013220133 7.7543597e-39 328 241
0.011913899 0.755 -0.0013237667 7.9387482e-39 329 241
0.013237666 0.755 -0.0013237667 8.3064489e-39 330 241
0.014561433 0.755 -0.0013237667 8.2142547e-39 331 241
0.015927281 0.75700003 -0.0013272733 8.4894024e-39 332 241
0.017254554 0.75700003 -0.0013272733 8.5815966e-39 333 241
0.018581826 0.75700003 -0.0013272733 8.7663438e-39 334 241
0.019909101 0.75700003 -0.0013272733 8.7663438e-39 335 241
0.02129248 0.759 -0.00133078 8.9496561e-39 336 241
0.02262326 0.759 -0.00133078 9.0418503e-39 337 241
0.023954039 0.759 -0.00133078 8.9500148e-39 338 241
0.025351444 0.76099998 -0.0013342865 8.7659851e-39 339 241
0.026685731 0.76099998 -0.0013342865 8.9500148e-39 340 241
0.028020019 0.76099998 -0.0013342865 8.9500148e-39 341 241
0.029392879 0.76200002 -0.00133604 8.8567444e-39 342 241
0.030728921 0.76200002 -0.00133604 8.7641914e-39 343 241
0.032064959 0.76200002 -0.00133604 8.4879745e-39 344 241
0.033488665 0.764 -0.0013395466 8.4879745e-39 345 241
0.034828212 0.764 -0.0013395466 8.5766122e-39 346 241
0.036167759 0.764 -0.0013395466 9.5911243e-39 347 241
0.037605491 0.76599997 -0.0013430532 1.152764e-38 348 241
0.038948543 0.76599997 -0.0013430532 1.3924725e-38 349 241
-0.036404461 0.76899999 -0.0026966266 1.5304099e-38 293 242
-0.035056144 0.76899999 -0.0026966266 1.226342e-38 294 242
-0.033620168 0.76700002 -0.0026896133 1.1157431e-38 295 242
-0.03227536 0.76700002 -0.0026896133 1.0048893e-38 296 242
-0.030890226 0.76599997 -0.0026861064 9.4957197e-39 297 242
-0.029470026 0.764 -0.0026790933 9.7694003e-39 298 242
-0.028056841 0.76200002 -0.00267208 9.5846503e-39 299 242
-0.026685731 0.76099998 -0.0026685731 9.3105647e-39 300 242
-0.025284819 0.759 -0.00266156 9.5875117e-39 301 242
-0.023954039 0.759 -0.00266156 9.4981958e-39 302 242
-0.02262326 0.759 -0.00266156 9.8673384e-39 303 242
-0.021180267 0.755 -0.0026475333 1.0327947e-38 304 242
-0.019830201 0.75400001 -0.0026440267 1.0420144e-38 305 242
-0.018508185 0.75400001 -0.0026440267 1.0788553e-38 306 242
-0.017140586 0.75199997 -0.0026370131 1.0788553e-38 307 242
-0.015822079 0.75199997 -0.0026370131 1.1064765e-38 308 242
-0.014503572 0.75199997 -0.0026370131 1.115696e-38 309 242
-0.01315 0.75 -0.00263 1.1157314e-38 310 242
-0.011835 0.75 -0.00263 1.1157314e-38 311 242
-0.01052 0.75 -0.00263 1.078997e-38 312 242
-0.0092049995 0.75 -0.00263 1.1250947e-38 313 242
-0.00789 0.75 -0.00263 1.1619361e-38 314 242
-0.006575 0.75 -0.00263 1.1342774e-38 315 242
-0.0052529867 0.74900001 -0.0026264933 1.1527148e-38 316 242
-0.0039397399 0.74900001 -0.0026264933 1.1342401e-38 317 242
-0.0026264933 0.74900001 -0.0026264933 1.0974342e-38 318 242
-0.001315 0.75 -0.00263 1.0789953e-38 319 242
0 0.75 -0.00263 1.0421894e-38 320 242
0.001315 0.75 -0.00263 1.0421894e-38 321 242
0.00263 0.75 -0.00263 9.8701634e-39 322 242
0.003945 0.75 -0.00263 9.593222e-39 323 242
0.0052740262 0.75199997 -0.0026370131 9.1318921e-39 324 242
0.0066100666 0.75400001 -0.0026440267 8.9475037e-39 325 242
0.00793208 0.75400001 -0.0026440267 8.4883262e-39 326 242
0.0092540924 0.75400001 -0.0026440267 8.4883262e-39 327 242
0.010576107 0.75400001 -0.0026440267 8.4890437e-39 328 242
0.01189812 0.75400001 -0.0026440267 8.5812379e-39 329 242
0.013220133 0.75400001 -0.0026440267 8.5815966e-39 330 242
0.014542146 0.75400001 -0.0026440267 8.6737909e-39 331 242
0.015885198 0.755 -0.0026475333 8.6737909e-39 332 242
0.017208965 0.755 -0.0026475333 8.7663438e-39 333 242
0.018532733 0.755 -0.0026475333 9.0418503e-39 334 242
0.0198565 0.755 -0.0026475333 9.0418503e-39 335 242
0.021236373 0.75700003 -0.0026545466 8.7659851e-39 336 242
0.022563647 0.75700003 -0.0026545466 8.7659851e-39 337 242
0.02389092 0.75700003 -0.0026545466 8.7659851e-39 338 242
0.025284819 0.759 -0.00266156 8.9500148e-39 339 242
0.026615599 0.759 -0.00266156 8.9500148e-39 340 242
0.028020019 0.76099998 -0.0026685731 8.7659851e-39 341 242
0.029354304 0.76099998 -0.0026685731 8.6734321e-39 342 242
0.030728921 0.76200002 -0.00267208 8.5812379e-39 343 242
0.032064959 0.76200002 -0.00267208 8.3954229e-39 344 242
0.033488665 0.764 -0.0026790933 8.3954229e-39 345 242
0.034828212 0.764 -0.0026790933 8.1188739e-39 346 242
0.036167759 0.764 -0.0026790933 8.9486359e-39 347 242
0.037605491 0.76599997 -0.0026861064 1.0973383e-38 348 242
0.038999394 0.76700002 -0.0026896133 1.3739612e-38 349 242
-0.037850961 0.77100003 -0.0040554604 1.6040945e-38 292 243
-0.036404461 0.76899999 -0.0040449398 1.530338e-38 293 243
-0.035056144 0.76899999 -0.0040449398 1.2170138e-38 294 243
-0.033620168 0.76700002 -0.00403442 1.0695008e-38 295 243
-0.03227536 0.76700002 -0.00403442 9.95453e-39 296 243
-0.030890226 0.76599997 -0.0040291594 9.6779445e-39 297 243
-0.029470026 0.764 -0.0040186401 9.8597952e-39 298 243
-0.028056841 0.76200002 -0.0040081199 9.7675996e-39 299 243
-0.026685731 0.76099998 -0.0040028598 9.309843e-39 300 243
-0.025284819 0.759 -0.0039923396 9.5864285e-39 301 243
-0.023954039 0.759 -0.0039923396 9.4967552e-39 302 243
-0.02262326 0.759 -0.0039923396 9.9577334e-39 303 243
-0.021180267 0.755 -0.0039712996 1.0143918e-38 304 243
-0.0198565 0.755 -0.0039712996 1.0328311e-38 305 243
-0.018508185 0.75400001 -0.00396604 1.0696002e-38 306 243
-0.017186172 0.75400001 -0.00396604 1.0788198e-38 307 243
-0.015822079 0.75199997 -0.0039555198 1.0972938e-38 308 243
-0.014503572 0.75199997 -0.0039555198 1.0972938e-38 309 243
-0.01315 0.75 -0.003945 1.0788901e-38 310 243
-0.011835 0.75 -0.003945 1.0788901e-38 311 243
-0.01052 0.75 -0.003945 1.0237521e-38 312 243
-0.0092049995 0.75 -0.003945 1.0145325e-38 313 243
-0.0078794798 0.74900001 -0.0039397399 1.0237874e-38 314 243
-0.0065662335 0.74900001 -0.0039397399 1.0422265e-38 315 243
-0.0052529867 0.74900001 -0.0039397399 1.1065465e-38 316 243
-0.0039397399 0.74900001 -0.0039397399 1.1065465e-38 317 243
-0.0026264933 0.74900001 -0.0039397399 1.1157295e-38 318 243
-0.0013132467 0.74900001 -0.0039397399 1.0881071e-38 319 243
0 0.74900001 -0.0039397399 1.0788877e-38 320 243
0.0013132467 0.74900001 -0.0039397399 1.0696683e-38 321 243
0.0026264933 0.74900001 -0.0039397399 1.0144952e-38 322 243
0.0039397399 0.74900001 -0.0039397399 9.960564e-39 323 243
0.00526 0.75 -0.003945 9.5921458e-39 324 243
0.0065925326 0.75199997 -0.0039555198 9.3155631e-39 325 243
0.0079110395 0.75199997 -0.0039555198 8.763474e-39 326 243
0.0092295464 0.75199997 -0.0039555198 8.8560269e-39 327 243
0.010548052 0.75199997 -0.0039555198 8.6734321e-39 328 243
0.01189812 0.75400001 -0.00396604 8.7656264e-39 329 243
0.013220133 0.75400001 -0.00396604 8.7663438e-39 330 243
0.014542146 0.75400001 -0.00396604 8.9503736e-39 331 243
0.01586416 0.75400001 -0.00396604 8.9503736e-39 332 243
0.017186172 0.75400001 -0.00396604 8.9503736e-39 333 243
0.018532733 0.755 -0.0039712996 8.9503736e-39 334 243
0.0198565 0.755 -0.0039712996 8.9503736e-39 335 243
0.021180267 0.755 -0.0039712996 8.7667026e-39 336 243
0.022504034 0.755 -0.0039712996 8.6745083e-39 337 243
0.02389092 0.75700003 -0.0039818203 8.7659851e-39 338 243
0.025284819 0.759 -0.0039923396 8.7659851e-39 339 243
0.026615599 0.759 -0.0039923396 8.7656264e-39 340 243
0.028020019 0.76099998 -0.0040028598 8.7656264e-39 341 243
0.029354304 0.76099998 -0.0040028598 8.6730734e-39 342 243
0.030688593 0.76099998 -0.0040028598 8.4886849e-39 343 243
0.032064959 0.76200002 -0.0040081199 8.3032273e-39 344 243
0.033401001 0.76200002 -0.0040081199 8.3032273e-39 345 243
0.034737039 0.76200002 -0.0040081199 8.4869319e-39 346 243
0.036167759 0.764 -0.0040186401 8.8560732e-39 347 243
0.037605491 0.76599997 -0.0040291594 1.0696431e-38 348 243
0.038948543 0.76599997 -0.0040291594 1.3554495e-38 349 243
-0.037850961 0.77100003 -0.0054072798 1.6134216e-38 292 244
-0.036499143 0.77100003 -0.0054072798 1.5212259e-38 293 244
-0.035056144 0.76899999 -0.0053932532 1.2537119e-38 294 244
-0.033620168 0.76700002 -0.0053792265 1.124638e-38 295 244
-0.03227536 0.76700002 -0.0053792265 1.078249e-38 296 244
-0.030890226 0.76599997 -0.0053722127 1.0137121e-38 297 244
-0.029470026 0.764 -0.0053581866 9.7683185e-39 298 244
-0.028056841 0.76200002 -0.0053441599 9.4920917e-39 299 244
-0.026685731 0.76099998 -0.0053371461 9.0350568e-39 300 244
-0.025284819 0.759 -0.0053231199 9.2194481e-39 301 244
-0.023954039 0.759 -0.0053231199 9.4045596e-39 302 244
-0.02262326 0.759 -0.0053231199 9.9577334e-39 303 244
-0.021180267 0.755 -0.0052950666 9.960606e-39 304 244
-0.0198565 0.755 -0.0052950666 1.0237194e-38 305 244
-0.018508185 0.75400001 -0.0052880533 1.0696368e-38 306 244
-0.017186172 0.75400001 -0.0052880533 1.0696368e-38 307 244
-0.015822079 0.75199997 -0.0052740262 1.0789625e-38 308 244
-0.014465 0.75 -0.00526 1.0697071e-38 309 244
