# .PCD v.7 - Point Cloud Data file format
FIELDS x y z rgb imX imY
SIZE 4 4 4 4 4 4
TYPE F F F F F F
COUNT 1 1 1 1 1 1
WIDTH 843
HEIGHT 1
VIEWPOINT 0 0 0 1 0 0 0
POINTS 843
DATA ascii
-0.032959159 0.72299999 0.0012676599 9.4974405e-39 294 239
-0.031647664 0.722 0.0012659066 9.4974405e-39 295 239
-0.0302976 0.72000003 0.0012624001 9.3144925e-39 296 239
-0.029035201 0.72000003 0.0012624001 9.4066882e-39 297 239
-0.027657079 0.71700001 0.00125714 9.4052631e-39 298 239
-0.02639994 0.71700001 0.00125714 9.0364791e-39 299 239
-0.0251428 0.71700001 0.00125714 8.8495866e-39 300 239
-0.02388566 0.71700001 0.00125714 8.480804e-39 301 239
-0.023133477 0.73299998 0.0012851933 7.6510504e-39 302 239
-0.021848286 0.73299998 0.0012851933 7.6510504e-39 303 239
-0.020591147 0.73400003 0.0012869467 7.6514161e-39 304 239
-0.019277899 0.73299998 0.0012851933 7.8358074e-39 305 239
-0.017943613 0.73100001 0.0012816866 8.2035179e-39 306 239
-0.016661927 0.73100001 0.0012816866 8.9410829e-39 307 239
-0.0153592 0.73000002 0.0012799334 8.6698826e-39 308 239
-0.014079267 0.73000002 0.0012799334 8.6698826e-39 309 239
-0.012764266 0.72799999 0.0012764266 8.9446591e-39 310 239
-0.01147206 0.727 0.0012746733 8.9446591e-39 311 239
-0.010197386 0.727 0.0012746733 9.0382742e-39 312 239
-0.0087140659 0.70999998 0.0012448666 9.2226669e-39 313 239
-0.0074691991 0.70999998 0.0012448666 1.0327189e-38 314 239
-0.0062330998 0.71100003 0.00124662 1.0511218e-38 315 239
-0.0050005065 0.713 0.0012501266 1.1615038e-38 316 239
-0.0037503797 0.713 0.0012501266 1.2629181e-38 317 239
-0.0025037599 0.71399999 0.00125188 1.3916673e-38 318 239
-0.00125188 0.71399999 0.00125188 1.3732282e-38 319 239
0 0.71399999 0.00125188 1.3363141e-38 320 239
0.00125188 0.71399999 0.00125188 1.2994005e-38 321 239
0.0025037599 0.71399999 0.00125188 1.2718857e-38 322 239
0.00376616 0.71600002 0.0012553866 1.253411e-38 323 239
0.0050215465 0.71600002 0.0012553866 1.2257169e-38 324 239
0.0062769335 0.71600002 0.0012553866 1.207278e-38 325 239
0.00753232 0.71600002 0.0012553866 1.1704004e-38 326 239
0.0087999795 0.71700001 0.00125714 1.1704004e-38 327 239
0.01005712 0.71700001 0.00125714 1.1243408e-38 328 239
0.01131426 0.71700001 0.00125714 1.1243408e-38 329 239
0.012606465 0.71899998 0.0012606466 1.0966125e-38 330 239
0.0138864 0.72000003 0.0012624001 1.105832e-38 331 239
0.0151488 0.72000003 0.0012624001 1.0965792e-38 332 239
0.0164112 0.72000003 0.0012624001 1.0965792e-38 333 239
0.017722692 0.722 0.0012659066 9.7726975e-39 334 239
0.0189886 0.722 0.0012659066 1.1985394e-38 335 239
-0.044613566 0.727 -0 1.2908815e-38 285 240
-0.043338891 0.727 -0 1.1988248e-38 286 240
-0.041948501 0.72500002 -0 1.1158129e-38 287 240
-0.040677335 0.72500002 -0 1.1249188e-38 288 240
-0.039297458 0.72299999 -0 1.0696373e-38 289 240
-0.038029801 0.72299999 -0 1.0326478e-38 290 240
-0.03671129 0.722 -0 9.8654999e-39 291 240
-0.035445385 0.722 -0 9.5903522e-39 292 240
-0.034179479 0.722 -0 9.4981579e-39 293 240
-0.0328224 0.72000003 -0 9.589276e-39 294 240
-0.03156 0.72000003 -0 9.6818289e-39 295 240
-0.030255521 0.71899998 -0 9.5896347e-39 296 240
-0.028914221 0.71700001 -0 9.6818303e-39 297 240
-0.027618507 0.71600002 -0 9.6807583e-39 298 240
-0.026289478 0.71399999 -0 9.40417e-39 299 240
-0.025002534 0.713 -0 9.5860474e-39 300 240
-0.023752406 0.713 -0 9.2169117e-39 301 240
-0.022502279 0.713 -0 8.8488523e-39 302 240
-0.021878093 0.73400003 -0 8.4800754e-39 303 240
-0.020591147 0.73400003 -0 8.0198231e-39 304 240
-0.019277899 0.73299998 -0 8.0198231e-39 305 240
-0.017943613 0.73100001 -0 7.7450579e-39 306 240
-0.016661927 0.73100001 -0 8.2060346e-39 307 240
-0.0153592 0.73000002 -0 8.391149e-39 308 240
-0.014079267 0.73000002 -0 8.5755402e-39 309 240
-0.012799333 0.73000002 -0 8.9443031e-39 310 240
-0.011203799 0.70999998 -0 9.0364988e-39 311 240
-0.0099589331 0.70999998 -0 9.3141394e-39 312 240
-0.0087140659 0.70999998 -0 9.6829219e-39 313 240
-0.0074691991 0.70999998 -0 1.0327189e-38 314 240
-0.0062330998 0.71100003 -0 1.097255e-38 315 240
-0.0049864799 0.71100003 -0 1.2535186e-38 316 240
-0.0037398601 0.71100003 -0 1.3641531e-38 317 240
-0.0025002533 0.713 -0 1.3824478e-38 318 240
-0.0012501266 0.713 -0 1.3271305e-38 319 240
0 0.713 -0 1.3087276e-38 320 240
0.00125188 0.71399999 -0 1.2811052e-38 321 240
0.0025037599 0.71399999 -0 1.2442992e-38 322 240
0.0037556398 0.71399999 -0 1.2258604e-38 323 240
0.0050075199 0.71399999 -0 1.2164975e-38 324 240
0.0062593995 0.71399999 -0 1.1980586e-38 325 240
0.0075112795 0.71399999 -0 1.1795843e-38 326 240
0.0087877065 0.71600002 -0 1.1611452e-38 327 240
0.010043093 0.71600002 -0 1.1335606e-38 328 240
0.01131426 0.71700001 -0 1.1243411e-38 329 240
0.0125714 0.71700001 -0 1.0874648e-38 330 240
0.013867113 0.71899998 -0 1.0966843e-38 331 240
0.0151488 0.72000003 -0 1.0782825e-38 332 240
0.0164112 0.72000003 -0 1.0690629e-38 333 240
0.017673599 0.72000003 -0 9.4928526e-39 334 240
0.018935999 0.72000003 -0 1.1152014e-38 335 240
-0.045951359 0.72799999 -0.0012764266 1.2818041e-38 284 241
-0.044613566 0.727 -0.0012746733 1.1342911e-38 285 241
-0.043219667 0.72500002 -0.0012711667 1.0974424e-38 286 241
-0.041832779 0.72299999 -0.0012676599 1.0236859e-38 287 241
-0.040565118 0.72299999 -0.0012676599 1.0696352e-38 288 241
-0.039243106 0.722 -0.0012659066 1.0696352e-38 289 241
-0.0379772 0.722 -0.0012659066 1.0786366e-38 290 241
-0.036609601 0.72000003 -0.0012624001 1.0325395e-38 291 241
-0.035298105 0.71899998 -0.0012606466 9.7758168e-39 292 241
-0.03403746 0.71899998 -0.0012606466 9.6836226e-39 293 241
-0.032776814 0.71899998 -0.0012606466 9.6829051e-39 294 241
-0.031384666 0.71600002 -0.0012553866 9.5907109e-39 295 241
-0.03012928 0.71600002 -0.0012553866 9.5899934e-39 296 241
-0.028873893 0.71600002 -0.0012553866 9.4977992e-39 297 241
-0.027502786 0.713 -0.0012501266 9.5885613e-39 298 241
-0.026252659 0.713 -0.0012501266 9.40417e-39 299 241
-0.024932399 0.71100003 -0.00124662 9.4027477e-39 300 241
-0.023685781 0.71100003 -0.00124662 9.1258021e-39 301 241
-0.022439159 0.71100003 -0.00124662 8.3918328e-39 302 241
-0.021878093 0.73400003 -0.0012869467 8.3918328e-39 303 241
-0.020591147 0.73400003 -0.0012869467 7.7486312e-39 304 241
-0.019277899 0.73299998 -0.0012851933 7.6564356e-39 305 241
-0.017992707 0.73299998 -0.0012851933 7.6560824e-39 306 241
-0.016707512 0.73299998 -0.0012851933 7.8408324e-39 307 241
-0.014854239 0.70599997 -0.0012378532 8.575515e-39 308 241
-0.013616386 0.70599997 -0.0012378532 8.760265e-39 309 241
-0.0124136 0.708 -0.00124136 9.1286748e-39 310 241
-0.01117224 0.708 -0.00124136 9.313066e-39 311 241
-0.0099308798 0.708 -0.00124136 9.6821877e-39 312 241
-0.0087140659 0.70999998 -0.0012448666 1.0050965e-38 313 241
-0.0074691991 0.70999998 -0.0012448666 1.1706156e-38 314 241
-0.0062243328 0.70999998 -0.0012448666 1.2720301e-38 315 241
-0.0049864799 0.71100003 -0.00124662 1.3364949e-38 316 241
-0.0037398601 0.71100003 -0.00124662 1.3641534e-38 317 241
-0.0024932399 0.71100003 -0.00124662 1.3273102e-38 318 241
-0.00124662 0.71100003 -0.00124662 1.2904322e-38 319 241
0 0.71100003 -0.00124662 1.281141e-38 320 241
0.00124662 0.71100003 -0.00124662 1.2442992e-38 321 241
0.0025002533 0.713 -0.0012501266 1.2350798e-38 322 241
0.0037503797 0.713 -0.0012501266 1.2258245e-38 323 241
0.0050005065 0.713 -0.0012501266 1.2073498e-38 324 241
0.0062506334 0.713 -0.0012501266 1.1797274e-38 325 241
0.0075007593 0.713 -0.0012501266 1.1428138e-38 326 241
0.0087631596 0.71399999 -0.00125188 1.1428138e-38 327 241
0.010043093 0.71600002 -0.0012553866 1.1242689e-38 328 241
0.01129848 0.71600002 -0.0012553866 1.1242689e-38 329 241
0.0125714 0.71700001 -0.00125714 1.0782804e-38 330 241
0.013828539 0.71700001 -0.00125714 1.0782804e-38 331 241
0.01512776 0.71899998 -0.0012606466 1.07821e-38 332 241
0.016388407 0.71899998 -0.0012606466 1.07821e-38 333 241
0.017673599 0.72000003 -0.0012624001 1.0411918e-38 334 241
0.018935999 0.72000003 -0.0012624001 1.1056929e-38 335 241
-0.047162913 0.727 -0.0025493465 1.3369805e-38 283 242
-0.045888241 0.727 -0.0025493465 1.2173375e-38 284 242
-0.044368099 0.72299999 -0.0025353199 1.0514213e-38 285 242
-0.043040827 0.722 -0.0025318132 1.0973327e-38 286 242
-0.041774917 0.722 -0.0025318132 1.0512708e-38 287 242
-0.040509012 0.722 -0.0025318132 1.0788176e-38 288 242
-0.039134402 0.72000003 -0.0025248001 1.0788176e-38 289 242
-0.037871998 0.72000003 -0.0025248001 1.0695607e-38 290 242
-0.036558751 0.71899998 -0.0025212932 1.0603054e-38 291 242
-0.035199918 0.71700001 -0.0025142799 1.0144235e-38 292 242
-0.033942781 0.71700001 -0.0025142799 9.8676523e-39 293 242
-0.032640055 0.71600002 -0.0025107733 9.8676523e-39 294 242
-0.031296998 0.71399999 -0.0025037599 9.7754581e-39 295 242
-0.030045118 0.71399999 -0.0025037599 9.8658587e-39 296 242
-0.028752912 0.713 -0.0025002533 9.8658587e-39 297 242
-0.027425639 0.71100003 -0.0024932399 9.7733225e-39 298 242
-0.026179021 0.71100003 -0.0024932399 1.0234301e-38 299 242
-0.024932399 0.71100003 -0.0024932399 1.0783534e-38 300 242
-0.023685781 0.71100003 -0.0024932399 1.0138165e-38 301 242
-0.022439159 0.71100003 -0.0024932399 8.9468058e-39 302 242
-0.021192541 0.71100003 -0.0024932399 9.130837e-39 303 242
-0.01994592 0.71100003 -0.0024932399 8.7620601e-39 304 242
-0.0186204 0.708 -0.00248272 8.4854732e-39 305 242
-0.017329946 0.70599997 -0.0024757064 7.9340959e-39 306 242
-0.016092092 0.70599997 -0.0024757064 7.8418988e-39 307 242
-0.014854239 0.70599997 -0.0024757064 8.4861766e-39 308 242
-0.013616386 0.70599997 -0.0024757064 8.5783722e-39 309 242
-0.012378532 0.70599997 -0.0024757064 9.2215753e-39 310 242
-0.011156459 0.70700002 -0.0024792133 9.4059665e-39 311 242
-0.0099308798 0.708 -0.00248272 1.0050606e-38 312 242
-0.008689519 0.708 -0.00248272 1.1156938e-38 313 242
-0.0074691991 0.70999998 -0.0024897333 1.2718502e-38 314 242
-0.0062243328 0.70999998 -0.0024897333 1.3456068e-38 315 242
-0.0049794666 0.70999998 -0.0024897333 1.3273475e-38 316 242
-0.0037345996 0.70999998 -0.0024897333 1.2996888e-38 317 242
-0.0024932399 0.71100003 -0.0024932399 1.2996159e-38 318 242
-0.00124662 0.71100003 -0.0024932399 1.2719934e-38 319 242
0 0.71100003 -0.0024932399 1.2535545e-38 320 242
0.00124662 0.71100003 -0.0024932399 1.2351157e-38 321 242
0.0024932399 0.71100003 -0.0024932399 1.2074574e-38 322 242
0.0037503797 0.713 -0.0025002533 1.198238e-38 323 242
0.0050005065 0.713 -0.0025002533 1.1797633e-38 324 242
0.0062506334 0.713 -0.0025002533 1.1612885e-38 325 242
0.0075007593 0.713 -0.0025002533 1.142814e-38 326 242
0.0087631596 0.71399999 -0.0025037599 1.1335944e-38 327 242
0.01001504 0.71399999 -0.0025037599 1.0967183e-38 328 242
0.01129848 0.71600002 -0.0025107733 1.0874628e-38 329 242
0.012553867 0.71600002 -0.0025107733 1.0599133e-38 330 242
0.013828539 0.71700001 -0.0025142799 1.0506937e-38 331 242
0.015085679 0.71700001 -0.0025142799 1.0506234e-38 332 242
0.016342819 0.71700001 -0.0025142799 1.0506234e-38 333 242
0.017649053 0.71899998 -0.0025212932 1.0412984e-38 334 242
0.018909698 0.71899998 -0.0025212932 1.0044562e-38 335 242
0.020198401 0.72000003 -0.0025248001 9.4964806e-39 336 242
-0.048104454 0.722 -0.0037977197 1.4939289e-38 282 243
-0.046838548 0.722 -0.0037977197 1.2910985e-38 283 243
-0.04563576 0.72299999 -0.0038029798 1.0975183e-38 284 243
-0.044306733 0.722 -0.0037977197 9.8691937e-39 285 243
-0.043040827 0.722 -0.0037977197 1.1156275e-38 286 243
-0.041774917 0.722 -0.0037977197 1.0971884e-38 287 243
-0.040396802 0.72000003 -0.0037872 1.0972202e-38 288 243
-0.039080046 0.71899998 -0.0037819401 1.0972202e-38 289 243
-0.037819397 0.71899998 -0.0037819401 1.0972189e-38 290 243
-0.036457058 0.71700001 -0.0037714199 1.0879995e-38 291 243
-0.035150826 0.71600002 -0.00376616 1.0328623e-38 292 243
-0.033800758 0.71399999 -0.0037556398 1.0236429e-38 293 243
-0.032503292 0.713 -0.0037503797 1.0144235e-38 294 243
-0.031253166 0.713 -0.0037503797 1.0144235e-38 295 243
-0.029918881 0.71100003 -0.0037398601 9.9576941e-39 296 243
-0.028672259 0.71100003 -0.0037398601 1.032683e-38 297 243
-0.027387066 0.70999998 -0.0037345996 1.0788958e-38 298 243
-0.026142199 0.70999998 -0.0037345996 1.2448478e-38 299 243
-0.024897331 0.70999998 -0.0037345996 1.3089568e-38 300 243
-0.023652466 0.70999998 -0.0037345996 1.1614437e-38 301 243
-0.022407599 0.70999998 -0.0037345996 1.0697129e-38 302 243
-0.021162732 0.70999998 -0.0037345996 1.04209e-38 303 243
-0.01986176 0.708 -0.00372408 1.014572e-38 304 243
-0.0186204 0.708 -0.00372408 9.500351e-39 305 243
-0.017354494 0.70700002 -0.0037188199 8.1202668e-39 306 243
-0.016092092 0.70599997 -0.0037135598 7.5671014e-39 307 243
-0.014854239 0.70599997 -0.0037135598 8.3042965e-39 308 243
-0.013616386 0.70599997 -0.0037135598 8.4886849e-39 309 243
-0.012378532 0.70599997 -0.0037135598 9.5903522e-39 310 243
-0.011156459 0.70700002 -0.0037188199 9.7747406e-39 311 243
-0.0099168532 0.70700002 -0.0037188199 1.0877125e-38 312 243
-0.008677247 0.70700002 -0.0037188199 1.1891621e-38 313 243
-0.0074376399 0.70700002 -0.0037188199 1.26281e-38 314 243
-0.0062067998 0.708 -0.00372408 1.2720654e-38 315 243
-0.0049654399 0.708 -0.00372408 1.2719582e-38 316 243
-0.00372408 0.708 -0.00372408 1.2627386e-38 317 243
-0.0024897333 0.70999998 -0.0037345996 1.2718146e-38 318 243
-0.0012448666 0.70999998 -0.0037345996 1.2534114e-38 319 243
0 0.70999998 -0.0037345996 1.2350439e-38 320 243
0.0012448666 0.70999998 -0.0037345996 1.2074215e-38 321 243
0.0024897333 0.70999998 -0.0037345996 1.1889827e-38 322 243
0.0037398601 0.71100003 -0.0037398601 1.1797633e-38 323 243
0.0049864799 0.71100003 -0.0037398601 1.1612527e-38 324 243
0.0062330998 0.71100003 -0.0037398601 1.1428497e-38 325 243
0.0074797203 0.71100003 -0.0037398601 1.1243395e-38 326 243
0.0087508867 0.713 -0.0037503797 1.1151198e-38 327 243
0.01001504 0.71399999 -0.0037556398 1.0874628e-38 328 243
0.011266919 0.71399999 -0.0037556398 1.0782433e-38 329 243
0.012553867 0.71600002 -0.00376616 1.0506218e-38 330 243
0.013809253 0.71600002 -0.00376616 1.0414023e-38 331 243
0.015085679 0.71700001 -0.0037714199 1.023036e-38 332 243
0.016342819 0.71700001 -0.0037714199 1.023036e-38 333 243
0.017599959 0.71700001 -0.0037714199 1.0137108e-38 334 243
0.018857099 0.71700001 -0.0037714199 9.7679653e-39 335 243
0.020170346 0.71899998 -0.0037819401 8.2961269e-39 336 243
0.021460801 0.72000003 -0.0037872 1.2075788e-38 337 243
-0.048104454 0.722 -0.0050636264 1.4570856e-38 282 244
-0.046838548 0.722 -0.0050636264 1.1712792e-38 283 244
-0.04563576 0.72299999 -0.0050706398 9.3174437e-39 284 244
-0.044306733 0.722 -0.0050636264 9.4096393e-39 285 244
-0.043040827 0.722 -0.0050636264 1.097331e-38 286 244
-0.041659199 0.72000003 -0.0050496003 1.0881115e-38 287 244
-0.040396802 0.72000003 -0.0050496003 1.1065115e-38 288 244
-0.038971342 0.71700001 -0.0050285598 1.1065115e-38 289 244
-0.037661601 0.71600002 -0.0050215465 1.1248772e-38 290 244
-0.036406212 0.71600002 -0.0050215465 1.1156578e-38 291 244
-0.035052639 0.71399999 -0.0050075199 1.0789595e-38 292 244
-0.033800758 0.71399999 -0.0050075199 1.06974e-38 293 244
-0.032503292 0.713 -0.0050005065 1.0420818e-38 294 244
-0.031165501 0.71100003 -0.0049864799 1.0420818e-38 295 244
-0.029918881 0.71100003 -0.0049864799 1.1154462e-38 296 244
-0.028631933 0.70999998 -0.0049794666 1.2998373e-38 297 244
-0.027387066 0.70999998 -0.0049794666 1.3920406e-38 298 244
-0.026142199 0.70999998 -0.0049794666 1.4657971e-38 299 244
-0.024897331 0.70999998 -0.0049794666 1.4287414e-38 300 244
-0.023652466 0.70999998 -0.0049794666 1.2535697e-38 301 244
-0.022407599 0.70999998 -0.0049794666 1.2721147e-38 302 244
-0.021162732 0.70999998 -0.0049794666 1.3181767e-38 303 244
-0.019833706 0.70700002 -0.0049584266 1.2815832e-38 304 244
-0.018594101 0.70700002 -0.0049584266 1.1894235e-38 305 244
-0.017354494 0.70700002 -0.0049584266 1.0422307e-38 306 244
-0.016092092 0.70599997 -0.0049514128 9.500351e-39 307 244
-0.014854239 0.70599997 -0.0049514128 8.7677858e-39 308 244
-0.013616386 0.70599997 -0.0049514128 8.4908401e-39 309 244
-0.012378532 0.70599997 -0.0049514128 9.5010278e-39 310 244
-0.011156459 0.70700002 -0.0049584266 9.8698047e-39 311 244
-0.0099168532 0.70700002 -0.0049584266 1.1247337e-38 312 244
-0.008677247 0.70700002 -0.0049584266 1.1524279e-38 313 244
-0.0074376399 0.70700002 -0.0049584266 1.2167845e-38 314 244
-0.0061980332 0.70700002 -0.0049584266 1.2167845e-38 315 244
-0.0049584266 0.70700002 -0.0049584266 1.2442634e-38 316 244
-0.0037188199 0.70700002 -0.0049584266 1.2442634e-38 317 244
-0.00248272 0.708 -0.0049654399 1.2350798e-38 318 244
-0.00124136 0.708 -0.0049654399 1.2350798e-38 319 244
0 0.708 -0.0049654399 1.2074574e-38 320 244
0.00124136 0.708 -0.0049654399 1.198238e-38 321 244
0.00248272 0.708 -0.0049654399 1.1613962e-38 322 244
0.0037345996 0.70999998 -0.0049794666 1.1521767e-38 323 244
0.0049794666 0.70999998 -0.0049794666 1.1153349e-38 324 244
0.0062243328 0.70999998 -0.0049794666 1.0968961e-38 325 244
0.0074691991 0.70999998 -0.0049794666 1.096753e-38 326 244
0.0087263398 0.71100003 -0.0049864799 1.0875334e-38 327 244
0.010001013 0.713 -0.0050005065 1.059912e-38 328 244
0.011266919 0.71399999 -0.0050075199 1.0506925e-38 329 244
0.012553867 0.71600002 -0.0050215465 1.0321827e-38 330 244
0.013809253 0.71600002 -0.0050215465 1.0321827e-38 331 244
0.015085679 0.71700001 -0.0050285598 9.9541335e-39 332 244
0.016342819 0.71700001 -0.0050285598 9.9541335e-39 333 244
0.017599959 0.71700001 -0.0050285598 9.9530629e-39 334 244
0.018857099 0.71700001 -0.0050285598 9.5846405e-39 335 244
0.020114239 0.71700001 -0.0050285598 8.9378768e-39 336 244
0.021371379 0.71700001 -0.0050285598 1.1519354e-38 337 244
-0.048104454 0.722 -0.0063295332 1.4016587e-38 282 245
-0.046838548 0.722 -0.0063295332 1.0881936e-38 283 245
-0.045572639 0.722 -0.0063295332 8.7631713e-39 284 245
-0.044306733 0.722 -0.0063295332 9.9617145e-39 285 245
-0.042921603 0.72000003 -0.0063120001 1.079142e-38 286 245
-0.041659199 0.72000003 -0.0063120001 1.079142e-38 287 245
-0.040228479 0.71700001 -0.0062857 1.1433881e-38 288 245
-0.038916986 0.71600002 -0.0062769335 1.1433881e-38 289 245
-0.037661601 0.71600002 -0.0062769335 1.1524637e-38 290 245
-0.036304519 0.71399999 -0.0062593995 1.1524637e-38 291 245
-0.035003547 0.713 -0.0062506334 1.1250207e-38 292 245
-0.033753417 0.713 -0.0062506334 1.1250207e-38 293 245
-0.032412119 0.71100003 -0.0062330998 1.0972548e-38 294 245
-0.031121666 0.70999998 -0.0062243328 1.1341684e-38 295 245
-0.029876797 0.70999998 -0.0062243328 1.2628891e-38 296 245
-0.028631933 0.70999998 -0.0062243328 1.4657195e-38 297 245
-0.027309919 0.708 -0.0062067998 1.5026421e-38 298 245
-0.026068559 0.708 -0.0062067998 1.4565802e-38 299 245
-0.024827199 0.708 -0.0062067998 1.4378184e-38 300 245
-0.023585839 0.708 -0.0062067998 1.2995248e-38 301 245
-0.022344479 0.708 -0.0062067998 1.3364028e-38 302 245
-0.021103119 0.708 -0.0062067998 1.4193789e-38 303 245
-0.019833706 0.70700002 -0.0061980332 1.4196294e-38 304 245
-0.018594101 0.70700002 -0.0061980332 1.4011901e-38 305 245
-0.017354494 0.70700002 -0.0061980332 1.2999508e-38 306 245
-0.016092092 0.70599997 -0.0061892662 1.2169746e-38 307 245
-0.014854239 0.70599997 -0.0061892662 1.15272e-38 308 245
-0.013616386 0.70599997 -0.0061892662 1.0789635e-38 309 245
-0.012378532 0.70599997 -0.0061892662 1.0330058e-38 310 245
-0.011140679 0.70599997 -0.0061892662 1.0330058e-38 311 245
-0.0099168532 0.70700002 -0.0061980332 1.1064742e-38 312 245
-0.008677247 0.70700002 -0.0061980332 1.1341684e-38 313 245
-0.0074376399 0.70700002 -0.0061980332 1.1891979e-38 314 245
-0.0061980332 0.70700002 -0.0061980332 1.1799785e-38 315 245
-0.0049584266 0.70700002 -0.0061980332 1.1982739e-38 316 245
-0.0037188199 0.70700002 -0.0061980332 1.1982739e-38 317 245
-0.0024792133 0.70700002 -0.0061980332 1.1799426e-38 318 245
-0.0012396066 0.70700002 -0.0061980332 1.1799426e-38 319 245
0 0.70700002 -0.0061980332 1.1707232e-38 320 245
0.0012396066 0.70700002 -0.0061980332 1.1615038e-38 321 245
0.0024792133 0.70700002 -0.0061980332 1.124662e-38 322 245
0.00372408 0.708 -0.0062067998 1.1154067e-38 323 245
0.0049654399 0.708 -0.0062067998 1.0877137e-38 324 245
0.0062067998 0.708 -0.0062067998 1.0600189e-38 325 245
0.0074481601 0.708 -0.0062067998 1.0599118e-38 326 245
0.0087140659 0.70999998 -0.0062243328 1.0506922e-38 327 245
0.0099729598 0.71100003 -0.0062330998 1.0139584e-38 328 245
0.011251139 0.713 -0.0062506334 1.0047388e-38 329 245
0.012501267 0.713 -0.0062506334 9.9544838e-39 330 245
0.01377068 0.71399999 -0.0062593995 9.9544838e-39 331 245
0.01506464 0.71600002 -0.0062769335 9.9534132e-39 332 245
0.016320027 0.71600002 -0.0062769335 9.9534132e-39 333 245
0.017575413 0.71600002 -0.0062769335 9.7686716e-39 334 245
0.0188308 0.71600002 -0.0062769335 9.5846405e-39 335 245
0.020086186 0.71600002 -0.0062769335 9.1229729e-39 336 245
0.021341572 0.71600002 -0.0062769335 1.0782493e-38 337 245
-0.0479712 0.72000003 -0.0075743999 1.3275763e-38 282 246
-0.0467088 0.72000003 -0.0075743999 1.0786122e-38 283 246
-0.045446403 0.72000003 -0.0075743999 9.2219844e-39 284 246
-0.044183999 0.72000003 -0.0075743999 1.0604919e-38 285 246
-0.042861983 0.71899998 -0.0075638802 1.1161297e-38 286 246
-0.041601337 0.71899998 -0.0075638802 1.1161297e-38 287 246
-0.040228479 0.71700001 -0.0075428397 1.1619734e-38 288 246
-0.038916986 0.71600002 -0.00753232 1.1343147e-38 289 246
-0.037556399 0.71399999 -0.0075112795 1.1526076e-38 290 246
-0.036253672 0.713 -0.0075007593 1.1433881e-38 291 246
-0.034905359 0.71100003 -0.0074797203 1.1617908e-38 292 246
-0.033658739 0.71100003 -0.0074797203 1.1617908e-38 293 246
-0.032366529 0.70999998 -0.0074691991 1.1249136e-38 294 246
-0.031121666 0.70999998 -0.0074691991 1.2447321e-38 295 246
-0.029876797 0.70999998 -0.0074691991 1.428952e-38 296 246
-0.028631933 0.70999998 -0.0074691991 1.4750858e-38 297 246
-0.027309919 0.708 -0.0074481601 1.4013345e-38 298 246
-0.026068559 0.708 -0.0074481601 1.1892845e-38 299 246
-0.024827199 0.708 -0.0074481601 1.207544e-38 300 246
-0.023585839 0.708 -0.0074481601 1.253606e-38 301 246
-0.022344479 0.708 -0.0074481601 1.3178916e-38 302 246
-0.021103119 0.708 -0.0074481601 1.3824286e-38 303 246
-0.019833706 0.70700002 -0.0074376399 1.428706e-38 304 246
-0.018594101 0.70700002 -0.0074376399 1.5024625e-38 305 246
-0.017354494 0.70700002 -0.0074376399 1.5207202e-38 306 246
-0.016092092 0.70599997 -0.0074271196 1.5115006e-38 307 246
-0.014854239 0.70599997 -0.0074271196 1.4473195e-38 308 246
-0.013616386 0.70599997 -0.0074271196 1.3366489e-38 309 246
-0.012378532 0.70599997 -0.0074271196 1.097438e-38 310 246
-0.011140679 0.70599997 -0.0074271196 9.4992495e-39 311 246
-0.0099028256 0.70599997 -0.0074271196 1.087856e-38 312 246
-0.0086649731 0.70599997 -0.0074271196 1.1708317e-38 313 246
-0.0074271196 0.70599997 -0.0074271196 1.1985608e-38 314 246
-0.0061892662 0.70599997 -0.0074271196 1.1524637e-38 315 246
-0.0049514128 0.70599997 -0.0074271196 1.1890186e-38 316 246
-0.0037135598 0.70599997 -0.0074271196 1.1890186e-38 317 246
-0.0024757064 0.70599997 -0.0074271196 1.1706873e-38 318 246
-0.0012378532 0.70599997 -0.0074271196 1.1706873e-38 319 246
0 0.70599997 -0.0074271196 1.1523202e-38 320 246
0.0012378532 0.70599997 -0.0074271196 1.124662e-38 321 246
0.0024757064 0.70599997 -0.0074271196 1.1062231e-38 322 246
0.0037188199 0.70700002 -0.0074376399 1.0878202e-38 323 246
0.0049584266 0.70700002 -0.0074376399 1.0783858e-38 324 246
0.0061980332 0.70700002 -0.0074376399 1.0599827e-38 325 246
0.0074376399 0.70700002 -0.0074376399 1.0231414e-38 326 246
0.008689519 0.708 -0.0074481601 1.0231414e-38 327 246
0.0099589331 0.70999998 -0.0074691991 1.0138862e-38 328 246
0.01121958 0.71100003 -0.0074797203 1.0046665e-38 329 246
0.012501267 0.713 -0.0075007593 9.9541166e-39 330 246
0.01377068 0.71399999 -0.0075112795 9.861921e-39 331 246
0.015022559 0.71399999 -0.0075112795 9.8615735e-39 332 246
0.016320027 0.71600002 -0.00753232 9.7690191e-39 333 246
0.017575413 0.71600002 -0.00753232 9.7686688e-39 334 246
0.0188308 0.71600002 -0.00753232 9.492442e-39 335 246
0.020086186 0.71600002 -0.00753232 9.399187e-39 336 246
0.021341572 0.71600002 -0.00753232 1.0136752e-38 337 246
0.02262852 0.71700001 -0.0075428397 1.1697279e-38 338 246
-0.0492336 0.72000003 -0.0088367993 1.5850792e-38 281 247
-0.0479712 0.72000003 -0.0088367993 1.1801336e-38 282 247
-0.0467088 0.72000003 -0.0088367993 9.7730324e-39 283 247
-0.045446403 0.72000003 -0.0088367993 9.8669853e-39 284 247
-0.044183999 0.72000003 -0.0088367993 1.1895289e-38 285 247
-0.042861983 0.71899998 -0.0088245263 1.2450236e-38 286 247
-0.041485619 0.71700001 -0.0087999795 1.1804866e-38 287 247
-0.040172372 0.71600002 -0.0087877065 1.1895951e-38 288 247
-0.038808275 0.71399999 -0.0087631596 1.1619005e-38 289 247
-0.037503798 0.713 -0.0087508867 1.1617549e-38 290 247
-0.036151983 0.71100003 -0.0087263398 1.1617549e-38 291 247
-0.034905359 0.71100003 -0.0087263398 1.1618984e-38 292 247
-0.033611398 0.70999998 -0.0087140659 1.152679e-38 293 247
-0.032366529 0.70999998 -0.0087140659 1.1708338e-38 294 247
-0.031121666 0.70999998 -0.0087140659 1.336786e-38 295 247
-0.02979264 0.708 -0.008689519 1.5120026e-38 296 247
-0.02855128 0.708 -0.008689519 1.502783e-38 297 247
-0.027309919 0.708 -0.008689519 1.3921505e-38 298 247
-0.02603174 0.70700002 -0.008677247 1.1892842e-38 299 247
-0.024792133 0.70700002 -0.008677247 1.15201e-38 300 247
-0.023552528 0.70700002 -0.008677247 1.1796327e-38 301 247
-0.022312919 0.70700002 -0.008677247 1.1339321e-38 302 247
-0.021073313 0.70700002 -0.008677247 1.1892495e-38 303 247
-0.019805651 0.70599997 -0.0086649731 1.3180728e-38 304 247
-0.018567799 0.70599997 -0.0086649731 1.4471467e-38 305 247
-0.017329946 0.70599997 -0.0086649731 1.4564016e-38 306 247
-0.016092092 0.70599997 -0.0086649731 1.4564016e-38 307 247
-0.014854239 0.70599997 -0.0086649731 1.4472152e-38 308 247
-0.013616386 0.70599997 -0.0086649731 1.4011533e-38 309 247
-0.012378532 0.70599997 -0.0086649731 1.3274261e-38 310 247
-0.011140679 0.70599997 -0.0086649731 1.1891326e-38 311 247
-0.0099028256 0.70599997 -0.0086649731 1.1064025e-38 312 247
-0.0086649731 0.70599997 -0.0086649731 1.1617196e-38 313 247
-0.0074271196 0.70599997 -0.0086649731 1.225968e-38 314 247
-0.0061892662 0.70599997 -0.0086649731 1.1522126e-38 315 247
-0.0049514128 0.70599997 -0.0086649731 1.1430291e-38 316 247
-0.0037135598 0.70599997 -0.0086649731 1.1522485e-38 317 247
-0.0024757064 0.70599997 -0.0086649731 1.115586e-38 318 247
-0.0012378532 0.70599997 -0.0086649731 1.115586e-38 319 247
0 0.70599997 -0.0086649731 1.1154784e-38 320 247
0.0012378532 0.70599997 -0.0086649731 1.106259e-38 321 247
0.0024757064 0.70599997 -0.0086649731 1.0327189e-38 322 247
0.0037135598 0.70599997 -0.0086649731 1.01428e-38 323 247
0.0049514128 0.70599997 -0.0086649731 9.9573438e-39 324 247
0.0061980332 0.70700002 -0.008677247 9.6807583e-39 325 247
0.0074376399 0.70700002 -0.008677247 9.6804052e-39 326 247
0.008689519 0.708 -0.008689519 9.5882082e-39 327 247
0.0099589331 0.70999998 -0.0087140659 9.6789717e-39 328 247
0.01121958 0.71100003 -0.0087263398 9.5867761e-39 329 247
0.012501267 0.713 -0.0087508867 9.6779025e-39 330 247
0.013751393 0.713 -0.0087508867 9.6779025e-39 331 247
0.015022559 0.71399999 -0.0087631596 9.7690247e-39 332 247
0.016320027 0.71600002 -0.0087877065 9.7690247e-39 333 247
0.017575413 0.71600002 -0.0087877065 9.4928078e-39 334 247
0.0188308 0.71600002 -0.0087877065 9.3084165e-39 335 247
0.020086186 0.71600002 -0.0087877065 9.3080606e-39 336 247
0.021371379 0.71700001 -0.0087999795 9.3080606e-39 337 247
0.02262852 0.71700001 -0.0087999795 1.0041703e-38 338 247
-0.0492336 0.72000003 -0.010099201 1.5206852e-38 281 248
-0.0479712 0.72000003 -0.010099201 1.0236522e-38 282 248
-0.0467088 0.72000003 -0.010099201 9.0379785e-39 283 248
-0.045446403 0.72000003 -0.010099201 1.041944e-38 284 248
-0.044183999 0.72000003 -0.010099201 1.253958e-38 285 248
-0.042861983 0.71899998 -0.010085173 1.2266939e-38 286 248
-0.041427758 0.71600002 -0.010043093 1.1805961e-38 287 248
-0.040060159 0.71399999 -0.01001504 1.1988166e-38 288 248
-0.038753927 0.713 -0.010001013 1.1619383e-38 289 248
-0.037398599 0.71100003 -0.0099729598 1.1526439e-38 290 248
-0.036151983 0.71100003 -0.0099729598 1.1526439e-38 291 248
-0.034856264 0.70999998 -0.0099589331 1.1618984e-38 292 248
-0.033611398 0.70999998 -0.0099589331 1.1895208e-38 293 248
-0.032366529 0.70999998 -0.0099589331 1.1800182e-38 294 248
-0.031034 0.708 -0.0099308798 1.373629e-38 295 248
-0.02979264 0.708 -0.0099308798 1.4937079e-38 296 248
-0.02855128 0.708 -0.0099308798 1.4660492e-38 297 248
-0.027271347 0.70700002 -0.0099168532 1.3827883e-38 298 248
-0.025994917 0.70599997 -0.0099028256 1.3182514e-38 299 248
-0.024757065 0.70599997 -0.0099028256 1.2537144e-38 300 248
-0.023452586 0.704 -0.0098747732 1.1246405e-38 301 248
-0.022218239 0.704 -0.0098747732 1.0052175e-38 302 248
-0.021043506 0.70599997 -0.0099028256 9.5911971e-39 303 248
-0.019805651 0.70599997 -0.0099028256 1.0231895e-38 304 248
-0.018567799 0.70599997 -0.0099028256 1.0877264e-38 305 248
-0.017329946 0.70599997 -0.0099028256 1.1894661e-38 306 248
-0.016046507 0.704 -0.0098747732 1.2816619e-38 307 248
-0.014812159 0.704 -0.0098747732 1.4286707e-38 308 248
-0.013616386 0.70599997 -0.0099028256 1.4655849e-38 309 248
-0.012343466 0.704 -0.0098747732 1.5023164e-38 310 248
-0.011109119 0.704 -0.0098747732 1.428524e-38 311 248
-0.0098747732 0.704 -0.0098747732 1.2539214e-38 312 248
-0.0086404262 0.704 -0.0098747732 1.1340671e-38 313 248
-0.0074060797 0.704 -0.0098747732 1.1983459e-38 314 248
-0.0061717331 0.704 -0.0098747732 1.1429932e-38 315 248
-0.0049514128 0.70599997 -0.0099028256 1.1246261e-38 316 248
-0.0037135598 0.70599997 -0.0099028256 1.1246261e-38 317 248
-0.0024757064 0.70599997 -0.0099028256 1.1154784e-38 318 248
-0.0012378532 0.70599997 -0.0099028256 1.0878202e-38 319 248
0 0.70599997 -0.0099028256 1.0878202e-38 320 248
0.0012378532 0.70599997 -0.0099028256 1.060126e-38 321 248
0.0024757064 0.70599997 -0.0099028256 1.0050247e-38 322 248
0.0037135598 0.70599997 -0.0099028256 9.9580529e-39 323 248
0.0049514128 0.70599997 -0.0099028256 9.7718736e-39 324 248
0.0061980332 0.70700002 -0.0099168532 9.5874823e-39 325 248
0.0074376399 0.70700002 -0.0099168532 9.4038169e-39 326 248
0.008689519 0.708 -0.0099308798 9.3116213e-39 327 248
0.0099589331 0.70999998 -0.0099589331 9.4938616e-39 328 248
0.01121958 0.71100003 -0.0099729598 9.5860572e-39 329 248
0.0124662 0.71100003 -0.0099729598 9.4935084e-39 330 248
0.013751393 0.713 -0.010001013 9.5860628e-39 331 248
0.015022559 0.71399999 -0.01001504 9.584988e-39 332 248
0.016320027 0.71600002 -0.010043093 9.584988e-39 333 248
0.017575413 0.71600002 -0.010043093 9.4013156e-39 334 248
0.0188308 0.71600002 -0.010043093 9.1250874e-39 335 248
0.020086186 0.71600002 -0.010043093 9.4002436e-39 336 248
0.021371379 0.71700001 -0.01005712 9.1236553e-39 337 248
0.02262852 0.71700001 -0.01005712 9.3988549e-39 338 248
-0.050636265 0.722 -0.01139316 1.6221001e-38 280 249
-0.04937036 0.722 -0.01139316 1.4561479e-38 281 249
-0.048104454 0.722 -0.01139316 9.2227271e-39 282 249
-0.046838548 0.722 -0.01139316 8.761749e-39 283 249
-0.045446403 0.72000003 -0.011361601 1.0420522e-38 284 249
-0.044183999 0.72000003 -0.011361601 1.235663e-38 285 249
-0.042742759 0.71700001 -0.01131426 1.2726119e-38 286 249
-0.041427758 0.71600002 -0.01129848 1.208075e-38 287 249
-0.040060159 0.71399999 -0.011266919 1.2263305e-38 288 249
-0.038753927 0.713 -0.011251139 1.1894881e-38 289 249
-0.037398599 0.71100003 -0.01121958 1.1711541e-38 290 249
-0.036101133 0.70999998 -0.011203799 1.1711541e-38 291 249
-0.034856264 0.70999998 -0.011203799 1.1712254e-38 292 249
-0.033611398 0.70999998 -0.011203799 1.1804449e-38 293 249
-0.03227536 0.708 -0.01117224 1.1892024e-38 294 249
-0.031034 0.708 -0.01117224 1.3828132e-38 295 249
-0.02979264 0.708 -0.01117224 1.5028199e-38 296 249
-0.028510952 0.70700002 -0.011156459 1.4014048e-38 297 249
-0.027232772 0.70599997 -0.011140679 1.2815536e-38 298 249
-0.025994917 0.70599997 -0.011140679 1.2631505e-38 299 249
-0.024686933 0.704 -0.011109119 1.2999212e-38 300 249
-0.023452586 0.704 -0.011109119 1.216945e-38 301 249
-0.022218239 0.704 -0.011109119 1.2536065e-38 302 249
-0.020983893 0.704 -0.011109119 1.1982891e-38 303 249
-0.019749546 0.704 -0.011109119 9.0333514e-39 304 249
-0.018515198 0.704 -0.011109119 7.835167e-39 305 249
-0.017256306 0.70300001 -0.01109334 8.3047925e-39 306 249
-0.016023712 0.70300001 -0.01109334 1.0517489e-38 307 249
-0.014812159 0.704 -0.011109119 1.3643507e-38 308 249
-0.013577812 0.704 -0.011109119 1.4381072e-38 309 249
-0.012343466 0.704 -0.011109119 1.4932074e-38 310 249
-0.011109119 0.704 -0.011109119 1.4286704e-38 311 249
-0.0098747732 0.704 -0.011109119 1.2908368e-38 312 249
-0.0086404262 0.704 -0.011109119 1.0603118e-38 313 249
-0.0074060797 0.704 -0.011109119 1.124662e-38 314 249
-0.0061717331 0.704 -0.011109119 1.1154425e-38 315 249
-0.0049373866 0.704 -0.011109119 1.1062231e-38 316 249
-0.0037030398 0.704 -0.011109119 1.0877843e-38 317 249
-0.0024757064 0.70599997 -0.011140679 1.0693813e-38 318 249
-0.0012378532 0.70599997 -0.011140679 1.0417589e-38 319 249
0 0.70599997 -0.011140679 1.0325754e-38 320 249
0.0012378532 0.70599997 -0.011140679 1.004953e-38 321 249
0.0024757064 0.70599997 -0.011140679 9.6811115e-39 322 249
0.0037135598 0.70599997 -0.011140679 9.5889172e-39 323 249
0.0049514128 0.70599997 -0.011140679 9.2205047e-39 324 249
0.0061892662 0.70599997 -0.011140679 9.128309e-39 325 249
0.0074376399 0.70700002 -0.011156459 9.2190725e-39 326 249
0.008677247 0.70700002 -0.011156459 9.0350414e-39 327 249
0.0099308798 0.708 -0.01117224 8.9421367e-39 328 249
0.011203799 0.70999998 -0.011203799 8.9421367e-39 329 249
0.0124662 0.71100003 -0.01121958 9.2183663e-39 330 249
0.01371282 0.71100003 -0.01121958 9.2183663e-39 331 249
0.015001519 0.713 -0.011251139 9.4009597e-39 332 249
0.016320027 0.71600002 -0.01129848 9.308764e-39 333 249
0.017575413 0.71600002 -0.01129848 9.308764e-39 334 249
0.0188308 0.71600002 -0.01129848 9.308764e-39 335 249
0.020086186 0.71600002 -0.01129848 9.308764e-39 336 249
0.021341572 0.71600002 -0.01129848 8.7555903e-39 337 249
-0.050706398 0.72299999 -0.012676599 1.5852571e-38 280 250
-0.049438741 0.72299999 -0.012676599 1.4008659e-38 281 250
-0.048104454 0.722 -0.012659066 8.7610203e-39 282 250
-0.046838548 0.722 -0.012659066 8.7610203e-39 283 250
-0.045446403 0.72000003 -0.012624 1.0236857e-38 284 250
-0.044122629 0.71899998 -0.012606465 1.2080769e-38 285 250
-0.042742759 0.71700001 -0.0125714 1.2725776e-38 286 250
-0.041312039 0.71399999 -0.012518799 1.1895655e-38 287 250
-0.040060159 0.71399999 -0.012518799 1.189597e-38 288 250
-0.038753927 0.713 -0.012501267 1.1711579e-38 289 250
-0.037398599 0.71100003 -0.0124662 1.1895935e-38 290 250
-0.036101133 0.70999998 -0.012448666 1.1895935e-38 291 250
-0.034856264 0.70999998 -0.012448666 1.1896643e-38 292 250
-0.033611398 0.70999998 -0.012448666 1.1896643e-38 293 250
-0.03227536 0.708 -0.0124136 1.1800903e-38 294 250
-0.031034 0.708 -0.0124136 1.3552622e-38 295 250
-0.029750559 0.70700002 -0.012396066 1.4567944e-38 296 250
-0.028510952 0.70700002 -0.012396066 1.3922574e-38 297 250
-0.027232772 0.70599997 -0.012378532 1.2632226e-38 298 250
-0.02592128 0.704 -0.012343466 1.2447835e-38 299 250
-0.024686933 0.704 -0.012343466 1.2354199e-38 300 250
-0.023419274 0.70300001 -0.012325933 1.2354199e-38 301 250
-0.02218668 0.70300001 -0.012325933 1.3088167e-38 302 250
-0.020983893 0.704 -0.012343466 1.2903415e-38 303 250
-0.019749546 0.704 -0.012343466 7.3788874e-39 304 250
-0.018515198 0.704 -0.012343466 6.1807029e-39 305 250
-0.017256306 0.70300001 -0.012325933 6.8311058e-39 306 250
-0.016023712 0.70300001 -0.012325933 8.5831815e-39 307 250
-0.014812159 0.704 -0.012343466 1.2998485e-38 308 250
-0.013558527 0.70300001 -0.012325933 1.3459823e-38 309 250
-0.012325933 0.70300001 -0.012325933 1.373424e-38 310 250
-0.011109119 0.704 -0.012343466 1.3365457e-38 311 250
-0.0098747732 0.704 -0.012343466 1.2355548e-38 312 250
-0.0086404262 0.704 -0.012343466 9.8659063e-39 313 250
-0.0074060797 0.704 -0.012343466 1.0325754e-38 314 250
-0.0061717331 0.704 -0.012343466 1.0510501e-38 315 250
-0.0049373866 0.704 -0.012343466 1.0418307e-38 316 250
-0.0037030398 0.704 -0.012343466 1.0325754e-38 317 250
-0.0024686933 0.704 -0.012343466 1.0233559e-38 318 250
-0.0012343467 0.704 -0.012343466 9.9573354e-39 319 250
0 0.704 -0.012343466 9.8647825e-39 320 250
0.0012343467 0.704 -0.012343466 9.8647825e-39 321 250
0.0024686933 0.704 -0.012343466 9.4048875e-39 322 250
0.0037135598 0.70599997 -0.012378532 9.2208578e-39 323 250
0.0049514128 0.70599997 -0.012378532 9.3116185e-39 324 250
0.0061892662 0.70599997 -0.012378532 9.2194229e-39 325 250
0.0074376399 0.70700002 -0.012396066 9.2183537e-39 326 250
0.008677247 0.70700002 -0.012396066 9.0336023e-39 327 250
0.0099308798 0.708 -0.0124136 8.8499425e-39 328 250
0.011203799 0.70999998 -0.012448666 8.8499425e-39 329 250
0.012448666 0.70999998 -0.012448666 8.9421423e-39 330 250
0.01371282 0.71100003 -0.0124662 8.9421423e-39 331 250
0.014959441 0.71100003 -0.0124662 9.1254546e-39 332 250
0.016251646 0.713 -0.012501267 9.0332576e-39 333 250
0.017575413 0.71600002 -0.012553867 9.0329016e-39 334 250
0.0188308 0.71600002 -0.012553867 8.940706e-39 335 250
0.020086186 0.71600002 -0.012553867 9.1247343e-39 336 250
0.021341572 0.71600002 -0.012553867 8.9399843e-39 337 250
-0.050706398 0.72299999 -0.01394426 1.5392669e-38 280 251
-0.049438741 0.72299999 -0.01394426 1.3548757e-38 281 251
-0.048104454 0.722 -0.013924973 8.9439668e-39 282 251
-0.046838548 0.722 -0.013924973 9.1287168e-39 283 251
-0.045446403 0.72000003 -0.0138864 1.0236844e-38 284 251
-0.044122629 0.71899998 -0.013867113 1.1435387e-38 285 251
-0.042683143 0.71600002 -0.013809253 1.1713046e-38 286 251
-0.041312039 0.71399999 -0.01377068 1.1343905e-38 287 251
-0.040004052 0.713 -0.013751393 1.1619736e-38 288 251
-0.038753927 0.713 -0.013751393 1.1527541e-38 289 251
-0.037398599 0.71100003 -0.01371282 1.2079966e-38 290 251
-0.036101133 0.70999998 -0.013693533 1.2079966e-38 291 251
-0.034856264 0.70999998 -0.013693533 1.2172512e-38 292 251
-0.033516716 0.708 -0.013654959 1.2080317e-38 293 251
-0.03227536 0.708 -0.013654959 1.1617954e-38 294 251
-0.031034 0.708 -0.013654959 1.2724662e-38 295 251
-0.029750559 0.70700002 -0.013635674 1.3647061e-38 296 251
-0.028470624 0.70599997 -0.013616386 1.4384626e-38 297 251
-0.027155625 0.704 -0.013577812 1.419811e-38 298 251
-0.02592128 0.704 -0.013577812 1.3552741e-38 299 251
-0.024686933 0.704 -0.013577812 1.3090684e-38 300 251
-0.023419274 0.70300001 -0.013558527 1.2629707e-38 301 251
-0.02218668 0.70300001 -0.013558527 1.0788666e-38 302 251
-0.020983893 0.704 -0.013577812 8.575969e-39 303 251
-0.019749546 0.704 -0.013577812 4.7999153e-39 304 251
-0.018515198 0.704 -0.013577812 5.8140658e-39 305 251
-0.017256306 0.70300001 -0.013558527 1.069792e-38 306 251
-0.016023712 0.70300001 -0.013558527 1.1711712e-38 307 251
-0.014791119 0.70300001 -0.013558527 1.2907371e-38 308 251
-0.013558527 0.70300001 -0.013558527 1.2077252e-38 309 251
-0.012325933 0.70300001 -0.013558527 1.1432223e-38 310 251
-0.01109334 0.70300001 -0.013558527 1.1524419e-38 311 251
-0.0098747732 0.704 -0.013577812 1.1065526e-38 312 251
-0.0086404262 0.704 -0.013577812 9.2216131e-39 313 251
-0.0074060797 0.704 -0.013577812 1.0325036e-38 314 251
-0.0061717331 0.704 -0.013577812 1.0325036e-38 315 251
-0.0049373866 0.704 -0.013577812 1.004953e-38 316 251
-0.0037030398 0.704 -0.013577812 9.9573354e-39 317 251
-0.0024686933 0.704 -0.013577812 9.9573354e-39 318 251
-0.0012343467 0.704 -0.013577812 9.772947e-39 319 251
0 0.704 -0.013577812 9.4052462e-39 320 251
0.0012343467 0.704 -0.013577812 9.4052462e-39 321 251
0.0024686933 0.704 -0.013577812 9.2208578e-39 322 251
0.0037135598 0.70599997 -0.013616386 9.1286636e-39 323 251
0.0049514128 0.70599997 -0.013616386 9.0353931e-39 324 251
0.0061892662 0.70599997 -0.013616386 8.9431989e-39 325 251
0.0074376399 0.70700002 -0.013635674 8.942487e-39 326 251
0.008677247 0.70700002 -0.013635674 8.85029e-39 327 251
0.0099308798 0.708 -0.013654959 8.7584629e-39 328 251
0.011203799 0.70999998 -0.013693533 8.7584629e-39 329 251
0.012448666 0.70999998 -0.013693533 8.8495866e-39 330 251
0.01371282 0.71100003 -0.01371282 8.8495866e-39 331 251
0.014959441 0.71100003 -0.01371282 9.0332576e-39 332 251
0.016251646 0.713 -0.013751393 8.9407032e-39 333 251
0.017575413 0.71600002 -0.013809253 8.9399871e-39 334 251
0.0188308 0.71600002 -0.013809253 8.9399871e-39 335 251
0.020086186 0.71600002 -0.013809253 9.1243784e-39 336 251
0.021341572 0.71600002 -0.013809253 9.0321828e-39 337 251
-0.052261602 0.727 -0.015296079 1.6403597e-38 279 252
-0.050846666 0.72500002 -0.015254001 1.5207552e-38 280 252
-0.0495755 0.72500002 -0.015254001 1.336364e-38 281 252
-0.048104454 0.722 -0.015190879 9.2191146e-39 282 252
-0.046838548 0.722 -0.015190879 9.4957015e-39 283 252
-0.045446403 0.72000003 -0.0151488 9.7769379e-39 284 252
-0.044122629 0.71899998 -0.01512776 1.0606338e-38 285 252
-0.042683143 0.71600002 -0.01506464 1.0608844e-38 286 252
-0.041312039 0.71399999 -0.015022559 1.070104e-38 287 252
-0.040004052 0.713 -0.015001519 1.1252027e-38 288 252
-0.038645219 0.71100003 -0.014959441 1.1436058e-38 289 252
-0.037398599 0.71100003 -0.014959441 1.1897017e-38 290 252
-0.036101133 0.70999998 -0.014938398 1.1989573e-38 291 252
-0.034856264 0.70999998 -0.014938398 1.2264715e-38 292 252
-0.033516716 0.708 -0.01489632 1.2264715e-38 293 252
-0.03227536 0.708 -0.01489632 1.1987447e-38 294 252
-0.031034 0.708 -0.01489632 1.2263674e-38 295 252
-0.029750559 0.70700002 -0.01487528 1.2634334e-38 296 252
-0.028470624 0.70599997 -0.014854239 1.4570442e-38 297 252
-0.027155625 0.704 -0.014812159 1.5579244e-38 298 252
-0.02592128 0.704 -0.014812159 1.502607e-38 299 252
-0.024651866 0.70300001 -0.014791119 1.4471101e-38 300 252
-0.023419274 0.70300001 -0.014791119 1.3825732e-38 301 252
-0.02218668 0.70300001 -0.014791119 1.1525856e-38 302 252
-0.020983893 0.704 -0.014812159 8.3912064e-39 303 252
-0.019721493 0.70300001 -0.014791119 5.8118826e-39 304 252
-0.018488899 0.70300001 -0.014791119 6.5494476e-39 305 252
-0.017256306 0.70300001 -0.014791119 1.1066699e-38 306 252
-0.016023712 0.70300001 -0.014791119 1.2910252e-38 307 252
-0.014791119 0.70300001 -0.014791119 1.2908464e-38 308 252
-0.013519952 0.70099998 -0.014749039 1.1617726e-38 309 252
-0.012290866 0.70099998 -0.014749039 1.1340746e-38 310 252
-0.011061779 0.70099998 -0.014749039 1.0787573e-38 311 252
-0.0098607466 0.70300001 -0.014791119 1.0419437e-38 312 252
-0.0086281532 0.70300001 -0.014791119 9.4049253e-39 313 252
-0.0073955595 0.70300001 -0.014791119 9.6825464e-39 314 252
-0.0061717331 0.704 -0.014812159 9.4063224e-39 315 252
-0.0049373866 0.704 -0.014812159 9.4063224e-39 316 252
-0.0037030398 0.704 -0.014812159 9.2215753e-39 317 252
-0.0024686933 0.704 -0.014812159 9.4052462e-39 318 252
-0.0012343467 0.704 -0.014812159 9.4052462e-39 319 252
0 0.704 -0.014812159 8.8538745e-39 320 252
0.0012343467 0.704 -0.014812159 8.8538745e-39 321 252
0.0024686933 0.704 -0.014812159 8.7613216e-39 322 252
0.0037135598 0.70599997 -0.014854239 8.7613216e-39 323 252
0.0049514128 0.70599997 -0.014854239 8.8513648e-39 324 252
0.0061892662 0.70599997 -0.014854239 8.5747807e-39 325 252
0.0074376399 0.70700002 -0.01487528 8.5747849e-39 326 252
0.008689519 0.708 -0.01489632 8.5747849e-39 327 252
0.0099308798 0.708 -0.01489632 8.5747947e-39 328 252
0.011203799 0.70999998 -0.014938398 8.4825991e-39 329 252
0.012448666 0.70999998 -0.014938398 8.5740815e-39 330 252
0.01371282 0.71100003 -0.014959441 8.5740815e-39 331 252
0.014959441 0.71100003 -0.014959441 8.664845e-39 332 252
0.016251646 0.713 -0.015001519 8.664845e-39 333 252
0.017575413 0.71600002 -0.01506464 8.7552427e-39 334 252
0.0188308 0.71600002 -0.01506464 8.8474384e-39 335 252
0.020086186 0.71600002 -0.01506464 8.940706e-39 336 252
0.021371379 0.71700001 -0.015085679 8.7566749e-39 337 252
-0.052261602 0.727 -0.016570752 1.6587635e-38 279 253
-0.050846666 0.72500002 -0.016525166 1.5023164e-38 280 253
-0.049438741 0.72299999 -0.01647958 1.3179251e-38 281 253
-0.048104454 0.722 -0.016456785 9.2194663e-39 282 253
-0.046838548 0.722 -0.016456785 9.6800857e-39 283 253
-0.045446403 0.72000003 -0.0164112 1.01439e-38 284 253
-0.043999899 0.71700001 -0.016342819 1.0420846e-38 285 253
-0.042683143 0.71600002 -0.016320027 1.0607377e-38 286 253
-0.041312039 0.71399999 -0.016274439 1.0792127e-38 287 253
-0.040004052 0.713 -0.016251646 1.1436046e-38 288 253
-0.038645219 0.71100003 -0.01620606 1.1528241e-38 289 253
-0.037398599 0.71100003 -0.01620606 1.1897017e-38 290 253
-0.036101133 0.70999998 -0.016183265 1.2081768e-38 291 253
-0.034856264 0.70999998 -0.016183265 1.2356929e-38 292 253
-0.033516716 0.708 -0.01613768 1.2449124e-38 293 253
-0.03227536 0.708 -0.01613768 1.22644e-38 294 253
-0.030990168 0.70700002 -0.016114887 1.1987813e-38 295 253
-0.029750559 0.70700002 -0.016114887 1.0976239e-38 296 253
-0.028470624 0.70599997 -0.016092092 1.4018694e-38 297 253
-0.027155625 0.704 -0.016046507 1.6409005e-38 298 253
-0.02592128 0.704 -0.016046507 1.6132418e-38 299 253
-0.024651866 0.70300001 -0.016023712 1.5483105e-38 300 253
-0.023419274 0.70300001 -0.016023712 1.5298714e-38 301 253
-0.02218668 0.70300001 -0.016023712 1.4565099e-38 302 253
-0.020954086 0.70300001 -0.016023712 1.3827533e-38 303 253
-0.019721493 0.70300001 -0.016023712 1.2353119e-38 304 253
-0.018488899 0.70300001 -0.016023712 1.1154575e-38 305 253
-0.017207211 0.70099998 -0.015978126 9.9610741e-39 306 253
-0.015978126 0.70099998 -0.015978126 1.2173769e-38 307 253
-0.014749039 0.70099998 -0.015978126 1.3094651e-38 308 253
-0.013519952 0.70099998 -0.015978126 1.1711716e-38 309 253
-0.012290866 0.70099998 -0.015978126 1.0695356e-38 310 253
-0.011061779 0.70099998 -0.015978126 9.3124214e-39 311 253
-0.0098326923 0.70099998 -0.015978126 9.1283188e-39 312 253
-0.0086281532 0.70300001 -0.016023712 9.1283188e-39 313 253
-0.0073955595 0.70300001 -0.016023712 9.2212165e-39 314 253
-0.0061717331 0.704 -0.016046507 9.2212165e-39 315 253
-0.0049373866 0.704 -0.016046507 9.1290223e-39 316 253
-0.0037030398 0.704 -0.016046507 9.1290223e-39 317 253
-0.0024686933 0.704 -0.016046507 9.1290223e-39 318 253
-0.0012343467 0.704 -0.016046507 9.0368281e-39 319 253
0 0.704 -0.016046507 8.9439164e-39 320 253
0.0012343467 0.704 -0.016046507 8.8517221e-39 321 253
0.0024686933 0.704 -0.016046507 8.8513648e-39 322 253
0.0037135598 0.70599997 -0.016092092 8.8513648e-39 323 253
0.0049514128 0.70599997 -0.016092092 8.8506459e-39 324 253
0.0061892662 0.70599997 -0.016092092 8.6658988e-39 325 253
0.0074376399 0.70700002 -0.016114887 8.4822306e-39 326 253
0.008689519 0.708 -0.01613768 8.4822306e-39 327 253
0.0099308798 0.708 -0.01613768 8.6655456e-39 328 253
0.011203799 0.70999998 -0.016183265 8.6655456e-39 329 253
0.012448666 0.70999998 -0.016183265 8.6648268e-39 330 253
0.01371282 0.71100003 -0.01620606 8.6648268e-39 331 253
0.014959441 0.71100003 -0.01620606 8.7555903e-39 332 253
0.016251646 0.713 -0.016251646 8.7555903e-39 333 253
0.017575413 0.71600002 -0.016320027 8.8470726e-39 334 253
0.0188308 0.71600002 -0.016320027 8.8470726e-39 335 253
0.020114239 0.71700001 -0.016342819 9.1236553e-39 336 253
0.021371379 0.71700001 -0.016342819 8.9392655e-39 337 253
0.02388566 0.71700001 -0.016342819 1.1151986e-38 339 253
-0.052261602 0.727 -0.017845426 1.6403597e-38 279 254
-0.050846666 0.72500002 -0.017796334 1.5023514e-38 280 254
-0.049438741 0.72299999 -0.017747238 1.299521e-38 281 254
-0.048104454 0.722 -0.017722692 9.2194635e-39 282 254
-0.0467088 0.72000003 -0.017673599 9.4964105e-39 283 254
-0.045383278 0.71899998 -0.017649053 9.5932501e-39 284 254
-0.043999899 0.71700001 -0.017599959 9.7776413e-39 285 254
-0.042683143 0.71600002 -0.017575413 9.7808601e-39 286 254
-0.041312039 0.71399999 -0.017526319 1.0149641e-38 287 254
-0.040004052 0.713 -0.017501773 1.0793196e-38 288 254
