# .PCD v.7 - Point Cloud Data file format
FIELDS x y z rgb imX imY
SIZE 4 4 4 4 4 4
TYPE F F F F F F
COUNT 1 1 1 1 1 1
WIDTH 837
HEIGHT 1
VIEWPOINT 0 0 0 1 0 0 0
POINTS 837
DATA ascii
0.0077216802 0.73400003 -0.019304199 5.9004306e-39 326 255
0.0090086265 0.73400003 -0.019304199 6.5457902e-39 327 255
0.010323626 0.736 -0.019356798 7.1886401e-39 328 255
0.011582521 0.73400003 -0.019304199 7.2808357e-39 329 255
0.012869466 0.73400003 -0.019304199 7.6492511e-39 330 255
0.014156413 0.73400003 -0.019304199 7.8339983e-39 331 255
0.015485439 0.736 -0.019356798 8.1102223e-39 332 255
0.016707512 0.73299998 -0.019277899 8.2946107e-39 333 255
0.017992707 0.73299998 -0.019277899 8.2034927e-39 334 255
0.019304199 0.73400003 -0.019304199 8.2034927e-39 335 255
0.020591147 0.73400003 -0.019304199 8.3860875e-39 336 255
0.021878093 0.73400003 -0.019304199 8.201699e-39 337 255
0.023165042 0.73400003 -0.019304199 7.8332808e-39 338 255
0.024451986 0.73400003 -0.019304199 7.6492511e-39 339 255
0.025703866 0.73299998 -0.019277899 7.0056852e-39 340 255
0.026989058 0.73299998 -0.019277899 6.9134909e-39 341 255
0.028197108 0.73100001 -0.019225299 6.5476021e-39 342 255
0.029478792 0.73100001 -0.019225299 6.7323521e-39 343 255
0.030718399 0.73000002 -0.019199001 7.2844665e-39 344 255
0.031998333 0.73000002 -0.019199001 7.4692179e-39 345 255
0.033278264 0.73000002 -0.019199001 7.4685088e-39 346 255
-0.0012869467 0.73400003 -0.020591147 9.9559888e-39 319 256
0 0.73400003 -0.020591147 9.678669e-39 320 256
0.0012869467 0.73400003 -0.020591147 9.2176909e-39 321 256
0.0025738934 0.73400003 -0.020591147 8.5733948e-39 322 256
0.0038608401 0.73400003 -0.020591147 8.1124167e-39 323 256
0.0051477868 0.73400003 -0.020591147 7.2822833e-39 324 256
0.006434733 0.73400003 -0.020591147 6.8209464e-39 325 256
0.0077216802 0.73400003 -0.020591147 6.4525198e-39 326 256
0.0090086265 0.73400003 -0.020591147 6.6372698e-39 327 256
0.010295574 0.73400003 -0.020591147 6.637267e-39 328 256
0.011582521 0.73400003 -0.020591147 6.637267e-39 329 256
0.012869466 0.73400003 -0.020591147 7.1889974e-39 330 256
0.014156413 0.73400003 -0.020591147 7.2811917e-39 331 256
0.01544336 0.73400003 -0.020591147 7.8329221e-39 332 256
0.016730307 0.73400003 -0.020591147 8.1098635e-39 333 256
0.018017253 0.73400003 -0.020591147 8.4782817e-39 334 256
0.019304199 0.73400003 -0.020591147 8.5704759e-39 335 256
0.020591147 0.73400003 -0.020591147 8.6619527e-39 336 256
0.021878093 0.73400003 -0.020591147 8.5697585e-39 337 256
0.023165042 0.73400003 -0.020591147 8.0173106e-39 338 256
0.024418673 0.73299998 -0.020563092 7.8329221e-39 339 256
0.025633732 0.73100001 -0.020506985 7.1900736e-39 340 256
0.026915418 0.73100001 -0.020506985 7.0060439e-39 341 256
0.028158534 0.73000002 -0.020478934 6.8223785e-39 342 256
0.029438468 0.73000002 -0.020478934 7.0067684e-39 343 256
0.030718399 0.73000002 -0.020478934 7.2826504e-39 344 256
0.031910665 0.72799999 -0.020422826 7.559596e-39 345 256
0.033187091 0.72799999 -0.020422826 7.926952e-39 346 256
0.034463517 0.72799999 -0.020422826 8.2953758e-39 347 256
0 0.73299998 -0.021848286 9.95453e-39 320 257
0.0012851933 0.73299998 -0.021848286 9.5857489e-39 321 257
0.0025633732 0.73100001 -0.021788673 9.0332786e-39 322 257
0.00384506 0.73100001 -0.021788673 8.7566903e-39 323 257
0.0051197335 0.73000002 -0.021758866 8.3871819e-39 324 257
0.0063996664 0.73000002 -0.021758866 7.8340095e-39 325 257
0.0077216802 0.73400003 -0.021878093 7.3730342e-39 326 257
0.0090086265 0.73400003 -0.021878093 7.0964473e-39 327 257
0.010295574 0.73400003 -0.021878093 6.6361908e-39 328 257
0.011582521 0.73400003 -0.021878093 6.5439966e-39 329 257
0.012869466 0.73400003 -0.021878093 6.5439966e-39 330 257
0.014156413 0.73400003 -0.021878093 6.728385e-39 331 257
0.01544336 0.73400003 -0.021878093 7.0964445e-39 332 257
0.016730307 0.73400003 -0.021878093 7.2808357e-39 333 257
0.018017253 0.73400003 -0.021878093 7.6499686e-39 334 257
0.019304199 0.73400003 -0.021878093 7.9269114e-39 335 257
0.020591147 0.73400003 -0.021878093 8.1102223e-39 336 257
0.021878093 0.73400003 -0.021878093 8.1102223e-39 337 257
0.023165042 0.73400003 -0.021878093 7.650686e-39 338 257
0.024418673 0.73299998 -0.021848286 7.3744621e-39 339 257
0.025633732 0.73100001 -0.021788673 7.2819091e-39 340 257
0.026915418 0.73100001 -0.021788673 7.1897149e-39 341 257
0.028158534 0.73000002 -0.021758866 6.7312549e-39 342 257
0.029438468 0.73000002 -0.021758866 7.0074788e-39 343 257
0.030718399 0.73000002 -0.021758866 7.2826364e-39 344 257
0.031910665 0.72799999 -0.021699252 7.7436146e-39 345 257
0.033187091 0.72799999 -0.021699252 8.2028173e-39 346 257
0.034463517 0.72799999 -0.021699252 8.2950129e-39 347 257
0.035739943 0.72799999 -0.021699252 8.2046305e-39 348 257
-0.0025142799 0.71700001 -0.02262852 1.0233635e-38 318 258
-0.00125714 0.71700001 -0.02262852 9.9570482e-39 319 258
0 0.73299998 -0.023133477 9.588616e-39 320 258
0.0012851933 0.73299998 -0.023133477 9.3120291e-39 321 258
0.0025493465 0.727 -0.022944121 9.1269147e-39 322 258
0.0038240198 0.727 -0.022944121 8.7584924e-39 323 258
0.0051057064 0.72799999 -0.022975679 8.4808293e-39 324 258
0.0063821329 0.72799999 -0.022975679 8.111688e-39 325 258
0.0076795998 0.73000002 -0.023038799 7.4663214e-39 326 258
0.0089595336 0.73000002 -0.023038799 7.0053433e-39 327 258
0.010295574 0.73400003 -0.023165042 6.3606899e-39 328 258
0.011566739 0.73299998 -0.023133477 6.0844632e-39 329 258
0.012851933 0.73299998 -0.023133477 6.2674139e-39 330 258
0.014137126 0.73299998 -0.023133477 6.2674139e-39 331 258
0.01544336 0.73400003 -0.023165042 6.3596081e-39 332 258
0.016730307 0.73400003 -0.023165042 6.7283864e-39 333 258
0.017992707 0.73299998 -0.023133477 7.18828e-39 334 258
0.019277899 0.73299998 -0.023133477 7.3723097e-39 335 258
0.020563092 0.73299998 -0.023133477 7.9233227e-39 336 258
0.021848286 0.73299998 -0.023133477 8.0155169e-39 337 258
0.023133477 0.73299998 -0.023133477 7.4659389e-39 338 258
0.024352046 0.73100001 -0.02307036 7.2815504e-39 339 258
0.025598666 0.73000002 -0.023038799 7.0067614e-39 340 258
0.026878599 0.73000002 -0.023038799 7.0067614e-39 341 258
0.028158534 0.73000002 -0.023038799 6.9160021e-39 342 258
0.029438468 0.73000002 -0.023038799 7.2847818e-39 343 258
0.030634239 0.72799999 -0.022975679 7.6535839e-39 344 258
0.031910665 0.72799999 -0.022975679 7.7457796e-39 345 258
0.033141505 0.727 -0.022944121 7.7457922e-39 346 258
0.03422682 0.72299999 -0.02281788 7.7457922e-39 347 258
0.035494477 0.72299999 -0.02281788 8.2049781e-39 348 258
0.036762137 0.72299999 -0.02281788 8.2975324e-39 349 258
-0.0076795998 0.73000002 -0.024318734 1.1244209e-38 314 259
-0.0063996664 0.73000002 -0.024318734 1.1244209e-38 315 259
-0.0050285598 0.71700001 -0.02388566 1.1151998e-38 316 259
-0.0037714199 0.71700001 -0.02388566 1.0967607e-38 317 259
-0.0025142799 0.71700001 -0.02388566 1.0509486e-38 318 259
-0.00125714 0.71700001 -0.02388566 1.0324736e-38 319 259
0 0.71700001 -0.02388566 1.0048501e-38 320 259
0.00125714 0.71700001 -0.02388566 9.67972e-39 321 259
0.0025142799 0.71700001 -0.02388566 9.4027786e-39 322 259
0.0037714199 0.71700001 -0.02388566 9.1261931e-39 323 259
0.0050706398 0.72299999 -0.024085538 9.0321996e-39 324 259
0.0063558333 0.72500002 -0.024152167 8.5715802e-39 325 259
0.0076480396 0.727 -0.024218792 8.2017186e-39 326 259
0.0089349858 0.72799999 -0.024252106 7.4641536e-39 327 259
0.010295574 0.73400003 -0.024451986 6.7273144e-39 328 259
0.01153518 0.73100001 -0.024352046 6.3581732e-39 329 259
0.012816866 0.73100001 -0.024352046 5.8068029e-39 330 259
0.014098554 0.73100001 -0.024352046 5.8068029e-39 331 259
0.01544336 0.73400003 -0.024451986 5.8075217e-39 332 259
0.016707512 0.73299998 -0.024418673 6.08411e-39 333 259
0.017992707 0.73299998 -0.024418673 5.9929892e-39 334 259
0.019225299 0.73100001 -0.024352046 6.0851848e-39 335 259
0.020506985 0.73100001 -0.024352046 6.4525226e-39 336 259
0.021788673 0.73100001 -0.024352046 6.8209464e-39 337 259
0.02307036 0.73100001 -0.024352046 6.8212995e-39 338 259
0.024352046 0.73100001 -0.024352046 6.8212995e-39 339 259
0.025598666 0.73000002 -0.024318734 6.6383432e-39 340 259
0.026878599 0.73000002 -0.024318734 7.0067628e-39 341 259
0.028081384 0.72799999 -0.024252106 7.1004073e-39 342 259
0.029357811 0.72799999 -0.024252106 7.6535811e-39 343 259
0.030634239 0.72799999 -0.024252106 8.0230909e-39 344 259
0.031647664 0.722 -0.024052227 8.0230909e-39 345 259
0.032913569 0.722 -0.024052227 8.2064032e-39 346 259
0.034084801 0.72000003 -0.0239856 8.0223721e-39 347 259
0.035347197 0.72000003 -0.0239856 8.2053312e-39 348 259
0.036609601 0.72000003 -0.0239856 8.2053312e-39 349 259
0.037871998 0.72000003 -0.0239856 8.4794196e-39 350 259
-0.01148784 0.72799999 -0.025528532 1.2623208e-38 311 260
-0.010239467 0.73000002 -0.025598666 1.1520076e-38 312 260
-0.0089595336 0.73000002 -0.025598666 1.1336045e-38 313 260
-0.0076795998 0.73000002 -0.025598666 1.1244197e-38 314 260
-0.0063996664 0.73000002 -0.025598666 1.1152001e-38 315 260
-0.0050285598 0.71700001 -0.0251428 1.0785361e-38 316 260
-0.0037714199 0.71700001 -0.0251428 1.0509133e-38 317 260
-0.0025142799 0.71700001 -0.0251428 1.0600953e-38 318 260
-0.00125714 0.71700001 -0.0251428 1.0232172e-38 319 260
0 0.71600002 -0.025107734 9.8644644e-39 320 260
0.0012553866 0.71600002 -0.025107734 9.4956818e-39 321 260
0.0025107733 0.71600002 -0.025107734 9.4020569e-39 322 260
0.0037714199 0.71700001 -0.0251428 9.2176656e-39 323 260
0.0050425865 0.71899998 -0.025212931 8.8492559e-39 324 260
0.0063120001 0.72000003 -0.025248 8.4804733e-39 325 260
0.0075743999 0.72000003 -0.025248 7.8358284e-39 326 260
0.0088736191 0.72299999 -0.025353199 7.282656e-39 327 260
0.010281546 0.73299998 -0.025703866 6.5440148e-39 328 260
0.01153518 0.73100001 -0.025633732 6.1752323e-39 329 260
0.012816866 0.73100001 -0.025633732 5.8064469e-39 330 260
0.014098554 0.73100001 -0.025633732 5.7142513e-39 331 260
0.015422319 0.73299998 -0.025703866 5.8975636e-39 332 260
0.016707512 0.73299998 -0.025703866 5.8975636e-39 333 260
0.017992707 0.73299998 -0.025703866 6.0826667e-39 334 260
0.019225299 0.73100001 -0.025633732 6.1748609e-39 335 260
0.020506985 0.73100001 -0.025633732 6.4507261e-39 336 260
0.021788673 0.73100001 -0.025633732 6.5429204e-39 337 260
0.02307036 0.73100001 -0.025633732 6.6354733e-39 338 260
0.024352046 0.73100001 -0.025633732 6.7276676e-39 339 260
0.025528532 0.72799999 -0.025528532 6.9134951e-39 340 260
0.026804959 0.72799999 -0.025528532 7.0982451e-39 341 260
0.028042812 0.727 -0.025493465 7.2848042e-39 342 260
0.028631933 0.70999998 -0.024897331 7.7457824e-39 343 260
0.029876797 0.70999998 -0.024897331 7.8390696e-39 344 260
0.031428497 0.71700001 -0.0251428 8.0234609e-39 345 260
0.032685637 0.71700001 -0.0251428 8.1145817e-39 346 260
0.033942781 0.71700001 -0.0251428 7.930189e-39 347 260
0.035199918 0.71700001 -0.0251428 8.3879274e-39 348 260
0.036457058 0.71700001 -0.0251428 8.2957318e-39 349 260
0.037714198 0.71700001 -0.0251428 8.5712396e-39 350 260
0.038971342 0.71700001 -0.0251428 8.5712396e-39 351 260
0.040396802 0.72000003 -0.025248 8.5712424e-39 352 260
0.041601337 0.71899998 -0.025212931 8.7556337e-39 353 260
0.042861983 0.71899998 -0.025212931 7.6536218e-39 354 260
0.044122629 0.71899998 -0.025212931 7.8383732e-39 355 260
-0.012799333 0.73000002 -0.026878599 1.2809387e-38 310 261
-0.01148784 0.72799999 -0.026804959 1.17034e-38 311 261
-0.010211413 0.72799999 -0.026804959 1.1243844e-38 312 261
-0.0089349858 0.72799999 -0.026804959 1.1059452e-38 313 261
-0.0076585598 0.72799999 -0.026804959 1.0509147e-38 314 261
-0.0062857 0.71700001 -0.02639994 1.041695e-38 315 261
-0.0050215465 0.71600002 -0.026363119 1.0416932e-38 316 261
-0.00376616 0.71600002 -0.026363119 1.0232541e-38 317 261
-0.0025107733 0.71600002 -0.026363119 1.0232528e-38 318 261
-0.0012553866 0.71600002 -0.026363119 9.955581e-39 319 261
0 0.71399999 -0.026289478 9.9537803e-39 320 261
0.00125188 0.71399999 -0.026289478 9.6775522e-39 321 261
0.0025037599 0.71399999 -0.026289478 9.2172999e-39 322 261
0.00376616 0.71600002 -0.026363119 9.0325485e-39 323 261
0.0050215465 0.71600002 -0.026363119 8.6637758e-39 324 261
0.0062769335 0.71600002 -0.026363119 8.5715802e-39 325 261
0.00753232 0.71600002 -0.026363119 8.1102461e-39 326 261
0.0087877065 0.71600002 -0.026363119 7.6492665e-39 327 261
0.010281546 0.73299998 -0.026989058 7.2804854e-39 328 261
0.01153518 0.73100001 -0.026915418 6.7273116e-39 329 261
0.012799333 0.73000002 -0.026878599 6.4507261e-39 330 261
0.014079267 0.73000002 -0.026878599 6.1745022e-39 331 261
0.01538024 0.73100001 -0.026915418 5.9893963e-39 332 261
0.016661927 0.73100001 -0.026915418 6.0819492e-39 333 261
0.017943613 0.73100001 -0.026915418 5.9901151e-39 334 261
0.019225299 0.73100001 -0.026915418 6.1745064e-39 335 261
0.020506985 0.73100001 -0.026915418 6.5429232e-39 336 261
0.021788673 0.73100001 -0.026915418 6.8195101e-39 337 261
0.023133477 0.73299998 -0.026989058 6.8205793e-39 338 261
0.024352046 0.73100001 -0.026915418 7.1893618e-39 339 261
0.025528532 0.72799999 -0.026804959 7.4663046e-39 340 261
0.026804959 0.72799999 -0.026804959 8.0191196e-39 341 261
0.028042812 0.727 -0.026768139 7.9290946e-39 342 261
0.028631933 0.70999998 -0.026142199 8.2982359e-39 343 261
0.029876797 0.70999998 -0.026142199 8.2975296e-39 344 261
0.031253166 0.713 -0.026252659 8.205334e-39 345 261
0.032548878 0.71399999 -0.026289478 8.2953758e-39 346 261
0.03389544 0.71600002 -0.026363119 8.2953758e-39 347 261
0.035150826 0.71600002 -0.026363119 8.4783251e-39 348 261
0.036406212 0.71600002 -0.026363119 8.4783251e-39 349 261
0.037661601 0.71600002 -0.026363119 8.4783223e-39 350 261
0.038971342 0.71700001 -0.02639994 8.5708767e-39 351 261
0.040340692 0.71899998 -0.02647358 8.1120664e-39 352 261
0.041601337 0.71899998 -0.02647358 8.1120664e-39 353 261
0.042742759 0.71700001 -0.02639994 8.1117132e-39 354 261
0.043999899 0.71700001 -0.02639994 8.0195176e-39 355 261
0.045257039 0.71700001 -0.02639994 8.1153314e-39 356 261
-0.014079267 0.73000002 -0.028158534 1.2809039e-38 309 262
-0.012799333 0.73000002 -0.028158534 1.1427162e-38 310 262
-0.011519399 0.73000002 -0.028158534 1.0689238e-38 311 262
-0.010211413 0.72799999 -0.028081384 1.0506985e-38 312 262
-0.0089349858 0.72799999 -0.028081384 1.0506985e-38 313 262
-0.0075428397 0.71700001 -0.027657079 1.0231822e-38 314 262
-0.0062769335 0.71600002 -0.027618507 1.0231822e-38 315 262
-0.0050215465 0.71600002 -0.027618507 1.0415473e-38 316 262
-0.0037556398 0.71399999 -0.02754136 1.0230723e-38 317 262
-0.0025037599 0.71399999 -0.02754136 1.0138515e-38 318 262
-0.00125188 0.71399999 -0.02754136 9.9537635e-39 319 262
0 0.71399999 -0.02754136 9.7690065e-39 320 262
0.0012501266 0.713 -0.027502786 9.6768109e-39 321 262
0.0025002533 0.713 -0.027502786 9.1240028e-39 322 262
0.0037503797 0.713 -0.027502786 8.7555819e-39 323 262
0.0050005065 0.713 -0.027502786 8.47793e-39 324 262
0.0062506334 0.713 -0.027502786 8.2017032e-39 325 262
0.0075007593 0.713 -0.027502786 7.8336592e-39 326 262
0.0087508867 0.713 -0.027502786 7.6492665e-39 327 262
0.010001013 0.713 -0.027502786 6.9149427e-39 328 262
0.01153518 0.73100001 -0.028197108 6.6383558e-39 329 262
0.012290866 0.70099998 -0.027039904 6.3621248e-39 330 262
0.013500666 0.69999999 -0.027001332 6.1777336e-39 331 262
0.014727999 0.69999999 -0.027001332 6.3606899e-39 332 262
0.015955333 0.69999999 -0.027001332 6.1766588e-39 333 262
0.017943613 0.73100001 -0.028197108 6.4528883e-39 334 262
0.019225299 0.73100001 -0.028197108 6.6376397e-39 335 262
0.020506985 0.73100001 -0.028197108 6.823103e-39 336 262
0.021788673 0.73100001 -0.028197108 7.0996913e-39 337 262
0.023133477 0.73299998 -0.028274251 7.1007605e-39 338 262
0.024418673 0.73299998 -0.028274251 7.1929561e-39 339 262
0.024757065 0.70599997 -0.027232772 7.929075e-39 340 262
0.025994917 0.70599997 -0.027232772 7.929075e-39 341 262
0.027271347 0.70700002 -0.027271347 8.0209217e-39 342 262
0.028510952 0.70700002 -0.027271347 8.1131173e-39 343 262
0.029876797 0.70999998 -0.027387066 8.295366e-39 344 262
0.031165501 0.71100003 -0.027425639 8.2028116e-39 345 262
0.032412119 0.71100003 -0.027425639 8.3857624e-39 346 262
0.033753417 0.713 -0.027502786 8.2935667e-39 347 262
0.035003547 0.713 -0.027502786 8.4768762e-39 348 262
0.036253672 0.713 -0.027502786 8.4768762e-39 349 262
0.037556399 0.71399999 -0.02754136 8.2935639e-39 350 262
0.038916986 0.71600002 -0.027618507 8.2935639e-39 351 262
0.040172372 0.71600002 -0.027618507 8.2939269e-39 352 262
0.041485619 0.71700001 -0.027657079 8.2939269e-39 353 262
0.042742759 0.71700001 -0.027657079 8.1106202e-39 354 262
0.043938532 0.71600002 -0.027618507 8.2950129e-39 355 262
0.045193922 0.71600002 -0.027618507 7.6518267e-39 356 262
0.046514176 0.71700001 -0.027657079 8.4815874e-39 357 262
-0.014079267 0.73000002 -0.029438468 1.197891e-38 309 263
-0.012799333 0.73000002 -0.029438468 1.0044572e-38 310 263
-0.01147206 0.727 -0.029317487 9.9523762e-39 311 263
-0.010197386 0.727 -0.029317487 9.7719184e-39 312 263
-0.0089227129 0.727 -0.029317487 9.7719184e-39 313 263
-0.0075428397 0.71700001 -0.028914221 9.9559341e-39 314 263
-0.0062769335 0.71600002 -0.028873893 9.9559341e-39 315 263
-0.0050075199 0.71399999 -0.028793238 1.0139587e-38 316 263
-0.0037556398 0.71399999 -0.028793238 1.0047033e-38 317 263
-0.0025037599 0.71399999 -0.028793238 9.6789591e-39 318 263
-0.0012501266 0.713 -0.028752912 9.4945706e-39 319 263
0 0.713 -0.028752912 9.4938531e-39 320 263
0.0012501266 0.713 -0.028752912 9.3094647e-39 321 263
0.0025002533 0.713 -0.028752912 9.0318058e-39 322 263
0.0037503797 0.713 -0.028752912 8.5708347e-39 323 263
0.0050005065 0.713 -0.028752912 8.2931758e-39 324 263
0.0062506334 0.713 -0.028752912 8.0169518e-39 325 263
0.0075007593 0.713 -0.028752912 7.5570569e-39 326 263
0.0087263398 0.71100003 -0.028672259 7.5570569e-39 327 263
0.0099589331 0.70999998 -0.028631933 7.0053264e-39 328 263
0.011140679 0.70599997 -0.028470624 7.0053264e-39 329 263
0.012290866 0.70099998 -0.028268991 6.9138511e-39 330 263
0.013500666 0.69999999 -0.028228667 6.9138511e-39 331 263
0.014727999 0.69999999 -0.028228667 7.0064026e-39 332 263
0.015955333 0.69999999 -0.028228667 7.0985969e-39 333 263
0.017182667 0.69999999 -0.028228667 7.1907911e-39 334 263
0.019225299 0.73100001 -0.029478792 7.2833441e-39 335 263
0.019721493 0.70300001 -0.028349647 7.3759026e-39 336 263
0.020954086 0.70300001 -0.028349647 7.5606526e-39 337 263
0.022218239 0.704 -0.028389972 7.4691759e-39 338 263
0.023452586 0.704 -0.028389972 7.3766215e-39 339 263
0.024686933 0.704 -0.028389972 7.5592177e-39 340 263
0.025994917 0.70599997 -0.028470624 7.6514133e-39 341 263
0.027271347 0.70700002 -0.028510952 7.9262079e-39 342 263
0.028510952 0.70700002 -0.028510952 7.9262079e-39 343 263
0.02979264 0.708 -0.02855128 8.1084482e-39 344 263
0.031121666 0.70999998 -0.028631933 8.1084482e-39 345 263
0.032366529 0.70999998 -0.028631933 8.1995648e-39 346 263
0.033658739 0.71100003 -0.028672259 8.2921192e-39 347 263
0.034905359 0.71100003 -0.028672259 8.38324e-39 348 263
0.036151983 0.71100003 -0.028672259 8.2910444e-39 349 263
0.037398599 0.71100003 -0.028672259 8.38324e-39 350 263
0.038753927 0.713 -0.028752912 8.38324e-39 351 263
0.040060159 0.71399999 -0.028793238 8.2006494e-39 352 263
0.041427758 0.71600002 -0.028873893 8.2006494e-39 353 263
0.042683143 0.71600002 -0.028873893 7.9258702e-39 354 263
0.043938532 0.71600002 -0.028873893 7.9258702e-39 355 263
0.045193922 0.71600002 -0.028873893 7.8329711e-39 356 263
0.046449307 0.71600002 -0.028873893 7.64894e-39 357 263
0.047704693 0.71600002 -0.028873893 8.6663514e-39 358 263
-0.01647958 0.72299999 -0.030423839 1.3636652e-38 307 264
-0.015190879 0.722 -0.030381758 1.1979979e-38 308 264
-0.013924973 0.722 -0.030381758 1.0413014e-38 309 264
-0.012659066 0.722 -0.030381758 8.7559714e-39 310 264
-0.01139316 0.722 -0.030381758 9.3091452e-39 311 264
-0.010085173 0.71899998 -0.030255521 9.4971084e-39 312 264
-0.0087999795 0.71700001 -0.030171359 9.6811395e-39 313 264
-0.00753232 0.71600002 -0.03012928 1.0048467e-38 314 264
-0.0062593995 0.71399999 -0.030045118 9.9562718e-39 315 264
-0.0050005065 0.713 -0.030003037 1.0322884e-38 316 264
-0.0037503797 0.713 -0.030003037 1.0138495e-38 317 264
-0.0025002533 0.713 -0.030003037 9.7711533e-39 318 264
-0.0012501266 0.713 -0.030003037 9.5871236e-39 319 264
0 0.71100003 -0.029918881 9.5856886e-39 320 264
0.00124662 0.71100003 -0.029918881 9.2169117e-39 321 264
0.0024932399 0.71100003 -0.029918881 8.8474174e-39 322 264
0.0037398601 0.71100003 -0.029918881 8.4789992e-39 323 264
0.0049864799 0.71100003 -0.029918881 8.201699e-39 324 264
0.0062330998 0.71100003 -0.029918881 7.9254751e-39 325 264
0.0074797203 0.71100003 -0.029918881 7.5570569e-39 326 264
0.008689519 0.708 -0.02979264 7.3726684e-39 327 264
0.0099308798 0.708 -0.02979264 7.0960857e-39 328 264
0.011140679 0.70599997 -0.029708479 7.18828e-39 329 264
0.012325933 0.70300001 -0.029582238 7.0053278e-39 330 264
0.013519952 0.70099998 -0.029498078 7.189359e-39 331 264
0.014727999 0.69999999 -0.029455997 7.3744621e-39 332 264
0.015955333 0.69999999 -0.029455997 7.5588505e-39 333 264
0.017182667 0.69999999 -0.029455997 7.5588533e-39 334 264
0.018436298 0.70099998 -0.029498078 7.5588533e-39 335 264
0.019665385 0.70099998 -0.029498078 7.5584974e-39 336 264
0.020954086 0.70300001 -0.029582238 7.6506944e-39 337 264
0.02218668 0.70300001 -0.029582238 7.8343598e-39 338 264
0.023452586 0.704 -0.029624319 7.9269142e-39 339 264
0.024686933 0.704 -0.029624319 8.1098635e-39 340 264
0.02592128 0.704 -0.029624319 8.2020578e-39 341 264
0.027232772 0.70599997 -0.029708479 8.2920996e-39 342 264
0.028470624 0.70599997 -0.029708479 8.1077111e-39 343 264
0.029750559 0.70700002 -0.029750559 8.198832e-39 344 264
0.031034 0.708 -0.02979264 8.3828631e-39 345 264
0.032366529 0.70999998 -0.029876797 7.9236898e-39 346 264
0.033611398 0.70999998 -0.029876797 7.9236898e-39 347 264
0.034856264 0.70999998 -0.029876797 7.9233367e-39 348 264
0.036101133 0.70999998 -0.029876797 7.9233367e-39 349 264
0.037345998 0.70999998 -0.029876797 8.0155351e-39 350 264
0.038645219 0.71100003 -0.029918881 8.0155351e-39 351 264
0.039891839 0.71100003 -0.029918881 8.1995704e-39 352 264
0.041254178 0.713 -0.030003037 8.1995704e-39 353 264
0.042563915 0.71399999 -0.030045118 7.8333089e-39 354 264
0.043815799 0.71399999 -0.030045118 7.8333089e-39 355 264
0.045067675 0.71399999 -0.030045118 7.5570947e-39 356 264
0.046449307 0.71600002 -0.03012928 7.0039209e-39 357 264
0.047704693 0.71600002 -0.03012928 7.0990215e-39 358 264
0.048960082 0.71600002 -0.03012928 9.1273253e-39 359 264
-0.017747238 0.72299999 -0.031691495 1.3729565e-38 306 265
-0.01647958 0.72299999 -0.031691495 1.317675e-38 307 265
-0.015190879 0.722 -0.031647664 1.0321887e-38 308 265
-0.013924973 0.722 -0.031647664 8.9389516e-39 309 265
-0.012624 0.72000003 -0.03156 8.664845e-39 310 265
-0.01134582 0.71899998 -0.031516165 9.40241e-39 311 265
-0.01005712 0.71700001 -0.031428497 9.5903788e-39 312 265
-0.0087999795 0.71700001 -0.031428497 9.6825744e-39 313 265
-0.00753232 0.71600002 -0.031384666 1.0416527e-38 314 265
-0.0062593995 0.71399999 -0.031296998 1.0231777e-38 315 265
-0.0050005065 0.713 -0.031253166 1.0139571e-38 316 265
-0.0037503797 0.713 -0.031253166 9.955183e-39 317 265
-0.0025002533 0.713 -0.031253166 9.8622713e-39 318 265
-0.00124662 0.71100003 -0.031165501 9.5856886e-39 319 265
0 0.71100003 -0.031165501 9.4931357e-39 320 265
0.00124662 0.71100003 -0.031165501 9.1247175e-39 321 265
0.0024932399 0.71100003 -0.031165501 8.6641051e-39 322 265
0.0037398601 0.71100003 -0.031165501 8.2953282e-39 323 265
0.0049794666 0.70999998 -0.031121666 8.0191042e-39 324 265
0.0062067998 0.708 -0.031034 7.7428803e-39 325 265
0.0074481601 0.708 -0.031034 7.4655801e-39 326 265
0.008677247 0.70700002 -0.030990168 7.1893562e-39 327 265
0.0099168532 0.70700002 -0.030990168 7.0964445e-39 328 265
0.011140679 0.70599997 -0.030946331 7.1889974e-39 329 265
0.012343466 0.704 -0.030858666 7.1904324e-39 330 265
0.013519952 0.70099998 -0.030727165 7.1904324e-39 331 265
0.014727999 0.69999999 -0.030683333 7.5577743e-39 332 265
0.015955333 0.69999999 -0.030683333 7.5577743e-39 333 265
0.017182667 0.69999999 -0.030683333 7.8322046e-39 334 265
0.018436298 0.70099998 -0.030727165 7.9247576e-39 335 265
0.019665385 0.70099998 -0.030727165 7.9243989e-39 336 265
0.020894472 0.70099998 -0.030727165 8.0165931e-39 337 265
0.022123558 0.70099998 -0.030727165 8.3857287e-39 338 265
0.023352645 0.70099998 -0.030727165 8.6626702e-39 339 265
0.024581732 0.70099998 -0.030727165 8.7562993e-39 340 265
0.025884461 0.70300001 -0.030814834 8.9410465e-39 341 265
0.027155625 0.704 -0.030858666 8.8466999e-39 342 265
0.028349647 0.70300001 -0.030814834 8.2013403e-39 343 265
0.029582238 0.70300001 -0.030814834 8.1984704e-39 344 265
0.030858666 0.704 -0.030858666 8.1984704e-39 345 265
0.032229774 0.70700002 -0.030990168 7.9229639e-39 346 265
0.033469379 0.70700002 -0.030990168 7.7389342e-39 347 265
0.034708988 0.70700002 -0.030990168 7.7385769e-39 348 265
0.035948593 0.70700002 -0.030990168 7.922608e-39 349 265
0.037188202 0.70700002 -0.030990168 7.9222577e-39 350 265
0.038427804 0.70700002 -0.030990168 8.0144533e-39 351 265
0.039723519 0.708 -0.031034 8.1066517e-39 352 265
0.040964879 0.708 -0.031034 8.1066517e-39 353 265
0.042325463 0.70999998 -0.031121666 7.7403874e-39 354 265
0.043754432 0.713 -0.031253166 7.8329431e-39 355 265
0.045004558 0.713 -0.031253166 7.4659683e-39 356 265
0.046319555 0.71399999 -0.031296998 7.0971858e-39 357 265
0.047704693 0.71600002 -0.031384666 5.9926613e-39 358 265
0.048960082 0.71600002 -0.031384666 7.0986501e-39 359 265
0.050215468 0.71600002 -0.031384666 1.1335356e-38 360 265
-0.017747238 0.72299999 -0.032959159 1.3454409e-38 306 266
-0.01647958 0.72299999 -0.032959159 1.2348063e-38 307 266
-0.015190879 0.722 -0.032913569 9.0307787e-39 308 266
-0.0138864 0.72000003 -0.0328224 8.4776063e-39 309 266
-0.012606465 0.71899998 -0.032776814 9.0346883e-39 310 266
-0.01131426 0.71700001 -0.032685637 9.6800577e-39 311 266
-0.01005712 0.71700001 -0.032685637 9.9587858e-39 312 266
-0.0087877065 0.71600002 -0.032640055 1.0050983e-38 313 266
-0.0075112795 0.71399999 -0.032548878 1.0783502e-38 314 266
-0.0062506334 0.713 -0.032503292 1.0507275e-38 315 266
-0.0049864799 0.71100003 -0.032412119 1.059839e-38 316 266
-0.0037398601 0.71100003 -0.032412119 1.0413643e-38 317 266
-0.0024932399 0.71100003 -0.032412119 9.9537481e-39 318 266
-0.00124662 0.71100003 -0.032412119 9.7693596e-39 319 266
0 0.70999998 -0.032366529 9.3098234e-39 320 266
0.0012448666 0.70999998 -0.032366529 9.125435e-39 321 266
0.0024897333 0.70999998 -0.032366529 8.7562993e-39 322 266
0.0037345996 0.70999998 -0.032366529 8.5719109e-39 323 266
0.0049654399 0.708 -0.03227536 8.3864462e-39 324 266
0.0061980332 0.70700002 -0.032229774 8.201699e-39 325 266
0.0074376399 0.70700002 -0.032229774 8.2002641e-39 326 266
0.0086649731 0.70599997 -0.032184184 8.0155169e-39 327 266
0.0099028256 0.70599997 -0.032184184 7.5570569e-39 328 266
0.011140679 0.70599997 -0.032184184 7.5570569e-39 329 266
0.012343466 0.704 -0.032093015 7.6492511e-39 330 266
0.013558527 0.70300001 -0.032047424 7.8336396e-39 331 266
0.014749039 0.70099998 -0.031956252 7.9251163e-39 332 266
0.015978126 0.70099998 -0.031956252 7.9251163e-39 333 266
0.017207211 0.70099998 -0.031956252 8.1077111e-39 334 266
0.018436298 0.70099998 -0.031956252 8.1999054e-39 335 266
0.019665385 0.70099998 -0.031956252 8.1999054e-39 336 266
0.020894472 0.70099998 -0.031956252 8.5683235e-39 337 266
0.022123558 0.70099998 -0.031956252 8.661594e-39 338 266
0.023352645 0.70099998 -0.031956252 9.0307296e-39 339 266
0.024581732 0.70099998 -0.031956252 9.0318058e-39 340 266
0.025810819 0.70099998 -0.031956252 9.0318058e-39 341 266
0.027117053 0.70300001 -0.032047424 9.2115307e-39 342 266
0.028349647 0.70300001 -0.032047424 8.9345893e-39 343 266
0.029582238 0.70300001 -0.032047424 8.2906647e-39 344 266
0.030814834 0.70300001 -0.032047424 8.1062762e-39 345 266
0.032184184 0.70599997 -0.032184184 7.8296935e-39 346 266
0.033422034 0.70599997 -0.032184184 7.8296935e-39 347 266
0.034659892 0.70599997 -0.032184184 7.5541954e-39 348 266
0.035897743 0.70599997 -0.032184184 7.5541954e-39 349 266
0.037135597 0.70599997 -0.032184184 7.4630844e-39 350 266
0.038427804 0.70700002 -0.032229774 7.4630844e-39 351 266
0.039667413 0.70700002 -0.032229774 7.6460407e-39 352 266
0.040907022 0.70700002 -0.032229774 7.7385951e-39 353 266
0.042206239 0.708 -0.03227536 7.555643e-39 354 266
0.043631699 0.71100003 -0.032412119 7.6481973e-39 355 266
0.045004558 0.713 -0.032503292 7.4645291e-39 356 266
0.046319555 0.71399999 -0.032548878 7.6485603e-39 357 266
0.047704693 0.71600002 -0.032640055 6.3592704e-39 358 266
0.048960082 0.71600002 -0.032640055 5.8982922e-39 359 266
0.050215468 0.71600002 -0.032640055 9.861652e-39 360 266
0.051542737 0.71700001 -0.032685637 1.1613368e-38 361 266
-0.017747238 0.72299999 -0.03422682 1.2349137e-38 306 267
-0.01647958 0.72299999 -0.03422682 1.0873649e-38 307 267
-0.015190879 0.722 -0.034179479 8.2935611e-39 308 267
-0.0138864 0.72000003 -0.034084801 8.7545393e-39 309 267
-0.012606465 0.71899998 -0.03403746 9.5871558e-39 310 267
-0.01131426 0.71700001 -0.033942781 1.0877895e-38 311 267
-0.010043093 0.71600002 -0.03389544 1.0971884e-38 312 267
-0.0087631596 0.71399999 -0.033800758 1.0510906e-38 313 267
-0.0075112795 0.71399999 -0.033800758 1.0874634e-38 314 267
-0.0062330998 0.71100003 -0.033658739 1.0782079e-38 315 267
-0.0049864799 0.71100003 -0.033658739 1.0598392e-38 316 267
-0.0037398601 0.71100003 -0.033658739 1.0229972e-38 317 267
-0.0024897333 0.70999998 -0.033611398 9.8622713e-39 318 267
-0.0012448666 0.70999998 -0.033611398 9.5856886e-39 319 267
0 0.70999998 -0.033611398 9.1265112e-39 320 267
0.00124136 0.708 -0.033516716 8.9421227e-39 321 267
0.00248272 0.708 -0.033516716 8.7570168e-39 322 267
0.0037188199 0.70700002 -0.033469379 8.6648226e-39 323 267
0.0049584266 0.70700002 -0.033469379 8.4793579e-39 324 267
0.0061892662 0.70599997 -0.033422034 8.2031339e-39 325 267
0.0074271196 0.70599997 -0.033422034 8.2931758e-39 326 267
0.0086649731 0.70599997 -0.033422034 8.2009816e-39 327 267
0.0099028256 0.70599997 -0.033422034 7.8336396e-39 328 267
0.011140679 0.70599997 -0.033422034 7.9258338e-39 329 267
0.012343466 0.704 -0.03332736 7.7425215e-39 330 267
0.013577812 0.704 -0.03332736 8.0187455e-39 331 267
0.014791119 0.70300001 -0.033280019 8.0191042e-39 332 267
0.016023712 0.70300001 -0.033280019 8.0191042e-39 333 267
0.017256306 0.70300001 -0.033280019 8.2938932e-39 334 267
0.018436298 0.70099998 -0.03318534 8.3860875e-39 335 267
0.019665385 0.70099998 -0.03318534 8.38537e-39 336 267
0.020894472 0.70099998 -0.03318534 8.5693997e-39 337 267
0.022091998 0.69999999 -0.033137999 8.8456237e-39 338 267
0.023319334 0.69999999 -0.033137999 9.0296534e-39 339 267
0.024581732 0.70099998 -0.03318534 9.1207714e-39 340 267
0.025810819 0.70099998 -0.03318534 8.936383e-39 341 267
0.027039904 0.70099998 -0.03318534 8.7509183e-39 342 267
0.028349647 0.70300001 -0.033280019 8.5661711e-39 343 267
0.029582238 0.70300001 -0.033280019 8.0144407e-39 344 267
0.030814834 0.70300001 -0.033280019 7.8300522e-39 345 267
0.032093015 0.704 -0.03332736 7.8296935e-39 346 267
0.033422034 0.70599997 -0.033422034 7.7374993e-39 347 267
0.034659892 0.70599997 -0.033422034 7.5538283e-39 348 267
0.035897743 0.70599997 -0.033422034 7.5538283e-39 349 267
0.037135597 0.70599997 -0.033422034 7.7371434e-39 350 267
0.038373452 0.70599997 -0.033422034 7.8293404e-39 351 267
0.039611302 0.70599997 -0.033422034 7.6460309e-39 352 267
0.040849157 0.70599997 -0.033422034 7.6460309e-39 353 267
0.042146627 0.70700002 -0.033469379 7.4630816e-39 354 267
0.043447599 0.708 -0.033516716 7.6474729e-39 355 267
0.044815198 0.70999998 -0.033611398 7.4648823e-39 356 267
0.046124939 0.71100003 -0.033658739 7.4648823e-39 357 267
0.047504812 0.713 -0.033753417 7.3723335e-39 358 267
0.048960082 0.71600002 -0.03389544 7.0031909e-39 359 267
0.050215468 0.71600002 -0.03389544 7.9258969e-39 360 267
0.051470853 0.71600002 -0.03389544 1.0230786e-38 361 267
0.052726239 0.71600002 -0.03389544 1.2348066e-38 362 267
-0.017747238 0.72299999 -0.035494477 1.16112e-38 306 268
-0.016456785 0.722 -0.035445385 1.0043874e-38 307 268
-0.0151488 0.72000003 -0.035347197 8.0191224e-39 308 268
-0.013867113 0.71899998 -0.035298105 9.0336345e-39 309 268
-0.0125714 0.71700001 -0.035199918 1.0510184e-38 310 268
-0.01129848 0.71600002 -0.035150826 1.1339585e-38 311 268
-0.010043093 0.71600002 -0.035150826 1.1246673e-38 312 268
-0.0087631596 0.71399999 -0.035052639 1.0601304e-38 313 268
-0.0075007593 0.713 -0.035003547 1.0782801e-38 314 268
-0.0062330998 0.71100003 -0.034905359 1.0506574e-38 315 268
-0.0049864799 0.71100003 -0.034905359 1.0322884e-38 316 268
-0.0037345996 0.70999998 -0.034856264 1.0138495e-38 317 268
-0.00248272 0.708 -0.034758076 9.9548243e-39 318 268
-0.00124136 0.708 -0.034758076 9.6782416e-39 319 268
0 0.708 -0.034758076 9.6778829e-39 320 268
0.00124136 0.708 -0.034758076 9.5856886e-39 321 268
0.0024792133 0.70700002 -0.034708988 9.4931357e-39 322 268
0.0037188199 0.70700002 -0.034708988 9.2169117e-39 323 268
0.0049514128 0.70599997 -0.034659892 9.4902658e-39 324 268
0.0061892662 0.70599997 -0.034659892 9.3980716e-39 325 268
0.0074271196 0.70599997 -0.034659892 9.3048012e-39 326 268
0.0086649731 0.70599997 -0.034659892 9.2126069e-39 327 268
0.0098747732 0.704 -0.034561705 8.7541469e-39 328 268
0.011109119 0.704 -0.034561705 8.7541469e-39 329 268
0.012325933 0.70300001 -0.034512613 8.7541469e-39 330 268
0.013558527 0.70300001 -0.034512613 8.8466999e-39 331 268
0.014791119 0.70300001 -0.034512613 8.6630289e-39 332 268
0.015978126 0.70099998 -0.034414422 8.6630289e-39 333 268
0.017207211 0.70099998 -0.034414422 9.0300121e-39 334 268
0.018436298 0.70099998 -0.034414422 8.8459824e-39 335 268
0.019665385 0.70099998 -0.034414422 8.9371005e-39 336 268
0.020894472 0.70099998 -0.034414422 9.0292947e-39 337 268
0.022091998 0.69999999 -0.034365334 9.1211302e-39 338 268
0.023319334 0.69999999 -0.034365334 9.0289359e-39 339 268
0.024546666 0.69999999 -0.034365334 8.9353068e-39 340 268
0.025773998 0.69999999 -0.034365334 8.7509183e-39 341 268
0.027039904 0.70099998 -0.034414422 8.1991879e-39 342 268
0.028268991 0.70099998 -0.034414422 8.0147994e-39 343 268
0.029498078 0.70099998 -0.034414422 7.9222465e-39 344 268
0.030727165 0.70099998 -0.034414422 7.8300522e-39 345 268
0.032047424 0.70300001 -0.034512613 7.554187e-39 346 268
0.03332736 0.704 -0.034561705 7.4616341e-39 347 268
0.034561705 0.704 -0.034561705 7.4616355e-39 348 268
0.035897743 0.70599997 -0.034659892 7.4616355e-39 349 268
0.037135597 0.70599997 -0.034659892 7.4612795e-39 350 268
0.038373452 0.70599997 -0.034659892 7.4612795e-39 351 268
0.039611302 0.70599997 -0.034659892 7.5534752e-39 352 268
0.040849157 0.70599997 -0.034659892 7.5534752e-39 353 268
0.042146627 0.70700002 -0.034708988 7.554201e-39 354 268
0.043447599 0.708 -0.034758076 7.6463967e-39 355 268
0.044815198 0.70999998 -0.034856264 7.4634473e-39 356 268
0.046060063 0.70999998 -0.034856264 7.4634473e-39 357 268
0.047371563 0.71100003 -0.034905359 7.5556458e-39 358 268
0.048754938 0.713 -0.035003547 7.3712545e-39 359 268
0.050075196 0.71399999 -0.035052639 7.1876017e-39 360 268
0.051470853 0.71600002 -0.035150826 8.8474832e-39 361 268
0.052726239 0.71600002 -0.035150826 1.1794889e-38 362 268
-0.019014901 0.72299999 -0.036762137 1.3454056e-38 305 269
-0.017747238 0.72299999 -0.036762137 1.0413727e-38 306 269
-0.0164112 0.72000003 -0.036609601 9.0307927e-39 307 269
-0.01512776 0.71899998 -0.036558751 8.4815425e-39 308 269
-0.013828539 0.71700001 -0.036457058 9.4960546e-39 309 269
-0.012553867 0.71600002 -0.036406212 1.0879708e-38 310 269
-0.01129848 0.71600002 -0.036406212 1.1340686e-38 311 269
-0.01001504 0.71399999 -0.036304519 1.0786791e-38 312 269
-0.0087508867 0.713 -0.036253672 1.0418007e-38 313 269
-0.0074797203 0.71100003 -0.036151983 1.0506937e-38 314 269
-0.0062243328 0.70999998 -0.036101133 1.0230711e-38 315 269
-0.0049794666 0.70999998 -0.036101133 1.0048453e-38 316 269
-0.0037345996 0.70999998 -0.036101133 9.7718708e-39 317 269
-0.00248272 0.708 -0.03599944 9.8633475e-39 318 269
-0.00124136 0.708 -0.03599944 9.7711533e-39 319 269
0 0.708 -0.03599944 9.7711533e-39 320 269
0.0012396066 0.70700002 -0.035948593 9.7711533e-39 321 269
0.0024792133 0.70700002 -0.035948593 9.5867648e-39 322 269
0.0037135598 0.70599997 -0.035897743 9.4945706e-39 323 269
0.0049514128 0.70599997 -0.035897743 9.5846124e-39 324 269
0.0061717331 0.704 -0.035796054 9.4924182e-39 325 269
0.0074060797 0.704 -0.035796054 9.3998653e-39 326 269
0.0086404262 0.704 -0.035796054 9.1236413e-39 327 269
0.0098747732 0.704 -0.035796054 8.7570168e-39 328 269
0.01109334 0.70300001 -0.035745207 8.7570168e-39 329 269
0.012290866 0.70099998 -0.035643511 8.8474174e-39 330 269
0.013519952 0.70099998 -0.035643511 8.9396116e-39 331 269
0.014749039 0.70099998 -0.035643511 8.6637464e-39 332 269
0.015978126 0.70099998 -0.035643511 8.5715521e-39 333 269
0.017207211 0.70099998 -0.035643511 8.9385354e-39 334 269
0.018409999 0.69999999 -0.035592664 8.7541469e-39 335 269
0.019637333 0.69999999 -0.035592664 9.0289359e-39 336 269
0.020864666 0.69999999 -0.035592664 9.2136831e-39 337 269
0.022091998 0.69999999 -0.035592664 9.1222064e-39 338 269
0.023319334 0.69999999 -0.035592664 9.0296534e-39 339 269
0.024546666 0.69999999 -0.035592664 8.9360243e-39 340 269
0.025773998 0.69999999 -0.035592664 8.6590828e-39 341 269
0.027001332 0.69999999 -0.035592664 8.2906647e-39 342 269
0.028228667 0.69999999 -0.035592664 8.1984704e-39 343 269
0.029455997 0.69999999 -0.035592664 7.64674e-39 344 269
0.030727165 0.70099998 -0.035643511 7.554187e-39 345 269
0.031956252 0.70099998 -0.035643511 7.370516e-39 346 269
0.033280019 0.70300001 -0.035745207 7.1861276e-39 347 269
0.034512613 0.70300001 -0.035745207 7.3694398e-39 348 269
0.035796054 0.704 -0.035796054 7.3694398e-39 349 269
0.037030395 0.704 -0.035796054 7.4609166e-39 350 269
0.038264744 0.704 -0.035796054 7.4609166e-39 351 269
0.039611302 0.70599997 -0.035897743 7.3690839e-39 352 269
0.040849157 0.70599997 -0.035897743 7.3690839e-39 353 269
0.042087011 0.70599997 -0.035897743 7.553478e-39 354 269
0.043386232 0.70700002 -0.035948593 7.645675e-39 355 269
0.044688959 0.708 -0.03599944 7.3712489e-39 356 269
0.046060063 0.70999998 -0.036101133 7.4638033e-39 357 269
0.047304932 0.70999998 -0.036101133 7.4634473e-39 358 269
0.048618179 0.71100003 -0.036151983 7.3712517e-39 359 269
0.049864799 0.71100003 -0.036151983 7.1847179e-39 360 269
0.051255193 0.713 -0.036253672 7.9222829e-39 361 269
0.052578956 0.71399999 -0.036304519 1.0966197e-38 362 269
0.053830836 0.71399999 -0.036304519 1.2164741e-38 363 269
-0.019014901 0.72299999 -0.038029801 1.2992355e-38 305 270
-0.017747238 0.72299999 -0.038029801 9.2162559e-39 306 270
-0.0164112 0.72000003 -0.037871998 8.4786909e-39 307 270
-0.01512776 0.71899998 -0.037819397 8.7584895e-39 308 270
-0.013828539 0.71700001 -0.037714198 9.2194663e-39 309 270
-0.012553867 0.71600002 -0.037661601 9.7740834e-39 310 270
-0.011266919 0.71399999 -0.037556399 1.023506e-38 311 270
-0.010001013 0.713 -0.037503798 1.0325808e-38 312 270
-0.0087508867 0.713 -0.037503798 9.9573859e-39 313 270
-0.0074797203 0.71100003 -0.037398599 1.0232145e-38 314 270
-0.0062243328 0.70999998 -0.037345998 9.8637231e-39 315 270
-0.0049794666 0.70999998 -0.037345998 9.9559005e-39 316 270
-0.00372408 0.708 -0.0372408 9.9559005e-39 317 270
-0.00248272 0.708 -0.0372408 1.0231407e-38 318 270
-0.0012396066 0.70700002 -0.037188202 1.0231407e-38 319 270
0 0.70700002 -0.037188202 1.013993e-38 320 270
0.0012378532 0.70599997 -0.037135597 9.9555418e-39 321 270
0.0024757064 0.70599997 -0.037135597 1.0138137e-38 322 270
0.0037135598 0.70599997 -0.037135597 9.7693596e-39 323 270
0.0049373866 0.704 -0.037030395 9.7679247e-39 324 270
0.0061717331 0.704 -0.037030395 9.4917008e-39 325 270
0.0073955595 0.70300001 -0.036977798 9.1243588e-39 326 270
0.0086281532 0.70300001 -0.036977798 8.9396116e-39 327 270
0.0098607466 0.70300001 -0.036977798 8.6630289e-39 328 270
0.011061779 0.70099998 -0.036872596 8.5708347e-39 329 270
0.012290866 0.70099998 -0.036872596 8.5693997e-39 330 270
0.013519952 0.70099998 -0.036872596 8.5693997e-39 331 270
0.014727999 0.69999999 -0.036819998 8.38537e-39 332 270
0.015955333 0.69999999 -0.036819998 8.5693997e-39 333 270
0.017182667 0.69999999 -0.036819998 8.6608765e-39 334 270
0.018409999 0.69999999 -0.036819998 8.7530707e-39 335 270
0.019637333 0.69999999 -0.036819998 9.0289359e-39 336 270
0.020864666 0.69999999 -0.036819998 9.3977129e-39 337 270
0.022091998 0.69999999 -0.036819998 9.3987891e-39 338 270
0.023319334 0.69999999 -0.036819998 9.2144006e-39 339 270
0.024546666 0.69999999 -0.036819998 9.0282185e-39 340 270
0.025773998 0.69999999 -0.036819998 8.6590828e-39 341 270
0.027001332 0.69999999 -0.036819998 8.1073524e-39 342 270
0.028228667 0.69999999 -0.036819998 7.9229639e-39 343 270
0.029455997 0.69999999 -0.036819998 7.64674e-39 344 270
0.030683333 0.69999999 -0.036819998 7.4623515e-39 345 270
0.031956252 0.70099998 -0.036872596 7.2783218e-39 346 270
0.03318534 0.70099998 -0.036872596 7.1861276e-39 347 270
0.034512613 0.70300001 -0.036977798 7.1861276e-39 348 270
0.035745207 0.70300001 -0.036977798 7.0939333e-39 349 270
0.037030395 0.704 -0.037030395 7.0935746e-39 350 270
0.038264744 0.704 -0.037030395 7.0935746e-39 351 270
0.039499093 0.704 -0.037030395 7.1857716e-39 352 270
0.040849157 0.70599997 -0.037135597 7.1857716e-39 353 270
0.042087011 0.70599997 -0.037135597 7.1854185e-39 354 270
0.043386232 0.70700002 -0.037188202 7.3698098e-39 355 270
0.044688959 0.708 -0.0372408 7.1872178e-39 356 270
0.045930319 0.708 -0.0372408 7.3712489e-39 357 270
0.047304932 0.70999998 -0.037345998 7.1872178e-39 358 270
0.048618179 0.71100003 -0.037398599 7.0950208e-39 359 270
0.049864799 0.71100003 -0.037398599 6.9095603e-39 360 270
0.051111419 0.71100003 -0.037398599 7.1857871e-39 361 270
0.052505318 0.713 -0.037503798 1.0228983e-38 362 270
0.053755447 0.713 -0.037503798 1.1611917e-38 363 270
-0.018909698 0.71899998 -0.039080046 1.2439532e-38 305 271
-0.016388407 0.71899998 -0.039080046 8.1124195e-39 307 271
-0.015085679 0.71700001 -0.038971342 8.5748144e-39 308 271
-0.013809253 0.71600002 -0.038916986 8.66701e-39 309 271
-0.012553867 0.71600002 -0.038916986 8.7595615e-39 310 271
-0.011266919 0.71399999 -0.038808275 9.0361484e-39 311 271
-0.010001013 0.713 -0.038753927 9.2219634e-39 312 271
-0.0087263398 0.71100003 -0.038645219 9.4985489e-39 313 271
-0.0074691991 0.70999998 -0.038590867 9.8647951e-39 314 271
-0.0062243328 0.70999998 -0.038590867 9.6804052e-39 315 271
-0.0049654399 0.708 -0.038482159 9.9559005e-39 316 271
-0.00372408 0.708 -0.038482159 9.9559005e-39 317 271
-0.0024792133 0.70700002 -0.038427804 1.0140289e-38 318 271
-0.0012378532 0.70599997 -0.038373452 1.0232483e-38 319 271
0 0.70599997 -0.038373452 1.0140289e-38 320 271
0.0012378532 0.70599997 -0.038373452 9.8633475e-39 321 271
0.0024757064 0.70599997 -0.038373452 9.8622713e-39 322 271
0.0037030398 0.704 -0.038264744 9.5856886e-39 323 271
0.0049373866 0.704 -0.038264744 9.216553e-39 324 271
0.0061717331 0.704 -0.038264744 9.0318058e-39 325 271
0.0073955595 0.70300001 -0.038210396 8.6630289e-39 326 271
0.0086281532 0.70300001 -0.038210396 8.4782817e-39 327 271
0.0098326923 0.70099998 -0.038101684 8.2935345e-39 328 271
0.011045999 0.69999999 -0.038047329 8.2013403e-39 329 271
0.012273333 0.69999999 -0.038047329 7.9254751e-39 330 271
0.013500666 0.69999999 -0.038047329 7.9254751e-39 331 271
0.014727999 0.69999999 -0.038047329 7.8329221e-39 332 271
0.015955333 0.69999999 -0.038047329 8.0173106e-39 333 271
0.017182667 0.69999999 -0.038047329 8.0176693e-39 334 271
0.018409999 0.69999999 -0.038047329 8.2020578e-39 335 271
0.019637333 0.69999999 -0.038047329 8.6626702e-39 336 271
0.020864666 0.69999999 -0.038047329 9.0314471e-39 337 271
0.02202888 0.69800001 -0.037938625 9.6742955e-39 338 271
0.023252707 0.69800001 -0.037938625 9.2136831e-39 339 271
0.024476532 0.69800001 -0.037938625 9.2108133e-39 340 271
0.025700359 0.69800001 -0.037938625 8.8416776e-39 341 271
0.027001332 0.69999999 -0.038047329 8.1062762e-39 342 271
0.028228667 0.69999999 -0.038047329 7.9218877e-39 343 271
0.029455997 0.69999999 -0.038047329 7.5545458e-39 344 271
0.030683333 0.69999999 -0.038047329 7.4623515e-39 345 271
0.031910665 0.69999999 -0.038047329 7.0939333e-39 346 271
0.03318534 0.70099998 -0.038101684 7.0939333e-39 347 271
0.034414422 0.70099998 -0.038101684 7.0013804e-39 348 271
0.035745207 0.70300001 -0.038210396 7.0013804e-39 349 271
0.037030395 0.704 -0.038264744 6.7265914e-39 350 271
0.038264744 0.704 -0.038264744 6.7265914e-39 351 271
0.039499093 0.704 -0.038264744 6.9099078e-39 352 271
0.040849157 0.70599997 -0.038373452 6.9099078e-39 353 271
0.042087011 0.70599997 -0.038373452 7.1854213e-39 354 271
0.043386232 0.70700002 -0.038427804 7.2776169e-39 355 271
0.044625837 0.70700002 -0.038427804 7.0950236e-39 356 271
0.045930319 0.708 -0.038482159 7.0950236e-39 357 271
0.047304932 0.70999998 -0.038590867 6.8195129e-39 358 271
0.048549797 0.70999998 -0.038590867 6.8195129e-39 359 271
0.049864799 0.71100003 -0.038645219 6.8177248e-39 360 271
0.051111419 0.71100003 -0.038645219 7.0946704e-39 361 271
0.052358042 0.71100003 -0.038645219 9.5828931e-39 362 271
0.053604662 0.71100003 -0.038645219 1.1150579e-38 363 271
-0.017649053 0.71899998 -0.040340692 8.5741137e-39 306 272
-0.016388407 0.71899998 -0.040340692 8.0209399e-39 307 272
-0.015085679 0.71700001 -0.040228479 8.2989365e-39 308 272
-0.013809253 0.71600002 -0.040172372 8.2989365e-39 309 272
-0.012518799 0.71399999 -0.040060159 8.7584657e-39 310 272
-0.011251139 0.713 -0.040004052 8.9428584e-39 311 272
-0.0099729598 0.71100003 -0.039891839 9.2208704e-39 312 272
-0.0087263398 0.71100003 -0.039891839 9.4052631e-39 313 272
-0.0074691991 0.70999998 -0.039835732 9.7736756e-39 314 272
-0.0062067998 0.708 -0.039723519 9.68148e-39 315 272
-0.0049654399 0.708 -0.039723519 9.9566194e-39 316 272
-0.0037188199 0.70700002 -0.039667413 9.9566194e-39 317 272
-0.0024792133 0.70700002 -0.039667413 1.0232483e-38 318 272
-0.0012378532 0.70599997 -0.039611302 1.0140289e-38 319 272
0 0.70599997 -0.039611302 1.013993e-38 320 272
0.0012378532 0.70599997 -0.039611302 9.8633475e-39 321 272
0.0024686933 0.704 -0.039499093 9.5867648e-39 322 272
0.0037030398 0.704 -0.039499093 9.3098234e-39 323 272
0.0049303733 0.70300001 -0.039442986 9.0318058e-39 324 272
0.0061629666 0.70300001 -0.039442986 8.8474174e-39 325 272
0.0073745195 0.70099998 -0.039330769 8.4793579e-39 326 272
0.0086036054 0.70099998 -0.039330769 8.2027752e-39 327 272
0.0098326923 0.70099998 -0.039330769 7.743239e-39 328 272
0.011045999 0.69999999 -0.039274666 7.6510448e-39 329 272
0.012273333 0.69999999 -0.039274666 7.8332808e-39 330 272
0.013500666 0.69999999 -0.039274666 7.6492511e-39 331 272
0.014727999 0.69999999 -0.039274666 7.5574156e-39 332 272
0.015955333 0.69999999 -0.039274666 7.7418041e-39 333 272
0.017182667 0.69999999 -0.039274666 8.0176693e-39 334 272
0.018409999 0.69999999 -0.039274666 8.2020578e-39 335 272
0.019581227 0.69800001 -0.039162453 8.8459824e-39 336 272
0.020805053 0.69800001 -0.039162453 9.491342e-39 337 272
0.02202888 0.69800001 -0.039162453 9.858684e-39 338 272
0.023252707 0.69800001 -0.039162453 9.3973541e-39 339 272
0.024476532 0.69800001 -0.039162453 9.1168254e-39 340 272
0.025700359 0.69800001 -0.039162453 8.7480485e-39 341 272
0.027001332 0.69999999 -0.039274666 7.921529e-39 342 272
0.028228667 0.69999999 -0.039274666 7.8293348e-39 343 272
0.029455997 0.69999999 -0.039274666 7.2786805e-39 344 272
0.030683333 0.69999999 -0.039274666 7.1861276e-39 345 272
0.031910665 0.69999999 -0.039274666 7.093576e-39 346 272
0.03318534 0.70099998 -0.039330769 7.0013804e-39 347 272
0.034414422 0.70099998 -0.039330769 7.0010273e-39 348 272
0.035745207 0.70300001 -0.039442986 6.9088316e-39 349 272
