# .PCD v.7 - Point Cloud Data file format
FIELDS x y z rgb imX imY
SIZE 4 4 4 4 4 4
TYPE F F F F F F
COUNT 1 1 1 1 1 1
WIDTH 831
HEIGHT 1
VIEWPOINT 0 0 0 1 0 0 0
POINTS 831
DATA ascii
-0.02218668 0.70300001 -0.0098607466 1.2537705e-38 302 248
-0.020954086 0.70300001 -0.0098607466 1.2445509e-38 303 248
-0.019665385 0.70099998 -0.0098326923 1.2260397e-38 304 248
-0.018436298 0.70099998 -0.0098326923 1.1891621e-38 305 248
-0.017182667 0.69999999 -0.0098186666 1.1707232e-38 306 248
-0.015955333 0.69999999 -0.0098186666 1.1246261e-38 307 248
-0.014727999 0.69999999 -0.0098186666 1.1061514e-38 308 248
-0.013500666 0.69999999 -0.0098186666 1.0784931e-38 309 248
-0.012273333 0.69999999 -0.0098186666 1.0415795e-38 310 248
-0.011045999 0.69999999 -0.0098186666 1.0231407e-38 311 248
-0.0097906133 0.69800001 -0.0097906133 1.0045584e-38 312 248
-0.0085667865 0.69800001 -0.0097906133 1.0045584e-38 313 248
-0.0073429602 0.69800001 -0.0097906133 1.0137419e-38 314 248
-0.006119133 0.69800001 -0.0097906133 1.0414007e-38 315 248
-0.0048953067 0.69800001 -0.0097906133 1.1517484e-38 316 248
-0.0036714801 0.69800001 -0.0097906133 1.2162853e-38 317 248
-0.0024476533 0.69800001 -0.0097906133 1.1608952e-38 318 248
-0.0012238267 0.69800001 -0.0097906133 1.0686997e-38 319 248
0 0.69800001 -0.0097906133 9.1229238e-39 320 248
0.0012238267 0.69800001 -0.0097906133 9.3069536e-39 321 248
0.0024476533 0.69800001 -0.0097906133 9.2126111e-39 322 248
0.0036714801 0.69800001 -0.0097906133 9.0282199e-39 323 248
0.0048953067 0.69800001 -0.0097906133 8.6598101e-39 324 248
0.0061366665 0.69999999 -0.0098186666 8.6598101e-39 325 248
0.0073639993 0.69999999 -0.0098186666 8.2921136e-39 326 248
0.0085913334 0.69999999 -0.0098186666 8.199918e-39 327 248
0.0098326923 0.70099998 -0.0098326923 8.2913947e-39 328 248
0.01109334 0.70300001 -0.0098607466 8.2913947e-39 329 248
0.012325933 0.70300001 -0.0098607466 8.0155323e-39 330 248
0.013558527 0.70300001 -0.0098607466 8.0155323e-39 331 248
0.014812159 0.704 -0.0098747732 7.6481917e-39 332 248
0.016046507 0.704 -0.0098747732 7.6481917e-39 333 248
0.017280852 0.704 -0.0098747732 7.7407433e-39 334 248
0.018515198 0.704 -0.0098747732 8.0169714e-39 335 248
0.019749546 0.704 -0.0098747732 8.0173274e-39 336 248
0.021043506 0.70599997 -0.0099028256 8.109523e-39 337 248
0.022312919 0.70700002 -0.0099168532 8.109523e-39 338 248
0.023585839 0.708 -0.0099308798 8.109523e-39 339 248
0.024932399 0.71100003 -0.0099729598 8.1091671e-39 340 248
0.026252659 0.713 -0.010001013 8.1091671e-39 341 248
0.027618507 0.71600002 -0.010043093 7.6478414e-39 342 248
0.028873893 0.71600002 -0.010043093 6.8180807e-39 343 248
0.03012928 0.71600002 -0.010043093 9.9552853e-39 344 248
0.031384666 0.71600002 -0.010043093 1.4104447e-38 345 248
0.032640055 0.71600002 -0.010043093 1.631249e-38 346 248
0.03389544 0.71600002 -0.010043093 1.6220295e-38 347 248
0.035150826 0.71600002 -0.010043093 1.6494718e-38 348 248
-0.041427758 0.71600002 -0.01129848 1.2719006e-38 287 249
-0.040172372 0.71600002 -0.01129848 1.1064106e-38 288 249
-0.038916986 0.71600002 -0.01129848 1.1340333e-38 289 249
-0.037556399 0.71399999 -0.011266919 1.2079658e-38 290 249
-0.036253672 0.713 -0.011251139 1.2264049e-38 291 249
-0.034905359 0.71100003 -0.01121958 1.2263323e-38 292 249
-0.033658739 0.71100003 -0.01121958 1.1894541e-38 293 249
-0.032366529 0.70999998 -0.011203799 1.1985642e-38 294 249
-0.031034 0.708 -0.01117224 1.1893446e-38 295 249
-0.02979264 0.708 -0.01117224 1.1710485e-38 296 249
-0.028510952 0.70700002 -0.011156459 1.180268e-38 297 249
-0.027232772 0.70599997 -0.011140679 1.2078544e-38 298 249
-0.02592128 0.704 -0.011109119 1.2078544e-38 299 249
-0.024686933 0.704 -0.011109119 1.2262562e-38 300 249
-0.023419274 0.70300001 -0.01109334 1.2262562e-38 301 249
-0.02218668 0.70300001 -0.01109334 1.2262197e-38 302 249
-0.020894472 0.70099998 -0.011061779 1.2170001e-38 303 249
-0.019665385 0.70099998 -0.011061779 1.2077085e-38 304 249
-0.018409999 0.69999999 -0.011045999 1.1800144e-38 305 249
-0.017182667 0.69999999 -0.011045999 1.1431367e-38 306 249
-0.015955333 0.69999999 -0.011045999 1.1154784e-38 307 249
-0.014727999 0.69999999 -0.011045999 1.0968961e-38 308 249
-0.013462093 0.69800001 -0.01101444 1.0600543e-38 309 249
-0.012238266 0.69800001 -0.01101444 1.0323242e-38 310 249
-0.011045999 0.69999999 -0.011045999 1.0138854e-38 311 249
-0.0097906133 0.69800001 -0.01101444 9.8619126e-39 312 249
-0.0085667865 0.69800001 -0.01101444 9.6775241e-39 313 249
-0.0073429602 0.69800001 -0.01101444 9.4942147e-39 314 249
-0.006119133 0.69800001 -0.01101444 9.6786059e-39 315 249
-0.0048953067 0.69800001 -0.01101444 9.9551914e-39 316 249
-0.0036714801 0.69800001 -0.01101444 1.0139584e-38 317 249
-0.0024476533 0.69800001 -0.01101444 1.0136344e-38 318 249
-0.0012238267 0.69800001 -0.01101444 9.675013e-39 319 249
0 0.69800001 -0.01101444 9.4891924e-39 320 249
0.0012238267 0.69800001 -0.01101444 9.2129657e-39 321 249
0.0024476533 0.69800001 -0.01101444 9.0275136e-39 322 249
0.0036714801 0.69800001 -0.01101444 8.8431224e-39 323 249
0.0048953067 0.69800001 -0.01101444 8.5661866e-39 324 249
0.006119133 0.69800001 -0.01101444 8.4739895e-39 325 249
0.0073639993 0.69999999 -0.011045999 8.1992005e-39 326 249
0.0085913334 0.69999999 -0.011045999 8.1992005e-39 327 249
0.0098326923 0.70099998 -0.011061779 8.0166085e-39 328 249
0.011061779 0.70099998 -0.011061779 7.9240527e-39 329 249
0.012290866 0.70099998 -0.011061779 7.8318599e-39 330 249
0.013558527 0.70300001 -0.01109334 7.8318599e-39 331 249
0.014791119 0.70300001 -0.01109334 7.6481917e-39 332 249
0.016046507 0.704 -0.011109119 7.6481917e-39 333 249
0.017280852 0.704 -0.011109119 7.3733999e-39 334 249
0.018515198 0.704 -0.011109119 7.3733999e-39 335 249
0.019749546 0.704 -0.011109119 7.8329403e-39 336 249
0.021043506 0.70599997 -0.011140679 8.0169714e-39 337 249
0.022312919 0.70700002 -0.011156459 7.8329403e-39 338 249
0.023552528 0.70700002 -0.011156459 7.8329403e-39 339 249
0.024932399 0.71100003 -0.01121958 7.7403902e-39 340 249
0.026289478 0.71399999 -0.011266919 7.7403902e-39 341 249
0.027618507 0.71600002 -0.01129848 7.4645291e-39 342 249
0.028873893 0.71600002 -0.01129848 6.8191597e-39 343 249
0.03012928 0.71600002 -0.01129848 9.3095502e-39 344 249
0.031384666 0.71600002 -0.01129848 1.2997374e-38 345 249
0.032548878 0.71399999 -0.011266919 1.6128096e-38 346 249
0.033800758 0.71399999 -0.011266919 1.622065e-38 347 249
0.035052639 0.71399999 -0.011266919 1.6310325e-38 348 249
-0.041427758 0.71600002 -0.012553867 1.1614084e-38 287 250
-0.040172372 0.71600002 -0.012553867 1.0879711e-38 288 250
-0.038916986 0.71600002 -0.012553867 1.1432884e-38 289 250
-0.037556399 0.71399999 -0.012518799 1.1895639e-38 290 250
-0.036253672 0.713 -0.012501267 1.2172225e-38 291 250
-0.034905359 0.71100003 -0.0124662 1.180415e-38 292 250
-0.033611398 0.70999998 -0.012448666 1.1435007e-38 293 250
-0.032366529 0.70999998 -0.012448666 1.1617941e-38 294 250
-0.031034 0.708 -0.0124136 1.1617941e-38 295 250
-0.029750559 0.70700002 -0.012396066 1.1618655e-38 296 250
-0.028470624 0.70599997 -0.012378532 1.171085e-38 297 250
-0.027155625 0.704 -0.012343466 1.1986351e-38 298 250
-0.02592128 0.704 -0.012343466 1.2078547e-38 299 250
-0.024581732 0.70099998 -0.012290866 1.2262212e-38 300 250
-0.023352645 0.70099998 -0.012290866 1.2262212e-38 301 250
-0.022123558 0.70099998 -0.012290866 1.226256e-38 302 250
-0.020894472 0.70099998 -0.012290866 1.2170364e-38 303 250
-0.019637333 0.69999999 -0.012273333 1.2077803e-38 304 250
-0.018409999 0.69999999 -0.012273333 1.1709026e-38 305 250
-0.017182667 0.69999999 -0.012273333 1.1431367e-38 306 250
-0.015955333 0.69999999 -0.012273333 1.1154784e-38 307 250
-0.014727999 0.69999999 -0.012273333 1.1060438e-38 308 250
-0.013462093 0.69800001 -0.012238266 1.0783496e-38 309 250
-0.012238266 0.69800001 -0.012238266 1.0414719e-38 310 250
-0.01101444 0.69800001 -0.012238266 1.0137778e-38 311 250
-0.0097906133 0.69800001 -0.012238266 9.7697184e-39 312 250
-0.0085667865 0.69800001 -0.012238266 9.492777e-39 313 250
-0.0073429602 0.69800001 -0.012238266 9.309106e-39 314 250
-0.006119133 0.69800001 -0.012238266 9.4016589e-39 315 250
-0.0048953067 0.69800001 -0.012238266 9.2183509e-39 316 250
-0.0036714801 0.69800001 -0.012238266 9.0339582e-39 317 250
-0.0024476533 0.69800001 -0.012238266 9.1229308e-39 318 250
-0.0012220733 0.69700003 -0.012220734 8.9385396e-39 319 250
0 0.69700003 -0.012220734 9.3033746e-39 320 250
0.0012220733 0.69700003 -0.012220734 9.211179e-39 321 250
0.0024441467 0.69700003 -0.012220734 8.7505708e-39 322 250
0.0036714801 0.69800001 -0.012238266 8.5665397e-39 323 250
0.0048953067 0.69800001 -0.012238266 8.4739923e-39 324 250
0.006119133 0.69800001 -0.012238266 8.2892423e-39 325 250
0.0073429602 0.69800001 -0.012238266 8.106286e-39 326 250
0.0085913334 0.69999999 -0.012273333 8.106286e-39 327 250
0.0098186666 0.69999999 -0.012273333 7.9233339e-39 328 250
0.011061779 0.70099998 -0.012290866 7.8311383e-39 329 250
0.012290866 0.70099998 -0.012290866 7.647826e-39 330 250
0.013519952 0.70099998 -0.012290866 7.647826e-39 331 250
0.014791119 0.70300001 -0.012325933 7.372681e-39 332 250
0.016023712 0.70300001 -0.012325933 7.372681e-39 333 250
0.017280852 0.704 -0.012343466 7.4652354e-39 334 250
0.018515198 0.704 -0.012343466 7.4652354e-39 335 250
0.019749546 0.704 -0.012343466 7.6492637e-39 336 250
0.020983893 0.704 -0.012343466 7.7414608e-39 337 250
0.022281358 0.70599997 -0.012378532 7.7407405e-39 338 250
0.023552528 0.70700002 -0.012396066 7.6485449e-39 339 250
0.024897331 0.70999998 -0.012448666 7.3726838e-39 340 250
0.026252659 0.713 -0.012501267 7.3726838e-39 341 250
0.027618507 0.71600002 -0.012553867 7.4652452e-39 342 250
0.028873893 0.71600002 -0.012553867 7.1886583e-39 343 250
0.03012928 0.71600002 -0.012553867 8.8478461e-39 344 250
0.031384666 0.71600002 -0.012553867 1.2166889e-38 345 250
0.032548878 0.71399999 -0.012518799 1.5576713e-38 346 250
0.033800758 0.71399999 -0.012518799 1.6129528e-38 347 250
0.035052639 0.71399999 -0.012518799 1.621813e-38 348 250
-0.041427758 0.71600002 -0.013809253 1.060244e-38 287 251
-0.040172372 0.71600002 -0.013809253 1.07875e-38 288 251
-0.038808275 0.71399999 -0.01377068 1.1432869e-38 289 251
-0.037556399 0.71399999 -0.01377068 1.1619046e-38 290 251
-0.036253672 0.713 -0.013751393 1.1711601e-38 291 251
-0.034905359 0.71100003 -0.01371282 1.1342446e-38 292 251
-0.033611398 0.70999998 -0.013693533 1.1249892e-38 293 251
-0.032366529 0.70999998 -0.013693533 1.1525743e-38 294 251
-0.031034 0.708 -0.013654959 1.1525743e-38 295 251
-0.029750559 0.70700002 -0.013635674 1.1434623e-38 296 251
-0.028470624 0.70599997 -0.013616386 1.171085e-38 297 251
-0.027155625 0.704 -0.013577812 1.1985995e-38 298 251
-0.02592128 0.704 -0.013577812 1.1985995e-38 299 251
-0.024581732 0.70099998 -0.013519952 1.1986348e-38 300 251
-0.023319334 0.69999999 -0.013500666 1.1986348e-38 301 251
-0.022091998 0.69999999 -0.013500666 1.20789e-38 302 251
-0.020894472 0.70099998 -0.013519952 1.20789e-38 303 251
-0.019637333 0.69999999 -0.013500666 1.189415e-38 304 251
-0.018409999 0.69999999 -0.013500666 1.1525726e-38 305 251
-0.017182667 0.69999999 -0.013500666 1.134026e-38 306 251
-0.015955333 0.69999999 -0.013500666 1.0971117e-38 307 251
-0.014727999 0.69999999 -0.013500666 1.0877131e-38 308 251
-0.013462093 0.69800001 -0.013462093 1.0508348e-38 309 251
-0.012238266 0.69800001 -0.013462093 1.0321808e-38 310 251
-0.01101444 0.69800001 -0.013462093 1.0045225e-38 311 251
-0.0097906133 0.69800001 -0.013462093 9.4938531e-39 312 251
-0.0085667865 0.69800001 -0.013462093 9.4016589e-39 313 251
-0.0073429602 0.69800001 -0.013462093 9.0335995e-39 314 251
-0.006119133 0.69800001 -0.013462093 9.1257937e-39 315 251
-0.0048953067 0.69800001 -0.013462093 9.0339582e-39 316 251
-0.0036714801 0.69800001 -0.013462093 8.941764e-39 317 251
-0.0024476533 0.69800001 -0.013462093 9.1229308e-39 318 251
-0.0012220733 0.69700003 -0.013442807 8.8463426e-39 319 251
0 0.69700003 -0.013442807 9.0278696e-39 320 251
0.0012220733 0.69700003 -0.013442807 8.8431196e-39 321 251
0.0024441467 0.69700003 -0.013442807 8.5665397e-39 322 251
0.0036714801 0.69800001 -0.013462093 8.4743427e-39 323 251
0.0048953067 0.69800001 -0.013462093 8.3817911e-39 324 251
0.006119133 0.69800001 -0.013462093 8.2895955e-39 325 251
0.0073429602 0.69800001 -0.013462093 8.0140876e-39 326 251
0.0085913334 0.69999999 -0.013500666 8.0140876e-39 327 251
0.0098186666 0.69999999 -0.013500666 7.7389426e-39 328 251
0.011045999 0.69999999 -0.013500666 7.7389426e-39 329 251
0.012273333 0.69999999 -0.013500666 7.647826e-39 330 251
0.013519952 0.70099998 -0.013519952 7.647826e-39 331 251
0.014749039 0.70099998 -0.013519952 7.373037e-39 332 251
0.016023712 0.70300001 -0.013558527 7.373037e-39 333 251
0.017280852 0.704 -0.013577812 7.2815602e-39 334 251
0.018515198 0.704 -0.013577812 7.2815602e-39 335 251
0.019749546 0.704 -0.013577812 7.6485449e-39 336 251
0.020983893 0.704 -0.013577812 7.6485449e-39 337 251
0.022281358 0.70599997 -0.013616386 7.4652354e-39 338 251
0.023552528 0.70700002 -0.013635674 7.2804854e-39 339 251
0.024897331 0.70999998 -0.013693533 7.4637977e-39 340 251
0.026252659 0.713 -0.013751393 7.4637977e-39 341 251
0.02754136 0.71399999 -0.01377068 7.3734055e-39 342 251
0.028873893 0.71600002 -0.013809253 7.3734055e-39 343 251
0.03012928 0.71600002 -0.013809253 8.938597e-39 344 251
0.031384666 0.71600002 -0.013809253 1.1889216e-38 345 251
0.032640055 0.71600002 -0.013809253 1.5667824e-38 346 251
0.03389544 0.71600002 -0.013809253 1.6128802e-38 347 251
0.035150826 0.71600002 -0.013809253 1.6125568e-38 348 251
-0.041427758 0.71600002 -0.01506464 1.0325485e-38 287 252
-0.040172372 0.71600002 -0.01506464 1.0695649e-38 288 252
-0.038808275 0.71399999 -0.015022559 1.1341018e-38 289 252
-0.037556399 0.71399999 -0.015022559 1.1251329e-38 290 252
-0.036253672 0.713 -0.015001519 1.1251329e-38 291 252
-0.034905359 0.71100003 -0.014959441 1.1342078e-38 292 252
-0.033611398 0.70999998 -0.014938398 1.1249881e-38 293 252
-0.032366529 0.70999998 -0.014938398 1.1157682e-38 294 252
-0.031034 0.708 -0.01489632 1.1342075e-38 295 252
-0.029750559 0.70700002 -0.01487528 1.1342794e-38 296 252
-0.028470624 0.70599997 -0.014854239 1.1527185e-38 297 252
-0.027155625 0.704 -0.014812159 1.1711206e-38 298 252
-0.025884461 0.70300001 -0.014791119 1.1711206e-38 299 252
-0.024581732 0.70099998 -0.014749039 1.1895235e-38 300 252
-0.023319334 0.69999999 -0.014727999 1.1895235e-38 301 252
-0.022091998 0.69999999 -0.014727999 1.1894879e-38 302 252
-0.020864666 0.69999999 -0.014727999 1.207891e-38 303 252
-0.019637333 0.69999999 -0.014727999 1.2077843e-38 304 252
-0.018409999 0.69999999 -0.014727999 1.2170039e-38 305 252
-0.017133573 0.69800001 -0.01468592 1.1799814e-38 306 252
-0.015909746 0.69800001 -0.01468592 1.1154445e-38 307 252
-0.01468592 0.69800001 -0.01468592 1.1061165e-38 308 252
-0.013462093 0.69800001 -0.01468592 1.0600545e-38 309 252
-0.012238266 0.69800001 -0.01468592 1.0505479e-38 310 252
-0.01101444 0.69800001 -0.01468592 1.013706e-38 311 252
-0.0097906133 0.69800001 -0.01468592 9.7690009e-39 312 252
-0.0085667865 0.69800001 -0.01468592 9.5846124e-39 313 252
-0.0073429602 0.69800001 -0.01468592 9.309106e-39 314 252
-0.006119133 0.69800001 -0.01468592 9.2169117e-39 315 252
-0.0048953067 0.69800001 -0.01468592 8.9410465e-39 316 252
-0.0036714801 0.69800001 -0.01468592 8.8488523e-39 317 252
-0.0024476533 0.69800001 -0.01468592 8.8474202e-39 318 252
-0.0012220733 0.69700003 -0.01466488 8.5708347e-39 319 252
0 0.69700003 -0.01466488 8.6605234e-39 320 252
0.0012220733 0.69700003 -0.01466488 8.5683277e-39 321 252
0.0024441467 0.69700003 -0.01466488 8.2917465e-39 322 252
0.0036714801 0.69800001 -0.01468592 8.1073552e-39 323 252
0.0048953067 0.69800001 -0.01468592 8.1062804e-39 324 252
0.006119133 0.69800001 -0.01468592 8.0140848e-39 325 252
0.0073429602 0.69800001 -0.01468592 7.9222549e-39 326 252
0.0085913334 0.69999999 -0.014727999 7.9222549e-39 327 252
0.0098186666 0.69999999 -0.014727999 7.5552772e-39 328 252
0.011045999 0.69999999 -0.014727999 7.4630816e-39 329 252
0.012273333 0.69999999 -0.014727999 7.6478288e-39 330 252
0.013500666 0.69999999 -0.014727999 7.6478288e-39 331 252
0.014749039 0.70099998 -0.014749039 7.4641536e-39 332 252
0.016023712 0.70300001 -0.014791119 7.5563492e-39 333 252
0.017280852 0.704 -0.014812159 7.2815602e-39 334 252
0.018515198 0.704 -0.014812159 7.2815602e-39 335 252
0.019749546 0.704 -0.014812159 7.2812043e-39 336 252
0.021043506 0.70599997 -0.014854239 7.1890086e-39 337 252
0.022281358 0.70599997 -0.014854239 7.2804882e-39 338 252
0.023552528 0.70700002 -0.01487528 7.1882926e-39 339 252
0.024897331 0.70999998 -0.014938398 7.095741e-39 340 252
0.026252659 0.713 -0.015001519 7.1879367e-39 341 252
0.02754136 0.71399999 -0.015022559 7.1893842e-39 342 252
0.028793238 0.71399999 -0.015022559 7.2815798e-39 343 252
0.030045118 0.71399999 -0.015022559 8.7534855e-39 344 252
0.031296998 0.71399999 -0.015022559 1.1703747e-38 345 252
0.032640055 0.71600002 -0.01506464 1.539087e-38 346 252
0.03389544 0.71600002 -0.01506464 1.6128435e-38 347 252
-0.042683143 0.71600002 -0.016320027 1.3461204e-38 286 253
-0.041312039 0.71399999 -0.016274439 9.95813e-39 287 253
-0.040060159 0.71399999 -0.016274439 1.0696005e-38 288 253
-0.038808275 0.71399999 -0.016274439 1.1156623e-38 289 253
-0.037556399 0.71399999 -0.016274439 1.1340641e-38 290 253
-0.036253672 0.713 -0.016251646 1.1340641e-38 291 253
-0.034905359 0.71100003 -0.01620606 1.1341345e-38 292 253
-0.033611398 0.70999998 -0.016183265 1.1157314e-38 293 253
-0.03227536 0.708 -0.01613768 1.1340626e-38 294 253
-0.031034 0.708 -0.01613768 1.1432821e-38 295 253
-0.029750559 0.70700002 -0.016114887 1.1525739e-38 296 253
-0.028470624 0.70599997 -0.016092092 1.1710131e-38 297 253
-0.027155625 0.704 -0.016046507 1.180268e-38 298 253
-0.025810819 0.70099998 -0.015978126 1.180268e-38 299 253
-0.024546666 0.69999999 -0.015955333 1.18956e-38 300 253
-0.023319334 0.69999999 -0.015955333 1.18956e-38 301 253
-0.022091998 0.69999999 -0.015955333 1.1987091e-38 302 253
-0.020864666 0.69999999 -0.015955333 1.2079645e-38 303 253
-0.019637333 0.69999999 -0.015955333 1.2632126e-38 304 253
-0.018409999 0.69999999 -0.015955333 1.3277495e-38 305 253
-0.017133573 0.69800001 -0.015909746 1.3276791e-38 306 253
-0.015909746 0.69800001 -0.015909746 1.1709826e-38 307 253
-0.01468592 0.69800001 -0.015909746 1.106084e-38 308 253
-0.013462093 0.69800001 -0.015909746 1.0691698e-38 309 253
-0.012238266 0.69800001 -0.015909746 1.0414729e-38 310 253
-0.01101444 0.69800001 -0.015909746 9.9537509e-39 311 253
-0.0097906133 0.69800001 -0.015909746 9.9526719e-39 312 253
-0.0085667865 0.69800001 -0.015909746 9.6764479e-39 313 253
-0.0073429602 0.69800001 -0.015909746 9.3083885e-39 314 253
-0.006119133 0.69800001 -0.015909746 9.1236413e-39 315 253
-0.0048882933 0.69700003 -0.015886955 9.0310883e-39 316 253
-0.00366622 0.69700003 -0.015886955 8.9388941e-39 317 253
-0.0024476533 0.69800001 -0.015909746 8.7548714e-39 318 253
-0.0012238267 0.69800001 -0.015909746 8.4782831e-39 319 253
0 0.69700003 -0.015886955 8.6605262e-39 320 253
0.0012220733 0.69700003 -0.015886955 8.2921024e-39 321 253
0.0024441467 0.69700003 -0.015886955 8.3828631e-39 322 253
0.0036714801 0.69800001 -0.015909746 8.198832e-39 323 253
0.0048953067 0.69800001 -0.015909746 8.0140876e-39 324 253
0.006119133 0.69800001 -0.015909746 7.8296963e-39 325 253
0.0073429602 0.69800001 -0.015909746 7.6467442e-39 326 253
0.0085913334 0.69999999 -0.015955333 7.6467442e-39 327 253
0.0098186666 0.69999999 -0.015955333 7.646747e-39 328 253
0.011045999 0.69999999 -0.015955333 7.646747e-39 329 253
0.012273333 0.69999999 -0.015955333 7.7389426e-39 330 253
0.013500666 0.69999999 -0.015955333 7.8311383e-39 331 253
0.014749039 0.70099998 -0.015978126 7.5563464e-39 332 253
0.016023712 0.70300001 -0.016023712 7.4641508e-39 333 253
0.017280852 0.704 -0.016046507 7.1890058e-39 334 253
0.018515198 0.704 -0.016046507 7.2815602e-39 335 253
0.019749546 0.704 -0.016046507 7.2808413e-39 336 253
0.021043506 0.70599997 -0.016092092 7.188287e-39 337 253
0.022281358 0.70599997 -0.016092092 6.9127763e-39 338 253
0.023552528 0.70700002 -0.016114887 6.9127763e-39 339 253
0.024897331 0.70999998 -0.016183265 7.1875681e-39 340 253
0.026179021 0.71100003 -0.01620606 7.371958e-39 341 253
0.027425639 0.71100003 -0.01620606 7.6485477e-39 342 253
0.028793238 0.71399999 -0.016274439 7.556352e-39 343 253
0.030045118 0.71399999 -0.016274439 8.6605654e-39 344 253
0.031296998 0.71399999 -0.016274439 1.1426793e-38 345 253
0.032640055 0.71600002 -0.016320027 1.5022445e-38 346 253
0.03389544 0.71600002 -0.016320027 1.5483063e-38 347 253
-0.042683143 0.71600002 -0.017575413 1.3366486e-38 286 254
-0.041312039 0.71399999 -0.017526319 1.0324389e-38 287 254
-0.040060159 0.71399999 -0.017526319 1.0420137e-38 288 254
-0.038808275 0.71399999 -0.017526319 1.0881115e-38 289 254
-0.037503798 0.713 -0.017501773 1.0973661e-38 290 254
-0.036151983 0.71100003 -0.01745268 1.0973661e-38 291 254
-0.034856264 0.70999998 -0.017428132 1.1065481e-38 292 254
-0.033611398 0.70999998 -0.017428132 1.1065481e-38 293 254
-0.03227536 0.708 -0.017379038 1.0973288e-38 294 254
-0.030990168 0.70700002 -0.017354494 1.1065484e-38 295 254
-0.029708479 0.70599997 -0.017329946 1.106621e-38 296 254
-0.028389972 0.704 -0.017280852 1.1342796e-38 297 254
-0.027117053 0.70300001 -0.017256306 1.1434989e-38 298 254
-0.025810819 0.70099998 -0.017207211 1.1711935e-38 299 254
-0.024546666 0.69999999 -0.017182667 1.189597e-38 300 254
-0.023252707 0.69800001 -0.017133573 1.1988166e-38 301 254
-0.02202888 0.69800001 -0.017133573 1.2079658e-38 302 254
-0.020864666 0.69999999 -0.017182667 1.2264049e-38 303 254
-0.019581227 0.69800001 -0.017133573 1.2817984e-38 304 254
-0.0183574 0.69800001 -0.017133573 1.4016527e-38 305 254
-0.017133573 0.69800001 -0.017133573 1.3464096e-38 306 254
-0.015909746 0.69800001 -0.017133573 1.208116e-38 307 254
-0.01468592 0.69800001 -0.017133573 1.0234692e-38 308 254
-0.013462093 0.69800001 -0.017133573 9.8655504e-39 309 254
-0.012238266 0.69800001 -0.017133573 1.0138865e-38 310 254
-0.01101444 0.69800001 -0.017133573 9.7697226e-39 311 254
-0.0097906133 0.69800001 -0.017133573 9.7686422e-39 312 254
-0.0085667865 0.69800001 -0.017133573 9.4917008e-39 313 254
-0.0073429602 0.69800001 -0.017133573 9.2158355e-39 314 254
-0.006119133 0.69800001 -0.017133573 9.1236413e-39 315 254
-0.0048882933 0.69700003 -0.017109027 9.0310911e-39 316 254
-0.00366622 0.69700003 -0.017109027 8.9385368e-39 317 254
-0.0024476533 0.69800001 -0.017133573 8.6626772e-39 318 254
-0.0012238267 0.69800001 -0.017133573 8.293896e-39 319 254
0 0.69700003 -0.017109027 8.0162386e-39 320 254
0.0012220733 0.69700003 -0.017109027 8.0162386e-39 321 254
0.0024441467 0.69700003 -0.017109027 7.8318571e-39 322 254
0.0036714801 0.69800001 -0.017133573 7.5556304e-39 323 254
0.0048953067 0.69800001 -0.017133573 7.921536e-39 324 254
0.006119133 0.69800001 -0.017133573 7.8293404e-39 325 254
0.0073429602 0.69800001 -0.017133573 7.4634347e-39 326 254
0.0085913334 0.69999999 -0.017182667 7.3712391e-39 327 254
0.0098186666 0.69999999 -0.017182667 7.2786861e-39 328 254
0.011045999 0.69999999 -0.017182667 7.3708832e-39 329 254
0.012273333 0.69999999 -0.017182667 7.1882898e-39 330 254
0.013519952 0.70099998 -0.017207211 7.2804854e-39 331 254
0.014749039 0.70099998 -0.017207211 7.1890086e-39 332 254
0.015978126 0.70099998 -0.017207211 7.1890086e-39 333 254
0.017280852 0.704 -0.017280852 7.0046216e-39 334 254
0.018515198 0.704 -0.017280852 7.0046216e-39 335 254
0.019749546 0.704 -0.017280852 7.0049775e-39 336 254
0.021043506 0.70599997 -0.017329946 6.9127819e-39 337 254
0.022281358 0.70599997 -0.017329946 6.8209464e-39 338 254
0.023585839 0.708 -0.017379038 6.8209464e-39 339 254
0.024897331 0.70999998 -0.017428132 6.9127819e-39 340 254
0.026179021 0.71100003 -0.01745268 7.0049775e-39 341 254
0.027425639 0.71100003 -0.01745268 7.1893842e-39 342 254
0.028752912 0.713 -0.017501773 7.4659711e-39 343 254
0.030003037 0.713 -0.017501773 8.3847072e-39 344 254
0.031253166 0.713 -0.017501773 1.0873988e-38 345 254
0.032503292 0.713 -0.017501773 1.5021006e-38 346 254
-0.042683143 0.71600002 -0.0188308 1.2907664e-38 286 255
-0.041427758 0.71600002 -0.0188308 9.8648497e-39 287 255
-0.040060159 0.71399999 -0.018778199 1.0053149e-38 288 255
-0.038808275 0.71399999 -0.018778199 1.0514127e-38 289 255
-0.037503798 0.713 -0.018751899 1.0881818e-38 290 255
-0.036151983 0.71100003 -0.0186993 1.0881818e-38 291 255
-0.034856264 0.70999998 -0.018672999 1.1065481e-38 292 255
-0.033611398 0.70999998 -0.018672999 1.0973285e-38 293 255
-0.03227536 0.708 -0.0186204 1.1064762e-38 294 255
-0.030990168 0.70700002 -0.018594101 1.1064762e-38 295 255
-0.029708479 0.70599997 -0.018567799 1.1158035e-38 296 255
-0.028389972 0.704 -0.018515198 1.1250231e-38 297 255
-0.027117053 0.70300001 -0.018488899 1.1434992e-38 298 255
-0.025810819 0.70099998 -0.018436298 1.1619383e-38 299 255
-0.024546666 0.69999999 -0.018409999 1.1804866e-38 300 255
-0.023252707 0.69800001 -0.0183574 1.1897062e-38 301 255
-0.02202888 0.69800001 -0.0183574 1.2080754e-38 302 255
-0.020864666 0.69999999 -0.018409999 1.2449535e-38 303 255
-0.019581227 0.69800001 -0.0183574 1.2727939e-38 304 255
-0.0183574 0.69800001 -0.0183574 1.3281113e-38 305 255
-0.017133573 0.69800001 -0.0183574 1.2820502e-38 306 255
-0.015909746 0.69800001 -0.0183574 1.1437566e-38 307 255
-0.01468592 0.69800001 -0.0183574 9.7755057e-39 308 255
-0.013462093 0.69800001 -0.0183574 9.5914746e-39 309 255
-0.012238266 0.69800001 -0.0183574 9.9559159e-39 310 255
-0.01101444 0.69800001 -0.0183574 9.587132e-39 311 255
-0.0097906133 0.69800001 -0.0183574 9.6768081e-39 312 255
-0.0085667865 0.69800001 -0.0183574 9.3083885e-39 313 255
-0.0073429602 0.69800001 -0.0183574 8.9399703e-39 314 255
-0.006119133 0.69800001 -0.0183574 8.9399703e-39 315 255
-0.0048882933 0.69700003 -0.018331099 8.847423e-39 316 255
-0.00366622 0.69700003 -0.018331099 8.6630303e-39 317 255
-0.0024476533 0.69800001 -0.0183574 8.5694067e-39 318 255
-0.0012238267 0.69800001 -0.0183574 8.2006228e-39 319 255
0 0.69700003 -0.018331099 7.9236898e-39 320 255
0.0012220733 0.69700003 -0.018331099 7.7392986e-39 321 255
0.0024441467 0.69700003 -0.018331099 7.7382266e-39 322 255
0.0036714801 0.69800001 -0.0183574 7.7382266e-39 323 255
0.0048953067 0.69800001 -0.0183574 7.5534752e-39 324 255
0.006119133 0.69800001 -0.0183574 7.5534752e-39 325 255
0.0073429602 0.69800001 -0.0183574 7.3705188e-39 326 255
0.0085913334 0.69999999 -0.018409999 7.2779645e-39 327 255
0.0098186666 0.69999999 -0.018409999 7.2786861e-39 328 255
0.011045999 0.69999999 -0.018409999 7.2786861e-39 329 255
0.012273333 0.69999999 -0.018409999 7.1875737e-39 330 255
0.013519952 0.70099998 -0.018436298 7.1875737e-39 331 255
0.014749039 0.70099998 -0.018436298 7.0957382e-39 332 255
0.015978126 0.70099998 -0.018436298 7.0957382e-39 333 255
0.017280852 0.704 -0.018515198 6.9127819e-39 334 255
0.018515198 0.704 -0.018515198 6.8205849e-39 335 255
0.019749546 0.704 -0.018515198 6.8205821e-39 336 255
0.021043506 0.70599997 -0.018567799 6.9127791e-39 337 255
0.022281358 0.70599997 -0.018567799 6.9127791e-39 338 255
0.023585839 0.708 -0.0186204 6.9127791e-39 339 255
0.024897331 0.70999998 -0.018672999 6.9127791e-39 340 255
0.026142199 0.70999998 -0.018672999 7.1890058e-39 341 255
0.027425639 0.71100003 -0.0186993 7.3733999e-39 342 255
0.028752912 0.713 -0.018751899 7.4655955e-39 343 255
0.030003037 0.713 -0.018751899 8.3828925e-39 344 255
0.031253166 0.713 -0.018751899 1.096437e-38 345 255
0.032503292 0.713 -0.018751899 1.4928445e-38 346 255
-0.044122629 0.71899998 -0.020170346 1.5114653e-38 285 256
-0.042742759 0.71700001 -0.020114239 1.2998778e-38 286 256
-0.041427758 0.71600002 -0.020086186 1.0048878e-38 287 256
-0.040060159 0.71399999 -0.020030079 1.0053505e-38 288 256
-0.038808275 0.71399999 -0.020030079 1.0514125e-38 289 256
-0.037503798 0.713 -0.020002026 1.0789623e-38 290 256
-0.036151983 0.71100003 -0.01994592 1.0789623e-38 291 256
-0.034856264 0.70999998 -0.019917866 1.1064762e-38 292 256
-0.033611398 0.70999998 -0.019917866 1.1064762e-38 293 256
-0.03227536 0.708 -0.01986176 1.1065118e-38 294 256
-0.030990168 0.70700002 -0.019833706 1.1065118e-38 295 256
-0.029708479 0.70599997 -0.019805651 1.1065481e-38 296 256
-0.028389972 0.704 -0.019749546 1.1158035e-38 297 256
-0.027117053 0.70300001 -0.019721493 1.0883264e-38 298 256
-0.025810819 0.70099998 -0.019665385 1.1344241e-38 299 256
-0.024546666 0.69999999 -0.019637333 1.1620848e-38 300 256
-0.023252707 0.69800001 -0.019581227 1.1620848e-38 301 256
-0.02202888 0.69800001 -0.019581227 1.1988924e-38 302 256
-0.020864666 0.69999999 -0.019637333 1.2450261e-38 303 256
-0.019581227 0.69800001 -0.019581227 1.2911979e-38 304 256
-0.0183574 0.69800001 -0.019581227 1.3372956e-38 305 256
-0.017133573 0.69800001 -0.019581227 1.1804185e-38 306 256
-0.015909746 0.69800001 -0.019581227 1.0790033e-38 307 256
-0.01468592 0.69800001 -0.019581227 9.9588026e-39 308 256
-0.013462093 0.69800001 -0.019581227 9.6825744e-39 309 256
-0.012238266 0.69800001 -0.019581227 9.6807583e-39 310 256
-0.01101444 0.69800001 -0.019581227 9.3119758e-39 311 256
-0.0097906133 0.69800001 -0.019581227 9.4016589e-39 312 256
-0.0085667865 0.69800001 -0.019581227 9.1247175e-39 313 256
-0.0073429602 0.69800001 -0.019581227 8.7577342e-39 314 256
-0.006119133 0.69800001 -0.019581227 8.6651813e-39 315 256
-0.0048953067 0.69800001 -0.019581227 8.7559462e-39 316 256
-0.0036714801 0.69800001 -0.019581227 8.3871637e-39 317 256
-0.0024476533 0.69800001 -0.019581227 8.5679746e-39 318 256
-0.0012238267 0.69800001 -0.019581227 8.1073552e-39 319 256
0 0.69700003 -0.019553173 7.7382238e-39 320 256
0.0012220733 0.69700003 -0.019553173 7.6460281e-39 321 256
0.0024441467 0.69700003 -0.019553173 7.553478e-39 322 256
0.0036714801 0.69800001 -0.019581227 7.645675e-39 323 256
0.0048953067 0.69800001 -0.019581227 7.3701657e-39 324 256
0.006119133 0.69800001 -0.019581227 7.2779701e-39 325 256
0.0073429602 0.69800001 -0.019581227 7.2779701e-39 326 256
0.0085913334 0.69999999 -0.019637333 7.1857744e-39 327 256
0.0098186666 0.69999999 -0.019637333 7.0028223e-39 328 256
0.011045999 0.69999999 -0.019637333 7.0028223e-39 329 256
0.012273333 0.69999999 -0.019637333 6.8195101e-39 330 256
0.013500666 0.69999999 -0.019637333 7.0035412e-39 331 256
0.014749039 0.70099998 -0.019665385 6.8202289e-39 332 256
0.015978126 0.70099998 -0.019665385 6.8202289e-39 333 256
0.017280852 0.704 -0.019749546 6.6372698e-39 334 256
0.018515198 0.704 -0.019749546 6.5450742e-39 335 256
0.019749546 0.704 -0.019749546 6.8198632e-39 336 256
0.021043506 0.70599997 -0.019805651 6.8198632e-39 337 256
0.022312919 0.70700002 -0.019833706 6.6372698e-39 338 256
0.023585839 0.708 -0.01986176 6.8213023e-39 339 256
0.024827199 0.708 -0.01986176 6.913498e-39 340 256
0.026142199 0.70999998 -0.019917866 7.0056936e-39 341 256
0.027387066 0.70999998 -0.019917866 7.4656011e-39 342 256
0.028672259 0.71100003 -0.01994592 7.5577982e-39 343 256
0.029918881 0.71100003 -0.01994592 8.5680026e-39 344 256
0.031165501 0.71100003 -0.01994592 1.0872893e-38 345 256
0.032412119 0.71100003 -0.01994592 1.4928079e-38 346 256
-0.044122629 0.71899998 -0.021430992 1.5297966e-38 285 257
-0.042742759 0.71700001 -0.021371379 1.3090611e-38 286 257
-0.041427758 0.71600002 -0.021341572 1.0232187e-38 287 257
-0.040060159 0.71399999 -0.021281958 1.0145698e-38 288 257
-0.038753927 0.713 -0.021252153 1.0422285e-38 289 257
-0.037503798 0.713 -0.021252153 1.0697071e-38 290 257
-0.036151983 0.71100003 -0.021192541 1.0697071e-38 291 257
-0.034856264 0.70999998 -0.021162732 1.0789257e-38 292 257
-0.033516716 0.708 -0.021103119 1.0973288e-38 293 257
-0.03227536 0.708 -0.021103119 1.0789254e-38 294 257
-0.030990168 0.70700002 -0.021073313 1.0789254e-38 295 257
-0.029708479 0.70599997 -0.021043506 1.0789254e-38 296 257
-0.028389972 0.704 -0.020983893 1.1065481e-38 297 257
-0.027117053 0.70300001 -0.020954086 1.0698872e-38 298 257
-0.025810819 0.70099998 -0.020894472 1.115985e-38 299 257
-0.024546666 0.69999999 -0.020864666 1.1343185e-38 300 257
-0.023252707 0.69800001 -0.020805053 1.1527936e-38 301 257
-0.02202888 0.69800001 -0.020805053 1.1712708e-38 302 257
-0.020864666 0.69999999 -0.020864666 1.2450275e-38 303 257
-0.019637333 0.69999999 -0.020864666 1.3278256e-38 304 257
-0.0183574 0.69800001 -0.020805053 1.3094223e-38 305 257
-0.017133573 0.69800001 -0.020805053 1.0697117e-38 306 257
-0.015909746 0.69800001 -0.020805053 1.0051748e-38 307 257
-0.01468592 0.69800001 -0.020805053 1.0234301e-38 308 257
-0.013462093 0.69800001 -0.020805053 9.8655181e-39 309 257
-0.012238266 0.69800001 -0.020805053 9.7722295e-39 310 257
-0.01101444 0.69800001 -0.020805053 9.4034526e-39 311 257
-0.0097906133 0.69800001 -0.020805053 9.4016589e-39 312 257
-0.0085667865 0.69800001 -0.020805053 9.2169117e-39 313 257
-0.00733244 0.69700003 -0.020775247 8.9410465e-39 314 257
-0.0061103669 0.69700003 -0.020775247 8.7562993e-39 315 257
-0.0048882933 0.69700003 -0.020775247 8.7552273e-39 316 257
-0.00366622 0.69700003 -0.020775247 8.294252e-39 317 257
-0.0024441467 0.69700003 -0.020775247 8.3828631e-39 318 257
-0.0012220733 0.69700003 -0.020775247 8.0144407e-39 319 257
0 0.69700003 -0.020775247 7.92082e-39 320 257
0.0012220733 0.69700003 -0.020775247 7.8286229e-39 321 257
0.0024441467 0.69700003 -0.020775247 7.4612823e-39 322 257
0.0036714801 0.69800001 -0.020805053 7.553478e-39 323 257
0.0048953067 0.69800001 -0.020805053 7.3701629e-39 324 257
0.006119133 0.69800001 -0.020805053 7.2779673e-39 325 257
0.0073429602 0.69800001 -0.020805053 7.1864933e-39 326 257
0.0085913334 0.69999999 -0.020864666 7.093939e-39 327 257
0.0098186666 0.69999999 -0.020864666 6.9106267e-39 328 257
0.011045999 0.69999999 -0.020864666 7.0028223e-39 329 257
0.012273333 0.69999999 -0.020864666 6.8195101e-39 330 257
0.013500666 0.69999999 -0.020864666 6.8195101e-39 331 257
0.014749039 0.70099998 -0.020894472 6.7280333e-39 332 257
0.015978126 0.70099998 -0.020894472 6.7280333e-39 333 257
0.017280852 0.704 -0.020983893 6.7283864e-39 334 257
0.018515198 0.704 -0.020983893 6.6361908e-39 335 257
0.019749546 0.704 -0.020983893 6.6361908e-39 336 257
0.021043506 0.70599997 -0.021043506 6.8205821e-39 337 257
0.022312919 0.70700002 -0.021073313 6.8205821e-39 338 257
0.023585839 0.708 -0.021103119 6.9127791e-39 339 257
0.024827199 0.708 -0.021103119 6.9127791e-39 340 257
0.026142199 0.70999998 -0.021162732 7.2815602e-39 341 257
0.027387066 0.70999998 -0.021162732 7.5577982e-39 342 257
0.028631933 0.70999998 -0.021162732 7.6499938e-39 343 257
0.029918881 0.71100003 -0.021192541 9.0289808e-39 344 257
0.031165501 0.71100003 -0.021192541 1.1241676e-38 345 257
0.032412119 0.71100003 -0.021192541 1.4835883e-38 346 257
-0.044122629 0.71899998 -0.022691639 1.5481641e-38 285 258
-0.042742759 0.71700001 -0.02262852 1.3090974e-38 286 258
-0.041427758 0.71600002 -0.022596961 1.0325105e-38 287 258
-0.040060159 0.71399999 -0.022533838 1.0236817e-38 288 258
-0.038753927 0.713 -0.022502279 1.0513406e-38 289 258
-0.037398599 0.71100003 -0.022439159 1.0605231e-38 290 258
-0.036151983 0.71100003 -0.022439159 1.0697427e-38 291 258
-0.034856264 0.70999998 -0.022407599 1.0697054e-38 292 258
-0.033516716 0.708 -0.022344479 1.078961e-38 293 258
-0.03227536 0.708 -0.022344479 1.0880725e-38 294 258
-0.030990168 0.70700002 -0.022312919 1.0880725e-38 295 258
-0.029708479 0.70599997 -0.022281358 1.0880725e-38 296 258
-0.028389972 0.704 -0.022218239 1.0972922e-38 297 258
-0.027117053 0.70300001 -0.02218668 1.0606663e-38 298 258
-0.025810819 0.70099998 -0.022123558 1.0790695e-38 299 258
-0.024546666 0.69999999 -0.022091998 1.1249895e-38 300 258
-0.023252707 0.69800001 -0.02202888 1.1434286e-38 301 258
-0.02202888 0.69800001 -0.02202888 1.152723e-38 302 258
-0.020864666 0.69999999 -0.022091998 1.2080403e-38 303 258
-0.019637333 0.69999999 -0.022091998 1.2077898e-38 304 258
-0.0183574 0.69800001 -0.02202888 1.1617279e-38 305 258
-0.017133573 0.69800001 -0.02202888 1.0327961e-38 306 258
-0.015909746 0.69800001 -0.02202888 9.9591781e-39 307 258
-0.01468592 0.69800001 -0.02202888 1.0234298e-38 308 258
-0.013462093 0.69800001 -0.02202888 9.7736784e-39 309 258
-0.012238266 0.69800001 -0.02202888 9.6796765e-39 310 258
-0.01101444 0.69800001 -0.02202888 9.3112584e-39 311 258
-0.0097906133 0.69800001 -0.02202888 9.1257937e-39 312 258
-0.0085545136 0.69700003 -0.02199732 9.0335995e-39 313 258
-0.00733244 0.69700003 -0.02199732 8.8488523e-39 314 258
-0.0061103669 0.69700003 -0.02199732 8.7562993e-39 315 258
-0.0048882933 0.69700003 -0.02199732 8.4793621e-39 316 258
-0.00366622 0.69700003 -0.02199732 8.1102223e-39 317 258
-0.0024441467 0.69700003 -0.02199732 8.4743455e-39 318 258
-0.0012220733 0.69700003 -0.02199732 8.1052042e-39 319 258
0 0.69700003 -0.02199732 7.8289873e-39 320 258
0.0012220733 0.69700003 -0.02199732 7.7367902e-39 321 258
0.0024441467 0.69700003 -0.02199732 7.3701629e-39 322 258
0.0036714801 0.69800001 -0.02202888 7.5541954e-39 323 258
0.0048953067 0.69800001 -0.02202888 7.3705188e-39 324 258
0.006119133 0.69800001 -0.02202888 7.3705188e-39 325 258
0.0073429602 0.69800001 -0.02202888 6.9109798e-39 326 258
0.0085913334 0.69999999 -0.022091998 6.9109798e-39 327 258
0.0098186666 0.69999999 -0.022091998 6.6354733e-39 328 258
0.011045999 0.69999999 -0.022091998 6.7276676e-39 329 258
0.012273333 0.69999999 -0.022091998 6.7273116e-39 330 258
0.013519952 0.70099998 -0.022123558 6.7273116e-39 331 258
0.014749039 0.70099998 -0.022123558 6.6358349e-39 332 258
0.016023712 0.70300001 -0.02218668 6.6358349e-39 333 258
0.017280852 0.704 -0.022218239 6.4525226e-39 334 258
0.018515198 0.704 -0.022218239 6.4525226e-39 335 258
0.019749546 0.704 -0.022218239 6.6358349e-39 336 258
0.021043506 0.70599997 -0.022281358 6.7280305e-39 337 258
0.022312919 0.70700002 -0.022312919 6.637267e-39 338 258
0.023585839 0.708 -0.022344479 6.8212995e-39 339 258
0.024827199 0.708 -0.022344479 7.0053306e-39 340 258
0.026142199 0.70999998 -0.022407599 7.1893618e-39 341 258
0.027387066 0.70999998 -0.022407599 7.8336592e-39 342 258
0.028631933 0.70999998 -0.022407599 8.0180504e-39 343 258
0.029876797 0.70999998 -0.022407599 9.4892331e-39 344 258
0.031165501 0.71100003 -0.022439159 1.1610093e-38 345 258
0.032412119 0.71100003 -0.022439159 1.5019193e-38 346 258
-0.045446403 0.72000003 -0.0239856 1.6588704e-38 284 259
-0.044183999 0.72000003 -0.0239856 1.5297966e-38 285 259
-0.042742759 0.71700001 -0.02388566 1.3183527e-38 286 259
-0.041427758 0.71600002 -0.023852346 1.0325102e-38 287 259
-0.040172372 0.71600002 -0.023852346 1.0237171e-38 288 259
-0.038753927 0.713 -0.023752406 1.0421563e-38 289 259
-0.037398599 0.71100003 -0.023685781 1.0605229e-38 290 259
-0.036151983 0.71100003 -0.023685781 1.0605229e-38 291 259
-0.034856264 0.70999998 -0.023652466 1.0605226e-38 292 259
-0.033516716 0.708 -0.023585839 1.0605226e-38 293 259
-0.03227536 0.708 -0.023585839 1.0605577e-38 294 259
-0.030990168 0.70700002 -0.023552528 1.0605577e-38 295 259
-0.029708479 0.70599997 -0.023519212 1.0421549e-38 296 259
-0.028389972 0.704 -0.023452586 1.0421549e-38 297 259
-0.027117053 0.70300001 -0.023419274 1.0238248e-38 298 259
-0.025810819 0.70099998 -0.023352645 1.0422279e-38 299 259
-0.024546666 0.69999999 -0.023319334 1.042266e-38 300 259
-0.023319334 0.69999999 -0.023319334 1.0698887e-38 301 259
-0.022091998 0.69999999 -0.023319334 1.0883651e-38 302 259
-0.020864666 0.69999999 -0.023319334 1.0975847e-38 303 259
-0.019637333 0.69999999 -0.023319334 1.1341024e-38 304 259
-0.0183574 0.69800001 -0.023252707 1.0971881e-38 305 259
-0.017133573 0.69800001 -0.023252707 1.0327944e-38 306 259
-0.015909746 0.69800001 -0.023252707 1.0050998e-38 307 259
-0.01468592 0.69800001 -0.023252707 1.0141379e-38 308 259
-0.013462093 0.69800001 -0.023252707 9.8647923e-39 309 259
-0.012238266 0.69800001 -0.023252707 9.6793178e-39 310 259
-0.01101444 0.69800001 -0.023252707 9.4027351e-39 311 259
-0.0097765867 0.69700003 -0.023219392 9.1261524e-39 312 259
-0.0085545136 0.69700003 -0.023219392 8.9414052e-39 313 259
-0.00733244 0.69700003 -0.023219392 8.66554e-39 314 259
-0.0061103669 0.69700003 -0.023219392 8.4807928e-39 315 259
-0.0048882933 0.69700003 -0.023219392 8.5704787e-39 316 259
-0.00366622 0.69700003 -0.023219392 8.1098635e-39 317 259
-0.0024441467 0.69700003 -0.023219392 8.3828631e-39 318 259
-0.0012220733 0.69700003 -0.023219392 8.1066363e-39 319 259
0 0.69700003 -0.023219392 7.7392957e-39 320 259
0.0012220733 0.69700003 -0.023219392 7.7392957e-39 321 259
0.0024441467 0.69700003 -0.023219392 7.3712363e-39 322 259
0.0036714801 0.69800001 -0.023252707 7.3712363e-39 323 259
0.0048953067 0.69800001 -0.023252707 7.0953711e-39 324 259
0.006119133 0.69800001 -0.023252707 7.0031754e-39 325 259
0.0073429602 0.69800001 -0.023252707 6.9109798e-39 326 259
0.0085667865 0.69800001 -0.023252707 6.8187856e-39 327 259
0.0098186666 0.69999999 -0.023319334 6.7276676e-39 328 259
0.011045999 0.69999999 -0.023319334 6.7276676e-39 329 259
0.012273333 0.69999999 -0.023319334 6.360327e-39 330 259
0.013519952 0.70099998 -0.023352645 6.4525226e-39 331 259
0.014749039 0.70099998 -0.023352645 6.359971e-39 332 259
0.015978126 0.70099998 -0.023352645 6.359971e-39 333 259
0.017280852 0.704 -0.023452586 6.1766588e-39 334 259
0.018515198 0.704 -0.023452586 6.1766588e-39 335 259
0.019749546 0.704 -0.023452586 6.1770147e-39 336 259
0.021043506 0.70599997 -0.023519212 6.5454371e-39 337 259
0.022312919 0.70700002 -0.023552528 6.8212995e-39 338 259
0.023585839 0.708 -0.023585839 6.8212995e-39 339 259
0.024827199 0.708 -0.023585839 7.188287e-39 340 259
0.026142199 0.70999998 -0.023652466 7.4652326e-39 341 259
0.027387066 0.70999998 -0.023652466 7.6503595e-39 342 259
0.028631933 0.70999998 -0.023652466 8.1113377e-39 343 259
0.029876797 0.70999998 -0.023652466 9.7665486e-39 344 259
0.031121666 0.70999998 -0.023652466 1.1610102e-38 345 259
0.032366529 0.70999998 -0.023652466 1.4835883e-38 346 259
-0.045383278 0.71899998 -0.025212931 1.6588704e-38 284 260
-0.044122629 0.71899998 -0.025212931 1.5297966e-38 285 260
-0.042742759 0.71700001 -0.0251428 1.3367918e-38 286 260
-0.041427758 0.71600002 -0.025107734 1.0141071e-38 287 260
-0.040172372 0.71600002 -0.025107734 9.9613067e-39 288 260
-0.038753927 0.713 -0.025002534 1.0237895e-38 289 260
-0.037398599 0.71100003 -0.024932399 1.0697061e-38 290 260
-0.036151983 0.71100003 -0.024932399 1.0697061e-38 291 260
-0.034856264 0.70999998 -0.024897331 1.0697407e-38 292 260
-0.033516716 0.708 -0.024827199 1.0605212e-38 293 260
-0.032229774 0.70700002 -0.024792133 1.0605212e-38 294 260
-0.030946331 0.70599997 -0.024757065 1.0605212e-38 295 260
-0.029708479 0.70599997 -0.024757065 1.0604859e-38 296 260
-0.028389972 0.704 -0.024686933 1.0512663e-38 297 260
-0.027117053 0.70300001 -0.024651866 1.0421549e-38 298 260
-0.025810819 0.70099998 -0.024581732 1.0421549e-38 299 260
-0.024546666 0.69999999 -0.024546666 1.0605226e-38 300 260
-0.023319334 0.69999999 -0.024546666 1.069778e-38 301 260
-0.022091998 0.69999999 -0.024546666 1.0789625e-38 302 260
-0.020864666 0.69999999 -0.024546666 1.0789625e-38 303 260
-0.019637333 0.69999999 -0.024546666 1.0879314e-38 304 260
-0.0183574 0.69800001 -0.024476532 1.051089e-38 305 260
-0.017133573 0.69800001 -0.024476532 1.0419048e-38 306 260
-0.015909746 0.69800001 -0.024476532 1.0142101e-38 307 260
-0.01468592 0.69800001 -0.024476532 9.8658685e-39 308 260
-0.013462093 0.69800001 -0.024476532 9.6814772e-39 309 260
-0.012238266 0.69800001 -0.024476532 9.40417e-39 310 260
-0.01101444 0.69800001 -0.024476532 9.0357519e-39 311 260
-0.0097765867 0.69700003 -0.024441468 8.8506459e-39 312 260
-0.0085545136 0.69700003 -0.024441468 8.7584517e-39 313 260
-0.00733244 0.69700003 -0.024441468 8.5729871e-39 314 260
-0.0061103669 0.69700003 -0.024441468 8.4807928e-39 315 260
-0.0048882933 0.69700003 -0.024441468 8.4782817e-39 316 260
-0.0036609597 0.69599998 -0.0244064 8.1098635e-39 317 260
-0.0024406398 0.69599998 -0.0244064 8.2002669e-39 318 260
-0.0012220733 0.69700003 -0.024441468 7.9240401e-39 319 260
0 0.69700003 -0.024441468 7.6492511e-39 320 260
0.0012220733 0.69700003 -0.024441468 7.4645039e-39 321 260
0.0024441467 0.69700003 -0.024441468 7.3719524e-39 322 260
0.0036714801 0.69800001 -0.024476532 7.095727e-39 323 260
0.0048953067 0.69800001 -0.024476532 7.095727e-39 324 260
0.006119133 0.69800001 -0.024476532 7.003174e-39 325 260
0.0073429602 0.69800001 -0.024476532 6.8191443e-39 326 260
0.0085667865 0.69800001 -0.024476532 6.8191443e-39 327 260
0.0098186666 0.69999999 -0.024546666 6.7265914e-39 328 260
0.011045999 0.69999999 -0.024546666 6.7265914e-39 329 260
0.012273333 0.69999999 -0.024546666 6.5439966e-39 330 260
0.013519952 0.70099998 -0.024581732 6.5439966e-39 331 260
0.014749039 0.70099998 -0.024581732 6.3606843e-39 332 260
0.015978126 0.70099998 -0.024581732 6.3606843e-39 333 260
0.017280852 0.704 -0.024686933 6.3606843e-39 334 260
0.018515198 0.704 -0.024686933 6.3606843e-39 335 260
0.019749546 0.704 -0.024686933 6.4528785e-39 336 260
0.021043506 0.70599997 -0.024757065 6.637267e-39 337 260
0.022312919 0.70700002 -0.024792133 6.9127763e-39 338 260
0.023585839 0.708 -0.024827199 7.0053306e-39 339 260
0.024897331 0.70999998 -0.024897331 7.373037e-39 340 260
0.026142199 0.70999998 -0.024897331 7.6492637e-39 341 260
0.027387066 0.70999998 -0.024897331 8.0191224e-39 342 260
0.028631933 0.70999998 -0.024897331 8.1113181e-39 343 260
0.029876797 0.70999998 -0.024897331 1.0227155e-38 344 260
0.031121666 0.70999998 -0.024897331 1.2347655e-38 345 260
0.032366529 0.70999998 -0.024897331 1.4835883e-38 346 260
-0.045383278 0.71899998 -0.02647358 1.6496509e-38 284 261
-0.044122629 0.71899998 -0.02647358 1.5482716e-38 285 261
-0.042742759 0.71700001 -0.02639994 1.3918939e-38 286 261
-0.041427758 0.71600002 -0.026363119 1.0784289e-38 287 261
-0.040172372 0.71600002 -0.026363119 1.0329013e-38 288 261
-0.038808275 0.71399999 -0.026289478 1.042121e-38 289 261
-0.037503798 0.713 -0.026252659 1.0421196e-38 290 261
-0.036151983 0.71100003 -0.026179021 1.0421196e-38 291 261
-0.034856264 0.70999998 -0.026142199 1.0604861e-38 292 261
-0.033516716 0.708 -0.026068559 1.0604861e-38 293 261
-0.032229774 0.70700002 -0.02603174 1.0329351e-38 294 261
-0.030946331 0.70599997 -0.025994917 1.0329351e-38 295 261
-0.029708479 0.70599997 -0.025994917 1.0328995e-38 296 261
-0.028389972 0.704 -0.02592128 1.0236799e-38 297 261
-0.027117053 0.70300001 -0.025884461 1.0237521e-38 298 261
-0.025810819 0.70099998 -0.025810819 1.0237521e-38 299 261
-0.024581732 0.70099998 -0.025810819 1.0146051e-38 300 261
-0.023319334 0.69999999 -0.025773998 1.0146051e-38 301 261
-0.022091998 0.69999999 -0.025773998 9.9616724e-39 302 261
-0.020864666 0.69999999 -0.025773998 9.9616724e-39 303 261
-0.019637333 0.69999999 -0.025773998 9.8676859e-39 304 261
-0.0183574 0.69800001 -0.025700359 9.7754903e-39 305 261
-0.017133573 0.69800001 -0.025700359 9.8669559e-39 306 261
-0.015909746 0.69800001 -0.025700359 9.8669559e-39 307 261
-0.01468592 0.69800001 -0.025700359 9.6818331e-39 308 261
-0.013462093 0.69800001 -0.025700359 9.4970817e-39 309 261
-0.012238266 0.69800001 -0.025700359 9.1286636e-39 310 261
-0.01099866 0.69700003 -0.025663542 8.9442751e-39 311 261
-0.0097765867 0.69700003 -0.025663542 8.941764e-39 312 261
-0.0085545136 0.69700003 -0.025663542 8.66554e-39 313 261
-0.00733244 0.69700003 -0.025663542 8.4815103e-39 314 261
-0.0061103669 0.69700003 -0.025663542 8.1127334e-39 315 261
-0.0048882933 0.69700003 -0.025663542 8.2027752e-39 316 261
-0.0036609597 0.69599998 -0.025626717 8.0183868e-39 317 261
-0.0024406398 0.69599998 -0.025626717 8.0173106e-39 318 261
-0.0012220733 0.69700003 -0.025663542 7.9251163e-39 319 261
0 0.69700003 -0.025663542 7.6499686e-39 320 261
0.0012220733 0.69700003 -0.025663542 7.2815504e-39 321 261
0.0024441467 0.69700003 -0.025663542 7.279398e-39 322 261
0.0036714801 0.69800001 -0.025700359 7.279398e-39 323 261
0.0048953067 0.69800001 -0.025700359 7.0035328e-39 324 261
