# .PCD v.7 - Point Cloud Data file format
FIELDS x y z rgb imX imY
SIZE 4 4 4 4 4 4
TYPE F F F F F F
COUNT 1 1 1 1 1 1
WIDTH 855
HEIGHT 1
VIEWPOINT 0 0 0 1 0 0 0
POINTS 855
DATA ascii
0.039555199 0.75199997 0.0026370131 1.1214348e-38 350 238
0.040873703 0.75199997 0.0026370131 1.0938121e-38 351 238
0.04219221 0.75199997 0.0026370131 9.7442792e-39 352 238
0.043626439 0.75400001 0.0026440267 7.9003666e-39 353 238
0.044948451 0.75400001 0.0026440267 5.4226257e-39 354 238
0.04633183 0.755 0.0026475333 5.5148213e-39 355 238
0.04778184 0.75700003 0.0026545466 4.5035463e-39 356 238
0.049238857 0.759 0.00266156 3.2142424e-39 357 238
0.050569639 0.759 0.00266156 8.008757e-39 358 238
0.051900417 0.759 0.00266156 1.298732e-38 359 238
-0.022682872 0.76099998 0.0013342865 1.3555648e-38 303 239
-0.021348584 0.76099998 0.0013342865 1.2711115e-38 304 239
-0.0199617 0.759 0.00133078 8.5626721e-39 305 239
-0.018581826 0.75700003 0.0013272733 1.0561092e-38 306 239
-0.017208965 0.755 0.0013237667 1.0652929e-38 307 239
-0.015885198 0.755 0.0013237667 1.0932045e-38 308 239
-0.014542146 0.75400001 0.0013220133 1.2038393e-38 309 239
-0.013220133 0.75400001 0.0013220133 1.241258e-38 310 239
-0.011866559 0.75199997 0.0013185065 1.3334895e-38 311 239
-0.01052 0.75 0.001315 1.3243413e-38 312 239
-0.0091927266 0.74900001 0.0013132467 1.1860478e-38 313 239
-0.0078794798 0.74900001 0.0013132467 1.1488087e-38 314 239
-0.0065662335 0.74900001 0.0013132467 1.038174e-38 315 239
-0.0052529867 0.74900001 0.0013132467 1.1756042e-38 316 239
-0.0039397399 0.74900001 0.0013132467 1.1848238e-38 317 239
-0.0026264933 0.74900001 0.0013132467 1.1756764e-38 318 239
-0.0013132467 0.74900001 0.0013132467 1.1664568e-38 319 239
0 0.74900001 0.0013132467 1.1573802e-38 320 239
0.0013097399 0.74699998 0.0013097399 1.1481606e-38 321 239
0.0026194798 0.74699998 0.0013097399 1.2032622e-38 322 239
0.0039292197 0.74699998 0.0013097399 1.2217372e-38 323 239
0.0052389596 0.74699998 0.0013097399 1.1393727e-38 324 239
0.0065486995 0.74699998 0.0013097399 1.1485922e-38 325 239
0.0078584393 0.74699998 0.0013097399 1.0932746e-38 326 239
0.0091681797 0.74699998 0.0013097399 1.1024941e-38 327 239
0.010477919 0.74699998 0.0013097399 1.0290616e-38 328 239
0.011787659 0.74699998 0.0013097399 1.0290616e-38 329 239
0.013097399 0.74699998 0.0013097399 9.7399604e-39 330 239
0.014445714 0.74900001 0.0013132467 9.832156e-39 331 239
0.01575896 0.74900001 0.0013132467 9.282222e-39 332 239
0.017072206 0.74900001 0.0013132467 8.8216026e-39 333 239
0.018385453 0.74900001 0.0013132467 8.6375841e-39 334 239
0.0196987 0.74900001 0.0013132467 8.4531929e-39 335 239
0.021011947 0.74900001 0.0013132467 8.3599224e-39 336 239
0.022325192 0.74900001 0.0013132467 8.3599224e-39 337 239
0.02363844 0.74900001 0.0013132467 8.2702309e-39 338 239
0.024984999 0.75 0.001315 8.6386533e-39 339 239
0.0263 0.75 0.001315 8.8205278e-39 340 239
0.027615 0.75 0.001315 8.8205278e-39 341 239
0.028929999 0.75 0.001315 9.4644651e-39 342 239
0.030244999 0.75 0.001315 1.0109835e-38 343 239
0.03156 0.75 0.001315 1.1026386e-38 344 239
0.032874998 0.75 0.001315 1.0841995e-38 345 239
0.034189999 0.75 0.001315 1.0932746e-38 346 239
0.035505001 0.75 0.001315 1.1024941e-38 347 239
0.036819998 0.75 0.001315 1.0936336e-38 348 239
0.038236689 0.75199997 0.0013185065 1.1581705e-38 349 239
0.039555199 0.75199997 0.0013185065 1.1123248e-38 350 239
0.040873703 0.75199997 0.0013185065 1.0385683e-38 351 239
0.04219221 0.75199997 0.0013185065 9.2829535e-39 352 239
0.043626439 0.75400001 0.0013220133 7.6230735e-39 353 239
0.044948451 0.75400001 0.0013220133 5.8800109e-39 354 239
0.04633183 0.755 0.0013237667 6.1569565e-39 355 239
0.04778184 0.75700003 0.0013272733 4.411345e-39 356 239
0.049109112 0.75700003 0.0013272733 3.7663343e-39 357 239
0.050436385 0.75700003 0.0013272733 1.0130694e-38 358 239
0.051763661 0.75700003 0.0013272733 1.4279858e-38 359 239
-0.022682872 0.76099998 -0 1.4201018e-38 303 240
-0.021348584 0.76099998 -0 1.3637397e-38 304 240
-0.0199617 0.759 -0 9.6729853e-39 305 240
-0.018581826 0.75700003 -0 1.0010089e-38 306 240
-0.017208965 0.755 -0 1.0193762e-38 307 240
-0.015885198 0.755 -0 1.0103743e-38 308 240
-0.014542146 0.75400001 -0 1.1579232e-38 309 240
-0.013220133 0.75400001 -0 1.2416198e-38 310 240
-0.011866559 0.75199997 -0 1.4444502e-38 311 240
-0.010548052 0.75199997 -0 1.3345712e-38 312 240
-0.0092049995 0.75 -0 1.2331199e-38 313 240
-0.0078794798 0.74900001 -0 1.1679331e-38 314 240
-0.0065662335 0.74900001 -0 9.5588314e-39 315 240
-0.0052529867 0.74900001 -0 1.1481951e-38 316 240
-0.0039397399 0.74900001 -0 1.1758897e-38 317 240
-0.0026194798 0.74699998 -0 1.1757096e-38 318 240
-0.0013097399 0.74699998 -0 1.1849292e-38 319 240
0 0.74699998 -0 1.111391e-38 320 240
0.0013097399 0.74699998 -0 1.0929877e-38 321 240
0.0026194798 0.74699998 -0 1.083805e-38 322 240
0.0039292197 0.74699998 -0 1.148342e-38 323 240
0.0052389596 0.74699998 -0 1.1211849e-38 324 240
0.0065486995 0.74699998 -0 1.1304045e-38 325 240
0.0078584393 0.74699998 -0 1.1027815e-38 326 240
0.0091681797 0.74699998 -0 1.0658673e-38 327 240
0.010477919 0.74699998 -0 1.0382093e-38 328 240
0.011787659 0.74699998 -0 1.0289897e-38 329 240
0.013097399 0.74699998 -0 9.557367e-39 330 240
0.014407139 0.74699998 -0 9.557367e-39 331 240
0.015716879 0.74699998 -0 8.9141626e-39 332 240
0.017072206 0.74900001 -0 8.4535432e-39 333 240
0.018385453 0.74900001 -0 8.1780479e-39 334 240
0.0196987 0.74900001 -0 7.9014624e-39 335 240
0.021011947 0.74900001 -0 7.4426437e-39 336 240
0.022325192 0.74900001 -0 7.4426437e-39 337 240
0.02363844 0.74900001 -0 7.3515312e-39 338 240
0.024951685 0.74900001 -0 7.2593342e-39 339 240
0.026264934 0.74900001 -0 7.258265e-39 340 240
0.027578179 0.74900001 -0 7.4422975e-39 341 240
0.028891427 0.74900001 -0 8.0862278e-39 342 240
0.030204674 0.74900001 -0 8.362456e-39 343 240
0.03156 0.75 -0 9.5563104e-39 344 240
0.032874998 0.75 -0 9.7410604e-39 345 240
0.034189999 0.75 -0 1.0843787e-38 346 240
0.035505001 0.75 -0 1.1028537e-38 347 240
0.036918186 0.75199997 -0 1.1306548e-38 348 240
0.038236689 0.75199997 -0 1.1490939e-38 349 240
0.039555199 0.75199997 -0 1.1305121e-38 350 240
0.040982414 0.75400001 -0 1.0290969e-38 351 240
0.042304426 0.75400001 -0 8.362442e-39 352 240
0.043626439 0.75400001 -0 7.7170726e-39 353 240
0.045008067 0.755 -0 6.1573195e-39 354 240
0.04633183 0.755 -0 6.1573195e-39 355 240
0.047655597 0.755 -0 4.7822785e-39 356 240
0.048979364 0.755 -0 4.7822785e-39 357 240
0.050303131 0.755 -0 1.1422865e-38 358 240
0.051626898 0.755 -0 1.575606e-38 359 240
-0.021348584 0.76099998 -0.0013342865 1.4009423e-38 304 241
-0.0199617 0.759 -0.00133078 1.1058804e-38 305 241
-0.018581826 0.75700003 -0.0013272733 9.8267891e-39 306 241
-0.017254554 0.75700003 -0.0013272733 8.9998982e-39 307 241
-0.015885198 0.755 -0.0013237667 1.0104095e-38 308 241
-0.014561433 0.755 -0.0013237667 1.1394834e-38 309 241
-0.013220133 0.75400001 -0.0013220133 1.1680079e-38 310 241
-0.01189812 0.75400001 -0.0013220133 1.4353752e-38 311 241
-0.010548052 0.75199997 -0.0013185065 1.3352561e-38 312 241
-0.0092049995 0.75 -0.001315 1.4274876e-38 313 241
-0.0078794798 0.74900001 -0.0013132467 1.3167081e-38 314 241
-0.0065662335 0.74900001 -0.0013132467 1.1599755e-38 315 241
-0.0052529867 0.74900001 -0.0013132467 1.2234671e-38 316 241
-0.0039397399 0.74900001 -0.0013132467 1.0943932e-38 317 241
-0.0026194798 0.74699998 -0.0013097399 1.1578136e-38 318 241
-0.0013097399 0.74699998 -0.0013097399 1.0840212e-38 319 241
0 0.74699998 -0.0013097399 1.0931316e-38 320 241
0.0013097399 0.74699998 -0.0013097399 1.0378143e-38 321 241
0.0026194798 0.74699998 -0.0013097399 1.0652933e-38 322 241
0.0039292197 0.74699998 -0.0013097399 1.1020997e-38 323 241
0.0052389596 0.74699998 -0.0013097399 1.0845235e-38 324 241
0.0065486995 0.74699998 -0.0013097399 1.1306213e-38 325 241
0.0078584393 0.74699998 -0.0013097399 1.084774e-38 326 241
0.0091681797 0.74699998 -0.0013097399 1.0570793e-38 327 241
0.010477919 0.74699998 -0.0013097399 1.0109452e-38 328 241
0.011787659 0.74699998 -0.0013097399 1.0017256e-38 329 241
0.013097399 0.74699998 -0.0013097399 9.6506346e-39 330 241
0.014407139 0.74699998 -0.0013097399 9.2818535e-39 331 241
0.015716879 0.74699998 -0.0013097399 8.9120004e-39 332 241
0.017026618 0.74699998 -0.0013097399 8.4510222e-39 333 241
0.018336359 0.74699998 -0.0013097399 8.3588392e-39 334 241
0.019646099 0.74699998 -0.0013097399 8.1748081e-39 335 241
0.020955838 0.74699998 -0.0013097399 7.3490131e-39 336 241
0.022265578 0.74699998 -0.0013097399 7.4412087e-39 337 241
0.023575317 0.74699998 -0.0013097399 7.0738682e-39 338 241
0.024951685 0.74900001 -0.0013132467 6.9816725e-39 339 241
0.026264934 0.74900001 -0.0013132467 6.9820257e-39 340 241
0.027578179 0.74900001 -0.0013132467 6.9820257e-39 341 241
0.028891427 0.74900001 -0.0013132467 7.9000191e-39 342 241
0.030204674 0.74900001 -0.0013132467 8.2684429e-39 343 241
0.031517919 0.74900001 -0.0013132467 9.5537769e-39 344 241
0.032831166 0.74900001 -0.0013132467 1.0383177e-38 345 241
0.034189999 0.75 -0.001315 1.0660472e-38 346 241
0.035505001 0.75 -0.001315 1.1213644e-38 347 241
0.036819998 0.75 -0.001315 1.1306916e-38 348 241
0.038236689 0.75199997 -0.0013185065 1.1399112e-38 349 241
0.039555199 0.75199997 -0.0013185065 1.020202e-38 350 241
0.040982414 0.75400001 -0.0013220133 8.9112815e-39 351 241
0.042304426 0.75400001 -0.0013220133 6.7061646e-39 352 241
0.043684296 0.755 -0.0013237667 6.7983603e-39 353 241
0.045008067 0.755 -0.0013237667 5.4233516e-39 354 241
0.04633183 0.755 -0.0013237667 5.7921341e-39 355 241
0.047655597 0.755 -0.0013237667 5.6131112e-39 356 241
0.048979364 0.755 -0.0013237667 6.4428733e-39 357 241
0.050303131 0.755 -0.0013237667 1.2807239e-38 358 241
0.051626898 0.755 -0.0013237667 1.6403227e-38 359 241
-0.022682872 0.76099998 -0.0026685731 1.4014471e-38 303 242
-0.021348584 0.76099998 -0.0026685731 1.437965e-38 304 242
-0.020014299 0.76099998 -0.0026685731 1.2351346e-38 305 242
-0.01863092 0.759 -0.00266156 9.1864573e-39 306 242
-0.017254554 0.75700003 -0.0026545466 7.4386878e-39 307 242
-0.015927281 0.75700003 -0.0026545466 9.4626785e-39 308 242
-0.014561433 0.755 -0.0026475333 1.0015852e-38 309 242
-0.013220133 0.75400001 -0.0026440267 1.0479739e-38 310 242
-0.01189812 0.75400001 -0.0026440267 1.1770478e-38 311 242
-0.010548052 0.75199997 -0.0026370131 1.1322471e-38 312 242
-0.0092049995 0.75 -0.00263 1.3166383e-38 313 242
-0.0078794798 0.74900001 -0.0026264933 1.2988106e-38 314 242
-0.0065662335 0.74900001 -0.0026264933 1.3540921e-38 315 242
-0.0052529867 0.74900001 -0.0026264933 1.2987727e-38 316 242
-0.0039397399 0.74900001 -0.0026264933 1.1604793e-38 317 242
-0.0026264933 0.74900001 -0.0026264933 1.2421583e-38 318 242
-0.0013097399 0.74699998 -0.0026194798 1.0946453e-38 319 242
0 0.74699998 -0.0026194798 1.0934563e-38 320 242
0.0013097399 0.74699998 -0.0026194798 1.0196998e-38 321 242
0.0026194798 0.74699998 -0.0026194798 1.0104079e-38 322 242
0.0039292197 0.74699998 -0.0026194798 1.0380308e-38 323 242
0.0052389596 0.74699998 -0.0026194798 9.6484962e-39 324 242
0.0065486995 0.74699998 -0.0026194798 9.8325274e-39 325 242
0.0078584393 0.74699998 -0.0026194798 1.0570796e-38 326 242
0.0091681797 0.74699998 -0.0026194798 1.0755187e-38 327 242
0.010477919 0.74699998 -0.0026194798 1.0666566e-38 328 242
0.011787659 0.74699998 -0.0026194798 1.0390339e-38 329 242
0.013097399 0.74699998 -0.0026194798 1.0573652e-38 330 242
0.014407139 0.74699998 -0.0026194798 1.0020478e-38 331 242
0.015716879 0.74699998 -0.0026194798 9.3718869e-39 332 242
0.017026618 0.74699998 -0.0026194798 9.0027485e-39 333 242
0.018336359 0.74699998 -0.0026194798 7.8099716e-39 334 242
0.019646099 0.74699998 -0.0026194798 7.6255804e-39 335 242
0.020955838 0.74699998 -0.0026194798 6.9816697e-39 336 242
0.022265578 0.74699998 -0.0026194798 6.9816697e-39 337 242
0.023575317 0.74699998 -0.0026194798 6.6143291e-39 338 242
0.024885058 0.74699998 -0.0026194798 6.6143291e-39 339 242
0.026264934 0.74900001 -0.0026264933 6.4310169e-39 340 242
0.027578179 0.74900001 -0.0026264933 6.4310169e-39 341 242
0.028891427 0.74900001 -0.0026264933 6.9816753e-39 342 242
0.030204674 0.74900001 -0.0026264933 7.2582622e-39 343 242
0.031517919 0.74900001 -0.0026264933 8.8201803e-39 344 242
0.032831166 0.74900001 -0.0026264933 9.6495808e-39 345 242
0.034189999 0.75 -0.00263 1.0753392e-38 346 242
0.035505001 0.75 -0.00263 1.1029979e-38 347 242
0.036819998 0.75 -0.00263 1.1030335e-38 348 242
0.038236689 0.75199997 -0.0026370131 1.0384965e-38 349 242
0.039555199 0.75199997 -0.0026370131 9.3719051e-39 350 242
0.040982414 0.75400001 -0.0026440267 8.3577546e-39 351 242
0.042304426 0.75400001 -0.0026440267 6.062956e-39 352 242
0.043684296 0.755 -0.0026475333 6.2477074e-39 353 242
0.045008067 0.755 -0.0026475333 5.1492786e-39 354 242
0.04633183 0.755 -0.0026475333 5.33403e-39 355 242
0.047655597 0.755 -0.0026475333 6.4439453e-39 356 242
0.048979364 0.755 -0.0026475333 8.7491947e-39 357 242
0.050303131 0.755 -0.0026475333 1.446604e-38 358 242
-0.022682872 0.76099998 -0.0040028598 1.3183993e-38 303 243
-0.021348584 0.76099998 -0.0040028598 1.4013755e-38 304 243
-0.020014299 0.76099998 -0.0040028598 1.3552777e-38 305 243
-0.018680012 0.76099998 -0.0040028598 8.9199444e-39 306 243
-0.017300138 0.759 -0.0039923396 5.4183055e-39 307 243
-0.015927281 0.75700003 -0.0039818203 9.2779285e-39 308 243
-0.014561433 0.755 -0.0039712996 9.646711e-39 309 243
-0.013220133 0.75400001 -0.00396604 9.4630582e-39 310 243
-0.01189812 0.75400001 -0.00396604 9.1868315e-39 311 243
-0.010548052 0.75199997 -0.0039555198 8.9178214e-39 312 243
-0.0092049995 0.75 -0.003945 1.1499299e-38 313 243
-0.00789 0.75 -0.003945 1.2157283e-38 314 243
-0.0065662335 0.74900001 -0.0039397399 1.4830956e-38 315 243
-0.0052529867 0.74900001 -0.0039397399 1.418918e-38 316 243
-0.0039397399 0.74900001 -0.0039397399 1.3820399e-38 317 243
-0.0026264933 0.74900001 -0.0039397399 1.4552908e-38 318 243
-0.0013097399 0.74699998 -0.0039292197 1.3814984e-38 319 243
0 0.74699998 -0.0039292197 1.1588956e-38 320 243
0.0013097399 0.74699998 -0.0039292197 1.002163e-38 321 243
0.0026194798 0.74699998 -0.0039292197 1.0108401e-38 322 243
0.0039292197 0.74699998 -0.0039292197 9.923651e-39 323 243
0.0052389596 0.74699998 -0.0039292197 9.5541454e-39 324 243
0.0065486995 0.74699998 -0.0039292197 8.8165804e-39 325 243
0.0078584393 0.74699998 -0.0039292197 9.4644679e-39 326 243
0.0091681797 0.74699998 -0.0039292197 1.0571176e-38 327 243
0.010477919 0.74699998 -0.0039292197 1.1130804e-38 328 243
0.011787659 0.74699998 -0.0039292197 1.0854576e-38 329 243
0.013097399 0.74699998 -0.0039292197 1.1130786e-38 330 243
0.014407139 0.74699998 -0.0039292197 1.0670166e-38 331 243
0.015716879 0.74699998 -0.0039292197 9.3772651e-39 332 243
0.017026618 0.74699998 -0.0039292197 8.7319055e-39 333 243
0.018336359 0.74699998 -0.0039292197 7.5376853e-39 334 243
0.019646099 0.74699998 -0.0039292197 7.1685497e-39 335 243
0.020955838 0.74699998 -0.0039292197 6.7987078e-39 336 243
0.022265578 0.74699998 -0.0039292197 6.6143151e-39 337 243
0.023575317 0.74699998 -0.0039292197 6.4310169e-39 338 243
0.024885058 0.74699998 -0.0039292197 6.4310169e-39 339 243
0.026264934 0.74900001 -0.0039397399 6.430298e-39 340 243
0.027578179 0.74900001 -0.0039397399 6.338101e-39 341 243
0.028891427 0.74900001 -0.0039397399 6.6136131e-39 342 243
0.030204674 0.74900001 -0.0039397399 7.0745898e-39 343 243
0.03156 0.75 -0.003945 8.6375841e-39 344 243
0.032874998 0.75 -0.003945 9.6513773e-39 345 243
0.034189999 0.75 -0.003945 1.0477525e-38 346 243
0.035599679 0.75199997 -0.0039555198 1.0662275e-38 347 243
0.036918186 0.75199997 -0.0039555198 1.0384614e-38 348 243
0.038236689 0.75199997 -0.0039555198 9.6470473e-39 349 243
0.039555199 0.75199997 -0.0039555198 7.9911357e-39 350 243
0.040982414 0.75400001 -0.00396604 7.5305163e-39 351 243
0.042360533 0.755 -0.0039712996 6.0629588e-39 352 243
0.043684296 0.755 -0.0039712996 6.2473515e-39 353 243
0.045008067 0.755 -0.0039712996 4.8762748e-39 354 243
0.04633183 0.755 -0.0039712996 5.152503e-39 355 243
0.04778184 0.75700003 -0.0039818203 7.7350344e-39 356 243
0.049109112 0.75700003 -0.0039818203 1.1607251e-38 357 243
0.050436385 0.75700003 -0.0039818203 1.5390151e-38 358 243
-0.02262326 0.759 -0.0053231199 1.2632619e-38 303 244
-0.02129248 0.759 -0.0053231199 1.3924804e-38 304 244
-0.020014299 0.76099998 -0.0053371461 1.4201389e-38 305 244
-0.01863092 0.759 -0.0053231199 1.0038894e-38 306 244
-0.017300138 0.759 -0.0053231199 4.4149604e-39 307 244
-0.015927281 0.75700003 -0.0053090933 8.9080684e-39 308 244
-0.014561433 0.755 -0.0052950666 9.7360354e-39 309 244
-0.013220133 0.75400001 -0.0052880533 9.553442e-39 310 244
-0.01189812 0.75400001 -0.0052880533 9.4612463e-39 311 244
-0.010548052 0.75199997 -0.0052740262 8.9124082e-39 312 244
-0.0092295464 0.75199997 -0.0052740262 9.7421688e-39 313 244
-0.00789 0.75 -0.00526 1.0589238e-38 314 244
-0.0065662335 0.74900001 -0.0052529867 1.3170715e-38 315 244
-0.0052529867 0.74900001 -0.0052529867 1.3167845e-38 316 244
-0.0039397399 0.74900001 -0.0052529867 1.3075649e-38 317 244
-0.0026264933 0.74900001 -0.0052529867 1.3266853e-38 318 244
-0.0013097399 0.74699998 -0.0052389596 1.3266853e-38 319 244
0 0.74699998 -0.0052389596 1.0947196e-38 320 244
0.0013097399 0.74699998 -0.0052389596 9.7486526e-39 321 244
0.0026194798 0.74699998 -0.0052389596 1.0203483e-38 322 244
0.0039292197 0.74699998 -0.0052389596 9.7425066e-39 323 244
0.0052389596 0.74699998 -0.0052389596 9.5563104e-39 324 244
0.0065486995 0.74699998 -0.0052389596 9.095691e-39 325 244
0.0078584393 0.74699998 -0.0052389596 9.0034954e-39 326 244
0.0091681797 0.74699998 -0.0052389596 9.5563104e-39 327 244
0.010477919 0.74699998 -0.0052389596 9.7468001e-39 328 244
0.011787659 0.74699998 -0.0052389596 1.0023387e-38 329 244
0.013097399 0.74699998 -0.0052389596 1.0391074e-38 330 244
0.014407139 0.74699998 -0.0052389596 1.0022291e-38 331 244
0.015716879 0.74699998 -0.0052389596 9.2840045e-39 332 244
0.017026618 0.74699998 -0.0052389596 8.6386351e-39 333 244
0.018336359 0.74699998 -0.0052389596 7.352585e-39 334 244
0.019646099 0.74699998 -0.0052389596 6.8916083e-39 335 244
0.020955838 0.74699998 -0.0052389596 6.6146823e-39 336 244
0.022265578 0.74699998 -0.0052389596 6.3384541e-39 337 244
0.023575317 0.74699998 -0.0052389596 6.3388241e-39 338 244
0.024885058 0.74699998 -0.0052389596 6.3388241e-39 339 244
0.026264934 0.74900001 -0.0052529867 6.2462683e-39 340 244
0.027578179 0.74900001 -0.0052529867 6.2462683e-39 341 244
0.028891427 0.74900001 -0.0052529867 6.3388241e-39 342 244
0.030204674 0.74900001 -0.0052529867 6.5232153e-39 343 244
0.03156 0.75 -0.00526 8.363158e-39 344 244
0.032874998 0.75 -0.00526 9.1929201e-39 345 244
0.034189999 0.75 -0.00526 1.0660124e-38 346 244
0.035599679 0.75199997 -0.0052740262 1.0383177e-38 347 244
0.036918186 0.75199997 -0.0052740262 9.4623001e-39 348 244
0.038236689 0.75199997 -0.0052740262 8.8169307e-39 349 244
0.039660402 0.75400001 -0.0052880533 6.7958365e-39 350 244
0.040982414 0.75400001 -0.0052880533 6.7958365e-39 351 244
0.042360533 0.755 -0.0052950666 5.6044988e-39 352 244
0.043684296 0.755 -0.0052950666 5.8810857e-39 353 244
0.045127295 0.75700003 -0.0053090933 5.3365285e-39 354 244
0.046454567 0.75700003 -0.0053090933 5.8897023e-39 355 244
0.04778184 0.75700003 -0.0053090933 8.6587928e-39 356 244
0.049109112 0.75700003 -0.0053090933 1.354516e-38 357 244
0.050436385 0.75700003 -0.0053090933 1.5667824e-38 358 244
-0.02262326 0.759 -0.0066538998 1.3185427e-38 303 245
-0.02129248 0.759 -0.0066538998 1.3833683e-38 304 245
-0.020014299 0.76099998 -0.0066714329 1.4571248e-38 305 245
-0.01863092 0.759 -0.0066538998 1.0780793e-38 306 245
-0.017300138 0.759 -0.0066538998 5.5256421e-39 307 245
-0.015927281 0.75700003 -0.0066363667 8.2652185e-39 308 245
-0.014561433 0.755 -0.0066188332 9.3679787e-39 309 245
-0.013220133 0.75400001 -0.0066100666 9.1864573e-39 310 245
-0.01189812 0.75400001 -0.0066100666 9.1864573e-39 311 245
-0.010576107 0.75400001 -0.0066100666 8.9102432e-39 312 245
-0.0092295464 0.75199997 -0.0065925326 9.0946344e-39 313 245
-0.00789 0.75 -0.006575 9.1994473e-39 314 245
-0.006575 0.75 -0.006575 1.104336e-38 315 245
-0.0052529867 0.74900001 -0.0065662335 1.1777702e-38 316 245
-0.0039397399 0.74900001 -0.0065662335 1.2054287e-38 317 245
-0.0026264933 0.74900001 -0.0065662335 1.1785244e-38 318 245
-0.0013097399 0.74699998 -0.0065486995 1.1785244e-38 319 245
0 0.74699998 -0.0065486995 1.0393659e-38 320 245
0.0013097399 0.74699998 -0.0065486995 9.7482897e-39 321 245
0.0026194798 0.74699998 -0.0065486995 1.0113087e-38 322 245
0.0039292197 0.74699998 -0.0065486995 9.8361399e-39 323 245
0.0052389596 0.74699998 -0.0065486995 9.7417737e-39 324 245
0.0065486995 0.74699998 -0.0065486995 9.3733513e-39 325 245
0.0078584393 0.74699998 -0.0065486995 8.9134619e-39 326 245
0.0091681797 0.74699998 -0.0065486995 8.4524838e-39 327 245
0.010477919 0.74699998 -0.0065486995 8.2713393e-39 328 245
0.011787659 0.74699998 -0.0065486995 8.5475661e-39 329 245
0.013097399 0.74699998 -0.0065486995 8.9156157e-39 330 245
0.014387853 0.74599999 -0.0065399334 8.8230614e-39 331 245
0.015695838 0.74599999 -0.0065399334 8.4539089e-39 332 245
0.017003827 0.74599999 -0.0065399334 8.0851278e-39 333 245
0.018336359 0.74699998 -0.0065486995 7.0749401e-39 334 245
0.019646099 0.74699998 -0.0065486995 6.706159e-39 335 245
0.020955838 0.74699998 -0.0065486995 6.3388184e-39 336 245
0.022265578 0.74699998 -0.0065486995 6.2466214e-39 337 245
0.023575317 0.74699998 -0.0065486995 6.155509e-39 338 245
0.024885058 0.74699998 -0.0065486995 6.063312e-39 339 245
0.026264934 0.74900001 -0.0065662335 6.0625903e-39 340 245
0.027578179 0.74900001 -0.0065662335 6.0625903e-39 341 245
0.028891427 0.74900001 -0.0065662335 5.788167e-39 342 245
0.030204674 0.74900001 -0.0065662335 6.0647553e-39 343 245
0.03156 0.75 -0.006575 7.5362756e-39 344 245
0.032874998 0.75 -0.006575 8.181645e-39 345 245
0.034189999 0.75 -0.006575 9.5570167e-39 346 245
0.035599679 0.75199997 -0.0065925326 9.1882342e-39 347 245
0.036918186 0.75199997 -0.0065925326 8.174455e-39 348 245
0.038236689 0.75199997 -0.0065925326 7.8060298e-39 349 245
0.039660402 0.75400001 -0.0066100666 6.2448278e-39 350 245
0.040982414 0.75400001 -0.0066100666 6.3366646e-39 351 245
0.042360533 0.755 -0.0066188332 5.0549152e-39 352 245
0.043684296 0.755 -0.0066188332 5.7002846e-39 353 245
0.045127295 0.75700003 -0.0066363667 5.7960605e-39 354 245
0.046454567 0.75700003 -0.0066363667 7.178995e-39 355 245
0.04778184 0.75700003 -0.0066363667 1.0960092e-38 356 245
0.049109112 0.75700003 -0.0066363667 1.6030852e-38 357 245
-0.02137664 0.76200002 -0.0080162399 1.337307e-38 304 246
-0.0200406 0.76200002 -0.0080162399 1.4295387e-38 305 246
-0.018680012 0.76099998 -0.0080057196 1.0507803e-38 306 246
-0.017300138 0.759 -0.0079846792 4.7916742e-39 307 246
-0.015927281 0.75700003 -0.0079636406 8.2652129e-39 308 246
-0.014561433 0.755 -0.0079425992 9.367257e-39 309 246
-0.013220133 0.75400001 -0.00793208 9.1860832e-39 310 246
-0.01189812 0.75400001 -0.00793208 9.0938875e-39 311 246
-0.010576107 0.75400001 -0.00793208 9.2761194e-39 312 246
-0.0092295464 0.75199997 -0.0079110395 9.7367388e-39 313 246
-0.0079110395 0.75199997 -0.0079110395 8.8212887e-39 314 246
-0.006575 0.75 -0.00789 9.5588538e-39 315 246
-0.00526 0.75 -0.00789 1.010773e-38 316 246
-0.0039397399 0.74900001 -0.0078794798 1.010773e-38 317 246
-0.0026264933 0.74900001 -0.0078794798 9.7443366e-39 318 246
-0.0013132467 0.74900001 -0.0078794798 1.0021282e-38 319 246
0 0.74900001 -0.0078794798 1.029714e-38 320 246
0.0013097399 0.74699998 -0.0078584393 1.0112749e-38 321 246
0.0026194798 0.74699998 -0.0078584393 1.020385e-38 322 246
0.0039292197 0.74699998 -0.0078584393 1.0019818e-38 323 246
0.0052319462 0.74599999 -0.0078479191 9.375882e-39 324 246
0.0065399334 0.74599999 -0.0078479191 9.0996539e-39 325 246
0.0078479191 0.74599999 -0.0078479191 8.4550047e-39 326 246
0.0091681797 0.74699998 -0.0078584393 8.2706121e-39 327 246
0.010463892 0.74599999 -0.0078479191 8.2680953e-39 328 246
0.011771879 0.74599999 -0.0078479191 7.9915085e-39 329 246
0.013097399 0.74699998 -0.0078584393 7.0735024e-39 330 246
0.014387853 0.74599999 -0.0078479191 6.9813068e-39 331 246
0.015695838 0.74599999 -0.0078479191 6.981304e-39 332 246
0.017003827 0.74599999 -0.0078479191 7.0734996e-39 333 246
0.018336359 0.74699998 -0.0078584393 6.7965582e-39 334 246
0.019646099 0.74699998 -0.0078584393 6.8887552e-39 335 246
0.020955838 0.74699998 -0.0078584393 6.3388212e-39 336 246
0.022265578 0.74699998 -0.0078584393 6.3388212e-39 337 246
0.023575317 0.74699998 -0.0078584393 6.2466242e-39 338 246
0.024885058 0.74699998 -0.0078584393 6.0625931e-39 339 246
0.026264934 0.74900001 -0.0078794798 5.6963217e-39 340 246
0.027578179 0.74900001 -0.0078794798 5.6963217e-39 341 246
0.028891427 0.74900001 -0.0078794798 5.6963217e-39 342 246
0.030204674 0.74900001 -0.0078794798 5.880713e-39 343 246
0.03156 0.75 -0.00789 7.4429996e-39 344 246
0.032874998 0.75 -0.00789 7.7195879e-39 345 246
0.034189999 0.75 -0.00789 9.0938875e-39 346 246
0.035599679 0.75199997 -0.0079110395 8.6332681e-39 347 246
0.036918186 0.75199997 -0.0079110395 6.9795033e-39 348 246
0.038338386 0.75400001 -0.00793208 6.8876664e-39 349 246
0.039660402 0.75400001 -0.00793208 5.7856461e-39 350 246
0.041036766 0.755 -0.0079425992 6.0615141e-39 351 246
0.042360533 0.755 -0.0079425992 5.2396638e-39 352 246
0.043800019 0.75700003 -0.0079636406 5.2396638e-39 353 246
0.045127295 0.75700003 -0.0079636406 6.2577589e-39 354 246
0.046454567 0.75700003 -0.0079636406 1.003778e-38 355 246
0.047908079 0.759 -0.0079846792 1.3451173e-38 356 246
-0.02137664 0.76200002 -0.0093522798 1.4476547e-38 304 247
-0.0200406 0.76200002 -0.0093522798 1.4753135e-38 305 247
-0.018680012 0.76099998 -0.0093400059 9.3985817e-39 306 247
-0.017300138 0.759 -0.00931546 4.8813559e-39 307 247
-0.015969358 0.759 -0.00931546 8.357054e-39 308 247
-0.014561433 0.755 -0.0092663663 8.9102278e-39 309 247
-0.013237666 0.755 -0.0092663663 9.1857174e-39 310 247
-0.01189812 0.75400001 -0.0092540924 8.9091291e-39 311 247
-0.010576107 0.75400001 -0.0092540924 8.9080712e-39 312 247
-0.0092295464 0.75199997 -0.0092295464 8.9080712e-39 313 247
-0.0079110395 0.75199997 -0.0092295464 8.6340108e-39 314 247
-0.0065925326 0.75199997 -0.0092295464 9.0949876e-39 315 247
-0.00526 0.75 -0.0092049995 9.6456418e-39 316 247
-0.003945 0.75 -0.0092049995 9.5534448e-39 317 247
-0.0026264933 0.74900001 -0.0091927266 9.4626925e-39 318 247
-0.0013132467 0.74900001 -0.0091927266 1.0108062e-38 319 247
0 0.74900001 -0.0091927266 9.5588538e-39 320 247
0.0013097399 0.74699998 -0.0091681797 9.8354393e-39 321 247
0.0026194798 0.74699998 -0.0091681797 9.5606474e-39 322 247
0.0039292197 0.74699998 -0.0091681797 9.3766163e-39 323 247
0.0052319462 0.74599999 -0.0091559067 9.0099764e-39 324 247
0.0065399334 0.74599999 -0.0091559067 8.6415526e-39 325 247
0.0078479191 0.74599999 -0.0091559067 8.4571557e-39 326 247
0.0091681797 0.74699998 -0.0091681797 8.1802101e-39 327 247
0.010463892 0.74599999 -0.0091559067 7.7199536e-39 328 247
0.011771879 0.74599999 -0.0091559067 7.4437269e-39 329 247
0.013097399 0.74699998 -0.0091681797 7.1667826e-39 330 247
0.014387853 0.74599999 -0.0091559067 6.7983603e-39 331 247
0.015695838 0.74599999 -0.0091559067 6.888758e-39 332 247
0.017003827 0.74599999 -0.0091559067 6.796561e-39 333 247
0.018336359 0.74699998 -0.0091681797 6.5214132e-39 334 247
0.019646099 0.74699998 -0.0091681797 6.5214132e-39 335 247
0.020955838 0.74699998 -0.0091681797 6.3388184e-39 336 247
0.022265578 0.74699998 -0.0091681797 6.3388184e-39 337 247
0.023575317 0.74699998 -0.0091681797 6.0625903e-39 338 247
0.024951685 0.74900001 -0.0091927266 5.9703947e-39 339 247
0.026264934 0.74900001 -0.0091927266 5.6963217e-39 340 247
0.027578179 0.74900001 -0.0091927266 5.6963217e-39 341 247
0.028891427 0.74900001 -0.0091927266 5.2378673e-39 342 247
0.030204674 0.74900001 -0.0091927266 5.4222599e-39 343 247
0.03156 0.75 -0.0092049995 6.3395499e-39 344 247
0.032874998 0.75 -0.0092049995 6.523581e-39 345 247
0.034189999 0.75 -0.0092049995 7.072799e-39 346 247
0.035599679 0.75199997 -0.0092295464 6.704015e-39 347 247
0.036918186 0.75199997 -0.0092295464 6.0611596e-39 348 247
0.038338386 0.75400001 -0.0092540924 5.9693227e-39 349 247
0.039660402 0.75400001 -0.0092540924 4.869089e-39 350 247
0.041036766 0.755 -0.0092663663 5.329707e-39 351 247
0.042360533 0.755 -0.0092663663 4.8751958e-39 352 247
0.043800019 0.75700003 -0.0092909131 5.7049565e-39 353 247
0.045246519 0.759 -0.00931546 7.5470558e-39 354 247
0.046577301 0.759 -0.00931546 1.2894402e-38 355 247
0.047908079 0.759 -0.00931546 1.4099781e-38 356 247
-0.02137664 0.76200002 -0.01068832 1.3921563e-38 304 248
-0.0200406 0.76200002 -0.01068832 1.2907411e-38 305 248
-0.018680012 0.76099998 -0.010674292 7.7325737e-39 306 248
-0.017345725 0.76099998 -0.010674292 5.8886611e-39 307 248
-0.015969358 0.759 -0.01064624 8.9148969e-39 308 248
-0.014600007 0.75700003 -0.010618187 8.9148969e-39 309 248
-0.013237666 0.755 -0.010590133 9.1885901e-39 310 248
-0.011913899 0.755 -0.010590133 8.8194488e-39 311 248
-0.010576107 0.75400001 -0.010576107 8.5407166e-39 312 248
-0.0092540924 0.75400001 -0.010576107 8.4488797e-39 313 248
-0.0079110395 0.75199997 -0.010548052 8.7243932e-39 314 248
-0.0065925326 0.75199997 -0.010548052 9.0006213e-39 315 248
-0.00526 0.75 -0.01052 9.2754201e-39 316 248
-0.003945 0.75 -0.01052 9.6438425e-39 317 248
-0.0026264933 0.74900001 -0.010505973 9.7374843e-39 318 248
-0.0013132467 0.74900001 -0.010505973 1.001407e-38 319 248
0 0.74900001 -0.010505973 9.6485271e-39 320 248
0.0013132467 0.74900001 -0.010505973 9.9251154e-39 321 248
0.0026194798 0.74699998 -0.010477919 9.3755345e-39 322 248
0.0039292197 0.74699998 -0.010477919 9.3755345e-39 323 248
0.0052389596 0.74699998 -0.010477919 8.7341154e-39 324 248
0.0065486995 0.74699998 -0.010477919 8.6419197e-39 325 248
0.0078584393 0.74699998 -0.010477919 8.0923361e-39 326 248
0.0091681797 0.74699998 -0.010477919 7.8157492e-39 327 248
0.010477919 0.74699998 -0.010477919 7.6309922e-39 328 248
0.011787659 0.74699998 -0.010477919 7.4465995e-39 329 248
0.013097399 0.74699998 -0.010477919 7.1692882e-39 330 248
0.014407139 0.74699998 -0.010477919 6.70831e-39 331 248
0.015716879 0.74699998 -0.010477919 6.7068681e-39 332 248
0.017026618 0.74699998 -0.010477919 6.5221167e-39 333 248
0.018336359 0.74699998 -0.010477919 6.4306497e-39 334 248
0.019646099 0.74699998 -0.010477919 6.4306497e-39 335 248
0.020955838 0.74699998 -0.010477919 6.4303008e-39 336 248
0.022265578 0.74699998 -0.010477919 6.2455494e-39 337 248
0.023575317 0.74699998 -0.010477919 5.9711163e-39 338 248
0.024951685 0.74900001 -0.010505973 5.9711163e-39 339 248
0.026264934 0.74900001 -0.010505973 5.5126535e-39 340 248
0.027578179 0.74900001 -0.010505973 5.4204579e-39 341 248
0.028891427 0.74900001 -0.010505973 5.4204579e-39 342 248
0.030204674 0.74900001 -0.010505973 5.6048491e-39 343 248
0.03156 0.75 -0.01052 6.2459054e-39 344 248
0.032874998 0.75 -0.01052 6.2459054e-39 345 248
0.034189999 0.75 -0.01052 6.8876776e-39 346 248
0.035599679 0.75199997 -0.010548052 6.7958407e-39 347 248
0.037016369 0.75400001 -0.010576107 5.5101452e-39 348 248
0.038338386 0.75400001 -0.010576107 5.5101452e-39 349 248
0.039712999 0.755 -0.010590133 4.9623692e-39 350 248
0.041036766 0.755 -0.010590133 5.3315119e-39 351 248
0.042360533 0.755 -0.010590133 5.4272948e-39 352 248
0.043800019 0.75700003 -0.010618187 7.2712074e-39 353 248
0.045246519 0.759 -0.01064624 8.7495619e-39 354 248
0.046577301 0.759 -0.01064624 1.363593e-38 355 248
-0.021573013 0.76899999 -0.012134819 9.9556987e-39 304 249
-0.0202247 0.76899999 -0.012134819 8.1117861e-39 305 249
-0.018680012 0.76099998 -0.012008579 7.8182855e-39 306 249
-0.017345725 0.76099998 -0.012008579 7.4498632e-39 307 249
-0.016011439 0.76099998 -0.012008579 9.3776673e-39 308 249
-0.014638579 0.759 -0.01197702 9.1010804e-39 309 249
-0.013272733 0.75700003 -0.01194546 9.0989126e-39 310 249
-0.011913899 0.755 -0.011913899 8.5457388e-39 311 249
-0.010590133 0.755 -0.011913899 8.5432375e-39 312 249
-0.0092540924 0.75400001 -0.01189812 8.174455e-39 313 249
-0.00793208 0.75400001 -0.01189812 8.3577728e-39 314 249
-0.0065925326 0.75199997 -0.011866559 8.2655772e-39 315 249
-0.0052740262 0.75199997 -0.011866559 8.8162371e-39 316 249
-0.003945 0.75 -0.011835 9.1835846e-39 317 249
-0.00263 0.75 -0.011835 9.2772278e-39 318 249
-0.001315 0.75 -0.011835 9.4616205e-39 319 249
0 0.74900001 -0.01181922 9.2804648e-39 320 249
0.0013132467 0.74900001 -0.01181922 9.5574118e-39 321 249
0.0026194798 0.74699998 -0.011787659 9.0074723e-39 322 249
0.0039292197 0.74699998 -0.011787659 9.1000266e-39 323 249
0.0052389596 0.74699998 -0.011787659 8.6419197e-39 324 249
0.0065486995 0.74699998 -0.011787659 8.7341154e-39 325 249
0.0078584393 0.74699998 -0.011787659 8.2760085e-39 326 249
0.0091681797 0.74699998 -0.011787659 8.1838128e-39 327 249
0.010477919 0.74699998 -0.011787659 7.9986957e-39 328 249
0.011787659 0.74699998 -0.011787659 7.8143045e-39 329 249
0.013097399 0.74699998 -0.011787659 7.2621999e-39 330 249
0.014407139 0.74699998 -0.011787659 6.8015804e-39 331 249
0.015716879 0.74699998 -0.011787659 6.4320763e-39 332 249
0.017026618 0.74699998 -0.011787659 6.0632951e-39 333 249
0.018336359 0.74699998 -0.011787659 6.2455396e-39 334 249
0.019646099 0.74699998 -0.011787659 6.2455396e-39 335 249
0.020955838 0.74699998 -0.011787659 6.5206972e-39 336 249
0.022265578 0.74699998 -0.011787659 6.5206972e-39 337 249
0.023575317 0.74699998 -0.011787659 6.063312e-39 338 249
0.024951685 0.74900001 -0.01181922 5.9711163e-39 339 249
0.026264934 0.74900001 -0.01181922 5.5119374e-39 340 249
0.027578179 0.74900001 -0.01181922 5.3275462e-39 341 249
0.028891427 0.74900001 -0.01181922 5.3271903e-39 342 249
0.030244999 0.75 -0.011835 5.3271903e-39 343 249
0.03156 0.75 -0.011835 5.7856517e-39 344 249
0.032874998 0.75 -0.011835 5.9693241e-39 345 249
0.034281172 0.75199997 -0.011866559 5.6938162e-39 346 249
0.035599679 0.75199997 -0.011866559 5.6938162e-39 347 249
0.037016369 0.75400001 -0.01189812 4.868733e-39 348 249
0.038338386 0.75400001 -0.01189812 5.1453185e-39 349 249
0.039712999 0.755 -0.011913899 4.6904584e-39 350 249
0.041036766 0.755 -0.011913899 5.2436322e-39 351 249
0.042360533 0.755 -0.011913899 5.3383432e-39 352 249
0.043800019 0.75700003 -0.01194546 8.3807976e-39 353 249
0.045127295 0.75700003 -0.01194546 1.1145575e-38 354 249
-0.0202247 0.76899999 -0.013483133 5.2468664e-39 305 250
-0.018680012 0.76099998 -0.013342866 8.4611214e-39 306 250
-0.017345725 0.76099998 -0.013342866 8.8299039e-39 307 250
-0.016011439 0.76099998 -0.013342866 9.1954396e-39 308 250
-0.014638579 0.759 -0.0133078 8.8270172e-39 309 250
-0.013272733 0.75700003 -0.013272733 8.7330167e-39 310 250
-0.011913899 0.755 -0.013237666 8.27204e-39 311 250
-0.010590133 0.755 -0.013237666 8.1780479e-39 312 250
-0.0092540924 0.75400001 -0.013220133 7.9014624e-39 313 250
-0.00793208 0.75400001 -0.013220133 8.174455e-39 314 250
-0.0065925326 0.75199997 -0.013185065 7.9900637e-39 315 250
-0.0052740262 0.75199997 -0.013185065 8.7243918e-39 316 250
-0.0039555198 0.75199997 -0.013185065 8.9080655e-39 317 250
-0.00263 0.75 -0.01315 9.0009913e-39 318 250
-0.001315 0.75 -0.01315 9.1853825e-39 319 250
0 0.75 -0.01315 8.9120396e-39 320 250
0.0013132467 0.74900001 -0.013132467 9.2808207e-39 321 250
0.0026264933 0.74900001 -0.013132467 8.6408477e-39 322 250
0.0039397399 0.74900001 -0.013132467 8.8248789e-39 323 250
0.0052389596 0.74699998 -0.013097399 8.551166e-39 324 250
0.0065486995 0.74699998 -0.013097399 8.6433617e-39 325 250
0.0078584393 0.74699998 -0.013097399 8.276377e-39 326 250
0.0091681797 0.74699998 -0.013097399 8.0919858e-39 327 250
0.010477919 0.74699998 -0.013097399 8.0912599e-39 328 250
0.011787659 0.74699998 -0.013097399 7.6306419e-39 329 250
0.013097399 0.74699998 -0.013097399 7.2622055e-39 330 250
0.014407139 0.74699998 -0.013097399 6.8012273e-39 331 250
0.015716879 0.74699998 -0.013097399 6.6150326e-39 332 250
0.017026618 0.74699998 -0.013097399 6.1544132e-39 333 250
0.018336359 0.74699998 -0.013097399 6.4284889e-39 334 250
0.019646099 0.74699998 -0.013097399 6.6121613e-39 335 250
0.020955838 0.74699998 -0.013097399 6.2451865e-39 336 250
0.022325192 0.74900001 -0.013132467 6.4292176e-39 337 250
0.02363844 0.74900001 -0.013132467 6.0625931e-39 338 250
0.024984999 0.75 -0.01315 5.9703975e-39 339 250
0.0263 0.75 -0.01315 5.6030541e-39 340 250
0.027615 0.75 -0.01315 5.2346303e-39 341 250
0.028929999 0.75 -0.01315 5.3264686e-39 342 250
0.030244999 0.75 -0.01315 5.3264686e-39 343 250
0.031644158 0.75199997 -0.013185065 5.6019751e-39 344 250
0.032962665 0.75199997 -0.013185065 5.7856475e-39 345 250
0.034281172 0.75199997 -0.013185065 5.4183013e-39 346 250
0.035694357 0.75400001 -0.013220133 5.6023352e-39 347 250
0.037016369 0.75400001 -0.013220133 4.9630755e-39 348 250
0.038389232 0.755 -0.013237666 5.3318594e-39 349 250
0.039712999 0.755 -0.013237666 5.061036e-39 350 250
0.041036766 0.755 -0.013237666 5.6142098e-39 351 250
0.042472746 0.75700003 -0.013272733 6.0787837e-39 352 250
0.043915741 0.759 -0.0133078 1.0319424e-38 353 250
-0.0200406 0.76200002 -0.01469644 7.2708375e-39 305 251
-0.01870456 0.76200002 -0.01469644 8.5547436e-39 306 251
-0.01736852 0.76200002 -0.01469644 8.9231659e-39 307 251
-0.016011439 0.76099998 -0.014677152 8.8299011e-39 308 251
-0.014677152 0.76099998 -0.014677152 8.368923e-39 309 251
-0.0133078 0.759 -0.014638579 8.366758e-39 310 251
-0.01197702 0.759 -0.014638579 7.9976167e-39 311 251
-0.010618187 0.75700003 -0.014600007 7.9047008e-39 312 251
-0.0092663663 0.755 -0.014561433 7.7203096e-39 313 251
-0.00793208 0.75400001 -0.014542146 8.0847775e-39 314 251
-0.0066100666 0.75400001 -0.014542146 7.9003848e-39 315 251
-0.0052880533 0.75400001 -0.014542146 8.6336339e-39 316 251
-0.0039555198 0.75199997 -0.014503572 8.6336339e-39 317 251
-0.0026370131 0.75199997 -0.014503572 8.7258323e-39 318 251
-0.0013185065 0.75199997 -0.014503572 8.8180293e-39 319 251
0 0.75 -0.014465 8.7272812e-39 320 251
0.001315 0.75 -0.014465 9.095705e-39 321 251
0.0026264933 0.74900001 -0.014445714 8.5475689e-39 322 251
0.0039397399 0.74900001 -0.014445714 8.7319602e-39 323 251
0.0052389596 0.74699998 -0.014407139 8.4593263e-39 324 251
0.0065486995 0.74699998 -0.014407139 8.551522e-39 325 251
0.0078584393 0.74699998 -0.014407139 8.1841786e-39 326 251
0.0091681797 0.74699998 -0.014407139 8.091983e-39 327 251
0.010477919 0.74699998 -0.014407139 8.1823793e-39 328 251
0.011787659 0.74699998 -0.014407139 7.7214026e-39 329 251
0.013097399 0.74699998 -0.014407139 7.3522529e-39 330 251
0.014407139 0.74699998 -0.014407139 6.9834704e-39 331 251
0.015716879 0.74699998 -0.014407139 6.6150382e-39 332 251
0.017026618 0.74699998 -0.014407139 6.0618644e-39 333 251
0.018336359 0.74699998 -0.014407139 6.3366492e-39 334 251
0.019646099 0.74699998 -0.014407139 6.4284861e-39 335 251
0.021011947 0.74900001 -0.014445714 6.1537041e-39 336 251
0.022325192 0.74900001 -0.014445714 6.2462585e-39 337 251
0.02363844 0.74900001 -0.014445714 5.9711135e-39 338 251
0.024984999 0.75 -0.014465 5.8789179e-39 339 251
0.0263 0.75 -0.014465 5.602338e-39 340 251
0.027615 0.75 -0.014465 5.4183041e-39 341 251
0.028929999 0.75 -0.014465 5.4183013e-39 342 251
0.030244999 0.75 -0.014465 5.4183013e-39 343 251
0.031644158 0.75199997 -0.014503572 5.326463e-39 344 251
0.032962665 0.75199997 -0.014503572 5.5101368e-39 345 251
0.034372345 0.75400001 -0.014542146 5.0516796e-39 346 251
0.035694357 0.75400001 -0.014542146 5.5126563e-39 347 251
0.037016369 0.75400001 -0.014542146 4.9645188e-39 348 251
0.038389232 0.755 -0.014561433 5.6098882e-39 349 251
0.039818201 0.75700003 -0.014600007 5.4316136e-39 350 251
0.041145474 0.75700003 -0.014600007 6.9067437e-39 351 251
0.042697169 0.76099998 -0.014677152 8.1982042e-39 352 251
0.044089317 0.76200002 -0.01469644 1.2807986e-38 353 251
-0.018753653 0.764 -0.016074561 9.0153518e-39 306 252
-0.017414106 0.764 -0.016074561 9.1075474e-39 307 252
-0.01603248 0.76200002 -0.01603248 8.7377027e-39 308 252
-0.014677152 0.76099998 -0.016011439 8.3692789e-39 309 252
-0.013342866 0.76099998 -0.016011439 8.0926892e-39 310 252
-0.012008579 0.76099998 -0.016011439 7.8161023e-39 311 252
-0.01064624 0.759 -0.015969358 7.9068532e-39 312 252
-0.0092663663 0.755 -0.015885198 7.8146576e-39 313 252
-0.0079425992 0.755 -0.015885198 8.0872844e-39 314 252
-0.0066188332 0.755 -0.015885198 8.0872844e-39 315 252
-0.0052880533 0.75400001 -0.01586416 8.4524684e-39 316 252
-0.00396604 0.75400001 -0.01586416 8.4524684e-39 317 252
-0.0026440267 0.75400001 -0.01586416 8.5425172e-39 318 252
-0.0013185065 0.75199997 -0.015822079 8.358126e-39 319 252
0 0.75199997 -0.015822079 8.1744732e-39 320 252
0.0013185065 0.75199997 -0.015822079 8.4510615e-39 321 252
0.00263 0.75 -0.01578 7.8110955e-39 322 252
0.0039397399 0.74900001 -0.01575896 8.0880425e-39 323 252
0.0052529867 0.74900001 -0.01575896 7.6303014e-39 324 252
0.0065662335 0.74900001 -0.01575896 7.8150513e-39 325 252
0.0078794798 0.74900001 -0.01575896 7.6324565e-39 326 252
0.0091927266 0.74900001 -0.01575896 7.5402595e-39 327 252
0.010505973 0.74900001 -0.01575896 7.6299356e-39 328 252
0.011787659 0.74699998 -0.015716879 7.2611517e-39 329 252
0.013097399 0.74699998 -0.015716879 6.9838375e-39 330 252
0.014407139 0.74699998 -0.015716879 6.5232181e-39 331 252
0.015716879 0.74699998 -0.015716879 6.5217636e-39 332 252
0.017026618 0.74699998 -0.015716879 6.2455368e-39 333 252
0.018385453 0.74900001 -0.01575896 6.1533384e-39 334 252
0.0196987 0.74900001 -0.01575896 6.0611427e-39 335 252
0.021011947 0.74900001 -0.01575896 5.878199e-39 336 252
0.022325192 0.74900001 -0.01575896 5.9703947e-39 337 252
0.02363844 0.74900001 -0.01575896 5.6945308e-39 338 252
0.024984999 0.75 -0.01578 5.6945308e-39 339 252
0.0263 0.75 -0.01578 5.6023352e-39 340 252
0.027615 0.75 -0.01578 5.3264644e-39 341 252
0.028929999 0.75 -0.01578 5.2346317e-39 342 252
0.030244999 0.75 -0.01578 5.1427948e-39 343 252
0.031644158 0.75199997 -0.015822079 5.1427934e-39 344 252
0.033050332 0.75400001 -0.01586416 5.4183041e-39 345 252
0.034372345 0.75400001 -0.01586416 4.9623566e-39 346 252
0.035694357 0.75400001 -0.01586416 5.5151716e-39 347 252
0.037065465 0.755 -0.015885198 5.4276479e-39 348 252
0.038389232 0.755 -0.015885198 6.0730173e-39 349 252
0.039818201 0.75700003 -0.015927281 6.2617274e-39 350 252
0.041362885 0.76099998 -0.016011439 8.6588138e-39 351 252
0.042697169 0.76099998 -0.016011439 1.0869361e-38 352 252
-0.018753653 0.764 -0.017414106 9.5699675e-39 306 253
-0.017414106 0.764 -0.017414106 9.0167951e-39 307 253
-0.016074561 0.764 -0.017414106 8.3743138e-39 308 253
-0.01469644 0.76200002 -0.01736852 7.6367487e-39 309 253
-0.0133604 0.76200002 -0.01736852 7.5427622e-39 310 253
-0.012008579 0.76099998 -0.017345725 7.3580108e-39 311 253
-0.010674292 0.76099998 -0.017345725 7.7242752e-39 312 253
-0.00931546 0.759 -0.017300138 7.4480485e-39 313 253
-0.0079636406 0.75700003 -0.017254554 7.9976223e-39 314 253
-0.0066188332 0.755 -0.017208965 7.9976223e-39 315 253
-0.0052950666 0.755 -0.017208965 8.3631608e-39 316 253
-0.00396604 0.75400001 -0.017186172 8.0865753e-39 317 253
-0.0026440267 0.75400001 -0.017186172 8.3606413e-39 318 253
-0.0013220133 0.75400001 -0.017186172 7.9922175e-39 319 253
0 0.75199997 -0.017140586 8.1751794e-39 320 253
0.0013185065 0.75199997 -0.017140586 7.8063983e-39 321 253
0.0026370131 0.75199997 -0.017140586 7.6241735e-39 322 253
0.003945 0.75 -0.017095 7.8085661e-39 323 253
0.00526 0.75 -0.017095 7.3508278e-39 324 253
0.0065662335 0.74900001 -0.017072206 7.4430234e-39 325 253
0.0078794798 0.74900001 -0.017072206 7.3533445e-39 326 253
0.0091927266 0.74900001 -0.017072206 7.1689533e-39 327 253
0.010505973 0.74900001 -0.017072206 7.2579091e-39 328 253
0.01181922 0.74900001 -0.017072206 6.9813222e-39 329 253
0.013132467 0.74900001 -0.017072206 6.9795201e-39 330 253
0.014445714 0.74900001 -0.017072206 6.7040108e-39 331 253
0.01575896 0.74900001 -0.017072206 6.5203328e-39 332 253
0.017072206 0.74900001 -0.017072206 6.5203328e-39 333 253
0.018385453 0.74900001 -0.017072206 6.1529852e-39 334 253
0.0196987 0.74900001 -0.017072206 6.1529852e-39 335 253
0.021011947 0.74900001 -0.017072206 5.7856433e-39 336 253
0.022355 0.75 -0.017095 5.9693157e-39 337 253
0.023669999 0.75 -0.017095 5.7856489e-39 338 253
0.024984999 0.75 -0.017095 5.7856489e-39 339 253
0.0263 0.75 -0.017095 5.4183041e-39 340 253
0.027688639 0.75199997 -0.017140586 5.2346303e-39 341 253
0.029007144 0.75199997 -0.017140586 4.959121e-39 342 253
0.030325651 0.75199997 -0.017140586 5.1427934e-39 343 253
0.031644158 0.75199997 -0.017140586 4.6836215e-39 344 253
0.033050332 0.75400001 -0.017186172 5.2367953e-39 345 253
0.034372345 0.75400001 -0.017186172 4.9645216e-39 346 253
0.035741698 0.755 -0.017208965 5.7942823e-39 347 253
0.037065465 0.755 -0.017208965 5.5220114e-39 348 253
0.038490929 0.75700003 -0.017254554 6.6283575e-39 349 253
0.0399234 0.759 -0.017300138 7.8294231e-39 350 253
0.041362885 0.76099998 -0.017345725 1.105627e-38 351 253
0.042697169 0.76099998 -0.017345725 1.2991298e-38 352 253
-0.017414106 0.764 -0.018753653 8.5590568e-39 307 254
-0.016074561 0.764 -0.018753653 8.5572603e-39 308 254
-0.01469644 0.76200002 -0.01870456 8.0962835e-39 309 254
-0.0133604 0.76200002 -0.01870456 7.8186261e-39 310 254
-0.012008579 0.76099998 -0.018680012 7.6338761e-39 311 254
-0.010674292 0.76099998 -0.018680012 7.7242752e-39 312 254
-0.00931546 0.759 -0.01863092 7.7242752e-39 313 254
-0.0079846792 0.759 -0.01863092 8.0898151e-39 314 254
-0.0066363667 0.75700003 -0.018581826 8.0898151e-39 315 254
-0.0053090933 0.75700003 -0.018581826 8.3645944e-39 316 254
-0.0039712996 0.755 -0.018532733 8.179843e-39 317 254
-0.0026475333 0.755 -0.018532733 8.5461017e-39 318 254
-0.0013220133 0.75400001 -0.018508185 8.1776794e-39 319 254
0 0.75400001 -0.018508185 8.0851306e-39 320 254
0.0013220133 0.75400001 -0.018508185 7.9007379e-39 321 254
0.0026440267 0.75400001 -0.018508185 7.3490257e-39 322 254
0.0039555198 0.75199997 -0.018459093 7.2568301e-39 323 254
0.0052740262 0.75199997 -0.018459093 6.7980226e-39 324 254
0.006575 0.75 -0.018409999 6.8902182e-39 325 254
0.00789 0.75 -0.018409999 6.8909342e-39 326 254
0.0092049995 0.75 -0.018409999 6.7069031e-39 327 254
0.010505973 0.74900001 -0.018385453 6.8880518e-39 328 254
0.01181922 0.74900001 -0.018385453 6.7958547e-39 329 254
0.013132467 0.74900001 -0.018385453 6.4285058e-39 330 254
0.014445714 0.74900001 -0.018385453 6.244832e-39 331 254
0.01575896 0.74900001 -0.018385453 6.061154e-39 332 254
0.017072206 0.74900001 -0.018385453 6.061154e-39 333 254
0.018385453 0.74900001 -0.018385453 5.9693171e-39 334 254
0.0196987 0.74900001 -0.018385453 5.9693171e-39 335 254
0.021011947 0.74900001 -0.018385453 5.7856489e-39 336 254
0.022355 0.75 -0.018409999 5.6938106e-39 337 254
0.023669999 0.75 -0.018409999 5.8774816e-39 338 254
0.024984999 0.75 -0.018409999 5.6019723e-39 339 254
0.0263 0.75 -0.018409999 5.5101354e-39 340 254
0.027688639 0.75199997 -0.018459093 5.5101354e-39 341 254
0.029007144 0.75199997 -0.018459093 5.0509593e-39 342 254
0.030325651 0.75199997 -0.018459093 5.4183069e-39 343 254
0.031644158 0.75199997 -0.018459093 5.0541963e-39 344 254
0.033050332 0.75400001 -0.018508185 5.5151744e-39 345 254
0.034372345 0.75400001 -0.018508185 5.5198436e-39 346 254
0.035741698 0.755 -0.018532733 6.0730173e-39 347 254
0.037065465 0.755 -0.018532733 6.0766271e-39 348 254
0.038490929 0.75700003 -0.018581826 7.6443115e-39 349 254
0.0399234 0.759 -0.01863092 9.6751363e-39 350 254
0.041362885 0.76099998 -0.018680012 1.2256614e-38 351 254
-0.017414106 0.764 -0.020093199 8.8396079e-39 307 255
-0.016074561 0.764 -0.020093199 8.8342045e-39 308 255
-0.014735013 0.764 -0.020093199 8.4650619e-39 309 255
-0.0133604 0.76200002 -0.0200406 8.2796014e-39 310 255
-0.01202436 0.76200002 -0.0200406 7.8186233e-39 311 255
-0.01068832 0.76200002 -0.0200406 7.9086679e-39 312 255
