# .PCD v.7 - Point Cloud Data file format
FIELDS x y z rgb imX imY
SIZE 4 4 4 4 4 4
TYPE F F F F F F
COUNT 1 1 1 1 1 1
WIDTH 833
HEIGHT 1
VIEWPOINT 0 0 0 1 0 0 0
POINTS 833
DATA ascii
-0.025884461 0.70300001 0.0024651866 1.5666573e-38 299 238
-0.024651866 0.70300001 0.0024651866 1.5665851e-38 300 238
-0.023352645 0.70099998 0.0024581731 1.5758406e-38 301 238
-0.022123558 0.70099998 0.0024581731 1.5940643e-38 302 238
-0.020954086 0.70300001 0.0024651866 1.5940643e-38 303 238
-0.019665385 0.70099998 0.0024581731 1.6215438e-38 304 238
-0.018436298 0.70099998 0.0024581731 1.6123242e-38 305 238
-0.017182667 0.69999999 0.0024546667 1.63966e-38 306 238
-0.015955333 0.69999999 0.0024546667 1.6304405e-38 307 238
-0.01468592 0.69800001 0.0024476533 1.5935626e-38 308 238
-0.013462093 0.69800001 0.0024476533 1.5843429e-38 309 238
-0.012238266 0.69800001 0.0024476533 1.5845226e-38 310 238
-0.01101444 0.69800001 0.0024476533 1.5937421e-38 311 238
-0.0097906133 0.69800001 0.0024476533 1.5938496e-38 312 238
-0.0085667865 0.69800001 0.0024476533 1.6030692e-38 313 238
-0.0073429602 0.69800001 0.0024476533 1.6216159e-38 314 238
-0.006119133 0.69800001 0.0024476533 1.6031409e-38 315 238
-0.0048953067 0.69800001 0.0024476533 1.5664435e-38 316 238
-0.0036714801 0.69800001 0.0024476533 1.5848466e-38 317 238
-0.0024476533 0.69800001 0.0024476533 1.5756999e-38 318 238
-0.0012238267 0.69800001 0.0024476533 1.5756999e-38 319 238
0 0.69800001 0.0024476533 1.5665151e-38 320 238
0.0012238267 0.69800001 0.0024476533 1.5388562e-38 321 238
0.0024476533 0.69800001 0.0024476533 1.5111977e-38 322 238
0.0036714801 0.69800001 0.0024476533 1.4927586e-38 323 238
0.0048953067 0.69800001 0.0024476533 1.4742484e-38 324 238
0.0061366665 0.69999999 0.0024546667 1.4558453e-38 325 238
0.0073639993 0.69999999 0.0024546667 1.4465907e-38 326 238
0.0086036054 0.70099998 0.0024581731 1.4373711e-38 327 238
0.0098607466 0.70300001 0.0024651866 1.418969e-38 328 238
0.01109334 0.70300001 0.0024651866 1.4097494e-38 329 238
0.012343466 0.704 0.0024686933 1.4187891e-38 330 238
0.013577812 0.704 0.0024686933 1.4187891e-38 331 238
0.014812159 0.704 0.0024686933 1.4095332e-38 332 238
0.016046507 0.704 0.0024686933 1.4002778e-38 333 238
0.017280852 0.704 0.0024686933 1.4001701e-38 334 238
0.018567799 0.70599997 0.0024757064 1.3632919e-38 335 238
0.019805651 0.70599997 0.0024757064 1.3722613e-38 336 238
0.021073313 0.70700002 0.0024792133 1.3630418e-38 337 238
0.022344479 0.708 0.00248272 1.3721913e-38 338 238
0.023652466 0.70999998 0.0024897333 1.3906304e-38 339 238
0.024932399 0.71100003 0.0024932399 1.3540765e-38 340 238
0.026179021 0.71100003 0.0024932399 1.3540765e-38 341 238
0.027618507 0.71600002 0.0025107733 1.3448582e-38 342 238
0.028873893 0.71600002 0.0025107733 1.3448582e-38 343 238
0.030171359 0.71700001 0.0025142799 1.2345875e-38 344 238
-0.045572639 0.722 0.0012659066 1.5211553e-38 284 239
-0.044183999 0.72000003 0.0012624001 1.4750575e-38 285 239
-0.042921603 0.72000003 0.0012624001 1.4750868e-38 286 239
-0.041601337 0.71899998 0.0012606466 1.3552683e-38 287 239
-0.040228479 0.71700001 0.00125714 1.5299671e-38 288 239
-0.038916986 0.71600002 0.0012553866 1.5484062e-38 289 239
-0.037556399 0.71399999 0.00125188 1.5760997e-38 290 239
-0.036253672 0.713 0.0012501266 1.5576964e-38 291 239
-0.034905359 0.71100003 0.00124662 1.5853527e-38 292 239
-0.033611398 0.70999998 0.0012448666 1.5300353e-38 293 239
-0.03227536 0.708 0.00124136 1.5484369e-38 294 239
-0.030990168 0.70700002 0.0012396066 1.5299976e-38 295 239
-0.029624319 0.704 0.0012343467 1.5575474e-38 296 239
-0.028389972 0.704 0.0012343467 1.548292e-38 297 239
-0.027117053 0.70300001 0.0012325933 1.5575106e-38 298 239
-0.025810819 0.70099998 0.0012290865 1.5575106e-38 299 239
-0.024581732 0.70099998 0.0012290865 1.5941368e-38 300 239
-0.023352645 0.70099998 0.0012290865 1.5941368e-38 301 239
-0.022123558 0.70099998 0.0012290865 1.5940293e-38 302 239
-0.020894472 0.70099998 0.0012290865 1.5848097e-38 303 239
-0.019665385 0.70099998 0.0012290865 1.6030695e-38 304 239
-0.018409999 0.69999999 0.0012273333 1.5845945e-38 305 239
-0.017182667 0.69999999 0.0012273333 1.5385325e-38 306 239
-0.015909746 0.69800001 0.0012238267 1.510838e-38 307 239
-0.01468592 0.69800001 0.0012238267 1.5200575e-38 308 239
-0.013462093 0.69800001 0.0012238267 1.5200575e-38 309 239
-0.012238266 0.69800001 0.0012238267 1.5568282e-38 310 239
-0.01101444 0.69800001 0.0012238267 1.5660479e-38 311 239
-0.0097765867 0.69700003 0.0012220733 1.5111977e-38 312 239
-0.0085545136 0.69700003 0.0012220733 1.5111977e-38 313 239
-0.0073429602 0.69800001 0.0012238267 1.5204528e-38 314 239
-0.006119133 0.69800001 0.0012238267 1.5204528e-38 315 239
-0.0048953067 0.69800001 0.0012238267 1.5388206e-38 316 239
-0.0036714801 0.69800001 0.0012238267 1.5572958e-38 317 239
-0.0024476533 0.69800001 0.0012238267 1.56648e-38 318 239
-0.0012238267 0.69800001 0.0012238267 1.6033223e-38 319 239
0 0.69800001 0.0012238267 1.5666951e-38 320 239
0.0012238267 0.69800001 0.0012238267 1.5390006e-38 321 239
0.0024476533 0.69800001 0.0012238267 1.4929386e-38 322 239
0.0036714801 0.69800001 0.0012238267 1.4652441e-38 323 239
0.0048953067 0.69800001 0.0012238267 1.4559172e-38 324 239
0.006119133 0.69800001 0.0012238267 1.4466976e-38 325 239
0.0073639993 0.69999999 0.0012273333 1.4190393e-38 326 239
0.0085913334 0.69999999 0.0012273333 1.4190393e-38 327 239
0.0098326923 0.70099998 0.0012290865 1.4188961e-38 328 239
0.011061779 0.70099998 0.0012290865 1.4188961e-38 329 239
0.012325933 0.70300001 0.0012325933 1.4279363e-38 330 239
0.013558527 0.70300001 0.0012325933 1.4095332e-38 331 239
0.014812159 0.704 0.0012343467 1.400278e-38 332 239
0.016046507 0.704 0.0012343467 1.3910585e-38 333 239
0.017280852 0.704 0.0012343467 1.4001348e-38 334 239
0.018515198 0.704 0.0012343467 1.3632924e-38 335 239
0.019805651 0.70599997 0.0012378532 1.3722613e-38 336 239
0.021043506 0.70599997 0.0012378532 1.3630418e-38 337 239
0.022312919 0.70700002 0.0012396066 1.3446758e-38 338 239
0.023585839 0.708 0.00124136 1.3446758e-38 339 239
0.024897331 0.70999998 0.0012448666 1.3356007e-38 340 239
0.026142199 0.70999998 0.0012448666 1.3356007e-38 341 239
0.027425639 0.71100003 0.00124662 1.3356019e-38 342 239
0.028793238 0.71399999 0.00125188 1.3356019e-38 343 239
0.030171359 0.71700001 0.00125714 1.2802162e-38 344 239
-0.046838548 0.722 -0 1.4659831e-38 283 240
-0.045446403 0.72000003 -0 1.4659811e-38 284 240
-0.044183999 0.72000003 -0 1.429067e-38 285 240
-0.042921603 0.72000003 -0 1.4749057e-38 286 240
-0.041601337 0.71899998 -0 1.4011491e-38 287 240
-0.040228479 0.71700001 -0 1.4840489e-38 288 240
-0.038808275 0.71399999 -0 1.520927e-38 289 240
-0.037503798 0.713 -0 1.5486562e-38 290 240
-0.036151983 0.71100003 -0 1.5670952e-38 291 240
-0.034856264 0.70999998 -0 1.5945346e-38 292 240
-0.033516716 0.708 -0 1.5576923e-38 293 240
-0.032229774 0.70700002 -0 1.5392522e-38 294 240
-0.030946331 0.70599997 -0 1.5300327e-38 295 240
-0.029624319 0.704 -0 1.5116296e-38 296 240
-0.028349647 0.70300001 -0 1.5300327e-38 297 240
-0.027039904 0.70099998 -0 1.5483629e-38 298 240
-0.025810819 0.70099998 -0 1.5299239e-38 299 240
-0.024546666 0.69999999 -0 1.5757699e-38 300 240
-0.023319334 0.69999999 -0 1.5665504e-38 301 240
-0.022091998 0.69999999 -0 1.5572952e-38 302 240
-0.020864666 0.69999999 -0 1.5572952e-38 303 240
-0.019637333 0.69999999 -0 1.5663354e-38 304 240
-0.018409999 0.69999999 -0 1.55708e-38 305 240
-0.017133573 0.69800001 -0 1.5293142e-38 306 240
-0.015909746 0.69800001 -0 1.5109111e-38 307 240
-0.01468592 0.69800001 -0 1.492508e-38 308 240
-0.013462093 0.69800001 -0 1.492508e-38 309 240
-0.012220734 0.69700003 -0 1.4926159e-38 310 240
-0.01099866 0.69700003 -0 1.5018715e-38 311 240
-0.0097765867 0.69700003 -0 1.5019434e-38 312 240
-0.0085545136 0.69700003 -0 1.5111629e-38 313 240
-0.00733244 0.69700003 -0 1.5111992e-38 314 240
-0.0061103669 0.69700003 -0 1.5111992e-38 315 240
-0.0048953067 0.69800001 -0 1.4837206e-38 316 240
-0.0036714801 0.69800001 -0 1.5021599e-38 317 240
-0.0024441467 0.69700003 -0 1.5113797e-38 318 240
-0.0012220733 0.69700003 -0 1.5298188e-38 319 240
0 0.69700003 -0 1.5481488e-38 320 240
0.0012220733 0.69700003 -0 1.5204541e-38 321 240
0.0024476533 0.69800001 -0 1.5020503e-38 322 240
0.0036714801 0.69800001 -0 1.4743917e-38 323 240
0.0048953067 0.69800001 -0 1.4375859e-38 324 240
0.006119133 0.69800001 -0 1.4191468e-38 325 240
0.0073429602 0.69800001 -0 1.4098919e-38 326 240
0.0085913334 0.69999999 -0 1.4006724e-38 327 240
0.0098186666 0.69999999 -0 1.3913099e-38 328 240
0.011061779 0.70099998 -0 1.3820903e-38 329 240
0.012290866 0.70099998 -0 1.3819834e-38 330 240
0.013558527 0.70300001 -0 1.3727638e-38 331 240
0.014791119 0.70300001 -0 1.3635089e-38 332 240
0.016046507 0.704 -0 1.3542894e-38 333 240
0.017280852 0.704 -0 1.3632934e-38 334 240
0.018515198 0.704 -0 1.3448903e-38 335 240
0.019805651 0.70599997 -0 1.3538948e-38 336 240
0.021043506 0.70599997 -0 1.3354557e-38 337 240
0.022312919 0.70700002 -0 1.3354922e-38 338 240
0.023585839 0.708 -0 1.3354922e-38 339 240
0.024897331 0.70999998 -0 1.3080862e-38 340 240
0.026142199 0.70999998 -0 1.3080862e-38 341 240
0.027425639 0.71100003 -0 1.3263824e-38 342 240
0.028672259 0.71100003 -0 1.3263824e-38 343 240
0.03012928 0.71600002 -0 1.2065673e-38 344 240
-0.048104454 0.722 -0.0012659066 1.4566912e-38 282 241
-0.046838548 0.722 -0.0012659066 1.4566912e-38 283 241
-0.045446403 0.72000003 -0.0012624001 1.4476487e-38 284 241
-0.044183999 0.72000003 -0.0012624001 1.3462695e-38 285 241
-0.042861983 0.71899998 -0.0012606466 1.465541e-38 286 241
-0.041485619 0.71700001 -0.00125714 1.3917845e-38 287 241
-0.040172372 0.71600002 -0.0012553866 1.493124e-38 288 241
-0.038808275 0.71399999 -0.00125188 1.5760641e-38 289 241
-0.037398599 0.71100003 -0.00124662 1.5947542e-38 290 241
-0.036151983 0.71100003 -0.00124662 1.5854987e-38 291 241
-0.034856264 0.70999998 -0.0012448666 1.5670934e-38 292 241
-0.033516716 0.708 -0.00124136 1.511776e-38 293 241
-0.032229774 0.70700002 -0.0012396066 1.5301057e-38 294 241
-0.030858666 0.704 -0.0012343467 1.5116664e-38 295 241
-0.029624319 0.704 -0.0012343467 1.5300327e-38 296 241
-0.028268991 0.70099998 -0.0012290865 1.5300327e-38 297 241
-0.027001332 0.69999999 -0.0012273333 1.5299961e-38 298 241
-0.025773998 0.69999999 -0.0012273333 1.5392157e-38 299 241
-0.024546666 0.69999999 -0.0012273333 1.5482554e-38 300 241
-0.023319334 0.69999999 -0.0012273333 1.5482554e-38 301 241
-0.022091998 0.69999999 -0.0012273333 1.538964e-38 302 241
-0.020864666 0.69999999 -0.0012273333 1.538964e-38 303 241
-0.019637333 0.69999999 -0.0012273333 1.5572235e-38 304 241
-0.0183574 0.69800001 -0.0012238267 1.5295289e-38 305 241
-0.017133573 0.69800001 -0.0012238267 1.5202377e-38 306 241
-0.015909746 0.69800001 -0.0012238267 1.492543e-38 307 241
-0.01466488 0.69700003 -0.0012220733 1.492543e-38 308 241
-0.013442807 0.69700003 -0.0012220733 1.492543e-38 309 241
-0.012220734 0.69700003 -0.0012220733 1.4926865e-38 310 241
-0.01099866 0.69700003 -0.0012220733 1.483467e-38 311 241
-0.0097765867 0.69700003 -0.0012220733 1.5019062e-38 312 241
-0.0085545136 0.69700003 -0.0012220733 1.5019062e-38 313 241
-0.00733244 0.69700003 -0.0012220733 1.5019784e-38 314 241
-0.0061103669 0.69700003 -0.0012220733 1.5019784e-38 315 241
-0.0048882933 0.69700003 -0.0012220733 1.4836835e-38 316 241
-0.00366622 0.69700003 -0.0012220733 1.492903e-38 317 241
-0.0024441467 0.69700003 -0.0012220733 1.5021232e-38 318 241
-0.0012220733 0.69700003 -0.0012220733 1.5389655e-38 319 241
0 0.69700003 -0.0012220733 1.5388936e-38 320 241
0.0012220733 0.69700003 -0.0012220733 1.5112348e-38 321 241
0.0024441467 0.69700003 -0.0012220733 1.4653169e-38 322 241
0.00366622 0.69700003 -0.0012220733 1.4376581e-38 323 241
0.0048882933 0.69700003 -0.0012220733 1.4375509e-38 324 241
0.0061103669 0.69700003 -0.0012220733 1.4191118e-38 325 241
0.00733244 0.69700003 -0.0012220733 1.3822702e-38 326 241
0.0085667865 0.69800001 -0.0012238267 1.3822702e-38 327 241
0.0098186666 0.69999999 -0.0012273333 1.3913101e-38 328 241
0.011045999 0.69999999 -0.0012273333 1.372871e-38 329 241
0.012273333 0.69999999 -0.0012273333 1.363544e-38 330 241
0.013519952 0.70099998 -0.0012290865 1.3543244e-38 331 241
0.014791119 0.70300001 -0.0012325933 1.3634368e-38 332 241
0.016023712 0.70300001 -0.0012325933 1.3634368e-38 333 241
0.017256306 0.70300001 -0.0012325933 1.3634017e-38 334 241
0.018515198 0.704 -0.0012343467 1.3449625e-38 335 241
0.019749546 0.704 -0.0012343467 1.3539667e-38 336 241
0.021043506 0.70599997 -0.0012378532 1.3355275e-38 337 241
0.022281358 0.70599997 -0.0012378532 1.3355278e-38 338 241
0.023552528 0.70700002 -0.0012396066 1.3355278e-38 339 241
0.024827199 0.708 -0.00124136 1.317161e-38 340 241
0.026142199 0.70999998 -0.0012448666 1.3263806e-38 341 241
0.027387066 0.70999998 -0.0012448666 1.3263455e-38 342 241
0.028672259 0.71100003 -0.00124662 1.317126e-38 343 241
0.029918881 0.71100003 -0.00124662 1.2709228e-38 344 241
-0.048104454 0.722 -0.0025318132 1.4844575e-38 282 242
-0.046838548 0.722 -0.0025318132 1.5028607e-38 283 242
-0.045446403 0.72000003 -0.0025248001 1.4844896e-38 284 242
-0.044122629 0.71899998 -0.0025212932 1.3185735e-38 285 242
-0.042861983 0.71899998 -0.0025212932 1.4469224e-38 286 242
-0.041427758 0.71600002 -0.0025107733 1.4377028e-38 287 242
-0.040172372 0.71600002 -0.0025107733 1.483906e-38 288 242
-0.038753927 0.713 -0.0025002533 1.5668821e-38 289 242
-0.037398599 0.71100003 -0.0024932399 1.6040104e-38 290 242
-0.036101133 0.70999998 -0.0024897333 1.5671322e-38 291 242
-0.034758076 0.708 -0.00248272 1.5762053e-38 292 242
-0.033469379 0.70700002 -0.0024792133 1.5208879e-38 293 242
-0.032229774 0.70700002 -0.0024792133 1.5117383e-38 294 242
-0.030858666 0.704 -0.0024686933 1.4933352e-38 295 242
-0.029582238 0.70300001 -0.0024651866 1.5117014e-38 296 242
-0.028268991 0.70099998 -0.0024581731 1.5117014e-38 297 242
-0.027001332 0.69999999 -0.0024546667 1.5392878e-38 298 242
-0.025773998 0.69999999 -0.0024546667 1.5392878e-38 299 242
-0.024476532 0.69800001 -0.0024476533 1.5667304e-38 300 242
-0.023252707 0.69800001 -0.0024476533 1.557475e-38 301 242
-0.02202888 0.69800001 -0.0024476533 1.5482557e-38 302 242
-0.020864666 0.69999999 -0.0024546667 1.5390362e-38 303 242
-0.019637333 0.69999999 -0.0024546667 1.5204894e-38 304 242
-0.0183574 0.69800001 -0.0024476533 1.5020503e-38 305 242
-0.017133573 0.69800001 -0.0024476533 1.4927232e-38 306 242
-0.015886955 0.69700003 -0.0024441467 1.474284e-38 307 242
-0.01466488 0.69700003 -0.0024441467 1.474284e-38 308 242
-0.013442807 0.69700003 -0.0024441467 1.474284e-38 309 242
-0.012220734 0.69700003 -0.0024441467 1.474284e-38 310 242
-0.01099866 0.69700003 -0.0024441467 1.4835035e-38 311 242
-0.0097765867 0.69700003 -0.0024441467 1.4651723e-38 312 242
-0.0085545136 0.69700003 -0.0024441467 1.474392e-38 313 242
-0.00733244 0.69700003 -0.0024441467 1.474392e-38 314 242
-0.0061103669 0.69700003 -0.0024441467 1.4836116e-38 315 242
-0.0048882933 0.69700003 -0.0024441467 1.4560971e-38 316 242
-0.00366622 0.69700003 -0.0024441467 1.4653525e-38 317 242
-0.0024441467 0.69700003 -0.0024441467 1.4653535e-38 318 242
-0.0012220733 0.69700003 -0.0024441467 1.4838286e-38 319 242
0 0.69700003 -0.0024441467 1.4837206e-38 320 242
0.0012220733 0.69700003 -0.0024441467 1.4652816e-38 321 242
0.0024441467 0.69700003 -0.0024441467 1.4468425e-38 322 242
0.00366622 0.69700003 -0.0024441467 1.4284032e-38 323 242
0.0048882933 0.69700003 -0.0024441467 1.400745e-38 324 242
0.0061103669 0.69700003 -0.0024441467 1.3915254e-38 325 242
0.00733244 0.69700003 -0.0024441467 1.3731228e-38 326 242
0.0085667865 0.69800001 -0.0024476533 1.3547197e-38 327 242
0.0097906133 0.69800001 -0.0024476533 1.363724e-38 328 242
0.011045999 0.69999999 -0.0024546667 1.3545045e-38 329 242
0.012273333 0.69999999 -0.0024546667 1.3267746e-38 330 242
0.013519952 0.70099998 -0.0024581731 1.2807127e-38 331 242
0.014749039 0.70099998 -0.0024581731 1.2528742e-38 332 242
0.016023712 0.70300001 -0.0024651866 1.2252155e-38 333 242
0.017256306 0.70300001 -0.0024651866 1.1883373e-38 334 242
0.018488899 0.70300001 -0.0024651866 1.1975568e-38 335 242
0.019749546 0.704 -0.0024686933 1.2343647e-38 336 242
0.020983893 0.704 -0.0024686933 1.2804625e-38 337 242
0.022281358 0.70599997 -0.0024757064 1.2896468e-38 338 242
0.023552528 0.70700002 -0.0024792133 1.262024e-38 339 242
0.024827199 0.708 -0.00248272 1.2896465e-38 340 242
0.026068559 0.708 -0.00248272 1.2896465e-38 341 242
0.027387066 0.70999998 -0.0024897333 1.3171976e-38 342 242
0.028672259 0.71100003 -0.0024932399 1.2987945e-38 343 242
0.029918881 0.71100003 -0.0024932399 1.2526632e-38 344 242
-0.04937036 0.722 -0.0037977197 1.5765821e-38 281 243
-0.048104454 0.722 -0.0037977197 1.5766174e-38 282 243
-0.046838548 0.722 -0.0037977197 1.5673979e-38 283 243
-0.045446403 0.72000003 -0.0037872 1.5397702e-38 284 243
-0.044122629 0.71899998 -0.0037819401 1.3093171e-38 285 243
-0.042742759 0.71700001 -0.0037714199 1.4375932e-38 286 243
-0.041427758 0.71600002 -0.00376616 1.4560325e-38 287 243
-0.040060159 0.71399999 -0.0037556398 1.4838696e-38 288 243
-0.038753927 0.713 -0.0037503797 1.5852489e-38 289 243
-0.037398599 0.71100003 -0.0037398601 1.5947558e-38 290 243
-0.036101133 0.70999998 -0.0037345996 1.5670972e-38 291 243
-0.034758076 0.708 -0.00372408 1.5761347e-38 292 243
-0.033469379 0.70700002 -0.0037188199 1.5208173e-38 293 243
-0.032184184 0.70599997 -0.0037135598 1.5116311e-38 294 243
-0.030858666 0.704 -0.0037030398 1.5116311e-38 295 243
-0.029498078 0.70099998 -0.0036872597 1.5299976e-38 296 243
-0.028268991 0.70099998 -0.0036872597 1.5392172e-38 297 243
-0.027001332 0.69999999 -0.0036819996 1.5484725e-38 298 243
-0.025700359 0.69800001 -0.0036714801 1.5576921e-38 299 243
-0.024476532 0.69800001 -0.0036714801 1.5760236e-38 300 243
-0.023252707 0.69800001 -0.0036714801 1.5576205e-38 301 243
-0.02202888 0.69800001 -0.0036714801 1.5666618e-38 302 243
-0.020864666 0.69999999 -0.0036819996 1.5666618e-38 303 243
-0.019581227 0.69800001 -0.0036714801 1.5388952e-38 304 243
-0.0183574 0.69800001 -0.0036714801 1.4928332e-38 305 243
-0.017133573 0.69800001 -0.0036714801 1.5019428e-38 306 243
-0.015886955 0.69700003 -0.00366622 1.4835035e-38 307 243
-0.01466488 0.69700003 -0.00366622 1.4835033e-38 308 243
-0.013442807 0.69700003 -0.00366622 1.4742837e-38 309 243
-0.012220734 0.69700003 -0.00366622 1.4742484e-38 310 243
-0.010982879 0.69599998 -0.0036609597 1.4742484e-38 311 243
-0.0097625591 0.69599998 -0.0036609597 1.465137e-38 312 243
-0.0085422397 0.69599998 -0.0036609597 1.465137e-38 313 243
-0.0073219193 0.69599998 -0.0036609597 1.4652087e-38 314 243
-0.0061103669 0.69700003 -0.00366622 1.4652087e-38 315 243
-0.0048882933 0.69700003 -0.00366622 1.4652443e-38 316 243
-0.0036609597 0.69599998 -0.0036609597 1.4652443e-38 317 243
-0.0024406398 0.69599998 -0.0036609597 1.4469141e-38 318 243
-0.0012203199 0.69599998 -0.0036609597 1.4469141e-38 319 243
0 0.69599998 -0.0036609597 1.4468425e-38 320 243
0.0012203199 0.69599998 -0.0036609597 1.4376229e-38 321 243
0.0024441467 0.69700003 -0.00366622 1.4284032e-38 322 243
0.00366622 0.69700003 -0.00366622 1.4007447e-38 323 243
0.0048882933 0.69700003 -0.00366622 1.3822705e-38 324 243
0.0061103669 0.69700003 -0.00366622 1.3730509e-38 325 243
0.00733244 0.69700003 -0.00366622 1.3454647e-38 326 243
0.0085667865 0.69800001 -0.0036714801 1.3362093e-38 327 243
0.0097906133 0.69800001 -0.0036714801 1.3544339e-38 328 243
0.011045999 0.69999999 -0.0036819996 1.3452143e-38 329 243
0.012273333 0.69999999 -0.0036819996 1.1979551e-38 330 243
0.013500666 0.69999999 -0.0036819996 1.1057593e-38 331 243
0.014727999 0.69999999 -0.0036819996 1.0591947e-38 332 243
0.015978126 0.70099998 -0.0036872597 9.2090196e-39 333 243
0.017256306 0.70300001 -0.0036977797 8.2877948e-39 334 243
0.018488899 0.70300001 -0.0036977797 8.6565717e-39 335 243
0.019749546 0.704 -0.0037030398 9.3962961e-39 336 243
0.020983893 0.704 -0.0037030398 1.0502644e-38 337 243
0.022281358 0.70599997 -0.0037135598 1.1608979e-38 338 243
0.023519212 0.70599997 -0.0037135598 1.1885205e-38 339 243
0.024792133 0.70700002 -0.0037188199 1.2804269e-38 340 243
0.026068559 0.708 -0.00372408 1.2804269e-38 341 243
0.027387066 0.70999998 -0.0037345996 1.2896465e-38 342 243
0.028672259 0.71100003 -0.0037398601 1.2804269e-38 343 243
0.029918881 0.71100003 -0.0037398601 1.2803216e-38 344 243
-0.04937036 0.722 -0.0050636264 1.5582506e-38 281 244
-0.048104454 0.722 -0.0050636264 1.5949844e-38 282 244
-0.046838548 0.722 -0.0050636264 1.5673257e-38 283 244
-0.045446403 0.72000003 -0.0050496003 1.5029627e-38 284 244
-0.044122629 0.71899998 -0.0050425865 1.2724735e-38 285 244
-0.042742759 0.71700001 -0.0050285598 1.4008932e-38 286 244
-0.041427758 0.71600002 -0.0050215465 1.428552e-38 287 244
-0.040060159 0.71399999 -0.0050075199 1.4563179e-38 288 244
-0.038645219 0.71100003 -0.0049864799 1.5116353e-38 289 244
-0.037345998 0.70999998 -0.0049794666 1.5301465e-38 290 244
-0.036101133 0.70999998 -0.0049794666 1.5117072e-38 291 244
-0.034758076 0.708 -0.0049654399 1.5207807e-38 292 244
-0.033469379 0.70700002 -0.0049584266 1.5207807e-38 293 244
-0.032184184 0.70599997 -0.0049514128 1.5115595e-38 294 244
-0.030858666 0.704 -0.0049373866 1.5299626e-38 295 244
-0.029498078 0.70099998 -0.0049163462 1.5299623e-38 296 244
-0.028228667 0.69999999 -0.0049093333 1.5484375e-38 297 244
-0.027001332 0.69999999 -0.0049093333 1.5576939e-38 298 244
-0.025700359 0.69800001 -0.0048953067 1.576133e-38 299 244
-0.024476532 0.69800001 -0.0048953067 1.5760624e-38 300 244
-0.023252707 0.69800001 -0.0048953067 1.5668428e-38 301 244
-0.02202888 0.69800001 -0.0048953067 1.5762444e-38 302 244
-0.020864666 0.69999999 -0.0049093333 1.6039032e-38 303 244
-0.019581227 0.69800001 -0.0048953067 1.6218385e-38 304 244
-0.0183574 0.69800001 -0.0048953067 1.5480459e-38 305 244
-0.017133573 0.69800001 -0.0048953067 1.5111998e-38 306 244
-0.015886955 0.69700003 -0.0048882933 1.4743217e-38 307 244
-0.01466488 0.69700003 -0.0048882933 1.4743567e-38 308 244
-0.013442807 0.69700003 -0.0048882933 1.4559174e-38 309 244
-0.012220734 0.69700003 -0.0048882933 1.4558821e-38 310 244
-0.010982879 0.69599998 -0.0048812795 1.4466626e-38 311 244
-0.0097625591 0.69599998 -0.0048812795 1.4375509e-38 312 244
-0.0085422397 0.69599998 -0.0048812795 1.4375509e-38 313 244
-0.0073219193 0.69599998 -0.0048812795 1.4376578e-38 314 244
-0.0061015999 0.69599998 -0.0048812795 1.4376578e-38 315 244
-0.0048812795 0.69599998 -0.0048812795 1.4376575e-38 316 244
-0.0036504399 0.69400001 -0.0048672534 1.4376575e-38 317 244
-0.0024336267 0.69400001 -0.0048672534 1.419291e-38 318 244
-0.0012203199 0.69599998 -0.0048812795 1.419291e-38 319 244
0 0.69400001 -0.0048672534 1.4100714e-38 320 244
0.0012168133 0.69400001 -0.0048672534 1.3916323e-38 321 244
0.0024406398 0.69599998 -0.0048812795 1.3731576e-38 322 244
0.0036609597 0.69599998 -0.0048812795 1.3731576e-38 323 244
0.0048812795 0.69599998 -0.0048812795 1.3547194e-38 324 244
0.0061015999 0.69599998 -0.0048812795 1.3454997e-38 325 244
0.0073219193 0.69599998 -0.0048812795 1.3545764e-38 326 244
0.0085545136 0.69700003 -0.0048882933 1.3361374e-38 327 244
0.0097906133 0.69800001 -0.0048953067 1.2900418e-38 328 244
0.01101444 0.69800001 -0.0048953067 1.1885906e-38 329 244
0.012273333 0.69999999 -0.0049093333 8.6601758e-39 330 244
0.013500666 0.69999999 -0.0049093333 6.0787206e-39 331 244
0.014727999 0.69999999 -0.0049093333 5.066019e-39 332 244
0.015978126 0.70099998 -0.0049163462 4.5128537e-39 333 244
0.017207211 0.70099998 -0.0049163462 3.7774522e-39 334 244
0.018488899 0.70300001 -0.0049303733 4.5153648e-39 335 244
0.019721493 0.70300001 -0.0049303733 4.8877403e-39 336 244
0.020983893 0.704 -0.0049373866 5.5331097e-39 337 244
0.022218239 0.704 -0.0049373866 8.1120383e-39 338 244
0.023519212 0.70599997 -0.0049514128 1.0509483e-38 339 244
0.024792133 0.70700002 -0.0049584266 1.2713519e-38 340 244
0.026068559 0.708 -0.0049654399 1.2437292e-38 341 244
0.027309919 0.708 -0.0049654399 1.2804269e-38 342 244
0.028631933 0.70999998 -0.0049794666 1.2620237e-38 343 244
0.029918881 0.71100003 -0.0049864799 1.2619901e-38 344 244
-0.049438741 0.72299999 -0.0063382997 1.6040242e-38 281 245
-0.048104454 0.722 -0.0063295332 1.6499771e-38 282 245
-0.046838548 0.722 -0.0063295332 1.5946597e-38 283 245
-0.045383278 0.71899998 -0.0063032326 1.4843422e-38 284 245
-0.043999899 0.71700001 -0.0062857 1.2722564e-38 285 245
-0.042683143 0.71600002 -0.0062769335 1.3916012e-38 286 245
-0.041312039 0.71399999 -0.0062593995 1.4376989e-38 287 245
-0.040004052 0.713 -0.0062506334 1.428659e-38 288 245
-0.038645219 0.71100003 -0.0062330998 1.4747566e-38 289 245
-0.037345998 0.70999998 -0.0062243328 1.511598e-38 290 245
-0.03599944 0.708 -0.0062067998 1.4931589e-38 291 245
-0.034708988 0.70700002 -0.0061980332 1.4840097e-38 292 245
-0.033422034 0.70599997 -0.0061892662 1.4840097e-38 293 245
-0.032184184 0.70599997 -0.0061892662 1.484045e-38 294 245
-0.030858666 0.704 -0.0061717331 1.4932646e-38 295 245
-0.029498078 0.70099998 -0.0061454331 1.5208877e-38 296 245
-0.028228667 0.69999999 -0.0061366665 1.5393268e-38 297 245
-0.026924185 0.69800001 -0.006119133 1.5394722e-38 298 245
-0.025700359 0.69800001 -0.006119133 1.5670949e-38 299 245
-0.024476532 0.69800001 -0.006119133 1.5761725e-38 300 245
-0.023252707 0.69800001 -0.006119133 1.6037952e-38 301 245
-0.02202888 0.69800001 -0.006119133 1.6223813e-38 302 245
-0.020805053 0.69800001 -0.006119133 1.7145771e-38 303 245
-0.019581227 0.69800001 -0.006119133 1.6682998e-38 304 245
-0.0183574 0.69800001 -0.006119133 1.5392259e-38 305 245
-0.017133573 0.69800001 -0.006119133 1.4837227e-38 306 245
-0.015886955 0.69700003 -0.0061103669 1.4560639e-38 307 245
-0.01466488 0.69700003 -0.0061103669 1.4743923e-38 308 245
-0.013442807 0.69700003 -0.0061103669 1.4651367e-38 309 245
-0.012220734 0.69700003 -0.0061103669 1.4466272e-38 310 245
-0.010982879 0.69599998 -0.0061015999 1.4466272e-38 311 245
-0.0097345067 0.69400001 -0.0060840664 1.4283679e-38 312 245
-0.0085176928 0.69400001 -0.0060840664 1.4283679e-38 313 245
-0.0073008798 0.69400001 -0.0060840664 1.4100717e-38 314 245
-0.0061015999 0.69599998 -0.0061015999 1.4100717e-38 315 245
-0.0048812795 0.69599998 -0.0061015999 1.4009235e-38 316 245
-0.0036504399 0.69400001 -0.0060840664 1.4101789e-38 317 245
-0.0024336267 0.69400001 -0.0060840664 1.3825923e-38 318 245
-0.0012168133 0.69400001 -0.0060840664 1.3825923e-38 319 245
0 0.69400001 -0.0060840664 1.3825204e-38 320 245
0.0012168133 0.69400001 -0.0060840664 1.3640812e-38 321 245
0.0024336267 0.69400001 -0.0060840664 1.3456068e-38 322 245
0.0036504399 0.69400001 -0.0060840664 1.3363871e-38 323 245
0.0048672534 0.69400001 -0.0060840664 1.3363165e-38 324 245
0.0060840664 0.69400001 -0.0060840664 1.3179134e-38 325 245
0.0073219193 0.69599998 -0.0061015999 1.3268828e-38 326 245
0.0085422397 0.69599998 -0.0061015999 1.3176632e-38 327 245
0.0097625591 0.69599998 -0.0061015999 1.1981351e-38 328 245
0.01099866 0.69700003 -0.0061103669 9.307678e-39 329 245
0.012238266 0.69800001 -0.006119133 6.3574585e-39 330 245
0.013462093 0.69800001 -0.006119133 3.4990759e-39 331 245
0.014727999 0.69999999 -0.0061366665 2.85551e-39 332 245
0.015978126 0.70099998 -0.0061454331 3.3164839e-39 333 245
0.017207211 0.70099998 -0.0061454331 4.1459097e-39 334 245
0.018436298 0.70099998 -0.0061454331 5.1604217e-39 335 245
0.019721493 0.70300001 -0.0061629666 6.0838045e-39 336 245
0.020983893 0.704 -0.0061717331 6.4522269e-39 337 245
0.022218239 0.704 -0.0061717331 7.8336774e-39 338 245
0.023452586 0.704 -0.0061717331 1.0691742e-38 339 245
0.024757065 0.70599997 -0.0061892662 1.2622054e-38 340 245
0.026068559 0.708 -0.0062067998 1.2345109e-38 341 245
0.027309919 0.708 -0.0062067998 1.2619884e-38 342 245
0.028631933 0.70999998 -0.0062243328 1.2619884e-38 343 245
0.029876797 0.70999998 -0.0062243328 1.2620257e-38 344 245
-0.04937036 0.722 -0.0075954394 1.6407575e-38 281 246
-0.048104454 0.722 -0.0075954394 1.6775269e-38 282 246
-0.046838548 0.722 -0.0075954394 1.594515e-38 283 246
-0.045383278 0.71899998 -0.0075638802 1.4656507e-38 284 246
-0.043999899 0.71700001 -0.0075428397 1.3088823e-38 285 246
-0.042683143 0.71600002 -0.00753232 1.4374822e-38 286 246
-0.041312039 0.71399999 -0.0075112795 1.4559214e-38 287 246
-0.040004052 0.713 -0.0075007593 1.4286576e-38 288 246
-0.038645219 0.71100003 -0.0074797203 1.4470608e-38 289 246
-0.0372408 0.708 -0.0074481601 1.4746829e-38 290 246
-0.03599944 0.708 -0.0074481601 1.4746829e-38 291 246
-0.034708988 0.70700002 -0.0074376399 1.4930845e-38 292 246
-0.033422034 0.70599997 -0.0074271196 1.4930845e-38 293 246
-0.032093015 0.704 -0.0074060797 1.4931564e-38 294 246
-0.030814834 0.70300001 -0.0073955595 1.5116314e-38 295 246
-0.029498078 0.70099998 -0.0073745195 1.5300722e-38 296 246
-0.028228667 0.69999999 -0.0073639993 1.5577668e-38 297 246
-0.026924185 0.69800001 -0.0073429602 1.5671692e-38 298 246
-0.025700359 0.69800001 -0.0073429602 1.6132669e-38 299 246
-0.024476532 0.69800001 -0.0073429602 1.5947949e-38 300 246
-0.023252707 0.69800001 -0.0073429602 1.6408569e-38 301 246
-0.02202888 0.69800001 -0.0073429602 1.6868125e-38 302 246
-0.020805053 0.69800001 -0.0073429602 1.7421297e-38 303 246
-0.019581227 0.69800001 -0.0073429602 1.6869557e-38 304 246
-0.0183574 0.69800001 -0.0073429602 1.5486622e-38 305 246
-0.017133573 0.69800001 -0.0073429602 1.4744696e-38 306 246
-0.015886955 0.69700003 -0.00733244 1.4376273e-38 307 246
-0.01466488 0.69700003 -0.00733244 1.4651387e-38 308 246
-0.013442807 0.69700003 -0.00733244 1.4375159e-38 309 246
-0.0122032 0.69599998 -0.0073219193 1.4466272e-38 310 246
-0.010982879 0.69599998 -0.0073219193 1.4466272e-38 311 246
-0.0097345067 0.69400001 -0.0073008798 1.4007452e-38 312 246
-0.0085176928 0.69400001 -0.0073008798 1.4191483e-38 313 246
-0.0073008798 0.69400001 -0.0073008798 1.4100364e-38 314 246
-0.0061015999 0.69599998 -0.0073219193 1.4100364e-38 315 246
-0.0048812795 0.69599998 -0.0073219193 1.3825209e-38 316 246
-0.0036609597 0.69599998 -0.0073219193 1.400924e-38 317 246
-0.0024336267 0.69400001 -0.0073008798 1.400924e-38 318 246
-0.0012168133 0.69400001 -0.0073008798 1.3732655e-38 319 246
0 0.69400001 -0.0073008798 1.3733011e-38 320 246
0.0012168133 0.69400001 -0.0073008798 1.3456065e-38 321 246
0.0024336267 0.69400001 -0.0073008798 1.3455348e-38 322 246
0.0036504399 0.69400001 -0.0073008798 1.3455348e-38 323 246
0.0048672534 0.69400001 -0.0073008798 1.3179134e-38 324 246
0.0060840664 0.69400001 -0.0073008798 1.3179134e-38 325 246
0.0073008798 0.69400001 -0.0073008798 1.3085153e-38 326 246
0.0085422397 0.69599998 -0.0073219193 1.2624175e-38 327 246
0.0097625591 0.69599998 -0.0073219193 1.0499753e-38 328 246
0.01099866 0.69700003 -0.00733244 7.6420765e-39 329 246
0.012238266 0.69800001 -0.0073429602 5.1654131e-39 330 246
0.013462093 0.69800001 -0.0073429602 6.0877282e-39 331 246
0.014727999 0.69999999 -0.0073639993 7.3749091e-39 332 246
0.015955333 0.69999999 -0.0073639993 8.3887009e-39 333 246
0.017207211 0.70099998 -0.0073745195 9.4950583e-39 334 246
0.018436298 0.70099998 -0.0073745195 9.9560364e-39 335 246
0.019665385 0.70099998 -0.0073745195 1.0967297e-38 336 246
0.020983893 0.704 -0.0074060797 1.1520113e-38 337 246
0.022218239 0.704 -0.0074060797 1.2347686e-38 338 246
0.023452586 0.704 -0.0074060797 1.2532078e-38 339 246
0.024757065 0.70599997 -0.0074271196 1.271427e-38 340 246
0.026068559 0.708 -0.0074481601 1.2253291e-38 341 246
0.027309919 0.708 -0.0074481601 1.2711006e-38 342 246
0.028631933 0.70999998 -0.0074691991 1.2711006e-38 343 246
0.029876797 0.70999998 -0.0074691991 1.2619891e-38 344 246
0.031165501 0.71100003 -0.0074797203 1.2803922e-38 345 246
0.032412119 0.71100003 -0.0074797203 1.1145164e-38 346 246
-0.048104454 0.722 -0.0088613462 1.7050408e-38 282 247
-0.046838548 0.722 -0.0088613462 1.6220648e-38 283 247
-0.045383278 0.71899998 -0.0088245263 1.4562511e-38 284 247
-0.043999899 0.71700001 -0.0087999795 1.3271772e-38 285 247
-0.042683143 0.71600002 -0.0087877065 1.4191873e-38 286 247
-0.041312039 0.71399999 -0.0087631596 1.4284427e-38 287 247
-0.039835732 0.70999998 -0.0087140659 1.4102544e-38 288 247
-0.038590867 0.70999998 -0.0087140659 1.4195099e-38 289 247
-0.0372408 0.708 -0.008689519 1.4470961e-38 290 247
-0.03599944 0.708 -0.008689519 1.4563157e-38 291 247
-0.034659892 0.70599997 -0.0086649731 1.4654984e-38 292 247
-0.03332736 0.704 -0.0086404262 1.4654984e-38 293 247
-0.032093015 0.704 -0.0086404262 1.4564233e-38 294 247
-0.030814834 0.70300001 -0.0086281532 1.4748623e-38 295 247
-0.029498078 0.70099998 -0.0086036054 1.4841208e-38 296 247
-0.028228667 0.69999999 -0.0085913334 1.5302186e-38 297 247
-0.026924185 0.69800001 -0.0085667865 1.5763908e-38 298 247
-0.025700359 0.69800001 -0.0085667865 1.5856104e-38 299 247
-0.024476532 0.69800001 -0.0085667865 1.5765367e-38 300 247
-0.023252707 0.69800001 -0.0085667865 1.6226706e-38 301 247
-0.02202888 0.69800001 -0.0085667865 1.7237629e-38 302 247
-0.020805053 0.69800001 -0.0085667865 1.7237629e-38 303 247
-0.019581227 0.69800001 -0.0085667865 1.6041944e-38 304 247
-0.0183574 0.69800001 -0.0085667865 1.5027432e-38 305 247
-0.017133573 0.69800001 -0.0085667865 1.5296075e-38 306 247
-0.015886955 0.69700003 -0.0085545136 1.4835096e-38 307 247
-0.01466488 0.69700003 -0.0085545136 1.4558841e-38 308 247
-0.013442807 0.69700003 -0.0085545136 1.4282254e-38 309 247
-0.0122032 0.69599998 -0.0085422397 1.4190411e-38 310 247
-0.010982879 0.69599998 -0.0085422397 1.4098216e-38 311 247
-0.0097625591 0.69599998 -0.0085422397 1.3915622e-38 312 247
-0.0085422397 0.69599998 -0.0085422397 1.3915622e-38 313 247
-0.0073219193 0.69599998 -0.0085422397 1.3824503e-38 314 247
-0.0061015999 0.69599998 -0.0085422397 1.3824503e-38 315 247
-0.0048812795 0.69599998 -0.0085422397 1.3731954e-38 316 247
-0.0036504399 0.69400001 -0.0085176928 1.382415e-38 317 247
-0.0024336267 0.69400001 -0.0085176928 1.3640831e-38 318 247
-0.0012168133 0.69400001 -0.0085176928 1.3640831e-38 319 247
0 0.69400001 -0.0085176928 1.3548266e-38 320 247
0.0012168133 0.69400001 -0.0085176928 1.3456071e-38 321 247
0.0024336267 0.69400001 -0.0085176928 1.3180206e-38 322 247
0.0036504399 0.69400001 -0.0085176928 1.3180206e-38 323 247
0.0048672534 0.69400001 -0.0085176928 1.3179134e-38 324 247
0.0060840664 0.69400001 -0.0085176928 1.2994742e-38 325 247
0.0073008798 0.69400001 -0.0085176928 1.3085509e-38 326 247
0.0085422397 0.69599998 -0.0085422397 1.2071357e-38 327 247
0.0097625591 0.69599998 -0.0085422397 9.86087e-39 328 247
0.01099866 0.69700003 -0.0085545136 8.9389151e-39 329 247
0.012238266 0.69800001 -0.0085667865 8.5709187e-39 330 247
0.013462093 0.69800001 -0.0085667865 9.4925149e-39 331 247
0.014727999 0.69999999 -0.0085913334 1.0136465e-38 332 247
0.015955333 0.69999999 -0.0085913334 1.068928e-38 333 247
0.017207211 0.70099998 -0.0086036054 1.1242803e-38 334 247
0.018436298 0.70099998 -0.0086036054 1.1427554e-38 335 247
0.019665385 0.70099998 -0.0086036054 1.1519374e-38 336 247
0.020954086 0.70300001 -0.0086281532 1.1795961e-38 337 247
0.022218239 0.704 -0.0086404262 1.1889569e-38 338 247
0.023452586 0.704 -0.0086404262 1.1704819e-38 339 247
0.024757065 0.70599997 -0.0086649731 1.2069263e-38 340 247
0.026068559 0.708 -0.008689519 1.1885232e-38 341 247
0.027387066 0.70999998 -0.0087140659 1.2252196e-38 342 247
0.028631933 0.70999998 -0.0087140659 1.216e-38 343 247
0.029918881 0.71100003 -0.0087263398 1.2068883e-38 344 247
0.031165501 0.71100003 -0.0087263398 1.2345112e-38 345 247
0.032412119 0.71100003 -0.0087263398 1.132883e-38 346 247
0.033658739 0.71100003 -0.0087263398 1.3449329e-38 347 247
0.034905359 0.71100003 -0.0087263398 1.6497941e-38 348 247
-0.049438741 0.72299999 -0.01014128 1.6865664e-38 281 248
-0.048171077 0.72299999 -0.01014128 1.7050764e-38 282 248
-0.046838548 0.722 -0.010127253 1.6128449e-38 283 248
-0.045257039 0.71700001 -0.01005712 1.4562511e-38 284 248
-0.043938532 0.71600002 -0.010043093 1.3271772e-38 285 248
-0.042683143 0.71600002 -0.010043093 1.4192229e-38 286 248
-0.041312039 0.71399999 -0.01001504 1.4284425e-38 287 248
-0.039835732 0.70999998 -0.0099589331 1.42862e-38 288 248
-0.038590867 0.70999998 -0.0099589331 1.42862e-38 289 248
-0.0372408 0.708 -0.0099308798 1.4470944e-38 290 248
-0.03599944 0.708 -0.0099308798 1.4563141e-38 291 248
-0.034659892 0.70599997 -0.0099028256 1.4563139e-38 292 248
-0.03332736 0.704 -0.0098747732 1.4470942e-38 293 248
-0.032093015 0.704 -0.0098747732 1.4563144e-38 294 248
-0.030814834 0.70300001 -0.0098607466 1.4747535e-38 295 248
-0.029498078 0.70099998 -0.0098326923 1.4472409e-38 296 248
-0.028228667 0.69999999 -0.0098186666 1.4841193e-38 297 248
-0.026924185 0.69800001 -0.0097906133 1.5025605e-38 298 248
-0.025700359 0.69800001 -0.0097906133 1.5301833e-38 299 248
-0.024476532 0.69800001 -0.0097906133 1.4936669e-38 300 248
-0.023252707 0.69800001 -0.0097906133 1.5582038e-38 301 248
-0.02202888 0.69800001 -0.0097906133 1.6684812e-38 302 248
-0.020805053 0.69800001 -0.0097906133 1.6684812e-38 303 248
-0.019581227 0.69800001 -0.0097906133 1.520931e-38 304 248
-0.0183574 0.69800001 -0.0097906133 1.456394e-38 305 248
-0.017133573 0.69800001 -0.0097906133 1.4376273e-38 306 248
-0.015909746 0.69800001 -0.0097906133 1.4191523e-38 307 248
-0.01466488 0.69700003 -0.0097765867 1.4374806e-38 308 248
-0.013442807 0.69700003 -0.0097765867 1.4190414e-38 309 248
-0.0122032 0.69599998 -0.0097625591 1.4098213e-38 310 248
-0.010982879 0.69599998 -0.0097625591 1.4098213e-38 311 248
-0.0097625591 0.69599998 -0.0097625591 1.3823777e-38 312 248
-0.0085422397 0.69599998 -0.0097625591 1.3915973e-38 313 248
-0.0073219193 0.69599998 -0.0097625591 1.3732305e-38 314 248
-0.0061015999 0.69599998 -0.0097625591 1.3732305e-38 315 248
-0.0048812795 0.69599998 -0.0097625591 1.3640112e-38 316 248
-0.0036504399 0.69400001 -0.0097345067 1.3640112e-38 317 248
-0.0024336267 0.69400001 -0.0097345067 1.3640109e-38 318 248
-0.0012168133 0.69400001 -0.0097345067 1.3547913e-38 319 248
0 0.69400001 -0.0097345067 1.3455715e-38 320 248
0.0012168133 0.69400001 -0.0097345067 1.3179487e-38 321 248
0.0024336267 0.69400001 -0.0097345067 1.3179131e-38 322 248
0.0036504399 0.69400001 -0.0097345067 1.3179131e-38 323 248
0.0048672534 0.69400001 -0.0097345067 1.2994752e-38 324 248
0.0060840664 0.69400001 -0.0097345067 1.2902557e-38 325 248
0.0073219193 0.69599998 -0.0097625591 1.262492e-38 326 248
0.0085422397 0.69599998 -0.0097625591 1.2348332e-38 327 248
0.0097625591 0.69599998 -0.0097625591 1.170662e-38 328 248
0.01101444 0.69800001 -0.0097906133 1.2167598e-38 329 248
0.012238266 0.69800001 -0.0097906133 1.225768e-38 330 248
0.013462093 0.69800001 -0.0097906133 1.2073289e-38 331 248
0.014727999 0.69999999 -0.0098186666 1.1979654e-38 332 248
0.015978126 0.70099998 -0.0098326923 1.1057339e-38 333 248
0.017207211 0.70099998 -0.0098326923 1.0324078e-38 334 248
0.018436298 0.70099998 -0.0098326923 1.06925e-38 335 248
0.019665385 0.70099998 -0.0098326923 1.1152396e-38 336 248
0.020954086 0.70300001 -0.0098607466 1.1428623e-38 337 248
0.022218239 0.704 -0.0098747732 1.1426458e-38 338 248
0.023452586 0.704 -0.0098747732 1.1149873e-38 339 248
0.024757065 0.70599997 -0.0099028256 1.1607587e-38 340 248
0.026068559 0.708 -0.0099308798 1.1515392e-38 341 248
0.027387066 0.70999998 -0.0099589331 1.1975256e-38 342 248
0.028672259 0.71100003 -0.0099729598 1.2067451e-38 343 248
0.029918881 0.71100003 -0.0099729598 1.2252193e-38 344 248
0.031165501 0.71100003 -0.0099729598 1.2252193e-38 345 248
0.032412119 0.71100003 -0.0099729598 1.1603253e-38 346 248
0.033658739 0.71100003 -0.0099729598 1.3354969e-38 347 248
0.035150826 0.71600002 -0.010043093 1.6313184e-38 348 248
0.036406212 0.71600002 -0.010043093 1.6681606e-38 349 248
-0.049712259 0.727 -0.01147206 1.6957141e-38 281 249
-0.048171077 0.72299999 -0.01140894 1.7234077e-38 282 249
-0.046838548 0.722 -0.01139316 1.6219926e-38 283 249
-0.045257039 0.71700001 -0.01131426 1.4653988e-38 284 249
-0.043938532 0.71600002 -0.01129848 1.3455444e-38 285 249
-0.042683143 0.71600002 -0.01129848 1.4284425e-38 286 249
-0.041254178 0.713 -0.011251139 1.4284425e-38 287 249
-0.039835732 0.70999998 -0.011203799 1.4102529e-38 288 249
-0.038590867 0.70999998 -0.011203799 1.4102529e-38 289 249
-0.0372408 0.708 -0.01117224 1.4195078e-38 290 249
-0.03599944 0.708 -0.01117224 1.4195078e-38 291 249
-0.034659892 0.70599997 -0.011140679 1.4195078e-38 292 249
-0.03332736 0.704 -0.011109119 1.4195078e-38 293 249
-0.032093015 0.704 -0.011109119 1.4194727e-38 294 249
-0.030814834 0.70300001 -0.01109334 1.4471314e-38 295 249
-0.029498078 0.70099998 -0.011061779 1.4288012e-38 296 249
-0.028228667 0.69999999 -0.011045999 1.4380208e-38 297 249
-0.027001332 0.69999999 -0.011045999 1.46568e-38 298 249
-0.025700359 0.69800001 -0.01101444 1.4841193e-38 299 249
-0.024476532 0.69800001 -0.01101444 1.4749015e-38 300 249
-0.023252707 0.69800001 -0.01101444 1.5209635e-38 301 249
-0.02202888 0.69800001 -0.01101444 1.5670271e-38 302 249
-0.020805053 0.69800001 -0.01101444 1.5670271e-38 303 249
-0.019581227 0.69800001 -0.01101444 1.4839786e-38 304 249
-0.0183574 0.69800001 -0.01101444 1.4378806e-38 305 249
-0.017133573 0.69800001 -0.01101444 1.446774e-38 306 249
-0.015886955 0.69700003 -0.01099866 1.4191154e-38 307 249
-0.01466488 0.69700003 -0.01099866 1.4190777e-38 308 249
-0.013442807 0.69700003 -0.01099866 1.391455e-38 309 249
-0.0122032 0.69599998 -0.010982879 1.3822349e-38 310 249
-0.010982879 0.69599998 -0.010982879 1.3822349e-38 311 249
-0.0097625591 0.69599998 -0.010982879 1.3731226e-38 312 249
-0.0085422397 0.69599998 -0.010982879 1.3731226e-38 313 249
-0.0073219193 0.69599998 -0.010982879 1.3731223e-38 314 249
-0.0061015999 0.69599998 -0.010982879 1.3731223e-38 315 249
-0.0048812795 0.69599998 -0.010982879 1.3547913e-38 316 249
-0.0036609597 0.69599998 -0.010982879 1.3547913e-38 317 249
-0.0024406398 0.69599998 -0.010982879 1.3455362e-38 318 249
-0.0012168133 0.69400001 -0.01095132 1.3363165e-38 319 249
0 0.69400001 -0.01095132 1.3179134e-38 320 249
0.0012168133 0.69400001 -0.01095132 1.3179134e-38 321 249
0.0024336267 0.69400001 -0.01095132 1.2995105e-38 322 249
0.0036504399 0.69400001 -0.01095132 1.2995105e-38 323 249
0.0048672534 0.69400001 -0.01095132 1.2718172e-38 324 249
0.0060840664 0.69400001 -0.01095132 1.2718172e-38 325 249
0.0073219193 0.69599998 -0.010982879 1.2624219e-38 326 249
0.0085422397 0.69599998 -0.010982879 1.3269589e-38 327 249
0.0097765867 0.69700003 -0.01099866 1.2351283e-38 328 249
0.01101444 0.69800001 -0.01101444 1.2166892e-38 329 249
0.012238266 0.69800001 -0.01101444 1.13368e-38 330 249
0.013500666 0.69999999 -0.011045999 1.0691431e-38 331 249
0.014727999 0.69999999 -0.011045999 9.8623918e-39 332 249
0.015955333 0.69999999 -0.011045999 9.4936107e-39 333 249
0.017207211 0.70099998 -0.011061779 1.0139332e-38 334 249
0.018436298 0.70099998 -0.011061779 1.0323725e-38 335 249
0.019665385 0.70099998 -0.011061779 1.0965494e-38 336 249
0.020954086 0.70300001 -0.01109334 1.0873298e-38 337 249
0.022218239 0.704 -0.011109119 1.0229364e-38 338 249
0.023452586 0.704 -0.011109119 9.9524169e-39 339 249
0.024757065 0.70599997 -0.011140679 1.0779992e-38 340 249
0.02603174 0.70700002 -0.011156459 1.0872187e-38 341 249
0.027387066 0.70999998 -0.011203799 1.1423881e-38 342 249
0.028672259 0.71100003 -0.01121958 1.1792304e-38 343 249
0.029918881 0.71100003 -0.01121958 1.1884136e-38 344 249
0.031165501 0.71100003 -0.01121958 1.1884136e-38 345 249
0.032412119 0.71100003 -0.01121958 1.1418862e-38 346 249
0.033658739 0.71100003 -0.01121958 1.3170219e-38 347 249
0.035150826 0.71600002 -0.01129848 1.6128786e-38 348 249
0.036406212 0.71600002 -0.01129848 1.6497209e-38 349 249
-0.049712259 0.727 -0.012746733 1.6957497e-38 281 250
-0.048171077 0.72299999 -0.012676599 1.7234077e-38 282 250
-0.0467088 0.72000003 -0.012624 1.631248e-38 283 250
-0.045257039 0.71700001 -0.0125714 1.502205e-38 284 250
-0.043938532 0.71600002 -0.012553867 1.3731311e-38 285 250
-0.042563915 0.71399999 -0.012518799 1.437662e-38 286 250
-0.041254178 0.713 -0.012501267 1.4284425e-38 287 250
-0.039835732 0.70999998 -0.012448666 1.4010689e-38 288 250
-0.038590867 0.70999998 -0.012448666 1.4010689e-38 289 250
-0.0372408 0.708 -0.0124136 1.428655e-38 290 250
-0.03599944 0.708 -0.0124136 1.428655e-38 291 250
-0.034659892 0.70599997 -0.012378532 1.4102882e-38 292 250
-0.03332736 0.704 -0.012343466 1.4102882e-38 293 250
-0.032093015 0.704 -0.012343466 1.4010689e-38 294 250
-0.030814834 0.70300001 -0.012325933 1.4102885e-38 295 250
-0.029498078 0.70099998 -0.012290866 1.4103253e-38 296 250
-0.028228667 0.69999999 -0.012273333 1.4287646e-38 297 250
-0.027001332 0.69999999 -0.012273333 1.4380213e-38 298 250
-0.025700359 0.69800001 -0.012238266 1.4380213e-38 299 250
-0.024476532 0.69800001 -0.012238266 1.4194746e-38 300 250
-0.023252707 0.69800001 -0.012238266 1.4471334e-38 301 250
-0.02202888 0.69800001 -0.012238266 1.4564974e-38 302 250
-0.020805053 0.69800001 -0.012238266 1.4749366e-38 303 250
-0.019581227 0.69800001 -0.012238266 1.4379507e-38 304 250
-0.0183574 0.69800001 -0.012238266 1.4010726e-38 305 250
-0.017109027 0.69700003 -0.012220734 1.4100028e-38 306 250
-0.015886955 0.69700003 -0.012220734 1.4007831e-38 307 250
-0.01466488 0.69700003 -0.012220734 1.3915269e-38 308 250
-0.013442807 0.69700003 -0.012220734 1.3730878e-38 309 250
-0.0122032 0.69599998 -0.0122032 1.3729433e-38 310 250
-0.010982879 0.69599998 -0.0122032 1.3729433e-38 311 250
-0.0097625591 0.69599998 -0.0122032 1.3547194e-38 312 250
-0.0085422397 0.69599998 -0.0122032 1.3454997e-38 313 250
-0.0073219193 0.69599998 -0.0122032 1.3547192e-38 314 250
-0.0061015999 0.69599998 -0.0122032 1.3547192e-38 315 250
-0.0048812795 0.69599998 -0.0122032 1.3455715e-38 316 250
-0.0036609597 0.69599998 -0.0122032 1.3363518e-38 317 250
-0.0024406398 0.69599998 -0.0122032 1.3363165e-38 318 250
-0.0012168133 0.69400001 -0.012168133 1.3179134e-38 319 250
0 0.69400001 -0.012168133 1.2995461e-38 320 250
0.0012168133 0.69400001 -0.012168133 1.2995461e-38 321 250
0.0024336267 0.69400001 -0.012168133 1.2719597e-38 322 250
0.0036504399 0.69400001 -0.012168133 1.2627402e-38 323 250
0.0048672534 0.69400001 -0.012168133 1.2626327e-38 324 250
0.0060840664 0.69400001 -0.012168133 1.2349739e-38 325 250
0.0073219193 0.69599998 -0.0122032 1.2349077e-38 326 250
0.0085422397 0.69599998 -0.0122032 1.3455425e-38 327 250
0.0097765867 0.69700003 -0.012220734 1.2441696e-38 328 250
0.01101444 0.69800001 -0.012238266 1.1427904e-38 329 250
0.012238266 0.69800001 -0.012238266 9.8623862e-39 330 250
0.013500666 0.69999999 -0.012273333 9.3095712e-39 331 250
0.014727999 0.69999999 -0.012273333 8.1121238e-39 332 250
0.015955333 0.69999999 -0.012273333 8.3883506e-39 333 250
0.017182667 0.69999999 -0.012273333 9.6769286e-39 334 250
0.018409999 0.69999999 -0.012273333 9.9535155e-39 335 250
0.019665385 0.70099998 -0.012290866 1.0042461e-38 336 250
0.020954086 0.70300001 -0.012325933 9.6740391e-39 337 250
0.022218239 0.704 -0.012343466 9.3063286e-39 338 250
0.023452586 0.704 -0.012343466 9.7673067e-39 339 250
0.024757065 0.70599997 -0.012378532 1.0503758e-38 340 250
0.02603174 0.70700002 -0.012396066 1.0780345e-38 341 250
0.027387066 0.70999998 -0.012448666 1.1331684e-38 342 250
0.028672259 0.71100003 -0.0124662 1.1516077e-38 343 250
0.029918881 0.71100003 -0.0124662 1.197525e-38 344 250
0.031165501 0.71100003 -0.0124662 1.197525e-38 345 250
0.032412119 0.71100003 -0.0124662 1.1602171e-38 346 250
0.033658739 0.71100003 -0.0124662 1.3354247e-38 347 250
0.035150826 0.71600002 -0.012553867 1.6219181e-38 348 250
0.036406212 0.71600002 -0.012553867 1.6496128e-38 349 250
-0.0479712 0.72000003 -0.0138864 1.7234074e-38 282 251
-0.0467088 0.72000003 -0.0138864 1.6220282e-38 283 251
-0.045257039 0.71700001 -0.013828539 1.5114599e-38 284 251
-0.043815799 0.71399999 -0.01377068 1.3731664e-38 285 251
-0.042504307 0.713 -0.013751393 1.4284422e-38 286 251
-0.041138459 0.71100003 -0.01371282 1.4376617e-38 287 251
