# .PCD v.7 - Point Cloud Data file format
FIELDS x y z rgb imX imY
SIZE 4 4 4 4 4 4
TYPE F F F F F F
COUNT 1 1 1 1 1 1
WIDTH 852
HEIGHT 1
VIEWPOINT 0 0 0 1 0 0 0
POINTS 852
DATA ascii
0.00769012 0.73100001 -0.01538024 1.1700881e-38 326 252
0.0089718066 0.73100001 -0.01538024 1.0870762e-38 327 252
0.010253493 0.73100001 -0.01538024 9.8587387e-39 328 252
0.011519399 0.73000002 -0.0153592 9.2133692e-39 329 252
0.012799333 0.73000002 -0.0153592 8.7523743e-39 330 252
0.014079267 0.73000002 -0.0153592 8.5676243e-39 331 252
0.0153592 0.73000002 -0.0153592 8.2006228e-39 332 252
0.016593546 0.72799999 -0.01531712 7.8322046e-39 333 252
0.017869972 0.72799999 -0.01531712 7.5566982e-39 334 252
0.0191464 0.72799999 -0.01531712 7.4645039e-39 335 252
0.020338668 0.72500002 -0.015254001 7.3723097e-39 336 252
0.021550218 0.72299999 -0.015211919 7.2801155e-39 337 252
0.02281788 0.72299999 -0.015211919 7.555622e-39 338 252
0.029317487 0.727 -0.015296079 8.1080979e-39 343 252
0.030508002 0.72500002 -0.015254001 8.4776217e-39 344 252
0.031779166 0.72500002 -0.015254001 9.3073824e-39 345 252
0.033141505 0.727 -0.015296079 1.0229717e-38 346 252
0.03441618 0.727 -0.015296079 1.1243509e-38 347 252
0.035690852 0.727 -0.015296079 1.2256586e-38 348 252
0.0012869467 0.73400003 -0.016730307 1.3451889e-38 321 253
0.0025738934 0.73400003 -0.016730307 1.2714673e-38 322 253
0.0038555798 0.73299998 -0.016707512 1.1977108e-38 323 253
0.005140773 0.73299998 -0.016707512 1.0325482e-38 324 253
0.006408433 0.73100001 -0.016661927 8.7581546e-39 325 253
0.00769012 0.73100001 -0.016661927 8.4768734e-39 326 253
0.0089718066 0.73100001 -0.016661927 7.9240584e-39 327 253
0.010253493 0.73100001 -0.016661927 7.7385797e-39 328 253
0.011519399 0.73000002 -0.016639132 7.9226108e-39 329 253
0.012764266 0.72799999 -0.016593546 8.4743427e-39 330 253
0.014040692 0.72799999 -0.016593546 8.4743427e-39 331 253
0.0153592 0.73000002 -0.016639132 8.3832176e-39 332 253
0.016593546 0.72799999 -0.016593546 8.1069937e-39 333 253
0.017869972 0.72799999 -0.016593546 8.0158756e-39 334 253
0.019120099 0.727 -0.016570752 7.9236814e-39 335 253
0.020338668 0.72500002 -0.016525166 7.7396517e-39 336 253
0.021550218 0.72299999 -0.01647958 7.9240401e-39 337 253
0.02281788 0.72299999 -0.01647958 7.8329221e-39 338 253
0.024152167 0.72500002 -0.016525166 7.9251163e-39 339 253
0.025423333 0.72500002 -0.016525166 8.2013403e-39 340 253
0.026694499 0.72500002 -0.016525166 8.2013403e-39 341 253
0.027965667 0.72500002 -0.016525166 8.3842938e-39 342 253
0.029156178 0.72299999 -0.01647958 8.2920996e-39 343 253
0.030423839 0.72299999 -0.01647958 7.5559961e-39 344 253
0.031691495 0.72299999 -0.01647958 7.6481917e-39 345 253
0.032959159 0.72299999 -0.01647958 7.924801e-39 346 253
0.034321502 0.72500002 -0.016525166 8.4779748e-39 347 253
0.035592668 0.72500002 -0.016525166 8.8471329e-39 348 253
0.03671129 0.722 -0.016456785 1.0137872e-38 349 253
0.0379772 0.722 -0.016456785 1.1334988e-38 350 253
0 0.73299998 -0.017992707 1.3084902e-38 320 254
0.0012851933 0.73299998 -0.017992707 1.2439532e-38 321 254
0.0025703865 0.73299998 -0.017992707 1.1059099e-38 322 254
0.00384506 0.73100001 -0.017943613 1.0321534e-38 323 254
0.0051197335 0.73000002 -0.017919067 9.2165964e-39 324 254
0.0063996664 0.73000002 -0.017919067 8.0180532e-39 325 254
0.0076795998 0.73000002 -0.017919067 7.3741062e-39 326 254
0.0089595336 0.73000002 -0.017919067 6.9131322e-39 327 254
0.010239467 0.73000002 -0.017919067 7.0031783e-39 328 254
0.01148784 0.72799999 -0.017869972 7.371602e-39 329 254
0.012764266 0.72799999 -0.017869972 7.4637977e-39 330 254
0.014040692 0.72799999 -0.017869972 7.6485477e-39 331 254
0.0153592 0.73000002 -0.017919067 7.8329221e-39 332 254
0.016593546 0.72799999 -0.017869972 7.8329221e-39 333 254
0.017845426 0.727 -0.017845426 8.292817e-39 334 254
0.019120099 0.727 -0.017845426 8.2006228e-39 335 254
0.020394772 0.727 -0.017845426 8.2009816e-39 336 254
0.021609833 0.72500002 -0.017796334 8.2931758e-39 337 254
0.022880999 0.72500002 -0.017796334 8.201699e-39 338 254
0.024085538 0.72299999 -0.017747238 8.201699e-39 339 254
0.025353199 0.72299999 -0.017747238 8.2013403e-39 340 254
0.026620859 0.72299999 -0.017747238 8.2013403e-39 341 254
0.02788852 0.72299999 -0.017747238 8.2009816e-39 342 254
0.029156178 0.72299999 -0.017747238 8.0169518e-39 343 254
0.030381758 0.722 -0.017722692 8.1077111e-39 344 254
0.031647664 0.722 -0.017722692 8.0155169e-39 345 254
0.032913569 0.722 -0.017722692 7.7403874e-39 346 254
0.03422682 0.72299999 -0.017747238 8.0169742e-39 347 254
0.035494477 0.72299999 -0.017747238 8.1091951e-39 348 254
0.03671129 0.722 -0.017722692 8.938597e-39 349 254
0.037871998 0.72000003 -0.017673599 9.3091998e-39 350 254
0.039134402 0.72000003 -0.017673599 1.032335e-38 351 254
-0.0012799334 0.73000002 -0.019199001 1.326858e-38 319 255
0 0.73299998 -0.019277899 1.1058393e-38 320 255
0.0012851933 0.73299998 -0.019277899 1.0228632e-38 321 255
0.0025703865 0.73299998 -0.019277899 8.5723186e-39 322 255
0.00384506 0.73100001 -0.019225299 7.8347536e-39 323 255
0.0051057064 0.72799999 -0.0191464 7.648898e-39 324 255
0.0063821329 0.72799999 -0.0191464 7.095727e-39 325 255
0.0076795998 0.73000002 -0.019199001 7.0042502e-39 326 255
0.0089595336 0.73000002 -0.019199001 6.8202205e-39 327 255
0.010211413 0.72799999 -0.0191464 7.0950095e-39 328 255
0.01148784 0.72799999 -0.0191464 7.279398e-39 329 255
0.012746733 0.727 -0.019120099 7.6478162e-39 330 255
0.014021406 0.727 -0.019120099 7.8325634e-39 331 255
0.01531712 0.72799999 -0.0191464 7.9258338e-39 332 255
0.016570752 0.727 -0.019120099 8.2027752e-39 333 255
0.017845426 0.727 -0.019120099 8.0201804e-39 334 255
0.0190675 0.72500002 -0.0190675 8.1123746e-39 335 255
0.020338668 0.72500002 -0.0190675 8.2034927e-39 336 255
0.021550218 0.72299999 -0.019014901 8.2034927e-39 337 255
0.02281788 0.72299999 -0.019014901 8.2027752e-39 338 255
0.024085538 0.72299999 -0.019014901 8.2027752e-39 339 255
0.025353199 0.72299999 -0.019014901 8.201699e-39 340 255
0.026620859 0.72299999 -0.019014901 8.2938932e-39 341 255
0.02788852 0.72299999 -0.019014901 8.0173106e-39 342 255
0.029156178 0.72299999 -0.019014901 8.2013403e-39 343 255
0.030381758 0.722 -0.0189886 8.2009816e-39 344 255
0.031647664 0.722 -0.0189886 8.0169518e-39 345 255
0.032913569 0.722 -0.0189886 8.0166057e-39 346 255
0.03422682 0.72299999 -0.019014901 7.9244087e-39 347 255
0.035494477 0.72299999 -0.019014901 7.9233549e-39 348 255
0.03671129 0.722 -0.0189886 8.1999432e-39 349 255
0.037871998 0.72000003 -0.018935999 7.0997249e-39 350 255
0.039134402 0.72000003 -0.018935999 7.2841162e-39 351 255
0.040396802 0.72000003 -0.018935999 8.6649052e-39 352 255
-0.0025598668 0.73000002 -0.020478934 1.2531731e-38 318 256
-0.0012799334 0.73000002 -0.020478934 1.2070753e-38 319 256
0 0.73000002 -0.020478934 9.5846923e-39 320 256
0.0012799334 0.73000002 -0.020478934 8.8471273e-39 321 256
0.0025633732 0.73100001 -0.020506985 8.0180561e-39 322 256
0.0038397999 0.73000002 -0.020478934 7.7411104e-39 323 256
0.0051057064 0.72799999 -0.020422826 7.3719552e-39 324 256
0.0063821329 0.72799999 -0.020422826 7.095727e-39 325 256
0.0076585598 0.72799999 -0.020422826 6.7287438e-39 326 256
0.0089227129 0.727 -0.020394772 6.6365495e-39 327 256
0.010197386 0.727 -0.020394772 6.7291025e-39 328 256
0.01147206 0.727 -0.020394772 7.1900736e-39 329 256
0.012711667 0.72500002 -0.020338668 7.8332808e-39 330 256
0.013982833 0.72500002 -0.020338668 7.8332808e-39 331 256
0.015254001 0.72500002 -0.020338668 7.8347158e-39 332 256
0.016525166 0.72500002 -0.020338668 8.0187455e-39 333 256
0.017747238 0.72299999 -0.020282559 8.1109397e-39 334 256
0.019014901 0.72299999 -0.020282559 8.1109397e-39 335 256
0.020282559 0.72299999 -0.020282559 8.110581e-39 336 256
0.021550218 0.72299999 -0.020282559 8.2027752e-39 337 256
0.02281788 0.72299999 -0.020282559 8.1112985e-39 338 256
0.024085538 0.72299999 -0.020282559 8.2034927e-39 339 256
0.025353199 0.72299999 -0.020282559 8.2949694e-39 340 256
0.026620859 0.72299999 -0.020282559 8.110581e-39 341 256
0.027849946 0.722 -0.020254506 7.8347158e-39 342 256
0.029115854 0.722 -0.020254506 7.7425215e-39 343 256
0.030381758 0.722 -0.020254506 8.1080699e-39 344 256
0.031647664 0.722 -0.020254506 8.3850113e-39 345 256
0.032913569 0.722 -0.020254506 7.9240401e-39 346 256
0.034179479 0.722 -0.020254506 7.9240401e-39 347 256
0.035445385 0.722 -0.020254506 7.372681e-39 348 256
0.036609601 0.72000003 -0.020198401 7.4652354e-39 349 256
0.037871998 0.72000003 -0.020198401 7.1893842e-39 350 256
0.039080046 0.71899998 -0.020170346 7.5581667e-39 351 256
0.040340692 0.71899998 -0.020170346 8.3854289e-39 352 256
0.041601337 0.71899998 -0.020170346 9.3073852e-39 353 256
-0.0038135003 0.72500002 -0.021609833 1.2623924e-38 317 257
-0.0025528532 0.72799999 -0.021699252 1.1058027e-38 318 257
-0.0012764266 0.72799999 -0.021699252 1.0320462e-38 319 257
0 0.727 -0.021669446 8.6634353e-39 320 257
0.0012746733 0.727 -0.021669446 8.1106202e-39 321 257
0.0025598668 0.73000002 -0.021758866 7.372681e-39 322 257
0.0038292799 0.72799999 -0.021699252 7.2804854e-39 323 257
0.0050986931 0.727 -0.021669446 7.2790393e-39 324 257
0.0063733663 0.727 -0.021669446 7.0946508e-39 325 257
0.0076270006 0.72500002 -0.021609833 6.912056e-39 326 257
0.0088981669 0.72500002 -0.021609833 7.0964445e-39 327 257
0.010169334 0.72500002 -0.021609833 7.2819091e-39 328 257
0.0114405 0.72500002 -0.021609833 7.4666563e-39 329 257
0.012676599 0.72299999 -0.021550218 8.0173106e-39 330 257
0.01394426 0.72299999 -0.021550218 7.9247576e-39 331 257
0.015254001 0.72500002 -0.021609833 7.5574156e-39 332 257
0.01647958 0.72299999 -0.021550218 7.5574156e-39 333 257
0.017747238 0.72299999 -0.021550218 7.5563394e-39 334 257
0.019014901 0.72299999 -0.021550218 7.5563394e-39 335 257
0.020282559 0.72299999 -0.021550218 7.3730272e-39 336 257
0.021550218 0.72299999 -0.021550218 7.5574156e-39 337 257
0.02281788 0.72299999 -0.021550218 7.467015e-39 338 257
0.024085538 0.72299999 -0.021550218 7.559568e-39 339 257
0.025318133 0.722 -0.021520413 7.652121e-39 340 257
0.026584039 0.722 -0.021520413 7.652121e-39 341 257
0.027849946 0.722 -0.021520413 7.467015e-39 342 257
0.029115854 0.722 -0.021520413 7.3744621e-39 343 257
0.030381758 0.722 -0.021520413 7.4645039e-39 344 257
0.03156 0.72000003 -0.021460801 7.6488924e-39 345 257
0.0328224 0.72000003 -0.021460801 7.6488924e-39 346 257
0.034179479 0.722 -0.021520413 7.4645039e-39 347 257
0.035445385 0.722 -0.021520413 7.6474574e-39 348 257
0.036609601 0.72000003 -0.021460801 7.7396517e-39 349 257
0.037819397 0.71899998 -0.021430992 7.3726866e-39 350 257
0.039080046 0.71899998 -0.021430992 7.7411104e-39 351 257
0.040340692 0.71899998 -0.021430992 7.9251668e-39 352 257
0.041601337 0.71899998 -0.021430992 8.1099182e-39 353 257
-0.0050846669 0.72500002 -0.022880999 1.2071103e-38 316 258
-0.0038135003 0.72500002 -0.022880999 1.0688169e-38 317 258
-0.0025423334 0.72500002 -0.022880999 8.8485496e-39 318 258
-0.0012711667 0.72500002 -0.022880999 8.1109846e-39 319 258
0 0.72500002 -0.022880999 7.7414608e-39 320 258
0.0012711667 0.72500002 -0.022880999 7.6492637e-39 321 258
0.0025493465 0.727 -0.022944121 7.3723097e-39 322 258
0.0038240198 0.727 -0.022944121 7.18828e-39 323 258
0.0050846669 0.72500002 -0.022880999 7.0038915e-39 324 258
0.0063558333 0.72500002 -0.022880999 7.0038915e-39 325 258
0.0076270006 0.72500002 -0.022880999 7.0049677e-39 326 258
0.0088736191 0.72299999 -0.02281788 7.2819091e-39 327 258
0.01014128 0.72299999 -0.02281788 7.7425215e-39 328 258
0.01140894 0.72299999 -0.02281788 7.6499686e-39 329 258
0.012676599 0.72299999 -0.02281788 8.1077111e-39 330 258
0.01394426 0.72299999 -0.02281788 7.8307697e-39 331 258
0.015211919 0.72299999 -0.02281788 7.2797567e-39 332 258
0.01647958 0.72299999 -0.02281788 7.1875625e-39 333 258
0.017747238 0.72299999 -0.02281788 6.9116973e-39 334 258
0.019014901 0.72299999 -0.02281788 6.9116973e-39 335 258
0.020254506 0.722 -0.022786319 6.728385e-39 336 258
0.021520413 0.722 -0.022786319 7.0049677e-39 337 258
0.022786319 0.722 -0.022786319 7.0049677e-39 338 258
0.024052227 0.722 -0.022786319 7.0971619e-39 339 258
0.025318133 0.722 -0.022786319 7.2819091e-39 340 258
0.026584039 0.722 -0.022786319 7.3741034e-39 341 258
0.027772799 0.72000003 -0.022723202 7.1915086e-39 342 258
0.029035201 0.72000003 -0.022723202 6.6383432e-39 343 258
0.0302976 0.72000003 -0.022723202 7.1875625e-39 344 258
0.031516165 0.71899998 -0.022691639 7.1875625e-39 345 258
0.032776814 0.71899998 -0.022691639 7.554187e-39 346 258
0.03403746 0.71899998 -0.022691639 7.7382167e-39 347 258
0.035347197 0.72000003 -0.022723202 7.830411e-39 348 258
0.036558751 0.71899998 -0.022691639 7.9226052e-39 349 258
0.037819397 0.71899998 -0.022691639 7.4645039e-39 350 258
0.039080046 0.71899998 -0.022691639 7.6488952e-39 351 258
0.040340692 0.71899998 -0.022691639 7.833662e-39 352 258
0.041601337 0.71899998 -0.022691639 8.1102489e-39 353 258
-0.0063382997 0.72299999 -0.024085538 1.3175301e-38 315 259
-0.0050706398 0.72299999 -0.024085538 1.0966551e-38 316 259
-0.0038029798 0.72299999 -0.024085538 9.2148336e-39 317 259
-0.0025353199 0.72299999 -0.024085538 8.1113349e-39 318 259
-0.0012676599 0.72299999 -0.024085538 7.2819329e-39 319 259
0 0.72299999 -0.024085538 7.1890058e-39 320 259
0.0012676599 0.72299999 -0.024085538 7.0049747e-39 321 259
0.0025353199 0.72299999 -0.024085538 7.004609e-39 322 259
0.0038029798 0.72299999 -0.024085538 7.0968032e-39 323 259
0.0050706398 0.72299999 -0.024085538 7.3723097e-39 324 259
0.0063382997 0.72299999 -0.024085538 7.4645039e-39 325 259
0.0076059597 0.72299999 -0.024085538 7.2819091e-39 326 259
0.0088736191 0.72299999 -0.024085538 7.2819091e-39 327 259
0.01014128 0.72299999 -0.024085538 7.3744621e-39 328 259
0.01140894 0.72299999 -0.024085538 7.4666563e-39 329 259
0.012659066 0.722 -0.024052227 7.6481749e-39 330 259
0.013924973 0.722 -0.024052227 7.6481749e-39 331 259
0.015190879 0.722 -0.024052227 6.912056e-39 332 259
0.01647958 0.72299999 -0.024085538 6.8198618e-39 333 259
0.017722692 0.722 -0.024052227 6.0855366e-39 334 259
0.0189886 0.722 -0.024052227 6.0855366e-39 335 259
0.020254506 0.722 -0.024052227 5.9940598e-39 336 259
0.021520413 0.722 -0.024052227 6.086254e-39 337 259
0.022786319 0.722 -0.024052227 6.177372e-39 338 259
0.024052227 0.722 -0.024052227 6.177372e-39 339 259
0.025248 0.72000003 -0.0239856 6.0873302e-39 340 259
0.026510401 0.72000003 -0.0239856 6.2713599e-39 341 259
0.027734226 0.71899998 -0.023952285 6.5457902e-39 342 259
0.028994869 0.71899998 -0.023952285 6.3614018e-39 343 259
0.030255521 0.71899998 -0.023952285 6.5429204e-39 344 259
0.031428497 0.71700001 -0.02388566 6.7269501e-39 345 259
0.032685637 0.71700001 -0.02388566 6.8191443e-39 346 259
0.03403746 0.71899998 -0.023952285 7.0038915e-39 347 259
0.035298105 0.71899998 -0.023952285 7.7400104e-39 348 259
0.036457058 0.71700001 -0.02388566 7.7400104e-39 349 259
0.037714198 0.71700001 -0.02388566 8.0155169e-39 350 259
0.038971342 0.71700001 -0.02388566 8.1077111e-39 351 259
0.040228479 0.71700001 -0.02388566 7.7414608e-39 352 259
0.041485619 0.71700001 -0.02388566 8.110602e-39 353 259
0.042861983 0.71899998 -0.023952285 8.1109846e-39 354 259
-0.0075954394 0.722 -0.025318133 1.2807589e-38 314 260
-0.0063295332 0.722 -0.025318133 1.0410861e-38 315 260
-0.0050706398 0.72299999 -0.025353199 8.6634381e-39 316 260
-0.0038029798 0.72299999 -0.025353199 7.925873e-39 317 260
-0.0025353199 0.72299999 -0.025353199 7.4666689e-39 318 260
-0.0012676599 0.72299999 -0.025353199 7.0982451e-39 319 260
0 0.722 -0.025318133 7.2815504e-39 320 260
0.0012659066 0.722 -0.025318133 6.8205793e-39 321 260
0.0025353199 0.72299999 -0.025353199 7.0053264e-39 322 260
0.0037977197 0.722 -0.025318133 7.0975207e-39 323 260
0.0050636264 0.722 -0.025318133 7.3744621e-39 324 260
0.0063295332 0.722 -0.025318133 7.4666563e-39 325 260
0.0075954394 0.722 -0.025318133 7.4655801e-39 326 260
0.0088613462 0.722 -0.025318133 7.4655801e-39 327 260
0.010127253 0.722 -0.025318133 7.7396517e-39 328 260
0.01139316 0.722 -0.025318133 8.0158756e-39 329 260
0.012659066 0.722 -0.025318133 7.3748208e-39 330 260
0.013924973 0.722 -0.025318133 6.9142084e-39 331 260
0.015190879 0.722 -0.025318133 6.637267e-39 332 260
0.016456785 0.722 -0.025318133 6.5450728e-39 333 260
0.017722692 0.722 -0.025318133 5.9940598e-39 334 260
0.0189886 0.722 -0.025318133 5.9940598e-39 335 260
0.020254506 0.722 -0.025318133 5.8103888e-39 336 260
0.021520413 0.722 -0.025318133 5.8103888e-39 337 260
0.022786319 0.722 -0.025318133 5.9937011e-39 338 260
0.0239856 0.72000003 -0.025248 5.9937011e-39 339 260
0.025248 0.72000003 -0.025248 5.9937011e-39 340 260
0.02647358 0.71899998 -0.025212931 6.0858953e-39 341 260
0.027734226 0.71899998 -0.025212931 6.3603256e-39 342 260
0.028914221 0.71700001 -0.0251428 6.2681313e-39 343 260
0.030171359 0.71700001 -0.0251428 6.1759371e-39 344 260
0.031428497 0.71700001 -0.0251428 6.2681313e-39 345 260
0.032685637 0.71700001 -0.0251428 6.8198618e-39 346 260
0.033942781 0.71700001 -0.0251428 7.3730272e-39 347 260
0.035199918 0.71700001 -0.0251428 7.9258338e-39 348 260
0.036457058 0.71700001 -0.0251428 8.018028e-39 349 260
0.037714198 0.71700001 -0.0251428 8.0173106e-39 350 260
0.038971342 0.71700001 -0.0251428 7.9251163e-39 351 260
0.040228479 0.71700001 -0.0251428 7.8350745e-39 352 260
0.041485619 0.71700001 -0.0251428 8.019463e-39 353 260
0.042742759 0.71700001 -0.0251428 8.2949863e-39 354 260
0.043999899 0.71700001 -0.0251428 8.3871819e-39 355 260
0.045257039 0.71700001 -0.0251428 8.6619933e-39 356 260
-0.0088736191 0.72299999 -0.026620859 1.299127e-38 313 261
-0.0075954394 0.722 -0.026584039 1.0785033e-38 314 261
-0.0063295332 0.722 -0.026584039 8.0191645e-39 315 261
-0.0050636264 0.722 -0.026584039 8.2028116e-39 316 261
-0.0037977197 0.722 -0.026584039 8.018419e-39 317 261
-0.0025318132 0.722 -0.026584039 7.4666689e-39 318 261
-0.0012659066 0.722 -0.026584039 6.9134951e-39 319 261
0 0.722 -0.026584039 6.5457902e-39 320 261
0.0012659066 0.722 -0.026584039 6.453596e-39 321 261
0.0025318132 0.722 -0.026584039 6.7294612e-39 322 261
0.0037977197 0.722 -0.026584039 7.0060439e-39 323 261
0.0050636264 0.722 -0.026584039 7.650686e-39 324 261
0.0063295332 0.722 -0.026584039 7.4666563e-39 325 261
0.0075954394 0.722 -0.026584039 7.7392929e-39 326 261
0.0088613462 0.722 -0.026584039 7.4627103e-39 327 261
0.010127253 0.722 -0.026584039 6.4532373e-39 328 261
0.01139316 0.722 -0.026584039 6.4532373e-39 329 261
0.012659066 0.722 -0.026584039 6.6369083e-39 330 261
0.013924973 0.722 -0.026584039 6.5443553e-39 331 261
0.015190879 0.722 -0.026584039 6.2681313e-39 332 261
0.016456785 0.722 -0.026584039 6.1759371e-39 333 261
0.017722692 0.722 -0.026584039 5.7174771e-39 334 261
0.0189886 0.722 -0.026584039 5.7174771e-39 335 261
0.020254506 0.722 -0.026584039 5.5345236e-39 336 261
0.021520413 0.722 -0.026584039 5.6267178e-39 337 261
0.022786319 0.722 -0.026584039 5.8100301e-39 338 261
0.0239856 0.72000003 -0.026510401 5.8100301e-39 339 261
0.025212931 0.71899998 -0.02647358 5.8100301e-39 340 261
0.02647358 0.71899998 -0.02647358 5.7178358e-39 341 261
0.027734226 0.71899998 -0.02647358 5.8096713e-39 342 261
0.028914221 0.71700001 -0.02639994 5.8096713e-39 343 261
0.030171359 0.71700001 -0.02639994 5.9933423e-39 344 261
0.031428497 0.71700001 -0.02639994 5.9933423e-39 345 261
0.032685637 0.71700001 -0.02639994 6.4539547e-39 346 261
0.033942781 0.71700001 -0.02639994 6.8223729e-39 347 261
0.035199918 0.71700001 -0.02639994 8.018028e-39 348 261
0.036457058 0.71700001 -0.02639994 8.1102223e-39 349 261
0.037661601 0.71600002 -0.026363119 8.6619527e-39 350 261
0.038916986 0.71600002 -0.026363119 8.5697585e-39 351 261
0.040172372 0.71600002 -0.026363119 8.5704759e-39 352 261
0.041427758 0.71600002 -0.026363119 8.6626702e-39 353 261
0.042683143 0.71600002 -0.026363119 8.479009e-39 354 261
0.043938532 0.71600002 -0.026363119 8.6634002e-39 355 261
0.045257039 0.71700001 -0.02639994 8.5712242e-39 356 261
0.046514176 0.71700001 -0.02639994 8.6634199e-39 357 261
0.04777132 0.71700001 -0.02639994 8.8460315e-39 358 261
-0.0088736191 0.72299999 -0.02788852 1.1423585e-38 313 262
-0.0075954394 0.722 -0.027849946 9.2180608e-39 314 262
-0.0063295332 0.722 -0.027849946 7.1897569e-39 315 262
-0.0050636264 0.722 -0.027849946 7.9262107e-39 316 262
-0.0037977197 0.722 -0.027849946 7.7414608e-39 317 262
-0.0025318132 0.722 -0.027849946 7.2815504e-39 318 262
-0.0012624001 0.72000003 -0.027772799 6.8205793e-39 319 262
0 0.72000003 -0.027772799 6.6361908e-39 320 262
0.0012624001 0.72000003 -0.027772799 6.6361908e-39 321 262
0.0025248001 0.72000003 -0.027772799 7.004609e-39 322 262
0.0037872 0.72000003 -0.027772799 7.3730272e-39 323 262
0.0050496003 0.72000003 -0.027772799 7.6492511e-39 324 262
0.0063120001 0.72000003 -0.027772799 7.5570569e-39 325 262
0.0075743999 0.72000003 -0.027772799 7.3715922e-39 326 262
0.0088613462 0.722 -0.027849946 7.0946508e-39 327 262
0.010127253 0.722 -0.027849946 6.2681313e-39 328 262
0.01139316 0.722 -0.027849946 6.2681313e-39 329 262
0.012659066 0.722 -0.027849946 6.0833842e-39 330 262
0.0138864 0.72000003 -0.027772799 5.9911899e-39 331 262
0.0151488 0.72000003 -0.027772799 5.898637e-39 332 262
0.016456785 0.722 -0.027849946 5.898637e-39 333 262
0.017722692 0.722 -0.027849946 5.5316537e-39 334 262
0.0189886 0.722 -0.027849946 5.7156834e-39 335 262
0.020254506 0.722 -0.027849946 5.5330886e-39 336 262
0.021520413 0.722 -0.027849946 5.7174771e-39 337 262
0.022786319 0.722 -0.027849946 5.5348823e-39 338 262
0.0239856 0.72000003 -0.027772799 5.5348823e-39 339 262
0.025212931 0.71899998 -0.027734226 5.5345236e-39 340 262
0.02647358 0.71899998 -0.027734226 5.5345236e-39 341 262
0.027657079 0.71700001 -0.027657079 5.8096713e-39 342 262
0.028914221 0.71700001 -0.027657079 5.9940598e-39 343 262
0.03012928 0.71600002 -0.027618507 6.1780895e-39 344 262
0.031384666 0.71600002 -0.027618507 6.1780895e-39 345 262
0.032640055 0.71600002 -0.027618507 6.8216554e-39 346 262
0.03389544 0.71600002 -0.027618507 7.1904324e-39 347 262
0.035052639 0.71399999 -0.02754136 8.38537e-39 348 262
0.036304519 0.71399999 -0.02754136 8.8463412e-39 349 262
0.037556399 0.71399999 -0.02754136 9.0310883e-39 350 262
0.038808275 0.71399999 -0.02754136 9.0310883e-39 351 262
0.040060159 0.71399999 -0.02754136 8.9385354e-39 352 262
0.041427758 0.71600002 -0.027618507 9.0310883e-39 353 262
0.042683143 0.71600002 -0.027618507 8.7552245e-39 354 262
0.043938532 0.71600002 -0.027618507 8.7552245e-39 355 262
0.045193922 0.71600002 -0.027618507 8.7552399e-39 356 262
0.046449307 0.71600002 -0.027618507 8.8474356e-39 357 262
0.047704693 0.71600002 -0.027618507 9.1218799e-39 358 262
0.04902846 0.71700001 -0.027657079 9.1218799e-39 359 262
0.0502856 0.71700001 -0.027657079 8.8478461e-39 360 262
-0.01014128 0.72299999 -0.029156178 1.2808671e-38 312 263
-0.0088736191 0.72299999 -0.029156178 9.4896282e-39 313 263
-0.0075954394 0.722 -0.029115854 7.5588898e-39 314 263
-0.0063295332 0.722 -0.029115854 7.4666942e-39 315 263
-0.0050496003 0.72000003 -0.029035201 7.6503441e-39 316 263
-0.0037872 0.72000003 -0.029035201 7.2815602e-39 317 263
-0.0025248001 0.72000003 -0.029035201 7.004609e-39 318 263
-0.0012606466 0.71899998 -0.028994869 6.6361908e-39 319 263
0 0.71899998 -0.028994869 6.3606843e-39 320 263
0.0012606466 0.71899998 -0.028994869 6.544714e-39 321 263
0.0025212932 0.71899998 -0.028994869 7.0053264e-39 322 263
0.0037819401 0.71899998 -0.028994869 7.3741034e-39 323 263
0.0050425865 0.71899998 -0.028994869 7.6492511e-39 324 263
0.0063032326 0.71899998 -0.028994869 7.4645039e-39 325 263
0.0075638802 0.71899998 -0.028994869 7.0042502e-39 326 263
0.0088367993 0.72000003 -0.029035201 6.7273088e-39 327 263
0.010099201 0.72000003 -0.029035201 5.8085951e-39 328 263
0.011361601 0.72000003 -0.029035201 5.7164009e-39 329 263
0.012624 0.72000003 -0.029035201 5.3479827e-39 330 263
0.0138864 0.72000003 -0.029035201 5.163953e-39 331 263
0.0151488 0.72000003 -0.029035201 5.2547123e-39 332 263
0.0164112 0.72000003 -0.029035201 5.2547123e-39 333 263
0.017722692 0.722 -0.029115854 5.0710413e-39 334 263
0.0189886 0.722 -0.029115854 5.3472653e-39 335 263
0.020254506 0.722 -0.029115854 5.1646705e-39 336 263
0.021520413 0.722 -0.029115854 5.3490617e-39 337 263
0.022786319 0.722 -0.029115854 5.258301e-39 338 263
0.0239856 0.72000003 -0.029035201 5.258301e-39 339 263
0.025212931 0.71899998 -0.028994869 5.3497764e-39 340 263
0.02647358 0.71899998 -0.028994869 5.4419706e-39 341 263
0.027657079 0.71700001 -0.028914221 5.9940598e-39 342 263
0.028873893 0.71600002 -0.028873893 6.086254e-39 343 263
0.03012928 0.71600002 -0.028873893 6.5450728e-39 344 263
0.031296998 0.71399999 -0.028793238 6.7294612e-39 345 263
0.032548878 0.71399999 -0.028793238 7.1900736e-39 346 263
0.033800758 0.71399999 -0.028793238 7.650686e-39 347 263
0.035003547 0.713 -0.028752912 8.7541469e-39 348 263
0.036253672 0.713 -0.028752912 9.1232826e-39 349 263
0.037503798 0.713 -0.028752912 9.7672072e-39 350 263
0.038753927 0.713 -0.028752912 9.675013e-39 351 263
0.040004052 0.713 -0.028752912 9.4902658e-39 352 263
0.041254178 0.713 -0.028752912 9.4902658e-39 353 263
0.042563915 0.71399999 -0.028793238 8.9392528e-39 354 263
0.043815799 0.71399999 -0.028793238 9.0314471e-39 355 263
0.045067675 0.71399999 -0.028793238 8.8470698e-39 356 263
0.046449307 0.71600002 -0.028873893 8.8470698e-39 357 263
0.047704693 0.71600002 -0.028873893 8.8467223e-39 358 263
0.04902846 0.71700001 -0.028914221 8.7545267e-39 359 263
0.0502856 0.71700001 -0.028914221 8.6609213e-39 360 263
0.051542737 0.71700001 -0.028914221 9.5828776e-39 361 263
-0.01014128 0.72299999 -0.030423839 1.1702314e-38 312 264
-0.0088736191 0.72299999 -0.030423839 8.1992397e-39 313 264
-0.0075954394 0.722 -0.030381758 6.7305514e-39 314 264
-0.0063295332 0.722 -0.030381758 7.2837252e-39 315 264
-0.0050496003 0.72000003 -0.0302976 7.4663018e-39 316 264
-0.0037872 0.72000003 -0.0302976 7.0053264e-39 317 264
-0.0025212932 0.71899998 -0.030255521 6.820938e-39 318 264
-0.0012606466 0.71899998 -0.030255521 6.6361908e-39 319 264
0 0.71700001 -0.030171359 6.2692075e-39 320 264
0.00125714 0.71700001 -0.030171359 6.546149e-39 321 264
0.0025142799 0.71700001 -0.030171359 7.0971619e-39 322 264
0.0037714199 0.71700001 -0.030171359 7.3741034e-39 323 264
0.0050425865 0.71899998 -0.030255521 7.6488924e-39 324 264
0.0063032326 0.71899998 -0.030255521 7.3723097e-39 325 264
0.0075638802 0.71899998 -0.030255521 6.9109798e-39 326 264
0.0088245263 0.71899998 -0.030255521 6.7265914e-39 327 264
0.010099201 0.72000003 -0.0302976 5.7160422e-39 328 264
0.011361601 0.72000003 -0.0302976 5.5320124e-39 329 264
0.012624 0.72000003 -0.0302976 5.0714e-39 330 264
0.0138864 0.72000003 -0.0302976 4.9792058e-39 331 264
0.0151488 0.72000003 -0.0302976 4.8866528e-39 332 264
0.0164112 0.72000003 -0.0302976 4.8866528e-39 333 264
0.017722692 0.722 -0.030381758 4.7029819e-39 334 264
0.0189886 0.722 -0.030381758 4.9792072e-39 335 264
0.020254506 0.722 -0.030381758 4.7962579e-39 336 264
0.021520413 0.722 -0.030381758 4.9810079e-39 337 264
0.022786319 0.722 -0.030381758 4.9810051e-39 338 264
0.0239856 0.72000003 -0.0302976 4.9810051e-39 339 264
0.025212931 0.71899998 -0.030255521 4.7984047e-39 340 264
0.02639994 0.71700001 -0.030171359 5.0746286e-39 341 264
0.027618507 0.71600002 -0.03012928 5.7181946e-39 342 264
0.028793238 0.71399999 -0.030045118 5.8103888e-39 343 264
0.030045118 0.71399999 -0.030045118 6.637267e-39 344 264
0.031253166 0.713 -0.030003037 6.9138497e-39 345 264
0.032503292 0.713 -0.030003037 7.467015e-39 346 264
0.033658739 0.71100003 -0.029918881 7.9276275e-39 347 264
0.034905359 0.71100003 -0.029918881 8.9410465e-39 348 264
0.036151983 0.71100003 -0.029918881 9.3094647e-39 349 264
0.037398599 0.71100003 -0.029918881 1.004379e-38 350 264
0.038645219 0.71100003 -0.029918881 9.8597602e-39 351 264
0.039891839 0.71100003 -0.029918881 9.7672072e-39 352 264
0.041138459 0.71100003 -0.029918881 9.675013e-39 353 264
0.042385083 0.71100003 -0.029918881 9.3073123e-39 354 264
0.043754432 0.713 -0.030003037 9.3073123e-39 355 264
0.045067675 0.71399999 -0.030045118 9.1236497e-39 356 264
0.046319555 0.71399999 -0.030045118 8.9396186e-39 357 264
0.047571439 0.71399999 -0.030045118 8.8470726e-39 358 264
0.048960082 0.71600002 -0.03012928 8.8470726e-39 359 264
0.0502856 0.71700001 -0.030171359 8.476879e-39 360 264
0.051542737 0.71700001 -0.030171359 8.5690746e-39 361 264
0.05294716 0.71899998 -0.030255521 9.8627268e-39 362 264
-0.01139316 0.722 -0.031647664 1.1608696e-38 311 265
-0.0088736191 0.72299999 -0.031691495 6.9117253e-39 313 265
-0.0075954394 0.722 -0.031647664 7.6506973e-39 314 265
-0.0063120001 0.72000003 -0.03156 7.5585016e-39 315 265
-0.0050425865 0.71899998 -0.031516165 7.1907911e-39 316 265
-0.0037819401 0.71899998 -0.031516165 6.8216554e-39 317 265
-0.0025142799 0.71700001 -0.031428497 6.6369083e-39 318 265
-0.00125714 0.71700001 -0.031428497 6.544714e-39 319 265
0 0.71700001 -0.031428497 6.2692075e-39 320 265
0.00125714 0.71700001 -0.031428497 6.4539547e-39 321 265
0.0025142799 0.71700001 -0.031428497 7.1889974e-39 322 265
0.0037714199 0.71700001 -0.031428497 7.5574156e-39 323 265
0.0050285598 0.71700001 -0.031428497 7.7400104e-39 324 265
0.0062857 0.71700001 -0.031428497 7.3715922e-39 325 265
0.0075428397 0.71700001 -0.031428497 6.7269501e-39 326 265
0.0087999795 0.71700001 -0.031428497 6.5429204e-39 327 265
0.010085173 0.71899998 -0.031516165 5.7160422e-39 328 265
0.01134582 0.71899998 -0.031516165 5.4398182e-39 329 265
0.012606465 0.71899998 -0.031516165 4.9792058e-39 330 265
0.013867113 0.71899998 -0.031516165 4.8870116e-39 331 265
0.0151488 0.72000003 -0.03156 4.7944586e-39 332 265
0.0164112 0.72000003 -0.03156 4.7944586e-39 333 265
0.017673599 0.72000003 -0.03156 4.7940999e-39 334 265
0.0189886 0.722 -0.031647664 4.8862941e-39 335 265
0.020254506 0.722 -0.031647664 4.9792072e-39 336 265
0.021520413 0.722 -0.031647664 5.1635985e-39 337 265
0.022786319 0.722 -0.031647664 5.0714028e-39 338 265
0.0239856 0.72000003 -0.03156 5.0714028e-39 339 265
0.025248 0.72000003 -0.03156 4.9809995e-39 340 265
0.026363119 0.71600002 -0.031384666 5.2572234e-39 341 265
0.027502786 0.713 -0.031253166 5.8096713e-39 342 265
0.028672259 0.71100003 -0.031165501 6.086254e-39 343 265
0.029918881 0.71100003 -0.031165501 6.7294612e-39 344 265
0.031121666 0.70999998 -0.031121666 7.0064026e-39 345 265
0.032366529 0.70999998 -0.031121666 7.7428803e-39 346 265
0.033611398 0.70999998 -0.031121666 8.4804341e-39 347 265
0.034856264 0.70999998 -0.031121666 9.4931357e-39 348 265
0.036101133 0.70999998 -0.031121666 9.7697184e-39 349 265
0.037345998 0.70999998 -0.031121666 1.0135267e-38 350 265
0.038590867 0.70999998 -0.031121666 1.0043072e-38 351 265
0.039835732 0.70999998 -0.031121666 9.6757305e-39 352 265
0.041080594 0.70999998 -0.031121666 9.491342e-39 353 265
0.042325463 0.70999998 -0.031121666 9.3073123e-39 354 265
0.043631699 0.71100003 -0.031165501 9.3995065e-39 355 265
0.045004558 0.713 -0.031253166 8.9406906e-39 356 265
0.046319555 0.71399999 -0.031296998 8.9406906e-39 357 265
0.047571439 0.71399999 -0.031296998 8.9399843e-39 358 265
0.048960082 0.71600002 -0.031384666 8.6633974e-39 359 265
0.050215468 0.71600002 -0.031384666 8.4783125e-39 360 265
0.051542737 0.71700001 -0.031428497 8.2935611e-39 361 265
0.052799881 0.71700001 -0.031428497 8.0198833e-39 362 265
0.054057021 0.71700001 -0.031428497 1.0140383e-38 363 265
-0.012676599 0.72299999 -0.032959159 1.2994501e-38 310 266
-0.01139316 0.722 -0.032913569 9.9524042e-39 311 266
-0.010127253 0.722 -0.032913569 6.6365804e-39 312 266
-0.0088613462 0.722 -0.032913569 7.0975571e-39 313 266
-0.0075743999 0.72000003 -0.0328224 7.4677507e-39 314 266
-0.0063032326 0.71899998 -0.032776814 7.2833595e-39 315 266
-0.0050285598 0.71700001 -0.032685637 7.3741034e-39 316 266
-0.0037714199 0.71700001 -0.032685637 7.0971619e-39 317 266
-0.0025107733 0.71600002 -0.032640055 7.004609e-39 318 266
-0.0012553866 0.71600002 -0.032640055 6.912056e-39 319 266
0 0.71600002 -0.032640055 6.4539547e-39 320 266
0.0012553866 0.71600002 -0.032640055 6.4539547e-39 321 266
0.0025107733 0.71600002 -0.032640055 6.8216554e-39 322 266
0.00376616 0.71600002 -0.032640055 6.9138497e-39 323 266
0.0050215465 0.71600002 -0.032640055 7.1886387e-39 324 266
0.0062769335 0.71600002 -0.032640055 7.0038915e-39 325 266
0.00753232 0.71600002 -0.032640055 6.8195031e-39 326 266
0.0087877065 0.71600002 -0.032640055 6.5432791e-39 327 266
0.01005712 0.71700001 -0.032685637 5.9911899e-39 328 266
0.01131426 0.71700001 -0.032685637 5.6227717e-39 329 266
0.0125714 0.71700001 -0.032685637 4.8870116e-39 330 266
0.013867113 0.71899998 -0.032776814 4.7948174e-39 331 266
0.01512776 0.71899998 -0.032776814 4.5178759e-39 332 266
0.0164112 0.72000003 -0.0328224 4.7022644e-39 333 266
0.017673599 0.72000003 -0.0328224 4.5175172e-39 334 266
0.0189886 0.722 -0.032913569 4.7937412e-39 335 266
0.020254506 0.722 -0.032913569 4.70227e-39 336 266
0.021520413 0.722 -0.032913569 4.70227e-39 337 266
0.022786319 0.722 -0.032913569 4.6111492e-39 338 266
0.0239856 0.72000003 -0.0328224 4.6111492e-39 339 266
0.025248 0.72000003 -0.0328224 4.5214633e-39 340 266
0.026363119 0.71600002 -0.032640055 4.9820757e-39 341 266
0.027425639 0.71100003 -0.032412119 5.4426881e-39 342 266
0.028631933 0.70999998 -0.032366529 5.9033005e-39 343 266
0.029876797 0.70999998 -0.032366529 6.6383432e-39 344 266
0.031034 0.708 -0.03227536 7.0071201e-39 345 266
0.03227536 0.708 -0.03227536 8.0191042e-39 346 266
0.033516716 0.708 -0.03227536 8.3878811e-39 347 266
0.034758076 0.708 -0.03227536 9.1247175e-39 348 266
0.03599944 0.708 -0.03227536 9.3094647e-39 349 266
0.0372408 0.708 -0.03227536 9.6757305e-39 350 266
0.038482159 0.708 -0.03227536 9.6757305e-39 351 266
0.039723519 0.708 -0.03227536 9.7672072e-39 352 266
0.040964879 0.708 -0.03227536 9.7672072e-39 353 266
0.042206239 0.708 -0.03227536 9.675013e-39 354 266
0.043570329 0.70999998 -0.032366529 9.4909833e-39 355 266
0.044878319 0.71100003 -0.032412119 9.2161985e-39 356 266
0.046124939 0.71100003 -0.032412119 9.1240028e-39 357 266
0.047504812 0.713 -0.032503292 8.8481446e-39 358 266
0.048823316 0.71399999 -0.032548878 8.7555903e-39 359 266
0.050075196 0.71399999 -0.032548878 8.3864658e-39 360 266
0.051470853 0.71600002 -0.032640055 8.2939115e-39 361 266
0.052799881 0.71700001 -0.032685637 7.4641788e-39 362 266
0.054057021 0.71700001 -0.032685637 9.3080914e-39 363 266
0.055468451 0.71899998 -0.032776814 1.216402e-38 364 266
-0.01394426 0.72299999 -0.03422682 1.3266778e-38 309 267
-0.012676599 0.72299999 -0.03422682 1.1704472e-38 310 267
-0.01140894 0.72299999 -0.03422682 7.9244507e-39 311 267
-0.010127253 0.722 -0.034179479 5.2557941e-39 312 267
-0.0088613462 0.722 -0.034179479 6.915314e-39 313 267
-0.0075743999 0.72000003 -0.034084801 7.2840755e-39 314 267
-0.0062857 0.71700001 -0.033942781 7.1000444e-39 315 267
-0.0050285598 0.71700001 -0.033942781 7.4662976e-39 316 267
-0.00376616 0.71600002 -0.03389544 7.1897149e-39 317 267
-0.0025037599 0.71399999 -0.033800758 6.7294612e-39 318 267
-0.00125188 0.71399999 -0.033800758 6.7294612e-39 319 267
0 0.71399999 -0.033800758 6.4539547e-39 320 267
0.00125188 0.71399999 -0.033800758 6.4539547e-39 321 267
0.0025037599 0.71399999 -0.033800758 6.8216554e-39 322 267
0.0037503797 0.713 -0.033753417 6.8216554e-39 323 267
0.0050005065 0.713 -0.033753417 6.912056e-39 324 267
0.0062506334 0.713 -0.033753417 6.8198618e-39 325 267
0.0075007593 0.713 -0.033753417 6.3603256e-39 326 267
0.0087508867 0.713 -0.033753417 6.2681313e-39 327 267
0.01001504 0.71399999 -0.033800758 5.7160422e-39 328 267
0.01129848 0.71600002 -0.03389544 5.4398182e-39 329 267
0.0125714 0.71700001 -0.033942781 4.887729e-39 330 267
0.013828539 0.71700001 -0.033942781 4.6115051e-39 331 267
0.01512776 0.71899998 -0.03403746 4.7933824e-39 332 267
0.0164112 0.72000003 -0.034084801 4.608994e-39 333 267
0.017673599 0.72000003 -0.034084801 4.700112e-39 334 267
0.0189886 0.722 -0.034179479 4.8841417e-39 335 267
0.020254506 0.722 -0.034179479 4.9763359e-39 336 267
0.021520413 0.722 -0.034179479 4.8841417e-39 337 267
0.022786319 0.722 -0.034179479 4.7008295e-39 338 267
0.024052227 0.722 -0.034179479 4.7933824e-39 339 267
0.025318133 0.722 -0.034179479 4.7044168e-39 340 267
0.026584039 0.722 -0.034179479 5.1650292e-39 341 267
0.027309919 0.708 -0.033516716 5.9933423e-39 342 267
0.028510952 0.70700002 -0.033469379 6.1777308e-39 343 267
0.029750559 0.70700002 -0.033469379 6.8220142e-39 344 267
0.030990168 0.70700002 -0.033469379 7.3751796e-39 345 267
0.032229774 0.70700002 -0.033469379 8.1112985e-39 346 267
0.033469379 0.70700002 -0.033469379 8.4804341e-39 347 267
0.034708988 0.70700002 -0.033469379 9.307671e-39 348 267
0.035948593 0.70700002 -0.033469379 9.400224e-39 349 267
0.037188202 0.70700002 -0.033469379 9.767566e-39 350 267
0.038427804 0.70700002 -0.033469379 9.767566e-39 351 267
0.039667413 0.70700002 -0.033469379 9.4924182e-39 352 267
0.040907022 0.70700002 -0.033469379 9.4924182e-39 353 267
0.042146627 0.70700002 -0.033469379 9.4920595e-39 354 267
0.043447599 0.708 -0.033516716 9.3998653e-39 355 267
0.044688959 0.708 -0.033516716 9.2165544e-39 356 267
0.046060063 0.70999998 -0.033611398 9.1243588e-39 357 267
0.047371563 0.71100003 -0.033658739 8.8481446e-39 358 267
0.048618179 0.71100003 -0.033658739 8.6633946e-39 359 267
0.050005067 0.713 -0.033753417 8.4797349e-39 360 267
0.05132708 0.71399999 -0.033800758 8.1109523e-39 361 267
0.052726239 0.71600002 -0.03389544 8.2914129e-39 362 267
0.053981625 0.71600002 -0.03389544 9.028978e-39 363 267
0.055314157 0.71700001 -0.033942781 1.0598493e-38 364 267
0.056571297 0.71700001 -0.033942781 1.1797036e-38 365 267
-0.01394426 0.72299999 -0.035494477 1.2714321e-38 309 268
-0.012676599 0.72299999 -0.035494477 1.0505926e-38 310 268
-0.01139316 0.722 -0.035445385 7.2790785e-39 311 268
-0.010127253 0.722 -0.035445385 5.4391008e-39 312 268
-0.0088367993 0.72000003 -0.035347197 7.1908093e-39 313 268
-0.0075638802 0.71899998 -0.035298105 7.3769774e-39 314 268
-0.0062769335 0.71600002 -0.035150826 7.2847818e-39 315 268
-0.0050215465 0.71600002 -0.035150826 7.9254751e-39 316 268
-0.0037503797 0.713 -0.035003547 7.5566982e-39 317 268
-0.0025002533 0.713 -0.035003547 6.9142084e-39 318 268
-0.0012501266 0.713 -0.035003547 6.8216554e-39 319 268
0 0.713 -0.035003547 6.7294612e-39 320 268
0.0012501266 0.713 -0.035003547 6.7294612e-39 321 268
0.0025002533 0.713 -0.035003547 6.637267e-39 322 268
0.0037398601 0.71100003 -0.034905359 6.637267e-39 323 268
0.0049864799 0.71100003 -0.034905359 6.544714e-39 324 268
0.0062330998 0.71100003 -0.034905359 6.3606843e-39 325 268
0.0074797203 0.71100003 -0.034905359 6.3603256e-39 326 268
0.0087263398 0.71100003 -0.034905359 6.1759371e-39 327 268
0.0099729598 0.71100003 -0.034905359 5.9926249e-39 328 268
0.01129848 0.71600002 -0.035150826 5.8078777e-39 329 268
0.0125714 0.71700001 -0.035199918 5.4398182e-39 330 268
0.013828539 0.71700001 -0.035199918 5.1632355e-39 331 268
0.01512776 0.71899998 -0.035298105 5.0696064e-39 332 268
0.0164112 0.72000003 -0.035347197 4.9774121e-39 333 268
0.017673599 0.72000003 -0.035347197 4.6079178e-39 334 268
0.018935999 0.72000003 -0.035347197 4.6079178e-39 335 268
0.020198401 0.72000003 -0.035347197 4.423888e-39 336 268
0.021520413 0.722 -0.035445385 4.5160823e-39 337 268
0.022786319 0.722 -0.035445385 4.425323e-39 338 268
0.024052227 0.722 -0.035445385 4.7015469e-39 339 268
0.025318133 0.722 -0.035445385 4.887729e-39 340 268
0.02592128 0.704 -0.034561705 5.1643117e-39 341 268
0.027155625 0.704 -0.034561705 5.6252829e-39 342 268
0.028389972 0.704 -0.034561705 6.0858953e-39 343 268
0.029750559 0.70700002 -0.034708988 7.1897149e-39 344 268
0.030990168 0.70700002 -0.034708988 7.650686e-39 345 268
0.032229774 0.70700002 -0.034708988 8.5715521e-39 346 268
0.033469379 0.70700002 -0.034708988 8.8484935e-39 347 268
0.034708988 0.70700002 -0.034708988 9.1243588e-39 348 268
0.035948593 0.70700002 -0.034708988 9.1243588e-39 349 268
0.037188202 0.70700002 -0.034708988 9.400224e-39 350 268
0.038427804 0.70700002 -0.034708988 9.4924182e-39 351 268
0.039667413 0.70700002 -0.034708988 9.767566e-39 352 268
0.040907022 0.70700002 -0.034708988 9.675013e-39 353 268
0.042146627 0.70700002 -0.034708988 9.7668485e-39 354 268
0.043386232 0.70700002 -0.034708988 9.6746543e-39 355 268
0.044688959 0.708 -0.034758076 9.2158355e-39 356 268
0.045930319 0.708 -0.034758076 9.1236413e-39 357 268
0.047304932 0.70999998 -0.034856264 8.7555903e-39 358 268
0.048618179 0.71100003 -0.034905359 8.6633946e-39 359 268
0.050005067 0.713 -0.035003547 8.4790146e-39 360 268
0.051255193 0.713 -0.035003547 8.3864602e-39 361 268
0.052578956 0.71399999 -0.035052639 8.2002935e-39 362 268
0.053830836 0.71399999 -0.035052639 8.476879e-39 363 268
0.055237014 0.71600002 -0.035150826 9.5854168e-39 364 268
0.056492399 0.71600002 -0.035150826 1.1336775e-38 365 268
-0.013924973 0.722 -0.03671129 1.2161872e-38 309 269
-0.012659066 0.722 -0.03671129 8.9393229e-39 310 269
-0.01139316 0.722 -0.03671129 6.7266264e-39 311 269
-0.010099201 0.72000003 -0.036609601 5.9919144e-39 312 269
-0.0087999795 0.71700001 -0.036457058 7.4670445e-39 313 269
-0.00753232 0.71600002 -0.036406212 7.6539328e-39 314 269
-0.0062593995 0.71399999 -0.036304519 7.3777061e-39 315 269
-0.0050075199 0.71399999 -0.036304519 7.7425215e-39 316 269
-0.0037503797 0.713 -0.036253672 7.3741034e-39 317 269
-0.0025002533 0.713 -0.036253672 7.1904324e-39 318 269
-0.0012501266 0.713 -0.036253672 6.8216554e-39 319 269
0 0.713 -0.036253672 6.4539547e-39 320 269
0.0012501266 0.713 -0.036253672 6.4539547e-39 321 269
0.0024932399 0.71100003 -0.036151983 6.6369083e-39 322 269
0.0037345996 0.70999998 -0.036101133 6.544714e-39 323 269
0.0049794666 0.70999998 -0.036101133 6.3606843e-39 324 269
0.0062243328 0.70999998 -0.036101133 6.3606843e-39 325 269
0.0074691991 0.70999998 -0.036101133 6.2681313e-39 326 269
0.008689519 0.708 -0.03599944 6.3606843e-39 327 269
0.0099308798 0.708 -0.03599944 6.0855366e-39 328 269
0.01117224 0.708 -0.03599944 5.9011481e-39 329 269
0.0124136 0.708 -0.03599944 5.7164009e-39 330 269
0.0138864 0.72000003 -0.036609601 5.347624e-39 331 269
0.0151488 0.72000003 -0.036609601 5.1628768e-39 332 269
0.0164112 0.72000003 -0.036609601 4.7940999e-39 333 269
0.017673599 0.72000003 -0.036609601 4.7004707e-39 334 269
0.018935999 0.72000003 -0.036609601 4.423888e-39 335 269
0.020198401 0.72000003 -0.036609601 4.3309763e-39 336 269
0.021520413 0.722 -0.03671129 4.5157235e-39 337 269
0.022786319 0.722 -0.03671129 4.7011882e-39 338 269
0.024052227 0.722 -0.03671129 5.0699651e-39 339 269
0.024757065 0.70599997 -0.035897743 5.0717588e-39 340 269
0.02592128 0.704 -0.035796054 5.4405357e-39 341 269
0.027155625 0.704 -0.035796054 5.9926249e-39 342 269
0.028389972 0.704 -0.035796054 6.3614018e-39 343 269
0.029708479 0.70599997 -0.035897743 7.4655801e-39 344 269
0.030946331 0.70599997 -0.035897743 8.1109397e-39 345 269
0.032184184 0.70599997 -0.035897743 8.7562993e-39 346 269
0.033422034 0.70599997 -0.035897743 9.1247175e-39 347 269
0.034659892 0.70599997 -0.035897743 9.400224e-39 348 269
0.035897743 0.70599997 -0.035897743 9.3080298e-39 349 269
0.037135597 0.70599997 -0.035897743 9.4924182e-39 350 269
0.038373452 0.70599997 -0.035897743 9.4924182e-39 351 269
0.039611302 0.70599997 -0.035897743 9.7672072e-39 352 269
0.040849157 0.70599997 -0.035897743 9.7672072e-39 353 269
0.042087011 0.70599997 -0.035897743 9.7668485e-39 354 269
0.043386232 0.70700002 -0.035948593 9.6746543e-39 355 269
0.044625837 0.70700002 -0.035948593 9.3069536e-39 356 269
0.045865446 0.70700002 -0.035948593 9.1229238e-39 357 269
0.047171678 0.708 -0.03599944 8.8474258e-39 358 269
0.048549797 0.70999998 -0.036101133 8.7548714e-39 359 269
0.049864799 0.71100003 -0.036151983 8.6630443e-39 360 269
0.051111419 0.71100003 -0.036151983 8.2946205e-39 361 269
0.052358042 0.71100003 -0.036151983 8.2928451e-39 362 269
0.053755447 0.713 -0.036253672 8.1084538e-39 363 269
0.055005573 0.713 -0.036253672 8.3868736e-39 364 269
0.056255698 0.713 -0.036253672 1.0876156e-38 365 269
-0.015190879 0.722 -0.0379772 1.2993788e-38 308 270
-0.013924973 0.722 -0.0379772 1.105768e-38 309 270
-0.012659066 0.722 -0.0379772 7.2815966e-39 310 270
-0.011361601 0.72000003 -0.037871998 5.9908578e-39 311 270
-0.010085173 0.71899998 -0.037819397 6.6372838e-39 312 270
-0.0087999795 0.71700001 -0.037714198 7.9280226e-39 313 270
-0.00753232 0.71600002 -0.037661601 7.7464956e-39 314 270
-0.0062506334 0.713 -0.037503798 7.2858762e-39 315 270
-0.0050005065 0.713 -0.037503798 7.8336396e-39 316 270
-0.0037398601 0.71100003 -0.037398599 7.5570569e-39 317 270
-0.0024932399 0.71100003 -0.037398599 7.2819091e-39 318 270
-0.00124662 0.71100003 -0.037398599 7.0975207e-39 319 270
0 0.71100003 -0.037398599 6.4546722e-39 320 270
0.0012448666 0.70999998 -0.037345998 6.4546722e-39 321 270
0.0024897333 0.70999998 -0.037345998 6.7294612e-39 322 270
0.00372408 0.708 -0.0372408 6.637267e-39 323 270
0.0049654399 0.708 -0.0372408 6.6361908e-39 324 270
0.0062067998 0.708 -0.0372408 6.6361908e-39 325 270
0.0074376399 0.70700002 -0.037188202 6.544714e-39 326 270
0.008677247 0.70700002 -0.037188202 6.6369083e-39 327 270
0.0099028256 0.70599997 -0.037135597 6.453596e-39 328 270
0.011140679 0.70599997 -0.037135597 6.3614018e-39 329 270
0.012378532 0.70599997 -0.037135597 6.1759371e-39 330 270
0.013616386 0.70599997 -0.037135597 5.9915487e-39 331 270
0.014791119 0.70300001 -0.036977798 5.3472653e-39 332 270
0.015978126 0.70099998 -0.036872596 5.1628768e-39 333 270
0.017207211 0.70099998 -0.036872596 4.7022644e-39 334 270
0.018436298 0.70099998 -0.036872596 4.3338462e-39 335 270
0.019637333 0.69999999 -0.036819998 4.2409345e-39 336 270
0.020864666 0.69999999 -0.036819998 4.4256817e-39 337 270
0.022218239 0.704 -0.037030395 4.6111464e-39 338 270
0.023452586 0.704 -0.037030395 4.9795645e-39 339 270
0.024651866 0.70300001 -0.036977798 5.2572234e-39 340 270
0.025884461 0.70300001 -0.036977798 5.5334474e-39 341 270
0.027155625 0.704 -0.037030395 6.2692075e-39 342 270
0.028389972 0.704 -0.037030395 6.6379845e-39 343 270
0.029624319 0.704 -0.037030395 7.7425215e-39 344 270
0.030858666 0.704 -0.037030395 8.3878811e-39 345 270
0.032093015 0.704 -0.037030395 9.0321645e-39 346 270
0.03332736 0.704 -0.037030395 9.1243588e-39 347 270
0.034561705 0.704 -0.037030395 9.2169117e-39 348 270
0.035897743 0.70599997 -0.037135597 9.309106e-39 349 270
0.037135597 0.70599997 -0.037135597 9.5849712e-39 350 270
0.038373452 0.70599997 -0.037135597 9.5849712e-39 351 270
0.039611302 0.70599997 -0.037135597 9.8597602e-39 352 270
0.040849157 0.70599997 -0.037135597 9.767566e-39 353 270
0.042087011 0.70599997 -0.037135597 9.491342e-39 354 270
0.043324865 0.70599997 -0.037135597 9.3069536e-39 355 270
0.044625837 0.70700002 -0.037188202 9.0314471e-39 356 270
0.045865446 0.70700002 -0.037188202 9.0314471e-39 357 270
0.047171678 0.708 -0.0372408 8.7552273e-39 358 270
0.048549797 0.70999998 -0.037345998 8.7552273e-39 359 270
0.049794663 0.70999998 -0.037345998 8.4790146e-39 360 270
0.051039528 0.70999998 -0.037345998 8.202069e-39 361 270
0.052358042 0.71100003 -0.037398599 8.2006466e-39 362 270
0.053604662 0.71100003 -0.037398599 8.108451e-39 363 270
0.054851279 0.71100003 -0.037398599 7.8329711e-39 364 270
0.056097899 0.71100003 -0.037398599 1.0138222e-38 365 270
-0.015190879 0.722 -0.039243106 1.2533529e-38 308 271
-0.013924973 0.722 -0.039243106 1.0228279e-38 309 271
-0.012624 0.72000003 -0.039134402 6.0837779e-39 310 271
-0.011361601 0.72000003 -0.039134402 5.9915823e-39 311 271
-0.01005712 0.71700001 -0.038971342 6.3635864e-39 312 271
-0.0087877065 0.71600002 -0.038916986 7.5621296e-39 313 271
-0.0075112795 0.71399999 -0.038808275 7.6550287e-39 314 271
-0.0062506334 0.713 -0.038753927 7.0096593e-39 315 271
-0.0049864799 0.71100003 -0.038645219 7.64997e-39 316 271
-0.0037398601 0.71100003 -0.038645219 7.2811917e-39 317 271
-0.0024932399 0.71100003 -0.038645219 7.2819091e-39 318 271
-0.0012448666 0.70999998 -0.038590867 7.1897149e-39 319 271
