# .PCD v.7 - Point Cloud Data file format
FIELDS x y z rgb imX imY
SIZE 4 4 4 4 4 4
TYPE F F F F F F
COUNT 1 1 1 1 1 1
WIDTH 842
HEIGHT 1
VIEWPOINT 0 0 0 1 0 0 0
POINTS 842
DATA ascii
0.01153518 0.73100001 -0.006408433 7.4487771e-39 329 245
0.012816866 0.73100001 -0.006408433 7.4487645e-39 330 245
0.014156413 0.73400003 -0.006434733 7.2643733e-39 331 245
0.01544336 0.73400003 -0.006434733 7.3547486e-39 332 245
0.016775893 0.736 -0.0064522666 7.262553e-39 333 245
0.018115439 0.73799998 -0.0064697997 7.5376853e-39 334 245
0.019409399 0.73799998 -0.0064697997 7.2607439e-39 335 245
0.020731414 0.73900002 -0.0064785667 7.3511445e-39 336 245
0.022027127 0.73900002 -0.0064785667 7.2589503e-39 337 245
0.023291279 0.73799998 -0.0064697997 7.5337393e-39 338 245
0.024585238 0.73799998 -0.0064697997 7.5337393e-39 339 245
0.025738932 0.73400003 -0.006434733 7.8085283e-39 340 245
0.026989058 0.73299998 -0.0064259665 7.6241398e-39 341 245
0.028274251 0.73299998 -0.0064259665 7.4401143e-39 342 245
0.029559445 0.73299998 -0.0064259665 7.6245056e-39 343 245
0.030844638 0.73299998 -0.0064259665 7.6248895e-39 344 245
0.032129832 0.73299998 -0.0064259665 7.9014778e-39 345 245
0.033415023 0.73299998 -0.0064259665 7.6292097e-39 346 245
0.034700219 0.73299998 -0.0064259665 8.2745792e-39 347 245
0.035887226 0.73100001 -0.006408433 7.9115378e-39 348 245
0.037118066 0.73000002 -0.0063996664 8.6491028e-39 349 245
0.038398001 0.73000002 -0.0063996664 8.6537761e-39 350 245
0.039677933 0.73000002 -0.0063996664 9.6675679e-39 351 245
0.040677335 0.72500002 -0.0063558333 1.0408357e-38 352 245
0.041948501 0.72500002 -0.0063558333 1.0777499e-38 353 245
-0.014040692 0.72799999 -0.0076585598 1.2804721e-38 309 246
-0.012764266 0.72799999 -0.0076585598 1.1423588e-38 310 246
-0.01148784 0.72799999 -0.0076585598 8.5651636e-39 311 246
-0.010211413 0.72799999 -0.0076585598 6.8112985e-39 312 246
-0.0089349858 0.72799999 -0.0076585598 5.0599402e-39 313 246
-0.0076585598 0.72799999 -0.0076585598 5.4222571e-39 314 246
-0.0063733663 0.727 -0.0076480396 4.7768877e-39 315 246
-0.0050986931 0.727 -0.0076480396 5.6030513e-39 316 246
-0.0038240198 0.727 -0.0076480396 5.5108556e-39 317 246
-0.0025493465 0.727 -0.0076480396 5.41866e-39 318 246
-0.0012711667 0.72500002 -0.0076270006 5.6956056e-39 319 246
0 0.72500002 -0.0076270006 5.8799941e-39 320 246
0.0012711667 0.72500002 -0.0076270006 6.3409722e-39 321 246
0.0025493465 0.727 -0.0076480396 6.3406065e-39 322 246
0.0038292799 0.72799999 -0.0076585598 6.6168333e-39 323 246
0.0051057064 0.72799999 -0.0076585598 6.7097478e-39 324 246
0.0063821329 0.72799999 -0.0076585598 6.7097478e-39 325 246
0.0076585598 0.72799999 -0.0076585598 6.8019504e-39 326 246
0.0089595336 0.73000002 -0.0076795998 6.894146e-39 327 246
0.010239467 0.73000002 -0.0076795998 7.1707329e-39 328 246
0.01153518 0.73100001 -0.00769012 7.4473198e-39 329 246
0.012816866 0.73100001 -0.00769012 7.3561976e-39 330 246
0.014156413 0.73400003 -0.0077216802 7.2640019e-39 331 246
0.01544336 0.73400003 -0.0077216802 7.3554675e-39 332 246
0.016775893 0.736 -0.0077427197 7.0792407e-39 333 246
0.018115439 0.73799998 -0.0077637597 7.7206417e-39 334 246
0.019409399 0.73799998 -0.0077637597 7.7206417e-39 335 246
0.020703359 0.73799998 -0.0077637597 7.7202801e-39 336 246
0.021997318 0.73799998 -0.0077637597 7.7202801e-39 337 246
0.023322839 0.73900002 -0.0077742799 7.9965041e-39 338 246
0.024618553 0.73900002 -0.0077742799 8.089057e-39 339 246
0.025738932 0.73400003 -0.0077216802 8.0883396e-39 340 246
0.026989058 0.73299998 -0.0077111595 7.8117569e-39 341 246
0.028197108 0.73100001 -0.00769012 7.8106807e-39 342 246
0.029478792 0.73100001 -0.00769012 7.7184865e-39 343 246
0.030844638 0.73299998 -0.0077111595 7.8088898e-39 344 246
0.032042164 0.73100001 -0.00769012 7.8088898e-39 345 246
0.033323854 0.73100001 -0.00769012 7.8096213e-39 346 246
0.034605537 0.73100001 -0.00769012 8.0858495e-39 347 246
0.035838135 0.73000002 -0.0076795998 8.087297e-39 348 246
0.037016369 0.72799999 -0.0076585598 8.3638853e-39 349 246
0.038240198 0.727 -0.0076480396 8.1845289e-39 350 246
0.039406165 0.72500002 -0.0076270006 8.8298983e-39 351 246
0.040677335 0.72500002 -0.0076270006 8.3786284e-39 352 246
0.041948501 0.72500002 -0.0076270006 9.8541172e-39 353 246
0.043219667 0.72500002 -0.0076270006 1.1053374e-38 354 246
0.044490833 0.72500002 -0.0076270006 1.2067884e-38 355 246
-0.01531712 0.72799999 -0.0089349858 1.3361492e-38 308 247
-0.014040692 0.72799999 -0.0089349858 1.1886361e-38 309 247
-0.012764266 0.72799999 -0.0089349858 9.4871241e-39 310 247
-0.01148784 0.72799999 -0.0089349858 6.8134508e-39 311 247
-0.010211413 0.72799999 -0.0089349858 5.7939319e-39 312 247
-0.0089349858 0.72799999 -0.0089349858 5.0563669e-39 313 247
-0.0076480396 0.727 -0.0089227129 5.3290035e-39 314 247
-0.0063733663 0.727 -0.0089227129 5.0524166e-39 315 247
-0.0050986931 0.727 -0.0089227129 4.9598525e-39 316 247
-0.0038135003 0.72500002 -0.0088981669 4.8676554e-39 317 247
-0.0025423334 0.72500002 -0.0088981669 5.0516824e-39 318 247
-0.0012711667 0.72500002 -0.0088981669 5.3279091e-39 319 247
0 0.72500002 -0.0088981669 5.7885201e-39 320 247
0.0012711667 0.72500002 -0.0088981669 5.9729128e-39 321 247
0.0025423334 0.72500002 -0.0088981669 6.5246376e-39 322 247
0.0038240198 0.727 -0.0089227129 6.7090289e-39 323 247
0.0050986931 0.727 -0.0089227129 6.7101037e-39 324 247
0.0063821329 0.72799999 -0.0089349858 6.8023007e-39 325 247
0.0076585598 0.72799999 -0.0089349858 6.8941432e-39 326 247
0.0089595336 0.73000002 -0.0089595336 6.9863388e-39 327 247
0.010253493 0.73100001 -0.0089718066 7.171086e-39 328 247
0.01153518 0.73100001 -0.0089718066 7.3551172e-39 329 247
0.012851933 0.73299998 -0.0089963535 7.1718021e-39 330 247
0.014156413 0.73400003 -0.0090086265 7.0796065e-39 331 247
0.01544336 0.73400003 -0.0090086265 7.1703602e-39 332 247
0.016775893 0.736 -0.0090331733 7.1703602e-39 333 247
0.018066347 0.736 -0.0090331733 7.5380511e-39 334 247
0.019409399 0.73799998 -0.0090577193 7.4458554e-39 335 247
0.020703359 0.73799998 -0.0090577193 7.9968628e-39 336 247
0.021997318 0.73799998 -0.0090577193 8.089057e-39 337 247
0.023291279 0.73799998 -0.0090577193 7.9061035e-39 338 247
0.024518613 0.736 -0.0090331733 8.0901332e-39 339 247
0.025633732 0.73100001 -0.0089718066 7.8135506e-39 340 247
0.026878599 0.73000002 -0.0089595336 7.8135506e-39 341 247
0.028158534 0.73000002 -0.0089595336 7.9039511e-39 342 247
0.029438468 0.73000002 -0.0089595336 7.8117569e-39 343 247
0.030718399 0.73000002 -0.0089595336 8.1755116e-39 344 247
0.031998333 0.73000002 -0.0089595336 7.9911231e-39 345 247
0.033278264 0.73000002 -0.0089595336 7.8978681e-39 346 247
0.034558199 0.73000002 -0.0089595336 7.8978681e-39 347 247
0.035739943 0.72799999 -0.0089349858 7.9900819e-39 348 247
0.037016369 0.72799999 -0.0089349858 8.2666702e-39 349 247
0.038135 0.72500002 -0.0088981669 8.362456e-39 350 247
0.039406165 0.72500002 -0.0088981669 9.0078254e-39 351 247
0.040677335 0.72500002 -0.0088981669 7.9108189e-39 352 247
0.041948501 0.72500002 -0.0088981669 9.3855888e-39 353 247
0.043219667 0.72500002 -0.0088981669 9.852685e-39 354 247
0.044490833 0.72500002 -0.0088981669 1.1327815e-38 355 247
0.045761999 0.72500002 -0.0088981669 1.2429827e-38 356 247
-0.014040692 0.72799999 -0.010211413 8.9371929e-39 309 248
-0.012764266 0.72799999 -0.010211413 5.5194932e-39 310 248
-0.01148784 0.72799999 -0.010211413 5.0585151e-39 311 248
-0.010211413 0.72799999 -0.010211413 5.791411e-39 312 248
-0.0089227129 0.727 -0.010197386 5.5148241e-39 313 248
-0.0076480396 0.727 -0.010197386 5.513378e-39 314 248
-0.0063558333 0.72500002 -0.010169334 5.0524012e-39 315 248
-0.0050706398 0.72299999 -0.01014128 5.0509551e-39 316 248
-0.0038029798 0.72299999 -0.01014128 5.1431507e-39 317 248
-0.0025353199 0.72299999 -0.01014128 5.0509551e-39 318 248
-0.0012676599 0.72299999 -0.01014128 5.3275434e-39 319 248
0 0.72299999 -0.01014128 5.6956028e-39 320 248
0.0012676599 0.72299999 -0.01014128 6.0640252e-39 321 248
0.0025353199 0.72299999 -0.01014128 6.4313672e-39 322 248
0.0038029798 0.72299999 -0.01014128 6.6161172e-39 323 248
0.0050846669 0.72500002 -0.010169334 6.7097478e-39 324 248
0.0063733663 0.727 -0.010197386 6.8944991e-39 325 248
0.0076585598 0.72799999 -0.010211413 7.1714392e-39 326 248
0.0089595336 0.73000002 -0.010239467 7.3554703e-39 327 248
0.010239467 0.73000002 -0.010239467 7.3554675e-39 328 248
0.01153518 0.73100001 -0.010253493 7.4480233e-39 329 248
0.012851933 0.73299998 -0.010281546 7.1714392e-39 330 248
0.014156413 0.73400003 -0.010295574 7.0792435e-39 331 248
0.01544336 0.73400003 -0.010295574 6.9859703e-39 332 248
0.016730307 0.73400003 -0.010295574 6.9859703e-39 333 248
0.018066347 0.736 -0.010323626 7.2621844e-39 334 248
0.019356798 0.736 -0.010323626 7.5387699e-39 335 248
0.020647252 0.736 -0.010323626 7.7217151e-39 336 248
0.021937706 0.736 -0.010323626 7.7217151e-39 337 248
0.023165042 0.73400003 -0.010295574 7.3554521e-39 338 248
0.024318734 0.73000002 -0.010239467 7.3554521e-39 339 248
0.025598666 0.73000002 -0.010239467 7.353657e-39 340 248
0.026804959 0.72799999 -0.010211413 7.1696259e-39 341 248
0.028081384 0.72799999 -0.010211413 7.628446e-39 342 248
0.029357811 0.72799999 -0.010211413 7.5362504e-39 343 248
0.030634239 0.72799999 -0.010211413 7.9932755e-39 344 248
0.031998333 0.73000002 -0.010239467 7.7166928e-39 345 248
0.033187091 0.72799999 -0.010211413 7.8982114e-39 346 248
0.034463517 0.72799999 -0.010211413 7.8060172e-39 347 248
0.035690852 0.727 -0.010197386 8.0815237e-39 348 248
0.036863834 0.72500002 -0.010169334 8.2655562e-39 349 248
0.038029801 0.72299999 -0.01014128 8.2677226e-39 350 248
0.039297458 0.72299999 -0.01014128 8.8208964e-39 351 248
0.040565118 0.72299999 -0.01014128 8.4578774e-39 352 248
0.041832779 0.72299999 -0.01014128 8.8266613e-39 353 248
0.043219667 0.72500002 -0.010169334 8.3739606e-39 354 248
0.044490833 0.72500002 -0.010169334 9.4803082e-39 355 248
0.045761999 0.72500002 -0.010169334 1.0859274e-38 356 248
0.046838548 0.722 -0.010127253 1.095147e-38 357 248
-0.014021406 0.727 -0.01147206 6.2595638e-39 309 249
-0.012746733 0.727 -0.01147206 5.1496345e-39 310 249
-0.01147206 0.727 -0.01147206 5.4262228e-39 311 249
-0.010197386 0.727 -0.01147206 5.7917641e-39 312 249
-0.0089227129 0.727 -0.01147206 5.4226229e-39 313 249
-0.0076270006 0.72500002 -0.0114405 5.3296972e-39 314 249
-0.0063382997 0.72299999 -0.01140894 5.0527516e-39 315 249
-0.0050706398 0.72299999 -0.01140894 5.0509551e-39 316 249
-0.0037977197 0.722 -0.01139316 4.8672827e-39 317 249
-0.0025318132 0.722 -0.01139316 5.0509579e-39 318 249
-0.0012659066 0.722 -0.01139316 5.3275462e-39 319 249
0 0.72000003 -0.011361601 5.5108584e-39 320 249
0.0012624001 0.72000003 -0.011361601 5.6952497e-39 321 249
0.0025318132 0.722 -0.01139316 5.8807172e-39 322 249
0.0037977197 0.722 -0.01139316 6.1573041e-39 323 249
0.0050636264 0.722 -0.01139316 6.5264383e-39 324 249
0.0063382997 0.72299999 -0.01140894 6.8030266e-39 325 249
0.0076480396 0.727 -0.01147206 7.0796065e-39 326 249
0.0089595336 0.73000002 -0.011519399 7.2643579e-39 327 249
0.010239467 0.73000002 -0.011519399 7.2643551e-39 328 249
0.01153518 0.73100001 -0.01153518 7.2643551e-39 329 249
0.012851933 0.73299998 -0.011566739 7.0799568e-39 330 249
0.014156413 0.73400003 -0.011582521 7.0799568e-39 331 249
0.01544336 0.73400003 -0.011582521 6.9877612e-39 332 249
0.016730307 0.73400003 -0.011582521 6.9877612e-39 333 249
0.018017253 0.73400003 -0.011582521 6.9881143e-39 334 249
0.019304199 0.73400003 -0.011582521 7.0803099e-39 335 249
0.020591147 0.73400003 -0.011582521 7.0799442e-39 336 249
0.021848286 0.73299998 -0.011566739 7.0799442e-39 337 249
0.02307036 0.73100001 -0.01153518 6.7126064e-39 338 249
0.024318734 0.73000002 -0.011519399 6.3438239e-39 339 249
0.025528532 0.72799999 -0.01148784 5.9761302e-39 340 249
0.026804959 0.72799999 -0.01148784 5.9761302e-39 341 249
0.028042812 0.727 -0.01147206 6.802651e-39 342 249
0.029317487 0.727 -0.01147206 6.8948467e-39 343 249
0.030592158 0.727 -0.01147206 7.9028749e-39 344 249
0.031910665 0.72799999 -0.01148784 7.7184865e-39 345 249
0.033141505 0.727 -0.01147206 8.0843935e-39 346 249
0.03441618 0.727 -0.01147206 7.8078108e-39 347 249
0.035592668 0.72500002 -0.0114405 7.8978527e-39 348 249
0.036863834 0.72500002 -0.0114405 7.8060172e-39 349 249
0.038029801 0.72299999 -0.01140894 8.1737291e-39 350 249
0.039243106 0.722 -0.01139316 8.6350674e-39 351 249
0.040509012 0.722 -0.01139316 8.3628049e-39 352 249
0.041774917 0.722 -0.01139316 8.7319476e-39 353 249
0.043100435 0.72299999 -0.01140894 8.4600396e-39 354 249
0.044306733 0.722 -0.01139316 9.290159e-39 355 249
0.045572639 0.722 -0.01139316 9.9351571e-39 356 249
0.046838548 0.722 -0.01139316 1.0211384e-38 357 249
-0.015296079 0.727 -0.012746733 4.1380007e-39 308 250
-0.014021406 0.727 -0.012746733 2.8472619e-39 309 250
-0.012746733 0.727 -0.012746733 5.2418274e-39 310 250
-0.01140894 0.72299999 -0.012676599 5.4265787e-39 311 250
-0.01014128 0.72299999 -0.012676599 5.607726e-39 312 250
-0.0088981669 0.72500002 -0.012711667 5.3307804e-39 313 250
-0.0076059597 0.72299999 -0.012676599 5.2374987e-39 314 250
-0.0063295332 0.722 -0.012659066 4.8683575e-39 315 250
-0.0050636264 0.722 -0.012659066 5.0509523e-39 316 250
-0.0037977197 0.722 -0.012659066 5.0509523e-39 317 250
-0.0025248001 0.72000003 -0.012624 5.0509565e-39 318 250
-0.0012606466 0.71899998 -0.012606465 5.2346303e-39 319 250
0 0.71899998 -0.012606465 5.5108584e-39 320 250
0.0012606466 0.71899998 -0.012606465 5.6952497e-39 321 250
0.0025212932 0.71899998 -0.012606465 5.8807172e-39 322 250
0.0037872 0.72000003 -0.012624 6.1573041e-39 323 250
0.0050496003 0.72000003 -0.012624 6.5264383e-39 324 250
0.0063120001 0.72000003 -0.012624 6.9870577e-39 325 250
0.0076059597 0.72299999 -0.012676599 6.9888458e-39 326 250
0.0089227129 0.727 -0.012746733 7.0810428e-39 327 250
0.010211413 0.72799999 -0.012764266 7.0813959e-39 328 250
0.011519399 0.73000002 -0.012799333 7.0813959e-39 329 250
0.012816866 0.73100001 -0.012816866 7.0813889e-39 330 250
0.014137126 0.73299998 -0.012851933 6.9891933e-39 331 250
0.015422319 0.73299998 -0.012851933 6.5300102e-39 332 250
0.016707512 0.73299998 -0.012851933 6.5300102e-39 333 250
0.018017253 0.73400003 -0.012869466 6.6222086e-39 334 250
0.019277899 0.73299998 -0.012851933 6.6222086e-39 335 250
0.020506985 0.73100001 -0.012816866 6.5289354e-39 336 250
0.021758866 0.73000002 -0.012799333 6.4367398e-39 337 250
0.023038799 0.73000002 -0.012799333 6.0694048e-39 338 250
0.024252106 0.72799999 -0.012764266 5.7006223e-39 339 250
0.025493465 0.727 -0.012746733 5.4247613e-39 340 250
0.026768139 0.727 -0.012746733 5.700988e-39 341 250
0.028042812 0.727 -0.012746733 6.4363895e-39 342 250
0.029317487 0.727 -0.012746733 6.6207807e-39 343 250
0.030592158 0.727 -0.012746733 7.6302439e-39 344 250
0.03186683 0.727 -0.012746733 7.5380483e-39 345 250
0.033050332 0.72500002 -0.012711667 8.1794576e-39 346 250
0.03422682 0.72299999 -0.012676599 7.7188452e-39 347 250
0.035494477 0.72299999 -0.012676599 8.1747941e-39 348 250
0.036762137 0.72299999 -0.012676599 7.8060172e-39 349 250
0.0379772 0.722 -0.012659066 7.8978541e-39 350 250
0.039243106 0.722 -0.012659066 8.3584735e-39 351 250
0.040396802 0.72000003 -0.012624 8.1773262e-39 352 250
0.041659199 0.72000003 -0.012624 8.7305e-39 353 250
0.043040827 0.722 -0.012659066 8.641547e-39 354 250
0.044306733 0.722 -0.012659066 9.1025251e-39 355 250
0.045572639 0.722 -0.012659066 9.1950865e-39 356 250
0.046838548 0.722 -0.012659066 9.3798379e-39 357 250
0.048104454 0.722 -0.012659066 1.08474e-38 358 250
-0.016639132 0.73000002 -0.014079267 9.1190801e-39 307 251
-0.015296079 0.727 -0.014021406 1.8367099e-39 308 251
-0.014021406 0.727 -0.014021406 2.9401806e-39 309 251
-0.012746733 0.727 -0.014021406 5.151431e-39 310 251
-0.01140894 0.72299999 -0.01394426 5.151431e-39 311 251
-0.01014128 0.72299999 -0.01394426 5.6084421e-39 312 251
-0.0088736191 0.72299999 -0.01394426 5.2396609e-39 313 251
-0.0075954394 0.722 -0.013924973 5.4200921e-39 314 251
-0.0063295332 0.722 -0.013924973 5.1431465e-39 315 251
-0.0050496003 0.72000003 -0.0138864 5.1427878e-39 316 251
-0.0037872 0.72000003 -0.0138864 4.9591168e-39 317 251
-0.0025212932 0.71899998 -0.013867113 5.2346233e-39 318 251
-0.0012606466 0.71899998 -0.013867113 5.6019695e-39 319 251
0 0.71899998 -0.013867113 5.5112116e-39 320 251
0.0012606466 0.71899998 -0.013867113 5.7877985e-39 321 251
0.0025212932 0.71899998 -0.013867113 5.8799941e-39 322 251
0.0037819401 0.71899998 -0.013867113 6.2487766e-39 323 251
0.0050425865 0.71899998 -0.013867113 6.5264383e-39 324 251
0.0063032326 0.71899998 -0.013867113 6.9870577e-39 325 251
0.0075743999 0.72000003 -0.0138864 6.9884898e-39 326 251
0.0088981669 0.72500002 -0.013982833 7.2650767e-39 327 251
0.010197386 0.727 -0.014021406 7.2654271e-39 328 251
0.01148784 0.72799999 -0.014040692 7.2654271e-39 329 251
0.012799333 0.73000002 -0.014079267 6.8073202e-39 330 251
0.014137126 0.73299998 -0.014137126 6.7151231e-39 331 251
0.015422319 0.73299998 -0.014137126 6.2548625e-39 332 251
0.016707512 0.73299998 -0.014137126 6.0708313e-39 333 251
0.018017253 0.73400003 -0.014156413 6.2548625e-39 334 251
0.019277899 0.73299998 -0.014137126 6.2548625e-39 335 251
0.020478934 0.73000002 -0.014079267 6.0708369e-39 336 251
0.021758866 0.73000002 -0.014079267 5.9782826e-39 337 251
0.023038799 0.73000002 -0.014079267 5.5183918e-39 338 251
0.024252106 0.72799999 -0.014040692 5.2421651e-39 339 251
0.025493465 0.727 -0.014021406 5.1499722e-39 340 251
0.026768139 0.727 -0.014021406 5.426199e-39 341 251
0.027965667 0.72500002 -0.013982833 6.0701279e-39 342 251
0.029156178 0.72299999 -0.01394426 6.438909e-39 343 251
0.030423839 0.72299999 -0.01394426 7.6320488e-39 344 251
0.031691495 0.72299999 -0.01394426 7.9082755e-39 345 251
0.032959159 0.72299999 -0.01394426 7.9990236e-39 346 251
0.034179479 0.722 -0.013924973 7.5384042e-39 347 251
0.035347197 0.72000003 -0.0138864 7.810322e-39 348 251
0.036609601 0.72000003 -0.0138864 7.2571566e-39 349 251
0.037871998 0.72000003 -0.0138864 7.8063759e-39 350 251
0.039134402 0.72000003 -0.0138864 8.0829628e-39 351 251
0.040396802 0.72000003 -0.0138864 8.268796e-39 352 251
0.041659199 0.72000003 -0.0138864 8.5457416e-39 353 251
0.042921603 0.72000003 -0.0138864 8.6401022e-39 354 251
0.044183999 0.72000003 -0.0138864 8.916329e-39 355 251
0.045446403 0.72000003 -0.0138864 9.1025251e-39 356 251
0.0467088 0.72000003 -0.0138864 9.4709489e-39 357 251
0.0479712 0.72000003 -0.0138864 9.8386426e-39 358 251
0.0492336 0.72000003 -0.0138864 1.0299619e-38 359 251
-0.019199001 0.73000002 -0.0153592 1.4284542e-38 305 252
-0.016593546 0.72799999 -0.01531712 6.3542958e-39 307 252
-0.01531712 0.72799999 -0.01531712 1.9285454e-39 308 252
-0.014021406 0.727 -0.015296079 3.5848312e-39 309 252
-0.012711667 0.72500002 -0.015254001 4.9673915e-39 310 252
-0.01140894 0.72299999 -0.015211919 5.0595871e-39 311 252
-0.01014128 0.72299999 -0.015211919 5.7009936e-39 312 252
-0.0088613462 0.722 -0.015190879 5.1478198e-39 313 252
-0.0075638802 0.71899998 -0.01512776 5.5122878e-39 314 252
-0.0063032326 0.71899998 -0.01512776 4.8672813e-39 315 252
-0.0050425865 0.71899998 -0.01512776 5.2346233e-39 316 252
-0.0037819401 0.71899998 -0.01512776 4.9591168e-39 317 252
-0.0025142799 0.71700001 -0.015085679 5.1427878e-39 318 252
-0.00125714 0.71700001 -0.015085679 5.5104927e-39 319 252
0 0.71700001 -0.015085679 5.6034072e-39 320 252
0.00125714 0.71700001 -0.015085679 5.6956028e-39 321 252
0.0025142799 0.71700001 -0.015085679 6.339173e-39 322 252
0.0037714199 0.71700001 -0.015085679 6.6157613e-39 323 252
0.0050285598 0.71700001 -0.015085679 6.9841766e-39 324 252
0.0062857 0.71700001 -0.015085679 7.6295461e-39 325 252
0.0075428397 0.71700001 -0.015085679 7.7228123e-39 326 252
0.0088245263 0.71899998 -0.01512776 7.9072035e-39 327 252
0.010197386 0.727 -0.015296079 7.6327676e-39 328 252
0.01148784 0.72799999 -0.01531712 7.6327676e-39 329 252
0.012799333 0.73000002 -0.0153592 6.8991501e-39 330 252
0.014098554 0.73100001 -0.01538024 6.806953e-39 331 252
0.015422319 0.73299998 -0.015422319 6.0719047e-39 332 252
0.016707512 0.73299998 -0.015422319 6.1640989e-39 333 252
0.018017253 0.73400003 -0.01544336 5.7967584e-39 334 252
0.019277899 0.73299998 -0.015422319 5.7045627e-39 335 252
0.020478934 0.73000002 -0.0153592 5.8882407e-39 336 252
0.021758866 0.73000002 -0.0153592 5.7960451e-39 337 252
0.023038799 0.73000002 -0.0153592 5.794613e-39 338 252
0.024451986 0.73400003 -0.01544336 5.4258305e-39 339 252
0.025493465 0.727 -0.015296079 5.517673e-39 340 252
0.026768139 0.727 -0.015296079 5.7942598e-39 341 252
0.027965667 0.72500002 -0.015254001 6.3456386e-39 342 252
0.029035201 0.72000003 -0.0151488 6.8066167e-39 343 252
0.030255521 0.71899998 -0.01512776 7.8168086e-39 344 252
0.031516165 0.71899998 -0.01512776 8.0008397e-39 345 252
0.0328224 0.72000003 -0.0151488 8.3685306e-39 346 252
0.03403746 0.71899998 -0.01512776 7.9075539e-39 347 252
0.035298105 0.71899998 -0.01512776 8.1794576e-39 348 252
0.036558751 0.71899998 -0.01512776 7.7184865e-39 349 252
0.037819397 0.71899998 -0.01512776 7.8078108e-39 350 252
0.039080046 0.71899998 -0.01512776 8.0843935e-39 351 252
0.040340692 0.71899998 -0.01512776 8.1776766e-39 352 252
0.041659199 0.72000003 -0.0151488 8.454262e-39 353 252
0.042921603 0.72000003 -0.0151488 8.7305e-39 354 252
0.044183999 0.72000003 -0.0151488 9.0992811e-39 355 252
0.045446403 0.72000003 -0.0151488 9.1007245e-39 356 252
0.0467088 0.72000003 -0.0151488 9.3776701e-39 357 252
0.0479712 0.72000003 -0.0151488 9.2872695e-39 358 252
0.04937036 0.722 -0.015190879 9.7482477e-39 359 252
0.050636265 0.722 -0.015190879 1.1216165e-38 360 252
-0.017919067 0.73000002 -0.016639132 6.8149166e-39 306 253
-0.016593546 0.72799999 -0.016593546 3.5880696e-39 307 253
-0.015296079 0.727 -0.016570752 3.3060863e-39 308 253
-0.014021406 0.727 -0.016570752 4.5961076e-39 309 253
-0.012711667 0.72500002 -0.016525166 5.2425476e-39 310 253
-0.01140894 0.72299999 -0.01647958 5.4272976e-39 311 253
-0.010127253 0.722 -0.016456785 5.7006405e-39 312 253
-0.0088245263 0.71899998 -0.016388407 5.2396638e-39 313 253
-0.0075638802 0.71899998 -0.016388407 5.419739e-39 314 253
-0.0062857 0.71700001 -0.016342819 5.1431507e-39 315 253
-0.0050285598 0.71700001 -0.016342819 5.1427878e-39 316 253
-0.0037714199 0.71700001 -0.016342819 5.1427878e-39 317 253
-0.0025142799 0.71700001 -0.016342819 5.1427878e-39 318 253
-0.0012553866 0.71600002 -0.016320027 5.3264616e-39 319 253
0 0.71600002 -0.016320027 5.6938022e-39 320 253
0.0012553866 0.71600002 -0.016320027 6.2462585e-39 321 253
0.0025107733 0.71600002 -0.016320027 6.5221167e-39 322 253
0.00376616 0.71600002 -0.016320027 7.0752905e-39 323 253
0.0050215465 0.71600002 -0.016320027 7.535547e-39 324 253
0.0062769335 0.71600002 -0.016320027 7.7199382e-39 325 253
0.00753232 0.71600002 -0.016320027 7.997967e-39 326 253
0.0087877065 0.71600002 -0.016320027 7.997967e-39 327 253
0.010085173 0.71899998 -0.016388407 7.7246129e-39 328 253
0.01148784 0.72799999 -0.016593546 7.8168086e-39 329 253
0.012799333 0.73000002 -0.016639132 6.8995186e-39 330 253
0.014098554 0.73100001 -0.016661927 6.807323e-39 331 253
0.01538024 0.73100001 -0.016661927 5.9811552e-39 332 253
0.016661927 0.73100001 -0.016661927 5.796764e-39 333 253
0.017992707 0.73299998 -0.016707512 5.7964108e-39 334 253
0.019277899 0.73299998 -0.016707512 5.9808021e-39 335 253
0.020563092 0.73299998 -0.016707512 5.7049383e-39 336 253
0.021848286 0.73299998 -0.016707512 5.9815252e-39 337 253
0.023165042 0.73400003 -0.016730307 5.8875373e-39 338 253
0.024451986 0.73400003 -0.016730307 5.6105917e-39 339 253
0.024686933 0.704 -0.016046507 6.0683286e-39 340 253
0.02592128 0.704 -0.016046507 6.25308e-39 341 253
0.027232772 0.70599997 -0.016092092 6.8966473e-39 342 253
0.029035201 0.72000003 -0.0164112 7.2650711e-39 343 253
0.030255521 0.71899998 -0.016388407 8.18308e-39 344 253
0.031516165 0.71899998 -0.016388407 8.3678314e-39 345 253
0.032685637 0.71700001 -0.016342819 8.3678286e-39 346 253
0.033942781 0.71700001 -0.016342819 8.1834359e-39 347 253
0.035199918 0.71700001 -0.016342819 8.0890725e-39 348 253
0.036457058 0.71700001 -0.016342819 7.6280957e-39 349 253
0.037714198 0.71700001 -0.016342819 7.902519e-39 350 253
0.038971342 0.71700001 -0.016342819 8.0865501e-39 351 253
0.040340692 0.71899998 -0.016388407 8.4546124e-39 352 253
0.041601337 0.71899998 -0.016388407 8.4546124e-39 353 253
0.042861983 0.71899998 -0.016388407 8.8212467e-39 354 253
0.044122629 0.71899998 -0.016388407 9.0981937e-39 355 253
0.045446403 0.72000003 -0.0164112 9.2833067e-39 356 253
0.0467088 0.72000003 -0.0164112 9.5595348e-39 357 253
0.0479712 0.72000003 -0.0164112 9.4684182e-39 358 253
0.04937036 0.722 -0.016456785 9.7446449e-39 359 253
0.050636265 0.722 -0.016456785 9.6538786e-39 360 253
-0.020394772 0.727 -0.017845426 1.3638101e-38 304 254
-0.0191464 0.72799999 -0.017869972 1.2715784e-38 305 254
-0.017869972 0.72799999 -0.017869972 4.9702851e-39 306 254
-0.016525166 0.72500002 -0.017796334 2.2044162e-39 307 254
-0.015211919 0.72299999 -0.017747238 3.4011574e-39 308 254
-0.01394426 0.72299999 -0.017747238 4.5078651e-39 309 254
-0.012676599 0.72299999 -0.017747238 4.8759203e-39 310 254
-0.01139316 0.722 -0.017722692 5.0603102e-39 311 254
-0.010085173 0.71899998 -0.017649053 5.9750638e-39 312 254
-0.0087999795 0.71700001 -0.017599959 5.6059211e-39 313 254
-0.0075428397 0.71700001 -0.017599959 5.879271e-39 314 254
-0.0062857 0.71700001 -0.017599959 5.3264588e-39 315 254
-0.0050285598 0.71700001 -0.017599959 5.5101298e-39 316 254
-0.0037714199 0.71700001 -0.017599959 5.6019653e-39 317 254
-0.0025107733 0.71600002 -0.017575413 5.7856363e-39 318 254
-0.0012553866 0.71600002 -0.017575413 5.8774732e-39 319 254
0 0.71600002 -0.017575413 5.9693073e-39 320 254
0.0012553866 0.71600002 -0.017575413 6.4288491e-39 321 254
0.0025107733 0.71600002 -0.017575413 7.4419122e-39 322 254
0.00376616 0.71600002 -0.017575413 7.9028903e-39 323 254
0.0050215465 0.71600002 -0.017575413 9.0034772e-39 324 254
0.0062769335 0.71600002 -0.017575413 9.3718995e-39 325 254
0.00753232 0.71600002 -0.017575413 8.9141626e-39 326 254
0.0087877065 0.71600002 -0.017575413 9.006717e-39 327 254
0.01005712 0.71700001 -0.017599959 8.3656636e-39 328 254
0.01129848 0.71600002 -0.017575413 8.4578592e-39 329 254
0.012553867 0.71600002 -0.017575413 7.6327648e-39 330 254
0.014098554 0.73100001 -0.017943613 7.5405692e-39 331 254
0.01538024 0.73100001 -0.017943613 6.622203e-39 332 254
0.016661927 0.73100001 -0.017943613 6.5300074e-39 333 254
0.017992707 0.73299998 -0.017992707 6.0719187e-39 334 254
0.019277899 0.73299998 -0.017992707 5.8878876e-39 335 254
0.020563092 0.73299998 -0.017992707 5.7035118e-39 336 254
0.021073313 0.70700002 -0.017354494 5.5191219e-39 337 254
0.022281358 0.70599997 -0.017329946 5.7928403e-39 338 254
0.023519212 0.70599997 -0.017329946 5.6080889e-39 339 254
0.024686933 0.704 -0.017280852 5.9754295e-39 340 254
0.02592128 0.704 -0.017280852 5.9754295e-39 341 254
0.027232772 0.70599997 -0.017329946 6.7104806e-39 342 254
0.028470624 0.70599997 -0.017329946 6.9867074e-39 343 254
0.029876797 0.70999998 -0.017428132 7.7214026e-39 344 254
0.031165501 0.71100003 -0.01745268 7.8139569e-39 345 254
0.032412119 0.71100003 -0.01745268 8.3646042e-39 346 254
0.033753417 0.713 -0.017501773 8.2724085e-39 347 254
0.035052639 0.71399999 -0.017526319 8.4553382e-39 348 254
0.036406212 0.71600002 -0.017575413 8.270947e-39 349 254
0.037661601 0.71600002 -0.017575413 8.2705784e-39 350 254
0.038916986 0.71600002 -0.017575413 8.4546096e-39 351 254
0.040228479 0.71700001 -0.017599959 8.4542592e-39 352 254
0.041485619 0.71700001 -0.017599959 8.5464549e-39 353 254
0.042742759 0.71700001 -0.017599959 8.6383002e-39 354 254
0.043999899 0.71700001 -0.017599959 8.7304972e-39 355 254
0.045383278 0.71899998 -0.017649053 9.0985623e-39 356 254
0.046643924 0.71899998 -0.017649053 9.0985623e-39 357 254
0.0479712 0.72000003 -0.017673599 8.9148969e-39 358 254
0.04937036 0.722 -0.017722692 9.098928e-39 359 254
0.050636265 0.722 -0.017722692 8.7297938e-39 360 254
0.051902171 0.722 -0.017722692 9.7439443e-39 361 254
-0.020394772 0.727 -0.019120099 1.2440279e-38 304 255
-0.019120099 0.727 -0.019120099 1.0596367e-38 305 255
-0.017845426 0.727 -0.019120099 3.310761e-39 306 255
-0.016525166 0.72500002 -0.0190675 2.0203809e-39 307 255
-0.015211919 0.72299999 -0.019014901 3.8606978e-39 308 255
-0.01394426 0.72299999 -0.019014901 4.5982628e-39 309 255
-0.012659066 0.722 -0.0189886 5.2443455e-39 310 255
-0.011361601 0.72000003 -0.018935999 5.3368999e-39 311 255
-0.01005712 0.71700001 -0.018857099 6.1590977e-39 312 255
-0.0087999795 0.71700001 -0.018857099 5.698121e-39 313 255
-0.0075428397 0.71700001 -0.018857099 5.879271e-39 314 255
-0.0062857 0.71700001 -0.018857099 5.5104885e-39 315 255
-0.0050215465 0.71600002 -0.0188308 5.7856363e-39 316 255
-0.00376616 0.71600002 -0.0188308 5.9693073e-39 317 255
-0.0025107733 0.71600002 -0.0188308 5.969666e-39 318 255
-0.0012553866 0.71600002 -0.0188308 6.0622189e-39 319 255
0 0.71399999 -0.018778199 6.4288435e-39 320 255
0.00125188 0.71399999 -0.018778199 6.6128732e-39 321 255
0.0025037599 0.71399999 -0.018778199 8.1780297e-39 322 255
0.0037556398 0.71399999 -0.018778199 9.0996259e-39 323 255
0.0050075199 0.71399999 -0.018778199 1.0108376e-38 324 255
0.0062593995 0.71399999 -0.018778199 1.0015821e-38 325 255
0.0075112795 0.71399999 -0.018778199 9.1893076e-39 326 255
0.0087631596 0.71399999 -0.018778199 9.1893076e-39 327 255
0.010001013 0.713 -0.018751899 8.363158e-39 328 255
0.011251139 0.713 -0.018751899 8.4553551e-39 329 255
0.0124662 0.71100003 -0.0186993 7.6320642e-39 330 255
0.013693533 0.70999998 -0.018672999 7.5398686e-39 331 255
0.014938398 0.70999998 -0.018672999 6.4381901e-39 332 255
0.016183265 0.70999998 -0.018672999 6.3459945e-39 333 255
0.017428132 0.70999998 -0.018672999 5.9783008e-39 334 255
0.018594101 0.70700002 -0.018594101 5.5173226e-39 335 255
0.019833706 0.70700002 -0.018594101 5.5141025e-39 336 255
0.021043506 0.70599997 -0.018567799 5.3297098e-39 337 255
0.022281358 0.70599997 -0.018567799 5.7878139e-39 338 255
0.023519212 0.70599997 -0.018567799 5.7878139e-39 339 255
0.024757065 0.70599997 -0.018567799 6.2477018e-39 340 255
0.025994917 0.70599997 -0.018567799 6.3402562e-39 341 255
0.027232772 0.70599997 -0.018567799 6.890909e-39 342 255
0.028470624 0.70599997 -0.018567799 7.1671358e-39 343 255
0.029708479 0.70599997 -0.018567799 7.9011149e-39 344 255
0.030946331 0.70599997 -0.018567799 8.085146e-39 345 255
0.032366529 0.70999998 -0.018672999 8.5446822e-39 346 255
0.033611398 0.70999998 -0.018672999 8.7290735e-39 347 255
0.034905359 0.71100003 -0.0186993 8.4539089e-39 348 255
0.036151983 0.71100003 -0.0186993 8.5461045e-39 349 255
0.037503798 0.713 -0.018751899 8.5468108e-39 350 255
0.038808275 0.71399999 -0.018778199 8.5468108e-39 351 255
0.040060159 0.71399999 -0.018778199 8.545736e-39 352 255
0.041427758 0.71600002 -0.0188308 8.545736e-39 353 255
0.042683143 0.71600002 -0.0188308 8.8212495e-39 354 255
0.043999899 0.71700001 -0.018857099 8.9134451e-39 355 255
0.045257039 0.71700001 -0.018857099 9.0056422e-39 356 255
0.046643924 0.71899998 -0.018909698 9.0056422e-39 357 255
0.04790457 0.71899998 -0.018909698 8.7301329e-39 358 255
0.049165215 0.71899998 -0.018909698 8.5457416e-39 359 255
0.050496001 0.72000003 -0.018935999 7.6223588e-39 360 255
0.051758397 0.72000003 -0.018935999 8.8205432e-39 361 255
0.053168077 0.722 -0.0189886 1.1138388e-38 362 255
-0.021758866 0.73000002 -0.020478934 1.4742646e-38 303 256
-0.020338668 0.72500002 -0.020338668 1.170164e-38 304 256
-0.0190675 0.72500002 -0.020338668 8.751378e-39 305 256
-0.017796334 0.72500002 -0.020338668 2.5749938e-39 306 256
-0.01647958 0.72299999 -0.020282559 2.02182e-39 307 256
-0.015190879 0.722 -0.020254506 4.5964607e-39 308 256
-0.013924973 0.722 -0.020254506 5.4262228e-39 309 256
-0.012659066 0.722 -0.020254506 5.5212925e-39 310 256
-0.01134582 0.71899998 -0.020170346 5.3368999e-39 311 256
-0.01005712 0.71700001 -0.020114239 5.9747107e-39 312 256
-0.0087999795 0.71700001 -0.020114239 5.5133724e-39 313 256
-0.00753232 0.71600002 -0.020086186 5.879271e-39 314 256
-0.0062769335 0.71600002 -0.020086186 5.6026855e-39 315 256
-0.0050215465 0.71600002 -0.020086186 6.0622189e-39 316 256
-0.00376616 0.71600002 -0.020086186 6.1544132e-39 317 256
-0.0025037599 0.71399999 -0.020030079 6.6143081e-39 318 256
-0.00125188 0.71399999 -0.020030079 6.7983378e-39 319 256
0 0.71100003 -0.01994592 7.350427e-39 320 256
0.00124662 0.71100003 -0.01994592 7.9035924e-39 321 256
0.0025002533 0.713 -0.020002026 8.8223061e-39 322 256
0.0037503797 0.713 -0.020002026 9.0066973e-39 323 256
0.0050005065 0.713 -0.020002026 9.7399464e-39 324 256
0.0062506334 0.713 -0.020002026 1.010837e-38 325 256
0.0075007593 0.713 -0.020002026 9.2807843e-39 326 256
0.0087508867 0.713 -0.020002026 8.9120004e-39 327 256
0.010001013 0.713 -0.020002026 8.5432375e-39 328 256
0.011251139 0.713 -0.020002026 8.6354331e-39 329 256
0.0124662 0.71100003 -0.01994592 7.7195907e-39 330 256
0.013693533 0.70999998 -0.019917866 7.7195907e-39 331 256
0.014938398 0.70999998 -0.019917866 6.6182794e-39 332 256
0.016183265 0.70999998 -0.019917866 6.3416911e-39 333 256
0.017379038 0.708 -0.01986176 5.8803668e-39 334 256
0.018594101 0.70700002 -0.019833706 5.4193887e-39 335 256
0.019805651 0.70599997 -0.019805651 5.5101508e-39 336 256
0.021043506 0.70599997 -0.019805651 5.6019877e-39 337 256
0.022281358 0.70599997 -0.019805651 5.7878013e-39 338 256
0.023519212 0.70599997 -0.019805651 6.0640294e-39 339 256
0.024757065 0.70599997 -0.019805651 6.5249908e-39 340 256
0.025994917 0.70599997 -0.019805651 6.3409596e-39 341 256
0.027232772 0.70599997 -0.019805651 7.3500795e-39 342 256
0.028470624 0.70599997 -0.019805651 7.4426339e-39 343 256
0.029708479 0.70599997 -0.019805651 7.9021841e-39 344 256
0.030946331 0.70599997 -0.019805651 7.9943797e-39 345 256
0.032229774 0.70700002 -0.019833706 8.5450326e-39 346 256
0.033516716 0.708 -0.01986176 8.6372282e-39 347 256
0.034758076 0.708 -0.01986176 8.6379372e-39 348 256
0.036101133 0.70999998 -0.019917866 8.5457416e-39 349 256
0.037398599 0.71100003 -0.01994592 8.8216026e-39 350 256
0.038645219 0.71100003 -0.01994592 8.7290483e-39 351 256
0.039891839 0.71100003 -0.01994592 9.0049121e-39 352 256
0.041254178 0.713 -0.020002026 9.0049121e-39 353 256
0.042563915 0.71399999 -0.020030079 8.8212467e-39 354 256
0.043938532 0.71600002 -0.020086186 8.9134423e-39 355 256
0.045193922 0.71600002 -0.020086186 8.6386561e-39 356 256
0.046514176 0.71700001 -0.020114239 8.6386561e-39 357 256
0.04790457 0.71899998 -0.020170346 8.5461045e-39 358 256
0.049165215 0.71899998 -0.020170346 8.1776822e-39 359 256
0.050496001 0.72000003 -0.020198401 7.0727962e-39 360 256
0.051758397 0.72000003 -0.020198401 7.2568273e-39 361 256
0.053168077 0.722 -0.020254506 8.2839328e-39 362 256
0.054433983 0.722 -0.020254506 1.2524933e-38 363 256
-0.021758866 0.73000002 -0.021758866 1.4558612e-38 303 257
-0.020338668 0.72500002 -0.021609833 1.0964072e-38 304 257
-0.0190675 0.72500002 -0.021609833 6.8152669e-39 305 257
-0.017747238 0.72299999 -0.021550218 2.6653916e-39 306 257
-0.01647958 0.72299999 -0.021550218 2.9419785e-39 307 257
-0.015190879 0.722 -0.021520413 4.5989789e-39 308 257
-0.013924973 0.722 -0.021520413 5.5212953e-39 309 257
-0.012624 0.72000003 -0.021460801 5.7064026e-39 310 257
-0.01134582 0.71899998 -0.021430992 4.9688376e-39 311 257
-0.01005712 0.71700001 -0.021371379 5.7899635e-39 312 257
-0.0087877065 0.71600002 -0.021341572 5.2371484e-39 313 257
-0.00753232 0.71600002 -0.021341572 5.8789151e-39 314 257
-0.0062769335 0.71600002 -0.021341572 5.8789151e-39 315 257
-0.0050075199 0.71399999 -0.021281958 6.3388016e-39 316 257
-0.0037556398 0.71399999 -0.021281958 6.6153885e-39 317 257
-0.0025002533 0.713 -0.021252153 6.983085e-39 318 257
-0.0012501266 0.713 -0.021252153 7.2596677e-39 319 257
0 0.71100003 -0.021192541 7.7202801e-39 320 257
0.00124662 0.71100003 -0.021192541 8.089057e-39 321 257
0.0024932399 0.71100003 -0.021192541 8.8237494e-39 322 257
0.0037398601 0.71100003 -0.021192541 8.8237494e-39 323 257
0.0049864799 0.71100003 -0.021192541 9.6491941e-39 324 257
0.0062330998 0.71100003 -0.021192541 9.5569985e-39 325 257
0.0074797203 0.71100003 -0.021192541 9.279341e-39 326 257
0.0087263398 0.71100003 -0.021192541 8.7261672e-39 327 257
0.0099729598 0.71100003 -0.021192541 8.1733718e-39 328 257
0.01121958 0.71100003 -0.021192541 8.2652087e-39 329 257
0.0124662 0.71100003 -0.021192541 7.2564672e-39 330 257
0.013693533 0.70999998 -0.021162732 7.1639128e-39 331 257
0.01489632 0.708 -0.021103119 6.5207098e-39 332 257
0.01613768 0.708 -0.021103119 5.9693311e-39 333 257
0.017354494 0.70700002 -0.021073313 5.7856559e-39 334 257
0.018567799 0.70599997 -0.021043506 5.6019835e-39 335 257
0.019805651 0.70599997 -0.021043506 5.8774788e-39 336 257
0.021043506 0.70599997 -0.021043506 6.1529909e-39 337 257
0.022281358 0.70599997 -0.021043506 6.3388016e-39 338 257
0.023452586 0.704 -0.020983893 6.7075841e-39 339 257
0.024686933 0.704 -0.020983893 7.0756408e-39 340 257
0.025994917 0.70599997 -0.021043506 7.0756408e-39 341 257
0.027232772 0.70599997 -0.021043506 7.2600349e-39 342 257
0.028470624 0.70599997 -0.021043506 7.4444275e-39 343 257
0.029708479 0.70599997 -0.021043506 8.0872788e-39 344 257
0.030946331 0.70599997 -0.021043506 8.3638643e-39 345 257
0.032184184 0.70599997 -0.021043506 8.7312063e-39 346 257
0.033469379 0.70700002 -0.021073313 8.6386505e-39 347 257
0.034708988 0.70700002 -0.021073313 8.6379316e-39 348 257
0.03599944 0.708 -0.021103119 8.6379316e-39 349 257
0.037345998 0.70999998 -0.021162732 8.6379316e-39 350 257
0.038645219 0.71100003 -0.021192541 8.545736e-39 351 257
0.039891839 0.71100003 -0.021192541 8.7290483e-39 352 257
0.041254178 0.713 -0.021252153 8.8216026e-39 353 257
0.042563915 0.71399999 -0.021281958 8.6379344e-39 354 257
0.043815799 0.71399999 -0.021281958 8.5457388e-39 355 257
0.045193922 0.71600002 -0.021341572 8.3627895e-39 356 257
0.046514176 0.71700001 -0.021371379 8.2705939e-39 357 257
0.04777132 0.71700001 -0.021371379 7.9032533e-39 358 257
0.049165215 0.71899998 -0.021430992 7.5348295e-39 359 257
0.050496001 0.72000003 -0.021460801 7.1664323e-39 360 257
0.051758397 0.72000003 -0.021460801 6.7054556e-39 361 257
0.053168077 0.722 -0.021520413 5.5162717e-39 362 257
0.054433983 0.722 -0.021520413 1.0771423e-38 363 257
0.055699892 0.722 -0.021520413 1.391216e-38 364 257
-0.021758866 0.73000002 -0.023038799 1.4282387e-38 303 258
-0.020282559 0.72299999 -0.02281788 1.0041395e-38 304 258
-0.019014901 0.72299999 -0.02281788 5.5238092e-39 305 258
-0.017747238 0.72299999 -0.02281788 3.1249278e-39 306 258
-0.016456785 0.722 -0.022786319 3.6781016e-39 307 258
-0.015190879 0.722 -0.022786319 4.7837261e-39 308 258
-0.0138864 0.72000003 -0.022723202 5.4290955e-39 309 258
-0.012624 0.72000003 -0.022723202 5.7038845e-39 310 258
-0.01131426 0.71700001 -0.02262852 4.9663195e-39 311 258
-0.010043093 0.71600002 -0.022596961 5.6959686e-39 312 258
-0.0087877065 0.71600002 -0.022596961 5.4197418e-39 313 258
-0.00753232 0.71600002 -0.022596961 5.9703919e-39 314 258
-0.0062593995 0.71399999 -0.022533838 6.0625875e-39 315 258
-0.0050005065 0.713 -0.022502279 6.5224726e-39 316 258
-0.0037503797 0.713 -0.022502279 6.7068653e-39 317 258
-0.0025002533 0.713 -0.022502279 7.2578741e-39 318 258
-0.00124662 0.71100003 -0.022439159 7.3500683e-39 319 258
0 0.71100003 -0.022439159 8.4517383e-39 320 258
0.00124662 0.71100003 -0.022439159 8.5442941e-39 321 258
0.0024932399 0.71100003 -0.022439159 9.0967448e-39 322 258
0.0037398601 0.71100003 -0.022439159 9.5573642e-39 323 258
0.0049864799 0.71100003 -0.022439159 9.5577173e-39 324 258
0.0062330998 0.71100003 -0.022439159 9.2814892e-39 325 258
0.0074691991 0.70999998 -0.022407599 9.0027513e-39 326 258
0.0087140659 0.70999998 -0.022407599 8.5417773e-39 327 258
0.0099589331 0.70999998 -0.022407599 7.4386752e-39 328 258
0.011203799 0.70999998 -0.022407599 7.3468397e-39 329 258
0.0124136 0.708 -0.022344479 6.9795061e-39 330 258
0.013654959 0.708 -0.022344479 6.8876692e-39 331 258
0.01487528 0.70700002 -0.022312919 6.3366604e-39 332 258
0.016114887 0.70700002 -0.022312919 6.2448235e-39 333 258
0.017329946 0.70599997 -0.022281358 5.6019723e-39 334 258
0.018567799 0.70599997 -0.022281358 5.9693199e-39 335 258
0.019749546 0.704 -0.022218239 6.0632965e-39 336 258
0.020983893 0.704 -0.022218239 6.6161116e-39 337 258
0.022218239 0.704 -0.022218239 6.7093722e-39 338 258
0.023452586 0.704 -0.022218239 6.7093722e-39 339 258
0.024686933 0.704 -0.022218239 7.1646036e-39 340 258
0.02592128 0.704 -0.022218239 7.2567979e-39 341 258
0.027155625 0.704 -0.022218239 7.167842e-39 342 258
0.028389972 0.704 -0.022218239 7.4444303e-39 343 258
0.029624319 0.704 -0.022218239 8.2716659e-39 344 258
0.030946331 0.70599997 -0.022281358 8.4560585e-39 345 258
0.032184184 0.70599997 -0.022281358 8.7311993e-39 346 258
0.033422034 0.70599997 -0.022281358 8.7311993e-39 347 258
0.034659892 0.70599997 -0.022281358 8.6390036e-39 348 258
0.035948593 0.70700002 -0.022312919 8.6390036e-39 349 258
0.0372408 0.708 -0.022344479 8.6382848e-39 350 258
0.038590867 0.70999998 -0.022407599 8.5460891e-39 351 258
0.039835732 0.70999998 -0.022407599 8.7283294e-39 352 258
0.041138459 0.71100003 -0.022439159 8.6361338e-39 353 258
0.042504307 0.713 -0.022502279 8.6361394e-39 354 258
0.043754432 0.713 -0.022502279 8.6361394e-39 355 258
0.045067675 0.71399999 -0.022533838 8.2702309e-39 356 258
0.046449307 0.71600002 -0.022596961 8.1776766e-39 357 258
0.04777132 0.71700001 -0.02262852 7.5355498e-39 358 258
0.04902846 0.71700001 -0.02262852 7.1667672e-39 359 258
0.050425861 0.71899998 -0.022691639 6.7990763e-39 360 258
0.051758397 0.72000003 -0.022723202 6.6146851e-39 361 258
0.053168077 0.722 -0.022786319 5.4193859e-39 362 258
0.054433983 0.722 -0.022786319 9.5681878e-39 363 258
0.055699892 0.722 -0.022786319 1.2162964e-38 364 258
0.056808002 0.72000003 -0.022723202 1.3361507e-38 365 258
-0.021758866 0.73000002 -0.024318734 1.3913965e-38 303 259
-0.020282559 0.72299999 -0.024085538 9.3942278e-39 304 259
-0.019014901 0.72299999 -0.024085538 4.6922493e-39 305 259
-0.017747238 0.72299999 -0.024085538 3.8610453e-39 306 259
-0.016456785 0.722 -0.024052227 4.5986103e-39 307 259
-0.015190879 0.722 -0.024052227 4.59826e-39 308 259
-0.0138864 0.72000003 -0.0239856 4.6904556e-39 309 259
-0.012606465 0.71899998 -0.023952285 5.2396792e-39 310 259
-0.01131426 0.71700001 -0.02388566 4.9634524e-39 311 259
-0.010043093 0.71600002 -0.023852346 5.3289881e-39 312 259
-0.0087877065 0.71600002 -0.023852346 5.1445969e-39 313 259
-0.0075112795 0.71399999 -0.02378572 5.8789151e-39 314 259
-0.0062593995 0.71399999 -0.02378572 5.9711107e-39 315 259
-0.0050005065 0.713 -0.023752406 6.2462529e-39 316 259
-0.0037398601 0.71100003 -0.023685781 6.2462529e-39 317 259
-0.0024932399 0.71100003 -0.023685781 6.6135991e-39 318 259
-0.00124662 0.71100003 -0.023685781 6.6135991e-39 319 259
0 0.71100003 -0.023685781 7.2550168e-39 320 259
0.0012448666 0.70999998 -0.023652466 7.7149188e-39 321 259
0.0024897333 0.70999998 -0.023652466 7.9003848e-39 322 259
0.0037345996 0.70999998 -0.023652466 8.2695275e-39 323 259
0.0049794666 0.70999998 -0.023652466 8.4542592e-39 324 259
0.0062243328 0.70999998 -0.023652466 8.5464549e-39 325 259
0.0074481601 0.708 -0.023585839 8.3616951e-39 326 259
0.008689519 0.708 -0.023585839 7.7163341e-39 327 259
0.0099308798 0.708 -0.023585839 7.2550042e-39 328 259
0.011156459 0.70700002 -0.023552528 6.7039912e-39 329 259
0.012396066 0.70700002 -0.023552528 6.3366506e-39 330 259
0.013635674 0.70700002 -0.023552528 6.3366506e-39 331 259
0.014854239 0.70599997 -0.023519212 6.0611484e-39 332 259
0.016092092 0.70599997 -0.023519212 6.0611484e-39 333 259
0.017280852 0.704 -0.023452586 5.6941595e-39 334 259
0.018515198 0.704 -0.023452586 6.0629406e-39 335 259
0.019749546 0.704 -0.023452586 6.5253425e-39 336 259
0.020954086 0.70300001 -0.023419274 6.8944809e-39 337 259
0.02218668 0.70300001 -0.023419274 6.9855962e-39 338 259
0.023419274 0.70300001 -0.023419274 6.5249837e-39 339 259
0.024651866 0.70300001 -0.023419274 6.7990609e-39 340 259
0.025884461 0.70300001 -0.023419274 6.6146683e-39 341 259
0.027117053 0.70300001 -0.023419274 6.5242817e-39 342 259
0.028389972 0.704 -0.023452586 6.8934244e-39 343 259
0.029624319 0.704 -0.023452586 7.5373476e-39 344 259
0.030858666 0.704 -0.023452586 7.7217389e-39 345 259
0.032093015 0.704 -0.023452586 8.7319223e-39 346 259
0.033422034 0.70599997 -0.023519212 8.7319223e-39 347 259
0.034659892 0.70599997 -0.023519212 8.7322755e-39 348 259
0.035897743 0.70599997 -0.023519212 8.4556886e-39 349 259
0.037188202 0.70700002 -0.023552528 8.5460891e-39 350 259
0.038482159 0.708 -0.023585839 8.3616979e-39 351 259
0.039723519 0.708 -0.023585839 8.543585e-39 352 259
0.041080594 0.70999998 -0.023652466 8.451388e-39 353 259
0.042385083 0.71100003 -0.023685781 8.2680785e-39 354 259
0.043754432 0.713 -0.023752406 8.2680785e-39 355 259
0.045004558 0.713 -0.023752406 7.7181417e-39 356 259
0.046319555 0.71399999 -0.02378572 7.6259461e-39 357 259
0.047704693 0.71600002 -0.023852346 6.8909062e-39 358 259
0.048960082 0.71600002 -0.023852346 6.8909062e-39 359 259
0.0502856 0.71700001 -0.02388566 6.1562251e-39 360 259
0.05168651 0.71899998 -0.023952285 5.7878013e-39 361 259
0.05294716 0.71899998 -0.023952285 4.7754486e-39 362 259
0.054283202 0.72000003 -0.0239856 8.0934151e-39 363 259
0.055545598 0.72000003 -0.0239856 1.0870783e-38 364 259
0.056808002 0.72000003 -0.0239856 1.3175675e-38 365 259
0.058070403 0.72000003 -0.0239856 1.391215e-38 366 259
-0.022975679 0.72799999 -0.025528532 1.3638101e-38 302 260
-0.021669446 0.727 -0.025493465 1.3453708e-38 303 260
-0.020338668 0.72500002 -0.025423333 8.6555866e-39 304 260
-0.019014901 0.72299999 -0.025353199 4.4145876e-39 305 260
-0.017747238 0.72299999 -0.025353199 4.6890137e-39 306 260
-0.016456785 0.722 -0.025318133 4.5042623e-39 307 260
-0.0151488 0.72000003 -0.025248 4.5957447e-39 308 260
-0.013867113 0.71899998 -0.025212931 4.5031903e-39 309 260
-0.012606465 0.71899998 -0.025212931 5.2364394e-39 310 260
-0.01131426 0.71700001 -0.0251428 5.1442437e-39 311 260
-0.010043093 0.71600002 -0.025107734 5.4204607e-39 312 260
-0.0087877065 0.71600002 -0.025107734 5.3282651e-39 313 260
-0.0075112795 0.71399999 -0.025037598 5.879271e-39 314 260
-0.0062506334 0.713 -0.025002534 5.879271e-39 315 260
-0.0049864799 0.71100003 -0.024932399 6.1533412e-39 316 260
-0.0037398601 0.71100003 -0.024932399 5.9693073e-39 317 260
-0.0024897333 0.70999998 -0.024897331 6.5203202e-39 318 260
-0.0012448666 0.70999998 -0.024897331 6.6121571e-39 319 260
0 0.70999998 -0.024897331 7.0713346e-39 320 260
0.0012448666 0.70999998 -0.024897331 7.0713346e-39 321 260
0.00248272 0.708 -0.024827199 7.7141887e-39 322 260
0.00372408 0.708 -0.024827199 8.1733718e-39 323 260
0.0049794666 0.70999998 -0.024897331 7.8982212e-39 324 260
0.0062067998 0.708 -0.024827199 7.9904168e-39 325 260
0.0074376399 0.70700002 -0.024792133 7.5348267e-39 326 260
0.0086649731 0.70599997 -0.024757065 7.0738499e-39 327 260
0.0099028256 0.70599997 -0.024757065 6.9805739e-39 328 260
0.011140679 0.70599997 -0.024757065 6.70435e-39 329 260
0.012378532 0.70599997 -0.024757065 6.3366492e-39 330 260
0.013616386 0.70599997 -0.024757065 6.4284847e-39 331 260
0.014854239 0.70599997 -0.024757065 5.7856363e-39 332 260
0.016046507 0.704 -0.024686933 6.1544132e-39 333 260
0.017280852 0.704 -0.024686933 5.9718184e-39 334 260
0.018488899 0.70300001 -0.024651866 6.0640126e-39 335 260
0.019721493 0.70300001 -0.024651866 6.4313546e-39 336 260
0.020954086 0.70300001 -0.024651866 6.7075813e-39 337 260
0.02218668 0.70300001 -0.024651866 6.8912565e-39 338 260
0.023419274 0.70300001 -0.024651866 6.6146683e-39 339 260
0.024651866 0.70300001 -0.024651866 6.1544132e-39 340 260
0.025884461 0.70300001 -0.024651866 6.3388044e-39 341 260
0.027117053 0.70300001 -0.024651866 6.431356e-39 342 260
0.028349647 0.70300001 -0.024651866 6.7997798e-39 343 260
