# .PCD v.7 - Point Cloud Data file format
FIELDS x y z rgb imX imY
SIZE 4 4 4 4 4 4
TYPE F F F F F F
COUNT 1 1 1 1 1 1
WIDTH 832
HEIGHT 1
VIEWPOINT 0 0 0 1 0 0 0
POINTS 832
DATA ascii
-0.014475521 0.68800002 -0.030157333 5.0524012e-39 308 265
-0.013269227 0.68800002 -0.030157333 5.0524012e-39 309 265
-0.012097999 0.69 -0.030244999 5.1445969e-39 310 265
-0.010888199 0.69 -0.030244999 5.1445969e-39 311 265
-0.0096783992 0.69 -0.030244999 5.2371484e-39 312 265
-0.0084686 0.69 -0.030244999 5.1445941e-39 313 265
-0.0072587994 0.69 -0.030244999 5.3282651e-39 314 265
-0.0060489997 0.69 -0.030244999 5.3282651e-39 315 265
-0.0048462129 0.69099998 -0.030288832 5.2371456e-39 316 265
-0.0036451798 0.69300002 -0.0303765 5.3293412e-39 317 265
-0.00243012 0.69300002 -0.0303765 5.3296972e-39 318 265
-0.00121506 0.69300002 -0.0303765 5.5137283e-39 319 265
0 0.69300002 -0.0303765 5.2378617e-39 320 265
0.0012168133 0.69400001 -0.030420333 5.2378617e-39 321 265
0.0024336267 0.69400001 -0.030420333 5.0545522e-39 322 265
0.0036504399 0.69400001 -0.030420333 5.0545522e-39 323 265
0.0048953067 0.69800001 -0.030595668 4.596095e-39 324 265
0.006119133 0.69800001 -0.030595668 4.596095e-39 325 265
0.0073639993 0.69999999 -0.030683333 4.5964579e-39 326 265
0.0085913334 0.69999999 -0.030683333 4.5964579e-39 327 265
0.0098326923 0.70099998 -0.030727165 4.4138688e-39 328 265
0.01109334 0.70300001 -0.030814834 4.4138688e-39 329 265
0.012343466 0.704 -0.030858666 4.59826e-39 330 265
0.013577812 0.704 -0.030858666 4.9670411e-39 331 265
0.014854239 0.70599997 -0.030946331 5.0606605e-39 332 265
0.016092092 0.70599997 -0.030946331 4.5996823e-39 333 265
0.017329946 0.70599997 -0.030946331 9.0200153e-39 334 265
0.018594101 0.70700002 -0.030990168 1.2800036e-38 335 265
0.019833706 0.70700002 -0.030990168 1.5388704e-38 336 265
0.021073313 0.70700002 -0.030990168 1.5111757e-38 337 265
-0.046905171 0.704 -0.032093015 1.3174232e-38 282 266
-0.045670826 0.704 -0.032093015 1.0131776e-38 283 266
-0.04437336 0.70300001 -0.032047424 9.4799369e-39 284 266
-0.043140765 0.70300001 -0.032047424 8.4661437e-39 285 266
-0.041967787 0.704 -0.032093015 7.6356739e-39 286 266
-0.040502001 0.69999999 -0.031910665 6.7137176e-39 287 266
-0.039162453 0.69800001 -0.031819493 6.4421726e-39 288 266
-0.037884273 0.69700003 -0.03177391 8.5626721e-39 289 266
-0.036662199 0.69700003 -0.03177391 7.7278696e-39 290 266
-0.035389278 0.69599998 -0.031728316 4.869805e-39 291 266
-0.034070771 0.69400001 -0.031637147 5.1445941e-39 292 266
-0.03280662 0.69300002 -0.031591557 6.1587446e-39 293 266
-0.031500384 0.69099998 -0.031500384 6.065477e-39 294 266
-0.030288832 0.69099998 -0.031500384 6.1576726e-39 295 266
-0.029035198 0.69 -0.031454802 6.2484207e-39 296 266
-0.027825398 0.69 -0.031454802 6.0640294e-39 297 266
-0.026615599 0.69 -0.031454802 6.1558607e-39 298 266
-0.025405798 0.69 -0.031454802 6.0633064e-39 299 266
-0.024195999 0.69 -0.031454802 6.0625875e-39 300 266
-0.022986198 0.69 -0.031454802 6.0625875e-39 301 266
-0.021776399 0.69 -0.031454802 5.6956056e-39 302 266
-0.020596405 0.69099998 -0.031500384 5.6030513e-39 303 266
-0.019384852 0.69099998 -0.031500384 5.2349918e-39 304 266
-0.0181733 0.69099998 -0.031500384 5.3275462e-39 305 266
-0.016961746 0.69099998 -0.031500384 5.3282651e-39 306 266
-0.015727401 0.69 -0.031454802 5.3282651e-39 307 266
-0.014517599 0.69 -0.031454802 5.419739e-39 308 266
-0.0133078 0.69 -0.031454802 5.419739e-39 309 266
-0.012097999 0.69 -0.031454802 5.2371428e-39 310 266
-0.010888199 0.69 -0.031454802 5.2371428e-39 311 266
-0.0096783992 0.69 -0.031454802 5.4204579e-39 312 266
-0.0084686 0.69 -0.031454802 5.5126535e-39 313 266
-0.0072693196 0.69099998 -0.031500384 5.4204579e-39 314 266
-0.0060753003 0.69300002 -0.031591557 5.5126535e-39 315 266
-0.00486024 0.69300002 -0.031591557 5.3293412e-39 316 266
-0.0036451798 0.69300002 -0.031591557 5.3293412e-39 317 266
-0.00243012 0.69300002 -0.031591557 5.5130094e-39 318 266
-0.0012168133 0.69400001 -0.031637147 5.5130094e-39 319 266
0 0.69400001 -0.031637147 5.2378645e-39 320 266
0.0012168133 0.69400001 -0.031637147 5.1456689e-39 321 266
0.0024406398 0.69599998 -0.031728316 5.1456689e-39 322 266
0.0036609597 0.69599998 -0.031728316 5.2378645e-39 323 266
0.0048953067 0.69800001 -0.031819493 4.8716029e-39 324 266
0.0061366665 0.69999999 -0.031910665 4.7794073e-39 325 266
0.0073639993 0.69999999 -0.031910665 4.5042623e-39 326 266
0.0085913334 0.69999999 -0.031910665 4.5964579e-39 327 266
0.0098326923 0.70099998 -0.031956252 4.1380007e-39 328 266
0.01109334 0.70300001 -0.032047424 4.2305565e-39 329 266
0.012343466 0.704 -0.032093015 4.5067861e-39 330 266
0.013577812 0.704 -0.032093015 4.7833729e-39 331 266
0.014854239 0.70599997 -0.032184184 4.6922339e-39 332 266
0.016092092 0.70599997 -0.032184184 4.2312557e-39 333 266
0.017354494 0.70700002 -0.032229774 1.1604367e-38 334 266
0.018594101 0.70700002 -0.032229774 1.3908898e-38 335 266
0.019833706 0.70700002 -0.032229774 1.538763e-38 336 266
0.021073313 0.70700002 -0.032229774 1.5203239e-38 337 266
-0.04580057 0.70599997 -0.033422034 1.1238842e-38 283 267
-0.044436477 0.704 -0.03332736 1.021606e-38 284 267
-0.043202132 0.704 -0.03332736 9.0175168e-39 285 267
-0.041967787 0.704 -0.03332736 8.3710754e-39 286 267
-0.040675577 0.70300001 -0.033280019 8.0944871e-39 287 267
-0.039330769 0.70099998 -0.03318534 6.8959579e-39 288 267
-0.038047329 0.69999999 -0.033137999 6.6197297e-39 289 267
-0.0367148 0.69800001 -0.033043321 6.528253e-39 290 267
-0.035440128 0.69700003 -0.03299598 6.6204486e-39 291 267
-0.034168959 0.69599998 -0.032948639 6.804114e-39 292 267
-0.03280662 0.69300002 -0.03280662 6.4353329e-39 293 267
-0.031500384 0.69099998 -0.032711938 6.2509416e-39 294 267
-0.030288832 0.69099998 -0.032711938 5.9747135e-39 295 267
-0.029035198 0.69 -0.032664597 6.1580229e-39 296 267
-0.027825398 0.69 -0.032664597 5.9736317e-39 297 267
-0.026615599 0.69 -0.032664597 6.156581e-39 298 267
-0.025405798 0.69 -0.032664597 6.156581e-39 299 267
-0.024195999 0.69 -0.032664597 6.0633064e-39 300 267
-0.022986198 0.69 -0.032664597 6.0633064e-39 301 267
-0.021776399 0.69 -0.032664597 5.5126535e-39 302 267
-0.020596405 0.69099998 -0.032711938 5.5126535e-39 303 267
-0.019384852 0.69099998 -0.032711938 5.2371484e-39 304 267
-0.0181733 0.69099998 -0.032711938 5.1445941e-39 305 267
-0.016961746 0.69099998 -0.032711938 5.2371484e-39 306 267
-0.015750192 0.69099998 -0.032711938 5.2371484e-39 307 267
-0.014517599 0.69 -0.032664597 5.3293441e-39 308 267
-0.0133078 0.69 -0.032664597 5.3293441e-39 309 267
-0.012097999 0.69 -0.032664597 5.3293412e-39 310 267
-0.01090398 0.69099998 -0.032711938 5.3293412e-39 311 267
-0.0096924258 0.69099998 -0.032711938 5.5126563e-39 312 267
-0.008480873 0.69099998 -0.032711938 5.6048519e-39 313 267
-0.0072693196 0.69099998 -0.032711938 5.4204607e-39 314 267
-0.0060753003 0.69300002 -0.03280662 5.4204607e-39 315 267
-0.00486024 0.69300002 -0.03280662 5.5126563e-39 316 267
-0.0036504399 0.69400001 -0.032853961 5.6048519e-39 317 267
-0.0024336267 0.69400001 -0.032853961 5.5126563e-39 318 267
-0.0012168133 0.69400001 -0.032853961 5.5126563e-39 319 267
0 0.69400001 -0.032853961 5.3300601e-39 320 267
0.0012203199 0.69599998 -0.032948639 5.1456689e-39 321 267
0.0024406398 0.69599998 -0.032948639 5.1456689e-39 322 267
0.00366622 0.69700003 -0.03299598 5.2378645e-39 323 267
0.0049093333 0.69999999 -0.033137999 4.7794073e-39 324 267
0.0061366665 0.69999999 -0.033137999 4.6872116e-39 325 267
0.0073745195 0.70099998 -0.03318534 4.4120667e-39 326 267
0.0086281532 0.70300001 -0.033280019 4.4120667e-39 327 267
0.0098607466 0.70300001 -0.033280019 4.4131485e-39 328 267
0.011109119 0.704 -0.03332736 4.597181e-39 329 267
0.012378532 0.70599997 -0.033422034 4.6904556e-39 330 267
0.013654959 0.708 -0.033516716 5.1514338e-39 331 267
0.01489632 0.708 -0.033516716 4.4131261e-39 332 267
0.016183265 0.70999998 -0.033611398 5.5198282e-39 333 267
0.017428132 0.70999998 -0.033611398 1.3728459e-38 334 267
0.018672999 0.70999998 -0.033611398 1.5111394e-38 335 267
0.019917866 0.70999998 -0.033611398 1.5294e-38 336 267
0.021162732 0.70999998 -0.033611398 1.5109969e-38 337 267
-0.045670826 0.704 -0.034561705 1.234591e-38 283 268
-0.044436477 0.704 -0.034561705 1.0587717e-38 284 268
-0.043202132 0.704 -0.034561705 8.6516083e-39 285 268
-0.041967787 0.704 -0.034561705 8.4647087e-39 286 268
-0.040733438 0.704 -0.034561705 7.7271437e-39 287 268
-0.039442986 0.70300001 -0.034512613 7.2661711e-39 288 268
-0.038101684 0.70099998 -0.034414422 6.89739e-39 289 268
-0.036819998 0.69999999 -0.034365334 6.8051972e-39 290 268
-0.035490975 0.69800001 -0.034267146 6.7126428e-39 291 268
-0.034218054 0.69700003 -0.034218054 6.6208017e-39 292 268
-0.032948639 0.69599998 -0.034168959 6.5286061e-39 293 268
-0.031591557 0.69300002 -0.034021679 6.6190011e-39 294 268
-0.030288832 0.69099998 -0.033923492 6.3427729e-39 295 268
-0.029077278 0.69099998 -0.033923492 6.1590977e-39 296 268
-0.027865725 0.69099998 -0.033923492 5.9750666e-39 297 268
-0.026654173 0.69099998 -0.033923492 6.3409722e-39 298 268
-0.025442619 0.69099998 -0.033923492 6.156581e-39 299 268
-0.024231065 0.69099998 -0.033923492 6.0640294e-39 300 268
-0.023019511 0.69099998 -0.033923492 6.0640294e-39 301 268
-0.021807959 0.69099998 -0.033923492 5.7885201e-39 302 268
-0.020656019 0.69300002 -0.034021679 5.7885201e-39 303 268
-0.01944096 0.69300002 -0.034021679 5.6963245e-39 304 268
-0.0181733 0.69099998 -0.033923492 5.7885201e-39 305 268
-0.016961746 0.69099998 -0.033923492 5.7885201e-39 306 268
-0.015750192 0.69099998 -0.033923492 5.7885201e-39 307 268
-0.014538639 0.69099998 -0.033923492 5.6048491e-39 308 268
-0.013327086 0.69099998 -0.033923492 5.6048491e-39 309 268
-0.012115533 0.69099998 -0.033923492 5.5137283e-39 310 268
-0.010935539 0.69300002 -0.034021679 5.5137283e-39 311 268
-0.0097204801 0.69300002 -0.034021679 5.5137283e-39 312 268
-0.0085054198 0.69300002 -0.034021679 5.3296972e-39 313 268
-0.0072903596 0.69300002 -0.034021679 5.5126563e-39 314 268
-0.0060840664 0.69400001 -0.034070771 5.6048519e-39 315 268
-0.0048672534 0.69400001 -0.034070771 5.5133752e-39 316 268
-0.0036609597 0.69599998 -0.034168959 5.5133752e-39 317 268
-0.0024406398 0.69599998 -0.034168959 5.2378673e-39 318 268
-0.0012203199 0.69599998 -0.034168959 5.3300629e-39 319 268
0 0.69599998 -0.034168959 5.2378645e-39 320 268
0.0012220733 0.69700003 -0.034218054 5.2378645e-39 321 268
0.0024441467 0.69700003 -0.034218054 5.0534732e-39 322 268
0.0036714801 0.69800001 -0.034267146 5.1456689e-39 323 268
0.0049093333 0.69999999 -0.034365334 4.7786912e-39 324 268
0.0061366665 0.69999999 -0.034365334 4.7786912e-39 325 268
0.0073745195 0.70099998 -0.034414422 4.4120695e-39 326 268
0.0086281532 0.70300001 -0.034512613 4.4120695e-39 327 268
0.0098607466 0.70300001 -0.034512613 4.3213158e-39 328 268
0.011140679 0.70599997 -0.034659892 4.5060672e-39 329 268
0.0124136 0.708 -0.034758076 4.5078623e-39 330 268
0.013654959 0.708 -0.034758076 4.5078623e-39 331 268
0.014938398 0.70999998 -0.034856264 6.1655507e-39 332 268
0.016183265 0.70999998 -0.034856264 8.0094619e-39 333 268
0.017428132 0.70999998 -0.034856264 1.4651488e-38 334 268
0.018672999 0.70999998 -0.034856264 1.5112107e-38 335 268
0.019917866 0.70999998 -0.034856264 1.4650065e-38 336 268
-0.045670826 0.704 -0.035796054 1.3546253e-38 283 269
-0.044436477 0.704 -0.035796054 1.1603661e-38 284 269
-0.043202132 0.704 -0.035796054 8.8377904e-39 285 269
-0.042087011 0.70599997 -0.035897743 8.4650619e-39 286 269
-0.040849157 0.70599997 -0.035897743 8.0040837e-39 287 269
-0.039499093 0.704 -0.035796054 7.6331558e-39 288 269
-0.038210396 0.70300001 -0.035745207 7.4487645e-39 289 269
-0.036872596 0.70099998 -0.035643511 6.89739e-39 290 269
-0.035592664 0.69999999 -0.035592664 6.8051944e-39 291 269
-0.034267146 0.69800001 -0.035490975 6.5286033e-39 292 269
-0.03299598 0.69700003 -0.035440128 6.4364077e-39 293 269
-0.031728316 0.69599998 -0.035389278 6.5278844e-39 294 269
-0.0303765 0.69300002 -0.035236739 6.3434932e-39 295 269
-0.029161438 0.69300002 -0.035236739 6.159825e-39 296 269
-0.027865725 0.69099998 -0.035135046 5.9754323e-39 297 269
-0.026654173 0.69099998 -0.035135046 6.341338e-39 298 269
-0.025442619 0.69099998 -0.035135046 6.0651112e-39 299 269
-0.024231065 0.69099998 -0.035135046 5.8810801e-39 300 269
-0.023019511 0.69099998 -0.035135046 5.8810801e-39 301 269
-0.021807959 0.69099998 -0.035135046 5.697049e-39 302 269
-0.020656019 0.69300002 -0.035236739 5.697049e-39 303 269
-0.01944096 0.69300002 -0.035236739 5.697049e-39 304 269
-0.018225901 0.69300002 -0.035236739 5.697049e-39 305 269
-0.01701084 0.69300002 -0.035236739 5.697049e-39 306 269
-0.015795778 0.69300002 -0.035236739 5.697049e-39 307 269
-0.014538639 0.69099998 -0.035135046 5.6055722e-39 308 269
-0.013327086 0.69099998 -0.035135046 5.6055722e-39 309 269
-0.012150601 0.69300002 -0.035236739 5.6059239e-39 310 269
-0.010935539 0.69300002 -0.035236739 5.6059239e-39 311 269
-0.0097204801 0.69300002 -0.035236739 5.6059239e-39 312 269
-0.0085054198 0.69300002 -0.035236739 5.5137283e-39 313 269
-0.0073008798 0.69400001 -0.035287585 5.5133724e-39 314 269
-0.0060840664 0.69400001 -0.035287585 5.5133724e-39 315 269
-0.0048672534 0.69400001 -0.035287585 5.5133752e-39 316 269
-0.0036609597 0.69599998 -0.035389278 5.5133752e-39 317 269
-0.0024406398 0.69599998 -0.035389278 5.2378673e-39 318 269
-0.0012203199 0.69599998 -0.035389278 5.2378673e-39 319 269
0 0.69700003 -0.035440128 5.2378645e-39 320 269
0.0012220733 0.69700003 -0.035440128 5.2378645e-39 321 269
0.0024476533 0.69800001 -0.035490975 4.9623566e-39 322 269
0.0036714801 0.69800001 -0.035490975 4.9623566e-39 323 269
0.0049093333 0.69999999 -0.035592664 4.6868557e-39 324 269
0.0061454331 0.70099998 -0.035643511 4.6868557e-39 325 269
0.0073745195 0.70099998 -0.035643511 4.4113506e-39 326 269
0.0086281532 0.70300001 -0.035745207 4.5035463e-39 327 269
0.0098747732 0.704 -0.035796054 4.2291202e-39 328 269
0.011140679 0.70599997 -0.035897743 4.5060672e-39 329 269
0.0124136 0.708 -0.03599944 4.5071336e-39 330 269
0.013693533 0.70999998 -0.036101133 3.8617642e-39 331 269
0.014938398 0.70999998 -0.036101133 8.4693624e-39 332 269
0.016183265 0.70999998 -0.036101133 1.1972436e-38 333 269
0.01745268 0.71100003 -0.036151983 1.5111394e-38 334 269
-0.04580057 0.70599997 -0.037135597 1.4652602e-38 283 270
-0.044562716 0.70599997 -0.037135597 1.2713607e-38 284 270
-0.043324865 0.70599997 -0.037135597 9.3020098e-39 285 270
-0.042087011 0.70599997 -0.037135597 8.5576106e-39 286 270
-0.040849157 0.70599997 -0.037135597 8.0044368e-39 287 270
-0.039499093 0.704 -0.037030395 7.9097371e-39 288 270
-0.038210396 0.70300001 -0.036977798 7.6335089e-39 289 270
-0.036872596 0.70099998 -0.036872596 7.0810582e-39 290 270
-0.035592664 0.69999999 -0.036819998 6.8963068e-39 291 270
-0.034267146 0.69800001 -0.0367148 6.5286033e-39 292 270
-0.033043321 0.69800001 -0.0367148 6.4364077e-39 293 270
-0.03177391 0.69700003 -0.036662199 6.4356888e-39 294 270
-0.030507999 0.69599998 -0.036609598 6.4356888e-39 295 270
-0.029161438 0.69300002 -0.036451802 6.2523765e-39 296 270
-0.027946379 0.69300002 -0.036451802 5.9754295e-39 297 270
-0.02673132 0.69300002 -0.036451802 6.341338e-39 298 270
-0.025442619 0.69099998 -0.036346599 6.0651112e-39 299 270
-0.024231065 0.69099998 -0.036346599 6.0651112e-39 300 270
-0.023019511 0.69099998 -0.036346599 5.9729156e-39 301 270
-0.021807959 0.69099998 -0.036346599 5.9729128e-39 302 270
-0.020656019 0.69300002 -0.036451802 5.8807172e-39 303 270
-0.01944096 0.69300002 -0.036451802 5.881436e-39 304 270
-0.018225901 0.69300002 -0.036451802 5.6974049e-39 305 270
-0.01701084 0.69300002 -0.036451802 5.881436e-39 306 270
-0.015795778 0.69300002 -0.036451802 5.881436e-39 307 270
-0.014580719 0.69300002 -0.036451802 5.6981238e-39 308 270
-0.01336566 0.69300002 -0.036451802 5.6055694e-39 309 270
-0.012150601 0.69300002 -0.036451802 5.6974049e-39 310 270
-0.01095132 0.69400001 -0.036504399 5.6974049e-39 311 270
-0.0097345067 0.69400001 -0.036504399 5.5144528e-39 312 270
-0.0085176928 0.69400001 -0.036504399 5.3300601e-39 313 270
-0.0073008798 0.69400001 -0.036504399 5.5133752e-39 314 270
-0.0061015999 0.69599998 -0.036609598 5.3293441e-39 315 270
-0.0048812795 0.69599998 -0.036609598 5.5126591e-39 316 270
-0.0036609597 0.69599998 -0.036609598 5.5126591e-39 317 270
-0.0024406398 0.69599998 -0.036609598 5.1453157e-39 318 270
-0.0012203199 0.69599998 -0.036609598 5.1453157e-39 319 270
0 0.69700003 -0.036662199 4.9620007e-39 320 270
0.0012220733 0.69700003 -0.036662199 4.869805e-39 321 270
0.0024476533 0.69800001 -0.0367148 4.9620007e-39 322 270
0.0036714801 0.69800001 -0.0367148 4.9620007e-39 323 270
0.0049163462 0.70099998 -0.036872596 4.7786912e-39 324 270
0.0061629666 0.70300001 -0.036977798 4.6861368e-39 325 270
0.0073955595 0.70300001 -0.036977798 4.4113506e-39 326 270
0.0086404262 0.704 -0.037030395 4.5035463e-39 327 270
0.0099028256 0.70599997 -0.037135597 4.1380035e-39 328 270
0.011140679 0.70599997 -0.037135597 4.5989817e-39 329 270
0.012448666 0.70999998 -0.037345998 4.3223752e-39 330 270
0.013693533 0.70999998 -0.037345998 3.9535941e-39 331 270
0.014959441 0.71100003 -0.037398599 1.0316148e-38 332 270
0.01620606 0.71100003 -0.037398599 1.345044e-38 333 270
-0.044625837 0.70700002 -0.038427804 1.3913596e-38 284 271
-0.043386232 0.70700002 -0.038427804 1.0594553e-38 285 271
-0.042146627 0.70700002 -0.038427804 9.3862923e-39 286 271
-0.040907022 0.70700002 -0.038427804 8.4646961e-39 287 271
-0.039499093 0.704 -0.038264744 8.1870358e-39 288 271
-0.038210396 0.70300001 -0.038210396 7.7260591e-39 289 271
-0.036977798 0.70300001 -0.038210396 7.4480429e-39 290 271
-0.035643511 0.70099998 -0.038101684 7.2636516e-39 291 271
-0.034365334 0.69999999 -0.038047329 6.8041112e-39 292 271
-0.033043321 0.69800001 -0.037938625 6.6200801e-39 293 271
-0.03177391 0.69700003 -0.037884273 6.4356888e-39 294 271
-0.030507999 0.69599998 -0.037829921 6.4356888e-39 295 271
-0.029203519 0.69400001 -0.037721213 6.3434932e-39 296 271
-0.027946379 0.69300002 -0.037666857 6.1587418e-39 297 271
-0.02673132 0.69300002 -0.037666857 6.2502213e-39 298 271
-0.02551626 0.69300002 -0.037666857 6.0658301e-39 299 271
-0.024301201 0.69300002 -0.037666857 6.0651112e-39 300 271
-0.02308614 0.69300002 -0.037666857 6.0651112e-39 301 271
-0.021871079 0.69300002 -0.037666857 6.1562279e-39 302 271
-0.020685827 0.69400001 -0.037721213 6.1562279e-39 303 271
-0.019469013 0.69400001 -0.037721213 5.9729156e-39 304 271
-0.018225901 0.69300002 -0.037666857 5.9729156e-39 305 271
-0.01701084 0.69300002 -0.037666857 5.6974049e-39 306 271
-0.015818574 0.69400001 -0.037721213 5.6974049e-39 307 271
-0.014580719 0.69300002 -0.037666857 5.6974049e-39 308 271
-0.01336566 0.69300002 -0.037666857 5.6974049e-39 309 271
-0.012168133 0.69400001 -0.037721213 5.880713e-39 310 271
-0.01095132 0.69400001 -0.037721213 5.880713e-39 311 271
-0.0097345067 0.69400001 -0.037721213 5.6055694e-39 312 271
-0.0085176928 0.69400001 -0.037721213 5.6055694e-39 313 271
-0.0073219193 0.69599998 -0.037829921 5.5133752e-39 314 271
-0.0061015999 0.69599998 -0.037829921 5.5133752e-39 315 271
-0.0048812795 0.69599998 -0.037829921 5.3293441e-39 316 271
-0.0036609597 0.69599998 -0.037829921 5.3293441e-39 317 271
-0.0024441467 0.69700003 -0.037884273 5.1453129e-39 318 271
-0.0012220733 0.69700003 -0.037884273 5.1453129e-39 319 271
0 0.69800001 -0.037938625 5.1453129e-39 320 271
0.0012238267 0.69800001 -0.037938625 5.0531173e-39 321 271
0.0024546667 0.69999999 -0.038047329 4.869805e-39 322 271
0.0036819996 0.69999999 -0.038047329 4.869805e-39 323 271
0.0049303733 0.70300001 -0.038210396 4.6864928e-39 324 271
0.0061717331 0.704 -0.038264744 4.7786884e-39 325 271
0.0074060797 0.704 -0.038264744 4.5035463e-39 326 271
0.0086404262 0.704 -0.038264744 4.5957419e-39 327 271
0.0099028256 0.70599997 -0.038373452 4.2302006e-39 328 271
0.011140679 0.70599997 -0.038373452 4.5989817e-39 329 271
0.012448666 0.70999998 -0.038590867 4.6915094e-39 330 271
0.013693533 0.70999998 -0.038590867 5.3368788e-39 331 271
0.014938398 0.70999998 -0.038590867 1.1883472e-38 332 271
-0.043447599 0.708 -0.039723519 1.2253715e-38 285 272
-0.042146627 0.70700002 -0.039667413 1.0953975e-38 286 272
-0.040907022 0.70700002 -0.039667413 8.8334744e-39 287 272
-0.039611302 0.70599997 -0.039611302 8.2799489e-39 288 272
-0.038264744 0.704 -0.039499093 7.9115251e-39 289 272
-0.036977798 0.70300001 -0.039442986 7.4498337e-39 290 272
-0.035643511 0.70099998 -0.039330769 7.0814113e-39 291 272
-0.034365334 0.69999999 -0.039274666 6.8055447e-39 292 272
-0.033137999 0.69999999 -0.039274666 6.4367608e-39 293 272
-0.031819493 0.69800001 -0.039162453 6.4364049e-39 294 272
-0.030551834 0.69700003 -0.039106347 6.1601781e-39 295 272
-0.029287677 0.69599998 -0.039050236 6.1598222e-39 296 272
-0.028067358 0.69599998 -0.039050236 5.9754295e-39 297 272
-0.02673132 0.69300002 -0.03888192 6.2502185e-39 298 272
-0.02551626 0.69300002 -0.03888192 6.1580229e-39 299 272
-0.024301201 0.69300002 -0.03888192 6.15766e-39 300 272
-0.02308614 0.69300002 -0.03888192 6.15766e-39 301 272
-0.021871079 0.69300002 -0.03888192 5.9729128e-39 302 272
-0.020685827 0.69400001 -0.038938027 5.9729128e-39 303 272
-0.019469013 0.69400001 -0.038938027 5.9729128e-39 304 272
-0.0182522 0.69400001 -0.038938027 5.9729128e-39 305 272
-0.017035386 0.69400001 -0.038938027 5.8814332e-39 306 272
-0.015818574 0.69400001 -0.038938027 5.8814332e-39 307 272
-0.01460176 0.69400001 -0.038938027 5.8814332e-39 308 272
-0.013384946 0.69400001 -0.038938027 5.8814332e-39 309 272
-0.012168133 0.69400001 -0.038938027 5.6974007e-39 310 272
-0.01095132 0.69400001 -0.038938027 5.6974007e-39 311 272
-0.0097625591 0.69599998 -0.039050236 5.6974049e-39 312 272
-0.0085422397 0.69599998 -0.039050236 5.6048491e-39 313 272
-0.0073219193 0.69599998 -0.039050236 5.5133752e-39 314 272
-0.0061103669 0.69700003 -0.039106347 5.5133752e-39 315 272
-0.0048882933 0.69700003 -0.039106347 5.3293441e-39 316 272
-0.00366622 0.69700003 -0.039106347 5.2371484e-39 317 272
-0.0024476533 0.69800001 -0.039162453 5.2371484e-39 318 272
-0.0012238267 0.69800001 -0.039162453 5.2371484e-39 319 272
0 0.69999999 -0.039274666 5.1456689e-39 320 272
0.0012273333 0.69999999 -0.039274666 5.0534732e-39 321 272
0.0024581731 0.70099998 -0.039330769 4.8698022e-39 322 272
0.0036872597 0.70099998 -0.039330769 4.8698022e-39 323 272
0.0049373866 0.704 -0.039499093 4.6872088e-39 324 272
0.0061717331 0.704 -0.039499093 4.6872088e-39 325 272
0.0074271196 0.70599997 -0.039611302 4.5038994e-39 326 272
0.0086649731 0.70599997 -0.039611302 4.596095e-39 327 272
0.0099028256 0.70599997 -0.039611302 4.689727e-39 328 272
0.011156459 0.70700002 -0.039667413 4.689727e-39 329 272
0.0124136 0.708 -0.039723519 6.0729991e-39 330 272
0.013693533 0.70999998 -0.039835732 8.4700841e-39 331 272
0.014938398 0.70999998 -0.039835732 1.2990185e-38 332 272
-0.042504307 0.713 -0.041254178 1.1972076e-38 286 273
-0.040733438 0.704 -0.040733438 8.6526747e-39 287 273
-0.039499093 0.704 -0.040733438 8.739111e-39 288 273
-0.038264744 0.704 -0.040733438 8.5547211e-39 289 273
-0.036977798 0.70300001 -0.040675577 8.1855883e-39 290 273
-0.035643511 0.70099998 -0.040559858 7.7246101e-39 291 273
-0.034414422 0.70099998 -0.040559858 7.2650767e-39 292 273
-0.033137999 0.69999999 -0.040502001 6.8962942e-39 293 273
-0.031819493 0.69800001 -0.040386278 6.5282348e-39 294 273
-0.030595668 0.69800001 -0.040386278 6.4360391e-39 295 273
-0.02932976 0.69700003 -0.040328421 6.3434904e-39 296 273
-0.028067358 0.69599998 -0.040270556 6.1590977e-39 297 273
-0.026847038 0.69599998 -0.040270556 6.1590949e-39 298 273
-0.025553079 0.69400001 -0.040154841 5.9750638e-39 299 273
-0.024336265 0.69400001 -0.040154841 6.0661832e-39 300 273
-0.023119451 0.69400001 -0.040154841 5.8814332e-39 301 273
-0.021902639 0.69400001 -0.040154841 6.1562251e-39 302 273
-0.020685827 0.69400001 -0.040154841 6.0640294e-39 303 273
-0.019469013 0.69400001 -0.040154841 6.0640294e-39 304 273
-0.0182522 0.69400001 -0.040154841 6.0640294e-39 305 273
-0.017035386 0.69400001 -0.040154841 5.9729128e-39 306 273
-0.015818574 0.69400001 -0.040154841 5.9729128e-39 307 273
-0.01460176 0.69400001 -0.040154841 5.8807172e-39 308 273
-0.013423519 0.69599998 -0.040270556 5.8807172e-39 309 273
-0.0122032 0.69599998 -0.040270556 5.7885173e-39 310 273
-0.010982879 0.69599998 -0.040270556 5.880713e-39 311 273
-0.0097625591 0.69599998 -0.040270556 5.7885201e-39 312 273
-0.0085545136 0.69700003 -0.040328421 5.7885201e-39 313 273
-0.00733244 0.69700003 -0.040328421 5.5133752e-39 314 273
-0.0061103669 0.69700003 -0.040328421 5.2371484e-39 315 273
-0.0048953067 0.69800001 -0.040386278 5.1453129e-39 316 273
-0.0036714801 0.69800001 -0.040386278 5.0531173e-39 317 273
-0.0024476533 0.69800001 -0.040386278 5.2371484e-39 318 273
-0.0012238267 0.69800001 -0.040386278 5.2371484e-39 319 273
0 0.69999999 -0.040502001 5.0534732e-39 320 273
0.0012273333 0.69999999 -0.040502001 5.0534732e-39 321 273
0.0024581731 0.70099998 -0.040559858 4.7776066e-39 322 273
0.0036977797 0.70300001 -0.040675577 4.8698022e-39 323 273
0.0049373866 0.704 -0.040733438 4.595016e-39 324 273
0.0061892662 0.70599997 -0.040849157 4.6872116e-39 325 273
0.0074271196 0.70599997 -0.040849157 4.5035435e-39 326 273
0.008677247 0.70700002 -0.040907022 4.7801289e-39 327 273
0.0099028256 0.70599997 -0.040849157 4.6890235e-39 328 273
0.011140679 0.70599997 -0.040849157 4.6890235e-39 329 273
0.012343466 0.704 -0.040733438 6.9974946e-39 330 273
0.013577812 0.704 -0.040733438 1.0316537e-38 331 273
0.014812159 0.704 -0.040733438 1.280652e-38 332 273
-0.041254178 0.713 -0.042504307 8.8395925e-39 287 274
-0.039499093 0.704 -0.041967787 9.3848545e-39 288 274
-0.038264744 0.704 -0.041967787 8.6472895e-39 289 274
-0.037030395 0.704 -0.041967787 8.0948374e-39 290 274
-0.035745207 0.70300001 -0.041908171 7.6338592e-39 291 274
-0.034414422 0.70099998 -0.041788943 7.0821274e-39 292 274
-0.03318534 0.70099998 -0.041788943 6.6211493e-39 293 274
-0.031910665 0.69999999 -0.041729331 6.5289564e-39 294 274
-0.030595668 0.69800001 -0.041610107 6.2523709e-39 295 274
-0.029371841 0.69800001 -0.041610107 6.3434904e-39 296 274
-0.028107686 0.69700003 -0.041550495 6.2512933e-39 297 274
-0.026847038 0.69599998 -0.041490879 6.2502185e-39 298 274
-0.025553079 0.69400001 -0.041371655 6.0658273e-39 299 274
-0.024336265 0.69400001 -0.041371655 6.2484207e-39 300 274
-0.023119451 0.69400001 -0.041371655 6.2484207e-39 301 274
-0.021902639 0.69400001 -0.041371655 5.9729128e-39 302 274
-0.020685827 0.69400001 -0.041371655 5.9729128e-39 303 274
-0.019525118 0.69599998 -0.041490879 6.0640294e-39 304 274
-0.018304799 0.69599998 -0.041490879 6.0640294e-39 305 274
-0.017084479 0.69599998 -0.041490879 6.0640322e-39 306 274
-0.015864158 0.69599998 -0.041490879 6.0640322e-39 307 274
-0.014643839 0.69599998 -0.041490879 5.8803612e-39 308 274
-0.013442807 0.69700003 -0.041550495 5.7881642e-39 309 274
-0.012220734 0.69700003 -0.041550495 5.7885201e-39 310 274
-0.01099866 0.69700003 -0.041550495 5.6963245e-39 311 274
-0.0097906133 0.69800001 -0.041610107 5.6963245e-39 312 274
-0.0085667865 0.69800001 -0.041610107 5.6963245e-39 313 274
-0.0073429602 0.69800001 -0.041610107 5.2378645e-39 314 274
-0.006119133 0.69800001 -0.041610107 5.1456689e-39 315 274
-0.0048953067 0.69800001 -0.041610107 5.3282651e-39 316 274
-0.0036714801 0.69800001 -0.041610107 5.3282651e-39 317 274
-0.0024546667 0.69999999 -0.041729331 5.1445941e-39 318 274
-0.0012273333 0.69999999 -0.041729331 5.1445941e-39 319 274
0 0.69999999 -0.041729331 5.0531173e-39 320 274
0.0012273333 0.69999999 -0.041729331 4.8690862e-39 321 274
0.0024651866 0.70300001 -0.041908171 4.7772535e-39 322 274
0.0037030398 0.704 -0.041967787 4.8698078e-39 323 274
0.0049373866 0.704 -0.041967787 4.6868557e-39 324 274
0.0061892662 0.70599997 -0.042087011 4.5946601e-39 325 274
0.0074376399 0.70700002 -0.042146627 4.5957391e-39 326 274
0.008677247 0.70700002 -0.042146627 4.7801289e-39 327 274
0.0099028256 0.70599997 -0.042087011 4.873028e-39 328 274
0.01109334 0.70300001 -0.041908171 4.5042469e-39 329 274
0.012325933 0.70300001 -0.041908171 8.4700841e-39 330 274
0.013558527 0.70300001 -0.041908171 1.2342301e-38 331 274
-0.042683143 0.71600002 -0.043938532 1.3081677e-38 286 275
-0.041254178 0.713 -0.043754432 8.7488416e-39 287 275
-0.040004052 0.713 -0.043754432 9.2951785e-39 288 275
-0.038645219 0.71100003 -0.043631699 8.7420061e-39 289 275
-0.0372408 0.708 -0.043447599 8.3717816e-39 290 275
-0.035796054 0.704 -0.043202132 7.9104433e-39 291 275
-0.034512613 0.70300001 -0.043140765 7.2661557e-39 292 275
-0.03318534 0.70099998 -0.043018032 6.9892101e-39 293 275
-0.031956252 0.70099998 -0.043018032 6.6211493e-39 294 275
-0.030683333 0.69999999 -0.042956665 6.436758e-39 295 275
-0.029371841 0.69800001 -0.042833932 6.3434904e-39 296 275
-0.028148014 0.69800001 -0.042833932 6.1590977e-39 297 275
-0.026885614 0.69700003 -0.042772565 6.3416911e-39 298 275
-0.025626717 0.69599998 -0.042711195 6.3416911e-39 299 275
-0.0244064 0.69599998 -0.042711195 6.2487738e-39 300 275
-0.023186078 0.69599998 -0.042711195 6.2487738e-39 301 275
-0.021965759 0.69599998 -0.042711195 6.0654644e-39 302 275
-0.020745439 0.69599998 -0.042711195 6.0654644e-39 303 275
-0.019553173 0.69700003 -0.042772565 6.156581e-39 304 275
-0.018331099 0.69700003 -0.042772565 6.156581e-39 305 275
-0.017109027 0.69700003 -0.042772565 6.0640294e-39 306 275
-0.015886955 0.69700003 -0.042772565 5.8799969e-39 307 275
-0.01466488 0.69700003 -0.042772565 5.6048491e-39 308 275
-0.013442807 0.69700003 -0.042772565 5.6048491e-39 309 275
-0.012220734 0.69700003 -0.042772565 5.5126535e-39 310 275
-0.01101444 0.69800001 -0.042833932 5.4204579e-39 311 275
-0.0097906133 0.69800001 -0.042833932 5.4204579e-39 312 275
-0.0085913334 0.69999999 -0.042956665 5.4204579e-39 313 275
-0.0073639993 0.69999999 -0.042956665 5.3282651e-39 314 275
-0.0061366665 0.69999999 -0.042956665 5.3282651e-39 315 275
-0.0049093333 0.69999999 -0.042956665 5.1445969e-39 316 275
-0.0036819996 0.69999999 -0.042956665 5.1445969e-39 317 275
-0.0024546667 0.69999999 -0.042956665 5.0531173e-39 318 275
-0.0012273333 0.69999999 -0.042956665 5.0531173e-39 319 275
0 0.70099998 -0.043018032 4.869805e-39 320 275
0.0012290865 0.70099998 -0.043018032 4.869805e-39 321 275
0.0024651866 0.70300001 -0.043140765 4.5024645e-39 322 275
0.0037030398 0.704 -0.043202132 4.5946601e-39 323 275
0.0049514128 0.70599997 -0.043324865 4.5035435e-39 324 275
0.0061980332 0.70700002 -0.043386232 4.5957391e-39 325 275
0.0074376399 0.70700002 -0.043386232 4.4142219e-39 326 275
0.008677247 0.70700002 -0.043386232 4.5064175e-39 327 275
0.0099028256 0.70599997 -0.043324865 4.6915122e-39 328 275
0.011061779 0.70099998 -0.043018032 5.5209128e-39 329 275
0.012290866 0.70099998 -0.043018032 9.7608229e-39 330 275
0.013558527 0.70300001 -0.043140765 1.298767e-38 331 275
-0.042683143 0.71600002 -0.045193922 1.3729565e-38 286 276
-0.041427758 0.71600002 -0.045193922 8.7513597e-39 287 276
-0.040004052 0.713 -0.045004558 9.1125865e-39 288 276
-0.038645219 0.71100003 -0.044878319 8.8356394e-39 289 276
-0.037345998 0.70999998 -0.044815198 8.5568917e-39 290 276
-0.035948593 0.70700002 -0.044625837 7.9115223e-39 291 276
-0.034561705 0.704 -0.044436477 7.3590674e-39 292 276
-0.033280019 0.70300001 -0.04437336 7.0824805e-39 293 276
-0.032047424 0.70300001 -0.04437336 6.6211521e-39 294 276
-0.030727165 0.70099998 -0.044247117 6.4367608e-39 295 276
-0.029455997 0.69999999 -0.044183996 6.6189983e-39 296 276
-0.028148014 0.69800001 -0.04405776 6.2505745e-39 297 276
-0.026885614 0.69700003 -0.043994639 6.158376e-39 298 276
-0.025663542 0.69700003 -0.043994639 6.158376e-39 299 276
-0.024441468 0.69700003 -0.043994639 6.1580131e-39 300 276
-0.023219392 0.69700003 -0.043994639 6.1580131e-39 301 276
-0.021965759 0.69599998 -0.043931518 6.0654615e-39 302 276
-0.020745439 0.69599998 -0.043931518 6.0654615e-39 303 276
-0.019553173 0.69700003 -0.043994639 5.9729128e-39 304 276
-0.0183574 0.69800001 -0.04405776 5.8807172e-39 305 276
-0.017133573 0.69800001 -0.04405776 5.9729128e-39 306 276
-0.015909746 0.69800001 -0.04405776 5.8807172e-39 307 276
-0.01468592 0.69800001 -0.04405776 5.5133724e-39 308 276
-0.013462093 0.69800001 -0.04405776 5.5133724e-39 309 276
-0.012238266 0.69800001 -0.04405776 5.5126535e-39 310 276
-0.011045999 0.69999999 -0.044183996 5.4204579e-39 311 276
-0.0098186666 0.69999999 -0.044183996 5.4204579e-39 312 276
-0.0085913334 0.69999999 -0.044183996 5.4204579e-39 313 276
-0.0073639993 0.69999999 -0.044183996 5.2371484e-39 314 276
-0.0061366665 0.69999999 -0.044183996 5.1445941e-39 315 276
-0.0049163462 0.70099998 -0.044247117 5.0531173e-39 316 276
-0.0036872597 0.70099998 -0.044247117 5.0531173e-39 317 276
-0.0024581731 0.70099998 -0.044247117 5.1453129e-39 318 276
-0.0012290865 0.70099998 -0.044247117 5.1453129e-39 319 276
0 0.70099998 -0.044247117 4.7786884e-39 320 276
0.0012325933 0.70300001 -0.04437336 4.6864928e-39 321 276
0.0024686933 0.704 -0.044436477 4.6872116e-39 322 276
0.0037135598 0.70599997 -0.044562716 4.6872116e-39 323 276
0.0049584266 0.70700002 -0.044625837 4.5046182e-39 324 276
0.0062067998 0.708 -0.044688959 4.5968139e-39 325 276
0.0074481601 0.708 -0.044688959 4.5060644e-39 326 276
0.008689519 0.708 -0.044688959 4.5060644e-39 327 276
0.0099028256 0.70599997 -0.044562716 4.8773482e-39 328 276
0.011061779 0.70099998 -0.044247117 7.6432171e-39 329 276
0.012290866 0.70099998 -0.044247117 1.0777496e-38 330 276
-0.041427758 0.71600002 -0.046449307 1.0042817e-38 287 277
-0.040172372 0.71600002 -0.046449307 9.1132997e-39 288 277
-0.038808275 0.71399999 -0.046319555 8.2838978e-39 289 277
-0.037345998 0.70999998 -0.046060063 8.8331185e-39 290 277
-0.03599944 0.708 -0.045930319 8.2803049e-39 291 277
-0.034659892 0.70599997 -0.04580057 7.5434629e-39 292 277
-0.033422034 0.70599997 -0.04580057 7.0821246e-39 293 277
-0.032093015 0.704 -0.045670826 6.8966599e-39 294 277
-0.030814834 0.70300001 -0.04560595 6.6204332e-39 295 277
-0.029498078 0.70099998 -0.045476202 6.435686e-39 296 277
-0.028228667 0.69999999 -0.04541133 6.2512933e-39 297 277
-0.026924185 0.69800001 -0.045281585 6.2505717e-39 298 277
-0.025663542 0.69700003 -0.045216713 6.158376e-39 299 277
-0.024441468 0.69700003 -0.045216713 6.1576572e-39 300 277
-0.023219392 0.69700003 -0.045216713 6.0654615e-39 301 277
-0.02199732 0.69700003 -0.045216713 6.0654644e-39 302 277
-0.020775247 0.69700003 -0.045216713 6.0654644e-39 303 277
-0.019581227 0.69800001 -0.045281585 6.2487766e-39 304 277
-0.0183574 0.69800001 -0.045281585 6.156581e-39 305 277
-0.017182667 0.69999999 -0.04541133 5.880713e-39 306 277
-0.015955333 0.69999999 -0.04541133 5.880713e-39 307 277
-0.014727999 0.69999999 -0.04541133 5.3300629e-39 308 277
-0.013500666 0.69999999 -0.04541133 5.2378673e-39 309 277
-0.012273333 0.69999999 -0.04541133 5.2371484e-39 310 277
-0.011061779 0.70099998 -0.045476202 5.2371484e-39 311 277
-0.0098326923 0.70099998 -0.045476202 5.2371456e-39 312 277
-0.0086036054 0.70099998 -0.045476202 5.2371456e-39 313 277
-0.0073745195 0.70099998 -0.045476202 5.1453129e-39 314 277
-0.0061629666 0.70300001 -0.04560595 5.0531173e-39 315 277
-0.0049303733 0.70300001 -0.04560595 5.0531173e-39 316 277
-0.0036977797 0.70300001 -0.04560595 5.0531173e-39 317 277
-0.0024651866 0.70300001 -0.04560595 4.9620007e-39 318 277
-0.0012325933 0.70300001 -0.04560595 4.9620007e-39 319 277
0 0.70300001 -0.04560595 4.7786884e-39 320 277
0.0012343467 0.704 -0.045670826 4.7786884e-39 321 277
0.0024757064 0.70599997 -0.04580057 4.6872088e-39 322 277
0.00372408 0.708 -0.045930319 4.7794045e-39 323 277
0.0049654399 0.708 -0.045930319 4.4134988e-39 324 277
0.0062067998 0.708 -0.045930319 4.689727e-39 325 277
0.0074691991 0.70999998 -0.046060063 4.7819282e-39 326 277
0.008689519 0.708 -0.045930319 4.3209501e-39 327 277
0.0099308798 0.708 -0.045930319 5.7060299e-39 328 277
0.01117224 0.708 -0.045930319 9.9470289e-39 329 277
-0.040172372 0.71600002 -0.047704693 1.0128529e-38 288 278
-0.038916986 0.71600002 -0.047704693 8.0080298e-39 289 278
-0.037556399 0.71399999 -0.047571439 8.5576078e-39 290 278
-0.036151983 0.71100003 -0.047371563 8.1891854e-39 291 278
-0.034856264 0.70999998 -0.047304932 7.7271311e-39 292 278
-0.033469379 0.70700002 -0.047105055 7.4501841e-39 293 278
-0.032184184 0.70599997 -0.047038425 7.0806869e-39 294 278
-0.030858666 0.704 -0.046905171 6.8962942e-39 295 278
-0.029582238 0.70300001 -0.046838548 6.710831e-39 296 278
-0.028268991 0.70099998 -0.046705291 6.5264383e-39 297 278
-0.027001332 0.69999999 -0.046638668 6.3427673e-39 298 278
-0.025773998 0.69999999 -0.046638668 6.2505717e-39 299 278
-0.024476532 0.69800001 -0.046505414 6.3416883e-39 300 278
-0.023252707 0.69800001 -0.046505414 6.0654615e-39 301 278
-0.02202888 0.69800001 -0.046505414 6.0654644e-39 302 278
-0.020805053 0.69800001 -0.046505414 5.97291e-39 303 278
-0.019637333 0.69999999 -0.046638668 6.156581e-39 304 278
-0.018409999 0.69999999 -0.046638668 6.156581e-39 305 278
-0.017207211 0.70099998 -0.046705291 5.6974007e-39 306 278
-0.015978126 0.70099998 -0.046705291 5.6052051e-39 307 278
-0.014749039 0.70099998 -0.046705291 5.5126563e-39 308 278
-0.013519952 0.70099998 -0.046705291 5.4204607e-39 309 278
-0.012290866 0.70099998 -0.046705291 5.3282622e-39 310 278
-0.01109334 0.70300001 -0.046838548 5.4204579e-39 311 278
-0.0098607466 0.70300001 -0.046838548 5.2378645e-39 312 278
-0.0086281532 0.70300001 -0.046838548 5.1456689e-39 313 278
-0.0073955595 0.70300001 -0.046838548 5.0531173e-39 314 278
-0.0061629666 0.70300001 -0.046838548 5.0531173e-39 315 278
-0.0049303733 0.70300001 -0.046838548 5.1453129e-39 316 278
-0.0037030398 0.704 -0.046905171 5.1453129e-39 317 278
-0.0024686933 0.704 -0.046905171 5.2378673e-39 318 278
-0.0012343467 0.704 -0.046905171 5.2378673e-39 319 278
0 0.704 -0.046905171 4.9623538e-39 320 278
0.0012378532 0.70599997 -0.047038425 4.9623538e-39 321 278
0.00248272 0.708 -0.047171678 4.7797604e-39 322 278
0.0037345996 0.70999998 -0.047304932 4.871956e-39 323 278
0.0049794666 0.70999998 -0.047304932 4.6890109e-39 324 278
0.0062243328 0.70999998 -0.047304932 4.9652377e-39 325 278
0.0074691991 0.70999998 -0.047304932 4.690806e-39 326 278
0.0087140659 0.70999998 -0.047304932 4.4142191e-39 327 278
0.0099589331 0.70999998 -0.047304932 7.2683207e-39 328 278
-0.039239597 0.74599999 -0.051011477 8.3750172e-39 290 279
-0.03599944 0.708 -0.048413038 8.1902672e-39 291 279
-0.034758076 0.708 -0.048413038 7.8196952e-39 292 279
-0.033516716 0.708 -0.048413038 7.2665215e-39 293 279
-0.03227536 0.708 -0.048413038 7.0814113e-39 294 279
-0.030946331 0.70599997 -0.048276275 6.8044643e-39 295 279
-0.029624319 0.704 -0.048139516 6.5278816e-39 296 279
-0.028349647 0.70300001 -0.048071139 6.3434904e-39 297 279
-0.027039904 0.70099998 -0.047934376 6.2512933e-39 298 279
-0.025810819 0.70099998 -0.047934376 6.1590977e-39 299 279
-0.024546666 0.69999999 -0.047865998 6.1583788e-39 300 279
-0.023319334 0.69999999 -0.047865998 6.0661832e-39 301 279
-0.022091998 0.69999999 -0.047865998 6.156581e-39 302 279
-0.020894472 0.70099998 -0.047934376 6.156581e-39 303 279
-0.019665385 0.70099998 -0.047934376 6.1562279e-39 304 279
-0.018488899 0.70300001 -0.048071139 5.879641e-39 305 279
-0.017256306 0.70300001 -0.048071139 5.6048519e-39 306 279
-0.016023712 0.70300001 -0.048071139 5.5126563e-39 307 279
-0.014791119 0.70300001 -0.048071139 5.4204607e-39 308 279
-0.013558527 0.70300001 -0.048071139 5.4204607e-39 309 279
-0.012325933 0.70300001 -0.048071139 5.3282651e-39 310 279
-0.01109334 0.70300001 -0.048071139 5.4204607e-39 311 279
-0.0098607466 0.70300001 -0.048071139 5.2371484e-39 312 279
-0.0086404262 0.704 -0.048139516 5.1445941e-39 313 279
-0.0074060797 0.704 -0.048139516 5.1445941e-39 314 279
-0.0061717331 0.704 -0.048139516 5.2371484e-39 315 279
-0.0049373866 0.704 -0.048139516 5.2367925e-39 316 279
-0.0037030398 0.704 -0.048139516 5.2367925e-39 317 279
-0.0024686933 0.704 -0.048139516 5.1453157e-39 318 279
-0.0012378532 0.70599997 -0.048276275 5.1453157e-39 319 279
0 0.70700002 -0.048344657 4.9627195e-39 320 279
0.00124136 0.708 -0.048413038 4.9627195e-39 321 279
0.0024932399 0.71100003 -0.048618179 4.7794073e-39 322 279
0.0037398601 0.71100003 -0.048618179 4.9637999e-39 323 279
0.0049864799 0.71100003 -0.048618179 4.7815625e-39 324 279
0.0062506334 0.713 -0.048754938 4.9655936e-39 325 279
0.0074797203 0.71100003 -0.048618179 4.6893626e-39 326 279
0.0087263398 0.71100003 -0.048618179 6.1644941e-39 327 279
-0.034905359 0.71100003 -0.049864799 8.0952003e-39 292 280
-0.033658739 0.71100003 -0.049864799 7.7267779e-39 293 280
-0.032366529 0.70999998 -0.049794663 7.4487463e-39 294 280
-0.031121666 0.70999998 -0.049794663 7.172158e-39 295 280
-0.02979264 0.708 -0.049654398 7.0788876e-39 296 280
-0.028389972 0.704 -0.049373865 6.8944963e-39 297 280
-0.027155625 0.704 -0.049373865 6.5264383e-39 298 280
-0.02592128 0.704 -0.049373865 6.3416883e-39 299 280
-0.024651866 0.70300001 -0.049303733 6.4331707e-39 300 280
-0.023419274 0.70300001 -0.049303733 6.2484207e-39 301 280
-0.02218668 0.70300001 -0.049303733 5.9729128e-39 302 280
-0.020954086 0.70300001 -0.049303733 5.9729128e-39 303 280
-0.019721493 0.70300001 -0.049303733 5.8807172e-39 304 280
-0.018515198 0.704 -0.049373865 5.8807172e-39 305 280
-0.017280852 0.704 -0.049373865 5.5126563e-39 306 280
-0.016046507 0.704 -0.049373865 5.5126563e-39 307 280
-0.014812159 0.704 -0.049373865 5.1445941e-39 308 280
-0.013577812 0.704 -0.049373865 5.2371484e-39 309 280
-0.012343466 0.704 -0.049373865 5.3282651e-39 310 280
-0.011109119 0.704 -0.049373865 5.4204607e-39 311 280
-0.0098747732 0.704 -0.049373865 5.1453129e-39 312 280
-0.0086404262 0.704 -0.049373865 5.0531173e-39 313 280
-0.0074060797 0.704 -0.049373865 5.0531173e-39 314 280
-0.0061717331 0.704 -0.049373865 5.0531173e-39 315 280
-0.0049373866 0.704 -0.049373865 5.0531201e-39 316 280
-0.0037135598 0.70599997 -0.04951413 5.1453157e-39 317 280
-0.0024757064 0.70599997 -0.04951413 4.9620007e-39 318 280
-0.0012396066 0.70700002 -0.049584266 4.9620007e-39 319 280
0 0.70999998 -0.049794663 4.9627195e-39 320 280
0.00124662 0.71100003 -0.049864799 4.9627195e-39 321 280
0.0025002533 0.713 -0.050005067 4.596095e-39 322 280
0.0037503797 0.713 -0.050005067 4.8723232e-39 323 280
0.0050005065 0.713 -0.050005067 4.6893766e-39 324 280
0.0062593995 0.71399999 -0.050075196 4.6893766e-39 325 280
0.0075007593 0.713 -0.050005067 4.5071336e-39 326 280
0.0087508867 0.713 -0.050005067 8.0109262e-39 327 280
-0.033658739 0.71100003 -0.051111419 7.1771943e-39 293 281
-0.032366529 0.70999998 -0.051039528 7.4491149e-39 294 281
-0.031121666 0.70999998 -0.051039528 7.0806925e-39 295 281
-0.029876797 0.70999998 -0.051039528 6.8959439e-39 296 281
-0.028510952 0.70700002 -0.050823875 6.7115526e-39 297 281
-0.027271347 0.70700002 -0.050823875 6.3427729e-39 298 281
-0.025994917 0.70599997 -0.050751984 6.2502185e-39 299 281
-0.024686933 0.704 -0.050608214 6.1573041e-39 300 281
-0.023452586 0.704 -0.050608214 6.1573041e-39 301 281
-0.022218239 0.704 -0.050608214 5.9729156e-39 302 281
-0.020983893 0.704 -0.050608214 5.9729156e-39 303 281
-0.019749546 0.704 -0.050608214 5.7881642e-39 304 281
-0.018515198 0.704 -0.050608214 5.6959686e-39 305 281
-0.017280852 0.704 -0.050608214 5.329707e-39 306 281
-0.016046507 0.704 -0.050608214 5.1453157e-39 307 281
-0.014812159 0.704 -0.050608214 5.1445969e-39 308 281
-0.013577812 0.704 -0.050608214 5.1445969e-39 309 281
-0.012343466 0.704 -0.050608214 5.1445941e-39 310 281
-0.011109119 0.704 -0.050608214 5.1445941e-39 311 281
-0.0098747732 0.704 -0.050608214 5.0531173e-39 312 281
-0.0086404262 0.704 -0.050608214 5.0531173e-39 313 281
-0.0074271196 0.70599997 -0.050751984 5.0531173e-39 314 281
-0.0061892662 0.70599997 -0.050751984 5.1453129e-39 315 281
-0.0049514128 0.70599997 -0.050751984 4.9627223e-39 316 281
-0.0037188199 0.70700002 -0.050823875 4.7786912e-39 317 281
-0.0024792133 0.70700002 -0.050823875 4.9620007e-39 318 281
-0.00124136 0.708 -0.050895758 5.0541963e-39 319 281
0 0.71100003 -0.051111419 4.9627195e-39 320 281
0.00124662 0.71100003 -0.051111419 4.9627195e-39 321 281
0.0025002533 0.713 -0.051255193 4.7801289e-39 322 281
0.0037556398 0.71399999 -0.05132708 4.872326e-39 323 281
0.0050005065 0.713 -0.051255193 4.9652405e-39 324 281
0.0062506334 0.713 -0.051255193 4.5964579e-39 325 281
0.0074797203 0.71100003 -0.051111419 5.2421805e-39 326 281
0.0087263398 0.71100003 -0.051111419 9.7597663e-39 327 281
-0.032412119 0.71100003 -0.052358042 7.4512645e-39 294 282
-0.031165501 0.71100003 -0.052358042 7.0824805e-39 295 282
-0.029876797 0.70999998 -0.052284397 6.7133477e-39 296 282
-0.028631933 0.70999998 -0.052284397 6.4367608e-39 297 282
-0.027309919 0.708 -0.052137118 6.5268026e-39 298 282
-0.026068559 0.708 -0.052137118 6.2505745e-39 299 282
-0.024757065 0.70599997 -0.051989835 6.4331679e-39 300 282
-0.023519212 0.70599997 -0.051989835 6.4331679e-39 301 282
-0.022218239 0.704 -0.051842559 6.0651084e-39 302 282
-0.020983893 0.704 -0.051842559 5.9729128e-39 303 282
-0.019805651 0.70599997 -0.051989835 5.8807172e-39 304 282
-0.018567799 0.70599997 -0.051989835 5.7885201e-39 305 282
-0.017329946 0.70599997 -0.051989835 5.2378673e-39 306 282
-0.016092092 0.70599997 -0.051989835 5.2378673e-39 307 282
-0.014854239 0.70599997 -0.051989835 5.0531173e-39 308 282
-0.013616386 0.70599997 -0.051989835 5.0531173e-39 309 282
-0.012378532 0.70599997 -0.051989835 5.0531173e-39 310 282
-0.011109119 0.704 -0.051842559 5.0531173e-39 311 282
-0.0098747732 0.704 -0.051842559 5.0531173e-39 312 282
-0.0086649731 0.70599997 -0.051989835 5.1453129e-39 313 282
-0.0074271196 0.70599997 -0.051989835 4.7786912e-39 314 282
-0.0061892662 0.70599997 -0.051989835 4.7786912e-39 315 282
-0.0049514128 0.70599997 -0.051989835 4.9627223e-39 316 282
-0.0037188199 0.70700002 -0.05206348 4.9627223e-39 317 282
-0.00248272 0.708 -0.052137118 4.9627195e-39 318 282
-0.0012448666 0.70999998 -0.052284397 4.9627195e-39 319 282
0 0.71100003 -0.052358042 4.8716057e-39 320 282
0.0012501266 0.713 -0.052505318 4.7794101e-39 321 282
0.0025037599 0.71399999 -0.052578956 4.7801289e-39 322 282
0.0037503797 0.713 -0.052505318 4.9645216e-39 323 282
0.0050005065 0.713 -0.052505318 4.5986131e-39 324 282
0.0062330998 0.71100003 -0.052358042 5.2439826e-39 325 282
0.0074691991 0.70999998 -0.052284397 6.3503259e-39 326 282
0.0087140659 0.70999998 -0.052284397 1.0222542e-38 327 282
-0.032503292 0.713 -0.053755447 7.2690368e-39 294 283
-0.031253166 0.713 -0.053755447 6.7162218e-39 295 283
-0.029918881 0.71100003 -0.053604662 6.8051916e-39 296 283
-0.028672259 0.71100003 -0.053604662 6.5286033e-39 297 283
-0.027387066 0.70999998 -0.053529263 6.435686e-39 298 283
-0.026142199 0.70999998 -0.053529263 6.2512933e-39 299 283
-0.024827199 0.708 -0.053378478 6.4338895e-39 300 283
-0.023519212 0.70599997 -0.053227689 6.1573041e-39 301 283
-0.022281358 0.70599997 -0.053227689 6.0651112e-39 302 283
-0.021043506 0.70599997 -0.053227689 5.9729156e-39 303 283
-0.019833706 0.70700002 -0.053303085 5.6974049e-39 304 283
-0.018594101 0.70700002 -0.053303085 5.6974049e-39 305 283
-0.017329946 0.70599997 -0.053227689 5.1467479e-39 306 283
-0.016092092 0.70599997 -0.053227689 5.0545522e-39 307 283
-0.01487528 0.70700002 -0.053303085 5.1456689e-39 308 283
-0.013635674 0.70700002 -0.053303085 5.1456689e-39 309 283
-0.012396066 0.70700002 -0.053303085 5.0531173e-39 310 283
-0.011140679 0.70599997 -0.053227689 5.1453129e-39 311 283
-0.0099028256 0.70599997 -0.053227689 4.8698078e-39 312 283
-0.008677247 0.70700002 -0.053303085 4.9620035e-39 313 283
-0.0074481601 0.708 -0.053378478 4.7786912e-39 314 283
-0.0062067998 0.708 -0.053378478 4.9627223e-39 315 283
-0.0049654399 0.708 -0.053378478 4.9627223e-39 316 283
-0.0037398601 0.71100003 -0.053604662 4.9627223e-39 317 283
-0.0024932399 0.71100003 -0.053604662 4.9627223e-39 318 283
-0.0012501266 0.713 -0.053755447 4.9627223e-39 319 283
0 0.71399999 -0.053830836 4.8716057e-39 320 283
