# .PCD v.7 - Point Cloud Data file format
FIELDS x y z rgb imX imY
SIZE 4 4 4 4 4 4
TYPE F F F F F F
COUNT 1 1 1 1 1 1
WIDTH 854
HEIGHT 1
VIEWPOINT 0 0 0 1 0 0 0
POINTS 854
DATA ascii
-0.021825492 0.778 0.027281865 1.0519487e-38 304 220
-0.0204088 0.77600002 0.027211733 1.024254e-38 305 220
-0.019048214 0.77600002 0.027211733 1.0059215e-38 306 220
-0.017687626 0.77600002 0.027211733 9.5982443e-39 307 220
-0.01632704 0.77600002 0.027211733 9.6886448e-39 308 220
-0.014966453 0.77600002 0.027211733 9.873392e-39 309 220
-0.013605867 0.77600002 0.027211733 1.0608435e-38 310 220
-0.01224528 0.77600002 0.027211733 1.0515882e-38 311 220
-0.010884693 0.77600002 0.027211733 1.0329341e-38 312 220
-0.0095486529 0.778 0.027281865 9.960564e-39 313 220
-0.0081845606 0.778 0.027281865 8.7645502e-39 314 220
-0.0068204664 0.778 0.027281865 8.4883262e-39 315 220
-0.0054703997 0.77999997 0.027351998 8.3943383e-39 316 220
-0.0041027996 0.77999997 0.027351998 8.0255614e-39 317 220
-0.0027351999 0.77999997 0.027351998 7.4745484e-39 318 220
-0.0013693533 0.78100002 0.027387068 7.29016e-39 319 220
0 0.78100002 0.027387068 7.2033692e-39 320 220
0.0013675999 0.77999997 0.027351998 7.8487386e-39 321 220
0.0027351999 0.77999997 0.027351998 8.4915912e-39 322 220
0.0040922803 0.778 0.027281865 8.6759825e-39 323 220
0.0054423464 0.77600002 0.027211733 8.6770391e-39 324 220
0.0067853997 0.77399999 0.027141599 8.6770391e-39 325 220
0.0081424797 0.77399999 0.027141599 8.7721032e-39 326 220
0.0094872871 0.773 0.027106533 9.2330799e-39 327 220
0.01081456 0.77100003 0.027036399 9.598973e-39 328 220
0.01216638 0.77100003 0.027036399 9.2298303e-39 329 220
0.013483133 0.76899999 0.026966266 9.8708809e-39 330 220
0.014831445 0.76899999 0.026966266 9.9630751e-39 331 220
0.016179759 0.76899999 0.026966266 1.0148181e-38 332 220
0.017528072 0.76899999 0.026966266 1.0609152e-38 333 220
0.018876385 0.76899999 0.026966266 1.2450178e-38 334 220
0.0202247 0.76899999 0.026966266 1.1897004e-38 335 220
0.021573013 0.76899999 0.026966266 1.1340966e-38 336 220
0.022921326 0.76899999 0.026966266 1.0879636e-38 337 220
0.024269639 0.76899999 0.026966266 1.0235001e-38 338 220
0.02568458 0.77100003 0.027036399 1.0142804e-38 339 220
0.027036399 0.77100003 0.027036399 9.7743945e-39 340 220
0.028388219 0.77100003 0.027036399 9.7743945e-39 341 220
0.029817186 0.773 0.027106533 9.7733225e-39 342 220
0.03117251 0.773 0.027106533 9.5889312e-39 343 220
0.032569919 0.77399999 0.027141599 9.219095e-39 344 220
0.033927001 0.77399999 0.027141599 9.0347037e-39 345 220
0.035375252 0.77600002 0.027211733 7.1919177e-39 346 220
0.036735836 0.77600002 0.027211733 9.2202216e-39 347 220
0.038096428 0.77600002 0.027211733 1.3735684e-38 348 220
-0.03020292 0.78299999 0.026084339 1.540167e-38 298 221
-0.028830061 0.78299999 0.026084339 1.2174823e-38 299 221
-0.027387068 0.78100002 0.026017714 1.0977649e-38 300 221
-0.025984399 0.77999997 0.025984399 9.7791057e-39 301 221
-0.024553679 0.778 0.025917772 1.0058878e-38 302 221
-0.023129974 0.77600002 0.025851147 1.0519497e-38 303 221
-0.021769386 0.77600002 0.025851147 1.0703147e-38 304 221
-0.0204088 0.77600002 0.025851147 1.0334723e-38 305 221
-0.019048214 0.77600002 0.025851147 1.0241451e-38 306 221
-0.01764204 0.77399999 0.025784519 1.0149257e-38 307 221
-0.016284959 0.77399999 0.025784519 9.6890036e-39 308 221
-0.014927879 0.77399999 0.025784519 9.873392e-39 309 221
-0.013570799 0.77399999 0.025784519 1.0515882e-38 310 221
-0.01221372 0.77399999 0.025784519 1.0331493e-38 311 221
-0.010884693 0.77600002 0.025851147 1.0328982e-38 312 221
-0.009524107 0.77600002 0.025851147 9.6836226e-39 313 221
-0.0081635201 0.77600002 0.025851147 8.8560269e-39 314 221
-0.0068029333 0.77600002 0.025851147 8.4868913e-39 315 221
-0.0054563731 0.778 0.025917772 8.0259201e-39 316 221
-0.0041027996 0.77999997 0.025984399 7.657502e-39 317 221
-0.0027387065 0.78100002 0.026017714 7.3816367e-39 318 221
-0.0013693533 0.78100002 0.026017714 7.2894425e-39 319 221
0 0.78100002 0.026017714 7.2905425e-39 320 221
0.0013693533 0.78100002 0.026017714 7.7515207e-39 321 221
0.0027351999 0.77999997 0.025984399 7.386708e-39 322 221
0.0040922803 0.778 0.025917772 7.7551304e-39 323 221
0.0054423464 0.77600002 0.025851147 7.6654235e-39 324 221
0.0067853997 0.77399999 0.025784519 7.9416517e-39 325 221
0.0081319595 0.773 0.025751207 7.9441558e-39 326 221
0.0094627403 0.77100003 0.02568458 8.5895252e-39 327 221
0.01081456 0.77100003 0.02568458 9.5046249e-39 328 221
0.012134819 0.76899999 0.025617953 8.8592555e-39 329 221
0.013483133 0.76899999 0.025617953 9.1358382e-39 330 221
0.014831445 0.76899999 0.025617953 9.2280324e-39 331 221
0.016179759 0.76899999 0.025617953 9.6882861e-39 332 221
0.017528072 0.76899999 0.025617953 1.0241451e-38 333 221
0.018876385 0.76899999 0.025617953 1.2081766e-38 334 221
0.0202247 0.76899999 0.025617953 1.1528592e-38 335 221
0.021573013 0.76899999 0.025617953 1.0788524e-38 336 221
0.022921326 0.76899999 0.025617953 1.0512297e-38 337 221
0.024269639 0.76899999 0.025617953 1.0235001e-38 338 221
0.025617953 0.76899999 0.025617953 1.0050609e-38 339 221
0.026966266 0.76899999 0.025617953 9.683631e-39 340 221
0.028388219 0.77100003 0.02568458 9.5914354e-39 341 221
0.029817186 0.773 0.025751207 9.6814772e-39 342 221
0.03117251 0.773 0.025751207 9.5892816e-39 343 221
0.032569919 0.77399999 0.025784519 9.5860726e-39 344 221
0.033927001 0.77399999 0.025784519 9.4020415e-39 345 221
0.035375252 0.77600002 0.025851147 8.1109874e-39 346 221
0.036735836 0.77600002 0.025851147 8.5723242e-39 347 221
0.038194612 0.778 0.025917772 1.2077592e-38 348 221
-0.030125774 0.78100002 0.024648361 1.4387145e-38 298 222
-0.028756421 0.78100002 0.024648361 1.1713472e-38 299 222
-0.027351998 0.77999997 0.024616797 1.0518799e-38 300 222
-0.025917772 0.778 0.024553679 9.6886799e-39 301 222
-0.024490559 0.77600002 0.024490559 1.07028e-38 302 222
-0.02307036 0.77399999 0.02442744 1.1163418e-38 303 222
-0.021713279 0.77399999 0.02442744 1.0888263e-38 304 222
-0.0204088 0.77600002 0.024490559 1.0335089e-38 305 222
-0.018999118 0.77399999 0.02442744 1.0334363e-38 306 222
-0.01764204 0.77399999 0.02442744 9.873392e-39 307 222
-0.016284959 0.77399999 0.02442744 1.0055987e-38 308 222
-0.014927879 0.77399999 0.02442744 1.0148181e-38 309 222
-0.013570799 0.77399999 0.02442744 1.0424405e-38 310 222
-0.01221372 0.77399999 0.02442744 1.0055628e-38 311 222
-0.01085664 0.77399999 0.02442744 9.409551e-39 312 222
-0.0094995592 0.77399999 0.02442744 9.1329683e-39 313 222
-0.0081635201 0.77600002 0.024490559 8.5790855e-39 314 222
-0.0068029333 0.77600002 0.024490559 8.1181144e-39 315 222
-0.0054423464 0.77600002 0.024490559 7.8411729e-39 316 222
-0.0040922803 0.778 0.024553679 7.564949e-39 317 222
-0.0027351999 0.77999997 0.024616797 7.3805605e-39 318 222
-0.0013693533 0.78100002 0.024648361 7.1961721e-39 319 222
0 0.78100002 0.024648361 7.195463e-39 320 222
0.0013693533 0.78100002 0.024648361 7.6560824e-39 321 222
0.0027387065 0.78100002 0.024648361 7.4752883e-39 322 222
0.0041027996 0.77999997 0.024616797 7.9362651e-39 323 222
0.0054423464 0.77600002 0.024490559 7.5710573e-39 324 222
0.0067766332 0.773 0.024395877 7.8476441e-39 325 222
0.0081109209 0.77100003 0.02433276 8.1249471e-39 326 222
0.0094381925 0.76899999 0.024269639 8.2175015e-39 327 222
0.010786506 0.76899999 0.024269639 8.4929967e-39 328 222
0.012134819 0.76899999 0.024269639 8.3082467e-39 329 222
0.013448066 0.76700002 0.024206521 9.0425678e-39 330 222
0.014792874 0.76700002 0.024206521 9.134762e-39 331 222
0.01613768 0.76700002 0.024206521 9.8708809e-39 332 222
0.017482487 0.76700002 0.024206521 1.0516241e-38 333 222
0.018827293 0.76700002 0.024206521 1.1803752e-38 334 222
0.020172099 0.76700002 0.024206521 1.1711557e-38 335 222
0.021573013 0.76899999 0.024269639 1.0695612e-38 336 222
0.022921326 0.76899999 0.024269639 1.0510862e-38 337 222
0.024269639 0.76899999 0.024269639 1.0143159e-38 338 222
0.025617953 0.76899999 0.024269639 9.8665761e-39 339 222
0.026966266 0.76899999 0.024269639 9.5914326e-39 340 222
0.028314579 0.76899999 0.024269639 9.5914326e-39 341 222
0.029740039 0.77100003 0.02433276 9.6821989e-39 342 222
0.03117251 0.773 0.024395877 9.4056134e-39 343 222
0.032569919 0.77399999 0.02442744 9.2197984e-39 344 222
0.033927001 0.77399999 0.02442744 9.0354071e-39 345 222
0.035375252 0.77600002 0.024490559 8.9392865e-39 346 222
0.036735836 0.77600002 0.024490559 8.6623409e-39 347 222
0.038096428 0.77600002 0.024490559 1.0417698e-38 348 222
0.039558705 0.778 0.024553679 1.3828937e-38 349 222
-0.030087199 0.77999997 0.023249198 1.3190026e-38 298 223
-0.028719598 0.77999997 0.023249198 1.1069887e-38 299 223
-0.027281865 0.778 0.023189586 1.1344607e-38 300 223
-0.025851147 0.77600002 0.023129974 1.0976184e-38 301 223
-0.02442744 0.77399999 0.02307036 1.1439679e-38 302 223
-0.02307036 0.77399999 0.02307036 1.2177244e-38 303 223
-0.021713279 0.77399999 0.02307036 1.2082529e-38 304 223
-0.020356199 0.77399999 0.02307036 1.1529355e-38 305 223
-0.018999118 0.77399999 0.02307036 1.1252731e-38 306 223
-0.01764204 0.77399999 0.02307036 1.0607361e-38 307 223
-0.016284959 0.77399999 0.02307036 9.9616402e-39 308 223
-0.014927879 0.77399999 0.02307036 1.0238223e-38 309 223
-0.013570799 0.77399999 0.02307036 1.0331135e-38 310 223
-0.01221372 0.77399999 0.02307036 9.8701634e-39 311 223
-0.01085664 0.77399999 0.02307036 8.76742e-39 312 223
-0.0094995592 0.77399999 0.02307036 8.3064489e-39 313 223
-0.0081424797 0.77399999 0.02307036 8.2103086e-39 314 223
-0.0068029333 0.77600002 0.023129974 7.8411729e-39 315 223
-0.0054423464 0.77600002 0.023129974 7.3805605e-39 316 223
-0.0040817601 0.77600002 0.023129974 7.1043366e-39 317 223
-0.0027351999 0.77999997 0.023249198 7.2862139e-39 318 223
-0.0013693533 0.78100002 0.023279008 7.1018255e-39 319 223
0 0.78100002 0.023279008 6.5497433e-39 320 223
0.0013693533 0.78100002 0.023279008 6.8259714e-39 321 223
0.0027387065 0.78100002 0.023279008 6.828491e-39 322 223
0.0041027996 0.77999997 0.023249198 7.2894705e-39 323 223
0.0054283198 0.77399999 0.02307036 6.9257075e-39 324 223
0.0067766332 0.773 0.023040552 7.3866842e-39 325 223
0.0081109209 0.77100003 0.02298094 7.6646948e-39 326 223
0.0094381925 0.76899999 0.022921326 7.8490861e-39 327 223
0.010786506 0.76899999 0.022921326 8.3086013e-39 328 223
0.01210326 0.76700002 0.022861714 8.216407e-39 329 223
0.013448066 0.76700002 0.022861714 8.6745083e-39 330 223
0.014792874 0.76700002 0.022861714 8.7670613e-39 331 223
0.01613768 0.76700002 0.022861714 9.8705222e-39 332 223
0.017482487 0.76700002 0.022861714 1.060808e-38 333 223
0.018827293 0.76700002 0.022861714 1.1250931e-38 334 223
0.020172099 0.76700002 0.022861714 1.0974345e-38 335 223
0.021516906 0.76700002 0.022861714 1.0603771e-38 336 223
0.022921326 0.76899999 0.022921326 1.0327547e-38 337 223
0.024269639 0.76899999 0.022921326 1.0050965e-38 338 223
0.025617953 0.76899999 0.022921326 9.8669349e-39 339 223
0.026966266 0.76899999 0.022921326 9.7747448e-39 340 223
0.028314579 0.76899999 0.022921326 9.6825492e-39 341 223
0.02966289 0.76899999 0.022921326 9.6821989e-39 342 223
0.03117251 0.773 0.023040552 9.4056134e-39 343 223
0.032527838 0.773 0.023040552 9.4041827e-39 344 223
0.033927001 0.77399999 0.02307036 9.1279559e-39 345 223
0.03528408 0.77399999 0.02307036 9.0325513e-39 346 223
0.036735836 0.77600002 0.023129974 8.1109551e-39 347 223
0.038096428 0.77600002 0.023129974 9.308104e-39 348 223
0.039457016 0.77600002 0.023129974 1.3272516e-38 349 223
0.0408176 0.77600002 0.023129974 1.6314997e-38 350 223
-0.031454798 0.77999997 0.021881599 1.4936746e-38 297 224
-0.03001005 0.778 0.021825492 1.2361681e-38 298 224
-0.028645959 0.778 0.021825492 1.0886192e-38 299 224
-0.027211733 0.77600002 0.021769386 1.1068383e-38 300 224
-0.025851147 0.77600002 0.021769386 1.1805948e-38 301 224
-0.02442744 0.77399999 0.021713279 1.2362401e-38 302 224
-0.02307036 0.77399999 0.021713279 1.300777e-38 303 224
-0.021713279 0.77399999 0.021713279 1.309711e-38 304 224
-0.020356199 0.77399999 0.021713279 1.2912719e-38 305 224
-0.018999118 0.77399999 0.021713279 1.3002353e-38 306 224
-0.01764204 0.77399999 0.021713279 1.1527583e-38 307 224
-0.016263919 0.773 0.021685226 9.0411329e-39 308 224
-0.014908593 0.773 0.021685226 9.3173568e-39 309 224
-0.013553266 0.773 0.021685226 9.9630751e-39 310 224
-0.01221372 0.77399999 0.021713279 9.7783279e-39 311 224
-0.01085664 0.77399999 0.021713279 8.951091e-39 312 224
-0.0094995592 0.77399999 0.021713279 8.2135372e-39 313 224
-0.0081424797 0.77399999 0.021713279 8.1181144e-39 314 224
-0.0067853997 0.77399999 0.021713279 7.564949e-39 315 224
-0.0054283198 0.77399999 0.021713279 7.1050541e-39 316 224
-0.0040712398 0.77399999 0.021713279 6.7362771e-39 317 224
-0.0027211732 0.77600002 0.021769386 7.192226e-39 318 224
-0.0013675999 0.77999997 0.021881599 7.0078376e-39 319 224
0 0.78100002 0.021909652 6.7305374e-39 320 224
0.0013693533 0.78100002 0.021909652 6.546149e-39 321 224
0.0027387065 0.78100002 0.021909652 5.9980086e-39 322 224
0.0041027996 0.77999997 0.021881599 6.9199649e-39 323 224
0.0054283198 0.77399999 0.021713279 6.8338608e-39 324 224
0.0067415666 0.76899999 0.021573013 7.4792302e-39 325 224
0.0080898795 0.76899999 0.021573013 8.216407e-39 326 224
0.0094136465 0.76700002 0.021516906 8.216407e-39 327 224
0.010758453 0.76700002 0.021516906 8.4911961e-39 328 224
0.01210326 0.76700002 0.021516906 8.4911961e-39 329 224
0.013448066 0.76700002 0.021516906 8.9500148e-39 330 224
0.014792874 0.76700002 0.021516906 9.318433e-39 331 224
0.01613768 0.76700002 0.021516906 1.0422253e-38 332 224
0.017482487 0.76700002 0.021516906 1.0975421e-38 333 224
0.018827293 0.76700002 0.021516906 1.0973624e-38 334 224
0.020172099 0.76700002 0.021516906 1.0513012e-38 335 224
0.021516906 0.76700002 0.021516906 1.0145311e-38 336 224
0.022861714 0.76700002 0.021516906 9.960564e-39 337 224
0.024206521 0.76700002 0.021516906 9.7754581e-39 338 224
0.025617953 0.76899999 0.021573013 9.6832639e-39 339 224
0.026966266 0.76899999 0.021573013 9.498881e-39 340 224
0.028314579 0.76899999 0.021573013 9.4066854e-39 341 224
0.02966289 0.76899999 0.021573013 9.4981677e-39 342 224
0.03117251 0.773 0.021685226 9.4056134e-39 343 224
0.032527838 0.773 0.021685226 9.4041799e-39 344 224
0.033927001 0.77399999 0.021713279 9.0357575e-39 345 224
0.03528408 0.77399999 0.021713279 9.1247511e-39 346 224
0.036641158 0.77399999 0.021713279 8.663773e-39 347 224
0.038096428 0.77600002 0.021769386 8.4765497e-39 348 224
0.039457016 0.77600002 0.021769386 1.2348766e-38 349 224
0.0408176 0.77600002 0.021769386 1.5854739e-38 350 224
-0.031454798 0.77999997 0.020513998 1.4383925e-38 297 225
-0.03001005 0.778 0.020461399 1.2544624e-38 298 225
-0.028645959 0.778 0.020461399 1.0977299e-38 299 225
-0.027211733 0.77600002 0.0204088 1.0700689e-38 300 225
-0.025851147 0.77600002 0.0204088 1.3189971e-38 301 225
-0.02442744 0.77399999 0.020356199 1.4480412e-38 302 225
-0.02307036 0.77399999 0.020356199 1.5402727e-38 303 225
-0.021713279 0.77399999 0.020356199 1.5033976e-38 304 225
-0.020356199 0.77399999 0.020356199 1.5218726e-38 305 225
-0.018974574 0.773 0.0203299 1.6045578e-38 306 225
-0.017619247 0.773 0.0203299 1.327935e-38 307 225
-0.016263919 0.773 0.0203299 9.3173834e-39 308 225
-0.014908593 0.773 0.0203299 8.579817e-39 309 225
-0.013553266 0.773 0.0203299 9.4102685e-39 310 225
-0.012197939 0.773 0.0203299 9.5028215e-39 311 225
-0.010842613 0.773 0.0203299 9.1344033e-39 312 225
-0.0094872871 0.773 0.0203299 8.0284313e-39 313 225
-0.0081319595 0.773 0.0203299 7.7504137e-39 314 225
-0.0067766332 0.773 0.0203299 7.4734722e-39 315 225
-0.0054213065 0.773 0.0203299 6.8291888e-39 316 225
-0.0040712398 0.77399999 0.020356199 6.5526061e-39 317 225
-0.0027211732 0.77600002 0.0204088 7.0089138e-39 318 225
-0.0013675999 0.77999997 0.020513998 6.7319723e-39 319 225
0 0.78100002 0.020540299 5.8107475e-39 320 225
0.0013693533 0.78100002 0.020540299 6.0876889e-39 321 225
0.0027387065 0.78100002 0.020540299 6.0927112e-39 322 225
0.0040291594 0.76599997 0.020145798 7.8440666e-39 323 225
0.0053792265 0.76700002 0.020172099 8.1242282e-39 324 225
0.006724033 0.76700002 0.020172099 8.1242282e-39 325 225
0.00806884 0.76700002 0.020172099 8.4011542e-39 326 225
0.0094136465 0.76700002 0.020172099 8.2167658e-39 327 225
0.010758453 0.76700002 0.020172099 8.4911961e-39 328 225
0.012087479 0.76599997 0.020145798 8.5833903e-39 329 225
0.013430533 0.76599997 0.020145798 9.8701634e-39 330 225
0.014773586 0.76599997 0.020145798 1.0515523e-38 331 225
0.016116638 0.76599997 0.020145798 1.0975777e-38 332 225
0.017459691 0.76599997 0.020145798 1.0699194e-38 333 225
0.018802745 0.76599997 0.020145798 1.0788877e-38 334 225
0.020145798 0.76599997 0.020145798 1.0511936e-38 335 225
0.021516906 0.76700002 0.020172099 1.0052758e-38 336 225
0.022861714 0.76700002 0.020172099 9.960564e-39 337 225
0.024206521 0.76700002 0.020172099 9.6839813e-39 338 225
0.025551327 0.76700002 0.020172099 9.5917871e-39 339 225
0.026966266 0.76899999 0.0202247 9.4063322e-39 340 225
0.028314579 0.76899999 0.0202247 9.4063322e-39 341 225
0.02966289 0.76899999 0.0202247 9.4978118e-39 342 225
0.031091858 0.77100003 0.020277301 9.4056162e-39 343 225
0.032527838 0.773 0.0203299 9.313066e-39 344 225
0.033883166 0.773 0.0203299 9.0364791e-39 345 225
0.03528408 0.77399999 0.020356199 9.0336317e-39 346 225
0.036641158 0.77399999 0.020356199 8.664489e-39 347 225
0.037998237 0.77399999 0.020356199 8.2907095e-39 348 225
0.039457016 0.77600002 0.0204088 1.1517557e-38 349 225
0.0408176 0.77600002 0.0204088 1.5393038e-38 350 225
-0.032822397 0.77999997 0.0191464 1.5674298e-38 296 226
-0.031454798 0.77999997 0.0191464 1.4014417e-38 297 226
-0.03001005 0.778 0.019097306 1.2543896e-38 298 226
-0.028645959 0.778 0.019097306 1.0884733e-38 299 226
-0.027211733 0.77600002 0.019048214 1.0424472e-38 300 226
-0.025784519 0.77399999 0.018999118 1.4296689e-38 301 226
-0.02442744 0.77399999 0.018999118 1.5861929e-38 302 226
-0.023040552 0.773 0.018974574 1.5861929e-38 303 226
-0.021685226 0.773 0.018974574 1.5309867e-38 304 226
-0.0203299 0.773 0.018974574 1.5402062e-38 305 226
-0.018974574 0.773 0.018974574 1.632255e-38 306 226
-0.017619247 0.773 0.018974574 1.4570835e-38 307 226
-0.016221842 0.77100003 0.018925481 1.0608494e-38 308 226
-0.01487002 0.77100003 0.018925481 8.8567766e-39 309 226
-0.013518199 0.77100003 0.018925481 9.2280324e-39 310 226
-0.01216638 0.77100003 0.018925481 9.2280324e-39 311 226
-0.01081456 0.77100003 0.018925481 9.5010278e-39 312 226
-0.0094627403 0.77100003 0.018925481 8.8556682e-39 313 226
-0.0081109209 0.77100003 0.018925481 8.5787268e-39 314 226
-0.0067590997 0.77100003 0.018925481 8.0255614e-39 315 226
-0.0054072798 0.77100003 0.018925481 7.1983245e-39 316 226
-0.0040554604 0.77100003 0.018925481 6.8295476e-39 317 226
-0.0027036399 0.77100003 0.018925481 6.7366359e-39 318 226
-0.00135182 0.77100003 0.018925481 5.9987233e-39 319 226
0 0.78100002 0.019170946 5.7228581e-39 320 226
0.0013693533 0.78100002 0.019170946 6.5529649e-39 321 226
0.0026896133 0.76700002 0.018827293 7.5699755e-39 322 226
0.0040291594 0.76599997 0.018802745 8.4000949e-39 323 226
0.0053722127 0.76599997 0.018802745 9.0447202e-39 324 226
0.0067152665 0.76599997 0.018802745 9.1369144e-39 325 226
0.0080583189 0.76599997 0.018802745 9.5953744e-39 326 226
0.0094013726 0.76599997 0.018802745 9.410986e-39 327 226
0.010744425 0.76599997 0.018802745 9.5024627e-39 328 226
0.012087479 0.76599997 0.018802745 9.594657e-39 329 226
0.013430533 0.76599997 0.018802745 1.0606282e-38 330 226
0.014773586 0.76599997 0.018802745 1.1251642e-38 331 226
0.016116638 0.76599997 0.018802745 1.0790671e-38 332 226
0.017459691 0.76599997 0.018802745 1.0606282e-38 333 226
0.018802745 0.76599997 0.018802745 1.0421176e-38 334 226
0.020145798 0.76599997 0.018802745 1.0328982e-38 335 226
0.021488851 0.76599997 0.018802745 1.0052758e-38 336 226
0.022861714 0.76700002 0.018827293 9.8683698e-39 337 226
0.024206521 0.76700002 0.018827293 1.0050965e-38 338 226
0.025551327 0.76700002 0.018827293 9.7743819e-39 339 226
0.026896132 0.76700002 0.018827293 9.7736728e-39 340 226
0.02824094 0.76700002 0.018827293 9.7736728e-39 341 226
0.02966289 0.76899999 0.018876385 9.4978146e-39 342 226
0.031011207 0.76899999 0.018876385 9.405619e-39 343 226
0.032443684 0.77100003 0.018925481 9.4041827e-39 344 226
0.033883166 0.773 0.018974574 9.0357603e-39 345 226
0.03528408 0.77399999 0.018999118 9.3087668e-39 346 226
0.036641158 0.77399999 0.018999118 9.0325387e-39 347 226
0.037998237 0.77399999 0.018999118 8.3810904e-39 348 226
0.039457016 0.77600002 0.019048214 1.1146961e-38 349 226
0.0408176 0.77600002 0.019048214 1.4564351e-38 350 226
-0.032822397 0.77999997 0.017778799 1.5214039e-38 296 227
-0.031454798 0.77999997 0.017778799 1.3646713e-38 297 227
-0.03001005 0.778 0.017733213 1.2268371e-38 298 227
-0.028572321 0.77600002 0.017687626 1.0332263e-38 299 227
-0.027211733 0.77600002 0.017687626 1.0428794e-38 300 227
-0.025784519 0.77399999 0.01764204 1.476163e-38 301 227
-0.02442744 0.77399999 0.01764204 1.5676126e-38 302 227
-0.023040552 0.773 0.017619247 1.4385387e-38 303 227
-0.021685226 0.773 0.017619247 1.2634041e-38 304 227
-0.0203299 0.773 0.017619247 1.2357814e-38 305 227
-0.018925481 0.77100003 0.01757366 1.3374465e-38 306 227
-0.01757366 0.77100003 0.01757366 1.3742887e-38 307 227
-0.016179759 0.76899999 0.017528072 1.235988e-38 308 227
-0.014831445 0.76899999 0.017528072 1.0331576e-38 309 227
-0.013483133 0.76899999 0.017528072 9.1361969e-39 310 227
-0.012134819 0.76899999 0.017528072 9.1361969e-39 311 227
-0.010786506 0.76899999 0.017528072 9.134762e-39 312 227
-0.0094381925 0.76899999 0.017528072 8.6741496e-39 313 227
-0.0080898795 0.76899999 0.017528072 8.3046552e-39 314 227
-0.0067415666 0.76899999 0.017528072 7.9358783e-39 315 227
-0.0053932532 0.76899999 0.017528072 7.4781358e-39 316 227
-0.0040449398 0.76899999 0.017528072 7.4781358e-39 317 227
-0.0026966266 0.76899999 0.017528072 7.9373188e-39 318 227
-0.0013483133 0.76899999 0.017528072 8.398297e-39 319 227
0 0.76700002 0.017482487 8.8603696e-39 320 227
0.0013448066 0.76700002 0.017482487 9.3213491e-39 321 227
0.0026896133 0.76700002 0.017482487 9.5060683e-39 322 227
0.0040291594 0.76599997 0.017459691 9.0454488e-39 323 227
0.0053581866 0.764 0.017414106 9.3220203e-39 324 227
0.006697733 0.764 0.017414106 9.4142146e-39 325 227
0.0080372803 0.764 0.017414106 1.0423329e-38 326 227
0.0093768267 0.764 0.017414106 1.0331135e-38 327 227
0.010716373 0.764 0.017414106 1.079103e-38 328 227
0.01205592 0.764 0.017414106 1.1067612e-38 329 227
0.013395466 0.764 0.017414106 1.0702064e-38 330 227
0.014735013 0.764 0.017414106 1.042584e-38 331 227
0.016074561 0.764 0.017414106 1.0882148e-38 332 227
0.017459691 0.76599997 0.017459691 1.0421176e-38 333 227
0.018802745 0.76599997 0.017459691 1.0420818e-38 334 227
0.020145798 0.76599997 0.017459691 1.0328623e-38 335 227
0.021488851 0.76599997 0.017459691 9.9612815e-39 336 227
0.022831906 0.76599997 0.017459691 9.9612815e-39 337 227
0.024206521 0.76700002 0.017482487 9.9598465e-39 338 227
0.025551327 0.76700002 0.017482487 9.9598465e-39 339 227
0.026896132 0.76700002 0.017482487 9.8669433e-39 340 227
0.02824094 0.76700002 0.017482487 9.8669433e-39 341 227
0.02966289 0.76899999 0.017528072 9.6818485e-39 342 227
0.031011207 0.76899999 0.017528072 9.4052631e-39 343 227
0.032443684 0.77100003 0.01757366 9.2198012e-39 344 227
0.033883166 0.773 0.017619247 9.0350512e-39 345 227
0.03528408 0.77399999 0.01764204 9.1251015e-39 346 227
0.036641158 0.77399999 0.01764204 8.7563189e-39 347 227
0.037998237 0.77399999 0.01764204 8.8413469e-39 348 227
0.039355319 0.77399999 0.01764204 1.1238432e-38 349 227
0.040712398 0.77399999 0.01764204 1.4011533e-38 350 227
-0.032822397 0.77999997 0.016411198 1.4478625e-38 296 228
-0.031454798 0.77999997 0.016411198 1.3003136e-38 297 228
-0.03001005 0.778 0.016369121 1.1992147e-38 298 228
-0.028572321 0.77600002 0.01632704 1.0793604e-38 299 228
-0.027141599 0.77399999 0.016284959 1.1624478e-38 300 228
-0.025784519 0.77399999 0.016284959 1.4390349e-38 301 228
-0.024395877 0.773 0.016263919 1.4754541e-38 302 228
-0.023040552 0.773 0.016263919 1.3463803e-38 303 228
-0.021685226 0.773 0.016263919 1.0794449e-38 304 228
-0.020277301 0.77100003 0.016221842 1.051786e-38 305 228
-0.018925481 0.77100003 0.016221842 1.2819862e-38 306 228
-0.01757366 0.77100003 0.016221842 1.3926209e-38 307 228
-0.016179759 0.76899999 0.016179759 1.309746e-38 308 228
-0.014831445 0.76899999 0.016179759 1.1069156e-38 309 228
-0.013483133 0.76899999 0.016179759 8.5884294e-39 310 228
-0.012134819 0.76899999 0.016179759 7.94306e-39 311 228
-0.010786506 0.76899999 0.016179759 9.1354795e-39 312 228
-0.0094381925 0.76899999 0.016179759 8.7670613e-39 313 228
-0.00806884 0.76700002 0.01613768 8.8574619e-39 314 228
-0.006724033 0.76700002 0.01613768 8.7649089e-39 315 228
-0.0053792265 0.76700002 0.01613768 8.5823141e-39 316 228
-0.00403442 0.76700002 0.01613768 8.6745083e-39 317 228
-0.0026896133 0.76700002 0.01613768 8.5833903e-39 318 228
-0.0013448066 0.76700002 0.01613768 8.9518085e-39 319 228
0 0.76599997 0.016116638 9.9648786e-39 320 228
0.0013430532 0.76599997 0.016116638 1.0057074e-38 321 228
0.0026790933 0.764 0.016074561 1.0240017e-38 322 228
0.0040186401 0.764 0.016074561 1.0424046e-38 323 228
0.0053581866 0.764 0.016074561 1.0792823e-38 324 228
0.006697733 0.764 0.016074561 1.0885017e-38 325 228
0.0080372803 0.764 0.016074561 1.1253077e-38 326 228
0.0093768267 0.764 0.016074561 1.1253077e-38 327 228
0.010716373 0.764 0.016074561 1.1527866e-38 328 228
0.01205592 0.764 0.016074561 1.2081031e-38 329 228
0.013395466 0.764 0.016074561 1.198812e-38 330 228
0.014735013 0.764 0.016074561 1.1434954e-38 331 228
0.016074561 0.764 0.016074561 1.0882506e-38 332 228
0.017414106 0.764 0.016074561 1.0697759e-38 333 228
0.018753653 0.764 0.016074561 1.0238582e-38 334 228
0.020093199 0.764 0.016074561 1.0238582e-38 335 228
0.021432746 0.764 0.016074561 1.0421894e-38 336 228
0.022772292 0.764 0.016074561 1.0145311e-38 337 228
0.024111839 0.764 0.016074561 1.0511577e-38 338 228
0.025518013 0.76599997 0.016116638 1.0511577e-38 339 228
0.026861066 0.76599997 0.016116638 1.0326478e-38 340 228
0.02824094 0.76700002 0.01613768 1.0142085e-38 341 228
0.029585747 0.76700002 0.01613768 9.9566348e-39 342 228
0.031011207 0.76899999 0.016179759 9.680408e-39 343 228
0.032359518 0.76899999 0.016179759 9.4031107e-39 344 228
0.033883166 0.773 0.016263919 9.0346883e-39 345 228
0.03528408 0.77399999 0.016284959 8.8503096e-39 346 228
0.036641158 0.77399999 0.016284959 8.7581126e-39 347 228
0.037998237 0.77399999 0.016284959 8.7520212e-39 348 228
0.039355319 0.77399999 0.016284959 1.0595934e-38 349 228
0.040712398 0.77399999 0.016284959 1.3550192e-38 350 228
0.042069476 0.77399999 0.016284959 1.5763247e-38 351 228
-0.031454798 0.77999997 0.0150436 1.263543e-38 297 229
-0.03001005 0.778 0.015005025 1.1899621e-38 298 229
-0.028572321 0.77600002 0.014966453 1.1807425e-38 299 229
-0.027141599 0.77399999 0.014927879 1.2635433e-38 300 229
-0.025784519 0.77399999 0.014927879 1.3649224e-38 301 229
-0.024395877 0.773 0.014908593 1.2820237e-38 302 229
-0.023040552 0.773 0.014908593 1.2451095e-38 303 229
-0.021685226 0.773 0.014908593 1.0056529e-38 304 229
-0.020277301 0.77100003 0.01487002 1.0148726e-38 305 229
-0.018925481 0.77100003 0.01487002 1.2726593e-38 306 229
-0.01757366 0.77100003 0.01487002 1.4477951e-38 307 229
-0.016179759 0.76899999 0.014831445 1.3468041e-38 308 229
-0.014831445 0.76899999 0.014831445 1.097876e-38 309 229
-0.013483133 0.76899999 0.014831445 7.9448564e-39 310 229
-0.012134819 0.76899999 0.014831445 7.3916826e-39 311 229
-0.010786506 0.76899999 0.014831445 8.9525259e-39 312 229
-0.0094381925 0.76899999 0.014831445 8.9525259e-39 313 229
-0.00806884 0.76700002 0.014792874 8.9518085e-39 314 229
-0.006724033 0.76700002 0.014792874 8.8596143e-39 315 229
-0.0053792265 0.76700002 0.014792874 8.9518085e-39 316 229
-0.00403442 0.76700002 0.014792874 9.1358382e-39 317 229
-0.0026896133 0.76700002 0.014792874 9.4120622e-39 318 229
-0.0013430532 0.76599997 0.014773586 9.6882861e-39 319 229
0 0.76599997 0.014773586 1.0241093e-38 320 229
0.0013395466 0.764 0.014735013 1.0241093e-38 321 229
0.0026790933 0.764 0.014735013 1.0517317e-38 322 229
0.0040186401 0.764 0.014735013 1.0793899e-38 323 229
0.0053581866 0.764 0.014735013 1.1161959e-38 324 229
0.0066801999 0.76200002 0.01469644 1.162293e-38 325 229
0.0080162399 0.76200002 0.01469644 1.1990272e-38 326 229
0.0093768267 0.764 0.014735013 1.2266855e-38 327 229
0.010716373 0.764 0.014735013 1.2541644e-38 328 229
0.01205592 0.764 0.014735013 1.2541644e-38 329 229
0.013395466 0.764 0.014735013 1.2171432e-38 330 229
0.014735013 0.764 0.014735013 1.1710819e-38 331 229
0.016074561 0.764 0.014735013 1.0975418e-38 332 229
0.01736852 0.76200002 0.01469644 1.0791388e-38 333 229
0.01870456 0.76200002 0.01469644 1.0331493e-38 334 229
0.0200406 0.76200002 0.01469644 1.0331493e-38 335 229
0.02137664 0.76200002 0.01469644 1.0514088e-38 336 229
0.022772292 0.764 0.014735013 1.0421894e-38 337 229
0.024111839 0.764 0.014735013 1.0696324e-38 338 229
0.025451386 0.764 0.014735013 1.060413e-38 339 229
0.026861066 0.76599997 0.014773586 1.0510865e-38 340 229
0.028204117 0.76599997 0.014773586 1.0326834e-38 341 229
0.029585747 0.76700002 0.014792874 9.8658713e-39 342 229
0.030930554 0.76700002 0.014792874 9.5892844e-39 343 229
0.032359518 0.76899999 0.014831445 9.2201515e-39 344 229
0.033795502 0.77100003 0.01487002 9.0357603e-39 345 229
0.035238493 0.773 0.014908593 8.8506628e-39 346 229
0.036593821 0.773 0.014908593 8.7584657e-39 347 229
0.037998237 0.77399999 0.014927879 8.6609045e-39 348 229
0.039355319 0.77399999 0.014927879 1.0320067e-38 349 229
0.040712398 0.77399999 0.014927879 1.3089574e-38 350 229
-0.031454798 0.77999997 0.013675999 1.2542867e-38 297 230
-0.029932907 0.77600002 0.013605867 1.1714876e-38 298 230
-0.028498679 0.77399999 0.013570799 1.2452441e-38 299 230
-0.027141599 0.77399999 0.013570799 1.3463764e-38 300 230
-0.025751207 0.773 0.013553266 1.3740351e-38 301 230
-0.024395877 0.773 0.013553266 1.2912796e-38 302 230
-0.02298094 0.77100003 0.013518199 1.2452178e-38 303 230
-0.021629119 0.77100003 0.013518199 1.0423874e-38 304 230
-0.020277301 0.77100003 0.013518199 1.0423874e-38 305 230
-0.018925481 0.77100003 0.013518199 1.2818434e-38 306 230
-0.017528072 0.76899999 0.013483133 1.4570149e-38 307 230
-0.016179759 0.76899999 0.013483133 1.3653878e-38 308 230
-0.014792874 0.76700002 0.013448066 1.10724e-38 309 230
-0.013448066 0.76700002 0.013448066 8.0377709e-39 310 230
-0.01210326 0.76700002 0.013448066 7.5771529e-39 311 230
-0.010758453 0.76700002 0.013448066 9.2301848e-39 312 230
-0.0094136465 0.76700002 0.013448066 9.2301848e-39 313 230
-0.00806884 0.76700002 0.013448066 9.6886448e-39 314 230
-0.0067152665 0.76599997 0.013430533 9.6886448e-39 315 230
-0.0053722127 0.76599997 0.013430533 1.0148181e-38 316 230
-0.0040291594 0.76599997 0.013430533 1.0240375e-38 317 230
-0.0026861064 0.76599997 0.013430533 1.0333646e-38 318 230
-0.0013430532 0.76599997 0.013430533 1.0702423e-38 319 230
0 0.764 0.013395466 1.1161959e-38 320 230
0.0013395466 0.764 0.013395466 1.1254153e-38 321 230
0.0026790933 0.764 0.013395466 1.1897719e-38 322 230
0.0040186401 0.764 0.013395466 1.2266137e-38 323 230
0.0053441599 0.76200002 0.0133604 1.2542371e-38 324 230
0.0066801999 0.76200002 0.0133604 1.318774e-38 325 230
0.0080162399 0.76200002 0.0133604 1.3830942e-38 326 230
0.0093522798 0.76200002 0.0133604 1.3554355e-38 327 230
0.01068832 0.76200002 0.0133604 1.2909703e-38 328 230
0.01202436 0.76200002 0.0133604 1.2448732e-38 329 230
0.0133604 0.76200002 0.0133604 1.1988478e-38 330 230
0.01469644 0.76200002 0.0133604 1.180409e-38 331 230
0.01603248 0.76200002 0.0133604 1.1252359e-38 332 230
0.01736852 0.76200002 0.0133604 1.1067971e-38 333 230
0.01870456 0.76200002 0.0133604 1.0608435e-38 334 230
0.0200406 0.76200002 0.0133604 1.0516241e-38 335 230
0.02137664 0.76200002 0.0133604 1.0698835e-38 336 230
0.022772292 0.764 0.013395466 1.0606282e-38 337 230
0.024111839 0.764 0.013395466 1.0972189e-38 338 230
0.025451386 0.764 0.013395466 1.0972189e-38 339 230
0.026861066 0.76599997 0.013430533 1.0603771e-38 340 230
0.028204117 0.76599997 0.013430533 1.0511218e-38 341 230
0.029585747 0.76700002 0.013448066 1.0050609e-38 342 230
0.030930554 0.76700002 0.013448066 9.5896347e-39 343 230
0.032359518 0.76899999 0.013483133 9.1290279e-39 344 230
0.033795502 0.77100003 0.013518199 8.7602468e-39 345 230
0.035238493 0.773 0.013553266 8.575515e-39 346 230
0.036593821 0.773 0.013553266 8.575515e-39 347 230
0.037998237 0.77399999 0.013570799 8.4790286e-39 348 230
0.039355319 0.77399999 0.013570799 9.7697674e-39 349 230
0.040712398 0.77399999 0.013570799 1.2720791e-38 350 230
-0.031374145 0.778 0.012276839 1.2358473e-38 297 231
-0.029855758 0.77399999 0.01221372 1.134682e-38 298 231
-0.028498679 0.77399999 0.01221372 1.2914145e-38 299 231
-0.027141599 0.77399999 0.01221372 1.42035e-38 300 231
-0.025751207 0.773 0.012197939 1.3650326e-38 301 231
-0.024395877 0.773 0.012197939 1.2912799e-38 302 231
-0.02298094 0.77100003 0.01216638 1.2636212e-38 303 231
-0.021629119 0.77100003 0.01216638 1.1160353e-38 304 231
-0.020277301 0.77100003 0.01216638 1.0699735e-38 305 231
-0.018876385 0.76899999 0.012134819 1.3003534e-38 306 231
-0.017528072 0.76899999 0.012134819 1.4294273e-38 307 231
-0.01613768 0.76700002 0.01210326 1.3931194e-38 308 231
-0.014792874 0.76700002 0.01210326 1.190289e-38 309 231
-0.013448066 0.76700002 0.01210326 8.958651e-39 310 231
-0.01210326 0.76700002 0.01210326 8.498033e-39 311 231
-0.010744425 0.76599997 0.012087479 1.0058857e-38 312 231
-0.0094013726 0.76599997 0.012087479 1.0058857e-38 313 231
-0.0080583189 0.76599997 0.012087479 1.0333646e-38 314 231
-0.0067152665 0.76599997 0.012087479 1.0333646e-38 315 231
-0.0053722127 0.76599997 0.012087479 1.0793899e-38 316 231
-0.0040291594 0.76599997 0.012087479 1.1070482e-38 317 231
-0.0026790933 0.764 0.01205592 1.1163035e-38 318 231
-0.0013395466 0.764 0.01205592 1.1347423e-38 319 231
0 0.764 0.01205592 1.1990989e-38 320 231
0.0013395466 0.764 0.01205592 1.2267572e-38 321 231
0.00267208 0.76200002 0.01202436 1.2818944e-38 322 231
0.0040081199 0.76200002 0.01202436 1.3095529e-38 323 231
0.0053441599 0.76200002 0.01202436 1.3649072e-38 324 231
0.0066801999 0.76200002 0.01202436 1.4018213e-38 325 231
0.0080162399 0.76200002 0.01202436 1.4294075e-38 326 231
0.0093522798 0.76200002 0.01202436 1.3648706e-38 327 231
0.01068832 0.76200002 0.01202436 1.3462151e-38 328 231
0.01202436 0.76200002 0.01202436 1.2724597e-38 329 231
0.0133604 0.76200002 0.01202436 1.189736e-38 330 231
0.01469644 0.76200002 0.01202436 1.1620778e-38 331 231
0.01603248 0.76200002 0.01202436 1.1344912e-38 332 231
0.01736852 0.76200002 0.01202436 1.1252359e-38 333 231
0.01870456 0.76200002 0.01202436 1.08843e-38 334 231
0.0200406 0.76200002 0.01202436 1.0792106e-38 335 231
0.02137664 0.76200002 0.01202436 1.0974342e-38 336 231
0.022772292 0.764 0.01205592 1.0974342e-38 337 231
0.024111839 0.764 0.01205592 1.0973624e-38 338 231
0.025451386 0.764 0.01205592 1.0881071e-38 339 231
0.026861066 0.76599997 0.012087479 1.0696324e-38 340 231
0.028204117 0.76599997 0.012087479 1.0511936e-38 341 231
0.029585747 0.76700002 0.01210326 1.0050965e-38 342 231
0.030930554 0.76700002 0.01210326 9.5903522e-39 343 231
0.032359518 0.76899999 0.012134819 9.1290223e-39 344 231
0.033795502 0.77100003 0.01216638 8.7606041e-39 345 231
0.035238493 0.773 0.012197939 8.6680694e-39 346 231
0.036593821 0.773 0.012197939 8.6680694e-39 347 231
0.037998237 0.77399999 0.01221372 8.8488901e-39 348 231
0.039457016 0.77600002 0.01224528 9.8626819e-39 349 231
-0.031374145 0.778 0.010912746 1.2173357e-38 297 232
-0.029855758 0.77399999 0.01085664 1.1623426e-38 298 232
-0.028498679 0.77399999 0.01085664 1.3743926e-38 299 232
-0.027141599 0.77399999 0.01085664 1.3837979e-38 300 232
-0.025751207 0.773 0.010842613 1.3284445e-38 301 232
-0.024395877 0.773 0.010842613 1.2636938e-38 302 232
-0.02298094 0.77100003 0.01081456 1.2544742e-38 303 232
-0.021629119 0.77100003 0.01081456 1.2357461e-38 304 232
-0.020277301 0.77100003 0.01081456 1.1712092e-38 305 232
-0.018876385 0.76899999 0.010786506 1.3832937e-38 306 232
-0.017528072 0.76899999 0.010786506 1.4201721e-38 307 232
-0.01613768 0.76700002 0.010758453 1.3746096e-38 308 232
-0.014792874 0.76700002 0.010758453 1.2455357e-38 309 232
-0.013448066 0.76700002 0.010758453 9.9710149e-39 310 232
-0.01210326 0.76700002 0.010758453 9.4178411e-39 311 232
-0.010744425 0.76599997 0.010744425 1.1254512e-38 312 232
-0.0094013726 0.76599997 0.010744425 1.1346706e-38 313 232
-0.0080583189 0.76599997 0.010744425 1.1806604e-38 314 232
-0.006697733 0.764 0.010716373 1.2083191e-38 315 232
-0.0053581866 0.764 0.010716373 1.2542371e-38 316 232
-0.0040186401 0.764 0.010716373 1.2727121e-38 317 232
-0.0026790933 0.764 0.010716373 1.3003346e-38 318 232
-0.0013395466 0.764 0.010716373 1.3188096e-38 319 232
0 0.764 0.010716373 1.3372488e-38 320 232
0.0013395466 0.764 0.010716373 1.3372488e-38 321 232
0.00267208 0.76200002 0.01068832 1.3372109e-38 322 232
0.0040081199 0.76200002 0.01068832 1.3188079e-38 323 232
0.0053441599 0.76200002 0.01068832 1.3465021e-38 324 232
0.0066801999 0.76200002 0.01068832 1.3557215e-38 325 232
0.0080162399 0.76200002 0.01068832 1.3924564e-38 326 232
0.0093522798 0.76200002 0.01068832 1.3740171e-38 327 232
0.01068832 0.76200002 0.01068832 1.4197554e-38 328 232
0.01202436 0.76200002 0.01068832 1.3275969e-38 329 232
0.0133604 0.76200002 0.01068832 1.2173225e-38 330 232
0.01469644 0.76200002 0.01068832 1.1896284e-38 331 232
0.01603248 0.76200002 0.01068832 1.1437107e-38 332 232
0.01736852 0.76200002 0.01068832 1.1252359e-38 333 232
0.01870456 0.76200002 0.01068832 1.0977212e-38 334 232
0.0200406 0.76200002 0.01068832 1.0792823e-38 335 232
0.02137664 0.76200002 0.01068832 1.0791747e-38 336 232
0.02271268 0.76200002 0.01068832 1.0791747e-38 337 232
0.024111839 0.764 0.010716373 1.0974701e-38 338 232
0.025451386 0.764 0.010716373 1.0790671e-38 339 232
0.026861066 0.76599997 0.010744425 1.0513371e-38 340 232
0.028204117 0.76599997 0.010744425 1.0328982e-38 341 232
0.029585747 0.76700002 0.010758453 9.8676523e-39 342 232
0.030930554 0.76700002 0.010758453 9.4988754e-39 343 232
0.032359518 0.76899999 0.010786506 8.9457128e-39 344 232
0.033707831 0.76899999 0.010786506 8.6687686e-39 345 232
0.035238493 0.773 0.010842613 8.6680694e-39 346 232
0.036593821 0.773 0.010842613 8.8524606e-39 347 232
0.037949149 0.773 0.010842613 9.2173125e-39 348 232
0.039304473 0.773 0.010842613 1.0231825e-38 349 232
-0.031374145 0.778 0.0095486529 1.2265909e-38 297 233
-0.029855758 0.77399999 0.0094995592 1.2726552e-38 298 233
-0.028498679 0.77399999 0.0094995592 1.466266e-38 299 233
-0.027141599 0.77399999 0.0094995592 1.4571245e-38 300 233
-0.025751207 0.773 0.0094872871 1.3465256e-38 301 233
-0.024395877 0.773 0.0094872871 1.3185793e-38 302 233
-0.02298094 0.77100003 0.0094627403 1.3277988e-38 303 233
-0.021629119 0.77100003 0.0094627403 1.2726254e-38 304 233
-0.020277301 0.77100003 0.0094627403 1.1804656e-38 305 233
-0.018876385 0.76899999 0.0094381925 1.3649638e-38 306 233
-0.017528072 0.76899999 0.0094381925 1.401878e-38 307 233
-0.01613768 0.76700002 0.0094136465 1.3743588e-38 308 233
-0.014792874 0.76700002 0.0094136465 1.2729796e-38 309 233
-0.013448066 0.76700002 0.0094136465 1.0064658e-38 310 233
-0.01210326 0.76700002 0.0094136465 9.142343e-39 311 233
-0.010744425 0.76599997 0.0094013726 1.0520904e-38 312 233
-0.0094013726 0.76599997 0.0094013726 1.1074078e-38 313 233
-0.0080583189 0.76599997 0.0094013726 1.2267932e-38 314 233
-0.006697733 0.764 0.0093768267 1.2360128e-38 315 233
-0.0053581866 0.764 0.0093768267 1.254559e-38 316 233
-0.0040186401 0.764 0.0093768267 1.2914008e-38 317 233
-0.0026790933 0.764 0.0093768267 1.328135e-38 318 233
-0.0013395466 0.764 0.0093768267 1.3373544e-38 319 233
0 0.764 0.0093768267 1.3281709e-38 320 233
0.00133604 0.76200002 0.0093522798 1.3281709e-38 321 233
0.00267208 0.76200002 0.0093522798 1.3188797e-38 322 233
0.0040081199 0.76200002 0.0093522798 1.3188797e-38 323 233
0.0053441599 0.76200002 0.0093522798 1.3372109e-38 324 233
0.0066801999 0.76200002 0.0093522798 1.3372109e-38 325 233
0.0080162399 0.76200002 0.0093522798 1.3189163e-38 326 233
0.0093522798 0.76200002 0.0093522798 1.3558305e-38 327 233
0.01068832 0.76200002 0.0093522798 1.4018911e-38 328 233
0.01202436 0.76200002 0.0093522798 1.263599e-38 329 233
0.0133604 0.76200002 0.0093522798 1.2633479e-38 330 233
0.01469644 0.76200002 0.0093522798 1.2356896e-38 331 233
0.01603248 0.76200002 0.0093522798 1.1896284e-38 332 233
0.01736852 0.76200002 0.0093522798 1.180409e-38 333 233
0.01870456 0.76200002 0.0093522798 1.1343477e-38 334 233
0.0200406 0.76200002 0.0093522798 1.1343477e-38 335 233
0.02137664 0.76200002 0.0093522798 1.1067612e-38 336 233
0.02271268 0.76200002 0.0093522798 1.0975418e-38 337 233
0.024111839 0.764 0.0093768267 1.1066895e-38 338 233
0.025451386 0.764 0.0093768267 1.0882148e-38 339 233
0.026861066 0.76599997 0.0094013726 1.1156578e-38 340 233
0.028204117 0.76599997 0.0094013726 1.0695965e-38 341 233
0.029585747 0.76700002 0.0094136465 1.0418665e-38 342 233
0.030930554 0.76700002 0.0094136465 9.8654999e-39 343 233
0.032359518 0.76899999 0.0094381925 9.587841e-39 344 233
0.033707831 0.76899999 0.0094381925 9.3112584e-39 345 233
0.03514732 0.77100003 0.0094627403 9.2187222e-39 346 233
0.036593821 0.773 0.0094872871 9.3109178e-39 347 233
0.037949149 0.773 0.0094872871 9.3098641e-39 348 233
0.039304473 0.773 0.0094872871 1.0508049e-38 349 233
0.040712398 0.77399999 0.0094995592 1.2904457e-38 350 233
-0.029855758 0.77399999 0.0081424797 1.2817652e-38 298 234
-0.028498679 0.77399999 0.0081424797 1.3002044e-38 299 234
-0.027141599 0.77399999 0.0081424797 1.2448931e-38 300 234
-0.025751207 0.773 0.0081319595 1.3554918e-38 301 234
-0.024395877 0.773 0.0081319595 1.327619e-38 302 234
-0.02298094 0.77100003 0.0081109209 1.2630821e-38 303 234
-0.021629119 0.77100003 0.0081109209 1.217308e-38 304 234
-0.020277301 0.77100003 0.0081109209 1.171246e-38 305 234
-0.018876385 0.76899999 0.0080898795 1.2912801e-38 306 234
-0.017528072 0.76899999 0.0080898795 1.3926595e-38 307 234
-0.01613768 0.76700002 0.00806884 1.4020185e-38 308 234
-0.014792874 0.76700002 0.00806884 1.3097868e-38 309 234
-0.013448066 0.76700002 0.00806884 9.879192e-39 310 234
-0.012087479 0.76599997 0.0080583189 8.8650387e-39 311 234
-0.010744425 0.76599997 0.0080583189 1.0520904e-38 312 234
-0.0093768267 0.764 0.0080372803 1.0889681e-38 313 234
-0.0080372803 0.764 0.0080372803 1.1808753e-38 314 234
-0.006697733 0.764 0.0080372803 1.1993142e-38 315 234
-0.0053581866 0.764 0.0080372803 1.263599e-38 316 234
-0.0040186401 0.764 0.0080372803 1.2912573e-38 317 234
-0.00267208 0.76200002 0.0080162399 1.3096603e-38 318 234
-0.00133604 0.76200002 0.0080162399 1.3188797e-38 319 234
0 0.76200002 0.0080162399 1.3372109e-38 320 234
0.00133604 0.76200002 0.0080162399 1.3372109e-38 321 234
0.00267208 0.76200002 0.0080162399 1.3188438e-38 322 234
0.0040028598 0.76099998 0.0080057196 1.3188438e-38 323 234
0.0053371461 0.76099998 0.0080057196 1.3279556e-38 324 234
0.0066714329 0.76099998 0.0080057196 1.337175e-38 325 234
0.0080057196 0.76099998 0.0080057196 1.3373188e-38 326 234
0.0093400059 0.76099998 0.0080057196 1.3741971e-38 327 234
0.010674292 0.76099998 0.0080057196 1.3649422e-38 328 234
0.01202436 0.76200002 0.0080162399 1.2727826e-38 329 234
0.0133604 0.76200002 0.0080162399 1.2726032e-38 330 234
0.01469644 0.76200002 0.0080162399 1.2265061e-38 331 234
0.01603248 0.76200002 0.0080162399 1.1713331e-38 332 234
0.01736852 0.76200002 0.0080162399 1.1344912e-38 333 234
0.01870456 0.76200002 0.0080162399 1.1252718e-38 334 234
0.0200406 0.76200002 0.0080162399 1.0976494e-38 335 234
0.02137664 0.76200002 0.0080162399 1.0883941e-38 336 234
0.02271268 0.76200002 0.0080162399 1.0883941e-38 337 234
0.024111839 0.764 0.0080372803 1.1066895e-38 338 234
0.025451386 0.764 0.0080372803 1.1066895e-38 339 234
0.026861066 0.76599997 0.0080583189 1.0881076e-38 340 234
0.028204117 0.76599997 0.0080583189 1.0696326e-38 341 234
0.029585747 0.76700002 0.00806884 1.0142801e-38 342 234
0.030930554 0.76700002 0.00806884 9.7743819e-39 343 234
0.032359518 0.76899999 0.0080898795 9.4963657e-39 344 234
0.033707831 0.76899999 0.0080898795 9.40417e-39 345 234
0.03514732 0.77100003 0.0081109209 9.2197984e-39 346 234
0.036593821 0.773 0.0081319595 9.2197984e-39 347 234
0.037998237 0.77399999 0.0081424797 9.4006121e-39 348 234
0.039355319 0.77399999 0.0081424797 1.0783547e-38 349 234
0.040712398 0.77399999 0.0081424797 1.3088475e-38 350 234
0.042069476 0.77399999 0.0081424797 1.530117e-38 351 234
-0.029855758 0.77399999 0.0067853997 1.189964e-38 298 235
-0.028498679 0.77399999 0.0067853997 1.189964e-38 299 235
-0.027141599 0.77399999 0.0067853997 1.2447482e-38 300 235
-0.025751207 0.773 0.0067766332 1.4475786e-38 301 235
-0.024395877 0.773 0.0067766332 1.2821696e-38 302 235
-0.02298094 0.77100003 0.0067590997 1.0978142e-38 303 235
-0.021629119 0.77100003 0.0067590997 1.1254369e-38 304 235
-0.020277301 0.77100003 0.0067590997 1.1530957e-38 305 235
-0.018876385 0.76899999 0.0067415666 1.2361793e-38 306 235
-0.017528072 0.76899999 0.0067415666 1.3560336e-38 307 235
-0.01613768 0.76700002 0.006724033 1.5401687e-38 308 235
-0.014792874 0.76700002 0.006724033 1.3926915e-38 309 235
-0.013448066 0.76700002 0.006724033 1.0614958e-38 310 235
-0.012087479 0.76599997 0.0067152665 9.416416e-39 311 235
-0.010716373 0.764 0.006697733 1.0981158e-38 312 235
-0.0093768267 0.764 0.006697733 1.1349935e-38 313 235
-0.0080372803 0.764 0.006697733 1.1900948e-38 314 235
-0.006697733 0.764 0.006697733 1.2085336e-38 315 235
-0.0053581866 0.764 0.006697733 1.2453396e-38 316 235
-0.0040186401 0.764 0.006697733 1.2637784e-38 317 235
-0.00267208 0.76200002 0.0066801999 1.2913649e-38 318 235
-0.00133604 0.76200002 0.0066801999 1.2913649e-38 319 235
0 0.76200002 0.0066801999 1.3096961e-38 320 235
0.00133604 0.76200002 0.0066801999 1.3096961e-38 321 235
0.00267208 0.76200002 0.0066801999 1.3096961e-38 322 235
0.0040028598 0.76099998 0.0066714329 1.3096961e-38 323 235
0.0053371461 0.76099998 0.0066714329 1.3004408e-38 324 235
0.0066714329 0.76099998 0.0066714329 1.3096603e-38 325 235
0.0080057196 0.76099998 0.0066714329 1.3098399e-38 326 235
0.0093400059 0.76099998 0.0066714329 1.3190595e-38 327 235
0.010674292 0.76099998 0.0066714329 1.364835e-38 328 235
0.012008579 0.76099998 0.0066714329 1.2910784e-38 329 235
0.013342866 0.76099998 0.0066714329 1.244981e-38 330 235
0.014677152 0.76099998 0.0066714329 1.226542e-38 331 235
0.01603248 0.76200002 0.0066801999 1.1713331e-38 332 235
0.01736852 0.76200002 0.0066801999 1.1436748e-38 333 235
0.01870456 0.76200002 0.0066801999 1.1344195e-38 334 235
0.0200406 0.76200002 0.0066801999 1.1252001e-38 335 235
0.02137664 0.76200002 0.0066801999 1.1159806e-38 336 235
0.022772292 0.764 0.006697733 1.1159806e-38 337 235
0.024111839 0.764 0.006697733 1.115873e-38 338 235
0.025518013 0.76599997 0.0067152665 1.1066177e-38 339 235
0.026861066 0.76599997 0.0067152665 1.0972907e-38 340 235
0.028204117 0.76599997 0.0067152665 1.0788518e-38 341 235
0.029585747 0.76700002 0.006724033 1.0510501e-38 342 235
0.030930554 0.76700002 0.006724033 1.0233918e-38 343 235
0.032359518 0.76899999 0.0067415666 9.8647825e-39 344 235
0.033707831 0.76899999 0.0067415666 9.7722295e-39 345 235
0.03514732 0.77100003 0.0067590997 9.588211e-39 346 235
0.036593821 0.773 0.0067766332 9.588211e-39 347 235
0.037998237 0.77399999 0.0067853997 9.3102144e-39 348 235
0.039355319 0.77399999 0.0067853997 1.0877541e-38 349 235
0.040712398 0.77399999 0.0067853997 1.4376696e-38 350 235
0.042069476 0.77399999 0.0067853997 1.6312804e-38 351 235
-0.029855758 0.77399999 0.0054283198 1.0795816e-38 298 236
-0.028498679 0.77399999 0.0054283198 1.1994001e-38 299 236
-0.027141599 0.77399999 0.0054283198 1.4016613e-38 300 236
