# .PCD v.7 - Point Cloud Data file format
FIELDS x y z rgb imX imY
SIZE 4 4 4 4 4 4
TYPE F F F F F F
COUNT 1 1 1 1 1 1
WIDTH 834
HEIGHT 1
VIEWPOINT 0 0 0 1 0 0 0
POINTS 834
DATA ascii
-0.019637333 0.69999999 -0.033137999 9.2222927e-39 304 267
-0.018409999 0.69999999 -0.033137999 8.9460688e-39 305 267
-0.017133573 0.69800001 -0.033043321 8.6705623e-39 306 267
-0.015909746 0.69800001 -0.033043321 8.4858151e-39 307 267
-0.01468592 0.69800001 -0.033043321 8.3925447e-39 308 267
-0.013442807 0.69700003 -0.03299598 8.2081562e-39 309 267
-0.012220734 0.69700003 -0.03299598 8.0230503e-39 310 267
-0.01099866 0.69700003 -0.03299598 7.7468263e-39 311 267
-0.0097765867 0.69700003 -0.03299598 7.7450341e-39 312 267
-0.0085545136 0.69700003 -0.03299598 7.3766145e-39 313 267
-0.00733244 0.69700003 -0.03299598 7.1918673e-39 314 267
-0.0061103669 0.69700003 -0.03299598 7.0996731e-39 315 267
-0.0048953067 0.69800001 -0.033043321 7.0074788e-39 316 267
-0.0036714801 0.69800001 -0.033043321 7.0074788e-39 317 267
-0.0024476533 0.69800001 -0.033043321 7.0993143e-39 318 267
-0.0012238267 0.69800001 -0.033043321 7.0993143e-39 319 267
0 0.69800001 -0.033043321 7.1897149e-39 320 267
0.0012238267 0.69800001 -0.033043321 7.2822679e-39 321 267
0.0024476533 0.69800001 -0.033043321 6.8234491e-39 322 267
0.0036714801 0.69800001 -0.033043321 6.8234491e-39 323 267
0.0049093333 0.69999999 -0.033137999 6.7312549e-39 324 267
0.0061366665 0.69999999 -0.033137999 6.7312549e-39 325 267
0.0073745195 0.70099998 -0.03318534 6.6387019e-39 326 267
0.0086036054 0.70099998 -0.03318534 6.5465077e-39 327 267
0.0098607466 0.70300001 -0.033280019 6.4539547e-39 328 267
0.01109334 0.70300001 -0.033280019 6.4539547e-39 329 267
0.012325933 0.70300001 -0.033280019 6.4532373e-39 330 267
0.013577812 0.704 -0.03332736 6.5454315e-39 331 267
0.014812159 0.704 -0.03332736 6.7287438e-39 332 267
0.016046507 0.704 -0.03332736 6.820938e-39 333 267
0.017329946 0.70599997 -0.033422034 6.6379901e-39 334 267
0.018567799 0.70599997 -0.033422034 6.6379901e-39 335 267
0.019833706 0.70700002 -0.033469379 7.0053306e-39 336 267
0.021103119 0.708 -0.033516716 7.1893618e-39 337 267
0.022407599 0.70999998 -0.033611398 7.3737502e-39 338 267
0.023685781 0.71100003 -0.033658739 7.5585016e-39 339 267
0.025002534 0.713 -0.033753417 8.0191196e-39 340 267
0.026252659 0.713 -0.033753417 8.111674e-39 341 267
0.027425639 0.71100003 -0.033658739 9.5828552e-39 342 267
0.028672259 0.71100003 -0.033658739 1.1888105e-38 343 267
-0.042861983 0.71899998 -0.035298105 1.6129506e-38 286 268
-0.041485619 0.71700001 -0.035199918 1.3824974e-38 287 268
-0.040172372 0.71600002 -0.035150826 1.2166834e-38 288 268
-0.038916986 0.71600002 -0.035150826 1.1060487e-38 289 268
-0.037661601 0.71600002 -0.035150826 1.0420843e-38 290 268
-0.036304519 0.71399999 -0.035052639 1.0328647e-38 291 268
-0.035003547 0.713 -0.035003547 1.0419042e-38 292 268
-0.033611398 0.70999998 -0.034856264 1.0326847e-38 293 268
-0.03227536 0.708 -0.034758076 1.0052411e-38 294 268
-0.030946331 0.70599997 -0.034659892 9.8676593e-39 295 268
-0.029624319 0.704 -0.034561705 9.959492e-39 296 268
-0.028389972 0.704 -0.034561705 9.8672964e-39 297 268
-0.027117053 0.70300001 -0.034512613 9.6836254e-39 298 268
-0.025884461 0.70300001 -0.034512613 9.5914298e-39 299 268
-0.024651866 0.70300001 -0.034512613 9.5914298e-39 300 268
-0.023352645 0.70099998 -0.034414422 9.6836254e-39 301 268
-0.022091998 0.69999999 -0.034365334 9.5914326e-39 302 268
-0.020864666 0.69999999 -0.034365334 9.4070413e-39 303 268
-0.019665385 0.70099998 -0.034414422 9.3141282e-39 304 268
-0.018409999 0.69999999 -0.034365334 9.129381e-39 305 268
-0.017182667 0.69999999 -0.034365334 8.8538745e-39 306 268
-0.015955333 0.69999999 -0.034365334 8.7616803e-39 307 268
-0.01468592 0.69800001 -0.034267146 8.3929034e-39 308 268
-0.013462093 0.69800001 -0.034267146 8.2081562e-39 309 268
-0.012238266 0.69800001 -0.034267146 8.1148858e-39 310 268
-0.01099866 0.69700003 -0.034218054 7.9301386e-39 311 268
-0.0097765867 0.69700003 -0.034218054 7.8368682e-39 312 268
-0.0085545136 0.69700003 -0.034218054 7.6524797e-39 313 268
-0.00733244 0.69700003 -0.034218054 7.4677325e-39 314 268
-0.0061103669 0.69700003 -0.034218054 7.2837028e-39 315 268
-0.0048953067 0.69800001 -0.034267146 7.1918673e-39 316 268
-0.0036714801 0.69800001 -0.034267146 7.1918673e-39 317 268
-0.0024476533 0.69800001 -0.034267146 7.0993143e-39 318 268
-0.0012238267 0.69800001 -0.034267146 7.19151e-39 319 268
0 0.69800001 -0.034267146 7.2833441e-39 320 268
0.0012238267 0.69800001 -0.034267146 7.2833441e-39 321 268
0.0024546667 0.69999999 -0.034365334 7.1915086e-39 322 268
0.0036819996 0.69999999 -0.034365334 7.1915086e-39 323 268
0.0049093333 0.69999999 -0.034365334 7.0993143e-39 324 268
0.0061454331 0.70099998 -0.034414422 7.0993143e-39 325 268
0.0073745195 0.70099998 -0.034414422 6.9145671e-39 326 268
0.0086036054 0.70099998 -0.034414422 6.9145671e-39 327 268
0.0098607466 0.70300001 -0.034512613 6.6379845e-39 328 268
0.01109334 0.70300001 -0.034512613 6.6379845e-39 329 268
0.012343466 0.704 -0.034561705 6.546149e-39 330 268
0.013577812 0.704 -0.034561705 6.4539547e-39 331 268
0.014812159 0.704 -0.034561705 6.637267e-39 332 268
0.016092092 0.70599997 -0.034659892 6.637267e-39 333 268
0.017329946 0.70599997 -0.034659892 6.9127763e-39 334 268
0.018594101 0.70700002 -0.034708988 6.9127763e-39 335 268
0.01986176 0.708 -0.034758076 7.1886429e-39 336 268
0.021162732 0.70999998 -0.034856264 7.3730342e-39 337 268
0.022407599 0.70999998 -0.034856264 7.2826364e-39 338 268
0.023685781 0.71100003 -0.034905359 7.5588646e-39 339 268
0.025002534 0.713 -0.035003547 8.0191196e-39 340 268
0.026252659 0.713 -0.035003547 8.0191196e-39 341 268
0.027425639 0.71100003 -0.034905359 1.0042041e-38 342 268
0.028672259 0.71100003 -0.034905359 1.3176693e-38 343 268
-0.042861983 0.71899998 -0.036558751 1.6129156e-38 286 269
-0.041601337 0.71899998 -0.036558751 1.4654384e-38 287 269
-0.040228479 0.71700001 -0.036457058 1.317956e-38 288 269
-0.038971342 0.71700001 -0.036457058 1.1151256e-38 289 269
-0.037661601 0.71600002 -0.036406212 1.0328291e-38 290 269
-0.036406212 0.71600002 -0.036406212 1.0236096e-38 291 269
-0.035052639 0.71399999 -0.036304519 1.0419048e-38 292 269
-0.033753417 0.713 -0.036253672 1.0234298e-38 293 269
-0.032366529 0.70999998 -0.036101133 1.0051339e-38 294 269
-0.030990168 0.70700002 -0.035948593 1.0051339e-38 295 269
-0.029708479 0.70599997 -0.035897743 9.8676621e-39 296 269
-0.028470624 0.70599997 -0.035897743 9.683631e-39 297 269
-0.027155625 0.704 -0.035796054 9.5914354e-39 298 269
-0.025884461 0.70300001 -0.035745207 9.5914354e-39 299 269
-0.024651866 0.70300001 -0.035745207 9.5917983e-39 300 269
-0.023419274 0.70300001 -0.035745207 9.4996027e-39 301 269
-0.022123558 0.70099998 -0.035643511 9.5910822e-39 302 269
-0.020894472 0.70099998 -0.035643511 9.4063322e-39 303 269
-0.019665385 0.70099998 -0.035643511 9.3144897e-39 304 269
-0.018436298 0.70099998 -0.035643511 9.038263e-39 305 269
-0.017207211 0.70099998 -0.035643511 8.854592e-39 306 269
-0.015955333 0.69999999 -0.035592664 8.5780093e-39 307 269
-0.01468592 0.69800001 -0.035490975 8.3932621e-39 308 269
-0.013462093 0.69800001 -0.035490975 8.2088737e-39 309 269
-0.012238266 0.69800001 -0.035490975 8.023409e-39 310 269
-0.01101444 0.69800001 -0.035490975 7.9312148e-39 311 269
-0.0097906133 0.69800001 -0.035490975 7.6542734e-39 312 269
-0.0085667865 0.69800001 -0.035490975 7.4695262e-39 313 269
-0.0073429602 0.69800001 -0.035490975 7.4688087e-39 314 269
-0.006119133 0.69800001 -0.035490975 7.4688087e-39 315 269
-0.0048953067 0.69800001 -0.035490975 7.3762586e-39 316 269
-0.0036714801 0.69800001 -0.035490975 7.2840615e-39 317 269
-0.0024476533 0.69800001 -0.035490975 7.2840615e-39 318 269
-0.0012238267 0.69800001 -0.035490975 7.2840615e-39 319 269
0 0.69800001 -0.035490975 7.2840615e-39 320 269
0.0012273333 0.69999999 -0.035592664 7.2840615e-39 321 269
0.0024546667 0.69999999 -0.035592664 7.2837028e-39 322 269
0.0036819996 0.69999999 -0.035592664 7.2837028e-39 323 269
0.0049093333 0.69999999 -0.035592664 7.2833441e-39 324 269
0.0061454331 0.70099998 -0.035643511 7.1911498e-39 325 269
0.0073745195 0.70099998 -0.035643511 7.0985969e-39 326 269
0.0086281532 0.70300001 -0.035745207 7.0064026e-39 327 269
0.0098747732 0.704 -0.035796054 6.6383432e-39 328 269
0.011109119 0.704 -0.035796054 6.6383432e-39 329 269
0.012343466 0.704 -0.035796054 6.546149e-39 330 269
0.013577812 0.704 -0.035796054 6.6383432e-39 331 269
0.014854239 0.70599997 -0.035897743 6.8216554e-39 332 269
0.016092092 0.70599997 -0.035897743 6.8216554e-39 333 269
0.017354494 0.70700002 -0.035948593 7.0964445e-39 334 269
0.018594101 0.70700002 -0.035948593 7.0964445e-39 335 269
0.01986176 0.708 -0.03599944 7.2808385e-39 336 269
0.021162732 0.70999998 -0.036101133 7.4652298e-39 337 269
0.022407599 0.70999998 -0.036101133 7.4659515e-39 338 269
0.023685781 0.71100003 -0.036151983 7.8343753e-39 339 269
0.025002534 0.713 -0.036253672 8.2949863e-39 340 269
0.026252659 0.713 -0.036253672 8.1109551e-39 341 269
0.027657079 0.71700001 -0.036457058 1.0962921e-38 342 269
-0.041601337 0.71899998 -0.037819397 1.5207205e-38 287 270
-0.040228479 0.71700001 -0.037714198 1.3640908e-38 288 270
-0.038971342 0.71700001 -0.037714198 1.1151986e-38 289 270
-0.037661601 0.71600002 -0.037661601 1.0419411e-38 290 270
-0.036406212 0.71600002 -0.037661601 1.0511606e-38 291 270
-0.035052639 0.71399999 -0.037556399 1.0419045e-38 292 270
-0.033753417 0.713 -0.037503798 1.0234654e-38 293 270
-0.032412119 0.71100003 -0.037398599 9.9598592e-39 294 270
-0.031034 0.708 -0.0372408 9.8676621e-39 295 270
-0.029750559 0.70700002 -0.037188202 9.9591417e-39 296 270
-0.028470624 0.70599997 -0.037135597 9.8665873e-39 297 270
-0.027155625 0.704 -0.037030395 9.5910794e-39 298 270
-0.02592128 0.704 -0.037030395 9.5910794e-39 299 270
-0.024686933 0.704 -0.037030395 9.5910822e-39 300 270
-0.023419274 0.70300001 -0.036977798 9.5910822e-39 301 270
-0.02218668 0.70300001 -0.036977798 9.5907263e-39 302 270
-0.020954086 0.70300001 -0.036977798 9.4985307e-39 303 270
-0.019721493 0.70300001 -0.036977798 9.3144925e-39 304 270
-0.018436298 0.70099998 -0.036872596 9.2219368e-39 305 270
-0.017207211 0.70099998 -0.036872596 8.9464275e-39 306 270
-0.015955333 0.69999999 -0.036819998 8.5780093e-39 307 270
-0.014727999 0.69999999 -0.036819998 8.4854564e-39 308 270
-0.013500666 0.69999999 -0.036819998 8.3010679e-39 309 270
-0.012238266 0.69800001 -0.0367148 8.1152445e-39 310 270
-0.01101444 0.69800001 -0.0367148 8.0230503e-39 311 270
-0.0097906133 0.69800001 -0.0367148 7.746469e-39 312 270
-0.0085667865 0.69800001 -0.0367148 7.5617204e-39 313 270
-0.0073429602 0.69800001 -0.0367148 7.3780536e-39 314 270
-0.006119133 0.69800001 -0.0367148 7.285858e-39 315 270
-0.0048953067 0.69800001 -0.0367148 7.5606498e-39 316 270
-0.0036714801 0.69800001 -0.0367148 7.4684542e-39 317 270
-0.0024476533 0.69800001 -0.0367148 7.4684514e-39 318 270
-0.0012273333 0.69999999 -0.036819998 7.4684514e-39 319 270
0 0.69999999 -0.036819998 7.3762558e-39 320 270
0.0012273333 0.69999999 -0.036819998 7.3762558e-39 321 270
0.0024546667 0.69999999 -0.036819998 7.5599267e-39 322 270
0.0036819996 0.69999999 -0.036819998 7.5599267e-39 323 270
0.0049163462 0.70099998 -0.036872596 7.4673738e-39 324 270
0.0061629666 0.70300001 -0.036977798 7.2833441e-39 325 270
0.0073955595 0.70300001 -0.036977798 7.1907939e-39 326 270
0.0086281532 0.70300001 -0.036977798 7.1907939e-39 327 270
0.0098747732 0.704 -0.037030395 6.8227316e-39 328 270
0.011109119 0.704 -0.037030395 6.7305374e-39 329 270
0.012378532 0.70599997 -0.037135597 6.9138511e-39 330 270
0.013616386 0.70599997 -0.037135597 6.9138511e-39 331 270
0.014854239 0.70599997 -0.037135597 7.0053278e-39 332 270
0.016092092 0.70599997 -0.037135597 6.9131322e-39 333 270
0.017354494 0.70700002 -0.037188202 7.0053278e-39 334 270
0.0186204 0.708 -0.0372408 7.0053278e-39 335 270
0.01986176 0.708 -0.0372408 7.2808413e-39 336 270
0.021162732 0.70999998 -0.037345998 7.4652326e-39 337 270
0.022439159 0.71100003 -0.037398599 7.8336592e-39 338 270
0.023752406 0.713 -0.037503798 8.1102461e-39 339 270
0.025037598 0.71399999 -0.037556399 8.4790258e-39 340 270
0.026363119 0.71600002 -0.037661601 8.9400025e-39 341 270
0.027657079 0.71700001 -0.037714198 1.2160036e-38 342 270
0.028914221 0.71700001 -0.037714198 1.4926264e-38 343 270
-0.041659199 0.72000003 -0.039134402 1.5850786e-38 287 271
-0.040340692 0.71899998 -0.039080046 1.4378848e-38 288 271
-0.039080046 0.71899998 -0.039080046 1.1797371e-38 289 271
-0.037714198 0.71700001 -0.038971342 1.0786401e-38 290 271
-0.036406212 0.71600002 -0.038916986 1.0786401e-38 291 271
-0.035150826 0.71600002 -0.038916986 1.0327565e-38 292 271
-0.033800758 0.71399999 -0.038808275 1.0143534e-38 293 271
-0.032503292 0.713 -0.038753927 9.9598564e-39 294 271
-0.031121666 0.70999998 -0.038590867 9.8676593e-39 295 271
-0.02979264 0.708 -0.038482159 9.8665873e-39 296 271
-0.028510952 0.70700002 -0.038427804 9.7743917e-39 297 271
-0.027232772 0.70599997 -0.038373452 9.5910822e-39 298 271
-0.02592128 0.704 -0.038264744 9.4988866e-39 299 271
-0.024686933 0.704 -0.038264744 9.3152212e-39 300 271
-0.023419274 0.70300001 -0.038210396 9.3152212e-39 301 271
-0.02218668 0.70300001 -0.038210396 9.2226669e-39 302 271
-0.020954086 0.70300001 -0.038210396 9.2226669e-39 303 271
-0.019721493 0.70300001 -0.038210396 9.1308272e-39 304 271
-0.018488899 0.70300001 -0.038210396 9.0382714e-39 305 271
-0.017207211 0.70099998 -0.038101684 8.8538801e-39 306 271
-0.015978126 0.70099998 -0.038101684 8.669849e-39 307 271
-0.014727999 0.69999999 -0.038047329 8.4851018e-39 308 271
-0.013500666 0.69999999 -0.038047329 8.3007092e-39 309 271
-0.012273333 0.69999999 -0.038047329 8.3907538e-39 310 271
-0.011045999 0.69999999 -0.038047329 8.114527e-39 311 271
-0.0097906133 0.69800001 -0.037938625 7.9301456e-39 312 271
-0.0085667865 0.69800001 -0.037938625 7.7461131e-39 313 271
-0.0073429602 0.69800001 -0.037938625 7.6539202e-39 314 271
-0.006119133 0.69800001 -0.037938625 7.6539202e-39 315 271
-0.0048953067 0.69800001 -0.037938625 7.7450369e-39 316 271
-0.0036819996 0.69999999 -0.038047329 7.5610057e-39 317 271
-0.0024546667 0.69999999 -0.038047329 7.2862139e-39 318 271
-0.0012273333 0.69999999 -0.038047329 7.2862139e-39 319 271
0 0.69999999 -0.038047329 7.4684514e-39 320 271
0.0012273333 0.69999999 -0.038047329 7.4684514e-39 321 271
0.0024581731 0.70099998 -0.038101684 7.3762586e-39 322 271
0.0036872597 0.70099998 -0.038101684 7.3762586e-39 323 271
0.0049303733 0.70300001 -0.038210396 7.5595736e-39 324 271
0.0061629666 0.70300001 -0.038210396 7.4670179e-39 325 271
0.0073955595 0.70300001 -0.038210396 7.2826336e-39 326 271
0.0086404262 0.704 -0.038264744 7.190438e-39 327 271
0.0098747732 0.704 -0.038264744 7.0982423e-39 328 271
0.011140679 0.70599997 -0.038373452 7.0060467e-39 329 271
0.012378532 0.70599997 -0.038373452 7.0053278e-39 330 271
0.013616386 0.70599997 -0.038373452 7.0053278e-39 331 271
0.014854239 0.70599997 -0.038373452 7.1886401e-39 332 271
0.016114887 0.70700002 -0.038427804 7.1886401e-39 333 271
0.017379038 0.708 -0.038482159 7.1886401e-39 334 271
0.0186204 0.708 -0.038482159 7.1886401e-39 335 271
0.019917866 0.70999998 -0.038590867 7.1890086e-39 336 271
0.021192541 0.71100003 -0.038645219 7.4655955e-39 337 271
0.022502279 0.713 -0.038753927 7.8340277e-39 338 271
0.02378572 0.71399999 -0.038808275 8.1106146e-39 339 271
0.025107734 0.71600002 -0.038916986 8.571227e-39 340 271
0.026363119 0.71600002 -0.038916986 9.9541615e-39 341 271
0.027657079 0.71700001 -0.038971342 1.3173471e-38 342 271
0.028914221 0.71700001 -0.038971342 1.5109579e-38 343 271
0.030171359 0.71700001 -0.038971342 1.4833012e-38 344 271
-0.041659199 0.72000003 -0.040396802 1.5943341e-38 287 272
-0.040396802 0.72000003 -0.040396802 1.5022795e-38 288 272
-0.039080046 0.71899998 -0.040340692 1.3362914e-38 289 272
-0.037714198 0.71700001 -0.040228479 1.1889524e-38 290 272
-0.036457058 0.71700001 -0.040228479 1.1059764e-38 291 272
-0.035150826 0.71600002 -0.040172372 9.960941e-39 292 272
-0.033800758 0.71399999 -0.040060159 9.8687453e-39 293 272
-0.032503292 0.713 -0.040004052 9.959862e-39 294 272
-0.031165501 0.71100003 -0.039891839 9.8673062e-39 295 272
-0.029876797 0.70999998 -0.039835732 9.8673062e-39 296 272
-0.02855128 0.708 -0.039723519 9.6832751e-39 297 272
-0.027271347 0.70700002 -0.039667413 9.5907263e-39 298 272
-0.025994917 0.70599997 -0.039611302 9.4985307e-39 299 272
-0.024757065 0.70599997 -0.039611302 9.2230228e-39 300 272
-0.023452586 0.704 -0.039499093 9.2230228e-39 301 272
-0.022218239 0.704 -0.039499093 9.2230228e-39 302 272
-0.020983893 0.704 -0.039499093 9.2230228e-39 303 272
-0.019749546 0.704 -0.039499093 9.0386273e-39 304 272
-0.018488899 0.70300001 -0.039442986 8.9464317e-39 305 272
-0.017256306 0.70300001 -0.039442986 8.7627635e-39 306 272
-0.015978126 0.70099998 -0.039330769 8.5783722e-39 307 272
-0.014727999 0.69999999 -0.039274666 8.4847487e-39 308 272
-0.013500666 0.69999999 -0.039274666 8.3925531e-39 309 272
-0.012273333 0.69999999 -0.039274666 8.29964e-39 310 272
-0.011045999 0.69999999 -0.039274666 8.11489e-39 311 272
-0.0098186666 0.69999999 -0.039274666 7.746469e-39 312 272
-0.0085913334 0.69999999 -0.039274666 7.746469e-39 313 272
-0.0073639993 0.69999999 -0.039274666 7.6546363e-39 314 272
-0.0061366665 0.69999999 -0.039274666 7.5624407e-39 315 272
-0.0049093333 0.69999999 -0.039274666 7.3780536e-39 316 272
-0.0036819996 0.69999999 -0.039274666 7.3780536e-39 317 272
-0.0024546667 0.69999999 -0.039274666 7.3780536e-39 318 272
-0.0012273333 0.69999999 -0.039274666 7.285858e-39 319 272
0 0.70099998 -0.039330769 7.4691759e-39 320 272
0.0012290865 0.70099998 -0.039330769 7.3766215e-39 321 272
0.0024651866 0.70300001 -0.039442986 7.4681011e-39 322 272
0.0036977797 0.70300001 -0.039442986 7.3759054e-39 323 272
0.0049303733 0.70300001 -0.039442986 7.4670179e-39 324 272
0.0061717331 0.704 -0.039499093 7.4670179e-39 325 272
0.0074060797 0.704 -0.039499093 7.1907911e-39 326 272
0.0086404262 0.704 -0.039499093 7.2829867e-39 327 272
0.0099028256 0.70599997 -0.039611302 7.2819105e-39 328 272
0.011140679 0.70599997 -0.039611302 7.1897149e-39 329 272
0.012378532 0.70599997 -0.039611302 7.0060495e-39 330 272
0.013635674 0.70700002 -0.039667413 6.9134951e-39 331 272
0.01487528 0.70700002 -0.039667413 7.188287e-39 332 272
0.016114887 0.70700002 -0.039667413 7.2808413e-39 333 272
0.017379038 0.708 -0.039723519 7.1890058e-39 334 272
0.0186204 0.708 -0.039723519 7.2815602e-39 335 272
0.019917866 0.70999998 -0.039835732 7.3733999e-39 336 272
0.021192541 0.71100003 -0.039891839 7.5581513e-39 337 272
0.022502279 0.713 -0.040004052 8.0180504e-39 338 272
0.02378572 0.71399999 -0.040060159 7.9258548e-39 339 272
0.025107734 0.71600002 -0.040172372 8.4779594e-39 340 272
0.026363119 0.71600002 -0.040172372 1.1520055e-38 341 272
0.027657079 0.71700001 -0.040228479 1.3726657e-38 342 272
0.028914221 0.71700001 -0.040228479 1.4740811e-38 343 272
-0.041659199 0.72000003 -0.041659199 1.5482716e-38 287 273
-0.040396802 0.72000003 -0.041659199 1.5390865e-38 288 273
-0.039080046 0.71899998 -0.041601337 1.419268e-38 289 273
-0.037819397 0.71899998 -0.041601337 1.2534543e-38 290 273
-0.036457058 0.71700001 -0.041485619 1.0782828e-38 291 273
-0.035150826 0.71600002 -0.041427758 1.0326847e-38 292 273
-0.03389544 0.71600002 -0.041427758 1.0326847e-38 293 273
-0.032548878 0.71399999 -0.041312039 9.9591417e-39 294 273
-0.031165501 0.71100003 -0.041138459 9.9591417e-39 295 273
-0.029876797 0.70999998 -0.041080594 9.6832751e-39 296 273
-0.02855128 0.708 -0.040964879 9.5910794e-39 297 273
-0.027271347 0.70700002 -0.040907022 9.4985307e-39 298 273
-0.025994917 0.70599997 -0.040849157 9.4063351e-39 299 273
-0.024757065 0.70599997 -0.040849157 9.2226669e-39 300 273
-0.023452586 0.704 -0.040733438 9.2226669e-39 301 273
-0.022218239 0.704 -0.040733438 9.22302e-39 302 273
-0.020983893 0.704 -0.040733438 9.1308244e-39 303 273
-0.019749546 0.704 -0.040733438 8.8549591e-39 304 273
-0.018488899 0.70300001 -0.040675577 8.7627635e-39 305 273
-0.017256306 0.70300001 -0.040675577 8.6694959e-39 306 273
-0.016023712 0.70300001 -0.040675577 8.6694959e-39 307 273
-0.014749039 0.70099998 -0.040559858 8.6684141e-39 308 273
-0.013519952 0.70099998 -0.040559858 8.3921859e-39 309 273
-0.012273333 0.69999999 -0.040502001 8.3911097e-39 310 273
-0.011045999 0.69999999 -0.040502001 8.20708e-39 311 273
-0.0098186666 0.69999999 -0.040502001 8.0223328e-39 312 273
-0.0085913334 0.69999999 -0.040502001 7.9301386e-39 313 273
-0.0073639993 0.69999999 -0.040502001 7.6546335e-39 314 273
-0.0061366665 0.69999999 -0.040502001 7.6546335e-39 315 273
-0.0049093333 0.69999999 -0.040502001 7.3784081e-39 316 273
-0.0036819996 0.69999999 -0.040502001 7.2862139e-39 317 273
-0.0024581731 0.70099998 -0.040559858 7.4691702e-39 318 273
-0.0012290865 0.70099998 -0.040559858 7.4691702e-39 319 273
0 0.70099998 -0.040559858 7.3766215e-39 320 273
0.0012325933 0.70300001 -0.040675577 7.3766215e-39 321 273
0.0024651866 0.70300001 -0.040675577 7.2844287e-39 322 273
0.0036977797 0.70300001 -0.040675577 7.2844287e-39 323 273
0.0049373866 0.704 -0.040733438 7.2840615e-39 324 273
0.0061717331 0.704 -0.040733438 7.1915086e-39 325 273
0.0074060797 0.704 -0.040733438 7.2829867e-39 326 273
0.0086649731 0.70599997 -0.040849157 7.0985969e-39 327 273
0.0099028256 0.70599997 -0.040849157 7.3733873e-39 328 273
0.011140679 0.70599997 -0.040849157 7.2811917e-39 329 273
0.012396066 0.70700002 -0.040907022 7.0060495e-39 330 273
0.013635674 0.70700002 -0.040907022 7.0060495e-39 331 273
0.01487528 0.70700002 -0.040907022 7.2815602e-39 332 273
0.016114887 0.70700002 -0.040907022 7.2815602e-39 333 273
0.017379038 0.708 -0.040964879 7.1904408e-39 334 273
0.018672999 0.70999998 -0.041080594 7.1904408e-39 335 273
0.01994592 0.71100003 -0.041138459 7.4655955e-39 336 273
0.021252153 0.713 -0.041254178 7.6503469e-39 337 273
0.022533838 0.71399999 -0.041312039 7.7432586e-39 338 273
0.023852346 0.71600002 -0.041427758 7.7432586e-39 339 273
0.0251428 0.71700001 -0.041485619 9.3048446e-39 340 273
0.02639994 0.71700001 -0.041485619 1.2716083e-38 341 273
0.027618507 0.71600002 -0.041427758 1.3636634e-38 342 273
0.028873893 0.71600002 -0.041427758 1.3913219e-38 343 273
-0.040396802 0.72000003 -0.042921603 1.5114653e-38 288 274
-0.039134402 0.72000003 -0.042921603 1.4653677e-38 289 274
-0.037819397 0.71899998 -0.042861983 1.3088457e-38 290 274
-0.036457058 0.71700001 -0.042742759 1.1244544e-38 291 274
-0.035150826 0.71600002 -0.042683143 1.0326496e-38 292 274
-0.03389544 0.71600002 -0.042683143 1.0326496e-38 293 274
-0.032548878 0.71399999 -0.042563915 1.0051704e-38 294 274
-0.031253166 0.713 -0.042504307 9.8673118e-39 295 274
-0.029876797 0.70999998 -0.042325463 9.6829247e-39 296 274
-0.02855128 0.708 -0.042206239 9.5907291e-39 297 274
-0.027309919 0.708 -0.042206239 9.4985307e-39 298 274
-0.02603174 0.70700002 -0.042146627 9.4063351e-39 299 274
-0.024757065 0.70599997 -0.042087011 9.3144925e-39 300 274
-0.023519212 0.70599997 -0.042087011 9.3144925e-39 301 274
-0.022218239 0.704 -0.041967787 9.1308216e-39 302 274
-0.020983893 0.704 -0.041967787 9.0386245e-39 303 274
-0.019805651 0.70599997 -0.042087011 8.8549591e-39 304 274
-0.018515198 0.704 -0.041967787 8.6705679e-39 305 274
-0.017280852 0.704 -0.041967787 8.7606125e-39 306 274
-0.016046507 0.704 -0.041967787 8.7606125e-39 307 274
-0.014791119 0.70300001 -0.041908171 8.4854578e-39 308 274
-0.013558527 0.70300001 -0.041908171 8.3007092e-39 309 274
-0.012290866 0.70099998 -0.041788943 8.3003504e-39 310 274
-0.011061779 0.70099998 -0.041788943 8.115962e-39 311 274
-0.0098326923 0.70099998 -0.041788943 7.7475438e-39 312 274
-0.0086036054 0.70099998 -0.041788943 7.6553496e-39 313 274
-0.0073745195 0.70099998 -0.041788943 7.7464676e-39 314 274
-0.0061454331 0.70099998 -0.041788943 7.6542734e-39 315 274
-0.0049163462 0.70099998 -0.041788943 7.3784081e-39 316 274
-0.0036872597 0.70099998 -0.041788943 7.2862139e-39 317 274
-0.0024581731 0.70099998 -0.041788943 7.3773319e-39 318 274
-0.0012290865 0.70099998 -0.041788943 7.3773319e-39 319 274
0 0.70099998 -0.041788943 7.3769774e-39 320 274
0.0012325933 0.70300001 -0.041908171 7.2847818e-39 321 274
0.0024686933 0.704 -0.041967787 7.2847818e-39 322 274
0.0037030398 0.704 -0.041967787 7.1003905e-39 323 274
0.0049373866 0.704 -0.041967787 7.4670179e-39 324 274
0.0061892662 0.70599997 -0.042087011 7.2829867e-39 325 274
0.0074271196 0.70599997 -0.042087011 7.3741034e-39 326 274
0.0086649731 0.70599997 -0.042087011 7.3741034e-39 327 274
0.0099168532 0.70700002 -0.042146627 7.2811917e-39 328 274
0.011156459 0.70700002 -0.042146627 7.2811917e-39 329 274
0.012396066 0.70700002 -0.042146627 7.189359e-39 330 274
0.013654959 0.708 -0.042206239 7.2815546e-39 331 274
0.01489632 0.708 -0.042206239 7.0056964e-39 332 274
0.01613768 0.708 -0.042206239 7.097892e-39 333 274
0.017428132 0.70999998 -0.042325463 7.2812071e-39 334 274
0.0186993 0.71100003 -0.042385083 7.3734027e-39 335 274
0.020002026 0.713 -0.042504307 7.5577982e-39 336 274
0.021281958 0.71399999 -0.042563915 7.8340249e-39 337 274
0.022533838 0.71399999 -0.042563915 8.1109649e-39 338 274
0.023852346 0.71600002 -0.042683143 8.7563344e-39 339 274
0.0251428 0.71700001 -0.042742759 1.0595953e-38 340 274
0.02639994 0.71700001 -0.042742759 1.299304e-38 341 274
0.027618507 0.71600002 -0.042683143 1.326893e-38 342 274
-0.037714198 0.71700001 -0.043999899 1.4009713e-38 290 275
-0.036457058 0.71700001 -0.043999899 1.2534583e-38 291 275
-0.035150826 0.71600002 -0.043938532 1.0969363e-38 292 275
-0.03389544 0.71600002 -0.043938532 1.0693136e-38 293 275
-0.032548878 0.71399999 -0.043815799 1.0143181e-38 294 275
-0.031253166 0.713 -0.043754432 9.9587886e-39 295 275
-0.029918881 0.71100003 -0.043631699 9.8665929e-39 296 275
-0.028631933 0.70999998 -0.043570329 9.7743973e-39 297 275
-0.027309919 0.708 -0.043447599 9.4063322e-39 298 275
-0.026068559 0.708 -0.043447599 9.3141366e-39 299 275
-0.024792133 0.70700002 -0.043386232 9.3144897e-39 300 275
-0.023519212 0.70599997 -0.043324865 9.2222927e-39 301 275
-0.022281358 0.70599997 -0.043324865 9.3144869e-39 302 275
-0.021043506 0.70599997 -0.043324865 9.2222927e-39 303 275
-0.019805651 0.70599997 -0.043324865 8.8542333e-39 304 275
-0.018515198 0.704 -0.043202132 8.8542333e-39 305 275
-0.017280852 0.704 -0.043202132 8.6698462e-39 306 275
-0.016046507 0.704 -0.043202132 8.5776506e-39 307 275
-0.014791119 0.70300001 -0.043140765 8.6691273e-39 308 275
-0.013558527 0.70300001 -0.043140765 8.3925447e-39 309 275
-0.012325933 0.70300001 -0.043140765 8.3918272e-39 310 275
-0.01109334 0.70300001 -0.043140765 8.2074387e-39 311 275
-0.0098607466 0.70300001 -0.043140765 8.0230503e-39 312 275
-0.0086036054 0.70099998 -0.043018032 7.9308561e-39 313 275
-0.0073745195 0.70099998 -0.043018032 7.7464676e-39 314 275
-0.0061454331 0.70099998 -0.043018032 7.7464676e-39 315 275
-0.0049303733 0.70300001 -0.043140765 7.8375856e-39 316 275
-0.0036977797 0.70300001 -0.043140765 7.5613617e-39 317 275
-0.0024651866 0.70300001 -0.043140765 7.3773319e-39 318 275
-0.0012325933 0.70300001 -0.043140765 7.3773319e-39 319 275
0 0.70300001 -0.043140765 7.3769746e-39 320 275
0.0012325933 0.70300001 -0.043140765 7.3769746e-39 321 275
0.0024686933 0.704 -0.043202132 7.3762558e-39 322 275
0.0037030398 0.704 -0.043202132 7.2840615e-39 323 275
0.0049514128 0.70599997 -0.043324865 7.4673738e-39 324 275
0.0061892662 0.70599997 -0.043324865 7.1911498e-39 325 275
0.0074271196 0.70599997 -0.043324865 7.1911498e-39 326 275
0.008677247 0.70700002 -0.043386232 7.0989556e-39 327 275
0.0099168532 0.70700002 -0.043386232 7.0985969e-39 328 275
0.011156459 0.70700002 -0.043386232 7.0064026e-39 329 275
0.0124136 0.708 -0.043447599 7.0067628e-39 330 275
0.013654959 0.708 -0.043447599 7.0067628e-39 331 275
0.01489632 0.708 -0.043447599 7.0978892e-39 332 275
0.016183265 0.70999998 -0.043570329 7.1904436e-39 333 275
0.017428132 0.70999998 -0.043570329 7.3734027e-39 334 275
0.0186993 0.71100003 -0.043631699 7.4655983e-39 335 275
0.020030079 0.71399999 -0.043815799 7.558517e-39 336 275
0.021341572 0.71600002 -0.043938532 7.8351039e-39 337 275
0.022596961 0.71600002 -0.043938532 8.3864826e-39 338 275
0.02388566 0.71700001 -0.043999899 9.7694171e-39 339 275
0.025212931 0.71899998 -0.044122629 1.1424285e-38 340 275
0.02647358 0.71899998 -0.044122629 1.2715024e-38 341 275
-0.036558751 0.71899998 -0.045383278 1.354911e-38 291 276
-0.035150826 0.71600002 -0.045193922 1.1888821e-38 292 276
-0.03389544 0.71600002 -0.045193922 1.1151256e-38 293 276
-0.032548878 0.71399999 -0.045067675 1.0511243e-38 294 276
-0.031253166 0.713 -0.045004558 1.0234298e-38 295 276
-0.029918881 0.71100003 -0.044878319 9.9587858e-39 296 276
-0.028631933 0.70999998 -0.044815198 9.7743945e-39 297 276
-0.027309919 0.708 -0.044688959 9.4988838e-39 298 276
-0.026068559 0.708 -0.044688959 9.3144925e-39 299 276
-0.024792133 0.70700002 -0.044625837 9.2226514e-39 300 276
-0.023552528 0.70700002 -0.044625837 9.2226514e-39 301 276
-0.022281358 0.70599997 -0.044562716 9.2226514e-39 302 276
-0.021043506 0.70599997 -0.044562716 9.2226514e-39 303 276
-0.019833706 0.70700002 -0.044625837 8.9460688e-39 304 276
-0.018567799 0.70599997 -0.044562716 8.8538745e-39 305 276
-0.017329946 0.70599997 -0.044562716 8.8535158e-39 306 276
-0.016046507 0.704 -0.044436477 8.7613216e-39 307 276
-0.014812159 0.704 -0.044436477 8.5765744e-39 308 276
-0.013577812 0.704 -0.044436477 8.3925447e-39 309 276
-0.012343466 0.704 -0.044436477 8.3911097e-39 310 276
-0.011109119 0.704 -0.044436477 8.20708e-39 311 276
-0.0098607466 0.70300001 -0.04437336 8.1152459e-39 312 276
-0.0086281532 0.70300001 -0.04437336 8.0230503e-39 313 276
-0.0073955595 0.70300001 -0.04437336 7.9308561e-39 314 276
-0.0061629666 0.70300001 -0.04437336 7.9308561e-39 315 276
-0.0049303733 0.70300001 -0.04437336 7.7464676e-39 316 276
-0.0036977797 0.70300001 -0.04437336 7.5620791e-39 317 276
-0.0024651866 0.70300001 -0.04437336 7.3773319e-39 318 276
-0.0012325933 0.70300001 -0.04437336 7.2851377e-39 319 276
0 0.70300001 -0.04437336 7.3766145e-39 320 276
0.0012343467 0.704 -0.044436477 7.3766145e-39 321 276
0.0024686933 0.704 -0.044436477 7.4677325e-39 322 276
0.0037135598 0.70599997 -0.044562716 7.4677325e-39 323 276
0.0049514128 0.70599997 -0.044562716 7.1918673e-39 324 276
0.0061980332 0.70700002 -0.044625837 7.1918673e-39 325 276
0.0074376399 0.70700002 -0.044625837 7.1911498e-39 326 276
0.008677247 0.70700002 -0.044625837 7.0989556e-39 327 276
0.0099168532 0.70700002 -0.044625837 7.0064026e-39 328 276
0.011156459 0.70700002 -0.044625837 7.0064026e-39 329 276
0.0124136 0.708 -0.044688959 6.8230904e-39 330 276
0.013693533 0.70999998 -0.044815198 7.0071201e-39 331 276
0.014938398 0.70999998 -0.044815198 7.098964e-39 332 276
0.016183265 0.70999998 -0.044815198 7.098964e-39 333 276
0.01745268 0.71100003 -0.044878319 7.2822861e-39 334 276
0.018751899 0.713 -0.045004558 7.4663186e-39 335 276
0.020086186 0.71600002 -0.045193922 7.8343809e-39 336 276
0.021371379 0.71700001 -0.045257039 8.1109677e-39 337 276
0.02262852 0.71700001 -0.045257039 9.028978e-39 338 276
0.023952285 0.71899998 -0.045383278 1.0780695e-38 339 276
0.025248 0.72000003 -0.045446403 1.1609405e-38 340 276
-0.036558751 0.71899998 -0.046643924 1.4561835e-38 291 277
-0.035199918 0.71700001 -0.046514176 1.3086307e-38 292 277
-0.03389544 0.71600002 -0.046449307 1.1887766e-38 293 277
-0.032548878 0.71399999 -0.046319555 1.0509458e-38 294 277
-0.031253166 0.713 -0.046254687 1.0325427e-38 295 277
-0.029918881 0.71100003 -0.046124939 9.7761966e-39 296 277
-0.028631933 0.70999998 -0.046060063 9.5914452e-39 297 277
-0.027387066 0.70999998 -0.046060063 9.4988866e-39 298 277
-0.026068559 0.708 -0.045930319 9.4063322e-39 299 277
-0.024827199 0.708 -0.045930319 9.2222927e-39 300 277
-0.023552528 0.70700002 -0.045865446 9.2222927e-39 301 277
-0.022312919 0.70700002 -0.045865446 9.038263e-39 302 277
-0.021073313 0.70700002 -0.045865446 9.038263e-39 303 277
-0.019833706 0.70700002 -0.045865446 8.9460688e-39 304 277
-0.018594101 0.70700002 -0.045865446 8.7616803e-39 305 277
-0.017329946 0.70599997 -0.04580057 8.7613216e-39 306 277
-0.016092092 0.70599997 -0.04580057 8.6691273e-39 307 277
-0.014854239 0.70599997 -0.04580057 8.5758569e-39 308 277
-0.013616386 0.70599997 -0.04580057 8.4836627e-39 309 277
-0.012343466 0.704 -0.045670826 8.2077975e-39 310 277
-0.011109119 0.704 -0.045670826 8.1156032e-39 311 277
-0.0098747732 0.704 -0.045670826 8.1152445e-39 312 277
-0.0086404262 0.704 -0.045670826 8.0230503e-39 313 277
-0.0074060797 0.704 -0.045670826 7.9308561e-39 314 277
-0.0061717331 0.704 -0.045670826 7.7464676e-39 315 277
-0.0049373866 0.704 -0.045670826 7.7464676e-39 316 277
-0.0037030398 0.704 -0.045670826 7.5620791e-39 317 277
-0.0024686933 0.704 -0.045670826 7.4695262e-39 318 277
-0.0012343467 0.704 -0.045670826 7.3773319e-39 319 277
0 0.704 -0.045670826 7.5613617e-39 320 277
0.0012378532 0.70599997 -0.04580057 7.4691674e-39 321 277
0.0024757064 0.70599997 -0.04580057 7.3766145e-39 322 277
0.0037188199 0.70700002 -0.045865446 7.2844203e-39 323 277
0.0049584266 0.70700002 -0.045865446 7.1911498e-39 324 277
0.0061980332 0.70700002 -0.045865446 7.1911498e-39 325 277
0.0074376399 0.70700002 -0.045865446 7.1907911e-39 326 277
0.008689519 0.708 -0.045930319 7.0985969e-39 327 277
0.0099308798 0.708 -0.045930319 6.7312549e-39 328 277
0.01117224 0.708 -0.045930319 6.7312549e-39 329 277
0.012448666 0.70999998 -0.046060063 7.0067656e-39 330 277
0.013693533 0.70999998 -0.046060063 7.0067656e-39 331 277
0.014959441 0.71100003 -0.046124939 7.1900876e-39 332 277
0.01620606 0.71100003 -0.046124939 7.1900876e-39 333 277
0.017501773 0.713 -0.046254687 7.4656011e-39 334 277
0.0188308 0.71600002 -0.046449307 7.6499938e-39 335 277
0.020114239 0.71700001 -0.046514176 7.9262206e-39 336 277
0.021430992 0.71899998 -0.046643924 8.57159e-39 337 277
0.022691639 0.71899998 -0.046643924 9.7669144e-39 338 277
0.023952285 0.71899998 -0.046643924 1.1057653e-38 339 277
-0.035199918 0.71700001 -0.04777132 1.3456914e-38 292 278
-0.03389544 0.71600002 -0.047704693 1.2442402e-38 293 278
-0.032640055 0.71600002 -0.047704693 1.0509481e-38 294 278
-0.031253166 0.713 -0.047504812 1.0325089e-38 295 278
-0.029876797 0.70999998 -0.047304932 1.0051707e-38 296 278
-0.028631933 0.70999998 -0.047304932 9.6829247e-39 297 278
-0.027387066 0.70999998 -0.047304932 9.4988866e-39 298 278
-0.026142199 0.70999998 -0.047304932 9.4063322e-39 299 278
-0.024897331 0.70999998 -0.047304932 9.3137695e-39 300 278
-0.023585839 0.708 -0.047171678 9.3137695e-39 301 278
-0.022344479 0.708 -0.047171678 9.2226514e-39 302 278
-0.021103119 0.708 -0.047171678 8.9460688e-39 303 278
-0.019917866 0.70999998 -0.047304932 8.8538745e-39 304 278
-0.0186204 0.708 -0.047171678 8.7616803e-39 305 278
-0.017354494 0.70700002 -0.047105055 8.6691273e-39 306 278
-0.016114887 0.70700002 -0.047105055 8.6691273e-39 307 278
-0.014854239 0.70599997 -0.047038425 8.5762157e-39 308 278
-0.013616386 0.70599997 -0.047038425 8.4840214e-39 309 278
-0.012378532 0.70599997 -0.047038425 8.4836627e-39 310 278
-0.011140679 0.70599997 -0.047038425 8.3914685e-39 311 278
-0.0099028256 0.70599997 -0.047038425 8.1152459e-39 312 278
-0.0086649731 0.70599997 -0.047038425 7.9308561e-39 313 278
-0.0074271196 0.70599997 -0.047038425 8.0226943e-39 314 278
-0.0061892662 0.70599997 -0.047038425 7.9304987e-39 315 278
-0.0049514128 0.70599997 -0.047038425 7.6542734e-39 316 278
-0.0037135598 0.70599997 -0.047038425 7.5620791e-39 317 278
-0.0024757064 0.70599997 -0.047038425 7.4698849e-39 318 278
-0.0012378532 0.70599997 -0.047038425 7.4698849e-39 319 278
0 0.70599997 -0.047038425 7.4691674e-39 320 278
0.0012396066 0.70700002 -0.047105055 7.4691674e-39 321 278
0.0024792133 0.70700002 -0.047105055 7.3766145e-39 322 278
0.0037188199 0.70700002 -0.047105055 7.2844203e-39 323 278
0.0049584266 0.70700002 -0.047105055 7.1911498e-39 324 278
0.0062067998 0.708 -0.047171678 7.1911498e-39 325 278
0.0074481601 0.708 -0.047171678 7.1907911e-39 326 278
0.008689519 0.708 -0.047171678 7.0985969e-39 327 278
0.0099589331 0.70999998 -0.047304932 6.8234533e-39 328 278
0.011203799 0.70999998 -0.047304932 6.7312577e-39 329 278
0.012448666 0.70999998 -0.047304932 6.823103e-39 330 278
0.01371282 0.71100003 -0.047371563 6.823103e-39 331 278
0.014959441 0.71100003 -0.047371563 7.0986137e-39 332 278
0.016251646 0.713 -0.047504812 7.0986137e-39 333 278
0.017526319 0.71399999 -0.047571439 7.4659655e-39 334 278
0.0188308 0.71600002 -0.047704693 7.6507155e-39 335 278
0.020114239 0.71700001 -0.04777132 7.926952e-39 336 278
0.021430992 0.71899998 -0.04790457 9.0332996e-39 337 278
0.022691639 0.71899998 -0.04790457 1.0688519e-38 338 278
-0.029876797 0.70999998 -0.048549797 9.8666097e-39 296 279
-0.028631933 0.70999998 -0.048549797 9.8666097e-39 297 279
-0.027425639 0.71100003 -0.048618179 9.4988964e-39 298 279
-0.026142199 0.70999998 -0.048549797 9.2226697e-39 299 279
-0.024897331 0.70999998 -0.048549797 9.1308272e-39 300 279
-0.023652466 0.70999998 -0.048549797 9.1308272e-39 301 279
-0.022407599 0.70999998 -0.048549797 8.9464289e-39 302 279
-0.021162732 0.70999998 -0.048549797 8.8542333e-39 303 279
-0.01994592 0.71100003 -0.048618179 8.6702035e-39 304 279
-0.018672999 0.70999998 -0.048549797 8.5780093e-39 305 279
-0.017379038 0.708 -0.048413038 8.7609628e-39 306 279
-0.01613768 0.708 -0.048413038 8.6687686e-39 307 279
-0.01487528 0.70700002 -0.048344657 8.5765744e-39 308 279
-0.013635674 0.70700002 -0.048344657 8.3925447e-39 309 279
-0.012396066 0.70700002 -0.048344657 8.2077975e-39 310 279
-0.011140679 0.70599997 -0.048276275 8.1156032e-39 311 279
-0.0099028256 0.70599997 -0.048276275 7.8393821e-39 312 279
-0.0086649731 0.70599997 -0.048276275 7.7471865e-39 313 279
-0.0074271196 0.70599997 -0.048276275 7.9304987e-39 314 279
-0.0061980332 0.70700002 -0.048344657 7.9304987e-39 315 279
-0.0049514128 0.70599997 -0.048276275 7.6553496e-39 316 279
-0.0037135598 0.70599997 -0.048276275 7.3791256e-39 317 279
-0.0024792133 0.70700002 -0.048344657 7.5620791e-39 318 279
-0.0012396066 0.70700002 -0.048344657 7.5620791e-39 319 279
0 0.70700002 -0.048344657 7.3784081e-39 320 279
0.00124136 0.708 -0.048413038 7.1018255e-39 321 279
0.00248272 0.708 -0.048413038 7.4677325e-39 322 279
0.00372408 0.708 -0.048413038 7.2837028e-39 323 279
0.0049654399 0.708 -0.048413038 7.3748208e-39 324 279
0.0062067998 0.708 -0.048413038 7.3748208e-39 325 279
0.0074691991 0.70999998 -0.048549797 7.0993143e-39 326 279
0.0087140659 0.70999998 -0.048549797 6.8230904e-39 327 279
0.0099589331 0.70999998 -0.048549797 6.8223785e-39 328 279
0.011203799 0.70999998 -0.048549797 6.8223785e-39 329 279
0.0124662 0.71100003 -0.048618179 6.8223841e-39 330 279
0.013751393 0.713 -0.048754938 7.0064153e-39 331 279
0.015022559 0.71399999 -0.048823316 7.0986137e-39 332 279
0.016274439 0.71399999 -0.048823316 7.0986137e-39 333 279
0.017526319 0.71399999 -0.048823316 7.3752048e-39 334 279
0.0188308 0.71600002 -0.048960082 7.559596e-39 335 279
0.020114239 0.71700001 -0.04902846 8.477972e-39 336 279
0.021430992 0.71899998 -0.049165215 9.7687108e-39 337 279
-0.029708479 0.70599997 -0.04951413 9.9584551e-39 296 280
-0.028470624 0.70599997 -0.04951413 9.6818682e-39 297 280
-0.027425639 0.71100003 -0.049864799 9.8655237e-39 298 280
-0.026179021 0.71100003 -0.049864799 9.6807738e-39 299 280
-0.024932399 0.71100003 -0.049864799 9.405619e-39 300 280
-0.023685781 0.71100003 -0.049864799 9.405619e-39 301 280
-0.022439159 0.71100003 -0.049864799 9.0379057e-39 302 280
-0.021192541 0.71100003 -0.049864799 8.94571e-39 303 280
-0.01994592 0.71100003 -0.049864799 8.6702035e-39 304 280
-0.0186993 0.71100003 -0.049864799 8.6702035e-39 305 280
-0.017428132 0.70999998 -0.049794663 8.6691273e-39 306 280
-0.016183265 0.70999998 -0.049794663 8.6691273e-39 307 280
-0.01489632 0.708 -0.049654398 8.3925447e-39 308 280
-0.013654959 0.708 -0.049654398 8.2999917e-39 309 280
-0.012396066 0.70700002 -0.049584266 8.2067213e-39 310 280
-0.011156459 0.70700002 -0.049584266 8.114527e-39 311 280
-0.0099168532 0.70700002 -0.049584266 8.0230503e-39 312 280
-0.008677247 0.70700002 -0.049584266 7.9308561e-39 313 280
-0.0074376399 0.70700002 -0.049584266 7.7475438e-39 314 280
-0.0062067998 0.708 -0.049654398 7.6553496e-39 315 280
-0.0049584266 0.70700002 -0.049584266 7.5631553e-39 316 280
-0.0037188199 0.70700002 -0.049584266 7.3791256e-39 317 280
-0.00248272 0.708 -0.049654398 7.2865726e-39 318 280
-0.00124136 0.708 -0.049654398 7.2865726e-39 319 280
0 0.70999998 -0.049794663 7.3773319e-39 320 280
0.0012448666 0.70999998 -0.049794663 7.284779e-39 321 280
0.0024897333 0.70999998 -0.049794663 7.2837028e-39 322 280
0.0037345996 0.70999998 -0.049794663 7.2837028e-39 323 280
0.0049794666 0.70999998 -0.049794663 7.4659389e-39 324 280
0.0062243328 0.70999998 -0.049794663 7.3737446e-39 325 280
0.0074691991 0.70999998 -0.049794663 7.0985983e-39 326 280
0.0087263398 0.71100003 -0.049864799 7.0060439e-39 327 280
0.0099729598 0.71100003 -0.049864799 6.7309046e-39 328 280
0.01121958 0.71100003 -0.049864799 6.7309046e-39 329 280
0.012518799 0.71399999 -0.050075196 7.0060593e-39 330 280
0.013809253 0.71600002 -0.050215468 7.0060593e-39 331 280
0.01506464 0.71600002 -0.050215468 6.8227499e-39 332 280
0.016320027 0.71600002 -0.050215468 6.9149455e-39 333 280
0.017575413 0.71600002 -0.050215468 7.3744957e-39 334 280
0.018857099 0.71700001 -0.0502856 7.8354725e-39 335 280
0.020170346 0.71899998 -0.050425861 8.8471301e-39 336 280
-0.029371841 0.69800001 -0.050176892 1.0696412e-38 296 281
-0.028148014 0.69800001 -0.050176892 9.4056736e-39 297 281
-0.027425639 0.71100003 -0.051111419 9.6807892e-39 298 281
-0.026252659 0.713 -0.051255193 9.6807892e-39 299 281
-0.025002534 0.713 -0.051255193 9.4049127e-39 300 281
-0.023752406 0.713 -0.051255193 9.3127171e-39 301 281
-0.022502279 0.713 -0.051255193 9.0379113e-39 302 281
-0.021252153 0.713 -0.051255193 8.8531613e-39 303 281
-0.020002026 0.713 -0.051255193 8.7613216e-39 304 281
-0.0186993 0.71100003 -0.051111419 8.6691273e-39 305 281
-0.01745268 0.71100003 -0.051111419 8.6687686e-39 306 281
-0.016183265 0.70999998 -0.051039528 8.5765744e-39 307 281
-0.014938398 0.70999998 -0.051039528 8.3007092e-39 308 281
-0.013693533 0.70999998 -0.051039528 8.2085149e-39 309 281
-0.0124136 0.708 -0.050895758 8.1152459e-39 310 281
-0.01117224 0.708 -0.050895758 8.1152459e-39 311 281
-0.0099308798 0.708 -0.050895758 7.7471865e-39 312 281
-0.008689519 0.708 -0.050895758 7.7471865e-39 313 281
-0.0074481601 0.708 -0.050895758 7.6549908e-39 314 281
-0.0062067998 0.708 -0.050895758 7.6549908e-39 315 281
-0.0049654399 0.708 -0.050895758 7.6546321e-39 316 281
-0.00372408 0.708 -0.050895758 7.4698849e-39 317 281
-0.00248272 0.708 -0.050895758 7.3773319e-39 318 281
-0.0012448666 0.70999998 -0.051039528 7.3773319e-39 319 281
0 0.70999998 -0.051039528 7.3762558e-39 320 281
0.0012448666 0.70999998 -0.051039528 7.1918673e-39 321 281
0.0024932399 0.71100003 -0.051111419 7.4677325e-39 322 281
0.0037345996 0.70999998 -0.051039528 7.2833441e-39 323 281
0.0049794666 0.70999998 -0.051039528 7.0989556e-39 324 281
0.0062243328 0.70999998 -0.051039528 7.1911498e-39 325 281
0.0074797203 0.71100003 -0.051111419 6.8227316e-39 326 281
0.0087263398 0.71100003 -0.051111419 6.7305374e-39 327 281
0.010001013 0.713 -0.051255193 6.6387089e-39 328 281
0.011251139 0.713 -0.051255193 6.6387089e-39 329 281
0.012553867 0.71600002 -0.051470853 6.8223841e-39 330 281
0.013828539 0.71700001 -0.051542737 7.0064153e-39 331 281
0.01506464 0.71600002 -0.051470853 7.0060621e-39 332 281
0.016320027 0.71600002 -0.051470853 7.1904534e-39 333 281
0.017575413 0.71600002 -0.051470853 7.466697e-39 334 281
0.018857099 0.71700001 -0.051542737 8.1120664e-39 335 281
-0.028148014 0.69800001 -0.051400717 1.0602807e-38 297 282
-0.026252659 0.713 -0.052505318 9.3134612e-39 299 282
-0.025002534 0.713 -0.052505318 9.4045596e-39 300 282
-0.023752406 0.713 -0.052505318 9.2201669e-39 301 282
-0.022502279 0.713 -0.052505318 8.9450066e-39 302 282
-0.021252153 0.713 -0.052505318 8.8528109e-39 303 282
-0.020002026 0.713 -0.052505318 8.66877e-39 304 282
-0.0186993 0.71100003 -0.052358042 8.66877e-39 305 282
-0.01745268 0.71100003 -0.052358042 8.3932621e-39 306 282
-0.01620606 0.71100003 -0.052358042 8.3932621e-39 307 282
-0.014938398 0.70999998 -0.052284397 8.0252027e-39 308 282
-0.013693533 0.70999998 -0.052284397 7.9330084e-39 309 282
-0.012448666 0.70999998 -0.052284397 8.1156032e-39 310 282
-0.011203799 0.70999998 -0.052284397 8.0230503e-39 311 282
-0.0099589331 0.70999998 -0.052284397 7.7471865e-39 312 282
-0.0087140659 0.70999998 -0.052284397 7.6549908e-39 313 282
-0.0074691991 0.70999998 -0.052284397 7.7464676e-39 314 282
-0.0062243328 0.70999998 -0.052284397 7.6542734e-39 315 282
-0.0049794666 0.70999998 -0.052284397 7.3787669e-39 316 282
-0.0037345996 0.70999998 -0.052284397 7.1943784e-39 317 282
-0.0024897333 0.70999998 -0.052284397 7.1936624e-39 318 282
-0.0012448666 0.70999998 -0.052284397 7.0092725e-39 319 282
0 0.71100003 -0.052358042 7.1003905e-39 320 282
0.00124662 0.71100003 -0.052358042 7.0081963e-39 321 282
0.0024932399 0.71100003 -0.052358042 7.1918673e-39 322 282
0.0037398601 0.71100003 -0.052358042 7.1918673e-39 323 282
0.0049864799 0.71100003 -0.052358042 7.0985969e-39 324 282
0.0062330998 0.71100003 -0.052358042 7.0064026e-39 325 282
0.0074797203 0.71100003 -0.052358042 6.8223785e-39 326 282
0.0087508867 0.713 -0.052505318 6.7301829e-39 327 282
0.010001013 0.713 -0.052505318 6.638353e-39 328 282
0.011266919 0.71399999 -0.052578956 6.638353e-39 329 282
0.012606465 0.71899998 -0.05294716 6.8220282e-39 330 282
0.013828539 0.71700001 -0.052799881 7.0060593e-39 331 282
0.015085679 0.71700001 -0.052799881 6.8223967e-39 332 282
0.016342819 0.71700001 -0.052799881 7.006788e-39 333 282
0.017599959 0.71700001 -0.052799881 7.5589052e-39 334 282
-0.026252659 0.713 -0.053755447 9.3134906e-39 299 283
-0.025002534 0.713 -0.053755447 9.3127353e-39 300 283
-0.02378572 0.71399999 -0.053830836 9.0361484e-39 301 283
-0.022533838 0.71399999 -0.053830836 9.1283244e-39 302 283
-0.021281958 0.71399999 -0.053830836 9.0357701e-39 303 283
-0.020030079 0.71399999 -0.053830836 8.6684141e-39 304 283
-0.018751899 0.713 -0.053755447 8.5762171e-39 305 283
-0.017501773 0.713 -0.053755447 8.3932621e-39 306 283
-0.016251646 0.713 -0.053755447 8.3007092e-39 307 283
-0.014959441 0.71100003 -0.053604662 8.2081562e-39 308 283
-0.01371282 0.71100003 -0.053604662 8.1156032e-39 309 283
-0.0124662 0.71100003 -0.053604662 8.0230503e-39 310 283
-0.01121958 0.71100003 -0.053604662 7.9308561e-39 311 283
-0.0099729598 0.71100003 -0.053604662 7.6549908e-39 312 283
-0.0087263398 0.71100003 -0.053604662 7.5627966e-39 313 283
-0.0074797203 0.71100003 -0.053604662 7.5627966e-39 314 283
-0.0062330998 0.71100003 -0.053604662 7.3787669e-39 315 283
-0.0049864799 0.71100003 -0.053604662 7.2865726e-39 316 283
-0.0037398601 0.71100003 -0.053604662 7.1018255e-39 317 283
-0.0024932399 0.71100003 -0.053604662 7.1014667e-39 318 283
-0.00124662 0.71100003 -0.053604662 6.9170783e-39 319 283
0 0.71100003 -0.053604662 7.0081977e-39 320 283
0.0012501266 0.713 -0.053755447 7.0081977e-39 321 283
0.0025002533 0.713 -0.053755447 7.0993143e-39 322 283
0.0037503797 0.713 -0.053755447 7.0993143e-39 323 283
0.0049864799 0.71100003 -0.053604662 6.8238078e-39 324 283
0.0062330998 0.71100003 -0.053604662 6.7312549e-39 325 283
0.0075007593 0.713 -0.053755447 6.7309046e-39 326 283
0.0087508867 0.713 -0.053755447 6.6387089e-39 327 283
0.010001013 0.713 -0.053755447 6.6383558e-39 328 283
0.011251139 0.713 -0.053755447 6.6383558e-39 329 283
0.012606465 0.71899998 -0.054207806 6.7298354e-39 330 283
0.013867113 0.71899998 -0.054207806 6.822031e-39 331 283
0.01512776 0.71899998 -0.054207806 6.8220464e-39 332 283
-0.025037598 0.71399999 -0.05508272 9.5893418e-39 300 284
-0.02378572 0.71399999 -0.05508272 9.036168e-39 301 284
-0.022533838 0.71399999 -0.05508272 8.6687952e-39 302 284
