# .PCD v.7 - Point Cloud Data file format
FIELDS x y z rgb imX imY
SIZE 4 4 4 4 4 4
TYPE F F F F F F
COUNT 1 1 1 1 1 1
WIDTH 843
HEIGHT 1
VIEWPOINT 0 0 0 1 0 0 0
POINTS 843
DATA ascii
0.0093768267 0.764 0.006697733 1.2267572e-38 327 235
0.010716373 0.764 0.006697733 1.2542361e-38 328 235
0.01205592 0.764 0.006697733 1.2450167e-38 329 235
0.013395466 0.764 0.006697733 1.2173225e-38 330 235
0.014735013 0.764 0.006697733 1.1897002e-38 331 235
0.016116638 0.76599997 0.0067152665 1.1620419e-38 332 235
0.017459691 0.76599997 0.0067152665 1.1343836e-38 333 235
0.018802745 0.76599997 0.0067152665 1.0700276e-38 334 235
0.020172099 0.76700002 0.006724033 1.0515885e-38 335 235
0.021516906 0.76700002 0.006724033 1.0239306e-38 336 235
0.022921326 0.76899999 0.0067415666 1.0054556e-38 337 235
0.02433276 0.77100003 0.0067590997 1.0327921e-38 338 235
0.02568458 0.77100003 0.0067590997 1.0051336e-38 339 235
0.027036399 0.77100003 0.0067590997 9.5921753e-39 340 235
0.028388219 0.77100003 0.0067590997 9.9609564e-39 341 235
0.029740039 0.77100003 0.0067590997 1.1432531e-38 342 235
0.031091858 0.77100003 0.0067590997 1.336864e-38 343 235
-0.043763198 0.77999997 0.0054703997 1.5304449e-38 288 236
-0.042286891 0.778 0.0054563731 1.3553091e-38 289 236
-0.040922798 0.778 0.0054563731 1.1529413e-38 290 236
-0.039457016 0.77600002 0.0054423464 1.0423065e-38 291 236
-0.037998237 0.77399999 0.0054283198 9.2287765e-39 292 236
-0.036641158 0.77399999 0.0054283198 8.9525498e-39 293 236
-0.035238493 0.773 0.0054213065 8.6781055e-39 294 236
-0.033707831 0.76899999 0.0053932532 9.0468866e-39 295 236
-0.03227536 0.76700002 0.0053792265 9.2312792e-39 296 236
-0.030930554 0.76700002 0.0053792265 9.6004205e-39 297 236
-0.029547172 0.76599997 0.0053722127 9.9691946e-39 298 236
-0.028204117 0.76599997 0.0053722127 1.024614e-38 299 236
-0.026861066 0.76599997 0.0053722127 1.0796793e-38 300 236
-0.025451386 0.764 0.0053581866 1.0796793e-38 301 236
-0.024111839 0.764 0.0053581866 1.0887894e-38 302 236
-0.022772292 0.764 0.0053581866 1.0610949e-38 303 236
-0.021432746 0.764 0.0053581866 1.0702064e-38 304 236
-0.0200406 0.76200002 0.0053441599 1.0702064e-38 305 236
-0.01870456 0.76200002 0.0053441599 1.1069047e-38 306 236
-0.01736852 0.76200002 0.0053441599 1.1069047e-38 307 236
-0.01603248 0.76200002 0.0053441599 1.1251648e-38 308 236
-0.01469644 0.76200002 0.0053441599 1.1989573e-38 309 236
-0.0133604 0.76200002 0.0053441599 1.2908677e-38 310 236
-0.01202436 0.76200002 0.0053441599 1.2724285e-38 311 236
-0.01068832 0.76200002 0.0053441599 1.1437513e-38 312 236
-0.0093522798 0.76200002 0.0053441599 1.0976535e-38 313 236
-0.0080162399 0.76200002 0.0053441599 1.051985e-38 314 236
-0.0066801999 0.76200002 0.0053441599 1.0427655e-38 315 236
-0.0053441599 0.76200002 0.0053441599 9.782274e-39 316 236
-0.0040081199 0.76200002 0.0053441599 9.2291086e-39 317 236
-0.00267208 0.76200002 0.0053441599 9.5978855e-39 318 236
-0.00133604 0.76200002 0.0053441599 1.0243245e-38 319 236
0 0.76200002 0.0053441599 1.1529301e-38 320 236
0.00133604 0.76200002 0.0053441599 1.1897723e-38 321 236
0.00267208 0.76200002 0.0053441599 1.2266137e-38 322 236
0.0040081199 0.76200002 0.0053441599 1.2266137e-38 323 236
0.0053441599 0.76200002 0.0053441599 1.2173584e-38 324 236
0.0066801999 0.76200002 0.0053441599 1.2265778e-38 325 236
0.0080162399 0.76200002 0.0053441599 1.2266496e-38 326 236
0.0093522798 0.76200002 0.0053441599 1.2082466e-38 327 236
0.010716373 0.764 0.0053581866 1.2266137e-38 328 236
0.01205592 0.764 0.0053581866 1.2082107e-38 329 236
0.013395466 0.764 0.0053581866 1.189736e-38 330 236
0.014735013 0.764 0.0053581866 1.1620778e-38 331 236
0.016116638 0.76599997 0.0053722127 1.1344554e-38 332 236
0.017459691 0.76599997 0.0053722127 1.1067971e-38 333 236
0.018802745 0.76599997 0.0053722127 1.0332219e-38 334 236
0.020172099 0.76700002 0.0053792265 1.0240024e-38 335 236
0.021516906 0.76700002 0.0053792265 1.0146757e-38 336 236
0.022921326 0.76899999 0.0053932532 9.9620073e-39 337 236
0.02433276 0.77100003 0.0054072798 9.960585e-39 338 236
0.02568458 0.77100003 0.0054072798 9.8683894e-39 339 236
0.027036399 0.77100003 0.0054072798 9.8684076e-39 340 236
0.028388219 0.77100003 0.0054072798 1.0237192e-38 341 236
0.029740039 0.77100003 0.0054072798 1.170912e-38 342 236
0.031091858 0.77100003 0.0054072798 1.336864e-38 343 236
-0.043763198 0.77999997 0.0041027996 1.5397004e-38 288 237
-0.042286891 0.778 0.0040922803 1.3645288e-38 289 237
-0.040922798 0.778 0.0040922803 1.1713804e-38 290 237
-0.039457016 0.77600002 0.0040817601 1.0423065e-38 291 237
-0.037998237 0.77399999 0.0040712398 9.5053676e-39 292 237
-0.036641158 0.77399999 0.0040712398 8.9521938e-39 293 237
-0.035238493 0.773 0.0040659797 8.9539721e-39 294 237
-0.033707831 0.76899999 0.0040449398 9.1383633e-39 295 237
-0.03227536 0.76700002 0.00403442 9.3234749e-39 296 237
-0.030930554 0.76700002 0.00403442 9.7844516e-39 297 237
-0.029547172 0.76599997 0.0040291594 1.0244358e-38 298 237
-0.028204117 0.76599997 0.0040291594 1.1074118e-38 299 237
-0.026861066 0.76599997 0.0040291594 1.1166331e-38 300 237
-0.025451386 0.764 0.0040186401 1.1351081e-38 301 237
-0.024111839 0.764 0.0040186401 1.144073e-38 302 237
-0.022772292 0.764 0.0040186401 1.0795361e-38 303 237
-0.021432746 0.764 0.0040186401 1.0519469e-38 304 237
-0.0200406 0.76200002 0.0040081199 1.0519469e-38 305 237
-0.01870456 0.76200002 0.0040081199 1.0610587e-38 306 237
-0.01736852 0.76200002 0.0040081199 1.0518034e-38 307 237
-0.01603248 0.76200002 0.0040081199 1.0331165e-38 308 237
-0.01469644 0.76200002 0.0040081199 1.2359469e-38 309 237
-0.0133604 0.76200002 0.0040081199 1.4201637e-38 310 237
-0.01202436 0.76200002 0.0040081199 1.4386389e-38 311 237
-0.01068832 0.76200002 0.0040081199 1.3465518e-38 312 237
-0.0093522798 0.76200002 0.0040081199 1.2543921e-38 313 237
-0.0080162399 0.76200002 0.0040081199 1.2268385e-38 314 237
-0.0066801999 0.76200002 0.0040081199 1.1807407e-38 315 237
-0.0053441599 0.76200002 0.0040081199 1.0613876e-38 316 237
-0.0040081199 0.76200002 0.0040081199 1.0245454e-38 317 237
-0.00267208 0.76200002 0.0040081199 1.0613848e-38 318 237
-0.00133604 0.76200002 0.0040081199 1.0521651e-38 319 237
0 0.76200002 0.0040081199 1.0793543e-38 320 237
0.00133604 0.76200002 0.0040081199 1.107049e-38 321 237
0.00267208 0.76200002 0.0040081199 1.189736e-38 322 237
0.0040081199 0.76200002 0.0040081199 1.189736e-38 323 237
0.0053441599 0.76200002 0.0040081199 1.1897002e-38 324 237
0.0066801999 0.76200002 0.0040081199 1.208139e-38 325 237
0.0080162399 0.76200002 0.0040081199 1.1990272e-38 326 237
0.0093522798 0.76200002 0.0040081199 1.1990272e-38 327 237
0.010716373 0.764 0.0040186401 1.1714407e-38 328 237
0.01205592 0.764 0.0040186401 1.1714407e-38 329 237
0.013395466 0.764 0.0040186401 1.1805166e-38 330 237
0.014735013 0.764 0.0040186401 1.1436748e-38 331 237
0.016116638 0.76599997 0.0040291594 1.1067971e-38 332 237
0.017459691 0.76599997 0.0040291594 1.0883582e-38 333 237
0.018802745 0.76599997 0.0040291594 1.0147827e-38 334 237
0.020172099 0.76700002 0.00403442 1.0055631e-38 335 237
0.021516906 0.76700002 0.00403442 9.7786979e-39 336 237
0.022921326 0.76899999 0.0040449398 9.6865023e-39 337 237
0.02433276 0.77100003 0.0040554604 9.8694642e-39 338 237
0.02568458 0.77100003 0.0040554604 9.8694642e-39 339 237
0.027036399 0.77100003 0.0040554604 9.9613193e-39 340 237
0.028388219 0.77100003 0.0040554604 1.0238266e-38 341 237
0.029817186 0.773 0.0040659797 1.1709841e-38 342 237
-0.042286891 0.778 0.0027281865 1.3921518e-38 289 238
-0.0408176 0.77600002 0.0027211732 1.1988952e-38 290 238
-0.039457016 0.77600002 0.0027211732 1.0698213e-38 291 238
-0.037998237 0.77399999 0.0027141599 9.7808657e-39 292 238
-0.036641158 0.77399999 0.0027141599 9.411723e-39 293 238
-0.035238493 0.773 0.0027106532 8.9539665e-39 294 238
-0.033795502 0.77100003 0.0027036399 9.1387165e-39 295 238
-0.03227536 0.76700002 0.0026896133 9.3241965e-39 296 238
-0.030930554 0.76700002 0.0026896133 9.6007848e-39 297 238
-0.029547172 0.76599997 0.0026861064 1.0059986e-38 298 238
-0.028204117 0.76599997 0.0026861064 1.1074138e-38 299 238
-0.026861066 0.76599997 0.0026861064 1.1627703e-38 300 238
-0.025451386 0.764 0.0026790933 1.1996487e-38 301 238
-0.024111839 0.764 0.0026790933 1.1810628e-38 302 238
-0.022772292 0.764 0.0026790933 1.0888671e-38 303 238
-0.021432746 0.764 0.0026790933 1.0704222e-38 304 238
-0.0200406 0.76200002 0.00267208 1.0427636e-38 305 238
-0.01870456 0.76200002 0.00267208 1.0793899e-38 306 238
-0.01736852 0.76200002 0.00267208 1.0701705e-38 307 238
-0.01603248 0.76200002 0.00267208 1.1068396e-38 308 238
-0.01469644 0.76200002 0.00267208 1.3557678e-38 309 238
-0.0133604 0.76200002 0.00267208 1.5308049e-38 310 238
-0.01202436 0.76200002 0.00267208 1.5308049e-38 311 238
-0.01068832 0.76200002 0.00267208 1.4755947e-38 312 238
-0.0093522798 0.76200002 0.00267208 1.4018382e-38 313 238
-0.0080162399 0.76200002 0.00267208 1.3833609e-38 314 238
-0.0066801999 0.76200002 0.00267208 1.3095685e-38 315 238
-0.0053441599 0.76200002 0.00267208 1.2454246e-38 316 238
-0.0040081199 0.76200002 0.00267208 1.2822668e-38 317 238
-0.00267208 0.76200002 0.00267208 1.2730415e-38 318 238
-0.00133604 0.76200002 0.00267208 1.1716265e-38 319 238
0 0.76200002 0.00267208 1.0518757e-38 320 238
0.00133604 0.76200002 0.00267208 9.873392e-39 321 238
0.00267208 0.76200002 0.00267208 1.1069406e-38 322 238
0.0040081199 0.76200002 0.00267208 1.1254156e-38 323 238
0.0053441599 0.76200002 0.00267208 1.1437824e-38 324 238
0.0066801999 0.76200002 0.00267208 1.1530018e-38 325 238
0.0080162399 0.76200002 0.00267208 1.1530377e-38 326 238
0.0093768267 0.764 0.0026790933 1.1530377e-38 327 238
0.010716373 0.764 0.0026790933 1.1254512e-38 328 238
0.01205592 0.764 0.0026790933 1.1254512e-38 329 238
0.013395466 0.764 0.0026790933 1.1161241e-38 330 238
0.014735013 0.764 0.0026790933 1.0976853e-38 331 238
0.016116638 0.76599997 0.0026861064 1.0608435e-38 332 238
0.017459691 0.76599997 0.0026861064 1.0424046e-38 333 238
0.018827293 0.76700002 0.0026896133 9.7797671e-39 334 238
0.020172099 0.76700002 0.0026896133 9.6875715e-39 335 238
0.021516906 0.76700002 0.0026896133 9.4106356e-39 336 238
0.022921326 0.76899999 0.0026966266 9.31844e-39 337 238
0.02433276 0.77100003 0.0027036399 9.4099322e-39 338 238
0.025751207 0.773 0.0027106532 9.6865177e-39 339 238
0.027106533 0.773 0.0027106532 9.6865415e-39 340 238
0.028461859 0.773 0.0027106532 1.0054964e-38 341 238
0.029817186 0.773 0.0027106532 1.143398e-38 342 238
-0.042286891 0.778 0.0013640933 1.3922597e-38 289 239
-0.0408176 0.77600002 0.0013605866 1.2448851e-38 290 239
-0.039457016 0.77600002 0.0013605866 1.1158114e-38 291 239
-0.037998237 0.77399999 0.0013570799 9.8716264e-39 292 239
-0.036641158 0.77399999 0.0013570799 9.5032026e-39 293 239
-0.035238493 0.773 0.0013553266 8.8628527e-39 294 239
-0.033795502 0.77100003 0.00135182 9.0468838e-39 295 239
-0.032359518 0.76899999 0.0013483133 9.5060683e-39 296 239
-0.030930554 0.76700002 0.0013448066 9.967045e-39 297 239
-0.029585747 0.76700002 0.0013448066 9.4167691e-39 298 239
-0.028204117 0.76599997 0.0013430532 1.0062139e-38 299 239
-0.026861066 0.76599997 0.0013430532 1.1168895e-38 300 239
-0.025518013 0.76599997 0.0013430532 1.2644025e-38 301 239
-0.024111839 0.764 0.0013395466 1.2456757e-38 302 239
-0.022772292 0.764 0.0013395466 1.1811747e-38 303 239
-0.02137664 0.76200002 0.00133604 1.1903177e-38 304 239
-0.0200406 0.76200002 0.00133604 1.1442198e-38 305 239
-0.01870456 0.76200002 0.00133604 9.7815846e-39 306 239
-0.01736852 0.76200002 0.00133604 1.051915e-38 307 239
-0.01603248 0.76200002 0.00133604 1.2822668e-38 308 239
-0.01469644 0.76200002 0.00133604 1.4113407e-38 309 239
-0.0133604 0.76200002 0.00133604 1.5122955e-38 310 239
-0.01202436 0.76200002 0.00133604 1.3924411e-38 311 239
-0.01068832 0.76200002 0.00133604 1.2543631e-38 312 239
-0.0093522798 0.76200002 0.00133604 1.2266685e-38 313 239
-0.0080162399 0.76200002 0.00133604 1.3094998e-38 314 239
-0.0066801999 0.76200002 0.00133604 1.3555975e-38 315 239
-0.0053441599 0.76200002 0.00133604 1.4476118e-38 316 239
-0.0040081199 0.76200002 0.00133604 1.4476118e-38 317 239
-0.00267208 0.76200002 0.00133604 1.4018691e-38 318 239
-0.00133604 0.76200002 0.00133604 1.2912703e-38 319 239
0 0.76200002 0.00133604 1.0980851e-38 320 239
0.00133604 0.76200002 0.00133604 9.5979164e-39 321 239
0.00267208 0.76200002 0.00133604 1.0057427e-38 322 239
0.0040081199 0.76200002 0.00133604 1.0518404e-38 323 239
0.0053441599 0.76200002 0.00133604 1.1160888e-38 324 239
0.0066801999 0.76200002 0.00133604 1.1160888e-38 325 239
0.0080162399 0.76200002 0.00133604 1.1069047e-38 326 239
0.0093522798 0.76200002 0.00133604 1.1069047e-38 327 239
0.01068832 0.76200002 0.00133604 1.1069047e-38 328 239
0.01205592 0.764 0.0013395466 1.1069047e-38 329 239
0.013395466 0.764 0.0013395466 1.0792825e-38 330 239
0.014735013 0.764 0.0013395466 1.0608435e-38 331 239
0.016116638 0.76599997 0.0013430532 1.0240021e-38 332 239
0.017459691 0.76599997 0.0013430532 9.9634339e-39 333 239
0.018827293 0.76700002 0.0013448066 9.5950199e-39 334 239
0.020172099 0.76700002 0.0013448066 9.3187917e-39 335 239
0.021573013 0.76899999 0.0013483133 9.31844e-39 336 239
0.02298094 0.77100003 0.00135182 9.31844e-39 337 239
0.02433276 0.77100003 0.00135182 9.4102881e-39 338 239
0.02568458 0.77100003 0.00135182 9.5943192e-39 339 239
0.027036399 0.77100003 0.00135182 1.0053874e-38 340 239
0.028461859 0.773 0.0013553266 1.0053874e-38 341 239
0.029817186 0.773 0.0013553266 1.1434696e-38 342 239
-0.042286891 0.778 -0 1.4291379e-38 289 240
-0.0408176 0.77600002 -0 1.281728e-38 290 240
-0.039457016 0.77600002 -0 1.1526542e-38 291 240
-0.037998237 0.77399999 -0 1.0424083e-38 292 240
-0.036641158 0.77399999 -0 9.963106e-39 293 240
-0.035238493 0.773 -0 9.3213099e-39 294 240
-0.033795502 0.77100003 -0 9.5057011e-39 295 240
-0.032359518 0.76899999 -0 9.1398095e-39 296 240
-0.030930554 0.76700002 -0 9.5085906e-39 297 240
-0.029585747 0.76700002 -0 9.6937049e-39 298 240
-0.028204117 0.76599997 -0 9.8780962e-39 299 240
-0.026861066 0.76599997 -0 1.0617868e-38 300 240
-0.025518013 0.76599997 -0 1.2185193e-38 301 240
-0.024111839 0.764 -0 1.2918834e-38 302 240
-0.022772292 0.764 -0 1.2826638e-38 303 240
-0.02137664 0.76200002 -0 1.319288e-38 304 240
-0.0200406 0.76200002 -0 1.2824099e-38 305 240
-0.01870456 0.76200002 -0 1.1164576e-38 306 240
-0.017345725 0.76099998 -0 1.0795794e-38 307 240
-0.016011439 0.76099998 -0 1.3469149e-38 308 240
-0.01469644 0.76200002 -0 1.3930487e-38 309 240
-0.0133604 0.76200002 -0 1.365179e-38 310 240
-0.01202436 0.76200002 -0 1.1715682e-38 311 240
-0.01068832 0.76200002 -0 1.0791577e-38 312 240
-0.0093400059 0.76099998 -0 1.1160359e-38 313 240
-0.0080057196 0.76099998 -0 1.1529496e-38 314 240
-0.0066714329 0.76099998 -0 1.2820234e-38 315 240
-0.0053371461 0.76099998 -0 1.3832932e-38 316 240
-0.0040028598 0.76099998 -0 1.4017682e-38 317 240
-0.0026685731 0.76099998 -0 1.4200607e-38 318 240
-0.0013342865 0.76099998 -0 1.3831823e-38 319 240
0 0.76099998 -0 1.2820502e-38 320 240
0.00133604 0.76200002 -0 1.2175133e-38 321 240
0.00267208 0.76200002 -0 1.0609545e-38 322 240
0.0040081199 0.76200002 -0 9.8719795e-39 323 240
0.0053441599 0.76200002 -0 1.0609155e-38 324 240
0.0066801999 0.76200002 -0 1.0701351e-38 325 240
0.0080162399 0.76200002 -0 1.0701348e-38 326 240
0.0093522798 0.76200002 -0 1.0609152e-38 327 240
0.01068832 0.76200002 -0 1.0700998e-38 328 240
0.01202436 0.76200002 -0 1.0608802e-38 329 240
0.013395466 0.764 -0 1.014927e-38 330 240
0.014735013 0.764 -0 9.9648786e-39 331 240
0.016116638 0.76599997 -0 9.6882945e-39 332 240
0.017482487 0.76700002 -0 9.5039033e-39 333 240
0.018827293 0.76700002 -0 9.2269632e-39 334 240
0.0202247 0.76899999 -0 9.1347662e-39 335 240
0.021573013 0.76899999 -0 8.9507449e-39 336 240
0.02298094 0.77100003 -0 8.9507449e-39 337 240
0.02433276 0.77100003 -0 9.1347928e-39 338 240
0.02568458 0.77100003 -0 9.4110196e-39 339 240
0.027036399 0.77100003 -0 9.5947088e-39 340 240
0.028461859 0.773 -0 9.5947088e-39 341 240
0.029817186 0.773 -0 1.1802052e-38 342 240
-0.043650985 0.778 -0.0013640933 1.5029307e-38 288 241
-0.042286891 0.778 -0.0013640933 1.4383938e-38 289 241
-0.0408176 0.77600002 -0.0013605866 1.3093874e-38 290 241
-0.039457016 0.77600002 -0.0013605866 1.1618743e-38 291 241
-0.037998237 0.77399999 -0.0013570799 1.0700686e-38 292 241
-0.036641158 0.77399999 -0.0013570799 1.0332263e-38 293 241
-0.035238493 0.773 -0.0013553266 9.1387277e-39 294 241
-0.033883166 0.773 -0.0013553266 9.0465307e-39 295 241
-0.032443684 0.77100003 -0.00135182 9.3234595e-39 296 241
-0.031011207 0.76899999 -0.0013483133 9.6922406e-39 297 241
-0.029585747 0.76700002 -0.0013448066 9.9699037e-39 298 241
-0.02824094 0.76700002 -0.0013448066 1.0154295e-38 299 241
-0.026861066 0.76599997 -0.0013430532 1.0432732e-38 300 241
-0.025518013 0.76599997 -0.0013430532 1.1170297e-38 301 241
-0.024111839 0.764 -0.0013395466 1.2090515e-38 302 241
-0.022772292 0.764 -0.0013395466 1.3381254e-38 303 241
-0.02137664 0.76200002 -0.00133604 1.4206717e-38 304 241
-0.0200406 0.76200002 -0.00133604 1.4298913e-38 305 241
-0.01870456 0.76200002 -0.00133604 1.3102893e-38 306 241
-0.017345725 0.76099998 -0.0013342865 1.2549719e-38 307 241
-0.016011439 0.76099998 -0.0013342865 1.4390775e-38 308 241
-0.01469644 0.76200002 -0.00133604 1.3837601e-38 309 241
-0.0133604 0.76200002 -0.00133604 1.291602e-38 310 241
-0.01202436 0.76200002 -0.00133604 1.0150151e-38 311 241
-0.01068832 0.76200002 -0.00133604 8.9490928e-39 312 241
-0.0093400059 0.76099998 -0.0013342865 9.6866578e-39 313 241
-0.0080057196 0.76099998 -0.0013342865 9.6866718e-39 314 241
-0.0066714329 0.76099998 -0.0013342865 9.9636174e-39 315 241
-0.0053371461 0.76099998 -0.0013342865 1.1347985e-38 316 241
-0.0040028598 0.76099998 -0.0013342865 1.2638724e-38 317 241
-0.0026685731 0.76099998 -0.0013342865 1.3647104e-38 318 241
-0.0013342865 0.76099998 -0.0013342865 1.3186127e-38 319 241
0 0.76099998 -0.0013342865 1.3555609e-38 320 241
0.00133604 0.76200002 -0.00133604 1.3463414e-38 321 241
0.00267208 0.76200002 -0.00133604 1.2085457e-38 322 241
0.0040081199 0.76200002 -0.00133604 1.0425937e-38 323 241
0.0053441599 0.76200002 -0.00133604 1.0609194e-38 324 241
0.0066801999 0.76200002 -0.00133604 1.0609194e-38 325 241
0.0080162399 0.76200002 -0.00133604 1.0883591e-38 326 241
0.0093522798 0.76200002 -0.00133604 1.0791395e-38 327 241
0.01068832 0.76200002 -0.00133604 1.0425122e-38 328 241
0.01202436 0.76200002 -0.00133604 1.0332928e-38 329 241
0.013395466 0.764 -0.0013395466 1.0056711e-38 330 241
0.014735013 0.764 -0.0013395466 9.9645143e-39 331 241
0.016116638 0.76599997 -0.0013430532 9.7794112e-39 332 241
0.017482487 0.76700002 -0.0013448066 9.3187917e-39 333 241
0.018827293 0.76700002 -0.0013448066 9.1347634e-39 334 241
0.0202247 0.76899999 -0.0013483133 8.9507323e-39 335 241
0.021573013 0.76899999 -0.0013483133 9.0411427e-39 336 241
0.02298094 0.77100003 -0.00135182 9.2258927e-39 337 241
0.02433276 0.77100003 -0.00135182 9.3181023e-39 338 241
0.02568458 0.77100003 -0.00135182 9.5028523e-39 339 241
0.027036399 0.77100003 -0.00135182 9.9620494e-39 340 241
0.028461859 0.773 -0.0013553266 9.9620494e-39 341 241
0.029817186 0.773 -0.0013553266 1.198752e-38 342 241
-0.043650985 0.778 -0.0027281865 1.5213338e-38 288 242
-0.042286891 0.778 -0.0027281865 1.4660165e-38 289 242
-0.0408176 0.77600002 -0.0027211732 1.3462665e-38 290 242
-0.039457016 0.77600002 -0.0027211732 1.1803504e-38 291 242
-0.037998237 0.77399999 -0.0027141599 1.0517024e-38 292 242
-0.036641158 0.77399999 -0.0027141599 1.0424828e-38 293 242
-0.035238493 0.773 -0.0027106532 9.5067927e-39 294 242
-0.033883166 0.773 -0.0027106532 9.2302072e-39 295 242
-0.032443684 0.77100003 -0.0027036399 9.2319855e-39 296 242
-0.031011207 0.76899999 -0.0026966266 9.5085724e-39 297 242
-0.029585747 0.76700002 -0.0026896133 9.6936867e-39 298 242
-0.02824094 0.76700002 -0.0026896133 1.0062468e-38 299 242
-0.026861066 0.76599997 -0.0026861064 1.0063576e-38 300 242
-0.025518013 0.76599997 -0.0026861064 1.0432719e-38 301 242
-0.024111839 0.764 -0.0026790933 1.1629162e-38 302 242
-0.022772292 0.764 -0.0026790933 1.310465e-38 303 242
-0.02137664 0.76200002 -0.00267208 1.420672e-38 304 242
-0.0200406 0.76200002 -0.00267208 1.4391112e-38 305 242
-0.01870456 0.76200002 -0.00267208 1.3011074e-38 306 242
-0.01736852 0.76200002 -0.00267208 1.2826323e-38 307 242
-0.01603248 0.76200002 -0.00267208 1.4208924e-38 308 242
-0.01469644 0.76200002 -0.00267208 1.4393674e-38 309 242
-0.0133604 0.76200002 -0.00267208 1.411097e-38 310 242
-0.01202436 0.76200002 -0.00267208 1.2175221e-38 311 242
-0.01068832 0.76200002 -0.00267208 1.0790128e-38 312 242
-0.0093522798 0.76200002 -0.00267208 1.0697933e-38 313 242
-0.0080162399 0.76200002 -0.00267208 9.5955552e-39 314 242
-0.0066714329 0.76099998 -0.0026685731 9.5033596e-39 315 242
-0.0053371461 0.76099998 -0.0026685731 1.0424956e-38 316 242
-0.0040081199 0.76200002 -0.00267208 1.1900445e-38 317 242
-0.0026685731 0.76099998 -0.0026685731 1.2726604e-38 318 242
-0.0013342865 0.76099998 -0.0026685731 1.2542571e-38 319 242
0 0.76099998 -0.0026685731 1.3278689e-38 320 242
0.00133604 0.76200002 -0.00267208 1.3739667e-38 321 242
0.00267208 0.76200002 -0.00267208 1.3558113e-38 322 242
0.0040081199 0.76200002 -0.00267208 1.2635798e-38 323 242
0.0053441599 0.76200002 -0.00267208 1.1437904e-38 324 242
0.0066801999 0.76200002 -0.00267208 1.0331558e-38 325 242
0.0080162399 0.76200002 -0.00267208 1.0607377e-38 326 242
0.0093522798 0.76200002 -0.00267208 1.0515181e-38 327 242
0.01068832 0.76200002 -0.00267208 9.9641611e-39 328 242
0.01202436 0.76200002 -0.00267208 9.8719655e-39 329 242
0.013395466 0.764 -0.0026790933 9.5046249e-39 330 242
0.014773586 0.76599997 -0.0026861064 9.4124293e-39 331 242
0.016116638 0.76599997 -0.0026861064 9.3191561e-39 332 242
0.017482487 0.76700002 -0.0026896133 9.1347634e-39 333 242
0.018827293 0.76700002 -0.0026896133 9.0414986e-39 334 242
0.0202247 0.76899999 -0.0026966266 9.0414986e-39 335 242
0.021629119 0.77100003 -0.0027036399 9.0407923e-39 336 242
0.02298094 0.77100003 -0.0027036399 9.2255423e-39 337 242
0.024395877 0.773 -0.0027106532 9.1344397e-39 338 242
0.025784519 0.77399999 -0.0027141599 9.5028621e-39 339 242
0.027106533 0.773 -0.0027106532 9.6865569e-39 340 242
0.028461859 0.773 -0.0027106532 1.0424122e-38 341 242
0.029817186 0.773 -0.0027106532 1.2999526e-38 342 242
-0.042395595 0.77999997 -0.0041027996 1.521154e-38 289 243
-0.040922798 0.778 -0.0040922803 1.3738903e-38 290 243
-0.039355319 0.77399999 -0.0040712398 1.2355969e-38 291 243
-0.037998237 0.77399999 -0.0040712398 1.0699986e-38 292 243
-0.036641158 0.77399999 -0.0040712398 1.060779e-38 293 243
-0.03528408 0.77399999 -0.0040712398 9.5986352e-39 294 243
-0.033883166 0.773 -0.0040659797 9.3224085e-39 295 243
-0.032443684 0.77100003 -0.0040554604 9.323828e-39 296 243
-0.031011207 0.76899999 -0.0040449398 9.4160236e-39 297 243
-0.02966289 0.76899999 -0.0040449398 9.8773493e-39 298 243
-0.02824094 0.76700002 -0.00403442 9.9699037e-39 299 243
-0.026896132 0.76700002 -0.00403442 1.015396e-38 300 243
-0.025518013 0.76599997 -0.0040291594 1.0430548e-38 301 243
-0.024174958 0.76599997 -0.0040291594 1.0799737e-38 302 243
-0.022831906 0.76599997 -0.0040291594 1.1721695e-38 303 243
-0.021432746 0.764 -0.0040186401 1.2180899e-38 304 243
-0.0200406 0.76200002 -0.0040081199 1.2641877e-38 305 243
-0.01870456 0.76200002 -0.0040081199 1.1904703e-38 306 243
-0.01736852 0.76200002 -0.0040081199 1.2457877e-38 307 243
-0.01603248 0.76200002 -0.0040081199 1.4117083e-38 308 243
-0.01469644 0.76200002 -0.0040081199 1.4393671e-38 309 243
-0.0133604 0.76200002 -0.0040081199 1.4110623e-38 310 243
-0.01202436 0.76200002 -0.0040081199 1.3188308e-38 311 243
-0.01068832 0.76200002 -0.0040081199 1.3370903e-38 312 243
-0.0093400059 0.76099998 -0.0040028598 1.2264915e-38 313 243
-0.0080057196 0.76099998 -0.0040028598 1.0885214e-38 314 243
-0.0066714329 0.76099998 -0.0040028598 1.0239844e-38 315 243
-0.0053371461 0.76099998 -0.0040028598 9.9636118e-39 316 243
-0.0040028598 0.76099998 -0.0040028598 1.0332394e-38 317 243
-0.0026685731 0.76099998 -0.0040028598 1.1069962e-38 318 243
-0.0013342865 0.76099998 -0.0040028598 1.1899723e-38 319 243
0 0.76099998 -0.0040028598 1.2911704e-38 320 243
0.0013342865 0.76099998 -0.0040028598 1.3464878e-38 321 243
0.00267208 0.76200002 -0.0040081199 1.4017666e-38 322 243
0.0040081199 0.76200002 -0.0040081199 1.3556328e-38 323 243
0.0053441599 0.76200002 -0.0040081199 1.1623387e-38 324 243
0.0066801999 0.76200002 -0.0040081199 9.6872786e-39 325 243
0.0080162399 0.76200002 -0.0040081199 1.023932e-38 326 243
0.0093522798 0.76200002 -0.0040081199 1.0054927e-38 327 243
0.010716373 0.764 -0.0040186401 9.5035501e-39 328 243
0.01205592 0.764 -0.0040186401 9.5035501e-39 329 243
0.013430533 0.76599997 -0.0040291594 9.1361997e-39 330 243
0.014773586 0.76599997 -0.0040291594 9.043644e-39 331 243
0.01613768 0.76700002 -0.00403442 8.9503792e-39 332 243
0.017482487 0.76700002 -0.00403442 8.7659879e-39 333 243
0.018876385 0.76899999 -0.0040449398 8.9485939e-39 334 243
0.0202247 0.76899999 -0.0040449398 8.7645628e-39 335 243
0.021629119 0.77100003 -0.0040554604 8.9482464e-39 336 243
0.02298094 0.77100003 -0.0040554604 9.1326376e-39 337 243
0.024395877 0.773 -0.0040659797 9.3177548e-39 338 243
0.025784519 0.77399999 -0.0040712398 9.5943417e-39 339 243
0.027141599 0.77399999 -0.0040712398 1.0237575e-38 340 243
0.028498679 0.77399999 -0.0040712398 1.1528314e-38 341 243
-0.042395595 0.77999997 -0.0054703997 1.5303383e-38 289 244
-0.040922798 0.778 -0.0054563731 1.4015499e-38 290 244
-0.039355319 0.77399999 -0.0054283198 1.2908792e-38 291 244
-0.037998237 0.77399999 -0.0054283198 1.0976227e-38 292 244
-0.036641158 0.77399999 -0.0054283198 1.069928e-38 293 244
-0.03528408 0.77399999 -0.0054283198 9.7830321e-39 294 244
-0.033883166 0.773 -0.0054213065 9.5982821e-39 295 244
-0.032527838 0.773 -0.0054213065 9.5993359e-39 296 244
-0.031091858 0.77100003 -0.0054072798 9.6918903e-39 297 244
-0.029740039 0.77100003 -0.0054072798 9.7851551e-39 298 244
-0.02824094 0.76700002 -0.0053792265 9.9695477e-39 299 244
-0.026896132 0.76700002 -0.0053792265 1.0520216e-38 300 244
-0.025518013 0.76599997 -0.0053722127 1.0612412e-38 301 244
-0.024174958 0.76599997 -0.0053722127 1.0890106e-38 302 244
-0.022831906 0.76599997 -0.0053722127 1.1442921e-38 303 244
-0.021432746 0.764 -0.0053581866 1.162805e-38 304 244
-0.020093199 0.764 -0.0053581866 1.1720246e-38 305 244
-0.01870456 0.76200002 -0.0053441599 1.0615018e-38 306 244
-0.01736852 0.76200002 -0.0053441599 1.1721007e-38 307 244
-0.01603248 0.76200002 -0.0053441599 1.4113114e-38 308 244
-0.01469644 0.76200002 -0.0053441599 1.4297507e-38 309 244
-0.0133604 0.76200002 -0.0053441599 1.2823121e-38 310 244
-0.01202436 0.76200002 -0.0053441599 1.1809328e-38 311 244
-0.01068832 0.76200002 -0.0053441599 1.2360348e-38 312 244
-0.0093400059 0.76099998 -0.0053371461 1.2175955e-38 313 244
-0.0080057196 0.76099998 -0.0053371461 1.2173789e-38 314 244
-0.0066714329 0.76099998 -0.0053371461 1.1805006e-38 315 244
-0.0053371461 0.76099998 -0.0053371461 1.1069238e-38 316 244
-0.0040028598 0.76099998 -0.0053371461 1.0792649e-38 317 244
-0.0026685731 0.76099998 -0.0053371461 9.6891885e-39 318 244
-0.0013342865 0.76099998 -0.0053371461 9.7813842e-39 319 244
0 0.76099998 -0.0053371461 1.1069959e-38 320 244
0.0013342865 0.76099998 -0.0053371461 1.1715329e-38 321 244
0.00267208 0.76200002 -0.0053441599 1.2816972e-38 322 244
0.0040081199 0.76200002 -0.0053441599 1.2540384e-38 323 244
0.0053441599 0.76200002 -0.0053441599 1.0519207e-38 324 244
0.006697733 0.764 -0.0053581866 9.044077e-39 325 244
0.0080372803 0.764 -0.0053581866 9.595401e-39 326 244
0.0093768267 0.764 -0.0053581866 9.5028467e-39 327 244
0.010716373 0.764 -0.0053581866 9.228045e-39 328 244
0.012087479 0.76599997 -0.0053722127 9.1354907e-39 329 244
0.013430533 0.76599997 -0.0053722127 9.134762e-39 330 244
0.014773586 0.76599997 -0.0053722127 8.8585381e-39 331 244
0.01613768 0.76700002 -0.0053792265 8.7649131e-39 332 244
0.017482487 0.76700002 -0.0053792265 8.6727175e-39 333 244
0.018876385 0.76899999 -0.0053932532 8.672014e-39 334 244
0.0202247 0.76899999 -0.0053932532 8.7642096e-39 335 244
0.021629119 0.77100003 -0.0054072798 8.7645782e-39 336 244
0.023040552 0.773 -0.0054213065 9.1333607e-39 337 244
0.024395877 0.773 -0.0054213065 9.5929123e-39 338 244
0.025784519 0.77399999 -0.0054283198 1.0054251e-38 339 244
0.027141599 0.77399999 -0.0054283198 1.0146111e-38 340 244
-0.040922798 0.778 -0.0068204664 1.4015866e-38 290 245
-0.039457016 0.77600002 -0.0068029333 1.3093908e-38 291 245
-0.038096428 0.77600002 -0.0068029333 1.1159907e-38 292 245
-0.036641158 0.77399999 -0.0067853997 1.0606734e-38 293 245
-0.03528408 0.77399999 -0.0067853997 9.7826762e-39 294 245
-0.033927001 0.77399999 -0.0067853997 9.6904805e-39 295 245
-0.032527838 0.773 -0.0067766332 9.6908183e-39 296 245
-0.03117251 0.773 -0.0067766332 9.967045e-39 297 245
-0.029740039 0.77100003 -0.0067590997 9.7848047e-39 298 245
-0.028314579 0.76899999 -0.0067415666 9.9691974e-39 299 245
-0.026896132 0.76700002 -0.006724033 1.0244711e-38 300 245
-0.025518013 0.76599997 -0.0067152665 1.0521298e-38 301 245
-0.024174958 0.76599997 -0.0067152665 1.0614585e-38 302 245
-0.022831906 0.76599997 -0.0067152665 1.0983369e-38 303 245
-0.021488851 0.76599997 -0.0067152665 1.1350743e-38 304 245
-0.020093199 0.764 -0.006697733 1.1535136e-38 305 245
-0.018753653 0.764 -0.006697733 1.1073107e-38 306 245
-0.01736852 0.76200002 -0.0066801999 1.1718476e-38 307 245
-0.01603248 0.76200002 -0.0066801999 1.2732313e-38 308 245
-0.01469644 0.76200002 -0.0066801999 1.3469878e-38 309 245
-0.0133604 0.76200002 -0.0066801999 1.3100417e-38 310 245
-0.01202436 0.76200002 -0.0066801999 1.2270298e-38 311 245
-0.01068832 0.76200002 -0.0066801999 1.1991918e-38 312 245
-0.0093522798 0.76200002 -0.0066801999 1.217595e-38 313 245
-0.0080162399 0.76200002 -0.0066801999 1.2541495e-38 314 245
-0.0066801999 0.76200002 -0.0066801999 1.2172714e-38 315 245
-0.0053371461 0.76099998 -0.0066714329 1.1531661e-38 316 245
-0.0040028598 0.76099998 -0.0066714329 1.1347268e-38 317 245
-0.0026685731 0.76099998 -0.0066714329 1.0333842e-38 318 245
-0.0013342865 0.76099998 -0.0066714329 9.8728637e-39 319 245
0 0.76099998 -0.0066714329 1.0977411e-38 320 245
0.00133604 0.76200002 -0.0066801999 1.1254356e-38 321 245
0.00267208 0.76200002 -0.0066801999 1.1619514e-38 322 245
0.0040081199 0.76200002 -0.0066801999 1.1158896e-38 323 245
0.0053441599 0.76200002 -0.0066801999 9.7805826e-39 324 245
0.0066801999 0.76200002 -0.0066801999 9.0430176e-39 325 245
0.0080372803 0.764 -0.006697733 9.1348026e-39 326 245
0.0093768267 0.764 -0.006697733 9.042607e-39 327 245
0.010744425 0.76599997 -0.0067152665 8.7681529e-39 328 245
0.012087479 0.76599997 -0.0067152665 8.5837602e-39 329 245
0.013430533 0.76599997 -0.0067152665 8.5826756e-39 330 245
0.014792874 0.76700002 -0.006724033 8.3979256e-39 331 245
0.01613768 0.76700002 -0.006724033 8.4890465e-39 332 245
0.017528072 0.76899999 -0.0067415666 8.4890465e-39 333 245
0.018876385 0.76899999 -0.0067415666 8.3046762e-39 334 245
0.020277301 0.77100003 -0.0067590997 8.4890675e-39 335 245
0.021629119 0.77100003 -0.0067590997 8.7649467e-39 336 245
0.023040552 0.773 -0.0067766332 9.0418938e-39 337 245
0.02442744 0.77399999 -0.0067853997 1.0052463e-38 338 245
0.025784519 0.77399999 -0.0067853997 1.0421604e-38 339 245
0.027141599 0.77399999 -0.0067853997 1.0879372e-38 340 245
-0.039457016 0.77600002 -0.0081635201 1.3186834e-38 291 246
-0.038096428 0.77600002 -0.0081635201 1.106844e-38 292 246
-0.036735836 0.77600002 -0.0081635201 1.0146125e-38 293 246
-0.03528408 0.77399999 -0.0081424797 9.9656381e-39 294 246
-0.033927001 0.77399999 -0.0081424797 9.8734425e-39 295 246
-0.032569919 0.77399999 -0.0081424797 9.6908309e-39 296 246
-0.03117251 0.773 -0.0081319595 9.7830265e-39 297 246
-0.029817186 0.773 -0.0081319595 1.0059594e-38 298 246
-0.028388219 0.77100003 -0.0081109209 1.0151791e-38 299 246
-0.026966266 0.76899999 -0.0080898795 1.0336891e-38 300 246
-0.025551327 0.76700002 -0.00806884 1.0613118e-38 301 246
-0.024206521 0.76700002 -0.00806884 1.0980828e-38 302 246
-0.022861714 0.76700002 -0.00806884 1.1257415e-38 303 246
-0.021516906 0.76700002 -0.00806884 1.1348913e-38 304 246
-0.020145798 0.76599997 -0.0080583189 1.1717337e-38 305 246
-0.018802745 0.76599997 -0.0080583189 1.1532971e-38 306 246
-0.017414106 0.764 -0.0080372803 1.1625166e-38 307 246
-0.01603248 0.76200002 -0.0080162399 1.0246971e-38 308 246
-0.01469644 0.76200002 -0.0080162399 1.2552222e-38 309 246
-0.0133604 0.76200002 -0.0080162399 1.4759217e-38 310 246
-0.01202436 0.76200002 -0.0080162399 1.448227e-38 311 246
-0.01068832 0.76200002 -0.0080162399 1.4110623e-38 312 246
-0.0093522798 0.76200002 -0.0080162399 1.3373058e-38 313 246
-0.0080162399 0.76200002 -0.0080162399 1.2633688e-38 314 246
-0.0066801999 0.76200002 -0.0080162399 1.0605384e-38 315 246
-0.0053441599 0.76200002 -0.0080162399 9.0456086e-39 316 246
-0.0040028598 0.76099998 -0.0080057196 9.5984222e-39 317 246
-0.0026685731 0.76099998 -0.0080057196 1.0148726e-38 318 246
-0.0013342865 0.76099998 -0.0080057196 1.0609703e-38 319 246
0 0.76099998 -0.0080057196 1.3371609e-38 320 246
0.0013342865 0.76099998 -0.0080057196 1.2357458e-38 321 246
0.00267208 0.76200002 -0.0080162399 1.0609665e-38 322 246
0.0040081199 0.76200002 -0.0080162399 9.5033175e-39 323 246
0.0053441599 0.76200002 -0.0080162399 8.9507925e-39 324 246
0.0066801999 0.76200002 -0.0080162399 8.6738469e-39 325 246
0.0080372803 0.764 -0.0080372803 8.7670823e-39 326 246
0.0093768267 0.764 -0.0080372803 8.7670823e-39 327 246
0.010744425 0.76599997 -0.0080583189 8.5830414e-39 328 246
0.012087479 0.76599997 -0.0080583189 8.3982914e-39 329 246
0.013448066 0.76700002 -0.00806884 8.4883262e-39 330 246
0.014792874 0.76700002 -0.00806884 8.4883262e-39 331 246
0.016179759 0.76899999 -0.0080898795 8.4883276e-39 332 246
0.017528072 0.76899999 -0.0080898795 8.5805232e-39 333 246
0.018876385 0.76899999 -0.0080898795 8.5805401e-39 334 246
0.020277301 0.77100003 -0.0081109209 8.7649313e-39 335 246
0.021685226 0.773 -0.0081319595 8.9486191e-39 336 246
0.02307036 0.77399999 -0.0081424797 9.3174016e-39 337 246
0.02442744 0.77399999 -0.0081424797 1.0144664e-38 338 246
0.025851147 0.77600002 -0.0081635201 1.0697838e-38 339 246
-0.038096428 0.77600002 -0.009524107 1.2172277e-38 292 247
-0.036735836 0.77600002 -0.009524107 1.0974092e-38 293 247
-0.03528408 0.77399999 -0.0094995592 1.0515579e-38 294 247
-0.033927001 0.77399999 -0.0094995592 1.0515579e-38 295 247
-0.032569919 0.77399999 -0.0094995592 1.0148938e-38 296 247
-0.03117251 0.773 -0.0094872871 1.0241133e-38 297 247
-0.029817186 0.773 -0.0094872871 9.6000646e-39 298 247
-0.028388219 0.77100003 -0.0094627403 9.8766515e-39 299 247
-0.026966266 0.76899999 -0.0094381925 9.7858851e-39 300 247
-0.025551327 0.76700002 -0.0094136465 1.0154308e-38 301 247
-0.024206521 0.76700002 -0.0094136465 1.0797526e-38 302 247
-0.022861714 0.76700002 -0.0094136465 1.0982276e-38 303 247
-0.021516906 0.76700002 -0.0094136465 1.1165612e-38 304 247
-0.020145798 0.76599997 -0.0094013726 1.1257808e-38 305 247
-0.018802745 0.76599997 -0.0094013726 1.1441488e-38 306 247
-0.017414106 0.764 -0.0093768267 1.1441488e-38 307 247
-0.016074561 0.764 -0.0093768267 1.0152239e-38 308 247
-0.01469644 0.76200002 -0.0093522798 1.1903956e-38 309 247
-0.0133604 0.76200002 -0.0093522798 1.402345e-38 310 247
-0.01202436 0.76200002 -0.0093522798 1.485285e-38 311 247
-0.01068832 0.76200002 -0.0093522798 1.5677944e-38 312 247
-0.0093522798 0.76200002 -0.0093522798 1.4387206e-38 313 247
-0.0080162399 0.76200002 -0.0093522798 1.4199925e-38 314 247
-0.0066801999 0.76200002 -0.0093522798 1.2909186e-38 315 247
-0.0053441599 0.76200002 -0.0093522798 1.02427e-38 316 247
-0.0040028598 0.76099998 -0.0093400059 9.6895263e-39 317 247
-0.0026685731 0.76099998 -0.0093400059 9.5966118e-39 318 247
-0.0013342865 0.76099998 -0.0093400059 1.0426012e-38 319 247
0 0.76099998 -0.0093400059 1.3281563e-38 320 247
0.0013342865 0.76099998 -0.0093400059 1.2359246e-38 321 247
0.00267208 0.76200002 -0.0093522798 9.2303109e-39 322 247
0.0040081199 0.76200002 -0.0093522798 8.3079959e-39 323 247
0.0053441599 0.76200002 -0.0093522798 8.2132219e-39 324 247
0.006697733 0.764 -0.0093768267 8.3979719e-39 325 247
0.0080372803 0.764 -0.0093768267 8.5827009e-39 326 247
0.0093768267 0.764 -0.0093768267 8.3064741e-39 327 247
0.010744425 0.76599997 -0.0094013726 8.3975781e-39 328 247
0.01210326 0.76700002 -0.0094136465 8.3053811e-39 329 247
0.013448066 0.76700002 -0.0094136465 8.1206311e-39 330 247
0.014792874 0.76700002 -0.0094136465 8.1206311e-39 331 247
0.016179759 0.76899999 -0.0094381925 8.3043063e-39 332 247
0.017528072 0.76899999 -0.0094381925 8.3043063e-39 333 247
0.018925481 0.77100003 -0.0094627403 8.7642153e-39 334 247
0.0203299 0.773 -0.0094872871 9.040442e-39 335 247
0.021685226 0.773 -0.0094872871 8.9489919e-39 336 247
0.02307036 0.77399999 -0.0094995592 9.4099686e-39 337 247
0.024490559 0.77600002 -0.009524107 9.6865751e-39 338 247
-0.036735836 0.77600002 -0.010884693 1.1894993e-38 293 248
-0.03528408 0.77399999 -0.01085664 1.1158093e-38 294 248
-0.033927001 0.77399999 -0.01085664 1.1158093e-38 295 248
-0.032569919 0.77399999 -0.01085664 1.0149665e-38 296 248
-0.03117251 0.773 -0.010842613 1.0057468e-38 297 248
-0.029817186 0.773 -0.010842613 1.0058889e-38 298 248
-0.028388219 0.77100003 -0.01081456 1.0058889e-38 299 248
-0.027036399 0.77100003 -0.01081456 9.9699191e-39 300 248
-0.025617953 0.76899999 -0.010786506 1.015431e-38 301 248
-0.024269639 0.76899999 -0.010786506 1.0889356e-38 302 248
-0.022921326 0.76899999 -0.010786506 1.098191e-38 303 248
-0.021573013 0.76899999 -0.010786506 1.10734e-38 304 248
-0.020172099 0.76700002 -0.010758453 1.1257431e-38 305 248
-0.018827293 0.76700002 -0.010758453 1.134928e-38 306 248
-0.017459691 0.76599997 -0.010744425 1.1441476e-38 307 248
-0.016116638 0.76599997 -0.010744425 1.1071306e-38 308 248
-0.014735013 0.764 -0.010716373 1.1808871e-38 309 248
-0.013395466 0.764 -0.010716373 1.2732705e-38 310 248
-0.01205592 0.764 -0.010716373 1.4576618e-38 311 248
-0.01068832 0.76200002 -0.01068832 1.5216261e-38 312 248
-0.0093522798 0.76200002 -0.01068832 1.1251849e-38 313 248
-0.0080162399 0.76200002 -0.01068832 1.3918686e-38 314 248
-0.0066801999 0.76200002 -0.01068832 1.5394174e-38 315 248
-0.0053441599 0.76200002 -0.01068832 1.4476884e-38 316 248
-0.0040081199 0.76200002 -0.01068832 1.3923711e-38 317 248
-0.0026685731 0.76099998 -0.010674292 1.3094298e-38 318 248
-0.0013342865 0.76099998 -0.010674292 1.3002102e-38 319 248
0 0.76099998 -0.010674292 1.2914922e-38 320 248
0.0013342865 0.76099998 -0.010674292 1.1071369e-38 321 248
0.00267208 0.76200002 -0.01068832 7.5714833e-39 322 248
0.0040081199 0.76200002 -0.01068832 7.2030609e-39 323 248
0.0053581866 0.764 -0.010716373 8.3061238e-39 324 248
0.0067152665 0.76599997 -0.010744425 8.3061238e-39 325 248
0.0080583189 0.76599997 -0.010744425 8.3979411e-39 326 248
0.0094013726 0.76599997 -0.010744425 8.2139099e-39 327 248
0.010758453 0.76700002 -0.010758453 8.4883374e-39 328 248
0.01210326 0.76700002 -0.010758453 8.2121107e-39 329 248
0.013448066 0.76700002 -0.010758453 8.119915e-39 330 248
0.014831445 0.76899999 -0.010786506 8.2121107e-39 331 248
0.016179759 0.76899999 -0.010786506 8.4876242e-39 332 248
0.017528072 0.76899999 -0.010786506 8.6720168e-39 333 248
0.018925481 0.77100003 -0.01081456 8.7638621e-39 334 248
0.0203299 0.773 -0.010842613 8.9478933e-39 335 248
0.021713279 0.77399999 -0.01085664 9.1315811e-39 336 248
0.023129974 0.77600002 -0.010884693 9.8695062e-39 337 248
-0.03528408 0.77399999 -0.01221372 1.1710563e-38 294 249
-0.033927001 0.77399999 -0.01221372 1.1341782e-38 295 249
-0.032527838 0.773 -0.012197939 1.0608491e-38 296 249
-0.03117251 0.773 -0.012197939 1.0332263e-38 297 249
-0.029817186 0.773 -0.012197939 9.5993611e-39 298 249
-0.028388219 0.77100003 -0.01216638 9.875948e-39 299 249
-0.027036399 0.77100003 -0.01216638 9.7851817e-39 300 249
-0.025617953 0.76899999 -0.012134819 1.0153604e-38 301 249
-0.024269639 0.76899999 -0.012134819 1.0522018e-38 302 249
-0.022921326 0.76899999 -0.012134819 1.0614214e-38 303 249
-0.021573013 0.76899999 -0.012134819 1.10734e-38 304 249
-0.0202247 0.76899999 -0.012134819 1.10734e-38 305 249
-0.018827293 0.76700002 -0.01210326 1.1073049e-38 306 249
-0.017482487 0.76700002 -0.01210326 1.1073049e-38 307 249
-0.016116638 0.76599997 -0.012087479 1.0704305e-38 308 249
-0.014773586 0.76599997 -0.012087479 1.07965e-38 309 249
-0.013395466 0.764 -0.01205592 1.1901846e-38 310 249
-0.01205592 0.764 -0.01205592 1.3837954e-38 311 249
-0.01068832 0.76200002 -0.01202436 1.4843872e-38 312 249
-0.0093522798 0.76200002 -0.01202436 1.0141895e-38 313 249
-0.0080162399 0.76200002 -0.01202436 1.290561e-38 314 249
-0.0066801999 0.76200002 -0.01202436 1.5487088e-38 315 249
-0.0053441599 0.76200002 -0.01202436 1.4201021e-38 316 249
-0.0040081199 0.76200002 -0.01202436 1.3463456e-38 317 249
-0.00267208 0.76200002 -0.01202436 1.2819856e-38 318 249
-0.00133604 0.76200002 -0.01202436 1.208229e-38 319 249
0 0.76200002 -0.01202436 1.1068456e-38 320 249
0.00133604 0.76200002 -0.01202436 9.6855214e-39 321 249
0.00267208 0.76200002 -0.01202436 7.6625719e-39 322 249
0.0040081199 0.76200002 -0.01202436 7.8469631e-39 323 249
0.0053722127 0.76599997 -0.012087479 8.2149945e-39 324 249
0.006724033 0.76700002 -0.01210326 7.9387678e-39 325 249
0.00806884 0.76700002 -0.01210326 8.1217129e-39 326 249
0.0094136465 0.76700002 -0.01210326 8.0295173e-39 327 249
0.010758453 0.76700002 -0.01210326 8.2128323e-39 328 249
0.012134819 0.76899999 -0.012134819 8.120278e-39 329 249
0.013483133 0.76899999 -0.012134819 8.3954257e-39 330 249
0.014831445 0.76899999 -0.012134819 8.3954257e-39 331 249
0.016179759 0.76899999 -0.012134819 8.7627803e-39 332 249
0.01757366 0.77100003 -0.01216638 8.854976e-39 333 249
0.018974574 0.773 -0.012197939 8.9478961e-39 334 249
0.0203299 0.773 -0.012197939 9.1322873e-39 335 249
0.021713279 0.77399999 -0.01221372 9.2245026e-39 336 249
-0.032443684 0.77100003 -0.013518199 1.0884001e-38 296 250
-0.031091858 0.77100003 -0.013518199 1.0607775e-38 297 250
-0.029817186 0.773 -0.013553266 1.0058541e-38 298 250
-0.028388219 0.77100003 -0.013518199 1.0058541e-38 299 250
-0.027036399 0.77100003 -0.013518199 9.9681436e-39 300 250
-0.02568458 0.77100003 -0.013518199 1.0244731e-38 301 250
-0.024269639 0.76899999 -0.013483133 1.0245801e-38 302 250
-0.022921326 0.76899999 -0.013483133 1.0338355e-38 303 250
-0.021629119 0.77100003 -0.013518199 1.0889008e-38 304 250
-0.0202247 0.76899999 -0.013483133 1.0889008e-38 305 250
-0.018876385 0.76899999 -0.013483133 1.1072321e-38 306 250
-0.017482487 0.76700002 -0.013448066 1.1072321e-38 307 250
-0.01613768 0.76700002 -0.013448066 1.0428399e-38 308 250
-0.014773586 0.76599997 -0.013430533 9.967422e-39 309 250
-0.013430533 0.76599997 -0.013430533 1.0336261e-38 310 250
-0.01205592 0.764 -0.013395466 1.1626999e-38 311 250
-0.010716373 0.764 -0.013395466 1.2724423e-38 312 250
-0.0093768267 0.764 -0.013395466 1.0603923e-38 313 250
-0.0080372803 0.764 -0.013395466 1.2448931e-38 314 250
-0.006697733 0.764 -0.013395466 1.373967e-38 315 250
-0.0053441599 0.76200002 -0.0133604 1.2082996e-38 316 250
-0.0040081199 0.76200002 -0.0133604 1.0608226e-38 317 250
-0.00267208 0.76200002 -0.0133604 1.0148279e-38 318 250
-0.00133604 0.76200002 -0.0133604 9.4103554e-39 319 250
0 0.76200002 -0.0133604 7.7511549e-39 320 250
0.00133604 0.76200002 -0.0133604 7.8433506e-39 321 250
0.00267208 0.76200002 -0.0133604 8.0320382e-39 322 250
0.0040291594 0.76599997 -0.013430533 8.0320382e-39 323 250
0.0053722127 0.76599997 -0.013430533 8.2142659e-39 324 250
0.006724033 0.76700002 -0.013448066 8.1217101e-39 325 250
0.00806884 0.76700002 -0.013448066 8.2131827e-39 326 250
0.0094136465 0.76700002 -0.013448066 8.120987e-39 327 250
0.010786506 0.76899999 -0.013483133 8.1206339e-39 328 250
0.012134819 0.76899999 -0.013483133 8.1206339e-39 329 250
0.013483133 0.76899999 -0.013483133 8.4876214e-39 330 250
0.014831445 0.76899999 -0.013483133 8.579817e-39 331 250
0.016221842 0.77100003 -0.013518199 8.8553319e-39 332 250
0.01757366 0.77100003 -0.013518199 9.0397231e-39 333 250
0.018974574 0.773 -0.013553266 9.1326545e-39 334 250
-0.032443684 0.77100003 -0.01487002 1.0884733e-38 296 251
-0.031091858 0.77100003 -0.01487002 1.0515592e-38 297 251
-0.029817186 0.773 -0.014908593 1.024078e-38 298 251
-0.028388219 0.77100003 -0.01487002 1.024078e-38 299 251
-0.027036399 0.77100003 -0.01487002 1.0058544e-38 300 251
-0.02568458 0.77100003 -0.01487002 1.0335131e-38 301 251
-0.024269639 0.76899999 -0.014831445 1.0612064e-38 302 251
-0.022921326 0.76899999 -0.014831445 1.0704261e-38 303 251
-0.021629119 0.77100003 -0.01487002 1.0796807e-38 304 251
-0.0202247 0.76899999 -0.014831445 1.0796807e-38 305 251
-0.018876385 0.76899999 -0.014831445 1.0796443e-38 306 251
-0.017482487 0.76700002 -0.014792874 1.0704247e-38 307 251
-0.01613768 0.76700002 -0.014792874 1.0244711e-38 308 251
-0.014792874 0.76700002 -0.014792874 9.9681254e-39 309 251
-0.013448066 0.76700002 -0.014792874 9.9674402e-39 310 251
-0.012087479 0.76599997 -0.014773586 1.0059636e-38 311 251
-0.010716373 0.764 -0.014735013 9.8742272e-39 312 251
-0.0093768267 0.764 -0.014735013 1.0058977e-38 313 251
-0.0080583189 0.76599997 -0.014773586 1.0884081e-38 314 251
-0.0067152665 0.76599997 -0.014773586 1.0515299e-38 315 251
-0.0053581866 0.764 -0.014735013 8.2215092e-39 316 251
-0.0040186401 0.764 -0.014735013 7.1148029e-39 317 251
-0.00267208 0.76200002 -0.01469644 8.8581989e-39 318 251
-0.00133604 0.76200002 -0.01469644 9.0425916e-39 319 251
0 0.764 -0.014735013 7.7543597e-39 320 251
0.0013430532 0.76599997 -0.014773586 7.9383908e-39 321 251
0.0026861064 0.76599997 -0.014773586 8.0316641e-39 322 251
0.0040291594 0.76599997 -0.014773586 7.9394684e-39 323 251
0.0053792265 0.76700002 -0.014792874 8.122066e-39 324 251
0.0067415666 0.76899999 -0.014831445 8.122066e-39 325 251
0.0080898795 0.76899999 -0.014831445 8.3053783e-39 326 251
0.0094381925 0.76899999 -0.014831445 8.2131827e-39 327 251
0.010786506 0.76899999 -0.014831445 8.2128323e-39 328 251
0.012134819 0.76899999 -0.014831445 8.397225e-39 329 251
0.013518199 0.77100003 -0.01487002 8.4890675e-39 330 251
0.01487002 0.77100003 -0.01487002 8.5812631e-39 331 251
0.016263919 0.773 -0.014908593 8.9478905e-39 332 251
0.017619247 0.773 -0.014908593 9.2248375e-39 333 251
0.018999118 0.77399999 -0.014927879 9.1337391e-39 334 251
-0.03117251 0.773 -0.016263919 1.088403e-38 297 252
-0.029817186 0.773 -0.016263919 1.0699968e-38 298 252
-0.028461859 0.773 -0.016263919 1.0515575e-38 299 252
-0.027106533 0.773 -0.016263919 1.0058191e-38 300 252
-0.025751207 0.773 -0.016263919 1.0150387e-38 301 252
-0.024395877 0.773 -0.016263919 9.9677905e-39 302 252
-0.023040552 0.773 -0.016263919 1.0152182e-38 303 252
-0.021685226 0.773 -0.016263919 1.0428399e-38 304 252
-0.020277301 0.77100003 -0.016221842 1.0428399e-38 305 252
-0.018925481 0.77100003 -0.016221842 1.0336551e-38 306 252
-0.017528072 0.76899999 -0.016179759 1.0336551e-38 307 252
-0.016179759 0.76899999 -0.016179759 9.9688471e-39 308 252
-0.014792874 0.76700002 -0.01613768 9.8766515e-39 309 252
-0.013448066 0.76700002 -0.01613768 9.6000674e-39 310 252
-0.01210326 0.76700002 -0.01613768 9.3231217e-39 311 252
-0.010744425 0.76599997 -0.016116638 9.2305786e-39 312 252
-0.0094013726 0.76599997 -0.016116638 9.5071655e-39 313 252
-0.0080583189 0.76599997 -0.016116638 9.413172e-39 314 252
-0.0067152665 0.76599997 -0.016116638 8.5834099e-39 315 252
-0.0053722127 0.76599997 -0.016116638 7.8505e-39 316 252
-0.0040186401 0.764 -0.016074561 7.5735586e-39 317 252
-0.0026790933 0.764 -0.016074561 8.3997235e-39 318 252
-0.0013430532 0.76599997 -0.016116638 8.676309e-39 319 252
0 0.76700002 -0.01613768 8.5823197e-39 320 252
0.0013448066 0.76700002 -0.01613768 8.4901241e-39 321 252
