# .PCD v.7 - Point Cloud Data file format
FIELDS x y z rgb imX imY
SIZE 4 4 4 4 4 4
TYPE F F F F F F
COUNT 1 1 1 1 1 1
WIDTH 861
HEIGHT 1
VIEWPOINT 0 0 0 1 0 0 0
POINTS 861
DATA ascii
0.022414612 0.75199997 0.010548052 1.5852026e-38 337 232
0.023733119 0.75199997 0.010548052 1.5850591e-38 338 232
0.025051624 0.75199997 0.010548052 1.5850591e-38 339 232
0.026440267 0.75400001 0.010576107 1.5665844e-38 340 232
0.027762281 0.75400001 0.010576107 1.557365e-38 341 232
0.029084291 0.75400001 0.010576107 1.5481097e-38 342 232
0.030406307 0.75400001 0.010576107 1.5388544e-38 343 232
0.031770397 0.755 0.010590133 1.4837172e-38 344 232
0.033181835 0.75700003 0.010618187 1.4560231e-38 345 232
0.034691449 0.76099998 0.010674292 1.419289e-38 346 232
0.036025736 0.76099998 0.010674292 1.3824112e-38 347 232
0.037409119 0.76200002 0.01068832 1.3823424e-38 348 232
0.038846854 0.764 0.010716373 1.4007815e-38 349 232
-0.037949149 0.773 0.0094872871 1.7238746e-38 292 233
-0.036404461 0.76899999 0.0094381925 1.6685572e-38 293 233
-0.035056144 0.76899999 0.0094381925 1.6500767e-38 294 233
-0.033620168 0.76700002 0.0094136465 1.6500767e-38 295 233
-0.03227536 0.76700002 0.0094136465 1.6685824e-38 296 233
-0.030890226 0.76599997 0.0094013726 1.6685824e-38 297 233
-0.029392879 0.76200002 0.0093522798 1.6686878e-38 298 233
-0.028020019 0.76099998 0.0093400059 1.6779074e-38 299 233
-0.026685731 0.76099998 0.0093400059 1.6871978e-38 300 233
-0.025284819 0.759 0.00931546 1.6964174e-38 301 233
-0.023954039 0.759 0.00931546 1.7331152e-38 302 233
-0.02262326 0.759 0.00931546 1.7423347e-38 303 233
-0.021236373 0.75700003 0.0092909131 1.751553e-38 304 233
-0.019909101 0.75700003 0.0092909131 1.751553e-38 305 233
-0.018532733 0.755 0.0092663663 1.7606984e-38 306 233
-0.017208965 0.755 0.0092663663 1.7330037e-38 307 233
-0.015885198 0.755 0.0092663663 1.7604436e-38 308 233
-0.014561433 0.755 0.0092663663 1.7236016e-38 309 233
-0.013237666 0.755 0.0092663663 1.7143463e-38 310 233
-0.011913899 0.755 0.0092663663 1.7051269e-38 311 233
-0.010590133 0.755 0.0092663663 1.705091e-38 312 233
-0.0092540924 0.75400001 0.0092540924 1.6958716e-38 313 233
-0.00793208 0.75400001 0.0092540924 1.7141311e-38 314 233
-0.0065925326 0.75199997 0.0092295464 1.7049116e-38 315 233
-0.0052740262 0.75199997 0.0092295464 1.6957998e-38 316 233
-0.0039555198 0.75199997 0.0092295464 1.7234222e-38 317 233
-0.00263 0.75 0.0092049995 1.750937e-38 318 233
-0.001315 0.75 0.0092049995 1.750937e-38 319 233
0 0.75 0.0092049995 1.750937e-38 320 233
0.001315 0.75 0.0092049995 1.7693759e-38 321 233
0.00263 0.75 0.0092049995 1.7601206e-38 322 233
0.003945 0.75 0.0092049995 1.7969982e-38 323 233
0.0052529867 0.74900001 0.0091927266 1.778667e-38 324 233
0.0065662335 0.74900001 0.0091927266 1.7971059e-38 325 233
0.0078794798 0.74900001 0.0091927266 1.7788464e-38 326 233
0.0091927266 0.74900001 0.0091927266 1.7880659e-38 327 233
0.010505973 0.74900001 0.0091927266 1.7788464e-38 328 233
0.01181922 0.74900001 0.0091927266 1.769627e-38 329 233
0.013132467 0.74900001 0.0091927266 1.7602282e-38 330 233
0.014445714 0.74900001 0.0091927266 1.7325699e-38 331 233
0.01575896 0.74900001 0.0091927266 1.6866522e-38 332 233
0.017072206 0.74900001 0.0091927266 1.6866522e-38 333 233
0.018385453 0.74900001 0.0091927266 1.6681057e-38 334 233
0.019724999 0.75 0.0092049995 1.6588863e-38 335 233
0.02104 0.75 0.0092049995 1.6220086e-38 336 233
0.022355 0.75 0.0092049995 1.6035339e-38 337 233
0.023733119 0.75199997 0.0092295464 1.5850233e-38 338 233
0.025051624 0.75199997 0.0092295464 1.5666203e-38 339 233
0.026440267 0.75400001 0.0092540924 1.5573291e-38 340 233
0.027762281 0.75400001 0.0092540924 1.5481097e-38 341 233
0.029084291 0.75400001 0.0092540924 1.5481097e-38 342 233
0.030406307 0.75400001 0.0092540924 1.5296709e-38 343 233
0.031770397 0.755 0.0092663663 1.4928649e-38 344 233
0.033181835 0.75700003 0.0092909131 1.4744261e-38 345 233
0.034600276 0.759 0.00931546 1.4375842e-38 346 233
0.036025736 0.76099998 0.0093400059 1.4099619e-38 347 233
0.037409119 0.76200002 0.0093522798 1.373266e-38 348 233
0.038846854 0.764 0.0093768267 1.3824856e-38 349 233
-0.039355319 0.77399999 0.0081424797 1.7514636e-38 291 234
-0.037949149 0.773 0.0081319595 1.7147273e-38 292 234
-0.036404461 0.76899999 0.0080898795 1.6686295e-38 293 234
-0.035056144 0.76899999 0.0080898795 1.6409298e-38 294 234
-0.033620168 0.76700002 0.00806884 1.6317102e-38 295 234
-0.03227536 0.76700002 0.00806884 1.6502515e-38 296 234
-0.030890226 0.76599997 0.0080583189 1.6502515e-38 297 234
-0.029470026 0.764 0.0080372803 1.6962023e-38 298 234
-0.028020019 0.76099998 0.0080057196 1.6962023e-38 299 234
-0.026685731 0.76099998 0.0080057196 1.7054569e-38 300 234
-0.025284819 0.759 0.0079846792 1.7147123e-38 301 234
-0.02389092 0.75700003 0.0079636406 1.7332233e-38 302 234
-0.022563647 0.75700003 0.0079636406 1.7332233e-38 303 234
-0.021236373 0.75700003 0.0079636406 1.7608099e-38 304 234
-0.019909101 0.75700003 0.0079636406 1.7515543e-38 305 234
-0.018532733 0.755 0.0079425992 1.7608079e-38 306 234
-0.017208965 0.755 0.0079425992 1.7146741e-38 307 234
-0.015885198 0.755 0.0079425992 1.7421867e-38 308 234
-0.014561433 0.755 0.0079425992 1.714528e-38 309 234
-0.013220133 0.75400001 0.00793208 1.7053431e-38 310 234
-0.01189812 0.75400001 0.00793208 1.7145628e-38 311 234
-0.010576107 0.75400001 0.00793208 1.7605533e-38 312 234
-0.0092295464 0.75199997 0.0079110395 1.7697728e-38 313 234
-0.0079110395 0.75199997 0.0079110395 1.7970357e-38 314 234
-0.0065925326 0.75199997 0.0079110395 1.787816e-38 315 234
-0.00526 0.75 0.00789 1.7880327e-38 316 234
-0.003945 0.75 0.00789 1.8340947e-38 317 234
-0.00263 0.75 0.00789 1.8432079e-38 318 234
-0.001315 0.75 0.00789 1.8247329e-38 319 234
0 0.75 0.00789 1.8248021e-38 320 234
0.0013132467 0.74900001 0.0078794798 1.7971075e-38 321 234
0.0026264933 0.74900001 0.0078794798 1.7788111e-38 322 234
0.0039397399 0.74900001 0.0078794798 1.7880665e-38 323 234
0.0052529867 0.74900001 0.0078794798 1.806399e-38 324 234
0.0065662335 0.74900001 0.0078794798 1.7879959e-38 325 234
0.0078794798 0.74900001 0.0078794798 1.788069e-38 326 234
0.0091927266 0.74900001 0.0078794798 1.788069e-38 327 234
0.010505973 0.74900001 0.0078794798 1.7787779e-38 328 234
0.01181922 0.74900001 0.0078794798 1.7787779e-38 329 234
0.013132467 0.74900001 0.0078794798 1.7693768e-38 330 234
0.014445714 0.74900001 0.0078794798 1.7509018e-38 331 234
0.01575896 0.74900001 0.0078794798 1.6960151e-38 332 234
0.017072206 0.74900001 0.0078794798 1.6591015e-38 333 234
0.018385453 0.74900001 0.0078794798 1.6682492e-38 334 234
0.019724999 0.75 0.00789 1.6313715e-38 335 234
0.02104 0.75 0.00789 1.6220086e-38 336 234
0.022355 0.75 0.00789 1.5851668e-38 337 234
0.023733119 0.75199997 0.0079110395 1.566692e-38 338 234
0.025051624 0.75199997 0.0079110395 1.5574726e-38 339 234
0.026440267 0.75400001 0.00793208 1.5574367e-38 340 234
0.027762281 0.75400001 0.00793208 1.5574367e-38 341 234
0.029084291 0.75400001 0.00793208 1.5389262e-38 342 234
0.030446632 0.755 0.0079425992 1.5205232e-38 343 234
0.031770397 0.755 0.0079425992 1.4745696e-38 344 234
0.033094164 0.755 0.0079425992 1.4376919e-38 345 234
0.034509107 0.75700003 0.0079636406 1.4284367e-38 346 234
0.035931058 0.759 0.0079846792 1.4192171e-38 347 234
0.037409119 0.76200002 0.0080162399 1.3824503e-38 348 234
0.038846854 0.764 0.0080372803 1.4192927e-38 349 234
0.040186398 0.764 0.0080372803 1.3917842e-38 350 234
-0.039304473 0.773 0.0067766332 1.7330605e-38 291 235
-0.037949149 0.773 0.0067766332 1.705508e-38 292 235
-0.036499143 0.77100003 0.0067590997 1.6778135e-38 293 235
-0.035056144 0.76899999 0.0067415666 1.6410018e-38 294 235
-0.033707831 0.76899999 0.0067415666 1.6225625e-38 295 235
-0.03227536 0.76700002 0.006724033 1.6502515e-38 296 235
-0.030890226 0.76599997 0.0067152665 1.640996e-38 297 235
-0.029470026 0.764 0.006697733 1.6594328e-38 298 235
-0.028020019 0.76099998 0.0066714329 1.6686525e-38 299 235
-0.026685731 0.76099998 0.0066714329 1.6962742e-38 300 235
-0.025284819 0.759 0.0066538998 1.7147133e-38 301 235
-0.02389092 0.75700003 0.0066363667 1.7331883e-38 302 235
-0.022563647 0.75700003 0.0066363667 1.7331883e-38 303 235
-0.021236373 0.75700003 0.0066363667 1.7608461e-38 304 235
-0.0198565 0.755 0.0066188332 1.7608461e-38 305 235
-0.018532733 0.755 0.0066188332 1.7608432e-38 306 235
-0.017208965 0.755 0.0066188332 1.7331486e-38 307 235
-0.015885198 0.755 0.0066188332 1.7330741e-38 308 235
-0.014542146 0.75400001 0.0066100666 1.7238545e-38 309 235
-0.013220133 0.75400001 0.0066100666 1.7330372e-38 310 235
-0.01189812 0.75400001 0.0066100666 1.7330372e-38 311 235
-0.010576107 0.75400001 0.0066100666 1.751512e-38 312 235
-0.0092295464 0.75199997 0.0065925326 1.7422924e-38 313 235
-0.00789 0.75 0.006575 1.7696281e-38 314 235
-0.006575 0.75 0.006575 1.7881031e-38 315 235
-0.00526 0.75 0.006575 1.7973246e-38 316 235
-0.0039397399 0.74900001 0.0065662335 1.8249833e-38 317 235
-0.0026264933 0.74900001 0.0065662335 1.8524274e-38 318 235
-0.0013132467 0.74900001 0.0065662335 1.8432079e-38 319 235
0 0.74900001 0.0065662335 1.806399e-38 320 235
0.0013132467 0.74900001 0.0065662335 1.7787763e-38 321 235
0.0026264933 0.74900001 0.0065662335 1.8063977e-38 322 235
0.0039397399 0.74900001 0.0065662335 1.7971782e-38 323 235
0.0052529867 0.74900001 0.0065662335 1.7788129e-38 324 235
0.0065662335 0.74900001 0.0065662335 1.7880325e-38 325 235
0.0078794798 0.74900001 0.0065662335 1.7696312e-38 326 235
0.0091927266 0.74900001 0.0065662335 1.7696312e-38 327 235
0.010477919 0.74699998 0.0065486995 1.7787425e-38 328 235
0.011787659 0.74699998 0.0065486995 1.7971817e-38 329 235
0.013132467 0.74900001 0.0065662335 1.7787763e-38 330 235
0.014407139 0.74699998 0.0065486995 1.7510816e-38 331 235
0.015716879 0.74699998 0.0065486995 1.7143822e-38 332 235
0.017072206 0.74900001 0.0065662335 1.6775045e-38 333 235
0.018385453 0.74900001 0.0065662335 1.6591374e-38 334 235
0.0196987 0.74900001 0.0065662335 1.6130403e-38 335 235
0.021011947 0.74900001 0.0065662335 1.6037132e-38 336 235
0.022355 0.75 0.006575 1.5760191e-38 337 235
0.023733119 0.75199997 0.0065925326 1.566692e-38 338 235
0.025051624 0.75199997 0.0065925326 1.5574726e-38 339 235
0.026440267 0.75400001 0.0066100666 1.5574367e-38 340 235
0.027762281 0.75400001 0.0066100666 1.5482173e-38 341 235
0.029084291 0.75400001 0.0066100666 1.5205591e-38 342 235
0.030446632 0.755 0.0066188332 1.5113038e-38 343 235
0.031770397 0.755 0.0066188332 1.4928649e-38 344 235
0.033094164 0.755 0.0066188332 1.4559872e-38 345 235
0.034509107 0.75700003 0.0066363667 1.4375484e-38 346 235
0.035931058 0.759 0.0066538998 1.4375484e-38 347 235
0.037360024 0.76099998 0.0066714329 1.3825219e-38 348 235
0.038846854 0.764 0.006697733 1.400997e-38 349 235
0.040186398 0.764 0.006697733 1.3916756e-38 350 235
-0.039304473 0.773 0.0054213065 1.7330605e-38 291 236
-0.037949149 0.773 0.0054213065 1.6779935e-38 292 236
-0.036499143 0.77100003 0.0054072798 1.6318959e-38 293 236
-0.035056144 0.76899999 0.0053932532 1.631747e-38 294 236
-0.033707831 0.76899999 0.0053932532 1.6225275e-38 295 236
-0.03227536 0.76700002 0.0053792265 1.6410329e-38 296 236
-0.030890226 0.76599997 0.0053722127 1.6226298e-38 297 236
-0.029470026 0.764 0.0053581866 1.6593612e-38 298 236
-0.028056841 0.76200002 0.0053441599 1.6685809e-38 299 236
-0.026685731 0.76099998 0.0053371461 1.6778355e-38 300 236
-0.025284819 0.759 0.0053231199 1.705494e-38 301 236
-0.02389092 0.75700003 0.0053090933 1.7056019e-38 302 236
-0.022563647 0.75700003 0.0053090933 1.7424443e-38 303 236
-0.021180267 0.755 0.0052950666 1.7517713e-38 304 236
-0.0198565 0.755 0.0052950666 1.7425518e-38 305 236
-0.018532733 0.755 0.0052950666 1.7609168e-38 306 236
-0.017186172 0.75400001 0.0052880533 1.714819e-38 307 236
-0.01586416 0.75400001 0.0052880533 1.7423682e-38 308 236
-0.014542146 0.75400001 0.0052880533 1.7239291e-38 309 236
-0.013220133 0.75400001 0.0052880533 1.7331123e-38 310 236
-0.01189812 0.75400001 0.0052880533 1.7331123e-38 311 236
-0.010548052 0.75199997 0.0052740262 1.7698454e-38 312 236
-0.0092295464 0.75199997 0.0052740262 1.7698454e-38 313 236
-0.00789 0.75 0.00526 1.7973595e-38 314 236
-0.006575 0.75 0.00526 1.7973595e-38 315 236
-0.00526 0.75 0.00526 1.7882124e-38 316 236
-0.0039397399 0.74900001 0.0052529867 1.7882124e-38 317 236
-0.0026264933 0.74900001 0.0052529867 1.8248754e-38 318 236
-0.0013132467 0.74900001 0.0052529867 1.8064723e-38 319 236
0 0.74900001 0.0052529867 1.8156191e-38 320 236
0.0013132467 0.74900001 0.0052529867 1.7879606e-38 321 236
0.0026264933 0.74900001 0.0052529867 1.8063637e-38 322 236
0.0039397399 0.74900001 0.0052529867 1.7879606e-38 323 236
0.0052529867 0.74900001 0.0052529867 1.7604829e-38 324 236
0.0065662335 0.74900001 0.0052529867 1.7604829e-38 325 236
0.0078794798 0.74900001 0.0052529867 1.7604482e-38 326 236
0.0091681797 0.74699998 0.0052389596 1.7512286e-38 327 236
0.010477919 0.74699998 0.0052389596 1.7696312e-38 328 236
0.011787659 0.74699998 0.0052389596 1.7696312e-38 329 236
0.013097399 0.74699998 0.0052389596 1.7604814e-38 330 236
0.014407139 0.74699998 0.0052389596 1.7328226e-38 331 236
0.015716879 0.74699998 0.0052389596 1.7236377e-38 332 236
0.017026618 0.74699998 0.0052389596 1.6775404e-38 333 236
0.018336359 0.74699998 0.0052389596 1.6407703e-38 334 236
0.0196987 0.74900001 0.0052529867 1.6130761e-38 335 236
0.021011947 0.74900001 0.0052529867 1.603785e-38 336 236
0.022355 0.75 0.00526 1.5669073e-38 337 236
0.023669999 0.75 0.00526 1.5667638e-38 338 236
0.025051624 0.75199997 0.0052740262 1.5391414e-38 339 236
0.02637013 0.75199997 0.0052740262 1.5298502e-38 340 236
0.027762281 0.75400001 0.0052880533 1.5206308e-38 341 236
0.029084291 0.75400001 0.0052880533 1.5205232e-38 342 236
0.030446632 0.755 0.0052950666 1.492829e-38 343 236
0.031770397 0.755 0.0052950666 1.4836096e-38 344 236
0.033094164 0.755 0.0052950666 1.4559513e-38 345 236
0.034509107 0.75700003 0.0053090933 1.4284011e-38 346 236
0.035931058 0.759 0.0053231199 1.4284011e-38 347 236
0.037360024 0.76099998 0.0053371461 1.3824869e-38 348 236
0.038846854 0.764 0.0053581866 1.400962e-38 349 236
0.040186398 0.764 0.0053581866 1.4192634e-38 350 236
-0.037949149 0.773 0.0040659797 1.6779219e-38 292 237
-0.036499143 0.77100003 0.0040554604 1.6502274e-38 293 237
-0.035056144 0.76899999 0.0040449398 1.6317117e-38 294 237
-0.033707831 0.76899999 0.0040449398 1.6224922e-38 295 237
-0.03227536 0.76700002 0.00403442 1.6409976e-38 296 237
-0.030930554 0.76700002 0.00403442 1.6225945e-38 297 237
-0.029547172 0.76599997 0.0040291594 1.6501782e-38 298 237
-0.028056841 0.76200002 0.0040081199 1.6501782e-38 299 237
-0.026685731 0.76099998 0.0040028598 1.6502488e-38 300 237
-0.025284819 0.759 0.0039923396 1.6779076e-38 301 237
-0.02389092 0.75700003 0.0039818203 1.6871272e-38 302 237
-0.022563647 0.75700003 0.0039818203 1.733225e-38 303 237
-0.021180267 0.755 0.0039712996 1.7517363e-38 304 237
-0.0198565 0.755 0.0039712996 1.7609559e-38 305 237
-0.018532733 0.755 0.0039712996 1.7701386e-38 306 237
-0.017186172 0.75400001 0.00396604 1.760919e-38 307 237
-0.01586416 0.75400001 0.00396604 1.7517698e-38 308 237
-0.014542146 0.75400001 0.00396604 1.7333307e-38 309 237
-0.013220133 0.75400001 0.00396604 1.7699198e-38 310 237
-0.01189812 0.75400001 0.00396604 1.7699198e-38 311 237
-0.010548052 0.75199997 0.0039555198 1.769883e-38 312 237
-0.0092295464 0.75199997 0.0039555198 1.769883e-38 313 237
-0.00789 0.75 0.003945 1.7790297e-38 314 237
-0.006575 0.75 0.003945 1.7790297e-38 315 237
-0.0052529867 0.74900001 0.0039397399 1.7881774e-38 316 237
-0.0039397399 0.74900001 0.0039397399 1.7881774e-38 317 237
-0.0026264933 0.74900001 0.0039397399 1.8065442e-38 318 237
-0.0013132467 0.74900001 0.0039397399 1.7973246e-38 319 237
0 0.74900001 0.0039397399 1.8156188e-38 320 237
0.0013132467 0.74900001 0.0039397399 1.8063993e-38 321 237
0.0026264933 0.74900001 0.0039397399 1.7880325e-38 322 237
0.0039397399 0.74900001 0.0039397399 1.7788129e-38 323 237
0.0052529867 0.74900001 0.0039397399 1.742152e-38 324 237
0.0065662335 0.74900001 0.0039397399 1.742152e-38 325 237
0.0078794798 0.74900001 0.0039397399 1.7421167e-38 326 237
0.0091681797 0.74699998 0.0039292197 1.7421167e-38 327 237
0.010477919 0.74699998 0.0039292197 1.7512281e-38 328 237
0.011787659 0.74699998 0.0039292197 1.7604476e-38 329 237
0.013097399 0.74699998 0.0039292197 1.7512984e-38 330 237
0.014407139 0.74699998 0.0039292197 1.7144562e-38 331 237
0.015716879 0.74699998 0.0039292197 1.7053068e-38 332 237
0.017026618 0.74699998 0.0039292197 1.6592091e-38 333 237
0.018336359 0.74699998 0.0039292197 1.6407703e-38 334 237
0.0196987 0.74900001 0.0039397399 1.6130761e-38 335 237
0.021011947 0.74900001 0.0039397399 1.6037491e-38 336 237
0.022355 0.75 0.003945 1.5853103e-38 337 237
0.023669999 0.75 0.003945 1.5576161e-38 338 237
0.025051624 0.75199997 0.0039555198 1.5391773e-38 339 237
0.02637013 0.75199997 0.0039555198 1.5205951e-38 340 237
0.027762281 0.75400001 0.00396604 1.5113755e-38 341 237
0.029084291 0.75400001 0.00396604 1.4744978e-38 342 237
0.030446632 0.755 0.0039712996 1.4652784e-38 343 237
0.031770397 0.755 0.0039712996 1.4468395e-38 344 237
0.033094164 0.755 0.0039712996 1.4376201e-38 345 237
0.034509107 0.75700003 0.0039818203 1.4191818e-38 346 237
0.035931058 0.759 0.0039923396 1.4284014e-38 347 237
0.037360024 0.76099998 0.0040028598 1.3824516e-38 348 237
0.038846854 0.764 0.0040186401 1.4101463e-38 349 237
0.040186398 0.764 0.0040186401 1.4008969e-38 350 237
-0.036593821 0.773 0.0027106532 1.6594469e-38 293 238
-0.03514732 0.77100003 0.0027036399 1.640967e-38 294 238
-0.033707831 0.76899999 0.0026966266 1.6317473e-38 295 238
-0.032359518 0.76899999 0.0026966266 1.6409976e-38 296 238
-0.030930554 0.76700002 0.0026896133 1.6225945e-38 297 238
-0.029547172 0.76599997 0.0026861064 1.6593261e-38 298 238
-0.028130481 0.764 0.0026790933 1.6501066e-38 299 238
-0.0267208 0.76200002 0.00267208 1.6501416e-38 300 238
-0.025351444 0.76099998 0.0026685731 1.6685809e-38 301 238
-0.023954039 0.759 0.00266156 1.6870922e-38 302 238
-0.022563647 0.75700003 0.0026545466 1.73319e-38 303 238
-0.021236373 0.75700003 0.0026545466 1.7332994e-38 304 238
-0.0198565 0.755 0.0026475333 1.7517387e-38 305 238
-0.018532733 0.755 0.0026475333 1.7886534e-38 306 238
-0.017186172 0.75400001 0.0026440267 1.8070926e-38 307 238
-0.01586416 0.75400001 0.0026440267 1.7978714e-38 308 238
-0.014542146 0.75400001 0.0026440267 1.7701768e-38 309 238
-0.013185065 0.75199997 0.0026370131 1.8068e-38 310 238
-0.011866559 0.75199997 0.0026370131 1.7883609e-38 311 238
-0.010548052 0.75199997 0.0026370131 1.7699198e-38 312 238
-0.0092049995 0.75 0.00263 1.7791394e-38 313 238
-0.00789 0.75 0.00263 1.8065805e-38 314 238
-0.006575 0.75 0.00263 1.7881774e-38 315 238
-0.0052529867 0.74900001 0.0026264933 1.7882124e-38 316 238
-0.0039397399 0.74900001 0.0026264933 1.7882124e-38 317 238
-0.0026264933 0.74900001 0.0026264933 1.8065792e-38 318 238
-0.0013132467 0.74900001 0.0026264933 1.7973595e-38 319 238
0 0.74900001 0.0026264933 1.8065422e-38 320 238
0.0013132467 0.74900001 0.0026264933 1.7881031e-38 321 238
0.0026264933 0.74900001 0.0026264933 1.7880678e-38 322 238
0.0039397399 0.74900001 0.0026264933 1.7880678e-38 323 238
0.0052389596 0.74699998 0.0026194798 1.7605185e-38 324 238
0.0065486995 0.74699998 0.0026194798 1.7605185e-38 325 238
0.0078794798 0.74900001 0.0026264933 1.751336e-38 326 238
0.0091681797 0.74699998 0.0026194798 1.7421164e-38 327 238
0.010477919 0.74699998 0.0026194798 1.7421167e-38 328 238
0.011787659 0.74699998 0.0026194798 1.7421167e-38 329 238
0.013097399 0.74699998 0.0026194798 1.7236773e-38 330 238
0.014407139 0.74699998 0.0026194798 1.7052381e-38 331 238
0.015716879 0.74699998 0.0026194798 1.6684305e-38 332 238
0.017072206 0.74900001 0.0026264933 1.6499555e-38 333 238
0.018385453 0.74900001 0.0026264933 1.6591015e-38 334 238
0.0196987 0.74900001 0.0026264933 1.6222238e-38 335 238
0.021011947 0.74900001 0.0026264933 1.603785e-38 336 238
0.022355 0.75 0.00263 1.5853461e-38 337 238
0.023733119 0.75199997 0.0026370131 1.5576161e-38 338 238
0.025051624 0.75199997 0.0026370131 1.5391773e-38 339 238
0.026440267 0.75400001 0.0026440267 1.520667e-38 340 238
0.027762281 0.75400001 0.0026440267 1.483789e-38 341 238
0.029084291 0.75400001 0.0026440267 1.4836096e-38 342 238
0.030446632 0.755 0.0026475333 1.4743902e-38 343 238
0.031770397 0.755 0.0026475333 1.4376201e-38 344 238
0.033094164 0.755 0.0026475333 1.4376201e-38 345 238
0.034509107 0.75700003 0.0026545466 1.4192181e-38 346 238
0.035931058 0.759 0.00266156 1.4192181e-38 347 238
0.03726184 0.759 0.00266156 1.3825239e-38 348 238
0.038745161 0.76200002 0.00267208 1.400963e-38 349 238
0.040081199 0.76200002 0.00267208 1.4285198e-38 350 238
-0.036499143 0.77100003 0.00135182 1.6594825e-38 293 239
-0.035056144 0.76899999 0.0013483133 1.6592632e-38 294 239
-0.033707831 0.76899999 0.0013483133 1.64086e-38 295 239
-0.032359518 0.76899999 0.0013483133 1.6501824e-38 296 239
-0.030930554 0.76700002 0.0013448066 1.6225597e-38 297 239
-0.029547172 0.76599997 0.0013430532 1.6592908e-38 298 239
-0.028130481 0.764 0.0013395466 1.6592908e-38 299 239
-0.0267208 0.76200002 0.00133604 1.6684726e-38 300 239
-0.025351444 0.76099998 0.0013342865 1.6869476e-38 301 239
-0.023954039 0.759 0.00133078 1.6962745e-38 302 239
-0.022563647 0.75700003 0.0013272733 1.7239331e-38 303 239
-0.021236373 0.75700003 0.0013272733 1.7423389e-38 304 239
-0.0198565 0.755 0.0013237667 1.8068759e-38 305 239
-0.018532733 0.755 0.0013237667 1.807167e-38 306 239
-0.017186172 0.75400001 0.0013220133 1.8532649e-38 307 239
-0.01586416 0.75400001 0.0013220133 1.871704e-38 308 239
-0.014542146 0.75400001 0.0013220133 1.8256063e-38 309 239
-0.013185065 0.75199997 0.0013185065 1.8621932e-38 310 239
-0.011866559 0.75199997 0.0013185065 1.8068759e-38 311 239
-0.010548052 0.75199997 0.0013185065 1.7975815e-38 312 239
-0.0092049995 0.75 0.001315 1.7791784e-38 313 239
-0.00789 0.75 0.001315 1.8159114e-38 314 239
-0.006575 0.75 0.001315 1.8159114e-38 315 239
-0.0052529867 0.74900001 0.0013132467 1.7975434e-38 316 239
-0.0039397399 0.74900001 0.0013132467 1.7791041e-38 317 239
-0.0026264933 0.74900001 0.0013132467 1.7791028e-38 318 239
-0.0013132467 0.74900001 0.0013132467 1.7698474e-38 319 239
0 0.74900001 0.0013132467 1.8065805e-38 320 239
0.0013132467 0.74900001 0.0013132467 1.7789578e-38 321 239
0.0026264933 0.74900001 0.0013132467 1.7789578e-38 322 239
0.0039292197 0.74699998 0.0013097399 1.7697381e-38 323 239
0.0052389596 0.74699998 0.0013097399 1.7422236e-38 324 239
0.0065486995 0.74699998 0.0013097399 1.7422236e-38 325 239
0.0078584393 0.74699998 0.0013097399 1.7238573e-38 326 239
0.0091681797 0.74699998 0.0013097399 1.7238573e-38 327 239
0.010477919 0.74699998 0.0013097399 1.7146022e-38 328 239
0.011787659 0.74699998 0.0013097399 1.7146022e-38 329 239
0.013097399 0.74699998 0.0013097399 1.7052379e-38 330 239
0.014407139 0.74699998 0.0013097399 1.677615e-38 331 239
0.015716879 0.74699998 0.0013097399 1.6684305e-38 332 239
0.017072206 0.74900001 0.0013132467 1.640736e-38 333 239
0.018385453 0.74900001 0.0013132467 1.6223324e-38 334 239
0.0196987 0.74900001 0.0013132467 1.6038933e-38 335 239
0.021011947 0.74900001 0.0013132467 1.5946373e-38 336 239
0.022355 0.75 0.001315 1.5669432e-38 337 239
0.023733119 0.75199997 0.0013185065 1.5484327e-38 338 239
0.025051624 0.75199997 0.0013185065 1.5300296e-38 339 239
0.02637013 0.75199997 0.0013185065 1.4838607e-38 340 239
0.027762281 0.75400001 0.0013220133 1.4654578e-38 341 239
0.029084291 0.75400001 0.0013220133 1.4653143e-38 342 239
0.030446632 0.755 0.0013237667 1.4468395e-38 343 239
0.031770397 0.755 0.0013237667 1.4376201e-38 344 239
0.033094164 0.755 0.0013237667 1.4376201e-38 345 239
0.034509107 0.75700003 0.0013272733 1.4008153e-38 346 239
0.035931058 0.759 0.00133078 1.428438e-38 347 239
0.03726184 0.759 0.00133078 1.3824886e-38 348 239
0.038694311 0.76099998 0.0013342865 1.4194027e-38 349 239
0.040028598 0.76099998 0.0013342865 1.4562511e-38 350 239
-0.036499143 0.77100003 -0 1.6685942e-38 293 240
-0.035056144 0.76899999 -0 1.6593708e-38 294 240
-0.033707831 0.76899999 -0 1.631712e-38 295 240
-0.032359518 0.76899999 -0 1.6593654e-38 296 240
-0.030930554 0.76700002 -0 1.6409262e-38 297 240
-0.029547172 0.76599997 -0 1.6592905e-38 298 240
-0.028130481 0.764 -0 1.650071e-38 299 240
-0.026790932 0.764 -0 1.6684728e-38 300 240
-0.025351444 0.76099998 -0 1.6776924e-38 301 240
-0.023954039 0.759 -0 1.6503215e-38 302 240
-0.022563647 0.75700003 -0 1.6964192e-38 303 240
-0.021236373 0.75700003 -0 1.6964582e-38 304 240
-0.0198565 0.755 -0 1.7517755e-38 305 240
-0.018532733 0.755 -0 1.797949e-38 306 240
-0.017186172 0.75400001 -0 1.862486e-38 307 240
-0.01586416 0.75400001 -0 1.8809258e-38 308 240
-0.014542146 0.75400001 -0 1.8901454e-38 309 240
-0.013220133 0.75400001 -0 1.8992551e-38 310 240
-0.01189812 0.75400001 -0 1.8624128e-38 311 240
-0.010548052 0.75199997 -0 1.8807048e-38 312 240
-0.0092049995 0.75 -0 1.8438267e-38 313 240
-0.00789 0.75 -0 1.8436803e-38 314 240
-0.006575 0.75 -0 1.8160214e-38 315 240
-0.00526 0.75 -0 1.8160196e-38 316 240
-0.0039397399 0.74900001 -0 1.7883609e-38 317 240
-0.0026264933 0.74900001 -0 1.8067255e-38 318 240
-0.0013132467 0.74900001 -0 1.7698474e-38 319 240
0 0.74900001 -0 1.769918e-38 320 240
0.0013132467 0.74900001 -0 1.7606984e-38 321 240
0.0026264933 0.74900001 -0 1.7697745e-38 322 240
0.0039292197 0.74699998 -0 1.7513713e-38 323 240
0.0052389596 0.74699998 -0 1.7697031e-38 324 240
0.0065486995 0.74699998 -0 1.7789228e-38 325 240
0.0078584393 0.74699998 -0 1.742153e-38 326 240
0.0091681797 0.74699998 -0 1.742153e-38 327 240
0.010477919 0.74699998 -0 1.7146025e-38 328 240
0.011787659 0.74699998 -0 1.7053829e-38 329 240
0.013097399 0.74699998 -0 1.7052379e-38 330 240
0.014407139 0.74699998 -0 1.677615e-38 331 240
0.015716879 0.74699998 -0 1.6592109e-38 332 240
0.017072206 0.74900001 -0 1.640736e-38 333 240
0.018385453 0.74900001 -0 1.6314441e-38 334 240
0.0196987 0.74900001 -0 1.613005e-38 335 240
0.021011947 0.74900001 -0 1.5854179e-38 336 240
0.022355 0.75 -0 1.5577237e-38 337 240
0.023733119 0.75199997 -0 1.5667997e-38 338 240
0.025051624 0.75199997 -0 1.529922e-38 339 240
0.02637013 0.75199997 -0 1.5389979e-38 340 240
0.027762281 0.75400001 -0 1.4929008e-38 341 240
0.029084291 0.75400001 -0 1.4560948e-38 342 240
0.030446632 0.755 -0 1.437656e-38 343 240
0.031770397 0.755 -0 1.419253e-38 344 240
0.033181835 0.75700003 -0 1.419253e-38 345 240
0.034600276 0.759 -0 1.4008872e-38 346 240
0.035931058 0.759 -0 1.4101067e-38 347 240
0.03726184 0.759 -0 1.400928e-38 348 240
0.038592618 0.759 -0 1.4286227e-38 349 240
0.0399234 0.759 -0 1.4746908e-38 350 240
-0.036593821 0.773 -0.0013553266 1.6501921e-38 293 241
-0.03514732 0.77100003 -0.00135182 1.6502963e-38 294 241
-0.033795502 0.77100003 -0.00135182 1.6133822e-38 295 241
-0.032359518 0.76899999 -0.0013483133 1.6224891e-38 296 241
-0.030930554 0.76700002 -0.0013448066 1.6224891e-38 297 241
-0.029547172 0.76599997 -0.0013430532 1.6501078e-38 298 241
-0.028130481 0.764 -0.0013395466 1.6593275e-38 299 241
-0.026790932 0.764 -0.0013395466 1.6593609e-38 300 241
-0.025351444 0.76099998 -0.0013342865 1.6593609e-38 301 241
-0.023954039 0.759 -0.00133078 1.6411369e-38 302 241
-0.022563647 0.75700003 -0.0013272733 1.6779792e-38 303 241
-0.021236373 0.75700003 -0.0013272733 1.6688341e-38 304 241
-0.0198565 0.755 -0.0013237667 1.6965288e-38 305 241
-0.018532733 0.755 -0.0013237667 1.715079e-38 306 241
-0.017186172 0.75400001 -0.0013220133 1.7611769e-38 307 241
-0.01586416 0.75400001 -0.0013220133 1.8071686e-38 308 241
-0.014542146 0.75400001 -0.0013220133 1.8717055e-38 309 241
-0.013220133 0.75400001 -0.0013220133 1.8994721e-38 310 241
-0.01189812 0.75400001 -0.0013220133 1.8994721e-38 311 241
-0.010548052 0.75199997 -0.0013185065 1.9269861e-38 312 241
-0.0092049995 0.75 -0.001315 1.9177665e-38 313 241
-0.00789 0.75 -0.001315 1.8806345e-38 314 241
-0.006575 0.75 -0.001315 1.788439e-38 315 241
-0.00526 0.75 -0.001315 1.806839e-38 316 241
-0.0039397399 0.74900001 -0.0013132467 1.7791802e-38 317 241
-0.0026264933 0.74900001 -0.0013132467 1.7791784e-38 318 241
-0.0013132467 0.74900001 -0.0013132467 1.7515195e-38 319 241
0 0.74900001 -0.0013132467 1.7790691e-38 320 241
0.0013132467 0.74900001 -0.0013132467 1.7605941e-38 321 241
0.0026264933 0.74900001 -0.0013132467 1.7605931e-38 322 241
0.0039292197 0.74699998 -0.0013097399 1.7513376e-38 323 241
0.0052389596 0.74699998 -0.0013097399 1.7513729e-38 324 241
0.0065486995 0.74699998 -0.0013097399 1.7421532e-38 325 241
0.0078584393 0.74699998 -0.0013097399 1.723822e-38 326 241
0.0091681797 0.74699998 -0.0013097399 1.7330417e-38 327 241
0.010477919 0.74699998 -0.0013097399 1.6962359e-38 328 241
0.011787659 0.74699998 -0.0013097399 1.6870164e-38 329 241
0.013097399 0.74699998 -0.0013097399 1.6685048e-38 330 241
0.014407139 0.74699998 -0.0013097399 1.6500655e-38 331 241
0.01575896 0.74900001 -0.0013132467 1.6408091e-38 332 241
0.017072206 0.74900001 -0.0013132467 1.6223341e-38 333 241
0.018385453 0.74900001 -0.0013132467 1.5947829e-38 334 241
0.0196987 0.74900001 -0.0013132467 1.5763438e-38 335 241
0.02104 0.75 -0.001315 1.5854191e-38 336 241
0.022414612 0.75199997 -0.0013185065 1.5485409e-38 337 241
0.023733119 0.75199997 -0.0013185065 1.5299943e-38 338 241
0.025051624 0.75199997 -0.0013185065 1.511555e-38 339 241
0.02637013 0.75199997 -0.0013185065 1.5021561e-38 340 241
0.027762281 0.75400001 -0.0013220133 1.4837531e-38 341 241
0.029084291 0.75400001 -0.0013220133 1.456059e-38 342 241
0.030446632 0.755 -0.0013237667 1.4468395e-38 343 241
0.031770397 0.755 -0.0013237667 1.4008503e-38 344 241
0.033181835 0.75700003 -0.0013272733 1.4192534e-38 345 241
0.034600276 0.759 -0.00133078 1.4008168e-38 346 241
0.035931058 0.759 -0.00133078 1.4192561e-38 347 241
0.03726184 0.759 -0.00133078 1.4101481e-38 348 241
0.038592618 0.759 -0.00133078 1.4654296e-38 349 241
0.0399234 0.759 -0.00133078 1.4931302e-38 350 241
-0.03514732 0.77100003 -0.0027036399 1.6502977e-38 294 242
-0.033707831 0.76899999 -0.0026966266 1.6134553e-38 295 242
-0.032359518 0.76899999 -0.0026966266 1.6225257e-38 296 242
-0.030930554 0.76700002 -0.0026896133 1.6133061e-38 297 242
-0.029547172 0.76599997 -0.0026861064 1.6409963e-38 298 242
-0.028204117 0.76599997 -0.0026861064 1.6409963e-38 299 242
-0.026790932 0.764 -0.0026790933 1.6502488e-38 300 242
-0.025351444 0.76099998 -0.0026685731 1.6502488e-38 301 242
-0.023954039 0.759 -0.00266156 1.6228054e-38 302 242
-0.022563647 0.75700003 -0.0026545466 1.6504282e-38 303 242
-0.021236373 0.75700003 -0.0026545466 1.6596133e-38 304 242
-0.0198565 0.755 -0.0026475333 1.6780524e-38 305 242
-0.018532733 0.755 -0.0026475333 1.7056777e-38 306 242
-0.017186172 0.75400001 -0.0026440267 1.7517755e-38 307 242
-0.01586416 0.75400001 -0.0026440267 1.7518497e-38 308 242
-0.014542146 0.75400001 -0.0026440267 1.8163866e-38 309 242
-0.013220133 0.75400001 -0.0026440267 1.8900358e-38 310 242
-0.01189812 0.75400001 -0.0026440267 1.8992553e-38 311 242
-0.010548052 0.75199997 -0.0026370131 1.8992197e-38 312 242
-0.0092295464 0.75199997 -0.0026370131 1.8992197e-38 313 242
-0.00789 0.75 -0.00263 1.8530484e-38 314 242
-0.006575 0.75 -0.00263 1.779256e-38 315 242
-0.00526 0.75 -0.00263 1.797656e-38 316 242
-0.003945 0.75 -0.00263 1.7608136e-38 317 242
-0.0026264933 0.74900001 -0.0026264933 1.7699235e-38 318 242
-0.0013132467 0.74900001 -0.0026264933 1.7514842e-38 319 242
0 0.74900001 -0.0026264933 1.7698142e-38 320 242
0.0013132467 0.74900001 -0.0026264933 1.7605946e-38 321 242
0.0026264933 0.74900001 -0.0026264933 1.7605575e-38 322 242
0.0039397399 0.74900001 -0.0026264933 1.7513379e-38 323 242
0.0052529867 0.74900001 -0.0026264933 1.7513732e-38 324 242
0.0065662335 0.74900001 -0.0026264933 1.7513732e-38 325 242
0.0078794798 0.74900001 -0.0026264933 1.733042e-38 326 242
0.0091681797 0.74699998 -0.0026194798 1.7238223e-38 327 242
0.010477919 0.74699998 -0.0026194798 1.6962003e-38 328 242
0.011787659 0.74699998 -0.0026194798 1.6777612e-38 329 242
0.013097399 0.74699998 -0.0026194798 1.6684695e-38 330 242
0.014445714 0.74900001 -0.0026264933 1.6500302e-38 331 242
0.01575896 0.74900001 -0.0026264933 1.6224065e-38 332 242
0.017072206 0.74900001 -0.0026264933 1.6039676e-38 333 242
0.018385453 0.74900001 -0.0026264933 1.5947832e-38 334 242
0.0196987 0.74900001 -0.0026264933 1.5671245e-38 335 242
0.02104 0.75 -0.00263 1.5578328e-38 336 242
0.022414612 0.75199997 -0.0026370131 1.530138e-38 337 242
0.023733119 0.75199997 -0.0026370131 1.5299943e-38 338 242
0.025051624 0.75199997 -0.0026370131 1.493116e-38 339 242
0.026440267 0.75400001 -0.0026440267 1.5205591e-38 340 242
0.027762281 0.75400001 -0.0026440267 1.4836455e-38 341 242
0.029122867 0.755 -0.0026475333 1.456059e-38 342 242
0.030446632 0.755 -0.0026475333 1.4468395e-38 343 242
0.031854562 0.75700003 -0.0026545466 1.4009225e-38 344 242
0.033269498 0.759 -0.00266156 1.4009225e-38 345 242
0.034600276 0.759 -0.00266156 1.4100734e-38 346 242
0.035931058 0.759 -0.00266156 1.419293e-38 347 242
0.03726184 0.759 -0.00266156 1.4193326e-38 348 242
0.038694311 0.76099998 -0.0026685731 1.4838696e-38 349 242
0.040028598 0.76099998 -0.0026685731 1.5299728e-38 350 242
-0.033707831 0.76899999 -0.0040449398 1.6042002e-38 295 243
-0.032359518 0.76899999 -0.0040449398 1.6041597e-38 296 243
-0.030930554 0.76700002 -0.00403442 1.6041597e-38 297 243
-0.029547172 0.76599997 -0.0040291594 1.6409613e-38 298 243
-0.028204117 0.76599997 -0.0040291594 1.6409613e-38 299 243
-0.026790932 0.764 -0.0040186401 1.6318823e-38 300 243
-0.025351444 0.76099998 -0.0040028598 1.641102e-38 301 243
-0.023954039 0.759 -0.0039923396 1.6228054e-38 302 243
-0.02262326 0.759 -0.0039923396 1.6412086e-38 303 243
-0.02129248 0.759 -0.0039923396 1.6503934e-38 304 243
-0.019909101 0.75700003 -0.0039818203 1.6688325e-38 305 243
-0.018581826 0.75700003 -0.0039818203 1.6779818e-38 306 243
-0.017208965 0.755 -0.0039712996 1.6872373e-38 307 243
-0.015885198 0.755 -0.0039712996 1.705713e-38 308 243
-0.014542146 0.75400001 -0.00396604 1.7518109e-38 309 243
-0.013220133 0.75400001 -0.00396604 1.7885462e-38 310 243
-0.01189812 0.75400001 -0.00396604 1.7977657e-38 311 243
-0.010548052 0.75199997 -0.0039555198 1.7610322e-38 312 243
-0.0092295464 0.75199997 -0.0039555198 1.7610322e-38 313 243
-0.00789 0.75 -0.003945 1.7793266e-38 314 243
-0.006575 0.75 -0.003945 1.7517039e-38 315 243
-0.00526 0.75 -0.003945 1.7883647e-38 316 243
-0.0039397399 0.74900001 -0.0039397399 1.7699256e-38 317 243
-0.0026264933 0.74900001 -0.0039397399 1.7606692e-38 318 243
-0.0013132467 0.74900001 -0.0039397399 1.7514137e-38 319 243
0 0.74900001 -0.0039397399 1.7697791e-38 320 243
0.0013132467 0.74900001 -0.0039397399 1.7697791e-38 321 243
0.0026264933 0.74900001 -0.0039397399 1.7513748e-38 322 243
0.0039397399 0.74900001 -0.0039397399 1.7329717e-38 323 243
0.0052529867 0.74900001 -0.0039397399 1.7238234e-38 324 243
0.0065662335 0.74900001 -0.0039397399 1.7238234e-38 325 243
0.0078794798 0.74900001 -0.0039397399 1.723824e-38 326 243
0.0091927266 0.74900001 -0.0039397399 1.723824e-38 327 243
0.010505973 0.74900001 -0.0039397399 1.6961656e-38 328 243
0.01181922 0.74900001 -0.0039397399 1.668471e-38 329 243
0.013132467 0.74900001 -0.0039397399 1.6592149e-38 330 243
0.014445714 0.74900001 -0.0039397399 1.6499952e-38 331 243
0.01575896 0.74900001 -0.0039397399 1.6315911e-38 332 243
0.017072206 0.74900001 -0.0039397399 1.6039325e-38 333 243
0.018409999 0.75 -0.003945 1.5856002e-38 334 243
0.019724999 0.75 -0.003945 1.5487579e-38 335 243
0.02104 0.75 -0.003945 1.5761287e-38 336 243
0.022414612 0.75199997 -0.0039555198 1.5392863e-38 337 243
0.023733119 0.75199997 -0.0039555198 1.5391059e-38 338 243
0.025051624 0.75199997 -0.0039555198 1.5022637e-38 339 243
0.026440267 0.75400001 -0.00396604 1.5021561e-38 340 243
0.027762281 0.75400001 -0.00396604 1.4744978e-38 341 243
0.029122867 0.755 -0.0039712996 1.4284011e-38 342 243
0.030446632 0.755 -0.0039712996 1.4284011e-38 343 243
0.031854562 0.75700003 -0.0039818203 1.4191831e-38 344 243
0.033269498 0.759 -0.0039923396 1.4191831e-38 345 243
0.034691449 0.76099998 -0.0040028598 1.4100381e-38 346 243
0.036025736 0.76099998 -0.0040028598 1.4192576e-38 347 243
0.037360024 0.76099998 -0.0040028598 1.4100059e-38 348 243
0.038745161 0.76200002 -0.0040081199 1.5113852e-38 349 243
0.040081199 0.76200002 -0.0040081199 1.5668515e-38 350 243
-0.030930554 0.76700002 -0.0053792265 1.6041609e-38 297 244
-0.029547172 0.76599997 -0.0053722127 1.6225591e-38 298 244
-0.028204117 0.76599997 -0.0053722127 1.6133396e-38 299 244
-0.026790932 0.764 -0.0053581866 1.631847e-38 300 244
-0.02538476 0.76200002 -0.0053441599 1.631847e-38 301 244
-0.024017159 0.76099998 -0.0053371461 1.62277e-38 302 244
-0.02262326 0.759 -0.0053231199 1.6411733e-38 303 244
-0.02129248 0.759 -0.0053231199 1.6411736e-38 304 244
-0.0199617 0.759 -0.0053231199 1.6503931e-38 305 244
-0.018581826 0.75700003 -0.0053090933 1.6779089e-38 306 244
-0.017208965 0.755 -0.0052950666 1.6871643e-38 307 244
-0.015885198 0.755 -0.0052950666 1.6872368e-38 308 244
-0.014542146 0.75400001 -0.0052880533 1.7148953e-38 309 244
-0.013220133 0.75400001 -0.0052880533 1.724043e-38 310 244
-0.01189812 0.75400001 -0.0052880533 1.7424461e-38 311 244
-0.010548052 0.75199997 -0.0052740262 1.7240796e-38 312 244
-0.0092295464 0.75199997 -0.0052740262 1.7332991e-38 313 244
-0.00789 0.75 -0.00526 1.7424108e-38 314 244
-0.006575 0.75 -0.00526 1.7516304e-38 315 244
-0.00526 0.75 -0.00526 1.7516294e-38 316 244
-0.0039397399 0.74900001 -0.0052529867 1.742374e-38 317 244
-0.0026264933 0.74900001 -0.0052529867 1.7423377e-38 318 244
-0.0013132467 0.74900001 -0.0052529867 1.7238984e-38 319 244
0 0.74900001 -0.0052529867 1.751412e-38 320 244
0.0013132467 0.74900001 -0.0052529867 1.7329729e-38 321 244
0.0026264933 0.74900001 -0.0052529867 1.7513032e-38 322 244
0.0039397399 0.74900001 -0.0052529867 1.7420477e-38 323 244
0.0052529867 0.74900001 -0.0052529867 1.7145688e-38 324 244
0.0065662335 0.74900001 -0.0052529867 1.7145688e-38 325 244
0.0078794798 0.74900001 -0.0052529867 1.6778355e-38 326 244
0.0091927266 0.74900001 -0.0052529867 1.6778355e-38 327 244
0.010505973 0.74900001 -0.0052529867 1.6685079e-38 328 244
0.01181922 0.74900001 -0.0052529867 1.6408852e-38 329 244
0.013132467 0.74900001 -0.0052529867 1.6316639e-38 330 244
0.014445714 0.74900001 -0.0052529867 1.6131889e-38 331 244
0.01575896 0.74900001 -0.0052529867 1.6224065e-38 332 244
0.017072206 0.74900001 -0.0052529867 1.5947479e-38 333 244
0.018409999 0.75 -0.00526 1.5579772e-38 334 244
0.019724999 0.75 -0.00526 1.5395381e-38 335 244
0.021096105 0.75199997 -0.0052740262 1.5485777e-38 336 244
0.022414612 0.75199997 -0.0052740262 1.5024801e-38 337 244
0.02379624 0.75400001 -0.0052880533 1.4840042e-38 338 244
0.025118252 0.75400001 -0.0052880533 1.4655654e-38 339 244
0.026440267 0.75400001 -0.0052880533 1.4653501e-38 340 244
0.027799098 0.755 -0.0052950666 1.4560948e-38 341 244
0.029122867 0.755 -0.0052950666 1.4192181e-38 342 244
0.030527288 0.75700003 -0.0053090933 1.4192181e-38 343 244
0.031938717 0.759 -0.0053231199 1.4008166e-38 344 244
0.033269498 0.759 -0.0053231199 1.410072e-38 345 244
0.034691449 0.76099998 -0.0053371461 1.4008187e-38 346 244
0.036025736 0.76099998 -0.0053371461 1.4284775e-38 347 244
0.037360024 0.76099998 -0.0053371461 1.4008226e-38 348 244
0.038745161 0.76200002 -0.0053441599 1.5114573e-38 349 244
-0.030930554 0.76700002 -0.006724033 1.5949061e-38 297 245
-0.029547172 0.76599997 -0.0067152665 1.6134118e-38 298 245
-0.028204117 0.76599997 -0.0067152665 1.6041922e-38 299 245
-0.026790932 0.764 -0.006697733 1.6318114e-38 300 245
-0.02538476 0.76200002 -0.0066801999 1.6410669e-38 301 245
-0.024017159 0.76099998 -0.0066714329 1.6227703e-38 302 245
-0.02262326 0.759 -0.0066538998 1.6227703e-38 303 245
-0.02129248 0.759 -0.0066538998 1.6136226e-38 304 245
-0.0199617 0.759 -0.0066538998 1.6228424e-38 305 245
-0.018581826 0.75700003 -0.0066363667 1.6411388e-38 306 245
-0.017254554 0.75700003 -0.0066363667 1.6595779e-38 307 245
-0.015885198 0.755 -0.0066188332 1.6411761e-38 308 245
-0.014561433 0.755 -0.0066188332 1.6595792e-38 309 245
-0.013220133 0.75400001 -0.0066100666 1.6596878e-38 310 245
-0.01189812 0.75400001 -0.0066100666 1.6596878e-38 311 245
-0.010576107 0.75400001 -0.0066100666 1.7056051e-38 312 245
-0.0092295464 0.75199997 -0.0065925326 1.7148247e-38 313 245
-0.0079110395 0.75199997 -0.0065925326 1.7423745e-38 314 245
-0.0065925326 0.75199997 -0.0065925326 1.7423745e-38 315 245
-0.00526 0.75 -0.006575 1.7424461e-38 316 245
-0.003945 0.75 -0.006575 1.7148234e-38 317 245
-0.0026264933 0.74900001 -0.0065662335 1.7331181e-38 318 245
-0.0013132467 0.74900001 -0.0065662335 1.7331181e-38 319 245
0 0.75 -0.006575 1.7237534e-38 320 245
0.0013132467 0.74900001 -0.0065662335 1.7145338e-38 321 245
0.0026264933 0.74900001 -0.0065662335 1.6961303e-38 322 245
0.0039397399 0.74900001 -0.0065662335 1.6961303e-38 323 245
0.0052529867 0.74900001 -0.0065662335 1.6685805e-38 324 245
0.0065662335 0.74900001 -0.0065662335 1.6685805e-38 325 245
0.0078794798 0.74900001 -0.0065662335 1.6594335e-38 326 245
0.0091927266 0.74900001 -0.0065662335 1.6594335e-38 327 245
0.010505973 0.74900001 -0.0065662335 1.650105e-38 328 245
0.01181922 0.74900001 -0.0065662335 1.6408496e-38 329 245
0.013132467 0.74900001 -0.0065662335 1.6224441e-38 330 245
0.014465 0.75 -0.006575 1.604005e-38 331 245
0.01578 0.75 -0.006575 1.5856005e-38 332 245
0.017095 0.75 -0.006575 1.5763809e-38 333 245
0.018409999 0.75 -0.006575 1.5487579e-38 334 245
0.019724999 0.75 -0.006575 1.5302829e-38 335 245
0.021096105 0.75199997 -0.0065925326 1.5393935e-38 336 245
0.022414612 0.75199997 -0.0065925326 1.4932958e-38 337 245
0.02379624 0.75400001 -0.0066100666 1.5023354e-38 338 245
0.025118252 0.75400001 -0.0066100666 1.4562383e-38 339 245
0.026475333 0.755 -0.0066188332 1.4652791e-38 340 245
0.027799098 0.755 -0.0066188332 1.4376563e-38 341 245
0.029200014 0.75700003 -0.0066363667 1.4008875e-38 342 245
0.030607941 0.759 -0.0066538998 1.4008875e-38 343 245
0.031938717 0.759 -0.0066538998 1.4008168e-38 344 245
0.033357166 0.76099998 -0.0066714329 1.4100364e-38 345 245
0.034691449 0.76099998 -0.0066714329 1.4008911e-38 346 245
0.036025736 0.76099998 -0.0066714329 1.4101465e-38 347 245
0.037360024 0.76099998 -0.0066714329 1.4100791e-38 348 245
0.038745161 0.76200002 -0.0066801999 1.5207498e-38 349 245
-0.029585747 0.76700002 -0.00806884 1.6408925e-38 298 246
-0.028204117 0.76599997 -0.0080583189 1.6224894e-38 299 246
-0.026861066 0.76599997 -0.0080583189 1.640961e-38 300 246
-0.025451386 0.764 -0.0080372803 1.640961e-38 301 246
-0.024017159 0.76099998 -0.0080057196 1.6135522e-38 302 246
-0.022682872 0.76099998 -0.0080057196 1.6227717e-38 303 246
-0.021348584 0.76099998 -0.0080057196 1.6411385e-38 304 246
-0.020014299 0.76099998 -0.0080057196 1.6411385e-38 305 246
-0.01863092 0.759 -0.0079846792 1.6228073e-38 306 246
-0.017254554 0.75700003 -0.0079636406 1.6228073e-38 307 246
-0.015885198 0.755 -0.0079425992 1.6502859e-38 308 246
-0.014561433 0.755 -0.0079425992 1.6502859e-38 309 246
-0.013220133 0.75400001 -0.00793208 1.6779798e-38 310 246
-0.01189812 0.75400001 -0.00793208 1.6779798e-38 311 246
-0.010576107 0.75400001 -0.00793208 1.6779798e-38 312 246
-0.0092295464 0.75199997 -0.0079110395 1.6871994e-38 313 246
-0.0079110395 0.75199997 -0.0079110395 1.7056385e-38 314 246
-0.0065925326 0.75199997 -0.0079110395 1.7056385e-38 315 246
-0.0052740262 0.75199997 -0.0079110395 1.7331897e-38 316 246
-0.0039555198 0.75199997 -0.0079110395 1.72397e-38 317 246
-0.00263 0.75 -0.00789 1.7331174e-38 318 246
-0.001315 0.75 -0.00789 1.7054587e-38 319 246
0 0.75 -0.00789 1.6868025e-38 320 246
0.0013132467 0.74900001 -0.0078794798 1.6960221e-38 321 246
0.0026264933 0.74900001 -0.0078794798 1.6959852e-38 322 246
0.0039397399 0.74900001 -0.0078794798 1.6867657e-38 323 246
0.0052529867 0.74900001 -0.0078794798 1.6684713e-38 324 246
0.0065662335 0.74900001 -0.0078794798 1.6684713e-38 325 246
0.00789 0.75 -0.00789 1.6500694e-38 326 246
0.0091927266 0.74900001 -0.0078794798 1.6500694e-38 327 246
0.010505973 0.74900001 -0.0078794798 1.6408852e-38 328 246
0.01181922 0.74900001 -0.0078794798 1.62241e-38 329 246
0.013132467 0.74900001 -0.0078794798 1.6040415e-38 330 246
0.014465 0.75 -0.00789 1.576383e-38 331 246
0.01578 0.75 -0.00789 1.594713e-38 332 246
0.017095 0.75 -0.00789 1.5670541e-38 333 246
0.018409999 0.75 -0.00789 1.5487226e-38 334 246
0.019724999 0.75 -0.00789 1.5302835e-38 335 246
0.021096105 0.75199997 -0.0079110395 1.5118084e-38 336 246
0.022414612 0.75199997 -0.0079110395 1.4749661e-38 337 246
0.02379624 0.75400001 -0.00793208 1.4929737e-38 338 246
0.025118252 0.75400001 -0.00793208 1.4745345e-38 339 246
0.026475333 0.755 -0.0079425992 1.4284367e-38 340 246
0.027872739 0.75700003 -0.0079636406 1.4284367e-38 341 246
0.029200014 0.75700003 -0.0079636406 1.4008153e-38 342 246
0.030607941 0.759 -0.0079846792 1.4192184e-38 343 246
0.032022879 0.76099998 -0.0080057196 1.4008171e-38 344 246
0.033357166 0.76099998 -0.0080057196 1.4192564e-38 345 246
0.034691449 0.76099998 -0.0080057196 1.4007479e-38 346 246
0.036025736 0.76099998 -0.0080057196 1.4284425e-38 347 246
0.037360024 0.76099998 -0.0080057196 1.4562145e-38 348 246
0.038745161 0.76200002 -0.0080162399 1.5484101e-38 349 246
-0.029585747 0.76700002 -0.0094136465 1.5857566e-38 298 247
-0.028204117 0.76599997 -0.0094013726 1.5857566e-38 299 247
-0.026861066 0.76599997 -0.0094013726 1.6042272e-38 300 247
-0.025451386 0.764 -0.0093768267 1.6134468e-38 301 247
-0.02404872 0.76200002 -0.0093522798 1.6135168e-38 302 247
-0.022682872 0.76099998 -0.0093400059 1.6227723e-38 303 247
-0.021348584 0.76099998 -0.0093400059 1.6227723e-38 304 247
-0.020014299 0.76099998 -0.0093400059 1.6227723e-38 305 247
-0.01863092 0.759 -0.00931546 1.6411032e-38 306 247
-0.017300138 0.759 -0.00931546 1.6411032e-38 307 247
-0.015927281 0.75700003 -0.0092909131 1.6411385e-38 308 247
-0.014561433 0.755 -0.0092663663 1.6411385e-38 309 247
-0.013237666 0.755 -0.0092663663 1.6411385e-38 310 247
-0.01189812 0.75400001 -0.0092540924 1.6411385e-38 311 247
-0.010576107 0.75400001 -0.0092540924 1.6227717e-38 312 247
-0.0092540924 0.75400001 -0.0092540924 1.6412467e-38 313 247
-0.00793208 0.75400001 -0.0092540924 1.6871287e-38 314 247
-0.0065925326 0.75199997 -0.0092295464 1.6871287e-38 315 247
-0.0052740262 0.75199997 -0.0092295464 1.687129e-38 316 247
-0.0039555198 0.75199997 -0.0092295464 1.687129e-38 317 247
-0.00263 0.75 -0.0092049995 1.696312e-38 318 247
-0.001315 0.75 -0.0092049995 1.6686174e-38 319 247
0 0.75199997 -0.0092295464 1.6501048e-38 320 247
0.001315 0.75 -0.0092049995 1.6408852e-38 321 247
0.00263 0.75 -0.0092049995 1.6316653e-38 322 247
0.003945 0.75 -0.0092049995 1.6316653e-38 323 247
0.00526 0.75 -0.0092049995 1.6317022e-38 324 247
0.006575 0.75 -0.0092049995 1.6132991e-38 325 247
0.00789 0.75 -0.0092049995 1.6317022e-38 326 247
0.0092049995 0.75 -0.0092049995 1.6317022e-38 327 247
0.01052 0.75 -0.0092049995 1.6132985e-38 328 247
0.011835 0.75 -0.0092049995 1.5948593e-38 329 247
0.01315 0.75 -0.0092049995 1.5856028e-38 330 247
0.014465 0.75 -0.0092049995 1.5671637e-38 331 247
0.01578 0.75 -0.0092049995 1.5762384e-38 332 247
0.017095 0.75 -0.0092049995 1.5762384e-38 333 247
0.018409999 0.75 -0.0092049995 1.557799e-38 334 247
0.019724999 0.75 -0.0092049995 1.5393959e-38 335 247
0.021096105 0.75199997 -0.0092295464 1.5209563e-38 336 247
0.022414612 0.75199997 -0.0092295464 1.4564194e-38 337 247
0.02379624 0.75400001 -0.0092540924 1.456203e-38 338 247
0.025151566 0.755 -0.0092663663 1.4285083e-38 339 247
0.026545467 0.75700003 -0.0092909131 1.4192534e-38 340 247
0.027946379 0.759 -0.00931546 1.4008503e-38 341 247
0.029277159 0.759 -0.00931546 1.3733008e-38 342 247
0.030688593 0.76099998 -0.0093400059 1.3825204e-38 343 247
0.032022879 0.76099998 -0.0093400059 1.4008534e-38 344 247
0.033357166 0.76099998 -0.0093400059 1.4100731e-38 345 247
