# .PCD v.7 - Point Cloud Data file format
FIELDS x y z rgb imX imY
SIZE 4 4 4 4 4 4
TYPE F F F F F F
COUNT 1 1 1 1 1 1
WIDTH 843
HEIGHT 1
VIEWPOINT 0 0 0 1 0 0 0
POINTS 843
DATA ascii
0.0061980332 0.70700002 0.01487528 1.0770313e-38 325 228
0.0074271196 0.70599997 0.014854239 1.1231303e-38 326 228
0.0086649731 0.70599997 0.014854239 1.1323499e-38 327 228
0.0099168532 0.70700002 0.01487528 1.1049436e-38 328 228
0.011156459 0.70700002 0.01487528 1.1141632e-38 329 228
0.0124136 0.708 0.01489632 1.1417139e-38 330 228
0.013654959 0.708 0.01489632 1.1324944e-38 331 228
0.01489632 0.708 0.01489632 1.1598654e-38 332 228
-0.039080046 0.71899998 0.013867113 1.5767974e-38 289 229
-0.037819397 0.71899998 0.013867113 1.30943e-38 290 229
-0.036457058 0.71700001 0.013828539 9.4064752e-39 291 229
-0.035199918 0.71700001 0.013828539 8.5533198e-39 292 229
-0.033942781 0.71700001 0.013828539 6.8934398e-39 293 229
-0.032640055 0.71600002 0.013809253 6.4306539e-39 294 229
-0.031384666 0.71600002 0.013809253 7.0760219e-39 295 229
-0.03012928 0.71600002 0.013809253 6.8037609e-39 296 229
-0.028793238 0.71399999 0.01377068 6.8959579e-39 297 229
-0.02754136 0.71399999 0.01377068 7.1700295e-39 298 229
-0.026289478 0.71399999 0.01377068 7.354062e-39 299 229
-0.025037598 0.71399999 0.01377068 7.1725476e-39 300 229
-0.023752406 0.713 0.013751393 7.6335257e-39 301 229
-0.022502279 0.713 0.013751393 7.7300402e-39 302 229
-0.021252153 0.713 0.013751393 8.743832e-39 303 229
-0.020002026 0.713 0.013751393 9.2058891e-39 304 229
-0.018751899 0.713 0.013751393 1.0312237e-38 305 229
-0.017501773 0.713 0.013751393 1.0499136e-38 306 229
0.0012343467 0.704 0.013577812 9.0221831e-39 321 229
0.0024686933 0.704 0.013577812 9.6636022e-39 322 229
0.0037030398 0.704 0.013577812 9.6636022e-39 323 229
0.0049373866 0.704 0.013577812 9.7547287e-39 324 229
0.0061892662 0.70599997 0.013616386 9.8469243e-39 325 229
0.0074271196 0.70599997 0.013616386 9.8469299e-39 326 229
0.0086649731 0.70599997 0.013616386 9.8469299e-39 327 229
0.0099168532 0.70700002 0.013635674 1.0491215e-38 328 229
0.011156459 0.70700002 0.013635674 1.076816e-38 329 229
0.0124136 0.708 0.013654959 1.1136587e-38 330 229
0.013654959 0.708 0.013654959 1.1320978e-38 331 229
0.01489632 0.708 0.013654959 1.1412458e-38 332 229
-0.040228479 0.71700001 0.0125714 1.5583225e-38 288 230
-0.038971342 0.71700001 0.0125714 1.3554921e-38 289 230
-0.037714198 0.71700001 0.0125714 9.5890686e-39 290 230
-0.036457058 0.71700001 0.0125714 6.1778303e-39 291 230
-0.035150826 0.71600002 0.012553867 6.8073608e-39 292 230
-0.03389544 0.71600002 0.012553867 6.4382196e-39 293 230
-0.032640055 0.71600002 0.012553867 6.9867074e-39 294 230
-0.031296998 0.71399999 0.012518799 6.8026763e-39 295 230
-0.030045118 0.71399999 0.012518799 6.8033979e-39 296 230
-0.028752912 0.713 0.012501267 6.7108436e-39 297 230
-0.027502786 0.713 0.012501267 6.8023231e-39 298 230
-0.026179021 0.71100003 0.0124662 6.8023231e-39 299 230
-0.024932399 0.71100003 0.0124662 6.8952376e-39 300 230
-0.023685781 0.71100003 0.0124662 7.2640202e-39 301 230
-0.022439159 0.71100003 0.0124662 7.3587367e-39 302 230
-0.021192541 0.71100003 0.0124662 8.1884974e-39 303 230
-0.01994592 0.71100003 0.0124662 8.5605197e-39 304 230
-0.0186993 0.71100003 0.0124662 9.6668673e-39 305 230
-0.01745268 0.71100003 0.0124662 1.040442e-38 306 230
-0.0012343467 0.704 0.012343466 8.7434284e-39 319 230
0 0.704 0.012343466 8.7423718e-39 320 230
0.0012343467 0.704 0.012343466 8.0048068e-39 321 230
0.0024686933 0.704 0.012343466 9.1039741e-39 322 230
0.0036977797 0.70300001 0.012325933 9.6571465e-39 323 230
0.0049303733 0.70300001 0.012325933 9.4752705e-39 324 230
0.0061717331 0.704 0.012343466 9.3830749e-39 325 230
0.0074060797 0.704 0.012343466 9.6564178e-39 326 230
0.0086649731 0.70599997 0.012378532 9.9330061e-39 327 230
0.0099028256 0.70599997 0.012378532 1.0028074e-38 328 230
0.011140679 0.70599997 0.012378532 1.0396498e-38 329 230
0.012378532 0.70599997 0.012378532 1.0948236e-38 330 230
0.013635674 0.70700002 0.012396066 1.1224464e-38 331 230
0.018594101 0.70700002 0.012396066 1.1687243e-38 335 230
-0.041485619 0.71700001 0.01131426 1.6044563e-38 287 231
-0.040228479 0.71700001 0.01131426 1.392838e-38 288 231
-0.038971342 0.71700001 0.01131426 9.6870221e-39 289 231
-0.037714198 0.71700001 0.01131426 7.001826e-39 290 231
-0.036406212 0.71600002 0.01129848 4.9735221e-39 291 231
-0.035150826 0.71600002 0.01129848 7.4505666e-39 292 231
-0.03389544 0.71600002 0.01129848 7.4505666e-39 293 231
-0.032640055 0.71600002 0.01129848 7.4469667e-39 294 231
-0.031296998 0.71399999 0.011266919 6.9859885e-39 295 231
-0.030003037 0.713 0.011251139 6.7104778e-39 296 231
-0.028672259 0.71100003 0.01121958 6.6182822e-39 297 231
-0.027425639 0.71100003 0.01121958 6.6182822e-39 298 231
-0.026179021 0.71100003 0.01121958 6.6182822e-39 299 231
-0.024897331 0.70999998 0.011203799 6.7104806e-39 300 231
-0.023652466 0.70999998 0.011203799 6.9867074e-39 301 231
-0.022407599 0.70999998 0.011203799 7.2632985e-39 302 231
-0.021162732 0.70999998 0.011203799 7.7242752e-39 303 231
-0.019917866 0.70999998 0.011203799 7.9101154e-39 304 231
-0.018672999 0.70999998 0.011203799 8.9242674e-39 305 231
-0.017428132 0.70999998 0.011203799 9.6636303e-39 306 231
-0.016183265 0.70999998 0.011203799 9.9398584e-39 307 231
-0.0024651866 0.70300001 0.01109334 9.3859392e-39 318 231
-0.0012325933 0.70300001 0.01109334 8.464343e-39 319 231
0 0.70300001 0.01109334 8.274226e-39 320 231
0.0012325933 0.70300001 0.01109334 7.3526285e-39 321 231
0.0024651866 0.70300001 0.01109334 8.5472158e-39 322 231
0.0036977797 0.70300001 0.01109334 9.5617278e-39 323 231
0.0049303733 0.70300001 0.01109334 9.2890842e-39 324 231
0.0061717331 0.704 0.011109119 9.0124973e-39 325 231
0.0074060797 0.704 0.011109119 9.1028937e-39 326 231
0.0086404262 0.704 0.011109119 9.1950893e-39 327 231
0.0098747732 0.704 0.011109119 9.0150112e-39 328 231
0.011109119 0.704 0.011109119 9.2919583e-39 329 231
0.012378532 0.70599997 0.011140679 1.0303219e-38 330 231
0.013616386 0.70599997 0.011140679 1.0763839e-38 331 231
0.014854239 0.70599997 0.011140679 1.1039705e-38 332 231
0.016092092 0.70599997 0.011140679 1.1131901e-38 333 231
0.017329946 0.70599997 0.011140679 1.1131198e-38 334 231
0.018594101 0.70700002 0.011156459 1.131559e-38 335 231
0.020030079 0.71399999 0.011266919 1.1133e-38 336 231
0.021341572 0.71600002 0.01129848 1.1593619e-38 337 231
0.022596961 0.71600002 0.01129848 1.0402632e-38 338 231
-0.042683143 0.71600002 0.010043093 1.5952731e-38 286 232
-0.041427758 0.71600002 0.010043093 1.4661992e-38 287 232
-0.040172372 0.71600002 0.010043093 1.0609337e-38 288 232
-0.038916986 0.71600002 0.010043093 4.3396742e-39 289 232
-0.037661601 0.71600002 0.010043093 5.9793994e-39 290 232
-0.036406212 0.71600002 0.010043093 6.1637907e-39 291 232
-0.035150826 0.71600002 0.010043093 7.725706e-39 292 232
-0.033800758 0.71399999 0.01001504 7.4491177e-39 293 232
-0.032548878 0.71399999 0.01001504 6.9881367e-39 294 232
-0.031253166 0.713 0.010001013 6.8037455e-39 295 232
-0.029876797 0.70999998 0.0099589331 6.7108338e-39 296 232
-0.028631933 0.70999998 0.0099589331 6.5260824e-39 297 232
-0.027387066 0.70999998 0.0099589331 6.7086786e-39 298 232
-0.026142199 0.70999998 0.0099589331 6.7086786e-39 299 232
-0.024827199 0.708 0.0099308798 6.9845424e-39 300 232
-0.023585839 0.708 0.0099308798 7.0767394e-39 301 232
-0.022344479 0.708 0.0099308798 7.4444429e-39 302 232
-0.021103119 0.708 0.0099308798 7.6291929e-39 303 232
-0.01986176 0.708 0.0099308798 8.1802157e-39 304 232
-0.0186204 0.708 0.0099308798 8.6415526e-39 305 232
-0.017354494 0.70700002 0.0099168532 9.1046901e-39 306 232
-0.016114887 0.70700002 0.0099168532 9.8422552e-39 307 232
-0.01487528 0.70700002 0.0099168532 1.0576929e-38 308 232
-0.013635674 0.70700002 0.0099168532 1.0853518e-38 309 232
-0.012396066 0.70700002 0.0099168532 1.0762743e-38 310 232
-0.0036977797 0.70300001 0.0098607466 8.8309521e-39 317 232
-0.0024651866 0.70300001 0.0098607466 9.0085246e-39 318 232
-0.0012325933 0.70300001 0.0098607466 8.455711e-39 319 232
0 0.70099998 0.0098326923 8.2677394e-39 320 232
0.0012290865 0.70099998 0.0098326923 8.359935e-39 321 232
0.0024581731 0.70099998 0.0098326923 8.5504262e-39 322 232
0.0036977797 0.70300001 0.0098607466 9.4723839e-39 323 232
0.0049303733 0.70300001 0.0098607466 9.3805385e-39 324 232
0.0061629666 0.70300001 0.0098607466 9.1039503e-39 325 232
0.0074060797 0.704 0.0098747732 8.9181283e-39 326 232
0.0086404262 0.704 0.0098747732 8.9181283e-39 327 232
0.0098747732 0.704 0.0098747732 9.0114015e-39 328 232
0.011109119 0.704 0.0098747732 9.2879898e-39 329 232
0.012378532 0.70599997 0.0099028256 9.5656515e-39 330 232
0.013616386 0.70599997 0.0099028256 1.002663e-38 331 232
0.014854239 0.70599997 0.0099028256 1.0852071e-38 332 232
0.016092092 0.70599997 0.0099028256 1.131305e-38 333 232
0.017329946 0.70599997 0.0099028256 1.1037186e-38 334 232
0.018567799 0.70599997 0.0099028256 1.1037186e-38 335 232
0.01986176 0.708 0.0099308798 1.0945716e-38 336 232
0.021252153 0.713 0.010001013 1.1222302e-38 337 232
0.022502279 0.713 0.010001013 1.0214989e-38 338 232
0.02378572 0.71399999 0.01001504 9.9380437e-39 339 232
0.025037598 0.71399999 0.01001504 8.4766128e-39 340 232
0.026289478 0.71399999 0.01001504 1.0965535e-38 341 232
-0.042683143 0.71600002 0.0087877065 1.558504e-38 286 233
-0.041427758 0.71600002 0.0087877065 1.1344401e-38 287 233
-0.040172372 0.71600002 0.0087877065 9.1266639e-39 288 233
-0.038916986 0.71600002 0.0087877065 3.9637086e-39 289 233
-0.037661601 0.71600002 0.0087877065 6.5300522e-39 290 233
-0.036304519 0.71399999 0.0087631596 7.083226e-39 291 233
-0.035052639 0.71399999 0.0087631596 7.5413133e-39 292 233
-0.033753417 0.713 0.0087508867 7.2643677e-39 293 233
-0.032503292 0.713 0.0087508867 7.2640019e-39 294 233
-0.031121666 0.70999998 0.0087140659 7.0796093e-39 295 233
-0.029876797 0.70999998 0.0087140659 6.98562e-39 296 233
-0.02855128 0.708 0.008689519 6.8012273e-39 297 233
-0.027271347 0.70700002 0.008677247 6.9838235e-39 298 233
-0.02603174 0.70700002 0.008677247 6.9838235e-39 299 233
-0.024792133 0.70700002 0.008677247 7.167133e-39 300 233
-0.023552528 0.70700002 0.008677247 7.2596873e-39 301 233
-0.022281358 0.70599997 0.0086649731 7.6273951e-39 302 233
-0.021043506 0.70599997 0.0086649731 7.8117863e-39 303 233
-0.019833706 0.70700002 0.008677247 8.2695247e-39 304 233
-0.018594101 0.70700002 0.008677247 8.0851334e-39 305 233
-0.017329946 0.70599997 0.0086649731 1.075951e-38 306 233
-0.016092092 0.70599997 0.0086649731 1.1127933e-38 307 233
-0.014854239 0.70599997 0.0086649731 1.1952283e-38 308 233
-0.013616386 0.70599997 0.0086649731 1.2136674e-38 309 233
-0.012378532 0.70599997 0.0086649731 1.1862964e-38 310 233
-0.011109119 0.704 0.0086404262 1.1770768e-38 311 233
-0.0098747732 0.704 0.0086404262 1.0944617e-38 312 233
-0.0061629666 0.70300001 0.0086281532 9.7482449e-39 315 233
-0.0049303733 0.70300001 0.0086281532 9.102172e-39 316 233
-0.0036872597 0.70099998 0.0086036054 8.4568026e-39 317 233
-0.0024581731 0.70099998 0.0086036054 8.5443291e-39 318 233
-0.0012290865 0.70099998 0.0086036054 8.5443291e-39 319 233
0 0.70099998 0.0086036054 8.9148941e-39 320 233
0.0012290865 0.70099998 0.0086036054 9.3758722e-39 321 233
0.0024581731 0.70099998 0.0086036054 9.5634809e-39 322 233
0.0036872597 0.70099998 0.0086036054 9.9322634e-39 323 233
0.0049163462 0.70099998 0.0086036054 9.4709321e-39 324 233
0.0061454331 0.70099998 0.0086036054 8.8255627e-39 325 233
0.0073955595 0.70300001 0.0086281532 8.2745623e-39 326 233
0.0086281532 0.70300001 0.0086281532 8.1823667e-39 327 233
0.0098747732 0.704 0.0086404262 7.815752e-39 328 233
0.011109119 0.704 0.0086404262 8.0919802e-39 329 233
0.012343466 0.704 0.0086404262 8.4611186e-39 330 233
0.013577812 0.704 0.0086404262 8.9220967e-39 331 233
0.014812159 0.704 0.0086404262 9.1990396e-39 332 233
0.016092092 0.70599997 0.0086649731 9.1990396e-39 333 233
0.017329946 0.70599997 0.0086649731 9.7500624e-39 334 233
0.018567799 0.70599997 0.0086649731 9.842258e-39 335 233
0.019833706 0.70700002 0.008677247 9.6593087e-39 336 233
0.021073313 0.70700002 0.008677247 9.6593087e-39 337 233
0.022439159 0.71100003 0.0087263398 9.5682088e-39 338 233
0.02378572 0.71399999 0.0087631596 9.8447943e-39 339 233
0.025037598 0.71399999 0.0087631596 8.37759e-39 340 233
0.026289478 0.71399999 0.0087631596 8.8389283e-39 341 233
0.02754136 0.71399999 0.0087631596 9.4097374e-39 342 233
-0.043999899 0.71700001 0.0075428397 1.6043131e-38 285 234
-0.042683143 0.71600002 0.00753232 1.466416e-38 286 234
-0.041427758 0.71600002 0.00753232 6.3669117e-39 287 234
-0.040172372 0.71600002 0.00753232 5.8029367e-39 288 234
-0.038916986 0.71600002 0.00753232 5.5259897e-39 289 234
-0.037556399 0.71399999 0.0075112795 7.7289444e-39 290 234
-0.036304519 0.71399999 0.0075112795 7.2679676e-39 291 234
-0.035003547 0.713 0.0075007593 7.6335061e-39 292 234
-0.033753417 0.713 0.0075007593 7.3569192e-39 293 234
-0.032366529 0.70999998 0.0074691991 7.2640019e-39 294 234
-0.031034 0.708 0.0074481601 7.1718049e-39 295 234
-0.02979264 0.708 0.0074481601 7.2614866e-39 296 234
-0.028470624 0.70599997 0.0074271196 7.0767366e-39 297 234
-0.027232772 0.70599997 0.0074271196 7.3518844e-39 298 234
-0.025994917 0.70599997 0.0074271196 7.3518844e-39 299 234
-0.024686933 0.704 0.0074060797 7.6273923e-39 300 234
-0.023452586 0.704 0.0074060797 7.6273923e-39 301 234
-0.022218239 0.704 0.0074060797 7.99473e-39 302 234
-0.020983893 0.704 0.0074060797 7.99473e-39 303 234
-0.019805651 0.70599997 0.0074271196 8.4517411e-39 304 234
-0.018567799 0.70599997 0.0074271196 8.4517411e-39 305 234
-0.017280852 0.704 0.0074060797 1.1957327e-38 306 234
-0.016046507 0.704 0.0074060797 1.3155871e-38 307 234
-0.014812159 0.704 0.0074060797 1.3336652e-38 308 234
-0.013577812 0.704 0.0074060797 1.3244457e-38 309 234
-0.012343466 0.704 0.0074060797 1.3151902e-38 310 234
-0.01109334 0.70300001 0.0073955595 1.1953718e-38 311 234
-0.0098607466 0.70300001 0.0073955595 1.1125412e-38 312 234
-0.0086281532 0.70300001 0.0073955595 1.0572598e-38 313 234
-0.0073955595 0.70300001 0.0073955595 9.6488592e-39 314 234
-0.0061629666 0.70300001 0.0073955595 9.2804368e-39 315 234
-0.0049163462 0.70099998 0.0073745195 9.0027765e-39 316 234
-0.0036872597 0.70099998 0.0073745195 9.1868076e-39 317 234
-0.0024581731 0.70099998 0.0073745195 8.7297797e-39 318 234
-0.0012290865 0.70099998 0.0073745195 9.1907579e-39 319 234
0 0.70099998 0.0073745195 9.1050237e-39 320 234
0.0012290865 0.70099998 0.0073745195 1.0211371e-38 321 234
0.0024581731 0.70099998 0.0073745195 9.9362136e-39 322 234
0.0036819996 0.69999999 0.0073639993 9.4748754e-39 323 234
0.0049093333 0.69999999 0.0073639993 9.1943424e-39 324 234
0.0061454331 0.70099998 0.0073745195 8.733723e-39 325 234
0.0073745195 0.70099998 0.0073745195 7.9979698e-39 326 234
0.0086036054 0.70099998 0.0073745195 7.8139387e-39 327 234
0.0098607466 0.70300001 0.0073955595 7.7221088e-39 328 234
0.01109334 0.70300001 0.0073955595 7.9065001e-39 329 234
0.012325933 0.70300001 0.0073955595 7.8157492e-39 330 234
0.013577812 0.704 0.0074060797 8.0923361e-39 331 234
0.014812159 0.704 0.0074060797 8.9177808e-39 332 234
0.016046507 0.704 0.0074060797 9.1943676e-39 333 234
0.017280852 0.704 0.0074060797 9.5613509e-39 334 234
0.018515198 0.704 0.0074060797 9.8379392e-39 335 234
0.019805651 0.70599997 0.0074271196 9.3798351e-39 336 234
0.021073313 0.70700002 0.0074376399 9.4720307e-39 337 234
0.022344479 0.708 0.0074481601 9.1072069e-39 338 234
0.023685781 0.71100003 0.0074797203 9.1997626e-39 339 234
0.025037598 0.71399999 0.0075112795 8.4683269e-39 340 234
0.026289478 0.71399999 0.0075112795 7.9151545e-39 341 234
0.027618507 0.71600002 0.00753232 7.0094084e-39 342 234
0.028873893 0.71600002 0.00753232 1.0881625e-38 343 234
-0.043938532 0.71600002 0.0062769335 1.5306645e-38 285 235
-0.042683143 0.71600002 0.0062769335 1.254726e-38 286 235
-0.041427758 0.71600002 0.0062769335 2.3135452e-39 287 235
-0.040060159 0.71399999 0.0062593995 5.5209548e-39 288 235
-0.038808275 0.71399999 0.0062593995 7.0886392e-39 289 235
-0.037556399 0.71399999 0.0062593995 8.4650647e-39 290 235
-0.036253672 0.713 0.0062506334 8.0962835e-39 291 235
-0.034905359 0.71100003 0.0062330998 7.9104433e-39 292 235
-0.033611398 0.70999998 0.0062243328 7.5416608e-39 293 235
-0.03227536 0.708 0.0062067998 7.7246129e-39 294 235
-0.030990168 0.70700002 0.0061980332 7.4476673e-39 295 235
-0.029708479 0.70599997 0.0061892662 7.9046854e-39 296 235
-0.028389972 0.704 0.0061717331 7.9046854e-39 297 235
-0.027155625 0.704 0.0061717331 8.3638615e-39 298 235
-0.02592128 0.704 0.0061717331 8.4560585e-39 299 235
-0.024686933 0.704 0.0061717331 8.5475381e-39 300 235
-0.023419274 0.70300001 0.0061629666 8.8237648e-39 301 235
-0.02218668 0.70300001 0.0061629666 9.2840101e-39 302 235
-0.020983893 0.704 0.0061717331 9.8368252e-39 303 235
-0.019749546 0.704 0.0061717331 1.0112326e-38 304 235
-0.018515198 0.704 0.0061717331 1.0112326e-38 305 235
-0.017280852 0.704 0.0061717331 1.1770771e-38 306 235
-0.016023712 0.70300001 0.0061629666 1.2416141e-38 307 235
-0.014791119 0.70300001 0.0061629666 1.2323939e-38 308 235
-0.013558527 0.70300001 0.0061629666 1.2416135e-38 309 235
-0.012325933 0.70300001 0.0061629666 1.2692366e-38 310 235
-0.01109334 0.70300001 0.0061629666 1.1678573e-38 311 235
-0.0098326923 0.70099998 0.0061454331 1.0757708e-38 312 235
-0.0086036054 0.70099998 0.0061454331 9.9279474e-39 313 235
-0.0073745195 0.70099998 0.0061454331 9.8325246e-39 314 235
-0.0061454331 0.70099998 0.0061454331 9.5562978e-39 315 235
-0.0049093333 0.69999999 0.0061366665 9.2815088e-39 316 235
-0.0036819996 0.69999999 0.0061366665 9.3737044e-39 317 235
-0.0024546667 0.69999999 0.0061366665 8.9152444e-39 318 235
-0.0012273333 0.69999999 0.0061366665 9.0992755e-39 319 235
0 0.69999999 0.0061366665 8.8280836e-39 320 235
0.0012273333 0.69999999 0.0061366665 8.6436924e-39 321 235
0.0024546667 0.69999999 0.0061366665 9.011749e-39 322 235
0.0036819996 0.69999999 0.0061366665 9.1961403e-39 323 235
0.0049093333 0.69999999 0.0061366665 9.3787365e-39 324 235
0.0061366665 0.69999999 0.0061366665 8.6411714e-39 325 235
0.0073639993 0.69999999 0.0061366665 7.4465967e-39 326 235
0.0085913334 0.69999999 0.0061366665 7.3544011e-39 327 235
0.0098326923 0.70099998 0.0061454331 7.078903e-39 328 235
0.011061779 0.70099998 0.0061454331 7.2636544e-39 329 235
0.012290866 0.70099998 0.0061454331 7.2640173e-39 330 235
0.013558527 0.70300001 0.0061629666 7.356213e-39 331 235
0.014812159 0.704 0.0061717331 7.4480583e-39 332 235
0.016046507 0.704 0.0061717331 7.5402539e-39 333 235
0.017280852 0.704 0.0061717331 7.9994342e-39 334 235
0.018515198 0.704 0.0061717331 8.1838255e-39 335 235
0.019805651 0.70599997 0.0061892662 8.2770959e-39 336 235
0.021043506 0.70599997 0.0061892662 8.4614885e-39 337 235
0.022312919 0.70700002 0.0061980332 8.3710908e-39 338 235
0.023652466 0.70999998 0.0062243328 8.4632864e-39 339 235
0.024932399 0.71100003 0.0062330998 8.1910183e-39 340 235
0.026289478 0.71399999 0.0062593995 7.8222358e-39 341 235
0.027618507 0.71600002 0.0062769335 5.5303113e-39 342 235
0.028873893 0.71600002 0.0062769335 8.6649627e-39 343 235
0.03012928 0.71600002 0.0062769335 1.300248e-38 344 235
-0.045193922 0.71600002 0.0050215465 1.5861621e-38 284 236
-0.043938532 0.71600002 0.0050215465 1.3648566e-38 285 236
-0.042683143 0.71600002 0.0050215465 1.0149095e-38 286 236
-0.041312039 0.71399999 0.0050075199 5.6110793e-40 287 236
-0.040060159 0.71399999 0.0050075199 6.7162638e-39 288 236
-0.038808275 0.71399999 0.0050075199 8.652372e-39 289 236
-0.037503798 0.713 0.0050005065 9.0186112e-39 290 236
-0.036151983 0.71100003 0.0049864799 8.2810461e-39 291 236
-0.034856264 0.70999998 0.0049794666 8.0044368e-39 292 236
-0.033516716 0.708 0.0049654399 7.5438188e-39 293 236
-0.032229774 0.70700002 0.0049584266 8.0011928e-39 294 236
-0.030946331 0.70599997 0.0049514128 7.6324117e-39 295 236
-0.029624319 0.704 0.0049373866 8.1823485e-39 296 236
-0.028389972 0.704 0.0049373866 8.3663796e-39 297 236
-0.027155625 0.704 0.0049373866 8.5504079e-39 298 236
-0.02592128 0.704 0.0049373866 8.8266347e-39 299 236
-0.024651866 0.70300001 0.0049303733 9.1939795e-39 300 236
-0.023419274 0.70300001 0.0049303733 9.7471519e-39 301 236
-0.02218668 0.70300001 0.0049303733 9.8422187e-39 302 236
-0.020954086 0.70300001 0.0049303733 1.0487588e-38 303 236
-0.019721493 0.70300001 0.0049303733 1.1408097e-38 304 236
-0.018488899 0.70300001 0.0049303733 1.159249e-38 305 236
-0.017256306 0.70300001 0.0049303733 1.1770766e-38 306 236
-0.015978126 0.70099998 0.0049163462 1.1401983e-38 307 236
-0.014749039 0.70099998 0.0049163462 1.1125752e-38 308 236
-0.013558527 0.70300001 0.0049303733 1.1033556e-38 309 236
-0.012290866 0.70099998 0.0049163462 1.1401263e-38 310 236
-0.011061779 0.70099998 0.0049163462 1.1216513e-38 311 236
-0.0098326923 0.70099998 0.0049163462 1.0573311e-38 312 236
-0.0085913334 0.69999999 0.0049093333 1.0204887e-38 313 236
-0.0073639993 0.69999999 0.0049093333 9.836828e-39 314 236
-0.0061366665 0.69999999 0.0049093333 9.7446323e-39 315 236
-0.0049093333 0.69999999 0.0049093333 9.4694846e-39 316 236
-0.0036819996 0.69999999 0.0049093333 9.1932564e-39 317 236
-0.0024546667 0.69999999 0.0049093333 8.732651e-39 318 236
-0.0012273333 0.69999999 0.0049093333 8.4557054e-39 319 236
0 0.69999999 0.0049093333 8.3628049e-39 320 236
0.0012273333 0.69999999 0.0049093333 7.8096325e-39 321 236
0.0024546667 0.69999999 0.0049093333 7.629909e-39 322 236
0.0036819996 0.69999999 0.0049093333 8.5522254e-39 323 236
0.0049093333 0.69999999 0.0049093333 9.5638508e-39 324 236
0.0061366665 0.69999999 0.0049093333 8.457862e-39 325 236
0.0073639993 0.69999999 0.0049093333 7.4465967e-39 326 236
0.0085913334 0.69999999 0.0049093333 7.3544011e-39 327 236
0.0098186666 0.69999999 0.0049093333 6.9867046e-39 328 236
0.011061779 0.70099998 0.0049163462 7.0792589e-39 329 236
0.012290866 0.70099998 0.0049163462 6.9881423e-39 330 236
0.013519952 0.70099998 0.0049163462 7.0803393e-39 331 236
0.014791119 0.70300001 0.0049303733 6.9877906e-39 332 236
0.016023712 0.70300001 0.0049303733 7.0799862e-39 333 236
0.017256306 0.70300001 0.0049303733 7.1729035e-39 334 236
0.018515198 0.704 0.0049373866 7.2650992e-39 335 236
0.019749546 0.704 0.0049373866 7.2658152e-39 336 236
0.021043506 0.70599997 0.0049514128 7.5427622e-39 337 236
0.022312919 0.70700002 0.0049584266 7.6356739e-39 338 236
0.023585839 0.708 0.0049654399 7.7278696e-39 339 236
0.024932399 0.71100003 0.0049864799 7.8215099e-39 340 236
0.026179021 0.71100003 0.0049864799 7.8215099e-39 341 236
0.027618507 0.71600002 0.0050215465 5.2497657e-39 342 236
0.028873893 0.71600002 0.0050215465 6.5405045e-39 343 236
0.03012928 0.71600002 0.0050215465 1.161811e-38 344 236
-0.045193922 0.71600002 0.00376616 1.6044577e-38 284 237
-0.043938532 0.71600002 0.00376616 1.1711741e-38 285 237
-0.042683143 0.71600002 0.00376616 7.5636514e-39 286 237
-0.041312039 0.71399999 0.0037556398 2.0322723e-39 287 237
-0.040060159 0.71399999 0.0037556398 8.5605197e-39 288 237
-0.038808275 0.71399999 0.0037556398 1.1049802e-38 289 237
-0.037503798 0.713 0.0037503797 1.0219673e-38 290 237
-0.036151983 0.71100003 0.0037398601 8.9289337e-39 291 237
-0.034856264 0.70999998 0.0037345996 8.1888323e-39 292 237
-0.033516716 0.708 0.00372408 7.727494e-39 293 237
-0.032229774 0.70700002 0.0037188199 8.0008369e-39 294 237
-0.030946331 0.70599997 0.0037135598 7.6324145e-39 295 237
-0.029624319 0.704 0.0037030398 8.3663796e-39 296 237
-0.028389972 0.704 0.0037030398 8.6433266e-39 297 237
-0.027155625 0.704 0.0037030398 8.9181115e-39 298 237
-0.025884461 0.70300001 0.0036977797 9.0106672e-39 299 237
-0.024581732 0.70099998 0.0036872597 9.1932592e-39 300 237
-0.023352645 0.70099998 0.0036872597 9.4694874e-39 301 237
-0.022123558 0.70099998 0.0036872597 9.7453512e-39 302 237
-0.020954086 0.70300001 0.0036977797 1.0114494e-38 303 237
-0.019665385 0.70099998 0.0036872597 1.0390355e-38 304 237
-0.018436298 0.70099998 0.0036872597 1.02978e-38 305 237
-0.017207211 0.70099998 0.0036872597 1.0480032e-38 306 237
-0.015955333 0.69999999 0.0036819996 1.0295282e-38 307 237
-0.014727999 0.69999999 0.0036819996 1.0020493e-38 308 237
-0.013500666 0.69999999 0.0036819996 1.0204885e-38 309 237
-0.012273333 0.69999999 0.0036819996 1.0573311e-38 310 237
-0.011045999 0.69999999 0.0036819996 1.0204887e-38 311 237
-0.0098186666 0.69999999 0.0036819996 9.9290236e-39 312 237
-0.0085913334 0.69999999 0.0036819996 9.836828e-39 313 237
-0.0073639993 0.69999999 0.0036819996 9.7453512e-39 314 237
-0.0061366665 0.69999999 0.0036819996 9.4691244e-39 315 237
-0.0049093333 0.69999999 0.0036819996 9.3765715e-39 316 237
-0.0036819996 0.69999999 0.0036819996 9.0996259e-39 317 237
-0.0024546667 0.69999999 0.0036819996 8.6383002e-39 318 237
-0.0012238267 0.69800001 0.0036714801 8.2698778e-39 319 237
0 0.69800001 0.0036714801 7.8096325e-39 320 237
0.0012273333 0.69999999 0.0036819996 7.8096325e-39 321 237
0.0024546667 0.69999999 0.0036819996 7.6291901e-39 322 237
0.0036714801 0.69800001 0.0036714801 8.7355377e-39 323 237
0.0048953067 0.69800001 0.0036714801 9.198664e-39 324 237
0.006119133 0.69800001 0.0036714801 7.9079252e-39 325 237
0.0073429602 0.69800001 0.0036714801 7.6295461e-39 326 237
0.0085913334 0.69999999 0.0036819996 7.6295461e-39 327 237
0.0098186666 0.69999999 0.0036819996 6.8037483e-39 328 237
0.011045999 0.69999999 0.0036819996 6.8037483e-39 329 237
0.012273333 0.69999999 0.0036819996 6.8033923e-39 330 237
0.013519952 0.70099998 0.0036872597 6.8033923e-39 331 237
0.014749039 0.70099998 0.0036872597 6.5282502e-39 332 237
0.016023712 0.70300001 0.0036977797 6.6204458e-39 333 237
0.017256306 0.70300001 0.0036977797 6.4371363e-39 334 237
0.018515198 0.704 0.0037030398 6.6211689e-39 335 237
0.019749546 0.704 0.0037030398 6.5300522e-39 336 237
0.020983893 0.704 0.0037030398 6.8984746e-39 337 237
0.022281358 0.70599997 0.0037135598 6.8999096e-39 338 237
0.023552528 0.70700002 0.0037188199 7.1761377e-39 339 237
0.024897331 0.70999998 0.0037345996 6.9931912e-39 340 237
0.026179021 0.71100003 0.0037398601 6.9931912e-39 341 237
0.027618507 0.71600002 0.00376616 5.4287592e-39 342 237
0.028873893 0.71600002 0.00376616 5.3365621e-39 343 237
0.03012928 0.71600002 0.00376616 9.2213777e-39 344 237
-0.045193922 0.71600002 0.0025107733 1.5308816e-38 284 238
-0.043938532 0.71600002 0.0025107733 8.8551217e-39 285 238
-0.042683143 0.71600002 0.0025107733 4.2417248e-39 286 238
-0.041312039 0.71399999 0.0025037599 3.6885511e-39 287 238
-0.040004052 0.713 0.0025002533 9.3016749e-39 288 238
-0.038753927 0.713 0.0025002533 1.2344491e-38 289 238
-0.037398599 0.71100003 0.0024932399 1.1237433e-38 290 238
-0.036101133 0.70999998 0.0024897333 9.3013245e-39 291 238
-0.034758076 0.708 0.00248272 8.0062571e-39 292 238
-0.033516716 0.708 0.00248272 6.8077139e-39 293 238
-0.032229774 0.70700002 0.0024792133 7.6317111e-39 294 238
-0.030946331 0.70599997 0.0024757064 7.5395154e-39 295 238
-0.029624319 0.704 0.0024686933 8.0905214e-39 296 238
-0.028389972 0.704 0.0024686933 8.3671083e-39 297 238
-0.027117053 0.70300001 0.0024651866 8.826283e-39 298 238
-0.025884461 0.70300001 0.0024651866 8.5500548e-39 299 238
-0.024581732 0.70099998 0.0024581731 8.9159661e-39 300 238
-0.023352645 0.70099998 0.0024581731 8.547185e-39 301 238
-0.022123558 0.70099998 0.0024581731 8.7290735e-39 302 238
-0.020894472 0.70099998 0.0024581731 8.7290735e-39 303 238
-0.019665385 0.70099998 0.0024581731 8.7287246e-39 304 238
-0.018436298 0.70099998 0.0024581731 8.6365275e-39 305 238
-0.017182667 0.69999999 0.0024546667 9.0035108e-39 306 238
-0.015955333 0.69999999 0.0024546667 9.0957078e-39 307 238
-0.014727999 0.69999999 0.0024546667 8.8230614e-39 308 238
-0.013500666 0.69999999 0.0024546667 9.3762352e-39 309 238
-0.012273333 0.69999999 0.0024546667 9.6538842e-39 310 238
-0.011045999 0.69999999 0.0024546667 9.4691342e-39 311 238
-0.0098186666 0.69999999 0.0024546667 9.744282e-39 312 238
-0.0085913334 0.69999999 0.0024546667 9.1911082e-39 313 238
-0.0073639993 0.69999999 0.0024546667 8.9152444e-39 314 238
-0.0061366665 0.69999999 0.0024546667 8.6386561e-39 315 238
-0.0049093333 0.69999999 0.0024546667 8.5461074e-39 316 238
-0.0036819996 0.69999999 0.0024546667 8.2695219e-39 317 238
-0.0024476533 0.69800001 0.0024476533 7.8099885e-39 318 238
-0.0012238267 0.69800001 0.0024476533 7.7177914e-39 319 238
0 0.69800001 0.0024476533 7.1671358e-39 320 238
0.0012238267 0.69800001 0.0024476533 7.2593314e-39 321 238
0.0024476533 0.69800001 0.0024476533 7.2622055e-39 322 238
0.0036714801 0.69800001 0.0024476533 8.1841632e-39 323 238
0.0048953067 0.69800001 0.0024476533 8.3696292e-39 324 238
0.006119133 0.69800001 0.0024476533 7.6320642e-39 325 238
0.0073429602 0.69800001 0.0024476533 7.722106e-39 326 238
0.0085667865 0.69800001 0.0024476533 7.3536822e-39 327 238
0.0097906133 0.69800001 0.0024476533 6.5278844e-39 328 238
0.011045999 0.69999999 0.0024546667 6.4356888e-39 329 238
0.012273333 0.69999999 0.0024546667 6.1605439e-39 330 238
0.013500666 0.69999999 0.0024546667 6.2527395e-39 331 238
0.014727999 0.69999999 0.0024546667 5.9768757e-39 332 238
0.015978126 0.70099998 0.0024581731 5.9768757e-39 333 238
0.017207211 0.70099998 0.0024581731 5.8850458e-39 334 238
0.018488899 0.70300001 0.0024651866 6.0697958e-39 335 238
0.019749546 0.704 0.0024686933 6.0701587e-39 336 238
0.020983893 0.704 0.0024686933 6.2549101e-39 337 238
0.022281358 0.70599997 0.0024757064 6.1637907e-39 338 238
0.023552528 0.70700002 0.0024792133 6.4400174e-39 339 238
0.024827199 0.708 0.00248272 6.3489008e-39 340 238
0.026179021 0.71100003 0.0024932399 6.3489008e-39 341 238
0.027618507 0.71600002 0.0025107733 5.518787e-39 342 238
0.028873893 0.71600002 0.0025107733 4.6890263e-39 343 238
0.03012928 0.71600002 0.0025107733 7.8355565e-39 344 238
0.031428497 0.71700001 0.0025142799 1.2445338e-38 345 238
-0.045193922 0.71600002 0.0012553866 1.4018077e-38 284 239
-0.043938532 0.71600002 0.0012553866 5.351329e-39 285 239
-0.042683143 0.71600002 0.0012553866 2.3938592e-39 286 239
-0.041312039 0.71399999 0.00125188 3.9615436e-39 287 239
-0.040004052 0.713 0.0012501266 8.8421485e-39 288 239
-0.038753927 0.713 0.0012501266 1.2161191e-38 289 239
-0.037398599 0.71100003 0.00124662 1.1057734e-38 290 239
-0.036101133 0.70999998 0.0012448666 9.3982117e-39 291 239
-0.034758076 0.708 0.00124136 7.6378445e-39 292 239
-0.033469379 0.70700002 0.0012396066 6.3471057e-39 293 239
-0.032229774 0.70700002 0.0012396066 7.5395154e-39 294 239
-0.030946331 0.70599997 0.0012378532 7.354764e-39 295 239
-0.029624319 0.704 0.0012343467 8.0898025e-39 296 239
-0.028349647 0.70300001 0.0012325933 8.1819982e-39 297 239
-0.027039904 0.70099998 0.0012290865 8.6408183e-39 298 239
-0.025810819 0.70099998 0.0012290865 8.2723959e-39 299 239
-0.024546666 0.69999999 0.0012273333 8.636152e-39 300 239
-0.023319334 0.69999999 0.0012273333 8.1751738e-39 301 239
-0.022091998 0.69999999 0.0012273333 8.2673723e-39 302 239
-0.020894472 0.70099998 0.0012290865 8.2673723e-39 303 239
-0.019637333 0.69999999 0.0012273333 8.4499657e-39 304 239
-0.018409999 0.69999999 0.0012273333 8.5421613e-39 305 239
-0.017182667 0.69999999 0.0012273333 8.4499657e-39 306 239
-0.015955333 0.69999999 0.0012273333 8.8187482e-39 307 239
-0.014727999 0.69999999 0.0012273333 8.913092e-39 308 239
-0.013462093 0.69800001 0.0012238267 9.4662658e-39 309 239
-0.012238266 0.69800001 0.0012238267 9.6556807e-39 310 239
-0.01101444 0.69800001 0.0012238267 9.471288e-39 311 239
-0.0097906133 0.69800001 0.0012238267 9.2822248e-39 312 239
-0.0085667865 0.69800001 0.0012238267 8.8212467e-39 313 239
-0.0073429602 0.69800001 0.0012238267 7.2578867e-39 314 239
-0.006119133 0.69800001 0.0012238267 7.3500823e-39 315 239
-0.0048953067 0.69800001 0.0012238267 8.1762458e-39 316 239
-0.0036714801 0.69800001 0.0012238267 7.9922147e-39 317 239
-0.0024476533 0.69800001 0.0012238267 7.3500823e-39 318 239
-0.0012238267 0.69800001 0.0012238267 7.3500823e-39 319 239
0 0.69800001 0.0012238267 6.7994267e-39 320 239
0.0012238267 0.69800001 0.0012238267 7.0763723e-39 321 239
0.0024476533 0.69800001 0.0012238267 7.2614838e-39 322 239
0.0036714801 0.69800001 0.0012238267 7.7224619e-39 323 239
0.0048953067 0.69800001 0.0012238267 7.9979698e-39 324 239
0.006119133 0.69800001 0.0012238267 7.7217417e-39 325 239
0.0073429602 0.69800001 0.0012238267 7.0785373e-39 326 239
0.0085667865 0.69800001 0.0012238267 6.894146e-39 327 239
0.0097906133 0.69800001 0.0012238267 6.4353329e-39 328 239
0.01101444 0.69800001 0.0012238267 6.4353329e-39 329 239
0.012238266 0.69800001 0.0012238267 6.0683482e-39 330 239
0.013500666 0.69999999 0.0012273333 6.0683482e-39 331 239
0.014727999 0.69999999 0.0012273333 5.88468e-39 332 239
0.015978126 0.70099998 0.0012290865 5.7924844e-39 333 239
0.017207211 0.70099998 0.0012290865 5.7932033e-39 334 239
0.018488899 0.70300001 0.0012325933 5.8853989e-39 335 239
0.019749546 0.704 0.0012343467 5.7020866e-39 336 239
0.020983893 0.704 0.0012343467 5.8864779e-39 337 239
0.022218239 0.704 0.0012343467 6.0708678e-39 338 239
0.023552528 0.70700002 0.0012396066 6.2552604e-39 339 239
0.024827199 0.708 0.00124136 6.3474589e-39 340 239
0.026142199 0.70999998 0.0012448666 6.3474589e-39 341 239
0.027425639 0.71100003 0.00124662 5.9775973e-39 342 239
0.028752912 0.713 0.0012501266 5.1478367e-39 343 239
0.03012928 0.71600002 0.0012553866 7.1869431e-39 344 239
0.031428497 0.71700001 0.00125714 1.1981116e-38 345 239
-0.045193922 0.71600002 -0 1.2450028e-38 284 240
-0.043938532 0.71600002 -0 3.2301065e-39 285 240
-0.042563915 0.71399999 -0 2.295907e-39 286 240
-0.041312039 0.71399999 -0 5.428406e-39 287 240
-0.040004052 0.713 -0 7.3688359e-39 288 240
-0.038753927 0.713 -0 1.0595683e-38 289 240
-0.037345998 0.70999998 -0 1.0780443e-38 290 240
-0.03599944 0.708 -0 9.4897039e-39 291 240
-0.034758076 0.708 -0 7.3619835e-39 292 240
-0.033469379 0.70700002 -0 6.1634403e-39 293 240
-0.032184184 0.70599997 -0 7.3547668e-39 294 240
-0.030858666 0.704 -0 7.3547668e-39 295 240
-0.029582238 0.70300001 -0 7.4465967e-39 296 240
-0.028268991 0.70099998 -0 7.6309894e-39 297 240
-0.027039904 0.70099998 -0 8.0894494e-39 298 240
-0.025773998 0.69999999 -0 7.7203068e-39 299 240
-0.024546666 0.69999999 -0 8.1769759e-39 300 240
-0.023252707 0.69800001 -0 7.8078333e-39 301 240
-0.02202888 0.69800001 -0 7.349376e-39 302 240
-0.020864666 0.69999999 -0 7.349376e-39 303 240
-0.019637333 0.69999999 -0 6.7987232e-39 304 240
-0.018409999 0.69999999 -0 6.7987232e-39 305 240
-0.017182667 0.69999999 -0 6.8902028e-39 306 240
-0.015909746 0.69800001 -0 7.0742339e-39 307 240
-0.01468592 0.69800001 -0 7.4433765e-39 308 240
-0.013462093 0.69800001 -0 8.3649727e-39 309 240
-0.012238266 0.69800001 -0 9.4727496e-39 310 240
-0.01101444 0.69800001 -0 8.6429889e-39 311 240
-0.0097906133 0.69800001 -0 7.8135884e-39 312 240
-0.0085667865 0.69800001 -0 7.0760219e-39 313 240
-0.0073429602 0.69800001 -0 7.3493788e-39 314 240
-0.006119133 0.69800001 -0 6.9809565e-39 315 240
-0.0048953067 0.69800001 -0 6.7983603e-39 316 240
-0.0036714801 0.69800001 -0 6.8905559e-39 317 240
-0.0024476533 0.69800001 -0 6.8905531e-39 318 240
-0.0012238267 0.69800001 -0 6.8905531e-39 319 240
0 0.69700003 -0 6.6164801e-39 320 240
0.0012220733 0.69700003 -0 6.6164801e-39 321 240
0.0024476533 0.69800001 -0 6.5264495e-39 322 240
0.0036714801 0.69800001 -0 6.7111995e-39 323 240
0.0048882933 0.69700003 -0 6.7101247e-39 324 240
0.0061103669 0.69700003 -0 6.6179291e-39 325 240
0.00733244 0.69700003 -0 6.5257334e-39 326 240
0.0085667865 0.69800001 -0 6.6179291e-39 327 240
0.0097906133 0.69800001 -0 6.0679923e-39 328 240
0.01101444 0.69800001 -0 6.0679923e-39 329 240
0.012238266 0.69800001 -0 5.7924844e-39 330 240
0.013462093 0.69800001 -0 5.7924844e-39 331 240
0.01468592 0.69800001 -0 5.5166192e-39 332 240
0.015955333 0.69999999 -0 5.5166192e-39 333 240
0.017207211 0.70099998 -0 5.5173395e-39 334 240
0.018488899 0.70300001 -0 5.5173395e-39 335 240
0.019749546 0.704 -0 5.33403e-39 336 240
0.020983893 0.704 -0 5.4262256e-39 337 240
0.022218239 0.704 -0 5.1517995e-39 338 240
0.023519212 0.70599997 -0 5.4287452e-39 339 240
0.024792133 0.70700002 -0 5.5198618e-39 340 240
0.026068559 0.708 -0 5.7042544e-39 341 240
0.027387066 0.70999998 -0 5.5184213e-39 342 240
0.028672259 0.71100003 -0 4.5964636e-39 343 240
0.03012928 0.71600002 -0 5.8933331e-39 344 240
0.031428497 0.71700001 -0 1.124068e-38 345 240
-0.045193922 0.71600002 -0.0012553866 1.1251835e-38 284 241
-0.043938532 0.71600002 -0.0012553866 2.3085005e-39 285 241
-0.042563915 0.71399999 -0.00125188 3.4897755e-39 286 241
-0.041312039 0.71399999 -0.00125188 6.0694581e-39 287 241
-0.040004052 0.713 -0.0012501266 5.615684e-39 288 241
-0.038753927 0.713 -0.0012501266 6.7223917e-39 289 241
-0.037345998 0.70999998 -0.0012448666 7.9191356e-39 290 241
-0.03599944 0.708 -0.00124136 8.1957225e-39 291 241
-0.034758076 0.708 -0.00124136 6.9931912e-39 292 241
-0.033422034 0.70599997 -0.0012378532 6.4400174e-39 293 241
-0.032184184 0.70599997 -0.0012378532 7.2640047e-39 294 241
-0.030858666 0.704 -0.0012343467 6.9870577e-39 295 241
-0.029498078 0.70099998 -0.0012290865 7.5377134e-39 296 241
-0.028268991 0.70099998 -0.0012290865 7.5377134e-39 297 241
-0.027001332 0.69999999 -0.0012273333 7.7213858e-39 298 241
-0.025773998 0.69999999 -0.0012273333 7.7213858e-39 299 241
-0.024476532 0.69800001 -0.0012238267 7.7195879e-39 300 241
-0.023252707 0.69800001 -0.0012238267 7.6273923e-39 301 241
-0.02202888 0.69800001 -0.0012238267 7.3497292e-39 302 241
-0.020864666 0.69999999 -0.0012273333 7.0735024e-39 303 241
-0.019637333 0.69999999 -0.0012273333 6.7061618e-39 304 241
-0.018409999 0.69999999 -0.0012273333 6.6139662e-39 305 241
-0.017133573 0.69800001 -0.0012238267 6.8894741e-39 306 241
-0.015909746 0.69800001 -0.0012238267 6.9816697e-39 307 241
-0.01468592 0.69800001 -0.0012238267 7.349732e-39 308 241
-0.013462093 0.69800001 -0.0012238267 7.9951014e-39 309 241
-0.012238266 0.69800001 -0.0012238267 7.8143016e-39 310 241
-0.01101444 0.69800001 -0.0012238267 7.5377134e-39 311 241
-0.0097906133 0.69800001 -0.0012238267 7.5351966e-39 312 241
-0.0085667865 0.69800001 -0.0012238267 7.0742185e-39 313 241
-0.0073429602 0.69800001 -0.0012238267 6.8887552e-39 314 241
-0.006119133 0.69800001 -0.0012238267 6.8887552e-39 315 241
-0.0048953067 0.69800001 -0.0012238267 6.6146823e-39 316 241
-0.0036714801 0.69800001 -0.0012238267 6.7068779e-39 317 241
-0.0024441467 0.69700003 -0.0012220733 6.7983575e-39 318 241
-0.0012220733 0.69700003 -0.0012220733 6.7983575e-39 319 241
0 0.69700003 -0.0012220733 6.6157641e-39 320 241
0.0012220733 0.69700003 -0.0012220733 6.6157641e-39 321 241
0.0024476533 0.69800001 -0.0012238267 6.5239314e-39 322 241
0.00366622 0.69700003 -0.0012220733 6.5239314e-39 323 241
0.0048882933 0.69700003 -0.0012220733 6.3406191e-39 324 241
0.0061103669 0.69700003 -0.0012220733 6.4328147e-39 325 241
0.00733244 0.69700003 -0.0012220733 6.1587446e-39 326 241
0.0085545136 0.69700003 -0.0012220733 6.1587446e-39 327 241
0.0097765867 0.69700003 -0.0012220733 5.7921201e-39 328 241
0.01101444 0.69800001 -0.0012238267 5.9761526e-39 329 241
0.012238266 0.69800001 -0.0012238267 5.7928403e-39 330 241
0.013462093 0.69800001 -0.0012238267 5.7002846e-39 331 241
0.01468592 0.69800001 -0.0012238267 5.4247767e-39 332 241
0.015955333 0.69999999 -0.0012273333 5.4247767e-39 333 241
0.017207211 0.70099998 -0.0012290865 5.4254955e-39 334 241
0.018436298 0.70099998 -0.0012290865 5.4254955e-39 335 241
0.019721493 0.70300001 -0.0012325933 5.2411085e-39 336 241
0.020983893 0.704 -0.0012343467 5.2411085e-39 337 241
0.022218239 0.704 -0.0012343467 5.2418302e-39 338 241
0.023519212 0.70599997 -0.0012378532 5.3340272e-39 339 241
0.024792133 0.70700002 -0.0012396066 5.4269417e-39 340 241
0.026068559 0.708 -0.00124136 5.5191373e-39 341 241
0.027387066 0.70999998 -0.0012448666 5.5184241e-39 342 241
0.028672259 0.71100003 -0.00124662 5.241477e-39 343 241
0.029918881 0.71100003 -0.00124662 5.0632165e-39 344 241
0.031296998 0.71399999 -0.00125188 9.5808023e-39 345 241
-0.045193922 0.71600002 -0.0025107733 1.1340786e-38 284 242
-0.043938532 0.71600002 -0.0025107733 2.7665906e-39 285 242
-0.042563915 0.71399999 -0.0025037599 4.132624e-39 286 242
-0.041312039 0.71399999 -0.0025037599 6.0683734e-39 287 242
-0.040004052 0.713 -0.0025002533 5.428406e-39 288 242
-0.038645219 0.71100003 -0.0024932399 5.9815784e-39 289 242
-0.037345998 0.70999998 -0.0024897333 7.177958e-39 290 242
-0.03599944 0.708 -0.00248272 7.4545449e-39 291 242
-0.034708988 0.70700002 -0.0024792133 7.4509295e-39 292 242
-0.033422034 0.70599997 -0.0024757064 6.9903101e-39 293 242
-0.032184184 0.70599997 -0.0024757064 7.2636488e-39 294 242
-0.030858666 0.704 -0.0024686933 7.1714518e-39 295 242
-0.029498078 0.70099998 -0.0024581731 7.354764e-39 296 242
-0.028228667 0.69999999 -0.0024546667 7.354764e-39 297 242
-0.026924185 0.69800001 -0.0024476533 7.447317e-39 298 242
-0.025700359 0.69800001 -0.0024476533 7.6317083e-39 299 242
-0.024476532 0.69800001 -0.0024476533 7.4483932e-39 300 242
-0.023252707 0.69800001 -0.0024476533 7.1718049e-39 301 242
-0.02202888 0.69800001 -0.0024476533 7.1696539e-39 302 242
-0.020864666 0.69999999 -0.0024546667 6.7086758e-39 303 242
-0.019581227 0.69800001 -0.0024476533 6.3399002e-39 304 242
-0.0183574 0.69800001 -0.0024476533 6.2477046e-39 305 242
-0.017133573 0.69800001 -0.0024476533 6.2477074e-39 306 242
-0.015909746 0.69800001 -0.0024476533 6.2477074e-39 307 242
-0.01468592 0.69800001 -0.0024476533 6.5239342e-39 308 242
-0.013462093 0.69800001 -0.0024476533 6.8005225e-39 309 242
-0.012238266 0.69800001 -0.0024476533 6.9841907e-39 310 242
-0.01101444 0.69800001 -0.0024476533 6.9841907e-39 311 242
-0.0097906133 0.69800001 -0.0024476533 6.891272e-39 312 242
-0.0085545136 0.69700003 -0.0024441467 6.6146851e-39 313 242
-0.00733244 0.69700003 -0.0024441467 6.6146823e-39 314 242
-0.006119133 0.69800001 -0.0024476533 6.6146823e-39 315 242
-0.0048953067 0.69800001 -0.0024476533 6.2477018e-39 316 242
-0.0036714801 0.69800001 -0.0024476533 6.3402562e-39 317 242
-0.0024441467 0.69700003 -0.0024441467 6.5232125e-39 318 242
-0.0012220733 0.69700003 -0.0024441467 6.5232125e-39 319 242
0 0.69700003 -0.0024441467 6.3399002e-39 320 242
0.0012220733 0.69700003 -0.0024441467 6.3399002e-39 321 242
0.0024441467 0.69700003 -0.0024441467 6.0651112e-39 322 242
0.00366622 0.69700003 -0.0024441467 6.0651112e-39 323 242
0.0048882933 0.69700003 -0.0024441467 5.9736345e-39 324 242
0.0061103669 0.69700003 -0.0024441467 6.0658301e-39 325 242
0.00733244 0.69700003 -0.0024441467 5.8832367e-39 326 242
0.0085545136 0.69700003 -0.0024441467 5.8832367e-39 327 242
0.0097765867 0.69700003 -0.0024441467 5.6080889e-39 328 242
0.01101444 0.69800001 -0.0024476533 5.7002846e-39 329 242
0.012238266 0.69800001 -0.0024476533 5.5169723e-39 330 242
0.013462093 0.69800001 -0.0024476533 5.5169723e-39 331 242
0.01468592 0.69800001 -0.0024476533 5.4247739e-39 332 242
0.015955333 0.69999999 -0.0024546667 5.5173282e-39 333 242
0.017182667 0.69999999 -0.0024546667 5.1499877e-39 334 242
0.018436298 0.70099998 -0.0024581731 5.1499877e-39 335 242
0.019721493 0.70300001 -0.0024651866 5.3322251e-39 336 242
0.020983893 0.704 -0.0024686933 5.3322251e-39 337 242
0.022218239 0.704 -0.0024686933 5.057083e-39 338 242
0.023519212 0.70599997 -0.0024757064 5.1492786e-39 339 242
0.024757065 0.70599997 -0.0024757064 4.87557e-39 340 242
0.02603174 0.70700002 -0.0024792133 5.0596011e-39 341 242
0.027309919 0.708 -0.00248272 5.2432791e-39 342 242
0.028631933 0.70999998 -0.0024897333 5.5195059e-39 343 242
0.029918881 0.71100003 -0.0024932399 4.2323838e-39 344 242
0.031296998 0.71399999 -0.0025037599 7.4592294e-39 345 242
-0.045193922 0.71600002 -0.00376616 1.0788331e-38 284 243
-0.043938532 0.71600002 -0.00376616 2.5832783e-39 285 243
-0.042563915 0.71399999 -0.0037556398 4.6847103e-39 286 243
-0.041312039 0.71399999 -0.0037556398 6.1598404e-39 287 243
-0.040004052 0.713 -0.0037503797 5.5177178e-39 288 243
-0.038645219 0.71100003 -0.0037398601 5.7017489e-39 289 243
-0.037345998 0.70999998 -0.0037345996 6.1616551e-39 290 243
-0.03599944 0.708 -0.00372408 6.2538507e-39 291 243
-0.034708988 0.70700002 -0.0037188199 6.8044909e-39 292 243
-0.033422034 0.70599997 -0.0037135598 6.8044909e-39 293 243
-0.032093015 0.704 -0.0037030398 7.0807023e-39 294 243
-0.030814834 0.70300001 -0.0036977797 7.0807023e-39 295 243
-0.029455997 0.69999999 -0.0036819996 7.2643705e-39 296 243
-0.028228667 0.69999999 -0.0036819996 7.2643705e-39 297 243
-0.026924185 0.69800001 -0.0036714801 7.4484114e-39 298 243
-0.025700359 0.69800001 -0.0036714801 7.7253584e-39 299 243
-0.024476532 0.69800001 -0.0036714801 7.545293e-39 300 243
-0.023252707 0.69800001 -0.0036714801 7.3609003e-39 301 243
-0.02202888 0.69800001 -0.0036714801 7.6317265e-39 302 243
-0.020864666 0.69999999 -0.0036819996 6.5253803e-39 303 243
-0.019581227 0.69800001 -0.0036714801 6.340975e-39 304 243
-0.0183574 0.69800001 -0.0036714801 6.1562251e-39 305 243
-0.017133573 0.69800001 -0.0036714801 6.1562251e-39 306 243
-0.015909746 0.69800001 -0.0036714801 6.1562251e-39 307 243
-0.01466488 0.69700003 -0.00366622 6.4313728e-39 308 243
-0.013442807 0.69700003 -0.00366622 6.5235684e-39 309 243
-0.012238266 0.69800001 -0.0036714801 6.7068807e-39 310 243
-0.01099866 0.69700003 -0.00366622 6.7068807e-39 311 243
-0.0097765867 0.69700003 -0.00366622 6.4313728e-39 312 243
-0.0085545136 0.69700003 -0.00366622 6.3388184e-39 313 243
-0.00733244 0.69700003 -0.00366622 6.339173e-39 314 243
-0.0061103669 0.69700003 -0.00366622 6.339173e-39 315 243
-0.0048953067 0.69800001 -0.0036714801 6.2480577e-39 316 243
-0.00366622 0.69700003 -0.00366622 6.3402534e-39 317 243
-0.0024441467 0.69700003 -0.00366622 6.3402562e-39 318 243
-0.0012220733 0.69700003 -0.00366622 6.2477018e-39 319 243
0 0.69599998 -0.0036609597 6.2477046e-39 320 243
0.0012203199 0.69599998 -0.0036609597 6.2477046e-39 321 243
0.0024441467 0.69700003 -0.00366622 5.9729156e-39 322 243
0.00366622 0.69700003 -0.00366622 5.9729156e-39 323 243
0.0048882933 0.69700003 -0.00366622 5.7903194e-39 324 243
0.0061103669 0.69700003 -0.00366622 5.7903194e-39 325 243
0.00733244 0.69700003 -0.00366622 5.6070071e-39 326 243
0.0085545136 0.69700003 -0.00366622 5.6070071e-39 327 243
0.0097765867 0.69700003 -0.00366622 5.4240578e-39 328 243
0.01101444 0.69800001 -0.0036714801 5.6080889e-39 329 243
0.012238266 0.69800001 -0.0036714801 5.4254955e-39 330 243
0.013462093 0.69800001 -0.0036714801 5.4254955e-39 331 243
0.01468592 0.69800001 -0.0036714801 5.1499849e-39 332 243
0.015955333 0.69999999 -0.0036819996 5.1499849e-39 333 243
0.017182667 0.69999999 -0.0036819996 5.0577892e-39 334 243
0.018436298 0.70099998 -0.0036872597 5.0577892e-39 335 243
0.019721493 0.70300001 -0.0036977797 5.0567144e-39 336 243
0.020983893 0.704 -0.0037030398 4.9645188e-39 337 243
0.022218239 0.704 -0.0037030398 4.7812093e-39 338 243
0.023519212 0.70599997 -0.0037135598 4.9652405e-39 339 243
0.024757065 0.70599997 -0.0037135598 4.6904584e-39 340 243
0.02603174 0.70700002 -0.0037188199 4.8744896e-39 341 243
0.027309919 0.708 -0.00372408 5.1510835e-39 342 243
0.028631933 0.70999998 -0.0037345996 5.7042573e-39 343 243
0.029918881 0.71100003 -0.0037398601 3.5852123e-39 344 243
-0.0467088 0.72000003 -0.0050496003 1.3925507e-38 283 244
-0.045193922 0.71600002 -0.0050215465 9.9578497e-39 284 244
-0.043938532 0.71600002 -0.0050215465 2.6743949e-39 285 244
-0.042563915 0.71399999 -0.0050075199 4.4109975e-39 286 244
-0.041312039 0.71399999 -0.0050075199 5.6095407e-39 287 244
-0.040004052 0.713 -0.0050005065 5.240405e-39 288 244
-0.038645219 0.71100003 -0.0049864799 5.4247949e-39 289 244
-0.0372408 0.708 -0.0049654399 5.6992308e-39 290 244
-0.03599944 0.708 -0.0049654399 5.8839822e-39 291 244
-0.034708988 0.70700002 -0.0049584266 6.4353483e-39 292 244
-0.033422034 0.70599997 -0.0049514128 6.8044909e-39 293 244
-0.032093015 0.704 -0.0049373866 6.8970369e-39 294 244
-0.030814834 0.70300001 -0.0049303733 7.265818e-39 295 244
