# .PCD v.7 - Point Cloud Data file format
FIELDS x y z rgb imX imY
SIZE 4 4 4 4 4 4
TYPE F F F F F F
COUNT 1 1 1 1 1 1
WIDTH 837
HEIGHT 1
VIEWPOINT 0 0 0 1 0 0 0
POINTS 837
DATA ascii
0.025284819 0.759 -0.00133078 1.400815e-38 339 241
0.026615599 0.759 -0.00133078 1.4468129e-38 340 241
0.027946379 0.759 -0.00133078 1.6035814e-38 341 241
-0.042697169 0.76099998 -0.0026685731 1.6041216e-38 288 242
-0.041362885 0.76099998 -0.0026685731 1.5764987e-38 289 242
-0.0399234 0.759 -0.00266156 1.6133003e-38 290 242
-0.038389232 0.755 -0.0026475333 1.6133003e-38 291 242
-0.037016369 0.75400001 -0.0026440267 1.6317019e-38 292 242
-0.035599679 0.75199997 -0.0026370131 1.6409215e-38 293 242
-0.034281172 0.75199997 -0.0026370131 1.6318454e-38 294 242
-0.032874998 0.75 -0.00263 1.6502485e-38 295 242
-0.031517919 0.74900001 -0.0026264933 1.6502859e-38 296 242
-0.030124018 0.74699998 -0.0026194798 1.7240783e-38 297 242
-0.028814279 0.74699998 -0.0026194798 1.6966733e-38 298 242
-0.027467718 0.74599999 -0.0026159731 1.7519906e-38 299 242
-0.026159734 0.74599999 -0.0026159731 1.7703572e-38 300 242
-0.024851745 0.74599999 -0.0026159731 1.7334791e-38 301 242
-0.023480639 0.74400002 -0.00260896 1.742589e-38 302 242
-0.022116546 0.74199998 -0.0026019465 1.7241499e-38 303 242
-0.020815572 0.74199998 -0.0026019465 1.714712e-38 304 242
-0.0195146 0.74199998 -0.0026019465 1.6501751e-38 305 242
-0.018213626 0.74199998 -0.0026019465 1.6318041e-38 306 242
-0.016912652 0.74199998 -0.0026019465 1.6041454e-38 307 242
-0.015611678 0.74199998 -0.0026019465 1.5949604e-38 308 242
-0.014310705 0.74199998 -0.0026019465 1.5765213e-38 309 242
-0.013009733 0.74199998 -0.0026019465 1.6132201e-38 310 242
-0.01170876 0.74199998 -0.0026019465 1.6224398e-38 311 242
-0.010407786 0.74199998 -0.0026019465 1.6591738e-38 312 242
-0.009106813 0.74199998 -0.0026019465 1.6499541e-38 313 242
-0.0078058392 0.74199998 -0.0026019465 1.6865804e-38 314 242
-0.0065048663 0.74199998 -0.0026019465 1.677361e-38 315 242
-0.0052038929 0.74199998 -0.0026019465 1.6313356e-38 316 242
-0.0039029196 0.74199998 -0.0026019465 1.6037132e-38 317 242
-0.0026019465 0.74199998 -0.0026019465 1.5577237e-38 318 242
-0.00130448 0.74400002 -0.00260896 1.5208819e-38 319 242
0 0.74599999 -0.0026159731 1.4932954e-38 320 242
0.0013079866 0.74599999 -0.0026159731 1.4656012e-38 321 242
0.0026159731 0.74599999 -0.0026159731 1.4656012e-38 322 242
0.0039239596 0.74599999 -0.0026159731 1.456346e-38 323 242
0.0052389596 0.74699998 -0.0026194798 1.4562742e-38 324 242
0.0065486995 0.74699998 -0.0026194798 1.4654936e-38 325 242
0.0078584393 0.74699998 -0.0026194798 1.4562383e-38 326 242
0.0091681797 0.74699998 -0.0026194798 1.4470189e-38 327 242
0.010477919 0.74699998 -0.0026194798 1.4377999e-38 328 242
0.01181922 0.74900001 -0.0026264933 1.4377999e-38 329 242
0.013132467 0.74900001 -0.0026264933 1.4102488e-38 330 242
0.014465 0.75 -0.00263 1.4010294e-38 331 242
0.01578 0.75 -0.00263 1.4009935e-38 332 242
0.017140586 0.75199997 -0.0026370131 1.3917741e-38 333 242
0.018508185 0.75400001 -0.0026440267 1.3917382e-38 334 242
0.019830201 0.75400001 -0.0026440267 1.3825188e-38 335 242
0.021180267 0.755 -0.0026475333 1.3824471e-38 336 242
0.022563647 0.75700003 -0.0026545466 1.3732277e-38 337 242
0.02389092 0.75700003 -0.0026545466 1.3916326e-38 338 242
0.025284819 0.759 -0.00266156 1.3916326e-38 339 242
0.026615599 0.759 -0.00266156 1.4559974e-38 340 242
0.027946379 0.759 -0.00266156 1.6403887e-38 341 242
-0.042697169 0.76099998 -0.0040028598 1.5948297e-38 288 243
-0.041362885 0.76099998 -0.0040028598 1.5856101e-38 289 243
-0.0399234 0.759 -0.0039923396 1.6225202e-38 290 243
-0.038389232 0.755 -0.0039712996 1.6133006e-38 291 243
-0.037016369 0.75400001 -0.00396604 1.6317019e-38 292 243
-0.035694357 0.75400001 -0.00396604 1.6409215e-38 293 243
-0.034281172 0.75199997 -0.0039555198 1.6318454e-38 294 243
-0.032874998 0.75 -0.003945 1.6318454e-38 295 243
-0.031517919 0.74900001 -0.0039397399 1.6594332e-38 296 243
-0.030204674 0.74900001 -0.0039397399 1.6870919e-38 297 243
-0.028814279 0.74699998 -0.0039292197 1.705678e-38 298 243
-0.027504537 0.74699998 -0.0039292197 1.7609954e-38 299 243
-0.026194798 0.74699998 -0.0039292197 1.7612137e-38 300 243
-0.024851745 0.74599999 -0.0039239596 1.7704333e-38 301 243
-0.023480639 0.74400002 -0.0039134403 1.7980194e-38 302 243
-0.022176161 0.74400002 -0.0039134403 1.7611413e-38 303 243
-0.02087168 0.74400002 -0.0039134403 1.7333347e-38 304 243
-0.0195146 0.74199998 -0.0039029196 1.6687978e-38 305 243
-0.018213626 0.74199998 -0.0039029196 1.6318779e-38 306 243
-0.016912652 0.74199998 -0.0039029196 1.5949997e-38 307 243
-0.015611678 0.74199998 -0.0039029196 1.6134356e-38 308 243
-0.014310705 0.74199998 -0.0039029196 1.5857409e-38 309 243
-0.013009733 0.74199998 -0.0039029196 1.62244e-38 310 243
-0.01170876 0.74199998 -0.0039029196 1.6316596e-38 311 243
-0.010407786 0.74199998 -0.0039029196 1.6591756e-38 312 243
-0.009106813 0.74199998 -0.0039029196 1.6499561e-38 313 243
-0.0078058392 0.74199998 -0.0039029196 1.6682504e-38 314 243
-0.0065048663 0.74199998 -0.0039029196 1.6590307e-38 315 243
-0.0052038929 0.74199998 -0.0039029196 1.6314432e-38 316 243
-0.0039029196 0.74199998 -0.0039029196 1.603785e-38 317 243
-0.0026019465 0.74199998 -0.0039029196 1.5669432e-38 318 243
-0.0013009732 0.74199998 -0.0039029196 1.5301013e-38 319 243
0 0.74400002 -0.0039134403 1.4841118e-38 320 243
0.0013079866 0.74599999 -0.0039239596 1.465673e-38 321 243
0.0026159731 0.74599999 -0.0039239596 1.456346e-38 322 243
0.0039239596 0.74599999 -0.0039239596 1.4471265e-38 323 243
0.0052319462 0.74599999 -0.0039239596 1.456346e-38 324 243
0.0065486995 0.74699998 -0.0039292197 1.456346e-38 325 243
0.0078584393 0.74699998 -0.0039292197 1.4562025e-38 326 243
0.0091681797 0.74699998 -0.0039292197 1.4562025e-38 327 243
0.010477919 0.74699998 -0.0039292197 1.4377999e-38 328 243
0.01181922 0.74900001 -0.0039397399 1.4193967e-38 329 243
0.013132467 0.74900001 -0.0039397399 1.410249e-38 330 243
0.014445714 0.74900001 -0.0039397399 1.4010294e-38 331 243
0.01578 0.75 -0.003945 1.4009935e-38 332 243
0.017140586 0.75199997 -0.0039555198 1.3825547e-38 333 243
0.018508185 0.75400001 -0.00396604 1.40085e-38 334 243
0.019830201 0.75400001 -0.00396604 1.40085e-38 335 243
0.021180267 0.755 -0.0039712996 1.3915948e-38 336 243
0.022563647 0.75700003 -0.0039818203 1.3915948e-38 337 243
0.02389092 0.75700003 -0.0039818203 1.4008156e-38 338 243
0.025284819 0.759 -0.0039923396 1.4008156e-38 339 243
0.026615599 0.759 -0.0039923396 1.4559974e-38 340 243
0.027946379 0.759 -0.0039923396 1.6680833e-38 341 243
-0.044089317 0.76200002 -0.0053441599 1.6313534e-38 287 244
-0.042697169 0.76099998 -0.0053371461 1.5948665e-38 288 244
-0.041362885 0.76099998 -0.0053371461 1.5764634e-38 289 244
-0.0399234 0.759 -0.0053231199 1.613265e-38 290 244
-0.038490929 0.75700003 -0.0053090933 1.6040455e-38 291 244
-0.037065465 0.755 -0.0052950666 1.613371e-38 292 244
-0.035694357 0.75400001 -0.0052880533 1.613371e-38 293 244
-0.034281172 0.75199997 -0.0052740262 1.613371e-38 294 244
-0.032874998 0.75 -0.00526 1.6225905e-38 295 244
-0.031517919 0.74900001 -0.0052529867 1.6318104e-38 296 244
-0.030204674 0.74900001 -0.0052529867 1.6686528e-38 297 244
-0.028814279 0.74699998 -0.0052389596 1.6871664e-38 298 244
-0.027504537 0.74699998 -0.0052389596 1.7332641e-38 299 244
-0.026194798 0.74699998 -0.0052389596 1.7244078e-38 300 244
-0.024885058 0.74699998 -0.0052389596 1.761286e-38 301 244
-0.023543758 0.74599999 -0.0052319462 1.7705426e-38 302 244
-0.022235774 0.74599999 -0.0052319462 1.7613229e-38 303 244
-0.020927785 0.74599999 -0.0052319462 1.7612841e-38 304 244
-0.019567199 0.74400002 -0.0052179201 1.6690886e-38 305 244
-0.018213626 0.74199998 -0.0052038929 1.5951464e-38 306 244
-0.016912652 0.74199998 -0.0052038929 1.558304e-38 307 244
-0.015611678 0.74199998 -0.0052038929 1.6042899e-38 308 244
-0.014310705 0.74199998 -0.0052038929 1.5858507e-38 309 244
-0.013009733 0.74199998 -0.0052038929 1.6224413e-38 310 244
-0.01170876 0.74199998 -0.0052038929 1.6040382e-38 311 244
-0.010407786 0.74199998 -0.0052038929 1.6407362e-38 312 244
-0.009106813 0.74199998 -0.0052038929 1.6407362e-38 313 244
-0.0078058392 0.74199998 -0.0052038929 1.640699e-38 314 244
-0.0065048663 0.74199998 -0.0052038929 1.6222598e-38 315 244
-0.0052038929 0.74199998 -0.0052038929 1.6221879e-38 316 244
-0.0039029196 0.74199998 -0.0052038929 1.6037491e-38 317 244
-0.0026019465 0.74199998 -0.0052038929 1.5761626e-38 318 244
-0.0013009732 0.74199998 -0.0052038929 1.5301013e-38 319 244
0 0.74199998 -0.0052038929 1.4841477e-38 320 244
0.0013009732 0.74199998 -0.0052038929 1.4380506e-38 321 244
0.00260896 0.74400002 -0.0052179201 1.456346e-38 322 244
0.0039134403 0.74400002 -0.0052179201 1.4471265e-38 323 244
0.0052319462 0.74599999 -0.0052319462 1.4470907e-38 324 244
0.0065486995 0.74699998 -0.0052389596 1.4470907e-38 325 244
0.0078584393 0.74699998 -0.0052389596 1.4378354e-38 326 244
0.0091681797 0.74699998 -0.0052389596 1.4378354e-38 327 244
0.010477919 0.74699998 -0.0052389596 1.4102847e-38 328 244
0.01181922 0.74900001 -0.0052529867 1.4010653e-38 329 244
0.013132467 0.74900001 -0.0052529867 1.4009935e-38 330 244
0.014445714 0.74900001 -0.0052529867 1.4009935e-38 331 244
0.01578 0.75 -0.00526 1.3917741e-38 332 244
0.017140586 0.75199997 -0.0052740262 1.3825547e-38 333 244
0.018508185 0.75400001 -0.0052880533 1.40085e-38 334 244
0.019830201 0.75400001 -0.0052880533 1.40085e-38 335 244
0.021180267 0.755 -0.0052950666 1.3915589e-38 336 244
0.022563647 0.75700003 -0.0053090933 1.4008142e-38 337 244
0.023954039 0.759 -0.0053231199 1.4008522e-38 338 244
0.025284819 0.759 -0.0053231199 1.4008522e-38 339 244
0.026685731 0.76099998 -0.0053371461 1.456034e-38 340 244
0.028020019 0.76099998 -0.0053371461 1.6773395e-38 341 244
-0.044089317 0.76200002 -0.0066801999 1.604092e-38 287 245
-0.042753279 0.76200002 -0.0066801999 1.5949045e-38 288 245
-0.041362885 0.76099998 -0.0066714329 1.5764654e-38 289 245
-0.040028598 0.76099998 -0.0066714329 1.5948985e-38 290 245
-0.038592618 0.759 -0.0066538998 1.5856789e-38 291 245
-0.037065465 0.755 -0.0066188332 1.5950039e-38 292 245
-0.035694357 0.75400001 -0.0066100666 1.5950039e-38 293 245
-0.034281172 0.75199997 -0.0065925326 1.5950395e-38 294 245
-0.032874998 0.75 -0.006575 1.6134426e-38 295 245
-0.031517919 0.74900001 -0.0065662335 1.6226271e-38 296 245
-0.030204674 0.74900001 -0.0065662335 1.6410664e-38 297 245
-0.028814279 0.74699998 -0.0065486995 1.6319918e-38 298 245
-0.027504537 0.74699998 -0.0065486995 1.6596145e-38 299 245
-0.026194798 0.74699998 -0.0065486995 1.6690535e-38 300 245
-0.024885058 0.74699998 -0.0065486995 1.7612131e-38 301 245
-0.023543758 0.74599999 -0.0065399334 1.7430639e-38 302 245
-0.022235774 0.74599999 -0.0065399334 1.7522835e-38 303 245
-0.020927785 0.74599999 -0.0065399334 1.7705782e-38 304 245
-0.019567199 0.74400002 -0.0065223998 1.7060412e-38 305 245
-0.01826272 0.74400002 -0.0065223998 1.5767476e-38 306 245
-0.016912652 0.74199998 -0.0065048663 1.5491249e-38 307 245
-0.015611678 0.74199998 -0.0065048663 1.5950368e-38 308 245
-0.014310705 0.74199998 -0.0065048663 1.5858172e-38 309 245
-0.013009733 0.74199998 -0.0065048663 1.6041101e-38 310 245
-0.01170876 0.74199998 -0.0065048663 1.5856708e-38 311 245
-0.010407786 0.74199998 -0.0065048663 1.6131494e-38 312 245
-0.009106813 0.74199998 -0.0065048663 1.5947103e-38 313 245
-0.0078058392 0.74199998 -0.0065048663 1.6039301e-38 314 245
-0.0065048663 0.74199998 -0.0065048663 1.5763075e-38 315 245
-0.0052038929 0.74199998 -0.0065048663 1.5854189e-38 316 245
-0.0039029196 0.74199998 -0.0065048663 1.557796e-38 317 245
-0.0026019465 0.74199998 -0.0065048663 1.5486119e-38 318 245
-0.0013009732 0.74199998 -0.0065048663 1.5116984e-38 319 245
0 0.74199998 -0.0065048663 1.4748565e-38 320 245
0.0013009732 0.74199998 -0.0065048663 1.4564177e-38 321 245
0.00260896 0.74400002 -0.0065223998 1.4471265e-38 322 245
0.0039134403 0.74400002 -0.0065223998 1.4471265e-38 323 245
0.0052319462 0.74599999 -0.0065399334 1.4287594e-38 324 245
0.0065399334 0.74599999 -0.0065399334 1.4195041e-38 325 245
0.0078584393 0.74699998 -0.0065486995 1.4194324e-38 326 245
0.0091681797 0.74699998 -0.0065486995 1.4101771e-38 327 245
0.010477919 0.74699998 -0.0065486995 1.4010294e-38 328 245
0.01181922 0.74900001 -0.0065662335 1.3826264e-38 329 245
0.013132467 0.74900001 -0.0065662335 1.3734429e-38 330 245
0.014465 0.75 -0.006575 1.3734429e-38 331 245
0.01578 0.75 -0.006575 1.3825547e-38 332 245
0.017140586 0.75199997 -0.0065925326 1.3733353e-38 333 245
0.018508185 0.75400001 -0.0066100666 1.3915948e-38 334 245
0.019830201 0.75400001 -0.0066100666 1.3915948e-38 335 245
0.021180267 0.755 -0.0066188332 1.409926e-38 336 245
0.022563647 0.75700003 -0.0066363667 1.4375484e-38 337 245
0.023954039 0.759 -0.0066538998 1.4100734e-38 338 245
0.025351444 0.76099998 -0.0066714329 1.4285125e-38 339 245
0.026685731 0.76099998 -0.0066714329 1.5020602e-38 340 245
-0.04420504 0.764 -0.0080372803 1.659266e-38 287 246
-0.042753279 0.76200002 -0.0080162399 1.6041244e-38 288 246
-0.041362885 0.76099998 -0.0080057196 1.5764298e-38 289 246
-0.040028598 0.76099998 -0.0080057196 1.5949354e-38 290 246
-0.038592618 0.759 -0.0079846792 1.5857158e-38 291 246
-0.037163652 0.75700003 -0.0079636406 1.5950044e-38 292 246
-0.035694357 0.75400001 -0.00793208 1.5950044e-38 293 246
-0.034281172 0.75199997 -0.0079110395 1.6134423e-38 294 246
-0.032874998 0.75 -0.00789 1.5950392e-38 295 246
-0.031517919 0.74900001 -0.0078794798 1.613406e-38 296 246
-0.030204674 0.74900001 -0.0078794798 1.6226256e-38 297 246
-0.028891427 0.74900001 -0.0078794798 1.6318101e-38 298 246
-0.027504537 0.74699998 -0.0078584393 1.6318101e-38 299 246
-0.026194798 0.74699998 -0.0078584393 1.6413576e-38 300 246
-0.024851745 0.74599999 -0.0078479191 1.7151141e-38 301 246
-0.023543758 0.74599999 -0.0078479191 1.7338084e-38 302 246
-0.022235774 0.74599999 -0.0078479191 1.7707226e-38 303 246
-0.020927785 0.74599999 -0.0078479191 1.752103e-38 304 246
-0.019567199 0.74400002 -0.0078268806 1.6783465e-38 305 246
-0.01826272 0.74400002 -0.0078268806 1.5491965e-38 306 246
-0.016958239 0.74400002 -0.0078268806 1.539977e-38 307 246
-0.015611678 0.74199998 -0.0078058392 1.5859268e-38 308 246
-0.014310705 0.74199998 -0.0078058392 1.558304e-38 309 246
-0.013009733 0.74199998 -0.0078058392 1.5857448e-38 310 246
-0.01170876 0.74199998 -0.0078058392 1.5765252e-38 311 246
-0.010407786 0.74199998 -0.0078058392 1.5855986e-38 312 246
-0.009106813 0.74199998 -0.0078058392 1.5671595e-38 313 246
-0.0078058392 0.74199998 -0.0078058392 1.5670873e-38 314 246
-0.0065048663 0.74199998 -0.0078058392 1.5763069e-38 315 246
-0.0052038929 0.74199998 -0.0078058392 1.5579044e-38 316 246
-0.0039029196 0.74199998 -0.0078058392 1.5302815e-38 317 246
-0.0026019465 0.74199998 -0.0078058392 1.530209e-38 318 246
-0.0013009732 0.74199998 -0.0078058392 1.4933313e-38 319 246
0 0.74199998 -0.0078058392 1.4841477e-38 320 246
0.00130448 0.74400002 -0.0078268806 1.4380506e-38 321 246
0.00260896 0.74400002 -0.0078268806 1.4287953e-38 322 246
0.0039134403 0.74400002 -0.0078268806 1.4287953e-38 323 246
0.0052319462 0.74599999 -0.0078479191 1.4195041e-38 324 246
0.0065399334 0.74599999 -0.0078479191 1.4195041e-38 325 246
0.0078584393 0.74699998 -0.0078584393 1.4011021e-38 326 246
0.0091681797 0.74699998 -0.0078584393 1.4011021e-38 327 246
0.010477919 0.74699998 -0.0078584393 1.3825907e-38 328 246
0.01181922 0.74900001 -0.0078794798 1.3733711e-38 329 246
0.013132467 0.74900001 -0.0078794798 1.3734429e-38 330 246
0.014465 0.75 -0.00789 1.3642235e-38 331 246
0.01578 0.75 -0.00789 1.3733353e-38 332 246
0.017140586 0.75199997 -0.0079110395 1.3549323e-38 333 246
0.018508185 0.75400001 -0.00793208 1.3915948e-38 334 246
0.019830201 0.75400001 -0.00793208 1.3915948e-38 335 246
0.021180267 0.755 -0.0079425992 1.4007424e-38 336 246
0.022563647 0.75700003 -0.0079636406 1.4191816e-38 337 246
0.024017159 0.76099998 -0.0080057196 1.4100384e-38 338 246
0.02538476 0.76200002 -0.0080162399 1.4930144e-38 339 246
0.0267208 0.76200002 -0.0080162399 1.5573066e-38 340 246
-0.04420504 0.764 -0.0093768267 1.6224966e-38 287 247
-0.042753279 0.76200002 -0.0093522798 1.6041963e-38 288 247
-0.041417241 0.76200002 -0.0093522798 1.5580986e-38 289 247
-0.040028598 0.76099998 -0.0093400059 1.6133022e-38 290 247
-0.038592618 0.759 -0.00931546 1.5948991e-38 291 247
-0.037163652 0.75700003 -0.0092909131 1.5950044e-38 292 247
-0.035741698 0.755 -0.0092663663 1.5950044e-38 293 247
-0.034372345 0.75400001 -0.0092540924 1.5950748e-38 294 247
-0.032962665 0.75199997 -0.0092295464 1.5950748e-38 295 247
-0.03156 0.75 -0.0092049995 1.6133704e-38 296 247
-0.030204674 0.74900001 -0.0091927266 1.6133704e-38 297 247
-0.028891427 0.74900001 -0.0091927266 1.5951126e-38 298 247
-0.027504537 0.74699998 -0.0091681797 1.5951126e-38 299 247
-0.026194798 0.74699998 -0.0091681797 1.5861477e-38 300 247
-0.024851745 0.74599999 -0.0091559067 1.641465e-38 301 247
-0.023543758 0.74599999 -0.0091559067 1.6599784e-38 302 247
-0.022235774 0.74599999 -0.0091559067 1.7245154e-38 303 247
-0.020927785 0.74599999 -0.0091559067 1.7242263e-38 304 247
-0.019567199 0.74400002 -0.0091313599 1.6689089e-38 305 247
-0.01826272 0.74400002 -0.0091313599 1.5860026e-38 306 247
-0.016958239 0.74400002 -0.0091313599 1.5583798e-38 307 247
-0.015611678 0.74199998 -0.009106813 1.5766364e-38 308 247
-0.014310705 0.74199998 -0.009106813 1.5490135e-38 309 247
-0.013009733 0.74199998 -0.009106813 1.5765252e-38 310 247
-0.01170876 0.74199998 -0.009106813 1.5673057e-38 311 247
-0.010407786 0.74199998 -0.009106813 1.594675e-38 312 247
-0.009106813 0.74199998 -0.009106813 1.5762719e-38 313 247
-0.0078058392 0.74199998 -0.009106813 1.567052e-38 314 247
-0.0065048663 0.74199998 -0.009106813 1.5578325e-38 315 247
-0.0052038929 0.74199998 -0.009106813 1.5394659e-38 316 247
-0.0039029196 0.74199998 -0.009106813 1.5118071e-38 317 247
-0.0026019465 0.74199998 -0.009106813 1.493403e-38 318 247
-0.0013009732 0.74199998 -0.009106813 1.4657806e-38 319 247
0 0.74199998 -0.009106813 1.4748565e-38 320 247
0.00130448 0.74400002 -0.0091313599 1.4564177e-38 321 247
0.00260896 0.74400002 -0.0091313599 1.4379071e-38 322 247
0.0039134403 0.74400002 -0.0091313599 1.4471624e-38 323 247
0.0052319462 0.74599999 -0.0091559067 1.4287594e-38 324 247
0.0065399334 0.74599999 -0.0091559067 1.4195041e-38 325 247
0.0078584393 0.74699998 -0.0091681797 1.4378002e-38 326 247
0.0091681797 0.74699998 -0.0091681797 1.4193969e-38 327 247
0.010505973 0.74900001 -0.0091927266 1.3825907e-38 328 247
0.01181922 0.74900001 -0.0091927266 1.3733711e-38 329 247
0.013132467 0.74900001 -0.0091927266 1.3642235e-38 330 247
0.014465 0.75 -0.0092049995 1.3642235e-38 331 247
0.01578 0.75 -0.0092049995 1.3548964e-38 332 247
0.017140586 0.75199997 -0.0092295464 1.3548964e-38 333 247
0.018508185 0.75400001 -0.0092540924 1.3732277e-38 334 247
0.019830201 0.75400001 -0.0092540924 1.3824471e-38 335 247
0.021180267 0.755 -0.0092663663 1.4099267e-38 336 247
0.022563647 0.75700003 -0.0092909131 1.4284017e-38 337 247
0.024017159 0.76099998 -0.0093400059 1.4375188e-38 338 247
0.02538476 0.76200002 -0.0093522798 1.53897e-38 339 247
0.028789733 0.82099998 -0.010076405 1.5574515e-38 340 247
-0.04420504 0.764 -0.010716373 1.6409361e-38 287 248
-0.042865492 0.764 -0.010716373 1.5858297e-38 288 248
-0.041417241 0.76200002 -0.01068832 1.5489156e-38 289 248
-0.040028598 0.76099998 -0.010674292 1.6041555e-38 290 248
-0.038694311 0.76099998 -0.010674292 1.5949e-38 291 248
-0.03726184 0.759 -0.01064624 1.5950054e-38 292 248
-0.035741698 0.755 -0.010590133 1.5950054e-38 293 248
-0.034372345 0.75400001 -0.010576107 1.6134423e-38 294 248
-0.032962665 0.75199997 -0.010548052 1.5858196e-38 295 248
-0.03156 0.75 -0.01052 1.6042215e-38 296 248
-0.030204674 0.74900001 -0.010505973 1.5950018e-38 297 248
-0.028891427 0.74900001 -0.010505973 1.5766364e-38 298 248
-0.027504537 0.74699998 -0.010477919 1.5858918e-38 299 248
-0.026194798 0.74699998 -0.010477919 1.5494121e-38 300 248
-0.024885058 0.74699998 -0.010477919 1.5678512e-38 301 248
-0.023543758 0.74599999 -0.010463892 1.6228814e-38 302 248
-0.022235774 0.74599999 -0.010463892 1.6228814e-38 303 248
-0.020927785 0.74599999 -0.010463892 1.6410669e-38 304 248
-0.019619798 0.74599999 -0.010463892 1.6318114e-38 305 248
-0.018311813 0.74599999 -0.010463892 1.5767448e-38 306 248
-0.016958239 0.74400002 -0.01043584 1.5675253e-38 307 248
-0.015653761 0.74400002 -0.01043584 1.5766364e-38 308 248
-0.01434928 0.74400002 -0.01043584 1.5582331e-38 309 248
-0.0130448 0.74400002 -0.01043584 1.5673435e-38 310 248
-0.01170876 0.74199998 -0.010407786 1.5581239e-38 311 248
-0.010407786 0.74199998 -0.010407786 1.5947481e-38 312 248
-0.009106813 0.74199998 -0.010407786 1.576309e-38 313 248
-0.0078058392 0.74199998 -0.010407786 1.5578681e-38 314 248
-0.0065048663 0.74199998 -0.010407786 1.5486125e-38 315 248
-0.0052038929 0.74199998 -0.010407786 1.5393929e-38 316 248
-0.0039029196 0.74199998 -0.010407786 1.5301734e-38 317 248
-0.0026019465 0.74199998 -0.010407786 1.4842913e-38 318 248
-0.0013009732 0.74199998 -0.010407786 1.4565971e-38 319 248
0 0.74199998 -0.010407786 1.4565253e-38 320 248
0.00130448 0.74400002 -0.01043584 1.428867e-38 321 248
0.00260896 0.74400002 -0.01043584 1.4379789e-38 322 248
0.0039134403 0.74400002 -0.01043584 1.4287594e-38 323 248
0.0052319462 0.74599999 -0.010463892 1.4286882e-38 324 248
0.0065486995 0.74699998 -0.010477919 1.4286882e-38 325 248
0.0078584393 0.74699998 -0.010477919 1.3918824e-38 326 248
0.0091927266 0.74900001 -0.010505973 1.3918824e-38 327 248
0.010505973 0.74900001 -0.010505973 1.3917024e-38 328 248
0.01181922 0.74900001 -0.010505973 1.3824829e-38 329 248
0.013132467 0.74900001 -0.010505973 1.3824471e-38 330 248
0.014465 0.75 -0.01052 1.3824471e-38 331 248
0.015822079 0.75199997 -0.010548052 1.3732635e-38 332 248
0.017140586 0.75199997 -0.010548052 1.3548606e-38 333 248
0.018508185 0.75400001 -0.010576107 1.3731918e-38 334 248
0.019830201 0.75400001 -0.010576107 1.3916308e-38 335 248
0.021180267 0.755 -0.010590133 1.4191115e-38 336 248
0.022563647 0.75700003 -0.010618187 1.4375506e-38 337 248
0.024017159 0.76099998 -0.010674292 1.4558879e-38 338 248
0.027350245 0.82099998 -0.011515893 1.5849617e-38 339 248
-0.044320758 0.76599997 -0.012087479 1.6317528e-38 287 249
-0.042865492 0.764 -0.01205592 1.6041256e-38 288 249
-0.041525945 0.764 -0.01205592 1.5488082e-38 289 249
-0.040081199 0.76200002 -0.01202436 1.5949006e-38 290 249
-0.038694311 0.76099998 -0.012008579 1.5949006e-38 291 249
-0.03726184 0.759 -0.01197702 1.5766748e-38 292 249
-0.03583638 0.75700003 -0.01194546 1.5674193e-38 293 249
-0.034417931 0.755 -0.011913899 1.5950395e-38 294 249
-0.033050332 0.75400001 -0.01189812 1.5858199e-38 295 249
-0.031644158 0.75199997 -0.011866559 1.5767073e-38 296 249
-0.030244999 0.75 -0.011835 1.558304e-38 297 249
-0.028891427 0.74900001 -0.01181922 1.5490854e-38 298 249
-0.027578179 0.74900001 -0.01181922 1.5583051e-38 299 249
-0.026194798 0.74699998 -0.011787659 1.5584502e-38 300 249
-0.024885058 0.74699998 -0.011787659 1.586073e-38 301 249
-0.023543758 0.74599999 -0.011771879 1.6228073e-38 302 249
-0.022235774 0.74599999 -0.011771879 1.6228073e-38 303 249
-0.020927785 0.74599999 -0.011771879 1.6226621e-38 304 249
-0.019619798 0.74599999 -0.011771879 1.6134426e-38 305 249
-0.018311813 0.74599999 -0.011771879 1.5951114e-38 306 249
-0.017003827 0.74599999 -0.011771879 1.5766364e-38 307 249
-0.015653761 0.74400002 -0.011740319 1.5582331e-38 308 249
-0.01434928 0.74400002 -0.011740319 1.5490135e-38 309 249
-0.0130448 0.74400002 -0.011740319 1.5764552e-38 310 249
-0.01170876 0.74199998 -0.01170876 1.5672356e-38 311 249
-0.010407786 0.74199998 -0.01170876 1.5855639e-38 312 249
-0.009106813 0.74199998 -0.01170876 1.5763085e-38 313 249
-0.0078058392 0.74199998 -0.01170876 1.5854542e-38 314 249
-0.0065048663 0.74199998 -0.01170876 1.5577955e-38 315 249
-0.0052038929 0.74199998 -0.01170876 1.539321e-38 316 249
-0.0039029196 0.74199998 -0.01170876 1.5301015e-38 317 249
-0.00260896 0.74400002 -0.011740319 1.4933321e-38 318 249
-0.0013009732 0.74199998 -0.01170876 1.4657093e-38 319 249
0 0.74199998 -0.01170876 1.4472702e-38 320 249
0.00130448 0.74400002 -0.011740319 1.4103923e-38 321 249
0.0026159731 0.74599999 -0.011771879 1.4103926e-38 322 249
0.0039239596 0.74599999 -0.011771879 1.4011372e-38 323 249
0.0052389596 0.74699998 -0.011787659 1.4011021e-38 324 249
0.0065486995 0.74699998 -0.011787659 1.4011021e-38 325 249
0.0078584393 0.74699998 -0.011787659 1.4101418e-38 326 249
0.0091927266 0.74900001 -0.01181922 1.4009222e-38 327 249
0.010505973 0.74900001 -0.01181922 1.3732994e-38 328 249
0.01181922 0.74900001 -0.01181922 1.3732994e-38 329 249
0.01315 0.75 -0.011835 1.3732994e-38 330 249
0.014465 0.75 -0.011835 1.3548964e-38 331 249
0.015822079 0.75199997 -0.011866559 1.3732635e-38 332 249
0.017140586 0.75199997 -0.011866559 1.3548247e-38 333 249
0.018508185 0.75400001 -0.01189812 1.3731929e-38 334 249
0.019830201 0.75400001 -0.01189812 1.391632e-38 335 249
0.021180267 0.755 -0.011913899 1.4007465e-38 336 249
0.022504034 0.755 -0.011913899 1.4468443e-38 337 249
-0.04437862 0.76700002 -0.013448066 1.6592676e-38 287 250
-0.042977702 0.76599997 -0.013430533 1.6134178e-38 288 250
-0.041525945 0.764 -0.013395466 1.5488808e-38 289 250
-0.040081199 0.76200002 -0.0133604 1.6223808e-38 290 250
-0.038694311 0.76099998 -0.013342866 1.6131612e-38 291 250
-0.03726184 0.759 -0.0133078 1.5857155e-38 292 250
-0.03583638 0.75700003 -0.013272733 1.5764959e-38 293 250
-0.034417931 0.755 -0.013237666 1.5857849e-38 294 250
-0.033050332 0.75400001 -0.013220133 1.5857849e-38 295 250
-0.031644158 0.75199997 -0.013185065 1.5765996e-38 296 250
-0.030244999 0.75 -0.01315 1.5673801e-38 297 250
-0.028929999 0.75 -0.01315 1.5490491e-38 298 250
-0.027578179 0.74900001 -0.013132467 1.5582687e-38 299 250
-0.026194798 0.74699998 -0.013097399 1.5307912e-38 300 250
-0.024885058 0.74699998 -0.013097399 1.5400108e-38 301 250
-0.023543758 0.74599999 -0.013079867 1.5767817e-38 302 250
-0.022235774 0.74599999 -0.013079867 1.5767817e-38 303 250
-0.020927785 0.74599999 -0.013079867 1.5950407e-38 304 250
-0.019646099 0.74699998 -0.013097399 1.5766016e-38 305 250
-0.018336359 0.74699998 -0.013097399 1.5857846e-38 306 250
-0.017003827 0.74599999 -0.013079867 1.5857846e-38 307 250
-0.015695838 0.74599999 -0.013079867 1.5765647e-38 308 250
-0.01434928 0.74400002 -0.0130448 1.5765647e-38 309 250
-0.0130448 0.74400002 -0.0130448 1.5580883e-38 310 250
-0.011740319 0.74400002 -0.0130448 1.5488688e-38 311 250
-0.010407786 0.74199998 -0.013009733 1.5856005e-38 312 250
-0.009106813 0.74199998 -0.013009733 1.5763809e-38 313 250
-0.0078058392 0.74199998 -0.013009733 1.5578678e-38 314 250
-0.0065048663 0.74199998 -0.013009733 1.5394285e-38 315 250
-0.0052038929 0.74199998 -0.013009733 1.5025507e-38 316 250
-0.0039134403 0.74400002 -0.0130448 1.5025507e-38 317 250
-0.00260896 0.74400002 -0.0130448 1.4657816e-38 318 250
-0.0013009732 0.74199998 -0.013009733 1.4473065e-38 319 250
0 0.74199998 -0.013009733 1.4289033e-38 320 250
0.0013079866 0.74599999 -0.013079867 1.4104642e-38 321 250
0.0026159731 0.74599999 -0.013079867 1.4103923e-38 322 250
0.0039292197 0.74699998 -0.013097399 1.4011729e-38 323 250
0.0052389596 0.74699998 -0.013097399 1.4194687e-38 324 250
0.0065486995 0.74699998 -0.013097399 1.410249e-38 325 250
0.0078794798 0.74900001 -0.013132467 1.4008859e-38 326 250
0.0091927266 0.74900001 -0.013132467 1.4008859e-38 327 250
0.010505973 0.74900001 -0.013132467 1.3549682e-38 328 250
0.011835 0.75 -0.01315 1.3457488e-38 329 250
0.01315 0.75 -0.01315 1.3731918e-38 330 250
0.014465 0.75 -0.01315 1.3731918e-38 331 250
0.015822079 0.75199997 -0.013185065 1.3548247e-38 332 250
0.017186172 0.75400001 -0.013220133 1.3732279e-38 333 250
0.018508185 0.75400001 -0.013220133 1.3824127e-38 334 250
0.0198565 0.755 -0.013237666 1.4008519e-38 335 250
0.021180267 0.755 -0.013237666 1.4191507e-38 336 250
0.022504034 0.755 -0.013237666 1.474468e-38 337 250
-0.042977702 0.76599997 -0.014773586 1.6133472e-38 288 251
-0.041525945 0.764 -0.014735013 1.5764689e-38 289 251
-0.040186398 0.764 -0.014735013 1.5764637e-38 290 251
-0.038745161 0.76200002 -0.01469644 1.5672083e-38 291 251
-0.037360024 0.76099998 -0.014677152 1.5856439e-38 292 251
-0.03583638 0.75700003 -0.014600007 1.5856439e-38 293 251
-0.034417931 0.755 -0.014561433 1.5857496e-38 294 251
-0.033050332 0.75400001 -0.014542146 1.57653e-38 295 251
-0.031644158 0.75199997 -0.014503572 1.567345e-38 296 251
-0.030325651 0.75199997 -0.014503572 1.5489059e-38 297 251
-0.028929999 0.75 -0.014465 1.5305388e-38 298 251
-0.027578179 0.74900001 -0.014445714 1.5490138e-38 299 251
-0.026264934 0.74900001 -0.014445714 1.530719e-38 300 251
-0.024885058 0.74699998 -0.014407139 1.530719e-38 301 251
-0.023543758 0.74599999 -0.014387853 1.5490503e-38 302 251
-0.022235774 0.74599999 -0.014387853 1.5583057e-38 303 251
-0.020927785 0.74599999 -0.014387853 1.5857843e-38 304 251
-0.019646099 0.74699998 -0.014407139 1.5857843e-38 305 251
-0.018336359 0.74699998 -0.014407139 1.5766002e-38 306 251
-0.017003827 0.74599999 -0.014387853 1.5766002e-38 307 251
-0.015695838 0.74599999 -0.014387853 1.5673448e-38 308 251
-0.01434928 0.74400002 -0.01434928 1.5581252e-38 309 251
-0.0130448 0.74400002 -0.01434928 1.5580886e-38 310 251
-0.011740319 0.74400002 -0.01434928 1.5580886e-38 311 251
-0.01043584 0.74400002 -0.01434928 1.5489028e-38 312 251
-0.0091313599 0.74400002 -0.01434928 1.5396473e-38 313 251
-0.0078268806 0.74400002 -0.01434928 1.5394659e-38 314 251
-0.0065223998 0.74400002 -0.01434928 1.5210267e-38 315 251
-0.0052179201 0.74400002 -0.01434928 1.5025875e-38 316 251
-0.0039134403 0.74400002 -0.01434928 1.4933321e-38 317 251
-0.00260896 0.74400002 -0.01434928 1.4474501e-38 318 251
-0.00130448 0.74400002 -0.01434928 1.4197554e-38 319 251
0 0.74400002 -0.01434928 1.4197911e-38 320 251
0.0013079866 0.74599999 -0.014387853 1.3829493e-38 321 251
0.0026159731 0.74599999 -0.014387853 1.4104282e-38 322 251
0.0039292197 0.74699998 -0.014407139 1.4012088e-38 323 251
0.0052389596 0.74699998 -0.014407139 1.4102488e-38 324 251
0.0065662335 0.74900001 -0.014445714 1.4010294e-38 325 251
0.0078794798 0.74900001 -0.014445714 1.3825188e-38 326 251
0.0092049995 0.75 -0.014465 1.3825188e-38 327 251
0.01052 0.75 -0.014465 1.3732994e-38 328 251
0.011835 0.75 -0.014465 1.3548964e-38 329 251
0.013185065 0.75199997 -0.014503572 1.3732635e-38 330 251
0.014503572 0.75199997 -0.014503572 1.3732635e-38 331 251
0.01586416 0.75400001 -0.014542146 1.3732282e-38 332 251
0.017186172 0.75400001 -0.014542146 1.3824478e-38 333 251
0.018532733 0.755 -0.014561433 1.3640459e-38 334 251
0.0198565 0.755 -0.014561433 1.3825209e-38 335 251
0.021180267 0.755 -0.014561433 1.4375188e-38 336 251
0.022504034 0.755 -0.014561433 1.5112753e-38 337 251
-0.043033812 0.76700002 -0.01613768 1.5949453e-38 288 252
-0.041634649 0.76599997 -0.016116638 1.5857257e-38 289 252
-0.040186398 0.764 -0.016074561 1.5765367e-38 290 252
-0.038846854 0.764 -0.016074561 1.5489139e-38 291 252
-0.037409119 0.76200002 -0.01603248 1.5764606e-38 292 252
-0.035931058 0.759 -0.015969358 1.5580575e-38 293 252
-0.034509107 0.75700003 -0.015927281 1.5581635e-38 294 252
-0.033094164 0.755 -0.015885198 1.5489079e-38 295 252
-0.03172832 0.75400001 -0.01586416 1.5397589e-38 296 252
-0.030325651 0.75199997 -0.015822079 1.5305394e-38 297 252
-0.029007144 0.75199997 -0.015822079 1.5122076e-38 298 252
-0.027615 0.75 -0.01578 1.5122076e-38 299 252
-0.0263 0.75 -0.01578 1.5122798e-38 300 252
-0.024951685 0.74900001 -0.01575896 1.5122798e-38 301 252
-0.023575317 0.74699998 -0.015716879 1.4939485e-38 302 252
-0.022265578 0.74699998 -0.015716879 1.5123516e-38 303 252
-0.020955838 0.74699998 -0.015716879 1.5398306e-38 304 252
-0.019646099 0.74699998 -0.015716879 1.5490503e-38 305 252
-0.018336359 0.74699998 -0.015716879 1.5582335e-38 306 252
-0.017026618 0.74699998 -0.015716879 1.5582335e-38 307 252
-0.015695838 0.74599999 -0.015695838 1.5306107e-38 308 252
-0.014387853 0.74599999 -0.015695838 1.5122076e-38 309 252
-0.013079867 0.74599999 -0.015695838 1.5489054e-38 310 252
-0.011771879 0.74599999 -0.015695838 1.5305022e-38 311 252
-0.010463892 0.74599999 -0.015695838 1.5304643e-38 312 252
-0.0091313599 0.74400002 -0.015653761 1.5028416e-38 313 252
-0.0078268806 0.74400002 -0.015653761 1.5302829e-38 314 252
-0.0065223998 0.74400002 -0.015653761 1.5118437e-38 315 252
-0.0052179201 0.74400002 -0.015653761 1.4842207e-38 316 252
-0.0039239596 0.74599999 -0.015695838 1.4657816e-38 317 252
-0.0026159731 0.74599999 -0.015695838 1.4565613e-38 318 252
-0.0013079866 0.74599999 -0.015695838 1.4289388e-38 319 252
0 0.74599999 -0.015695838 1.4105e-38 320 252
0.0013079866 0.74599999 -0.015695838 1.4012805e-38 321 252
0.0026194798 0.74699998 -0.015716879 1.4011729e-38 322 252
0.0039292197 0.74699998 -0.015716879 1.4011729e-38 323 252
0.0052529867 0.74900001 -0.01575896 1.4102488e-38 324 252
0.0065662335 0.74900001 -0.01575896 1.3826264e-38 325 252
0.00789 0.75 -0.01578 1.3917024e-38 326 252
0.0092049995 0.75 -0.01578 1.3824829e-38 327 252
0.01052 0.75 -0.01578 1.4008142e-38 328 252
0.011866559 0.75199997 -0.015822079 1.4008142e-38 329 252
0.013185065 0.75199997 -0.015822079 1.3824112e-38 330 252
0.014503572 0.75199997 -0.015822079 1.3824112e-38 331 252
0.01586416 0.75400001 -0.01586416 1.3824478e-38 332 252
0.017186172 0.75400001 -0.01586416 1.3824478e-38 333 252
0.018532733 0.755 -0.015885198 1.4007803e-38 334 252
0.0198565 0.755 -0.015885198 1.4284029e-38 335 252
0.021236373 0.75700003 -0.015927281 1.4283721e-38 336 252
-0.041634649 0.76599997 -0.017459691 1.5581399e-38 289 253
-0.040186398 0.764 -0.017414106 1.5398042e-38 290 253
-0.038846854 0.764 -0.017414106 1.5121095e-38 291 253
-0.037409119 0.76200002 -0.01736852 1.5673495e-38 292 253
-0.036025736 0.76099998 -0.017345725 1.539655e-38 293 253
-0.034600276 0.759 -0.017300138 1.5672747e-38 294 253
-0.033181835 0.75700003 -0.017254554 1.5580551e-38 295 253
-0.03172832 0.75400001 -0.017186172 1.5397234e-38 296 253
-0.030406307 0.75400001 -0.017186172 1.5305038e-38 297 253
-0.029007144 0.75199997 -0.017140586 1.5122079e-38 298 253
-0.027615 0.75 -0.017095 1.5122079e-38 299 253
-0.0263 0.75 -0.017095 1.5029878e-38 300 253
-0.024984999 0.75 -0.017095 1.5029878e-38 301 253
-0.02363844 0.74900001 -0.017072206 1.5121347e-38 302 253
-0.022265578 0.74699998 -0.017026618 1.5213543e-38 303 253
-0.020955838 0.74699998 -0.017026618 1.5305376e-38 304 253
-0.0196987 0.74900001 -0.017072206 1.5489407e-38 305 253
-0.018336359 0.74699998 -0.017026618 1.4845841e-38 306 253
-0.017026618 0.74699998 -0.017026618 1.5030233e-38 307 253
-0.015716879 0.74699998 -0.017026618 1.5488338e-38 308 253
-0.014407139 0.74699998 -0.017026618 1.5488338e-38 309 253
-0.013097399 0.74699998 -0.017026618 1.5304298e-38 310 253
-0.011771879 0.74599999 -0.017003827 1.5304298e-38 311 253
-0.010463892 0.74599999 -0.017003827 1.52121e-38 312 253
-0.0091559067 0.74599999 -0.017003827 1.52121e-38 313 253
-0.0078479191 0.74599999 -0.017003827 1.5026265e-38 314 253
-0.0065399334 0.74599999 -0.017003827 1.4934068e-38 315 253
-0.0052319462 0.74599999 -0.017003827 1.4749308e-38 316 253
-0.0039239596 0.74599999 -0.017003827 1.4657113e-38 317 253
-0.0026159731 0.74599999 -0.017003827 1.4564911e-38 318 253
-0.0013079866 0.74599999 -0.017003827 1.4196487e-38 319 253
0 0.74599999 -0.017003827 1.4105011e-38 320 253
0.0013097399 0.74699998 -0.017026618 1.3828425e-38 321 253
0.0026194798 0.74699998 -0.017026618 1.4011021e-38 322 253
0.0039397399 0.74900001 -0.017072206 1.3918824e-38 323 253
0.0052529867 0.74900001 -0.017072206 1.4284733e-38 324 253
0.006575 0.75 -0.017095 1.4192537e-38 325 253
0.00789 0.75 -0.017095 1.3915955e-38 326 253
0.0092049995 0.75 -0.017095 1.3915955e-38 327 253
0.010548052 0.75199997 -0.017140586 1.3823756e-38 328 253
0.011866559 0.75199997 -0.017140586 1.3823756e-38 329 253
0.013185065 0.75199997 -0.017140586 1.3823762e-38 330 253
0.014542146 0.75400001 -0.017186172 1.3915957e-38 331 253
0.015885198 0.755 -0.017208965 1.3916326e-38 332 253
0.017208965 0.755 -0.017208965 1.4008522e-38 333 253
0.018581826 0.75700003 -0.017254554 1.4099661e-38 334 253
0.019909101 0.75700003 -0.017254554 1.4468443e-38 335 253
0.02129248 0.759 -0.017300138 1.4284467e-38 336 253
-0.040291596 0.76599997 -0.018802745 1.5489531e-38 290 254
-0.038846854 0.764 -0.018753653 1.5212945e-38 291 254
-0.037409119 0.76200002 -0.01870456 1.5580947e-38 292 254
-0.036025736 0.76099998 -0.018680012 1.5396197e-38 293 254
-0.034600276 0.759 -0.01863092 1.5489082e-38 294 254
-0.033181835 0.75700003 -0.018581826 1.5396886e-38 295 254
-0.031770397 0.755 -0.018532733 1.530576e-38 296 254
-0.030406307 0.75400001 -0.018508185 1.5121728e-38 297 254
-0.029084291 0.75400001 -0.018508185 1.5305394e-38 298 254
-0.027688639 0.75199997 -0.018459093 1.5213198e-38 299 254
-0.0263 0.75 -0.018409999 1.5213198e-38 300 254
-0.024984999 0.75 -0.018409999 1.5120644e-38 301 254
-0.023669999 0.75 -0.018409999 1.5121e-38 302 254
-0.022325192 0.74900001 -0.018385453 1.5121e-38 303 254
-0.021011947 0.74900001 -0.018385453 1.4754016e-38 304 254
-0.0196987 0.74900001 -0.018385453 1.4754016e-38 305 254
-0.018385453 0.74900001 -0.018385453 1.4937687e-38 306 254
-0.017026618 0.74699998 -0.018336359 1.4937687e-38 307 254
-0.015716879 0.74699998 -0.018336359 1.5028804e-38 308 254
-0.014407139 0.74699998 -0.018336359 1.5028804e-38 309 254
-0.013097399 0.74699998 -0.018336359 1.5028799e-38 310 254
-0.011787659 0.74699998 -0.018336359 1.4844766e-38 311 254
-0.010477919 0.74699998 -0.018336359 1.4936239e-38 312 254
-0.0091559067 0.74599999 -0.018311813 1.4843684e-38 313 254
-0.0078479191 0.74599999 -0.018311813 1.4658926e-38 314 254
-0.0065399334 0.74599999 -0.018311813 1.456673e-38 315 254
-0.0052319462 0.74599999 -0.018311813 1.4565643e-38 316 254
-0.0039239596 0.74599999 -0.018311813 1.4381251e-38 317 254
-0.0026194798 0.74699998 -0.018336359 1.4472717e-38 318 254
-0.0013097399 0.74699998 -0.018336359 1.419649e-38 319 254
0 0.74699998 -0.018336359 1.4103936e-38 320 254
0.0013097399 0.74699998 -0.018336359 1.401174e-38 321 254
0.0026264933 0.74900001 -0.018385453 1.3826997e-38 322 254
0.0039397399 0.74900001 -0.018385453 1.3642966e-38 323 254
0.00526 0.75 -0.018409999 1.4008875e-38 324 254
0.0065925326 0.75199997 -0.018459093 1.391632e-38 325 254
0.0079110395 0.75199997 -0.018459093 1.3915957e-38 326 254
0.0092295464 0.75199997 -0.018459093 1.3915957e-38 327 254
0.010576107 0.75400001 -0.018508185 1.4007071e-38 328 254
0.01189812 0.75400001 -0.018508185 1.4007071e-38 329 254
0.013220133 0.75400001 -0.018508185 1.3915957e-38 330 254
0.014561433 0.755 -0.018532733 1.3915957e-38 331 254
0.015885198 0.755 -0.018532733 1.4008166e-38 332 254
0.017254554 0.75700003 -0.018581826 1.410072e-38 333 254
0.018581826 0.75700003 -0.018581826 1.446774e-38 334 254
0.019909101 0.75700003 -0.018581826 1.4836524e-38 335 254
0.02129248 0.759 -0.01863092 1.4745107e-38 336 254
-0.038846854 0.764 -0.020093199 1.5120041e-38 291 255
-0.037409119 0.76200002 -0.0200406 1.5487692e-38 292 255
-0.036025736 0.76099998 -0.020014299 1.53033e-38 293 255
-0.034600276 0.759 -0.0199617 1.5579848e-38 294 255
-0.033181835 0.75700003 -0.019909101 1.5579848e-38 295 255
-0.031770397 0.755 -0.0198565 1.5396883e-38 296 255
-0.030406307 0.75400001 -0.019830201 1.5396883e-38 297 255
-0.029084291 0.75400001 -0.019830201 1.5305041e-38 298 255
-0.027688639 0.75199997 -0.0197776 1.5212845e-38 299 255
-0.02637013 0.75199997 -0.0197776 1.4937334e-38 300 255
-0.024984999 0.75 -0.019724999 1.4937334e-38 301 255
-0.023669999 0.75 -0.019724999 1.5028804e-38 302 255
-0.022325192 0.74900001 -0.0196987 1.5028804e-38 303 255
-0.021011947 0.74900001 -0.0196987 1.502915e-38 304 255
-0.0196987 0.74900001 -0.0196987 1.4845119e-38 305 255
-0.018385453 0.74900001 -0.0196987 1.4936233e-38 306 255
-0.017072206 0.74900001 -0.0196987 1.5028787e-38 307 255
-0.01575896 0.74900001 -0.0196987 1.5027715e-38 308 255
-0.014407139 0.74699998 -0.019646099 1.5027715e-38 309 255
-0.013097399 0.74699998 -0.019646099 1.4936236e-38 310 255
-0.011787659 0.74699998 -0.019646099 1.484404e-38 311 255
-0.010477919 0.74699998 -0.019646099 1.475112e-38 312 255
-0.0091681797 0.74699998 -0.019646099 1.4382696e-38 313 255
-0.0078584393 0.74699998 -0.019646099 1.4474166e-38 314 255
-0.0065486995 0.74699998 -0.019646099 1.438197e-38 315 255
-0.0052389596 0.74699998 -0.019646099 1.4381251e-38 316 255
-0.0039292197 0.74699998 -0.019646099 1.4288696e-38 317 255
-0.0026194798 0.74699998 -0.019646099 1.4471645e-38 318 255
-0.0013097399 0.74699998 -0.019646099 1.4287254e-38 319 255
0 0.74699998 -0.019646099 1.4011387e-38 320 255
0.0013132467 0.74900001 -0.0196987 1.3919192e-38 321 255
0.0026264933 0.74900001 -0.0196987 1.3826278e-38 322 255
0.0039397399 0.74900001 -0.0196987 1.3734083e-38 323 255
0.0052740262 0.75199997 -0.0197776 1.3916323e-38 324 255
0.0065925326 0.75199997 -0.0197776 1.3824127e-38 325 255
0.00793208 0.75400001 -0.019830201 1.3915601e-38 326 255
0.0092540924 0.75400001 -0.019830201 1.3915601e-38 327 255
0.010576107 0.75400001 -0.019830201 1.3915955e-38 328 255
0.01189812 0.75400001 -0.019830201 1.3915955e-38 329 255
0.013237666 0.755 -0.0198565 1.3915604e-38 330 255
0.014561433 0.755 -0.0198565 1.40078e-38 331 255
0.015927281 0.75700003 -0.019909101 1.4007818e-38 332 255
0.017300138 0.759 -0.0199617 1.4376242e-38 333 255
0.01863092 0.759 -0.0199617 1.4375566e-38 334 255
0.0199617 0.759 -0.0199617 1.492874e-38 335 255
0.02129248 0.759 -0.0199617 1.4838397e-38 336 255
-0.037409119 0.76200002 -0.02137664 1.5120726e-38 292 256
-0.036025736 0.76099998 -0.021348584 1.484414e-38 293 256
-0.034600276 0.759 -0.02129248 1.5488026e-38 294 256
-0.033269498 0.759 -0.02129248 1.5395829e-38 295 256
-0.031854562 0.75700003 -0.021236373 1.530469e-38 296 256
-0.030446632 0.755 -0.021180267 1.530469e-38 297 256
-0.029084291 0.75400001 -0.021152213 1.5305041e-38 298 256
-0.027762281 0.75400001 -0.021152213 1.5212845e-38 299 256
-0.02637013 0.75199997 -0.021096105 1.5120647e-38 300 256
-0.025051624 0.75199997 -0.021096105 1.5028451e-38 301 256
-0.023733119 0.75199997 -0.021096105 1.5028448e-38 302 256
-0.022355 0.75 -0.02104 1.5028448e-38 303 256
-0.02104 0.75 -0.02104 1.4844766e-38 304 256
-0.019724999 0.75 -0.02104 1.4844766e-38 305 256
-0.018385453 0.74900001 -0.021011947 1.484404e-38 306 256
-0.017072206 0.74900001 -0.021011947 1.4936236e-38 307 256
-0.01575896 0.74900001 -0.021011947 1.484404e-38 308 256
-0.014445714 0.74900001 -0.021011947 1.484404e-38 309 256
-0.013132467 0.74900001 -0.021011947 1.4660009e-38 310 256
-0.01181922 0.74900001 -0.021011947 1.4660009e-38 311 256
-0.010505973 0.74900001 -0.021011947 1.4658929e-38 312 256
-0.0091927266 0.74900001 -0.021011947 1.4566374e-38 313 256
-0.0078794798 0.74900001 -0.021011947 1.4198302e-38 314 256
-0.0065662335 0.74900001 -0.021011947 1.4106107e-38 315 256
-0.0052529867 0.74900001 -0.021011947 1.4289052e-38 316 256
-0.0039397399 0.74900001 -0.021011947 1.4196856e-38 317 256
-0.0026264933 0.74900001 -0.021011947 1.4196134e-38 318 256
-0.0013132467 0.74900001 -0.021011947 1.4011743e-38 319 256
0 0.74900001 -0.021011947 1.4011024e-38 320 256
0.001315 0.75 -0.02104 1.4011024e-38 321 256
0.00263 0.75 -0.02104 1.4009235e-38 322 256
0.0039555198 0.75199997 -0.021096105 1.3825204e-38 323 256
0.0052740262 0.75199997 -0.021096105 1.3916326e-38 324 256
0.0066100666 0.75400001 -0.021152213 1.3823772e-38 325 256
0.00793208 0.75400001 -0.021152213 1.409927e-38 326 256
0.0092540924 0.75400001 -0.021152213 1.409927e-38 327 256
0.010590133 0.755 -0.021180267 1.409962e-38 328 256
0.011913899 0.755 -0.021180267 1.409962e-38 329 256
0.013272733 0.75700003 -0.021236373 1.40078e-38 330 256
0.014600007 0.75700003 -0.021236373 1.4191831e-38 331 256
0.015969358 0.759 -0.02129248 1.4007831e-38 332 256
0.017345725 0.76099998 -0.021348584 1.4192582e-38 333 256
0.018680012 0.76099998 -0.021348584 1.4468501e-38 334 256
0.020014299 0.76099998 -0.021348584 1.4837284e-38 335 256
0.021348584 0.76099998 -0.021348584 1.4655099e-38 336 256
-0.037409119 0.76200002 -0.02271268 1.4845231e-38 292 257
-0.036025736 0.76099998 -0.022682872 1.466084e-38 293 257
-0.034600276 0.759 -0.02262326 1.5212887e-38 294 257
-0.033269498 0.759 -0.02262326 1.5028136e-38 295 257
-0.031854562 0.75700003 -0.022563647 1.5304337e-38 296 257
-0.030446632 0.755 -0.022504034 1.5212142e-38 297 257
-0.029122867 0.755 -0.022504034 1.5212489e-38 298 257
-0.027762281 0.75400001 -0.022474226 1.5120293e-38 299 257
-0.026440267 0.75400001 -0.022474226 1.5120649e-38 300 257
-0.025051624 0.75199997 -0.022414612 1.5028095e-38 301 257
-0.023733119 0.75199997 -0.022414612 1.5028451e-38 302 257
-0.022414612 0.75199997 -0.022414612 1.5028451e-38 303 257
-0.021096105 0.75199997 -0.022414612 1.475257e-38 304 257
-0.0197776 0.75199997 -0.022414612 1.475257e-38 305 257
-0.018409999 0.75 -0.022355 1.4844393e-38 306 257
-0.017072206 0.74900001 -0.022325192 1.4844393e-38 307 257
-0.01575896 0.74900001 -0.022325192 1.4935867e-38 308 257
-0.014445714 0.74900001 -0.022325192 1.4843672e-38 309 257
-0.013132467 0.74900001 -0.022325192 1.475112e-38 310 257
-0.01181922 0.74900001 -0.022325192 1.4658923e-38 311 257
-0.010505973 0.74900001 -0.022325192 1.456673e-38 312 257
-0.0091927266 0.74900001 -0.022325192 1.4290145e-38 313 257
-0.0078794798 0.74900001 -0.022325192 1.4289772e-38 314 257
-0.0065662335 0.74900001 -0.022325192 1.4105739e-38 315 257
-0.0052529867 0.74900001 -0.022325192 1.4197206e-38 316 257
-0.0039397399 0.74900001 -0.022325192 1.4105011e-38 317 257
-0.00263 0.75 -0.022355 1.4196487e-38 318 257
-0.001315 0.75 -0.022355 1.4012096e-38 319 257
0 0.75 -0.022355 1.410322e-38 320 257
0.0013185065 0.75199997 -0.022414612 1.3918827e-38 321 257
0.0026370131 0.75199997 -0.022414612 1.4100717e-38 322 257
0.0039555198 0.75199997 -0.022414612 1.4008522e-38 323 257
0.0052880533 0.75400001 -0.022474226 1.4007803e-38 324 257
0.0066100666 0.75400001 -0.022474226 1.3915607e-38 325 257
0.0079425992 0.755 -0.022504034 1.4099267e-38 326 257
0.0092663663 0.755 -0.022504034 1.4099267e-38 327 257
0.010618187 0.75700003 -0.022563647 1.391631e-38 328 257
0.01194546 0.75700003 -0.022563647 1.391631e-38 329 257
0.0133078 0.759 -0.02262326 1.4007803e-38 330 257
0.014677152 0.76099998 -0.022682872 1.4191834e-38 331 257
0.016011439 0.76099998 -0.022682872 1.4098605e-38 332 257
0.01736852 0.76200002 -0.02271268 1.4467386e-38 333 257
0.01870456 0.76200002 -0.02271268 1.4194453e-38 334 257
0.0200406 0.76200002 -0.02271268 1.4471041e-38 335 257
-0.036073081 0.76200002 -0.02404872 1.456902e-38 293 258
-0.034691449 0.76099998 -0.024017159 1.493632e-38 294 258
-0.033269498 0.759 -0.023954039 1.493632e-38 295 258
-0.031938717 0.759 -0.023954039 1.5303987e-38 296 258
-0.030527288 0.75700003 -0.02389092 1.5211791e-38 297 258
-0.029122867 0.755 -0.023827799 1.4936628e-38 298 258
-0.027799098 0.755 -0.023827799 1.4936628e-38 299 258
-0.026440267 0.75400001 -0.02379624 1.4753669e-38 300 258
-0.025118252 0.75400001 -0.02379624 1.4753669e-38 301 258
-0.02379624 0.75400001 -0.02379624 1.4844786e-38 302 258
-0.022414612 0.75199997 -0.023733119 1.4844786e-38 303 258
-0.021096105 0.75199997 -0.023733119 1.4844416e-38 304 258
-0.019830201 0.75400001 -0.02379624 1.475222e-38 305 258
-0.018459093 0.75199997 -0.023733119 1.4936239e-38 306 258
-0.017140586 0.75199997 -0.023733119 1.4843684e-38 307 258
-0.015822079 0.75199997 -0.023733119 1.4660003e-38 308 258
-0.014503572 0.75199997 -0.023733119 1.4567808e-38 309 258
-0.01315 0.75 -0.023669999 1.4658923e-38 310 258
-0.011835 0.75 -0.023669999 1.4658923e-38 311 258
-0.01052 0.75 -0.023669999 1.4565655e-38 312 258
-0.0092049995 0.75 -0.023669999 1.4565655e-38 313 258
-0.00789 0.75 -0.023669999 1.4381617e-38 314 258
-0.006575 0.75 -0.023669999 1.4289422e-38 315 258
-0.00526 0.75 -0.023669999 1.4289052e-38 316 258
-0.003945 0.75 -0.023669999 1.410466e-38 317 258
