# .PCD v.7 - Point Cloud Data file format
FIELDS x y z rgb imX imY
SIZE 4 4 4 4 4 4
TYPE F F F F F F
COUNT 1 1 1 1 1 1
WIDTH 863
HEIGHT 1
VIEWPOINT 0 0 0 1 0 0 0
POINTS 863
DATA ascii
-0.02824094 0.76700002 0.01613768 1.4839903e-38 299 228
-0.026896132 0.76700002 0.01613768 1.1981484e-38 300 228
-0.025551327 0.76700002 0.01613768 5.712183e-39 301 228
-0.024174958 0.76599997 0.016116638 7.265832e-39 302 228
-0.022831906 0.76599997 0.016116638 6.2520388e-39 303 228
-0.021432746 0.764 0.016074561 6.525016e-39 304 228
-0.0200406 0.76200002 0.01603248 6.340266e-39 305 228
-0.01870456 0.76200002 0.01603248 6.7061744e-39 306 228
-0.017345725 0.76099998 0.016011439 7.0753171e-39 307 228
-0.016011439 0.76099998 0.016011439 7.8118017e-39 308 228
-0.014638579 0.759 0.015969358 8.8263138e-39 309 228
-0.013272733 0.75700003 0.015927281 9.6564178e-39 310 228
-0.01194546 0.75700003 0.015927281 8.7344629e-39 311 228
-0.010590133 0.755 0.015885198 1.0570799e-38 312 228
-0.0092663663 0.755 0.015885198 1.1584952e-38 313 228
-0.0079425992 0.755 0.015885198 1.2139182e-38 314 228
-0.0066188332 0.755 0.015885198 1.2507605e-38 315 228
-0.0052950666 0.755 0.015885198 1.2873501e-38 316 228
-0.0039712996 0.755 0.015885198 1.2597272e-38 317 228
-0.0026440267 0.75400001 0.01586416 1.3147925e-38 318 228
-0.0013220133 0.75400001 0.01586416 1.3424153e-38 319 228
0 0.75400001 0.01586416 1.3975159e-38 320 228
0.0013220133 0.75400001 0.01586416 1.3421986e-38 321 228
0.0026440267 0.75400001 0.01586416 1.3507717e-38 322 228
0.00396604 0.75400001 0.01586416 1.286235e-38 323 228
0.0052880533 0.75400001 0.01586416 1.2217357e-38 324 228
0.0066100666 0.75400001 0.01586416 1.2493583e-38 325 228
0.00793208 0.75400001 0.01586416 1.1945083e-38 326 228
0.0092540924 0.75400001 0.01586416 1.222167e-38 327 228
0.010590133 0.755 0.015885198 1.2225244e-38 328 228
0.011913899 0.755 0.015885198 1.2778418e-38 329 228
0.013237666 0.755 0.015885198 1.2408913e-38 330 228
0.014561433 0.755 0.015885198 1.1855747e-38 331 228
0.015885198 0.755 0.015885198 1.2221296e-38 332 228
0.017208965 0.755 0.015885198 1.1945072e-38 333 228
0.018532733 0.755 0.015885198 1.2128743e-38 334 228
0.0198565 0.755 0.015885198 1.2128743e-38 335 228
0.021180267 0.755 0.015885198 1.1852529e-38 336 228
0.022504034 0.755 0.015885198 1.15763e-38 337 228
0.023827799 0.755 0.015885198 1.1483398e-38 338 228
0.025151566 0.755 0.015885198 1.1391203e-38 339 228
0.026545467 0.75700003 0.015927281 1.0749076e-38 340 228
0.027872739 0.75700003 0.015927281 1.0472491e-38 341 228
0.029200014 0.75700003 0.015927281 9.2786319e-39 342 228
0.030527288 0.75700003 0.015927281 9.1864363e-39 343 228
0.031938717 0.759 0.015969358 8.2695219e-39 344 228
0.033269498 0.759 0.015969358 8.2695219e-39 345 228
0.034691449 0.76099998 0.016011439 7.4429996e-39 346 228
0.036073081 0.76200002 0.01603248 7.2589685e-39 347 228
0.037507307 0.764 0.016074561 6.2484235e-39 348 228
0.038846854 0.764 0.016074561 6.0640322e-39 349 228
0.040186398 0.764 0.016074561 5.9736345e-39 350 228
0.041634649 0.76599997 0.016116638 5.9736345e-39 351 228
0.042977702 0.76599997 0.016116638 6.0654615e-39 352 228
0.044320758 0.76599997 0.016116638 1.3072328e-38 353 228
0.045663811 0.76599997 0.016116638 1.428274e-38 354 228
-0.029817186 0.773 0.014908593 1.6777087e-38 298 229
-0.028314579 0.76899999 0.014831445 1.4287804e-38 299 229
-0.026896132 0.76700002 0.014792874 1.1611977e-38 300 229
-0.025551327 0.76700002 0.014792874 5.250479e-39 301 229
-0.024174958 0.76599997 0.014773586 7.4502135e-39 302 229
-0.022831906 0.76599997 0.014773586 6.7126484e-39 303 229
-0.021432746 0.764 0.014735013 6.8005225e-39 304 229
-0.0200406 0.76200002 0.01469644 6.5239342e-39 305 229
-0.01870456 0.76200002 0.01469644 6.70618e-39 306 229
-0.017345725 0.76099998 0.014677152 6.9827669e-39 307 229
-0.016011439 0.76099998 0.014677152 7.7199859e-39 308 229
-0.014638579 0.759 0.014638579 9.9323208e-39 309 229
-0.013272733 0.75700003 0.014600007 1.03958e-38 310 229
-0.01194546 0.75700003 0.014600007 8.6440833e-39 311 229
-0.010590133 0.755 0.014561433 1.0382461e-38 312 229
-0.0092663663 0.755 0.014561433 1.16732e-38 313 229
-0.0079425992 0.755 0.014561433 1.2412185e-38 314 229
-0.0066188332 0.755 0.014561433 1.2412185e-38 315 229
-0.0052950666 0.755 0.014561433 1.2962477e-38 316 229
-0.0039712996 0.755 0.014561433 1.2869923e-38 317 229
-0.0026440267 0.75400001 0.014542146 1.3328736e-38 318 229
-0.0013220133 0.75400001 0.014542146 1.3605324e-38 319 229
0 0.75400001 0.014542146 1.4251763e-38 320 229
0.0013220133 0.75400001 0.014542146 1.4804935e-38 321 229
0.0026440267 0.75400001 0.014542146 1.4064131e-38 322 229
0.00396604 0.75400001 0.014542146 1.323437e-38 323 229
0.0052880533 0.75400001 0.014542146 1.2031888e-38 324 229
0.0066100666 0.75400001 0.014542146 1.258506e-38 325 229
0.00793208 0.75400001 0.014542146 1.2589733e-38 326 229
0.0092540924 0.75400001 0.014542146 1.286596e-38 327 229
0.010576107 0.75400001 0.014542146 1.286918e-38 328 229
0.01189812 0.75400001 0.014542146 1.2961377e-38 329 229
0.013237666 0.755 0.014561433 1.2683717e-38 330 229
0.014561433 0.755 0.014561433 1.2130543e-38 331 229
0.01586416 0.75400001 0.014542146 1.2312421e-38 332 229
0.017186172 0.75400001 0.014542146 1.2220225e-38 333 229
0.018508185 0.75400001 0.014542146 1.2037276e-38 334 229
0.019830201 0.75400001 0.014542146 1.1852884e-38 335 229
0.021180267 0.755 0.014561433 1.1760337e-38 336 229
0.022504034 0.755 0.014561433 1.1483752e-38 337 229
0.023827799 0.755 0.014561433 1.1299729e-38 338 229
0.025151566 0.755 0.014561433 1.1299729e-38 339 229
0.026475333 0.755 0.014561433 1.0473212e-38 340 229
0.027799098 0.755 0.014561433 1.0196625e-38 341 229
0.029200014 0.75700003 0.014600007 9.2786347e-39 342 229
0.030527288 0.75700003 0.014600007 9.1864391e-39 343 229
0.031938717 0.759 0.014638579 8.2695247e-39 344 229
0.033269498 0.759 0.014638579 8.177329e-39 345 229
0.034691449 0.76099998 0.014677152 7.4426437e-39 346 229
0.036073081 0.76200002 0.01469644 7.0742213e-39 347 229
0.037409119 0.76200002 0.01469644 6.2477046e-39 348 229
0.038846854 0.764 0.014735013 6.063312e-39 349 229
0.040186398 0.764 0.014735013 5.9736345e-39 350 229
0.041525945 0.764 0.014735013 6.3424184e-39 351 229
0.042977702 0.76599997 0.014773586 6.7115526e-39 352 229
0.044320758 0.76599997 0.014773586 1.3349638e-38 353 229
0.045663811 0.76599997 0.014773586 1.4467133e-38 354 229
-0.029817186 0.773 0.013553266 1.6684888e-38 298 230
-0.028314579 0.76899999 0.013483133 1.3826824e-38 299 230
-0.026896132 0.76700002 0.013448066 1.1151355e-38 300 230
-0.025551327 0.76700002 0.013448066 5.0664436e-39 301 230
-0.024174958 0.76599997 0.013430533 7.3587367e-39 302 230
-0.022831906 0.76599997 0.013430533 6.8977586e-39 303 230
-0.021432746 0.764 0.013395466 6.8015973e-39 304 230
-0.0200406 0.76200002 0.0133604 6.3406191e-39 305 230
-0.01870456 0.76200002 0.0133604 6.3395527e-39 306 230
-0.017345725 0.76099998 0.013342866 6.6157795e-39 307 230
-0.015969358 0.759 0.0133078 7.3526439e-39 308 230
-0.014638579 0.759 0.0133078 1.0394741e-38 309 230
-0.013272733 0.75700003 0.013272733 1.0589922e-38 310 230
-0.011913899 0.755 0.013237666 1.0313335e-38 311 230
-0.010590133 0.755 0.013237666 1.1499256e-38 312 230
-0.0092663663 0.755 0.013237666 1.0853886e-38 313 230
-0.0079425992 0.755 0.013237666 1.2503667e-38 314 230
-0.0066188332 0.755 0.013237666 1.1950493e-38 315 230
-0.0052950666 0.755 0.013237666 1.2960326e-38 316 230
-0.00396604 0.75400001 0.013220133 1.2960326e-38 317 230
-0.0026440267 0.75400001 0.013220133 1.3142917e-38 318 230
-0.0013220133 0.75400001 0.013220133 1.305072e-38 319 230
0 0.75400001 0.013220133 1.3880835e-38 320 230
0.0013220133 0.75400001 0.013220133 1.5171574e-38 321 230
0.0026440267 0.75400001 0.013220133 1.4712024e-38 322 230
0.0039555198 0.75199997 0.013185065 1.4435438e-38 323 230
0.0052740262 0.75199997 0.013185065 1.3603878e-38 324 230
0.0065925326 0.75199997 0.013185065 1.3419487e-38 325 230
0.00793208 0.75400001 0.013220133 1.3602076e-38 326 230
0.0092540924 0.75400001 0.013220133 1.3786828e-38 327 230
0.010576107 0.75400001 0.013220133 1.2958143e-38 328 230
0.01189812 0.75400001 0.013220133 1.2958143e-38 329 230
0.013220133 0.75400001 0.013220133 1.2955635e-38 330 230
0.014542146 0.75400001 0.013220133 1.2587213e-38 331 230
0.01586416 0.75400001 0.013220133 1.2587213e-38 332 230
0.017186172 0.75400001 0.013220133 1.2587213e-38 333 230
0.018508185 0.75400001 0.013220133 1.2037276e-38 334 230
0.019830201 0.75400001 0.013220133 1.1852884e-38 335 230
0.021152213 0.75400001 0.013220133 1.1759981e-38 336 230
0.022504034 0.755 0.013237666 1.1391559e-38 337 230
0.023827799 0.755 0.013237666 1.1299373e-38 338 230
0.025151566 0.755 0.013237666 1.1023146e-38 339 230
0.026475333 0.755 0.013237666 1.0196631e-38 340 230
0.027799098 0.755 0.013237666 1.0104435e-38 341 230
0.029122867 0.755 0.013237666 9.0938903e-39 342 230
0.030446632 0.755 0.013237666 9.0938903e-39 343 230
0.031854562 0.75700003 0.013272733 8.1769731e-39 344 230
0.033269498 0.759 0.0133078 7.9925804e-39 345 230
0.034691449 0.76099998 0.013342866 7.2586125e-39 346 230
0.036025736 0.76099998 0.013342866 6.9820257e-39 347 230
0.037409119 0.76200002 0.0133604 6.1555062e-39 348 230
0.038846854 0.764 0.013395466 6.1555062e-39 349 230
0.040186398 0.764 0.013395466 5.6981238e-39 350 230
0.041525945 0.764 0.013395466 6.8963068e-39 351 230
0.042865492 0.764 0.013395466 7.2658026e-39 352 230
0.04420504 0.764 0.013395466 1.3627301e-38 353 230
-0.029817186 0.773 0.012197939 1.6500854e-38 298 231
-0.028314579 0.76899999 0.012134819 1.3827179e-38 299 231
-0.026896132 0.76700002 0.01210326 1.0966958e-38 300 231
-0.025551327 0.76700002 0.01210326 5.1586337e-39 301 231
-0.024174958 0.76599997 0.012087479 6.9903073e-39 302 231
-0.022831906 0.76599997 0.012087479 6.8059161e-39 303 231
-0.021432746 0.764 0.01205592 6.7108338e-39 304 231
-0.0200406 0.76200002 0.01202436 6.3416911e-39 305 231
-0.01870456 0.76200002 0.01202436 6.3395471e-39 306 231
-0.017345725 0.76099998 0.012008579 6.6161326e-39 307 231
-0.015969358 0.759 0.01197702 6.7998344e-39 308 231
-0.014638579 0.759 0.01197702 1.0303627e-38 309 231
-0.013272733 0.75700003 0.01194546 1.1055232e-38 310 231
-0.011913899 0.755 0.011913899 1.2438166e-38 311 231
-0.010590133 0.755 0.011913899 1.344906e-38 312 231
-0.0092663663 0.755 0.011913899 1.1328559e-38 313 231
-0.0079425992 0.755 0.011913899 1.2691298e-38 314 231
-0.0066188332 0.755 0.011913899 1.1123614e-38 315 231
-0.0052950666 0.755 0.011913899 1.2777727e-38 316 231
-0.00396604 0.75400001 0.01189812 1.2409304e-38 317 231
-0.0026440267 0.75400001 0.01189812 1.2774862e-38 318 231
-0.0013220133 0.75400001 0.01189812 1.2774862e-38 319 231
0 0.75400001 0.01189812 1.3326961e-38 320 231
0.0013220133 0.75400001 0.01189812 1.4341111e-38 321 231
0.0026440267 0.75400001 0.01189812 1.4530523e-38 322 231
0.0039555198 0.75199997 0.011866559 1.4991502e-38 323 231
0.0052740262 0.75199997 0.011866559 1.4531577e-38 324 231
0.0065925326 0.75199997 0.011866559 1.4070599e-38 325 231
0.0079110395 0.75199997 0.011866559 1.4342497e-38 326 231
0.0092540924 0.75400001 0.01189812 1.4158106e-38 327 231
0.010576107 0.75400001 0.01189812 1.3511667e-38 328 231
0.01189812 0.75400001 0.01189812 1.323472e-38 329 231
0.013220133 0.75400001 0.01189812 1.3139306e-38 330 231
0.014542146 0.75400001 0.01189812 1.2770525e-38 331 231
0.01586416 0.75400001 0.01189812 1.2771244e-38 332 231
0.017186172 0.75400001 0.01189812 1.2771244e-38 333 231
0.018508185 0.75400001 0.01189812 1.2313137e-38 334 231
0.019830201 0.75400001 0.01189812 1.1944714e-38 335 231
0.021152213 0.75400001 0.01189812 1.1942928e-38 336 231
0.022504034 0.755 0.011913899 1.1666701e-38 337 231
0.023827799 0.755 0.011913899 1.1023146e-38 338 231
0.025151566 0.755 0.011913899 1.0838754e-38 339 231
0.026475333 0.755 0.011913899 1.0105154e-38 340 231
0.027799098 0.755 0.011913899 9.7363731e-39 341 231
0.029122867 0.755 0.011913899 9.0016947e-39 342 231
0.030446632 0.755 0.011913899 9.0016947e-39 343 231
0.031854562 0.75700003 0.01194546 8.0847775e-39 344 231
0.033269498 0.759 0.01197702 7.9925804e-39 345 231
0.034600276 0.759 0.01197702 7.1664141e-39 346 231
0.036025736 0.76099998 0.012008579 6.8898272e-39 347 231
0.037409119 0.76200002 0.01202436 6.0633092e-39 348 231
0.038846854 0.764 0.01205592 6.1555062e-39 349 231
0.040186398 0.764 0.01205592 5.6999216e-39 350 231
0.041525945 0.764 0.01205592 6.9906605e-39 351 231
0.042865492 0.764 0.01205592 7.6360243e-39 352 231
0.04420504 0.764 0.01205592 1.4089718e-38 353 231
-0.029817186 0.773 0.010842613 1.6500851e-38 298 232
-0.028461859 0.773 0.010842613 1.3827177e-38 299 232
-0.026896132 0.76700002 0.010758453 1.105951e-38 300 232
-0.025551327 0.76700002 0.010758453 5.1589896e-39 301 232
-0.024206521 0.76700002 0.010758453 6.8080783e-39 302 232
-0.022861714 0.76700002 0.010758453 6.7158812e-39 303 232
-0.021432746 0.764 0.010716373 6.8033923e-39 304 232
-0.0200406 0.76200002 0.01068832 6.3427729e-39 305 232
-0.01870456 0.76200002 0.01068832 6.4335336e-39 306 232
-0.017345725 0.76099998 0.010674292 6.4335336e-39 307 232
-0.015969358 0.759 0.01064624 7.1678939e-39 308 232
-0.014638579 0.759 0.01064624 1.0026319e-38 309 232
-0.013272733 0.75700003 0.010618187 9.6755441e-39 310 232
-0.011913899 0.755 0.010590133 1.2810196e-38 311 232
-0.010590133 0.755 0.010590133 1.3916889e-38 312 232
-0.0092663663 0.755 0.010590133 1.3640662e-38 313 232
-0.0079425992 0.755 0.010590133 1.3712672e-38 314 232
-0.0066188332 0.755 0.010590133 9.9326529e-39 315 232
-0.0052950666 0.755 0.010590133 1.2043059e-38 316 232
-0.00396604 0.75400001 0.010576107 1.2135255e-38 317 232
-0.0026440267 0.75400001 0.010576107 1.2683037e-38 318 232
-0.0013220133 0.75400001 0.010576107 1.259084e-38 319 232
0 0.75400001 0.010576107 1.3417361e-38 320 232
0.0013220133 0.75400001 0.010576107 1.3509557e-38 321 232
0.0026440267 0.75400001 0.010576107 1.3329832e-38 322 232
0.0039555198 0.75199997 0.010548052 1.4159593e-38 323 232
0.0052740262 0.75199997 0.010548052 1.4806019e-38 324 232
0.0065925326 0.75199997 0.010548052 1.4898214e-38 325 232
0.0079110395 0.75199997 0.010548052 1.4438664e-38 326 232
0.0092540924 0.75400001 0.010576107 1.4253914e-38 327 232
0.010576107 0.75400001 0.010576107 1.4071318e-38 328 232
0.01189812 0.75400001 0.010576107 1.3886927e-38 329 232
0.013220133 0.75400001 0.010576107 1.3695705e-38 330 232
0.014542146 0.75400001 0.010576107 1.2773748e-38 331 232
0.01586416 0.75400001 0.010576107 1.2774115e-38 332 232
0.017186172 0.75400001 0.010576107 1.2590084e-38 333 232
0.018508185 0.75400001 0.010576107 1.2314936e-38 334 232
0.019830201 0.75400001 0.010576107 1.2130543e-38 335 232
0.021152213 0.75400001 0.010576107 1.1852531e-38 336 232
0.022474226 0.75400001 0.010576107 1.1391553e-38 337 232
0.023827799 0.755 0.010590133 1.1023868e-38 338 232
0.025151566 0.755 0.010590133 1.0931314e-38 339 232
0.026475333 0.755 0.010590133 9.8300064e-39 340 232
0.027799098 0.755 0.010590133 9.7378108e-39 341 232
0.029122867 0.755 0.010590133 8.8190985e-39 342 232
0.030446632 0.755 0.010590133 8.8190985e-39 343 232
0.031854562 0.75700003 0.010618187 7.8092654e-39 344 232
0.033269498 0.759 0.01064624 7.7170698e-39 345 232
0.034600276 0.759 0.01064624 7.0749373e-39 346 232
0.036025736 0.76099998 0.010674292 6.6143179e-39 347 232
0.037409119 0.76200002 0.01068832 6.1555062e-39 348 232
0.038846854 0.764 0.010716373 6.1555062e-39 349 232
0.040186398 0.764 0.010716373 5.882515e-39 350 232
0.041525945 0.764 0.010716373 7.634232e-39 351 232
0.042865492 0.764 0.010716373 8.0066046e-39 352 232
-0.029817186 0.773 0.0094872871 1.6317178e-38 298 233
-0.028461859 0.773 0.0094872871 1.3920093e-38 299 233
-0.027036399 0.77100003 0.0094627403 1.1610163e-38 300 233
-0.025551327 0.76700002 0.0094136465 5.8018381e-39 301 233
-0.024206521 0.76700002 0.0094136465 6.7147966e-39 302 233
-0.022861714 0.76700002 0.0094136465 6.7147966e-39 303 233
-0.021488851 0.76599997 0.0094013726 6.8044643e-39 304 233
-0.0200406 0.76200002 0.0093522798 6.4360419e-39 305 233
-0.01870456 0.76200002 0.0093522798 6.7093946e-39 306 233
-0.017345725 0.76099998 0.0093400059 6.7093946e-39 307 233
-0.016011439 0.76099998 0.0093400059 6.1584209e-39 308 233
-0.014638579 0.759 0.00931546 8.4629515e-39 309 233
-0.013272733 0.75700003 0.0092909131 9.396086e-39 310 233
-0.011913899 0.755 0.0092663663 1.3083552e-38 311 233
-0.010590133 0.755 0.0092663663 1.3731076e-38 312 233
-0.0092663663 0.755 0.0092663663 1.363888e-38 313 233
-0.0079425992 0.755 0.0092663663 1.3722409e-38 314 233
-0.0066188332 0.755 0.0092663663 1.0218616e-38 315 233
-0.0052950666 0.755 0.0092663663 1.2322888e-38 316 233
-0.00396604 0.75400001 0.0092540924 1.2045943e-38 317 233
-0.0026440267 0.75400001 0.0092540924 1.2593712e-38 318 233
-0.0013220133 0.75400001 0.0092540924 1.2317123e-38 319 233
0 0.75400001 0.0092540924 1.2866353e-38 320 233
0.0013220133 0.75400001 0.0092540924 1.2958548e-38 321 233
0.0026440267 0.75400001 0.0092540924 1.2867427e-38 322 233
0.00396604 0.75400001 0.0092540924 1.3512797e-38 323 233
0.0052740262 0.75199997 0.0092295464 1.4159943e-38 324 233
0.0065925326 0.75199997 0.0092295464 1.4436529e-38 325 233
0.0079110395 0.75199997 0.0092295464 1.3885857e-38 326 233
0.0092540924 0.75400001 0.0092540924 1.4070249e-38 327 233
0.010576107 0.75400001 0.0092540924 1.4074179e-38 328 233
0.01189812 0.75400001 0.0092540924 1.4442602e-38 329 233
0.013220133 0.75400001 0.0092540924 1.4161323e-38 330 233
0.014542146 0.75400001 0.0092540924 1.3147543e-38 331 233
0.01586416 0.75400001 0.0092540924 1.3144314e-38 332 233
0.017186172 0.75400001 0.0092540924 1.2959926e-38 333 233
0.018508185 0.75400001 0.0092540924 1.2683702e-38 334 233
0.019830201 0.75400001 0.0092540924 1.240676e-38 335 233
0.021152213 0.75400001 0.0092540924 1.2128029e-38 336 233
0.022474226 0.75400001 0.0092540924 1.1667054e-38 337 233
0.023827799 0.755 0.0092663663 1.0931669e-38 338 233
0.025151566 0.755 0.0092663663 1.0747638e-38 339 233
0.026475333 0.755 0.0092663663 9.8292876e-39 340 233
0.027799098 0.755 0.0092663663 9.7370919e-39 341 233
0.029122867 0.755 0.0092663663 8.9109312e-39 342 233
0.030446632 0.755 0.0092663663 8.7261798e-39 343 233
0.031854562 0.75700003 0.0092909131 7.900382e-39 344 233
0.033269498 0.759 0.00931546 7.8081864e-39 345 233
0.034691449 0.76099998 0.0093400059 6.981304e-39 346 233
0.036073081 0.76200002 0.0093522798 6.889107e-39 347 233
0.037507307 0.764 0.0093768267 5.97291e-39 348 233
0.038846854 0.764 0.0093768267 6.3416911e-39 349 233
0.040291596 0.76599997 0.0094013726 6.5260852e-39 350 233
0.041634649 0.76599997 0.0094013726 8.3699978e-39 351 233
0.042977702 0.76599997 0.0094013726 8.7441725e-39 352 233
-0.029817186 0.773 0.0081319595 1.6040595e-38 298 234
-0.028388219 0.77100003 0.0081109209 1.4104487e-38 299 234
-0.027036399 0.77100003 0.0081109209 1.2347728e-38 300 234
-0.025617953 0.76899999 0.0080898795 5.9862293e-39 301 234
-0.024206521 0.76700002 0.00806884 6.6251205e-39 302 234
-0.022861714 0.76700002 0.00806884 6.4403705e-39 303 234
-0.021488851 0.76599997 0.0080583189 6.6197269e-39 304 234
-0.0200406 0.76200002 0.0080162399 6.5275313e-39 305 234
-0.01870456 0.76200002 0.0080162399 6.4353357e-39 306 234
-0.017345725 0.76099998 0.0080057196 6.2509444e-39 307 234
-0.016011439 0.76099998 0.0080057196 6.3399311e-39 308 234
-0.014638579 0.759 0.0079846792 7.1700519e-39 309 234
-0.0133078 0.759 0.0079846792 7.8258862e-39 310 234
-0.01194546 0.75700003 0.0079636406 1.1790298e-38 311 234
-0.010618187 0.75700003 0.0079636406 1.2252355e-38 312 234
-0.0092663663 0.755 0.0079425992 1.0776867e-38 313 234
-0.0079425992 0.755 0.0079425992 1.1603368e-38 314 234
-0.0066100666 0.75400001 0.00793208 1.2156542e-38 315 234
-0.0052880533 0.75400001 0.00793208 1.2973688e-38 316 234
-0.00396604 0.75400001 0.00793208 1.1129775e-38 317 234
-0.0026440267 0.75400001 0.00793208 1.2319663e-38 318 234
-0.0013220133 0.75400001 0.00793208 1.1950879e-38 319 234
0 0.75400001 0.00793208 1.2683756e-38 320 234
0.0013220133 0.75400001 0.00793208 1.2591561e-38 321 234
0.0026370131 0.75199997 0.0079110395 1.2866701e-38 322 234
0.0039555198 0.75199997 0.0079110395 1.268231e-38 323 234
0.0052740262 0.75199997 0.0079110395 1.2957808e-38 324 234
0.0065925326 0.75199997 0.0079110395 1.2865254e-38 325 234
0.0079110395 0.75199997 0.0079110395 1.3235469e-38 326 234
0.0092540924 0.75400001 0.00793208 1.3696087e-38 327 234
0.010576107 0.75400001 0.00793208 1.3885141e-38 328 234
0.01189812 0.75400001 0.00793208 1.4069173e-38 329 234
0.013220133 0.75400001 0.00793208 1.3791141e-38 330 234
0.014542146 0.75400001 0.00793208 1.3145771e-38 331 234
0.01586416 0.75400001 0.00793208 1.305286e-38 332 234
0.017186172 0.75400001 0.00793208 1.2960304e-38 333 234
0.018508185 0.75400001 0.00793208 1.2778068e-38 334 234
0.019830201 0.75400001 0.00793208 1.2501121e-38 335 234
0.021152213 0.75400001 0.00793208 1.1945802e-38 336 234
0.022474226 0.75400001 0.00793208 1.1392628e-38 337 234
0.023827799 0.755 0.0079425992 1.0655085e-38 338 234
0.025151566 0.755 0.0079425992 1.056289e-38 339 234
0.026475333 0.755 0.0079425992 9.5541426e-39 340 234
0.027799098 0.755 0.0079425992 9.3697514e-39 341 234
0.029122867 0.755 0.0079425992 8.452474e-39 342 234
0.030446632 0.755 0.0079425992 8.3599196e-39 343 234
0.031854562 0.75700003 0.0079636406 7.8092654e-39 344 234
0.033269498 0.759 0.0079846792 7.5326785e-39 345 234
0.034691449 0.76099998 0.0080057196 6.889107e-39 346 234
0.036073081 0.76200002 0.0080162399 6.981304e-39 347 234
0.037507307 0.764 0.0080372803 6.0654644e-39 348 234
0.038948543 0.76599997 0.0080583189 6.3416911e-39 349 234
0.040291596 0.76599997 0.0080583189 6.5264327e-39 350 234
0.041634649 0.76599997 0.0080583189 8.4625409e-39 351 234
0.042977702 0.76599997 0.0080583189 9.6657532e-39 352 234
-0.028388219 0.77100003 0.0067590997 1.4472913e-38 299 235
-0.027036399 0.77100003 0.0067590997 1.2717587e-38 300 235
-0.025617953 0.76899999 0.0067415666 6.7248706e-39 301 235
-0.024206521 0.76700002 0.006724033 6.7158686e-39 302 235
-0.022861714 0.76700002 0.006724033 6.0704992e-39 303 235
-0.021488851 0.76599997 0.0067152665 6.345654e-39 304 235
-0.0200406 0.76200002 0.0066801999 6.2534583e-39 305 235
-0.01870456 0.76200002 0.0066801999 6.4353357e-39 306 235
-0.01736852 0.76200002 0.0066801999 6.34314e-39 307 235
-0.016011439 0.76099998 0.0066714329 6.3406373e-39 308 235
-0.014677152 0.76099998 0.0066714329 6.3406373e-39 309 235
-0.0133078 0.759 0.0066538998 7.0807597e-39 310 235
-0.01194546 0.75700003 0.0066363667 9.1094223e-39 311 235
-0.010618187 0.75700003 0.0066363667 9.7551547e-39 312 235
-0.0092663663 0.755 0.0066188332 9.7551547e-39 313 235
-0.0079425992 0.755 0.0066188332 1.0402307e-38 314 235
-0.0066100666 0.75400001 0.0066100666 1.1969632e-38 315 235
-0.0052880533 0.75400001 0.0066100666 1.233013e-38 316 235
-0.00396604 0.75400001 0.0066100666 1.0394022e-38 317 235
-0.0026440267 0.75400001 0.0066100666 1.1675741e-38 318 235
-0.0013220133 0.75400001 0.0066100666 1.1583545e-38 319 235
0 0.75400001 0.0066100666 1.2225302e-38 320 235
0.0013220133 0.75400001 0.0066100666 1.2133106e-38 321 235
0.0026370131 0.75199997 0.0065925326 1.2408251e-38 322 235
0.0039555198 0.75199997 0.0065925326 1.2408251e-38 323 235
0.0052880533 0.75400001 0.0066100666 1.2591564e-38 324 235
0.0066100666 0.75400001 0.0066100666 1.2222781e-38 325 235
0.00793208 0.75400001 0.0066100666 1.2683392e-38 326 235
0.0092540924 0.75400001 0.0066100666 1.295962e-38 327 235
0.010576107 0.75400001 0.0066100666 1.3237988e-38 328 235
0.01189812 0.75400001 0.0066100666 1.3237988e-38 329 235
0.013220133 0.75400001 0.0066100666 1.3511327e-38 330 235
0.014542146 0.75400001 0.0066100666 1.3419131e-38 331 235
0.01586416 0.75400001 0.0066100666 1.3236169e-38 332 235
0.017186172 0.75400001 0.0066100666 1.3236169e-38 333 235
0.018508185 0.75400001 0.0066100666 1.2960657e-38 334 235
0.019830201 0.75400001 0.0066100666 1.2500039e-38 335 235
0.021152213 0.75400001 0.0066100666 1.1944364e-38 336 235
0.022474226 0.75400001 0.0066100666 1.1483026e-38 337 235
0.023827799 0.755 0.0066188332 1.0746202e-38 338 235
0.025151566 0.755 0.0066188332 1.0654006e-38 339 235
0.026475333 0.755 0.0066188332 9.0031268e-39 340 235
0.027799098 0.755 0.0066188332 9.0031268e-39 341 235
0.029122867 0.755 0.0066188332 8.4524684e-39 342 235
0.030446632 0.755 0.0066188332 8.2680757e-39 343 235
0.031854562 0.75700003 0.0066363667 7.8078234e-39 344 235
0.033269498 0.759 0.0066538998 7.6230735e-39 345 235
0.034691449 0.76099998 0.0066714329 7.1649722e-39 346 235
0.036073081 0.76200002 0.0066801999 7.3493634e-39 347 235
0.037507307 0.764 0.006697733 6.5257194e-39 348 235
0.038948543 0.76599997 0.0067152665 6.8019476e-39 349 235
0.040291596 0.76599997 0.0067152665 6.8037328e-39 350 235
0.041689005 0.76700002 0.006724033 9.2926561e-39 351 235
0.043033812 0.76700002 0.006724033 1.1232353e-38 352 235
-0.027106533 0.773 0.0054213065 1.3364028e-38 300 236
-0.025617953 0.76899999 0.0053932532 7.7400945e-39 301 236
-0.024269639 0.76899999 0.0053932532 7.7292919e-39 302 236
-0.022921326 0.76899999 0.0053932532 6.2541618e-39 303 236
-0.021488851 0.76599997 0.0053722127 6.4374867e-39 304 236
-0.0200406 0.76200002 0.0053441599 6.6215178e-39 305 236
-0.01870456 0.76200002 0.0053441599 6.5286061e-39 306 236
-0.01736852 0.76200002 0.0053441599 6.2520206e-39 307 236
-0.016011439 0.76099998 0.0053371461 6.5257461e-39 308 236
-0.014677152 0.76099998 0.0053371461 6.3417149e-39 309 236
-0.0133078 0.759 0.0053231199 6.4314106e-39 310 236
-0.01194546 0.75700003 0.0053090933 6.4314106e-39 311 236
-0.010618187 0.75700003 0.0053090933 7.2593734e-39 312 236
-0.0092663663 0.755 0.0052950666 8.2735254e-39 313 236
-0.0079425992 0.755 0.0052950666 8.8302921e-39 314 236
-0.0066188332 0.755 0.0052950666 9.6600542e-39 315 236
-0.0052880533 0.75400001 0.0052880533 1.0759915e-38 316 236
-0.00396604 0.75400001 0.0052880533 1.0483327e-38 317 236
-0.0026440267 0.75400001 0.0052880533 1.1215839e-38 318 236
-0.0013220133 0.75400001 0.0052880533 1.1123642e-38 319 236
0 0.75400001 0.0052880533 1.1856888e-38 320 236
0.0013220133 0.75400001 0.0052880533 1.1856888e-38 321 236
0.0026440267 0.75400001 0.0052880533 1.2133106e-38 322 236
0.00396604 0.75400001 0.0052880533 1.2133106e-38 323 236
0.0052880533 0.75400001 0.0052880533 1.2315333e-38 324 236
0.0066100666 0.75400001 0.0052880533 1.2130941e-38 325 236
0.00793208 0.75400001 0.0052880533 1.2314607e-38 326 236
0.0092540924 0.75400001 0.0052880533 1.2498998e-38 327 236
0.010576107 0.75400001 0.0052880533 1.2867055e-38 328 236
0.01189812 0.75400001 0.0052880533 1.2867055e-38 329 236
0.013220133 0.75400001 0.0052880533 1.31422e-38 330 236
0.014542146 0.75400001 0.0052880533 1.31422e-38 331 236
0.01586416 0.75400001 0.0052880533 1.2959958e-38 332 236
0.017186172 0.75400001 0.0052880533 1.2959958e-38 333 236
0.018508185 0.75400001 0.0052880533 1.2868478e-38 334 236
0.019830201 0.75400001 0.0052880533 1.24075e-38 335 236
0.021152213 0.75400001 0.0052880533 1.1668869e-38 336 236
0.022474226 0.75400001 0.0052880533 1.1023499e-38 337 236
0.023827799 0.755 0.0052950666 9.920407e-39 338 236
0.025151566 0.755 0.0052950666 9.7363759e-39 339 236
0.026475333 0.755 0.0052950666 8.7279819e-39 340 236
0.027799098 0.755 0.0052950666 8.6357862e-39 341 236
0.029122867 0.755 0.0052950666 8.2677226e-39 342 236
0.030527288 0.75700003 0.0053090933 8.0833313e-39 343 236
0.031854562 0.75700003 0.0053090933 7.7149061e-39 344 236
0.033269498 0.759 0.0053231199 7.8071018e-39 345 236
0.034691449 0.76099998 0.0053371461 7.0745744e-39 346 236
0.036073081 0.76200002 0.0053441599 7.4429968e-39 347 236
0.037507307 0.764 0.0053581866 6.8019476e-39 348 236
0.038948543 0.76599997 0.0053722127 7.0785345e-39 349 236
0.040344197 0.76700002 0.0053792265 7.4491023e-39 350 236
0.041689005 0.76700002 0.0053792265 1.085998e-38 351 236
0.043033812 0.76700002 0.0053792265 1.2528138e-38 352 236
-0.02568458 0.77100003 0.0040554604 9.583291e-39 301 237
-0.024269639 0.76899999 0.0040449398 8.8349206e-39 302 237
-0.022921326 0.76899999 0.0040449398 6.8066167e-39 303 237
-0.021516906 0.76700002 0.00403442 7.0817771e-39 304 237
-0.020093199 0.764 0.0040186401 6.8051916e-39 305 237
-0.01870456 0.76200002 0.0040081199 6.7126428e-39 306 237
-0.01736852 0.76200002 0.0040081199 6.5282502e-39 307 237
-0.016011439 0.76099998 0.0040028598 6.4349826e-39 308 237
-0.014677152 0.76099998 0.0040028598 6.2505913e-39 309 237
-0.0133078 0.759 0.0039923396 6.6150578e-39 310 237
-0.01194546 0.75700003 0.0039818203 6.5228622e-39 311 237
-0.010618187 0.75700003 0.0039818203 7.4412213e-39 312 237
-0.0092663663 0.755 0.0039712996 7.7181684e-39 313 237
-0.0079425992 0.755 0.0039712996 8.0880397e-39 314 237
-0.0066188332 0.755 0.0039712996 9.0099946e-39 315 237
-0.0052880533 0.75400001 0.00396604 9.5627998e-39 316 237
-0.00396604 0.75400001 0.00396604 9.6549955e-39 317 237
-0.0026440267 0.75400001 0.00396604 1.093925e-38 318 237
-0.0013220133 0.75400001 0.00396604 1.1031446e-38 319 237
0 0.75400001 0.00396604 1.1397352e-38 320 237
0.0013220133 0.75400001 0.00396604 1.1397352e-38 321 237
0.0026440267 0.75400001 0.00396604 1.1672497e-38 322 237
0.00396604 0.75400001 0.00396604 1.1672497e-38 323 237
0.0052880533 0.75400001 0.00396604 1.185544e-38 324 237
0.0066100666 0.75400001 0.00396604 1.1763245e-38 325 237
0.00793208 0.75400001 0.00396604 1.2038387e-38 326 237
0.0092540924 0.75400001 0.00396604 1.2038387e-38 327 237
0.010576107 0.75400001 0.00396604 1.2497923e-38 328 237
0.01189812 0.75400001 0.00396604 1.2313532e-38 329 237
0.013220133 0.75400001 0.00396604 1.2771625e-38 330 237
0.014542146 0.75400001 0.00396604 1.2955657e-38 331 237
0.01586416 0.75400001 0.00396604 1.2772339e-38 332 237
0.017186172 0.75400001 0.00396604 1.2864535e-38 333 237
0.018508185 0.75400001 0.00396604 1.2773414e-38 334 237
0.019830201 0.75400001 0.00396604 1.2496827e-38 335 237
0.021152213 0.75400001 0.00396604 1.1483767e-38 336 237
0.022504034 0.755 0.0039712996 1.0838398e-38 337 237
0.023827799 0.755 0.0039712996 9.3686794e-39 338 237
0.025151566 0.755 0.0039712996 9.3686794e-39 339 237
0.026475333 0.755 0.0039712996 8.5432375e-39 340 237
0.027799098 0.755 0.0039712996 8.3584861e-39 341 237
0.029200014 0.75700003 0.0039818203 8.0822593e-39 342 237
0.030527288 0.75700003 0.0039818203 7.8978681e-39 343 237
0.031938717 0.759 0.0039923396 7.622356e-39 344 237
0.033357166 0.76099998 0.0040028598 8.0833341e-39 345 237
0.034737039 0.76200002 0.0040081199 7.0763723e-39 346 237
0.036167759 0.764 0.0040186401 7.3526004e-39 347 237
0.037605491 0.76599997 0.0040291594 6.9874136e-39 348 237
0.038999394 0.76700002 0.00403442 7.6327831e-39 349 237
0.040344197 0.76700002 0.00403442 8.3717788e-39 350 237
0.041689005 0.76700002 0.00403442 1.2428026e-38 351 237
0.043033812 0.76700002 0.00403442 1.3820317e-38 352 237
-0.025751207 0.773 0.0027106532 1.1150987e-38 301 238
-0.02433276 0.77100003 0.0027036399 9.7583188e-39 302 238
-0.02298094 0.77100003 0.0027036399 7.1768412e-39 303 238
-0.021573013 0.76899999 0.0026966266 7.6338621e-39 304 238
-0.020145798 0.76599997 0.0026861064 7.3569164e-39 305 238
-0.01870456 0.76200002 0.00267208 6.9888626e-39 306 238
-0.01736852 0.76200002 0.00267208 6.6200801e-39 307 238
-0.01603248 0.76200002 0.00267208 6.6186479e-39 308 238
-0.014677152 0.76099998 0.0026685731 6.2502242e-39 309 238
-0.013342866 0.76099998 0.0026685731 6.523581e-39 310 238
-0.01197702 0.759 0.00266156 6.3395499e-39 311 238
-0.01064624 0.759 0.00266156 6.7973009e-39 312 238
-0.0092909131 0.75700003 0.0026545466 6.7973009e-39 313 238
-0.0079636406 0.75700003 0.0026545466 7.5327205e-39 314 238
-0.0066188332 0.755 0.0026475333 8.2702856e-39 315 238
-0.0052950666 0.755 0.0026475333 8.3653553e-39 316 238
-0.0039712996 0.755 0.0026475333 8.9181689e-39 317 238
-0.0026475333 0.755 0.0026475333 9.8375917e-39 318 238
-0.0013237667 0.755 0.0026475333 9.9297873e-39 319 238
0 0.755 0.0026475333 1.0663389e-38 320 238
0.0013237667 0.755 0.0026475333 1.0663389e-38 321 238
0.0026475333 0.755 0.0026475333 1.1029648e-38 322 238
0.0039712996 0.755 0.0026475333 1.1121844e-38 323 238
0.0052950666 0.755 0.0026475333 1.130479e-38 324 238
0.0066100666 0.75400001 0.0026440267 1.1212595e-38 325 238
0.00793208 0.75400001 0.0026440267 1.1488453e-38 326 238
0.0092540924 0.75400001 0.0026440267 1.1304422e-38 327 238
0.010576107 0.75400001 0.0026440267 1.1670682e-38 328 238
0.01189812 0.75400001 0.0026440267 1.1486291e-38 329 238
0.013220133 0.75400001 0.0026440267 1.194332e-38 330 238
0.014542146 0.75400001 0.0026440267 1.1758929e-38 331 238
0.01586416 0.75400001 0.0026440267 1.1850052e-38 332 238
0.017186172 0.75400001 0.0026440267 1.2126638e-38 333 238
0.018508185 0.75400001 0.0026440267 1.1667812e-38 334 238
0.019830201 0.75400001 0.0026440267 1.1575617e-38 335 238
0.021180267 0.755 0.0026475333 1.111571e-38 336 238
0.022504034 0.755 0.0026475333 1.0654732e-38 337 238
0.023827799 0.755 0.0026475333 9.3697542e-39 338 238
0.025151566 0.755 0.0026475333 9.0931687e-39 339 238
0.026475333 0.755 0.0026475333 8.3584861e-39 340 238
0.027872739 0.75700003 0.0026545466 7.9900637e-39 341 238
0.029200014 0.75700003 0.0026545466 7.5305247e-39 342 238
0.030607941 0.759 0.00266156 7.5305247e-39 343 238
0.031938717 0.759 0.00266156 7.4394081e-39 344 238
0.033357166 0.76099998 0.0026685731 7.8081892e-39 345 238
0.034737039 0.76200002 0.00267208 7.1685721e-39 346 238
0.036167759 0.764 0.0026790933 7.5369945e-39 347 238
0.037605491 0.76599997 0.0026861064 7.448396e-39 348 238
0.038999394 0.76700002 0.0026896133 8.2777965e-39 349 238
0.0404494 0.76899999 0.0026966266 9.2022584e-39 350 238
0.041797712 0.76899999 0.0026966266 1.335106e-38 351 238
0.043146025 0.76899999 0.0026966266 1.4467483e-38 352 238
-0.024395877 0.773 0.0013553266 1.0866108e-38 302 239
-0.02298094 0.77100003 0.00135182 7.63962e-39 303 239
-0.021573013 0.76899999 0.0013483133 7.3637562e-39 304 239
-0.020172099 0.76700002 0.0013448066 6.6261911e-39 305 239
-0.018753653 0.764 0.0013395466 7.081424e-39 306 239
-0.01736852 0.76200002 0.00133604 6.6204458e-39 307 239
-0.01603248 0.76200002 0.00133604 6.528253e-39 308 239
-0.014677152 0.76099998 0.0013342865 6.1594719e-39 309 239
-0.013342866 0.76099998 0.0013342865 6.1569537e-39 310 239
-0.012008579 0.76099998 0.0013342865 5.9725625e-39 311 239
-0.01064624 0.759 0.00133078 6.6128956e-39 312 239
-0.0092909131 0.75700003 0.0013272733 6.7969281e-39 313 239
-0.0079636406 0.75700003 0.0013272733 7.6241707e-39 314 239
-0.0066188332 0.755 0.0013237667 8.1773445e-39 315 239
-0.0052950666 0.755 0.0013237667 8.7301623e-39 316 239
-0.0039712996 0.755 0.0013237667 9.3755317e-39 317 239
-0.0026475333 0.755 0.0013237667 9.5609978e-39 318 239
-0.0013237667 0.755 0.0013237667 9.8375861e-39 319 239
0 0.755 0.0013237667 1.0571191e-38 320 239
0.0013237667 0.755 0.0013237667 1.0663387e-38 321 239
0.0026475333 0.755 0.0013237667 1.0847052e-38 322 239
0.0039712996 0.755 0.0013237667 1.0939248e-38 323 239
0.0052950666 0.755 0.0013237667 1.084633e-38 324 239
0.0066100666 0.75400001 0.0013220133 1.084633e-38 325 239
0.00793208 0.75400001 0.0013220133 1.102928e-38 326 239
0.0092540924 0.75400001 0.0013220133 1.0937083e-38 327 239
0.010576107 0.75400001 0.0013220133 1.1302623e-38 328 239
0.01189812 0.75400001 0.0013220133 1.0841644e-38 329 239
0.013220133 0.75400001 0.0013220133 1.1388348e-38 330 239
0.014542146 0.75400001 0.0013220133 1.111212e-38 331 239
0.01586416 0.75400001 0.0013220133 1.1387627e-38 332 239
0.017186172 0.75400001 0.0013220133 1.1846811e-38 333 239
0.018508185 0.75400001 0.0013220133 1.1295791e-38 334 239
0.019830201 0.75400001 0.0013220133 1.1756411e-38 335 239
0.021180267 0.755 0.0013237667 1.0562183e-38 336 239
0.022504034 0.755 0.0013237667 1.0377792e-38 337 239
0.023827799 0.755 0.0013237667 8.9094977e-39 338 239
0.025151566 0.755 0.0013237667 8.6329122e-39 339 239
0.026475333 0.755 0.0013237667 7.8978653e-39 340 239
0.027872739 0.75700003 0.0013272733 7.7141901e-39 341 239
0.029200014 0.75700003 0.0013272733 7.5305205e-39 342 239
0.030607941 0.759 0.00133078 7.7141929e-39 343 239
0.032022879 0.76099998 0.0013342865 7.2560986e-39 344 239
0.033401001 0.76200002 0.00133604 7.809271e-39 345 239
0.034737039 0.76200002 0.00133604 7.1678631e-39 346 239
0.036167759 0.764 0.0013395466 7.9976223e-39 347 239
0.037605491 0.76599997 0.0013430532 7.8186233e-39 348 239
0.038999394 0.76700002 0.0013448066 9.2015577e-39 349 239
0.0404494 0.76899999 0.0013483133 9.9419912e-39 350 239
0.041797712 0.76899999 0.0013483133 1.3906762e-38 351 239
-0.024395877 0.773 -0 1.1790944e-38 302 240
-0.02298094 0.77100003 -0 8.3793472e-39 303 240
-0.021573013 0.76899999 -0 8.4646933e-39 304 240
-0.020172099 0.76700002 -0 8.0959094e-39 305 240
-0.018802745 0.76599997 -0 7.3590674e-39 306 240
-0.017414106 0.764 -0 6.8984494e-39 307 240
-0.01603248 0.76200002 -0 6.5289564e-39 308 240
-0.01469644 0.76200002 -0 6.2523709e-39 309 240
-0.013342866 0.76099998 -0 6.3416939e-39 310 240
-0.012008579 0.76099998 -0 6.1573041e-39 311 240
-0.010674292 0.76099998 -0 6.2477074e-39 312 240
-0.00931546 0.759 -0 6.2477074e-39 313 240
-0.0079846792 0.759 -0 6.7980197e-39 314 240
-0.0066363667 0.75700003 -0 7.0749668e-39 315 240
-0.0053090933 0.75700003 -0 7.352997e-39 316 240
-0.0039712996 0.755 -0 7.905812e-39 317 240
-0.0026475333 0.755 -0 8.2756736e-39 318 240
-0.0013237667 0.755 -0 8.5522619e-39 319 240
0 0.755 -0 9.4713273e-39 320 240
0.0013237667 0.755 -0 9.6553584e-39 321 240
0.0026475333 0.755 -0 1.0023052e-38 322 240
0.0039712996 0.755 -0 1.0023052e-38 323 240
0.0052950666 0.755 -0 1.0389311e-38 324 240
0.0066100666 0.75400001 -0 1.0113084e-38 325 240
0.00793208 0.75400001 -0 1.0388226e-38 326 240
0.0092540924 0.75400001 -0 1.0111638e-38 327 240
0.010576107 0.75400001 -0 1.0476103e-38 328 240
0.01189812 0.75400001 -0 1.0107319e-38 329 240
0.013220133 0.75400001 -0 1.0379237e-38 330 240
0.014542146 0.75400001 -0 1.0194846e-38 331 240
0.01586416 0.75400001 -0 1.010194e-38 332 240
0.017186172 0.75400001 -0 1.0193777e-38 333 240
0.018508185 0.75400001 -0 1.0011902e-38 334 240
0.019830201 0.75400001 -0 1.0011902e-38 335 240
0.021180267 0.755 -0 9.4608778e-39 336 240
0.022504034 0.755 -0 9.2764865e-39 337 240
0.023827799 0.755 -0 8.6329122e-39 338 240
0.025151566 0.755 -0 8.3570428e-39 339 240
0.026545467 0.75700003 -0 7.8060284e-39 340 240
0.027872739 0.75700003 -0 7.7141915e-39 341 240
0.029277159 0.759 -0 6.9795103e-39 342 240
0.030688593 0.76099998 -0 7.163903e-39 343 240
0.032064959 0.76200002 -0 6.7079625e-39 344 240
0.033401001 0.76200002 -0 7.0763863e-39 345 240
0.034828212 0.764 -0 7.0799834e-39 346 240
0.036167759 0.764 -0 8.0019383e-39 347 240
0.037605491 0.76599997 -0 8.7423746e-39 348 240
0.038999394 0.76700002 -0 9.9409178e-39 349 240
0.040344197 0.76700002 -0 1.1143051e-38 350 240
0.041689005 0.76700002 -0 1.4646845e-38 351 240
-0.024395877 0.773 -0.0013553266 1.2623589e-38 302 241
-0.02298094 0.77100003 -0.00135182 9.0283194e-39 303 241
-0.021573013 0.76899999 -0.0013483133 8.3735921e-39 304 241
-0.0202247 0.76899999 -0.0013483133 7.6360271e-39 305 241
-0.018827293 0.76700002 -0.0013448066 7.3619569e-39 306 241
-0.017459691 0.76599997 -0.0013430532 6.7165875e-39 307 241
-0.016074561 0.764 -0.0013395466 6.6233171e-39 308 241
-0.01469644 0.76200002 -0.00133604 6.1626976e-39 309 241
-0.0133604 0.76200002 -0.00133604 6.4353329e-39 310 241
-0.012008579 0.76099998 -0.0013342865 6.1587446e-39 311 241
-0.010674292 0.76099998 -0.0013342865 6.5239314e-39 312 241
-0.00931546 0.759 -0.00133078 6.3399002e-39 313 241
-0.0079846792 0.759 -0.00133078 6.8891238e-39 314 241
-0.0066363667 0.75700003 -0.0013272733 6.9813194e-39 315 241
-0.0053090933 0.75700003 -0.0013272733 7.6245392e-39 316 241
-0.0039818203 0.75700003 -0.0013272733 8.2699086e-39 317 241
-0.0026475333 0.755 -0.0013237667 8.2717107e-39 318 241
-0.0013237667 0.755 -0.0013237667 8.9170801e-39 319 241
0 0.755 -0.0013237667 9.193667e-39 320 241
0.0013237667 0.755 -0.0013237667 9.5624495e-39 321 241
0.0026475333 0.755 -0.0013237667 9.8379546e-39 322 241
0.0039712996 0.755 -0.0013237667 9.9301502e-39 323 241
0.0052950666 0.755 -0.0013237667 1.0021983e-38 324 241
0.0066188332 0.755 -0.0013237667 9.9297873e-39 325 241
0.00793208 0.75400001 -0.0013220133 1.0020538e-38 326 241
0.0092540924 0.75400001 -0.0013220133 9.8357868e-39 327 241
0.010576107 0.75400001 -0.0013220133 1.0292078e-38 328 241
0.01189812 0.75400001 -0.0013220133 9.9236538e-39 329 241
0.013220133 0.75400001 -0.0013220133 9.9214888e-39 330 241
0.014542146 0.75400001 -0.0013220133 9.5523475e-39 331 241
0.01586416 0.75400001 -0.0013220133 9.9182532e-39 332 241
0.017186172 0.75400001 -0.0013220133 9.9182532e-39 333 241
0.018508185 0.75400001 -0.0013220133 9.5516315e-39 334 241
0.0198565 0.755 -0.0013237667 9.6438271e-39 335 241
0.021180267 0.755 -0.0013237667 9.0920911e-39 336 241
0.022504034 0.755 -0.0013237667 8.7243861e-39 337 241
0.023827799 0.755 -0.0013237667 8.2652115e-39 338 241
0.025218192 0.75700003 -0.0013272733 8.0815377e-39 339 241
0.026545467 0.75700003 -0.0013272733 7.255014e-39 340 241
0.027946379 0.759 -0.00133078 7.3468509e-39 341 241
0.029354304 0.76099998 -0.0013342865 6.7043626e-39 342 241
0.030688593 0.76099998 -0.0013342865 6.9809509e-39 343 241
0.032064959 0.76200002 -0.00133604 6.6161298e-39 344 241
0.033401001 0.76200002 -0.00133604 7.2614992e-39 345 241
0.034828212 0.764 -0.0013395466 7.3562158e-39 346 241
0.036167759 0.764 -0.0013395466 8.554759e-39 347 241
0.037654586 0.76700002 -0.0013448066 8.5587092e-39 348 241
0.038999394 0.76700002 -0.0013448066 1.0494817e-38 349 241
0.040344197 0.76700002 -0.0013448066 1.2161166e-38 350 241
0.041689005 0.76700002 -0.0013448066 1.4834839e-38 351 241
-0.02433276 0.77100003 -0.0027036399 1.3455873e-38 302 242
-0.02298094 0.77100003 -0.0027036399 1.0321222e-38 303 242
-0.021629119 0.77100003 -0.0027036399 9.2973463e-39 304 242
-0.0202247 0.76899999 -0.0026966266 7.9144118e-39 305 242
-0.018876385 0.76899999 -0.0026966266 8.004804e-39 306 242
-0.017528072 0.76899999 -0.0026966266 7.6363802e-39 307 242
-0.01613768 0.76700002 -0.0026896133 7.2672375e-39 308 242
-0.014735013 0.764 -0.0026790933 6.8988151e-39 309 242
-0.0133604 0.76200002 -0.00267208 7.0792561e-39 310 242
-0.01202436 0.76200002 -0.00267208 6.8030294e-39 311 242
-0.01068832 0.76200002 -0.00267208 6.8015945e-39 312 242
-0.0093400059 0.76099998 -0.0026685731 6.4331707e-39 313 242
-0.0079846792 0.759 -0.00266156 6.7980099e-39 314 242
-0.0066538998 0.759 -0.00266156 6.7054556e-39 315 242
-0.0053090933 0.75700003 -0.0026545466 7.2561266e-39 316 242
-0.0039818203 0.75700003 -0.0026545466 7.5330737e-39 317 242
-0.0026545466 0.75700003 -0.0026545466 7.3515691e-39 318 242
-0.0013272733 0.75700003 -0.0026545466 7.8125472e-39 319 242
0 0.75700003 -0.0026545466 8.1824087e-39 320 242
0.0013237667 0.755 -0.0026475333 8.5508311e-39 321 242
0.0026475333 0.755 -0.0026475333 9.1029175e-39 322 242
0.0039712996 0.755 -0.0026475333 9.2869486e-39 323 242
0.0052950666 0.755 -0.0026475333 9.1032706e-39 324 242
0.0066188332 0.755 -0.0026475333 8.918878e-39 325 242
0.0079425992 0.755 -0.0026475333 9.1929411e-39 326 242
0.0092663663 0.755 -0.0026475333 8.9163556e-39 327 242
0.010576107 0.75400001 -0.0026440267 9.4655595e-39 328 242
0.01189812 0.75400001 -0.0026440267 9.3733639e-39 329 242
0.013220133 0.75400001 -0.0026440267 9.4630288e-39 330 242
0.014542146 0.75400001 -0.0026440267 9.0938875e-39 331 242
0.01586416 0.75400001 -0.0026440267 9.2761194e-39 332 242
0.017186172 0.75400001 -0.0026440267 9.3683164e-39 333 242
0.018532733 0.755 -0.0026475333 8.9105781e-39 334 242
0.0198565 0.755 -0.0026475333 8.7258267e-39 335 242
0.021180267 0.755 -0.0026475333 8.2655744e-39 336 242
0.022563647 0.75700003 -0.0026545466 7.8978695e-39 337 242
0.02389092 0.75700003 -0.0026545466 7.7141943e-39 338 242
0.025218192 0.75700003 -0.0026545466 7.8060312e-39 339 242
0.026615599 0.759 -0.00266156 7.2550126e-39 340 242
0.027946379 0.759 -0.00266156 7.347567e-39 341 242
0.029354304 0.76099998 -0.0026685731 6.6139662e-39 342 242
0.030688593 0.76099998 -0.0026685731 6.8905531e-39 343 242
0.032064959 0.76200002 -0.00267208 6.5264551e-39 344 242
0.033488665 0.764 -0.0026790933 7.079989e-39 345 242
0.034828212 0.764 -0.0026790933 7.4509295e-39 346 242
0.036167759 0.764 -0.0026790933 8.3732446e-39 347 242
0.037654586 0.76700002 -0.0026896133 9.2973463e-39 348 242
0.039101087 0.76899999 -0.0026966266 1.132565e-38 349 242
0.0404494 0.76899999 -0.0026966266 1.3360788e-38 350 242
0.041797712 0.76899999 -0.0026966266 1.5020309e-38 351 242
-0.024269639 0.76899999 -0.0040449398 1.391794e-38 302 243
-0.022921326 0.76899999 -0.0040449398 1.161341e-38 303 243
-0.021629119 0.77100003 -0.0040554604 1.0497687e-38 304 243
-0.0202247 0.76899999 -0.0040449398 8.5615791e-39 305 243
-0.018876385 0.76899999 -0.0040449398 8.6501762e-39 306 243
-0.017528072 0.76899999 -0.0040449398 7.9126097e-39 307 243
-0.01613768 0.76700002 -0.00403442 7.5438342e-39 308 243
-0.014792874 0.76700002 -0.00403442 7.2668872e-39 309 243
-0.013395466 0.764 -0.0040186401 7.1732538e-39 310 243
-0.01202436 0.76200002 -0.0040081199 6.9888626e-39 311 243
-0.01068832 0.76200002 -0.0040081199 6.9870605e-39 312 243
-0.0093522798 0.76200002 -0.0040081199 6.7108338e-39 313 243
-0.0080057196 0.76099998 -0.0040028598 7.1671386e-39 314 243
-0.0066714329 0.76099998 -0.0040028598 6.8905531e-39 315 243
-0.0053231199 0.759 -0.0039923396 7.072799e-39 316 243
-0.0039923396 0.759 -0.0039923396 7.3490257e-39 317 243
-0.0026545466 0.75700003 -0.0039818203 7.1657289e-39 318 243
-0.0013272733 0.75700003 -0.0039818203 7.5348715e-39 319 243
0 0.75700003 -0.0039818203 7.7203516e-39 320 243
0.0013237667 0.755 -0.0039712996 8.1813283e-39 321 243
0.0026475333 0.755 -0.0039712996 8.3660741e-39 322 243
0.0039818203 0.75700003 -0.0039818203 8.4582698e-39 323 243
0.0052950666 0.755 -0.0039712996 8.5479445e-39 324 243
0.0066188332 0.755 -0.0039712996 8.4557488e-39 325 243
0.0079425992 0.755 -0.0039712996 9.2797488e-39 326 243
0.0092663663 0.755 -0.0039712996 9.0953575e-39 327 243
0.010590133 0.755 -0.0039712996 9.7385563e-39 328 243
0.011913899 0.755 -0.0039712996 9.9229476e-39 329 243
0.013237666 0.755 -0.0039712996 9.82894e-39 330 243
0.014561433 0.755 -0.0039712996 9.0917337e-39 331 243
0.015885198 0.755 -0.0039712996 9.2753935e-39 332 243
0.017208965 0.755 -0.0039712996 9.7345766e-39 333 243
0.018532733 0.755 -0.0039712996 9.0942407e-39 334 243
0.0198565 0.755 -0.0039712996 8.7258169e-39 335 243
0.021180267 0.755 -0.0039712996 7.9897008e-39 336 243
0.022563647 0.75700003 -0.0039818203 7.7141887e-39 337 243
0.02389092 0.75700003 -0.0039818203 7.255014e-39 338 243
0.025218192 0.75700003 -0.0039818203 7.5305233e-39 339 243
0.026615599 0.759 -0.0039923396 7.0727751e-39 340 243
0.028020019 0.76099998 -0.0040028598 7.1649722e-39 341 243
0.029354304 0.76099998 -0.0040028598 6.6146823e-39 342 243
0.030728921 0.76200002 -0.0040081199 6.8916279e-39 343 243
0.032149121 0.764 -0.0040186401 6.528253e-39 344 243
0.033488665 0.764 -0.0040186401 7.265818e-39 345 243
0.034828212 0.764 -0.0040186401 7.7285884e-39 346 243
0.036262438 0.76599997 -0.0040291594 8.5587092e-39 347 243
0.037654586 0.76700002 -0.00403442 1.0037427e-38 348 243
0.039101087 0.76899999 -0.0040449398 1.225048e-38 349 243
0.0404494 0.76899999 -0.0040449398 1.4652249e-38 350 243
-0.024206521 0.76700002 -0.0053792265 1.3827549e-38 302 244
-0.022861714 0.76700002 -0.0053792265 1.2629006e-38 303 244
-0.021629119 0.77100003 -0.0054072798 1.1698396e-38 304 244
-0.0202247 0.76899999 -0.0053932532 9.3013091e-39 305 244
-0.018876385 0.76899999 -0.0053932532 8.7441725e-39 306 244
-0.017528072 0.76899999 -0.0053932532 8.0988031e-39 307 244
-0.01613768 0.76700002 -0.0053792265 7.6374732e-39 308 244
-0.014792874 0.76700002 -0.0053792265 7.1764936e-39 309 244
-0.013395466 0.764 -0.0053581866 7.3583668e-39 310 244
-0.01205592 0.764 -0.0053581866 7.1739755e-39 311 244
-0.010716373 0.764 -0.0053581866 7.2643733e-39 312 244
-0.0093522798 0.76200002 -0.0053441599 6.9877864e-39 313 244
-0.0080162399 0.76200002 -0.0053441599 7.1696567e-39 314 244
