# .PCD v.7 - Point Cloud Data file format
FIELDS x y z rgb imX imY
SIZE 4 4 4 4 4 4
TYPE F F F F F F
COUNT 1 1 1 1 1 1
WIDTH 858
HEIGHT 1
VIEWPOINT 0 0 0 1 0 0 0
POINTS 858
DATA ascii
-0.0066714329 0.76099998 0.028020019 1.5763778e-38 315 219
-0.0053371461 0.76099998 0.028020019 1.613112e-38 316 219
-0.0040028598 0.76099998 0.028020019 1.613112e-38 317 219
-0.0026685731 0.76099998 0.028020019 1.6314791e-38 318 219
-0.0013342865 0.76099998 0.028020019 1.6314791e-38 319 219
0 0.76099998 0.028020019 1.6130044e-38 320 219
0.0013342865 0.76099998 0.028020019 1.603785e-38 321 219
0.0026685731 0.76099998 0.028020019 1.6036774e-38 322 219
0.0040028598 0.76099998 0.028020019 1.5944579e-38 323 219
0.0053371461 0.76099998 0.028020019 1.585132e-38 324 219
0.0066714329 0.76099998 0.028020019 1.566657e-38 325 219
0.0080057196 0.76099998 0.028020019 1.5299245e-38 326 219
0.0093400059 0.76099998 0.028020019 1.5207049e-38 327 219
0.010674292 0.76099998 0.028020019 1.511416e-38 328 219
0.012008579 0.76099998 0.028020019 1.4930129e-38 329 219
0.013342866 0.76099998 0.028020019 1.4747185e-38 330 219
0.014677152 0.76099998 0.028020019 1.4747185e-38 331 219
0.016011439 0.76099998 0.028020019 1.4837242e-38 332 219
0.01736852 0.76200002 0.028056841 1.5021992e-38 333 219
0.01870456 0.76200002 0.028056841 1.530116e-38 334 219
-0.026685731 0.76099998 0.026685731 1.6317117e-38 300 220
-0.025351444 0.76099998 0.026685731 1.5856499e-38 301 220
-0.024017159 0.76099998 0.026685731 1.6959209e-38 302 220
-0.02262326 0.759 0.026615599 1.6867013e-38 303 220
-0.02129248 0.759 0.026615599 1.6685108e-38 304 220
-0.020014299 0.76099998 0.026685731 1.6408161e-38 305 220
-0.018680012 0.76099998 0.026685731 1.6589999e-38 306 220
-0.017345725 0.76099998 0.026685731 1.6221218e-38 307 220
-0.016011439 0.76099998 0.026685731 1.6129702e-38 308 220
-0.014677152 0.76099998 0.026685731 1.5668724e-38 309 220
-0.013342866 0.76099998 0.026685731 1.5852026e-38 310 220
-0.012008579 0.76099998 0.026685731 1.5483608e-38 311 220
-0.010674292 0.76099998 0.026685731 1.5759475e-38 312 220
-0.0093400059 0.76099998 0.026685731 1.6404844e-38 313 220
-0.0080057196 0.76099998 0.026685731 1.6130778e-38 314 220
-0.0066714329 0.76099998 0.026685731 1.6130778e-38 315 220
-0.0053371461 0.76099998 0.026685731 1.6406992e-38 316 220
-0.0040028598 0.76099998 0.026685731 1.6314797e-38 317 220
-0.0026685731 0.76099998 0.026685731 1.6406274e-38 318 220
-0.0013342865 0.76099998 0.026685731 1.6314078e-38 319 220
0 0.76099998 0.026685731 1.6039286e-38 320 220
0.0013342865 0.76099998 0.026685731 1.5854896e-38 321 220
0.0026685731 0.76099998 0.026685731 1.5761626e-38 322 220
0.0040028598 0.76099998 0.026685731 1.5669432e-38 323 220
0.0053371461 0.76099998 0.026685731 1.5576879e-38 324 220
0.0066714329 0.76099998 0.026685731 1.5300655e-38 325 220
0.0080057196 0.76099998 0.026685731 1.5208103e-38 326 220
0.0093400059 0.76099998 0.026685731 1.5023354e-38 327 220
0.010674292 0.76099998 0.026685731 1.492829e-38 328 220
0.012008579 0.76099998 0.026685731 1.4836096e-38 329 220
0.013342866 0.76099998 0.026685731 1.4286888e-38 330 220
0.014677152 0.76099998 0.026685731 1.4747506e-38 331 220
0.01603248 0.76200002 0.0267208 1.5021243e-38 332 220
0.01736852 0.76200002 0.0267208 1.5205993e-38 333 220
0.01870456 0.76200002 0.0267208 1.4285889e-38 334 220
0.020093199 0.764 0.026790932 1.511565e-38 335 220
0.021432746 0.764 0.026790932 1.5393739e-38 336 220
-0.026685731 0.76099998 0.025351444 1.6315643e-38 300 221
-0.025351444 0.76099998 0.025351444 1.6315643e-38 301 221
-0.024017159 0.76099998 0.025351444 1.6867717e-38 302 221
-0.02262326 0.759 0.025284819 1.6683324e-38 303 221
-0.02129248 0.759 0.025284819 1.6866969e-38 304 221
-0.020014299 0.76099998 0.025351444 1.6406349e-38 305 221
-0.01863092 0.759 0.025284819 1.6773296e-38 306 221
-0.017300138 0.759 0.025284819 1.6312318e-38 307 221
-0.015969358 0.759 0.025284819 1.6311924e-38 308 221
-0.014638579 0.759 0.025284819 1.6127533e-38 309 221
-0.0133078 0.759 0.025284819 1.5759115e-38 310 221
-0.01197702 0.759 0.025284819 1.566692e-38 311 221
-0.01064624 0.759 0.025284819 1.5300662e-38 312 221
-0.00931546 0.759 0.025284819 1.5393216e-38 313 221
-0.0079846792 0.759 0.025284819 1.5946402e-38 314 221
-0.0066714329 0.76099998 0.025351444 1.6038598e-38 315 221
-0.0053371461 0.76099998 0.025351444 1.5947832e-38 316 221
-0.0040028598 0.76099998 0.025351444 1.576344e-38 317 221
-0.0026685731 0.76099998 0.025351444 1.603858e-38 318 221
-0.0013342865 0.76099998 0.025351444 1.603858e-38 319 221
0 0.76099998 0.025351444 1.5671229e-38 320 221
0.0013342865 0.76099998 0.025351444 1.5578675e-38 321 221
0.0026685731 0.76099998 0.025351444 1.566979e-38 322 221
0.0040028598 0.76099998 0.025351444 1.566979e-38 323 221
0.0053371461 0.76099998 0.025351444 1.5485402e-38 324 221
0.0066538998 0.759 0.025284819 1.5485402e-38 325 221
0.0079846792 0.759 0.025284819 1.5486478e-38 326 221
0.00931546 0.759 0.025284819 1.401137e-38 327 221
0.01064624 0.759 0.025284819 1.2352592e-38 328 221
0.01197702 0.759 0.025284819 1.1707591e-38 329 221
0.013342866 0.76099998 0.025351444 1.2722805e-38 330 221
0.014677152 0.76099998 0.025351444 1.3920989e-38 331 221
0.01603248 0.76200002 0.02538476 1.4654957e-38 332 221
0.01736852 0.76200002 0.02538476 1.4747153e-38 333 221
0.01870456 0.76200002 0.02538476 1.4468437e-38 334 221
0.020093199 0.764 0.025451386 1.4745383e-38 335 221
0.021432746 0.764 0.025451386 1.447211e-38 336 221
0.022772292 0.764 0.025451386 1.5578818e-38 337 221
-0.029354304 0.76099998 0.024017159 1.6500051e-38 298 222
-0.028020019 0.76099998 0.024017159 1.6130909e-38 299 222
-0.026685731 0.76099998 0.024017159 1.6683675e-38 300 222
-0.025351444 0.76099998 0.024017159 1.6683675e-38 301 222
-0.023954039 0.759 0.023954039 1.6867697e-38 302 222
-0.022563647 0.75700003 0.02389092 1.6683306e-38 303 222
-0.021236373 0.75700003 0.02389092 1.6681491e-38 304 222
-0.0199617 0.759 0.023954039 1.64971e-38 305 222
-0.01863092 0.759 0.023954039 1.6681098e-38 306 222
-0.017300138 0.759 0.023954039 1.6220119e-38 307 222
-0.015969358 0.759 0.023954039 1.6128615e-38 308 222
-0.014638579 0.759 0.023954039 1.5851668e-38 309 222
-0.013272733 0.75700003 0.02389092 1.5759115e-38 310 222
-0.01194546 0.75700003 0.02389092 1.5574726e-38 311 222
-0.010618187 0.75700003 0.02389092 1.5208102e-38 312 222
-0.0092909131 0.75700003 0.02389092 1.5208102e-38 313 222
-0.0079846792 0.759 0.023954039 1.5393229e-38 314 222
-0.0066538998 0.759 0.023954039 1.5762371e-38 315 222
-0.0053371461 0.76099998 0.024017159 1.59464e-38 316 222
-0.0040028598 0.76099998 0.024017159 1.6038595e-38 317 222
-0.0026685731 0.76099998 0.024017159 1.5946756e-38 318 222
-0.0013342865 0.76099998 0.024017159 1.5946756e-38 319 222
0 0.76099998 0.024017159 1.5577972e-38 320 222
0.0013342865 0.76099998 0.024017159 1.5485775e-38 321 222
0.0026685731 0.76099998 0.024017159 1.5486481e-38 322 222
0.0039923396 0.759 0.023954039 1.5486481e-38 323 222
0.0053231199 0.759 0.023954039 1.5393579e-38 324 222
0.0066363667 0.75700003 0.02389092 1.5577972e-38 325 222
0.0079636406 0.75700003 0.02389092 1.5029856e-38 326 222
0.0092909131 0.75700003 0.02389092 1.1157654e-38 327 222
0.010618187 0.75700003 0.02389092 8.9414052e-39 328 222
0.01197702 0.759 0.023954039 8.5722696e-39 329 222
0.0133078 0.759 0.023954039 1.1983462e-38 330 222
0.014638579 0.759 0.023954039 1.391957e-38 331 222
0.016011439 0.76099998 0.024017159 1.465387e-38 332 222
0.017345725 0.76099998 0.024017159 1.4930455e-38 333 222
0.01870456 0.76200002 0.02404872 1.5021246e-38 334 222
0.0200406 0.76200002 0.02404872 1.4929048e-38 335 222
0.021432746 0.764 0.024111839 1.4101143e-38 336 222
0.022772292 0.764 0.024111839 1.4930905e-38 337 222
0.024111839 0.764 0.024111839 1.5485934e-38 338 222
-0.030688593 0.76099998 0.022682872 1.6226023e-38 297 223
-0.029354304 0.76099998 0.022682872 1.6223442e-38 298 223
-0.028020019 0.76099998 0.022682872 1.6315638e-38 299 223
-0.026615599 0.759 0.02262326 1.6776574e-38 300 223
-0.025284819 0.759 0.02262326 1.6776574e-38 301 223
-0.02389092 0.75700003 0.022563647 1.695952e-38 302 223
-0.022563647 0.75700003 0.022563647 1.6683293e-38 303 223
-0.021236373 0.75700003 0.022563647 1.6681839e-38 304 223
-0.019909101 0.75700003 0.022563647 1.6405252e-38 305 223
-0.018581826 0.75700003 0.022563647 1.6404867e-38 306 223
-0.017208965 0.755 0.022504034 1.6220475e-38 307 223
-0.015885198 0.755 0.022504034 1.6311574e-38 308 223
-0.014600007 0.75700003 0.022563647 1.5850954e-38 309 223
-0.013237666 0.755 0.022504034 1.5666562e-38 310 223
-0.011913899 0.755 0.022504034 1.5574009e-38 311 223
-0.010618187 0.75700003 0.022563647 1.4839336e-38 312 223
-0.0092909131 0.75700003 0.022563647 1.4931533e-38 313 223
-0.0079636406 0.75700003 0.022563647 1.4838986e-38 314 223
-0.0066538998 0.759 0.02262326 1.4931183e-38 315 223
-0.0053371461 0.76099998 0.022682872 1.5300311e-38 316 223
-0.0040028598 0.76099998 0.022682872 1.5392507e-38 317 223
-0.0026685731 0.76099998 0.022682872 1.4934053e-38 318 223
-0.0013342865 0.76099998 0.022682872 1.5210281e-38 319 223
0 0.76099998 0.022682872 1.5300683e-38 320 223
0.0013342865 0.76099998 0.022682872 1.5300683e-38 321 223
0.00266156 0.759 0.02262326 1.5117721e-38 322 223
0.0039923396 0.759 0.02262326 1.5209916e-38 323 223
0.0053231199 0.759 0.02262326 1.5302132e-38 324 223
0.0066363667 0.75700003 0.022563647 1.5394327e-38 325 223
0.0079636406 0.75700003 0.022563647 1.4014302e-38 326 223
0.0092909131 0.75700003 0.022563647 8.5747807e-39 327 223
0.010618187 0.75700003 0.022563647 9.3984303e-39 328 223
0.01194546 0.75700003 0.022563647 1.1426703e-38 329 223
0.0133078 0.759 0.02262326 1.3636854e-38 330 223
0.014638579 0.759 0.02262326 1.4927583e-38 331 223
0.016011439 0.76099998 0.022682872 1.4562383e-38 332 223
0.017345725 0.76099998 0.022682872 1.4838966e-38 333 223
0.01870456 0.76200002 0.02271268 1.4746434e-38 334 223
0.0200406 0.76200002 0.02271268 1.4746434e-38 335 223
0.021432746 0.764 0.022772292 1.4376971e-38 336 223
0.022772292 0.764 0.022772292 1.4376971e-38 337 223
0.024111839 0.764 0.022772292 1.4196605e-38 338 223
0.025451386 0.764 0.022772292 1.6040159e-38 339 223
-0.030688593 0.76099998 0.021348584 1.5856499e-38 297 224
-0.029354304 0.76099998 0.021348584 1.640746e-38 298 224
-0.027946379 0.759 0.02129248 1.6499656e-38 299 224
-0.026545467 0.75700003 0.021236373 1.6684022e-38 300 224
-0.025218192 0.75700003 0.021236373 1.6684022e-38 301 224
-0.023827799 0.755 0.021180267 1.6866959e-38 302 224
-0.022504034 0.755 0.021180267 1.6682209e-38 303 224
-0.021180267 0.755 0.021180267 1.6314483e-38 304 224
-0.0198565 0.755 0.021180267 1.6130092e-38 305 224
-0.018532733 0.755 0.021180267 1.6037879e-38 306 224
-0.017186172 0.75400001 0.021152213 1.5853488e-38 307 224
-0.01586416 0.75400001 0.021152213 1.5943879e-38 308 224
-0.014561433 0.755 0.021180267 1.5575456e-38 309 224
-0.013237666 0.755 0.021180267 1.5298865e-38 310 224
-0.011913899 0.755 0.021180267 1.520667e-38 311 224
-0.010590133 0.755 0.021180267 1.4746787e-38 312 224
-0.0092663663 0.755 0.021180267 1.4654592e-38 313 224
-0.0079636406 0.75700003 0.021236373 1.428655e-38 314 224
-0.0066538998 0.759 0.02129248 1.4102519e-38 315 224
-0.0053371461 0.76099998 0.021348584 1.4286194e-38 316 224
-0.0040028598 0.76099998 0.021348584 1.4286194e-38 317 224
-0.0026685731 0.76099998 0.021348584 1.4196153e-38 318 224
-0.0013342865 0.76099998 0.021348584 1.4472741e-38 319 224
0 0.76099998 0.021348584 1.4655687e-38 320 224
0.0013342865 0.76099998 0.021348584 1.4747883e-38 321 224
0.00266156 0.759 0.02129248 1.4565646e-38 322 224
0.0039923396 0.759 0.02129248 1.4841872e-38 323 224
0.0053090933 0.75700003 0.021236373 1.4750772e-38 324 224
0.0066363667 0.75700003 0.021236373 1.4013207e-38 325 224
0.0079636406 0.75700003 0.021236373 1.2353707e-38 326 224
0.0092663663 0.755 0.021180267 7.8361507e-39 327 224
0.010590133 0.755 0.021180267 9.9515957e-39 328 224
0.01194546 0.75700003 0.021236373 1.3362799e-38 329 224
0.013272733 0.75700003 0.021236373 1.419253e-38 330 224
0.014600007 0.75700003 0.021236373 1.4745696e-38 331 224
0.015969358 0.759 0.02129248 1.4654936e-38 332 224
0.017345725 0.76099998 0.021348584 1.4838966e-38 333 224
0.018680012 0.76099998 0.021348584 1.4838966e-38 334 224
0.0200406 0.76200002 0.02137664 1.4838966e-38 335 224
0.02137664 0.76200002 0.02137664 1.465387e-38 336 224
0.02271268 0.76200002 0.02137664 1.4285086e-38 337 224
0.02404872 0.76200002 0.02137664 1.3641238e-38 338 224
0.025451386 0.764 0.021432746 1.5669542e-38 339 224
0.026790932 0.764 0.021432746 1.6683058e-38 340 224
-0.030446632 0.755 0.0198565 1.6131264e-38 297 225
-0.029122867 0.755 0.0198565 1.6499643e-38 298 225
-0.027799098 0.755 0.0198565 1.6499643e-38 299 225
-0.026475333 0.755 0.0198565 1.6683659e-38 300 225
-0.025151566 0.755 0.0198565 1.6683659e-38 301 225
-0.02379624 0.75400001 0.019830201 1.6866234e-38 302 225
-0.022474226 0.75400001 0.019830201 1.6681842e-38 303 225
-0.021152213 0.75400001 0.019830201 1.6222287e-38 304 225
-0.019830201 0.75400001 0.019830201 1.6037895e-38 305 225
-0.018508185 0.75400001 0.019830201 1.5945684e-38 306 225
-0.017186172 0.75400001 0.019830201 1.5576902e-38 307 225
-0.01586416 0.75400001 0.019830201 1.5668005e-38 308 225
-0.014542146 0.75400001 0.019830201 1.5391059e-38 309 225
-0.013220133 0.75400001 0.019830201 1.520667e-38 310 225
-0.011913899 0.755 0.0198565 1.5022638e-38 311 225
-0.010590133 0.755 0.0198565 1.4378731e-38 312 225
-0.0092663663 0.755 0.0198565 1.4286535e-38 313 225
-0.0079425992 0.755 0.0198565 1.3825928e-38 314 225
-0.0066363667 0.75700003 0.019909101 1.3733374e-38 315 225
-0.0053231199 0.759 0.0199617 1.3364224e-38 316 225
-0.0039923396 0.759 0.0199617 1.2903247e-38 317 225
-0.0026685731 0.76099998 0.020014299 1.2722096e-38 318 225
-0.0013342865 0.76099998 0.020014299 1.327527e-38 319 225
0 0.76099998 0.020014299 1.3459312e-38 320 225
0.0013342865 0.76099998 0.020014299 1.3735897e-38 321 225
0.0026685731 0.76099998 0.020014299 1.3737342e-38 322 225
0.0039923396 0.759 0.0199617 1.4382712e-38 323 225
0.0053090933 0.75700003 0.019909101 1.4384158e-38 324 225
0.0066363667 0.75700003 0.019909101 1.1433896e-38 325 225
0.0079636406 0.75700003 0.019909101 8.6705651e-39 326 225
0.0092663663 0.755 0.0198565 8.6705651e-39 327 225
0.010590133 0.755 0.0198565 1.2439783e-38 328 225
0.01194546 0.75700003 0.019909101 1.4468087e-38 329 225
0.013272733 0.75700003 0.019909101 1.4562746e-38 330 225
0.014600007 0.75700003 0.019909101 1.4562746e-38 331 225
0.015969358 0.759 0.0199617 1.4654936e-38 332 225
0.017300138 0.759 0.0199617 1.4838966e-38 333 225
0.018680012 0.76099998 0.020014299 1.4747848e-38 334 225
0.020014299 0.76099998 0.020014299 1.4655654e-38 335 225
0.02137664 0.76200002 0.0200406 1.4838249e-38 336 225
0.02271268 0.76200002 0.0200406 1.4561666e-38 337 225
0.02404872 0.76200002 0.0200406 1.4375538e-38 338 225
0.02538476 0.76200002 0.0200406 1.5297853e-38 339 225
0.0267208 0.76200002 0.0200406 1.5762528e-38 340 225
-0.033094164 0.755 0.018532733 1.6133106e-38 295 226
-0.031770397 0.755 0.018532733 1.5946855e-38 296 226
-0.030446632 0.755 0.018532733 1.6223442e-38 297 226
-0.029084291 0.75400001 0.018508185 1.6408517e-38 298 226
-0.027762281 0.75400001 0.018508185 1.6408517e-38 299 226
-0.026440267 0.75400001 0.018508185 1.6684363e-38 300 226
-0.025051624 0.75199997 0.018459093 1.6592167e-38 301 226
-0.023669999 0.75 0.018409999 1.6682548e-38 302 226
-0.022355 0.75 0.018409999 1.6497798e-38 303 226
-0.021096105 0.75199997 0.018459093 1.6129724e-38 304 226
-0.0197776 0.75199997 0.018459093 1.5945333e-38 305 226
-0.018459093 0.75199997 0.018459093 1.5577621e-38 306 226
-0.017140586 0.75199997 0.018459093 1.5393229e-38 307 226
-0.015822079 0.75199997 0.018459093 1.5483614e-38 308 226
-0.014542146 0.75400001 0.018508185 1.5298862e-38 309 226
-0.013220133 0.75400001 0.018508185 1.5022637e-38 310 226
-0.01189812 0.75400001 0.018508185 1.4930443e-38 311 226
-0.010576107 0.75400001 0.018508185 1.456203e-38 312 226
-0.0092540924 0.75400001 0.018508185 1.4285083e-38 313 226
-0.00793208 0.75400001 0.018508185 1.3916676e-38 314 226
-0.0066188332 0.755 0.018532733 1.3547894e-38 315 226
-0.0053231199 0.759 0.01863092 1.2902894e-38 316 226
-0.0039923396 0.759 0.01863092 1.2165333e-38 317 226
-0.0026685731 0.76099998 0.018680012 1.1891985e-38 318 226
-0.0013342865 0.76099998 0.018680012 1.2445159e-38 319 226
0 0.76099998 0.018680012 1.253845e-38 320 226
0.0013342865 0.76099998 0.018680012 1.2999427e-38 321 226
0.0026685731 0.76099998 0.018680012 1.3551892e-38 322 226
0.0040028598 0.76099998 0.018680012 1.4289457e-38 323 226
0.0053090933 0.75700003 0.018581826 1.3466183e-38 324 226
0.0066363667 0.75700003 0.018581826 9.9631088e-39 325 226
0.0079636406 0.75700003 0.018581826 6.642648e-39 326 226
0.0092909131 0.75700003 0.018581826 1.0607014e-38 327 226
0.010618187 0.75700003 0.018581826 1.3641166e-38 328 226
0.01194546 0.75700003 0.018581826 1.4747153e-38 329 226
0.013272733 0.75700003 0.018581826 1.4472702e-38 330 226
0.014600007 0.75700003 0.018581826 1.4287953e-38 331 226
0.015969358 0.759 0.01863092 1.5023354e-38 332 226
0.017300138 0.759 0.01863092 1.5023354e-38 333 226
0.018680012 0.76099998 0.018680012 1.5023713e-38 334 226
0.020014299 0.76099998 0.018680012 1.4931519e-38 335 226
0.021348584 0.76099998 0.018680012 1.5021561e-38 336 226
0.022682872 0.76099998 0.018680012 1.5113755e-38 337 226
0.02404872 0.76200002 0.01870456 1.4652469e-38 338 226
0.02538476 0.76200002 0.01870456 1.4560273e-38 339 226
0.0267208 0.76200002 0.01870456 1.5024218e-38 340 226
-0.034417931 0.755 0.017208965 1.6225275e-38 294 227
-0.033094164 0.755 0.017208965 1.5672101e-38 295 227
-0.031770397 0.755 0.017208965 1.6222345e-38 296 227
-0.030406307 0.75400001 0.017186172 1.6407095e-38 297 227
-0.029084291 0.75400001 0.017186172 1.6408148e-38 298 227
-0.027688639 0.75199997 0.017140586 1.6408148e-38 299 227
-0.02637013 0.75199997 0.017140586 1.6683994e-38 300 227
-0.024984999 0.75 0.017095 1.6591798e-38 301 227
-0.02363844 0.74900001 0.017072206 1.6682895e-38 302 227
-0.022325192 0.74900001 0.017072206 1.6406309e-38 303 227
-0.02104 0.75 0.017095 1.6038951e-38 304 227
-0.019724999 0.75 0.017095 1.5577974e-38 305 227
-0.018409999 0.75 0.017095 1.5577958e-38 306 227
-0.017095 0.75 0.017095 1.5301372e-38 307 227
-0.015822079 0.75199997 0.017140586 1.5208819e-38 308 227
-0.014503572 0.75199997 0.017140586 1.5024072e-38 309 227
-0.013185065 0.75199997 0.017140586 1.493116e-38 310 227
-0.011866559 0.75199997 0.017140586 1.4838966e-38 311 227
-0.010548052 0.75199997 0.017140586 1.4469844e-38 312 227
-0.0092295464 0.75199997 0.017140586 1.4377649e-38 313 227
-0.00793208 0.75400001 0.017186172 1.3640815e-38 314 227
-0.0066188332 0.755 0.017208965 1.3456065e-38 315 227
-0.0053231199 0.759 0.017300138 1.1982385e-38 316 227
-0.0039923396 0.759 0.017300138 1.0968243e-38 317 227
-0.0026685731 0.76099998 0.017345725 1.1333792e-38 318 227
-0.0013342865 0.76099998 0.017345725 1.170221e-38 319 227
0 0.76099998 0.017345725 1.133918e-38 320 227
0.0013342865 0.76099998 0.017345725 1.2076746e-38 321 227
0.0026685731 0.76099998 0.017345725 1.2629216e-38 322 227
0.0040028598 0.76099998 0.017345725 1.2352988e-38 323 227
0.0053371461 0.76099998 0.017345725 1.1890563e-38 324 227
0.0066363667 0.75700003 0.017254554 1.0507631e-38 325 227
0.0079636406 0.75700003 0.017254554 1.0233201e-38 326 227
0.0092909131 0.75700003 0.017254554 1.2814664e-38 327 227
0.010618187 0.75700003 0.017254554 1.4011037e-38 328 227
0.01194546 0.75700003 0.017254554 1.4656406e-38 329 227
0.013272733 0.75700003 0.017254554 1.4380506e-38 330 227
0.014600007 0.75700003 0.017254554 1.4472702e-38 331 227
0.015927281 0.75700003 0.017254554 1.4931878e-38 332 227
0.017254554 0.75700003 0.017254554 1.5116625e-38 333 227
0.01863092 0.759 0.017300138 1.4932954e-38 334 227
0.0199617 0.759 0.017300138 1.4748565e-38 335 227
0.021348584 0.76099998 0.017345725 1.4930443e-38 336 227
0.022682872 0.76099998 0.017345725 1.4838249e-38 337 227
0.024017159 0.76099998 0.017345725 1.4929033e-38 338 227
0.02538476 0.76200002 0.01736852 1.4375859e-38 339 227
0.0267208 0.76200002 0.01736852 1.4470298e-38 340 227
0.028056841 0.76200002 0.01736852 1.6129821e-38 341 227
-0.034417931 0.755 0.015885198 1.6130909e-38 294 228
-0.033094164 0.755 0.015885198 1.5946877e-38 295 228
-0.031770397 0.755 0.015885198 1.6224849e-38 296 228
-0.030406307 0.75400001 0.01586416 1.6040458e-38 297 228
-0.029084291 0.75400001 0.01586416 1.6408499e-38 298 228
-0.027688639 0.75199997 0.015822079 1.6408499e-38 299 228
-0.0263 0.75 0.01578 1.66847e-38 300 228
-0.024984999 0.75 0.01578 1.6592146e-38 301 228
-0.02363844 0.74900001 0.01575896 1.6408444e-38 302 228
-0.022325192 0.74900001 0.01575896 1.6223694e-38 303 228
-0.021011947 0.74900001 0.01575896 1.6130403e-38 304 228
-0.019724999 0.75 0.01578 1.5854179e-38 305 228
-0.018385453 0.74900001 0.01575896 1.5944579e-38 306 228
-0.017072206 0.74900001 0.01575896 1.5760191e-38 307 228
-0.01575896 0.74900001 0.01575896 1.5484326e-38 308 228
-0.014465 0.75 0.01578 1.5299937e-38 309 228
-0.01315 0.75 0.01578 1.4930443e-38 310 228
-0.011835 0.75 0.01578 1.4838249e-38 311 228
-0.01052 0.75 0.01578 1.4470551e-38 312 228
-0.0092295464 0.75199997 0.015822079 1.4194324e-38 313 228
-0.0079110395 0.75199997 0.015822079 1.3824125e-38 314 228
-0.0066100666 0.75400001 0.01586416 1.3455701e-38 315 228
-0.0053090933 0.75700003 0.015927281 1.1983114e-38 316 228
-0.0039923396 0.759 0.015969358 1.0599825e-38 317 228
-0.0026685731 0.76099998 0.016011439 1.0045584e-38 318 228
-0.0013342865 0.76099998 0.016011439 1.0137778e-38 319 228
0 0.76099998 0.016011439 1.0048818e-38 320 228
0.0013342865 0.76099998 0.016011439 1.0509796e-38 321 228
0.0026685731 0.76099998 0.016011439 1.1889128e-38 322 228
0.0040028598 0.76099998 0.016011439 1.1612899e-38 323 228
0.0053371461 0.76099998 0.016011439 1.013993e-38 324 228
0.0066363667 0.75700003 0.015927281 1.0416513e-38 325 228
0.0079636406 0.75700003 0.015927281 1.134026e-38 326 228
0.0092909131 0.75700003 0.015927281 1.3184173e-38 327 228
0.010618187 0.75700003 0.015927281 1.3736245e-38 328 228
0.01194546 0.75700003 0.015927281 1.3828441e-38 329 228
0.013272733 0.75700003 0.015927281 1.4473059e-38 330 228
0.014600007 0.75700003 0.015927281 1.4565253e-38 331 228
0.015927281 0.75700003 0.015927281 1.5208819e-38 332 228
0.017254554 0.75700003 0.015927281 1.5208819e-38 333 228
0.01863092 0.759 0.015969358 1.5299937e-38 334 228
0.0199617 0.759 0.015969358 1.5207384e-38 335 228
0.021348584 0.76099998 0.016011439 1.5114114e-38 336 228
0.022682872 0.76099998 0.016011439 1.502192e-38 337 228
0.024017159 0.76099998 0.016011439 1.483826e-38 338 228
0.025351444 0.76099998 0.016011439 1.4377282e-38 339 228
0.0267208 0.76200002 0.01603248 1.3825267e-38 340 228
0.028056841 0.76200002 0.01603248 1.5116006e-38 341 228
-0.035741698 0.755 0.014561433 1.6501178e-38 293 229
-0.034417931 0.755 0.014561433 1.60387e-38 294 229
-0.033050332 0.75400001 0.014542146 1.6223092e-38 295 229
-0.03172832 0.75400001 0.014542146 1.6408148e-38 296 229
-0.030406307 0.75400001 0.014542146 1.6315953e-38 297 229
-0.029007144 0.75199997 0.014503572 1.6500322e-38 298 229
-0.027688639 0.75199997 0.014503572 1.6500322e-38 299 229
-0.0263 0.75 0.014465 1.6684695e-38 300 229
-0.024951685 0.74900001 0.014445714 1.6592499e-38 301 229
-0.02363844 0.74900001 0.014445714 1.6684305e-38 302 229
-0.022265578 0.74699998 0.014407139 1.6499555e-38 303 229
-0.020955838 0.74699998 0.014407139 1.631515e-38 304 229
-0.0196987 0.74900001 0.014445714 1.6130761e-38 305 229
-0.018385453 0.74900001 0.014445714 1.6130044e-38 306 229
-0.017072206 0.74900001 0.014445714 1.5945297e-38 307 229
-0.01575896 0.74900001 0.014445714 1.5577237e-38 308 229
-0.014445714 0.74900001 0.014445714 1.5301013e-38 309 229
-0.013132467 0.74900001 0.014445714 1.5207025e-38 310 229
-0.01181922 0.74900001 0.014445714 1.4930802e-38 311 229
-0.010505973 0.74900001 0.014445714 1.4562746e-38 312 229
-0.0091927266 0.74900001 0.014445714 1.4470551e-38 313 229
-0.00789 0.75 0.014465 1.3733011e-38 314 229
-0.0065925326 0.75199997 0.014503572 1.3456065e-38 315 229
-0.0053090933 0.75700003 0.014600007 1.1890931e-38 316 229
-0.0039923396 0.759 0.014638579 1.0507997e-38 317 229
-0.0026685731 0.76099998 0.014677152 8.4786404e-39 318 229
-0.0013342865 0.76099998 0.014677152 7.9254751e-39 319 229
0 0.76099998 0.014677152 8.3878811e-39 320 229
0.0013342865 0.76099998 0.014677152 8.6641051e-39 321 229
0.0026685731 0.76099998 0.014677152 9.9516027e-39 322 229
0.0040028598 0.76099998 0.014677152 9.7668513e-39 323 229
0.0053371461 0.76099998 0.014677152 8.7562993e-39 324 229
0.0066714329 0.76099998 0.014677152 1.0508372e-38 325 229
0.0079846792 0.759 0.014638579 1.2258636e-38 326 229
0.0092909131 0.75700003 0.014600007 1.364157e-38 327 229
0.010618187 0.75700003 0.014600007 1.3368184e-38 328 229
0.01194546 0.75700003 0.014600007 1.3645131e-38 329 229
0.013272733 0.75700003 0.014600007 1.4564894e-38 330 229
0.014600007 0.75700003 0.014600007 1.4657449e-38 331 229
0.015927281 0.75700003 0.014600007 1.5208819e-38 332 229
0.017254554 0.75700003 0.014600007 1.5208819e-38 333 229
0.018581826 0.75700003 0.014600007 1.5391414e-38 334 229
0.019909101 0.75700003 0.014600007 1.5391414e-38 335 229
0.02129248 0.759 0.014638579 1.5022637e-38 336 229
0.02262326 0.759 0.014638579 1.4930443e-38 337 229
0.024017159 0.76099998 0.014677152 1.4745345e-38 338 229
0.025351444 0.76099998 0.014677152 1.4652791e-38 339 229
0.026685731 0.76099998 0.014677152 1.3824888e-38 340 229
0.028056841 0.76200002 0.01469644 1.4193671e-38 341 229
-0.037065465 0.755 0.013237666 1.6318569e-38 292 230
-0.035741698 0.755 0.013237666 1.56732e-38 293 230
-0.034417931 0.755 0.013237666 1.6039401e-38 294 230
-0.033050332 0.75400001 0.013220133 1.6131597e-38 295 230
-0.03172832 0.75400001 0.013220133 1.6684007e-38 296 230
-0.030406307 0.75400001 0.013220133 1.6776561e-38 297 230
-0.029007144 0.75199997 0.013185065 1.6777262e-38 298 230
-0.027615 0.75 0.01315 1.6777262e-38 299 230
-0.026194798 0.74699998 0.013097399 1.6869435e-38 300 230
-0.024885058 0.74699998 0.013097399 1.6685045e-38 301 230
-0.023575317 0.74699998 0.013097399 1.6960163e-38 302 230
-0.022265578 0.74699998 0.013097399 1.6867968e-38 303 230
-0.020955838 0.74699998 0.013097399 1.6958357e-38 304 230
-0.0196987 0.74900001 0.013132467 1.6773969e-38 305 230
-0.018385453 0.74900001 0.013132467 1.6498462e-38 306 230
-0.017072206 0.74900001 0.013132467 1.6498462e-38 307 230
-0.01575896 0.74900001 0.013132467 1.6312639e-38 308 230
-0.014445714 0.74900001 0.013132467 1.5851668e-38 309 230
-0.013132467 0.74900001 0.013132467 1.5298502e-38 310 230
-0.01181922 0.74900001 0.013132467 1.5206308e-38 311 230
-0.010505973 0.74900001 0.013132467 1.4654942e-38 312 230
-0.0091927266 0.74900001 0.013132467 1.4470551e-38 313 230
-0.00789 0.75 0.01315 1.4009591e-38 314 230
-0.006575 0.75 0.01315 1.3087995e-38 315 230
-0.0052950666 0.755 0.013237666 1.1890209e-38 316 230
-0.0039923396 0.759 0.0133078 1.0599471e-38 317 230
-0.00266156 0.759 0.0133078 7.7418041e-39 318 230
-0.0013342865 0.76099998 0.013342866 6.5432791e-39 319 230
0 0.76099998 0.013342866 7.9222465e-39 320 230
0.0013342865 0.76099998 0.013342866 8.3828631e-39 321 230
0.0026685731 0.76099998 0.013342866 8.6630471e-39 322 230
0.0040028598 0.76099998 0.013342866 8.939634e-39 323 230
0.0053371461 0.76099998 0.013342866 9.0300163e-39 324 230
0.0066538998 0.759 0.0133078 1.0873928e-38 325 230
0.0079846792 0.759 0.0133078 1.1800165e-38 326 230
0.0092909131 0.75700003 0.013272733 1.2813958e-38 327 230
0.010618187 0.75700003 0.013272733 1.3274904e-38 328 230
0.01194546 0.75700003 0.013272733 1.3828078e-38 329 230
0.013272733 0.75700003 0.013272733 1.4472348e-38 330 230
0.014600007 0.75700003 0.013272733 1.4749296e-38 331 230
0.015885198 0.755 0.013237666 1.5391773e-38 332 230
0.017208965 0.755 0.013237666 1.5391773e-38 333 230
0.018532733 0.755 0.013237666 1.5391055e-38 334 230
0.019909101 0.75700003 0.013272733 1.5206667e-38 335 230
0.021236373 0.75700003 0.013272733 1.5113755e-38 336 230
0.02262326 0.759 0.0133078 1.5021561e-38 337 230
0.023954039 0.759 0.0133078 1.4836822e-38 338 230
0.025351444 0.76099998 0.013342866 1.4744626e-38 339 230
0.026685731 0.76099998 0.013342866 1.4193283e-38 340 230
0.028020019 0.76099998 0.013342866 1.4285478e-38 341 230
0.029354304 0.76099998 0.013342866 1.5301505e-38 342 230
-0.037163652 0.75700003 0.01194546 1.6040888e-38 292 231
-0.035741698 0.755 0.011913899 1.5579908e-38 293 231
-0.034417931 0.755 0.011913899 1.6132656e-38 294 231
-0.033050332 0.75400001 0.01189812 1.6224852e-38 295 231
-0.03172832 0.75400001 0.01189812 1.6684726e-38 296 231
-0.030406307 0.75400001 0.01189812 1.7146064e-38 297 231
-0.029007144 0.75199997 0.011866559 1.742335e-38 298 231
-0.027615 0.75 0.011835 1.6962373e-38 299 231
-0.026194798 0.74699998 0.011787659 1.7053104e-38 300 231
-0.024885058 0.74699998 0.011787659 1.7053104e-38 301 231
-0.023575317 0.74699998 0.011787659 1.7144908e-38 302 231
-0.022265578 0.74699998 0.011787659 1.7052712e-38 303 231
-0.020955838 0.74699998 0.011787659 1.7326775e-38 304 231
-0.019646099 0.74699998 0.011787659 1.7142028e-38 305 231
-0.018336359 0.74699998 0.011787659 1.7142028e-38 306 231
-0.017026618 0.74699998 0.011787659 1.6957998e-38 307 231
-0.015716879 0.74699998 0.011787659 1.6772534e-38 308 231
-0.014407139 0.74699998 0.011787659 1.6495951e-38 309 231
-0.013097399 0.74699998 0.011787659 1.5666204e-38 310 231
-0.011787659 0.74699998 0.011787659 1.5574009e-38 311 231
-0.010477919 0.74699998 0.011787659 1.4747143e-38 312 231
-0.0091681797 0.74699998 0.011787659 1.4654589e-38 313 231
-0.0078794798 0.74900001 0.01181922 1.4101784e-38 314 231
-0.0065662335 0.74900001 0.01181922 1.3180187e-38 315 231
-0.00526 0.75 0.011835 1.225754e-38 316 231
-0.0039712996 0.755 0.011913899 1.0782779e-38 317 231
-0.00266156 0.759 0.01197702 7.7396517e-39 318 231
-0.00133078 0.759 0.01197702 5.8957671e-39 319 231
0 0.76099998 0.012008579 7.1836235e-39 320 231
0.0013342865 0.76099998 0.012008579 7.8289929e-39 321 231
0.0026685731 0.76099998 0.012008579 7.3730496e-39 322 231
0.0040028598 0.76099998 0.012008579 7.9262234e-39 323 231
0.0053231199 0.759 0.01197702 8.8463426e-39 324 231
0.0066538998 0.759 0.01197702 1.0506224e-38 325 231
0.0079846792 0.759 0.01197702 1.1614679e-38 326 231
0.0092909131 0.75700003 0.01194546 1.2628828e-38 327 231
0.010590133 0.755 0.011913899 1.3366011e-38 328 231
0.011913899 0.755 0.011913899 1.3918822e-38 329 231
0.013237666 0.755 0.011913899 1.4379803e-38 330 231
0.014561433 0.755 0.011913899 1.4656391e-38 331 231
0.015885198 0.755 0.011913899 1.5115201e-38 332 231
0.017208965 0.755 0.011913899 1.5207397e-38 333 231
0.018532733 0.755 0.011913899 1.511555e-38 334 231
0.019909101 0.75700003 0.01194546 1.493116e-38 335 231
0.021236373 0.75700003 0.01194546 1.4930087e-38 336 231
0.022563647 0.75700003 0.01194546 1.4745696e-38 337 231
0.023954039 0.759 0.01197702 1.4744626e-38 338 231
0.025284819 0.759 0.01197702 1.4744626e-38 339 231
0.026685731 0.76099998 0.012008579 1.4377301e-38 340 231
0.028020019 0.76099998 0.012008579 1.419291e-38 341 231
0.029392879 0.76200002 0.01202436 1.5208217e-38 342 231
-0.038592618 0.759 0.01064624 1.7146197e-38 291 232
-0.037163652 0.75700003 0.010618187 1.5948314e-38 292 232
-0.035741698 0.755 0.010590133 1.5672086e-38 293 232
-0.034417931 0.755 0.010590133 1.6225555e-38 294 232
-0.033050332 0.75400001 0.010576107 1.6225555e-38 295 232
-0.03172832 0.75400001 0.010576107 1.686947e-38 296 232
-0.030325651 0.75199997 0.010548052 1.7422644e-38 297 232
-0.029007144 0.75199997 0.010548052 1.7422994e-38 298 232
-0.027615 0.75 0.01052 1.7054572e-38 299 232
-0.026194798 0.74699998 0.010477919 1.7237141e-38 300 232
-0.024885058 0.74699998 0.010477919 1.7237141e-38 301 232
-0.023575317 0.74699998 0.010477919 1.7329669e-38 302 232
-0.022265578 0.74699998 0.010477919 1.7145278e-38 303 232
-0.020955838 0.74699998 0.010477919 1.7696271e-38 304 232
-0.019646099 0.74699998 0.010477919 1.7327134e-38 305 232
-0.018336359 0.74699998 0.010477919 1.7051627e-38 306 232
-0.017026618 0.74699998 0.010477919 1.6959433e-38 307 232
-0.015716879 0.74699998 0.010477919 1.7142391e-38 308 232
-0.014407139 0.74699998 0.010477919 1.6681057e-38 309 232
-0.013097399 0.74699998 0.010477919 1.6310128e-38 310 232
-0.011787659 0.74699998 0.010477919 1.5849515e-38 311 232
-0.010477919 0.74699998 0.010477919 1.5206308e-38 312 232
-0.0091681797 0.74699998 0.010477919 1.5206308e-38 313 232
-0.0078584393 0.74699998 0.010477919 1.4378005e-38 314 232
-0.0065662335 0.74900001 0.010505973 1.3917027e-38 315 232
-0.0052529867 0.74900001 0.010505973 1.2442638e-38 316 232
-0.0039555198 0.75199997 0.010548052 1.0690943e-38 317 232
-0.0026440267 0.75400001 0.010576107 6.6326035e-39 318 232
-0.0013237667 0.755 0.010590133 4.8812719e-39 319 232
0 0.76099998 0.010674292 6.2616742e-39 320 232
0.0013342865 0.76099998 0.010674292 6.4457039e-39 321 232
0.0026685731 0.76099998 0.010674292 6.4460626e-39 322 232
0.0040028598 0.76099998 0.010674292 6.6308098e-39 323 232
0.0053231199 0.759 0.01064624 6.9142084e-39 324 232
0.0066363667 0.75700003 0.010618187 9.2187166e-39 325 232
0.0079636406 0.75700003 0.010618187 1.1154784e-38 326 232
0.0092909131 0.75700003 0.010618187 1.2353313e-38 327 232
0.010590133 0.755 0.010590133 1.3732277e-38 328 232
0.011913899 0.755 0.010590133 1.4008859e-38 329 232
0.013220133 0.75400001 0.010576107 1.4378354e-38 330 232
0.014542146 0.75400001 0.010576107 1.4562743e-38 331 232
0.015885198 0.755 0.010590133 1.4747848e-38 332 232
0.017208965 0.755 0.010590133 1.4840042e-38 333 232
0.018532733 0.755 0.010590133 1.5022996e-38 334 232
0.0198565 0.755 0.010590133 1.4838607e-38 335 232
0.021180267 0.755 0.010590133 1.4837531e-38 336 232
0.022563647 0.75700003 0.010618187 1.4744978e-38 337 232
0.02389092 0.75700003 0.010618187 1.4653144e-38 338 232
0.025284819 0.759 0.01064624 1.4560948e-38 339 232
0.026615599 0.759 0.01064624 1.4193613e-38 340 232
0.027946379 0.759 0.01064624 1.4009222e-38 341 232
0.029354304 0.76099998 0.010674292 1.4563915e-38 342 232
0.030688593 0.76099998 0.010674292 1.6500023e-38 343 232
-0.038592618 0.759 0.00931546 1.6593729e-38 291 233
-0.037163652 0.75700003 0.0092909131 1.5764259e-38 292 233
-0.035741698 0.755 0.0092663663 1.594865e-38 293 233
-0.034417931 0.755 0.0092663663 1.6409215e-38 294 233
-0.033050332 0.75400001 0.0092540924 1.6501769e-38 295 233
-0.03172832 0.75400001 0.0092540924 1.6870176e-38 296 233
-0.030325651 0.75199997 0.0092295464 1.7147123e-38 297 233
-0.028929999 0.75 0.0092049995 1.7514098e-38 298 233
-0.027578179 0.74900001 0.0091927266 1.7237871e-38 299 233
-0.026194798 0.74699998 0.0091681797 1.742152e-38 300 233
-0.024885058 0.74699998 0.0091681797 1.7329324e-38 301 233
-0.023543758 0.74599999 0.0091559067 1.760552e-38 302 233
-0.022235774 0.74599999 0.0091559067 1.7513325e-38 303 233
-0.020927785 0.74599999 0.0091559067 1.7879941e-38 304 233
-0.019646099 0.74699998 0.0091681797 1.7603717e-38 305 233
-0.018336359 0.74699998 0.0091681797 1.7419328e-38 306 233
-0.017026618 0.74699998 0.0091681797 1.7419328e-38 307 233
-0.015695838 0.74599999 0.0091559067 1.705091e-38 308 233
-0.014387853 0.74599999 0.0091559067 1.6682133e-38 309 233
-0.013079867 0.74599999 0.0091559067 1.6678905e-38 310 233
-0.011771879 0.74599999 0.0091559067 1.6310486e-38 311 233
-0.010477919 0.74699998 0.0091681797 1.612538e-38 312 233
-0.0091681797 0.74699998 0.0091681797 1.5756962e-38 313 233
-0.0078584393 0.74699998 0.0091681797 1.5021932e-38 314 233
-0.0065662335 0.74900001 0.0091927266 1.4929737e-38 315 233
-0.0052529867 0.74900001 0.0091927266 1.4006721e-38 316 233
-0.0039397399 0.74900001 0.0091927266 1.2255016e-38 317 233
-0.00263 0.75 0.0092049995 9.3040837e-39 318 233
-0.0013220133 0.75400001 0.0092540924 6.1694799e-39 319 233
0 0.759 0.00931546 6.1701974e-39 320 233
0.00133078 0.759 0.00931546 6.1701974e-39 321 233
0.00266156 0.759 0.00931546 5.3429605e-39 322 233
0.0039923396 0.759 0.00931546 6.1727085e-39 323 233
0.0053090933 0.75700003 0.0092909131 7.834357e-39 324 233
0.0066188332 0.755 0.0092663663 1.0047038e-38 325 233
0.0079425992 0.755 0.0092663663 1.1890186e-38 326 233
0.0092663663 0.755 0.0092663663 1.2903963e-38 327 233
0.010576107 0.75400001 0.0092540924 1.3732277e-38 328 233
0.01189812 0.75400001 0.0092540924 1.4193248e-38 329 233
0.013220133 0.75400001 0.0092540924 1.4378002e-38 330 233
0.014542146 0.75400001 0.0092540924 1.4562393e-38 331 233
0.01586416 0.75400001 0.0092540924 1.4471277e-38 332 233
0.017186172 0.75400001 0.0092540924 1.4471277e-38 333 233
0.018508185 0.75400001 0.0092540924 1.4654579e-38 334 233
0.0198565 0.755 0.0092663663 1.4654579e-38 335 233
0.021180267 0.755 0.0092663663 1.4746054e-38 336 233
0.022504034 0.755 0.0092663663 1.4561666e-38 337 233
0.02389092 0.75700003 0.0092909131 1.465386e-38 338 233
0.025218192 0.75700003 0.0092909131 1.4561666e-38 339 233
0.026615599 0.759 0.00931546 1.4194324e-38 340 233
0.027946379 0.759 0.00931546 1.3825188e-38 341 233
0.029354304 0.76099998 0.0093400059 1.4470636e-38 342 233
0.030688593 0.76099998 0.0093400059 1.6221994e-38 343 233
-0.038490929 0.75700003 0.0079636406 1.6133103e-38 291 234
-0.037065465 0.755 0.0079425992 1.5948637e-38 292 234
-0.035741698 0.755 0.0079425992 1.6132669e-38 293 234
-0.034372345 0.75400001 0.00793208 1.6318451e-38 294 234
-0.032962665 0.75199997 0.0079110395 1.6502482e-38 295 234
-0.031644158 0.75199997 0.0079110395 1.6962726e-38 296 234
-0.030244999 0.75 0.00789 1.7054922e-38 297 234
-0.028891427 0.74900001 0.0078794798 1.733042e-38 298 234
-0.027504537 0.74699998 0.0078584393 1.733042e-38 299 234
-0.026194798 0.74699998 0.0078584393 1.751336e-38 300 234
-0.024885058 0.74699998 0.0078584393 1.751336e-38 301 234
-0.023543758 0.74599999 0.0078479191 1.7698084e-38 302 234
-0.022235774 0.74599999 0.0078479191 1.7698084e-38 303 234
-0.020927785 0.74599999 0.0078479191 1.7605873e-38 304 234
-0.019619798 0.74599999 0.0078479191 1.7328928e-38 305 234
-0.018311813 0.74599999 0.0078479191 1.7511881e-38 306 234
-0.016958239 0.74400002 0.0078268806 1.7143463e-38 307 234
-0.015653761 0.74400002 0.0078268806 1.6958357e-38 308 234
-0.014387853 0.74599999 0.0078479191 1.6497745e-38 309 234
-0.013079867 0.74599999 0.0078479191 1.6495951e-38 310 234
-0.011771879 0.74599999 0.0078479191 1.6219368e-38 311 234
-0.01043584 0.74400002 0.0078268806 1.5942786e-38 312 234
-0.0091313599 0.74400002 0.0078268806 1.5666203e-38 313 234
-0.0078268806 0.74400002 0.0078268806 1.5481459e-38 314 234
-0.0065486995 0.74699998 0.0078584393 1.5481459e-38 315 234
-0.0052389596 0.74699998 0.0078584393 1.5112333e-38 316 234
-0.0039292197 0.74699998 0.0078584393 1.4190019e-38 317 234
-0.0026264933 0.74900001 0.0078794798 1.2898941e-38 318 234
-0.0013132467 0.74900001 0.0078794798 1.179261e-38 319 234
0 0.755 0.0079425992 1.0780626e-38 320 234
0.0013237667 0.755 0.0079425992 1.0319655e-38 321 234
0.0026475333 0.755 0.0079425992 1.0872117e-38 322 234
0.0039818203 0.75700003 0.0079636406 1.2162497e-38 323 234
0.0052950666 0.755 0.0079425992 1.2076043e-38 324 234
0.0066100666 0.75400001 0.00793208 1.2352988e-38 325 234
0.00793208 0.75400001 0.00793208 1.3731929e-38 326 234
0.0092540924 0.75400001 0.00793208 1.3824125e-38 327 234
0.010576107 0.75400001 0.00793208 1.3826264e-38 328 234
0.01189812 0.75400001 0.00793208 1.4010653e-38 329 234
0.013220133 0.75400001 0.00793208 1.4378354e-38 330 234
0.014503572 0.75199997 0.0079110395 1.4470548e-38 331 234
0.015822079 0.75199997 0.0079110395 1.4562025e-38 332 234
0.017186172 0.75400001 0.00793208 1.4654579e-38 333 234
0.018508185 0.75400001 0.00793208 1.4746054e-38 334 234
0.019830201 0.75400001 0.00793208 1.4561666e-38 335 234
0.021152213 0.75400001 0.00793208 1.465386e-38 336 234
0.022504034 0.755 0.0079425992 1.4561666e-38 337 234
0.02389092 0.75700003 0.0079636406 1.4377277e-38 338 234
0.025218192 0.75700003 0.0079636406 1.4377277e-38 339 234
0.026615599 0.759 0.0079846792 1.4377277e-38 340 234
0.027946379 0.759 0.0079846792 1.4100336e-38 341 234
0.029277159 0.759 0.0079846792 1.4193676e-38 342 234
0.030688593 0.76099998 0.0080057196 1.5852839e-38 343 234
0.032022879 0.76099998 0.0080057196 1.6774878e-38 344 234
-0.038490929 0.75700003 0.0066363667 1.5949058e-38 291 235
-0.037065465 0.755 0.0066188332 1.6225568e-38 292 235
-0.035694357 0.75400001 0.0066100666 1.6225568e-38 293 235
-0.034372345 0.75400001 0.0066100666 1.6594315e-38 294 235
-0.032962665 0.75199997 0.0065925326 1.6686511e-38 295 235
-0.03156 0.75 0.006575 1.733043e-38 296 235
-0.030204674 0.74900001 0.0065662335 1.733043e-38 297 235
-0.028891427 0.74900001 0.0065662335 1.7514083e-38 298 235
-0.027504537 0.74699998 0.0065486995 1.7514083e-38 299 235
-0.026159734 0.74599999 0.0065399334 1.7698101e-38 300 235
-0.024851745 0.74599999 0.0065399334 1.7698101e-38 301 235
-0.023543758 0.74599999 0.0065399334 1.7973943e-38 302 235
-0.022176161 0.74400002 0.0065223998 1.7881747e-38 303 235
-0.02087168 0.74400002 0.0065223998 1.778954e-38 304 235
-0.019567199 0.74400002 0.0065223998 1.7605152e-38 305 235
-0.01826272 0.74400002 0.0065223998 1.7603717e-38 306 235
-0.016958239 0.74400002 0.0065223998 1.7603717e-38 307 235
-0.015653761 0.74400002 0.0065223998 1.7326775e-38 308 235
-0.01434928 0.74400002 0.0065223998 1.6866163e-38 309 235
-0.0130448 0.74400002 0.0065223998 1.6680339e-38 310 235
-0.011740319 0.74400002 0.0065223998 1.6587786e-38 311 235
-0.01043584 0.74400002 0.0065223998 1.6310845e-38 312 235
-0.0091313599 0.74400002 0.0065223998 1.6034262e-38 313 235
-0.0078268806 0.74400002 0.0065223998 1.5574009e-38 314 235
-0.0065399334 0.74599999 0.0065399334 1.5481814e-38 315 235
-0.0052319462 0.74599999 0.0065399334 1.529816e-38 316 235
-0.0039239596 0.74599999 0.0065399334 1.4837541e-38 317 235
-0.0026194798 0.74699998 0.0065486995 1.4191831e-38 318 235
-0.0013132467 0.74900001 0.0065662335 1.3731213e-38 319 235
0 0.74900001 0.0065662335 1.2994752e-38 320 235
0.001315 0.75 0.006575 1.2718525e-38 321 235
0.00263 0.75 0.006575 1.2994758e-38 322 235
0.00396604 0.75400001 0.0066100666 1.3179149e-38 323 235
0.00526 0.75 0.006575 1.3364601e-38 324 235
0.006575 0.75 0.006575 1.3456797e-38 325 235
0.00789 0.75 0.006575 1.382591e-38 326 235
0.0092049995 0.75 0.006575 1.382591e-38 327 235
0.010548052 0.75199997 0.0065925326 1.4194324e-38 328 235
0.011866559 0.75199997 0.0065925326 1.4378712e-38 329 235
0.013185065 0.75199997 0.0065925326 1.4470551e-38 330 235
0.014503572 0.75199997 0.0065925326 1.4470551e-38 331 235
0.015822079 0.75199997 0.0065925326 1.4470198e-38 332 235
0.017140586 0.75199997 0.0065925326 1.4470198e-38 333 235
0.018459093 0.75199997 0.0065925326 1.4562025e-38 334 235
0.019830201 0.75400001 0.0066100666 1.446983e-38 335 235
0.021152213 0.75400001 0.0066100666 1.4377995e-38 336 235
0.022504034 0.755 0.0066188332 1.4285801e-38 337 235
0.023827799 0.755 0.0066188332 1.4285801e-38 338 235
0.025151566 0.755 0.0066188332 1.4193606e-38 339 235
0.026545467 0.75700003 0.0066363667 1.4376201e-38 340 235
0.027946379 0.759 0.0066538998 1.4007424e-38 341 235
0.029277159 0.759 0.0066538998 1.4007833e-38 342 235
0.030688593 0.76099998 0.0066714329 1.5575161e-38 343 235
0.032022879 0.76099998 0.0066714329 1.668231e-38 344 235
-0.041145474 0.75700003 0.0053090933 1.6778863e-38 289 236
-0.039818201 0.75700003 0.0053090933 1.6594417e-38 290 236
-0.038490929 0.75700003 0.0053090933 1.6041244e-38 291 236
-0.037065465 0.755 0.0052950666 1.6318119e-38 292 236
-0.035694357 0.75400001 0.0052880533 1.6318119e-38 293 236
-0.034372345 0.75400001 0.0052880533 1.6686514e-38 294 236
-0.032962665 0.75199997 0.0052740262 1.6778711e-38 295 236
-0.03156 0.75 0.00526 1.723859e-38 296 236
-0.030204674 0.74900001 0.0052529867 1.723859e-38 297 236
-0.028814279 0.74699998 0.0052389596 1.7606634e-38 298 236
-0.027504537 0.74699998 0.0052389596 1.7606634e-38 299 236
-0.026159734 0.74599999 0.0052319462 1.7606984e-38 300 236
-0.024851745 0.74599999 0.0052319462 1.7606984e-38 301 236
-0.023543758 0.74599999 0.0052319462 1.788248e-38 302 236
-0.022176161 0.74400002 0.0052179201 1.7790283e-38 303 236
-0.02087168 0.74400002 0.0052179201 1.78821e-38 304 236
-0.019567199 0.74400002 0.0052179201 1.7605873e-38 305 236
-0.01826272 0.74400002 0.0052179201 1.7788823e-38 306 236
-0.016912652 0.74199998 0.0052038929 1.7696628e-38 307 236
-0.015611678 0.74199998 0.0052038929 1.7787746e-38 308 236
-0.014310705 0.74199998 0.0052038929 1.7419328e-38 309 236
-0.013009733 0.74199998 0.0052038929 1.7141311e-38 310 236
-0.01170876 0.74199998 0.0052038929 1.7049116e-38 311 236
-0.010407786 0.74199998 0.0052038929 1.6311921e-38 312 236
-0.009106813 0.74199998 0.0052038929 1.6127533e-38 313 236
-0.0078058392 0.74199998 0.0052038929 1.5391055e-38 314 236
-0.0065223998 0.74400002 0.0052179201 1.5391055e-38 315 236
-0.0052179201 0.74400002 0.0052179201 1.5297793e-38 316 236
-0.0039134403 0.74400002 0.0052179201 1.5297793e-38 317 236
-0.0026159731 0.74599999 0.0052319462 1.4839356e-38 318 236
-0.0013079866 0.74599999 0.0052319462 1.4839356e-38 319 236
0 0.74599999 0.0052319462 1.474718e-38 320 236
0.0013097399 0.74699998 0.0052389596 1.4654984e-38 321 236
0.0026159731 0.74599999 0.0052319462 1.4838652e-38 322 236
0.0039239596 0.74599999 0.0052319462 1.4654259e-38 323 236
0.0052389596 0.74699998 0.0052389596 1.4378731e-38 324 236
0.0065486995 0.74699998 0.0052389596 1.4286535e-38 325 236
0.0078584393 0.74699998 0.0052389596 1.4194324e-38 326 236
0.0091927266 0.74900001 0.0052529867 1.4194324e-38 327 236
0.01052 0.75 0.00526 1.4378712e-38 328 236
0.011835 0.75 0.00526 1.4470907e-38 329 236
0.01315 0.75 0.00526 1.4562746e-38 330 236
0.014465 0.75 0.00526 1.4470551e-38 331 236
0.01578 0.75 0.00526 1.4470551e-38 332 236
0.017140586 0.75199997 0.0052740262 1.4378355e-38 333 236
0.018459093 0.75199997 0.0052740262 1.4470189e-38 334 236
0.0197776 0.75199997 0.0052740262 1.4377995e-38 335 236
0.021152213 0.75400001 0.0052880533 1.4378354e-38 336 236
0.022474226 0.75400001 0.0052880533 1.4286159e-38 337 236
0.023827799 0.755 0.0052950666 1.4285083e-38 338 236
0.025151566 0.755 0.0052950666 1.4192889e-38 339 236
0.026545467 0.75700003 0.0053090933 1.4192171e-38 340 236
0.027872739 0.75700003 0.0053090933 1.4099977e-38 341 236
0.029277159 0.759 0.0053231199 1.3823802e-38 342 236
0.030688593 0.76099998 0.0053371461 1.5114541e-38 343 236
0.032022879 0.76099998 0.0053371461 1.677414e-38 344 236
-0.042697169 0.76099998 0.0040028598 1.7240195e-38 288 237
-0.041145474 0.75700003 0.0039818203 1.650263e-38 289 237
-0.039818201 0.75700003 0.0039818203 1.6409651e-38 290 237
-0.038490929 0.75700003 0.0039818203 1.6040868e-38 291 237
-0.037065465 0.755 0.0039712996 1.6410667e-38 292 237
-0.035694357 0.75400001 0.00396604 1.631847e-38 293 237
-0.034372345 0.75400001 0.00396604 1.677763e-38 294 237
-0.033050332 0.75400001 0.00396604 1.6869826e-38 295 237
-0.031644158 0.75199997 0.0039555198 1.7237515e-38 296 237
-0.030204674 0.74900001 0.0039397399 1.733007e-38 297 237
-0.028814279 0.74699998 0.0039292197 1.7514801e-38 298 237
-0.027504537 0.74699998 0.0039292197 1.7514801e-38 299 237
-0.026159734 0.74599999 0.0039239596 1.7607347e-38 300 237
-0.024851745 0.74599999 0.0039239596 1.7699902e-38 301 237
-0.023543758 0.74599999 0.0039239596 1.7975041e-38 302 237
-0.022176161 0.74400002 0.0039134403 1.7882846e-38 303 237
-0.02087168 0.74400002 0.0039134403 1.7974298e-38 304 237
-0.019567199 0.74400002 0.0039134403 1.7697713e-38 305 237
-0.018213626 0.74199998 0.0039029196 1.7605869e-38 306 237
-0.016912652 0.74199998 0.0039029196 1.7605869e-38 307 237
-0.015611678 0.74199998 0.0039029196 1.7696987e-38 308 237
-0.014310705 0.74199998 0.0039029196 1.7604793e-38 309 237
-0.013009733 0.74199998 0.0039029196 1.7511164e-38 310 237
-0.01170876 0.74199998 0.0039029196 1.7142028e-38 311 237
-0.010407786 0.74199998 0.0039029196 1.7231352e-38 312 237
-0.009106813 0.74199998 0.0039029196 1.6678546e-38 313 237
-0.0078058392 0.74199998 0.0039029196 1.6218651e-38 314 237
-0.0065223998 0.74400002 0.0039134403 1.5942068e-38 315 237
