# .PCD v.7 - Point Cloud Data file format
FIELDS x y z rgb imX imY
SIZE 4 4 4 4 4 4
TYPE F F F F F F
COUNT 1 1 1 1 1 1
WIDTH 864
HEIGHT 1
VIEWPOINT 0 0 0 1 0 0 0
POINTS 864
DATA ascii
0 0.75700003 0.021236373 1.2873876e-38 320 224
0.00133078 0.759 0.02129248 1.2412538e-38 321 224
0.0026545466 0.75700003 0.021236373 1.1858295e-38 322 224
0.0039818203 0.75700003 0.021236373 1.1305121e-38 323 224
0.0053371461 0.76099998 0.021348584 1.1211493e-38 324 224
0.0066714329 0.76099998 0.021348584 1.084307e-38 325 224
0.0080057196 0.76099998 0.021348584 1.0475729e-38 326 224
0.0093400059 0.76099998 0.021348584 1.0475729e-38 327 224
0.010674292 0.76099998 0.021348584 9.9261565e-39 328 224
0.012008579 0.76099998 0.021348584 1.0202383e-38 329 224
0.013342866 0.76099998 0.021348584 1.0021944e-38 330 224
0.014677152 0.76099998 0.021348584 1.0574759e-38 331 224
0.016011439 0.76099998 0.021348584 1.1127567e-38 332 224
0.017345725 0.76099998 0.021348584 1.1311958e-38 333 224
0.018680012 0.76099998 0.021348584 1.2138826e-38 334 224
0.020014299 0.76099998 0.021348584 1.2138826e-38 335 224
0.021348584 0.76099998 0.021348584 1.2412525e-38 336 224
0.022682872 0.76099998 0.021348584 1.1767156e-38 337 224
0.023954039 0.759 0.02129248 1.1945802e-38 338 224
0.025284819 0.759 0.02129248 1.1023847e-38 339 224
0.026615599 0.759 0.02129248 1.0469255e-38 340 224
0.027872739 0.75700003 0.021236373 1.0193744e-38 341 224
0.029200014 0.75700003 0.021236373 8.9080571e-39 342 224
0.030527288 0.75700003 0.021236373 9.3690353e-39 343 224
0.031770397 0.755 0.021180267 8.4539061e-39 344 224
0.033094164 0.755 0.021180267 8.4539061e-39 345 224
0.034417931 0.755 0.021180267 7.9029029e-39 346 224
0.03583638 0.75700003 0.021236373 7.9950986e-39 347 224
0.037163652 0.75700003 0.021236373 7.354062e-39 348 224
0.038592618 0.759 0.02129248 7.354062e-39 349 224
0.0399234 0.759 0.02129248 6.0690741e-39 350 224
0.041362885 0.76099998 0.021348584 3.8570964e-39 351 224
0.042697169 0.76099998 0.021348584 1.8378015e-39 352 224
0.044089317 0.76200002 0.02137664 9.4900388e-39 353 224
0.045425359 0.76200002 0.02137664 1.3183978e-38 354 224
-0.021432746 0.764 0.020093199 1.3177861e-38 304 225
-0.020093199 0.764 0.020093199 8.8446666e-39 305 225
-0.018753653 0.764 0.020093199 8.1776976e-39 306 225
-0.01736852 0.76200002 0.0200406 8.3620888e-39 307 225
-0.01603248 0.76200002 0.0200406 1.222385e-38 308 225
-0.014677152 0.76099998 0.020014299 1.2777024e-38 309 225
-0.013342866 0.76099998 0.020014299 1.2959608e-38 310 225
-0.01197702 0.759 0.0199617 1.2498629e-38 311 225
-0.01064624 0.759 0.0199617 1.3044969e-38 312 225
-0.00931546 0.759 0.0199617 1.2860219e-38 313 225
-0.0079636406 0.75700003 0.019909101 1.2492511e-38 314 225
-0.0066363667 0.75700003 0.019909101 1.2676904e-38 315 225
-0.0052950666 0.755 0.0198565 1.2496827e-38 316 225
-0.0039712996 0.755 0.0198565 1.2773414e-38 317 225
-0.0026475333 0.755 0.0198565 1.2406431e-38 318 225
-0.0013237667 0.755 0.0198565 1.2683016e-38 319 225
0 0.75700003 0.019909101 1.2591544e-38 320 225
0.0013272733 0.75700003 0.019909101 1.2407153e-38 321 225
0.0026545466 0.75700003 0.019909101 1.1212572e-38 322 225
0.0039818203 0.75700003 0.019909101 1.1212572e-38 323 225
0.0053090933 0.75700003 0.019909101 1.0844869e-38 324 225
0.0066538998 0.759 0.0199617 1.0660478e-38 325 225
0.0080057196 0.76099998 0.020014299 1.0293133e-38 326 225
0.0093400059 0.76099998 0.020014299 1.0293133e-38 327 225
0.010674292 0.76099998 0.020014299 9.6513647e-39 328 225
0.012008579 0.76099998 0.020014299 9.9275915e-39 329 225
0.013342866 0.76099998 0.020014299 9.9297453e-39 330 225
0.014677152 0.76099998 0.020014299 1.0482919e-38 331 225
0.016011439 0.76099998 0.020014299 1.1034649e-38 332 225
0.017345725 0.76099998 0.020014299 1.1587822e-38 333 225
0.018680012 0.76099998 0.020014299 1.1956233e-38 334 225
0.020014299 0.76099998 0.020014299 1.2048429e-38 335 225
0.021348584 0.76099998 0.020014299 1.2046264e-38 336 225
0.022682872 0.76099998 0.020014299 1.1584925e-38 337 225
0.023954039 0.759 0.0199617 1.167102e-38 338 225
0.025218192 0.75700003 0.019909101 1.0933096e-38 339 225
0.026545467 0.75700003 0.019909101 1.0101913e-38 340 225
0.027799098 0.755 0.0198565 9.8264023e-39 341 225
0.029122867 0.755 0.0198565 8.6325408e-39 342 225
0.030527288 0.75700003 0.019909101 9.0924414e-39 343 225
0.031770397 0.755 0.0198565 8.5442941e-39 344 225
0.033094164 0.755 0.0198565 8.820881e-39 345 225
0.034417931 0.755 0.0198565 7.9046882e-39 346 225
0.035741698 0.755 0.0198565 7.7199382e-39 347 225
0.037065465 0.755 0.0198565 7.1707357e-39 348 225
0.038490929 0.75700003 0.019909101 7.1707357e-39 349 225
0.039818201 0.75700003 0.019909101 6.2527395e-39 350 225
0.041254178 0.759 0.0199617 5.6073701e-39 351 225
0.042584959 0.759 0.0199617 4.1326211e-39 352 225
0.044031456 0.76099998 0.020014299 6.6215444e-39 353 225
0.045365743 0.76099998 0.020014299 9.3168005e-39 354 225
-0.02137664 0.76200002 0.01870456 1.0871538e-38 304 226
-0.0200406 0.76200002 0.01870456 6.3543112e-39 305 226
-0.01870456 0.76200002 0.01870456 9.0038583e-39 306 226
-0.01736852 0.76200002 0.01870456 1.047899e-38 307 226
-0.016011439 0.76099998 0.018680012 1.2869573e-38 308 226
-0.014677152 0.76099998 0.018680012 1.314652e-38 309 226
-0.0133078 0.759 0.01863092 1.3325862e-38 310 226
-0.01197702 0.759 0.01863092 1.2680493e-38 311 226
-0.010618187 0.75700003 0.018581826 1.3136436e-38 312 226
-0.0092909131 0.75700003 0.018581826 1.2767654e-38 313 226
-0.0079636406 0.75700003 0.018581826 1.2768725e-38 314 226
-0.0066188332 0.755 0.018532733 1.3321899e-38 315 226
-0.0052950666 0.755 0.018532733 1.2497904e-38 316 226
-0.0039712996 0.755 0.018532733 1.2221317e-38 317 226
-0.0026475333 0.755 0.018532733 1.1762876e-38 318 226
-0.0013237667 0.755 0.018532733 1.1670679e-38 319 226
0 0.75700003 0.018581826 1.1487737e-38 320 226
0.0013272733 0.75700003 0.018581826 1.1303344e-38 321 226
0.0026545466 0.75700003 0.018581826 1.0754118e-38 322 226
0.0039818203 0.75700003 0.018581826 1.093815e-38 323 226
0.0053090933 0.75700003 0.018581826 1.0204887e-38 324 226
0.0066538998 0.759 0.01863092 1.0112692e-38 325 226
0.0080057196 0.76099998 0.018680012 9.8368252e-39 326 226
0.0093400059 0.76099998 0.018680012 9.6524339e-39 327 226
0.010674292 0.76099998 0.018680012 9.4687713e-39 328 226
0.012008579 0.76099998 0.018680012 9.5609669e-39 329 226
0.013342866 0.76099998 0.018680012 9.2883429e-39 330 226
0.01469644 0.76200002 0.01870456 9.6567653e-39 331 226
0.016011439 0.76099998 0.018680012 1.0211374e-38 332 226
0.017345725 0.76099998 0.018680012 1.0395765e-38 333 226
0.018680012 0.76099998 0.018680012 1.1591412e-38 334 226
0.020014299 0.76099998 0.018680012 1.1591412e-38 335 226
0.021348584 0.76099998 0.018680012 1.2048055e-38 336 226
0.02262326 0.759 0.01863092 1.1218654e-38 337 226
0.02389092 0.75700003 0.018581826 1.1488774e-38 338 226
0.025151566 0.755 0.018532733 1.0382075e-38 339 226
0.026475333 0.755 0.018532733 1.0744753e-38 340 226
0.027799098 0.755 0.018532733 1.0010069e-38 341 226
0.029122867 0.755 0.018532733 8.9998786e-39 342 226
0.030446632 0.755 0.018532733 9.3672262e-39 343 226
0.031770397 0.755 0.018532733 8.4542592e-39 344 226
0.033094164 0.755 0.018532733 8.5464549e-39 345 226
0.034417931 0.755 0.018532733 8.0876347e-39 346 226
0.035741698 0.755 0.018532733 8.0876347e-39 347 226
0.037065465 0.755 0.018532733 6.8030266e-39 348 226
0.038389232 0.755 0.018532733 6.9870577e-39 349 226
0.039712999 0.755 0.018532733 6.2523892e-39 350 226
0.041145474 0.75700003 0.018581826 6.2523892e-39 351 226
0.042472746 0.75700003 0.018581826 5.4230012e-39 352 226
0.043915741 0.759 0.01863092 4.3162935e-39 353 226
0.045246519 0.759 0.01863092 6.8214032e-39 354 226
0.046577301 0.759 0.01863092 1.4381446e-38 355 226
-0.022682872 0.76099998 0.017345725 1.2997431e-38 303 227
-0.021348584 0.76099998 0.017345725 8.748155e-39 304 227
-0.0200406 0.76200002 0.01736852 5.3369153e-39 305 227
-0.01870456 0.76200002 0.01736852 9.5537923e-39 306 227
-0.017345725 0.76099998 0.017345725 1.0936727e-38 307 227
-0.016011439 0.76099998 0.017345725 1.2779898e-38 308 227
-0.014638579 0.759 0.017300138 1.2872094e-38 309 227
-0.0133078 0.759 0.017300138 1.3235103e-38 310 227
-0.01194546 0.75700003 0.017254554 1.286596e-38 311 227
-0.010618187 0.75700003 0.017254554 1.2860205e-38 312 227
-0.0092909131 0.75700003 0.017254554 1.2768009e-38 313 227
-0.0079425992 0.755 0.017208965 1.2678329e-38 314 227
-0.0066188332 0.755 0.017208965 1.3231503e-38 315 227
-0.0052950666 0.755 0.017208965 1.2500771e-38 316 227
-0.0039712996 0.755 0.017208965 1.1855401e-38 317 227
-0.0026475333 0.755 0.017208965 1.1762134e-38 318 227
-0.0013237667 0.755 0.017208965 1.1854329e-38 319 227
0 0.755 0.017208965 1.1028531e-38 320 227
0.0013272733 0.75700003 0.017254554 1.0936336e-38 321 227
0.0026545466 0.75700003 0.017254554 1.0479679e-38 322 227
0.0039818203 0.75700003 0.017254554 1.0571875e-38 323 227
0.0053090933 0.75700003 0.017254554 9.7471463e-39 324 227
0.0066363667 0.75700003 0.017254554 9.7471463e-39 325 227
0.0080057196 0.76099998 0.017345725 9.2890422e-39 326 227
0.0093400059 0.76099998 0.017345725 9.1968465e-39 327 227
0.010674292 0.76099998 0.017345725 9.2865282e-39 328 227
0.012008579 0.76099998 0.017345725 9.2865282e-39 329 227
0.013342866 0.76099998 0.017345725 9.0131783e-39 330 227
0.01469644 0.76200002 0.01736852 9.6585478e-39 331 227
0.016011439 0.76099998 0.017345725 1.0119879e-38 332 227
0.017345725 0.76099998 0.017345725 1.0857444e-38 333 227
0.018680012 0.76099998 0.017345725 1.1318052e-38 334 227
0.020014299 0.76099998 0.017345725 1.1410249e-38 335 227
0.021348584 0.76099998 0.017345725 1.1956589e-38 336 227
0.02262326 0.759 0.017300138 1.131122e-38 337 227
0.02389092 0.75700003 0.017254554 1.1399096e-38 338 227
0.025151566 0.755 0.017208965 1.0108362e-38 339 227
0.026475333 0.755 0.017208965 1.0286293e-38 340 227
0.027799098 0.755 0.017208965 1.0101905e-38 341 227
0.029122867 0.755 0.017208965 8.9080445e-39 342 227
0.030446632 0.755 0.017208965 9.3675863e-39 343 227
0.03172832 0.75400001 0.017186172 8.5442941e-39 344 227
0.033050332 0.75400001 0.017186172 9.0971077e-39 345 227
0.034372345 0.75400001 0.017186172 8.0883536e-39 346 227
0.035694357 0.75400001 0.017186172 7.7195725e-39 347 227
0.037065465 0.755 0.017208965 6.894146e-39 348 227
0.038389232 0.755 0.017208965 6.9863416e-39 349 227
0.039712999 0.755 0.017208965 6.06943e-39 350 227
0.041036766 0.755 0.017208965 6.06943e-39 351 227
0.042360533 0.755 0.017208965 6.0697958e-39 352 227
0.043800019 0.75700003 0.017254554 3.58159e-39 353 227
0.045127295 0.75700003 0.017254554 3.0464187e-39 354 227
0.046454567 0.75700003 0.017254554 1.1436221e-38 355 227
-0.024017159 0.76099998 0.016011439 1.5303048e-38 302 228
-0.022682872 0.76099998 0.016011439 9.9557015e-39 303 228
-0.021348584 0.76099998 0.016011439 7.8179226e-39 304 228
-0.0200406 0.76200002 0.01603248 5.97401e-39 305 228
-0.018680012 0.76099998 0.016011439 1.065905e-38 306 228
-0.017345725 0.76099998 0.016011439 1.1765396e-38 307 228
-0.015969358 0.759 0.015969358 1.3424179e-38 308 228
-0.014638579 0.759 0.015969358 1.3424179e-38 309 228
-0.013272733 0.75700003 0.015927281 1.3510608e-38 310 228
-0.011913899 0.755 0.015885198 1.2773043e-38 311 228
-0.010590133 0.755 0.015885198 1.3135717e-38 312 228
-0.0092663663 0.755 0.015885198 1.285877e-38 313 228
-0.0079425992 0.755 0.015885198 1.2587213e-38 314 228
-0.0066188332 0.755 0.015885198 1.3601004e-38 315 228
-0.0052950666 0.755 0.015885198 1.2684793e-38 316 228
-0.0039712996 0.755 0.015885198 1.2039424e-38 317 228
-0.0026475333 0.755 0.015885198 1.157954e-38 318 228
-0.0013237667 0.755 0.015885198 1.139479e-38 319 228
0 0.755 0.015885198 1.0661194e-38 320 228
0.0013237667 0.755 0.015885198 1.0661194e-38 321 228
0.0026475333 0.755 0.015885198 9.5609641e-39 322 228
0.0039712996 0.755 0.015885198 1.0021941e-38 323 228
0.0052950666 0.755 0.015885198 9.107169e-39 324 228
0.0066363667 0.75700003 0.015927281 9.2915603e-39 325 228
0.0080057196 0.76099998 0.016011439 9.1997206e-39 326 228
0.0093400059 0.76099998 0.016011439 8.7387425e-39 327 228
0.010674292 0.76099998 0.016011439 8.5532792e-39 328 228
0.012008579 0.76099998 0.016011439 8.6454748e-39 329 228
0.013342866 0.76099998 0.016011439 8.372848e-39 330 228
0.01469644 0.76200002 0.01603248 8.7416291e-39 331 228
0.016011439 0.76099998 0.016011439 9.664656e-39 332 228
0.017345725 0.76099998 0.016011439 1.0125994e-38 333 228
0.018680012 0.76099998 0.016011439 1.0861031e-38 334 228
0.0199617 0.759 0.015969358 1.0677e-38 335 228
0.02129248 0.759 0.015969358 1.1590675e-38 336 228
0.022563647 0.75700003 0.015927281 1.1221891e-38 337 228
0.023827799 0.755 0.015885198 1.1952616e-38 338 228
0.025151566 0.755 0.015885198 1.0846633e-38 339 228
0.026475333 0.755 0.015885198 1.1023847e-38 340 228
0.027762281 0.75400001 0.01586416 1.0194099e-38 341 228
0.029084291 0.75400001 0.01586416 9.6427299e-39 342 228
0.030406307 0.75400001 0.01586416 9.7345668e-39 343 228
0.03172832 0.75400001 0.01586416 8.8194488e-39 344 228
0.033050332 0.75400001 0.01586416 9.0038401e-39 345 228
0.034372345 0.75400001 0.01586416 8.270947e-39 346 228
0.035694357 0.75400001 0.01586416 8.1787514e-39 347 228
0.037016369 0.75400001 0.01586416 6.98562e-39 348 228
0.038338386 0.75400001 0.01586416 6.98562e-39 349 228
0.039660402 0.75400001 0.01586416 6.4360517e-39 350 228
0.040982414 0.75400001 0.01586416 6.4360517e-39 351 228
0.042304426 0.75400001 0.01586416 5.8864779e-39 352 228
0.043626439 0.75400001 0.01586416 4.4113478e-39 353 228
0.044948451 0.75400001 0.01586416 2.763355e-39 354 228
0.04633183 0.755 0.015885198 9.4932758e-39 355 228
0.047655597 0.755 0.015885198 1.3644234e-38 356 228
-0.024017159 0.76099998 0.014677152 1.3918673e-38 302 229
-0.022682872 0.76099998 0.014677152 7.3727833e-39 303 229
-0.021348584 0.76099998 0.014677152 7.7188844e-39 304 229
-0.0200406 0.76200002 0.01469644 7.7188844e-39 305 229
-0.018680012 0.76099998 0.014677152 1.1582084e-38 306 229
-0.017345725 0.76099998 0.014677152 1.2688431e-38 307 229
-0.015969358 0.759 0.014638579 1.3701489e-38 308 229
-0.014600007 0.75700003 0.014600007 1.3517097e-38 309 229
-0.013272733 0.75700003 0.014600007 1.3786475e-38 310 229
-0.011913899 0.755 0.014561433 1.2956355e-38 311 229
-0.010590133 0.755 0.014561433 1.3135717e-38 312 229
-0.0092540924 0.75400001 0.014542146 1.2950966e-38 313 229
-0.00793208 0.75400001 0.014542146 1.2771246e-38 314 229
-0.0066100666 0.75400001 0.014542146 1.3877954e-38 315 229
-0.0052880533 0.75400001 0.014542146 1.277951e-38 316 229
-0.00396604 0.75400001 0.014542146 1.1765358e-38 317 229
-0.0026440267 0.75400001 0.014542146 1.1487342e-38 318 229
-0.0013220133 0.75400001 0.014542146 1.1395146e-38 319 229
0 0.755 0.014561433 1.0660475e-38 320 229
0.0013237667 0.755 0.014561433 1.0568278e-38 321 229
0.0026475333 0.755 0.014561433 9.4694874e-39 322 229
0.0039712996 0.755 0.014561433 9.746433e-39 323 229
0.0052950666 0.755 0.014561433 8.5575952e-39 324 229
0.0066363667 0.75700003 0.014600007 8.9260176e-39 325 229
0.0079846792 0.759 0.014638579 8.37392e-39 326 229
0.0093400059 0.76099998 0.014677152 8.0054962e-39 327 229
0.01068832 0.76200002 0.01469644 8.0951751e-39 328 229
0.01202436 0.76200002 0.01469644 8.2792062e-39 329 229
0.0133604 0.76200002 0.01469644 8.190242e-39 330 229
0.01469644 0.76200002 0.01469644 8.65086e-39 331 229
0.01603248 0.76200002 0.01469644 9.0232369e-39 332 229
0.017345725 0.76099998 0.014677152 9.5764106e-39 333 229
0.018680012 0.76099998 0.014677152 1.0586603e-38 334 229
0.0199617 0.759 0.014638579 1.0494407e-38 335 229
0.02129248 0.759 0.014638579 1.1316252e-38 336 229
0.022563647 0.75700003 0.014600007 1.113186e-38 337 229
0.023827799 0.755 0.014561433 1.1495611e-38 338 229
0.025118252 0.75400001 0.014542146 1.0573296e-38 339 229
0.026440267 0.75400001 0.014542146 1.0749426e-38 340 229
0.027688639 0.75199997 0.014503572 1.0196253e-38 341 229
0.029007144 0.75199997 0.014503572 9.5508944e-39 342 229
0.030325651 0.75199997 0.014503572 9.6427313e-39 343 229
0.031644158 0.75199997 0.014503572 9.0034744e-39 344 229
0.032962665 0.75199997 0.014503572 9.2800598e-39 345 229
0.034281172 0.75199997 0.014503572 8.5468108e-39 346 229
0.035599679 0.75199997 0.014503572 8.1780297e-39 347 229
0.036918186 0.75199997 0.014503572 7.1692882e-39 348 229
0.038236689 0.75199997 0.014503572 7.1692882e-39 349 229
0.039555199 0.75199997 0.014503572 6.6190039e-39 350 229
0.040982414 0.75400001 0.014542146 6.7111995e-39 351 229
0.04219221 0.75199997 0.014503572 6.1601907e-39 352 229
0.04351072 0.75199997 0.014503572 5.6995713e-39 353 229
0.044948451 0.75400001 0.014542146 3.5855654e-39 354 229
0.046270464 0.75400001 0.014542146 6.4439887e-39 355 229
0.04759248 0.75400001 0.014542146 1.1156393e-38 356 229
-0.025351444 0.76099998 0.013342866 1.6500501e-38 301 230
-0.024017159 0.76099998 0.013342866 1.2901999e-38 302 230
-0.022682872 0.76099998 0.013342866 5.9873279e-39 303 230
-0.021348584 0.76099998 0.013342866 8.3584917e-39 304 230
-0.0200406 0.76200002 0.0133604 9.1882538e-39 305 230
-0.018680012 0.76099998 0.013342866 1.2783145e-38 306 230
-0.017300138 0.759 0.0133078 1.3336317e-38 307 230
-0.015927281 0.75700003 0.013272733 1.3701854e-38 308 230
-0.014600007 0.75700003 0.013272733 1.3241235e-38 309 230
-0.013272733 0.75700003 0.013272733 1.3878314e-38 310 230
-0.011913899 0.755 0.013237666 1.3048554e-38 311 230
-0.010590133 0.755 0.013237666 1.313608e-38 312 230
-0.0092540924 0.75400001 0.013220133 1.3043884e-38 313 230
-0.00793208 0.75400001 0.013220133 1.268013e-38 314 230
-0.0066100666 0.75400001 0.013220133 1.3786119e-38 315 230
-0.0052880533 0.75400001 0.013220133 1.277951e-38 316 230
-0.00396604 0.75400001 0.013220133 1.1857554e-38 317 230
-0.0026440267 0.75400001 0.013220133 1.1395872e-38 318 230
-0.0013220133 0.75400001 0.013220133 1.1211481e-38 319 230
0 0.75400001 0.013220133 1.038533e-38 320 230
0.0013237667 0.755 0.013237666 1.0293133e-38 321 230
0.0026475333 0.755 0.013237666 9.2861751e-39 322 230
0.0039712996 0.755 0.013237666 9.5624019e-39 323 230
0.0052950666 0.755 0.013237666 7.8225497e-39 324 230
0.0066363667 0.75700003 0.013272733 8.0069424e-39 325 230
0.0079846792 0.759 0.0133078 7.6381556e-39 326 230
0.0093400059 0.76099998 0.013342866 7.3615701e-39 327 230
0.01068832 0.76200002 0.0133604 7.4530427e-39 328 230
0.01202436 0.76200002 0.0133604 7.5452383e-39 329 230
0.0133604 0.76200002 0.0133604 8.0987624e-39 330 230
0.01469644 0.76200002 0.0133604 8.6519348e-39 331 230
0.01603248 0.76200002 0.0133604 8.8391973e-39 332 230
0.017345725 0.76099998 0.013342866 9.4845667e-39 333 230
0.018680012 0.76099998 0.013342866 1.0220687e-38 334 230
0.0199617 0.759 0.0133078 9.8519045e-39 335 230
0.021236373 0.75700003 0.013272733 1.1132937e-38 336 230
0.022504034 0.755 0.013237666 1.0580122e-38 337 230
0.023827799 0.755 0.013237666 1.1309067e-38 338 230
0.025051624 0.75199997 0.013185065 1.0571502e-38 339 230
0.02637013 0.75199997 0.013185065 1.0564686e-38 340 230
0.027688639 0.75199997 0.013185065 9.9193168e-39 341 230
0.028929999 0.75 0.01315 9.2753921e-39 342 230
0.030244999 0.75 0.01315 9.4590659e-39 343 230
0.03156 0.75 0.01315 9.1875083e-39 344 230
0.032874998 0.75 0.01315 9.5566509e-39 345 230
0.034189999 0.75 0.01315 8.7304832e-39 346 230
0.035505001 0.75 0.01315 8.2691463e-39 347 230
0.036918186 0.75199997 0.013185065 7.5351938e-39 348 230
0.038236689 0.75199997 0.013185065 7.5351938e-39 349 230
0.039555199 0.75199997 0.013185065 6.8937929e-39 350 230
0.040982414 0.75400001 0.013220133 6.8937929e-39 351 230
0.04219221 0.75199997 0.013185065 6.526102e-39 352 230
0.04351072 0.75199997 0.013185065 6.3420709e-39 353 230
0.044829223 0.75199997 0.013185065 4.5936063e-39 354 230
0.04614773 0.75199997 0.013185065 4.8705519e-39 355 230
0.04759248 0.75400001 0.013220133 8.5738433e-39 356 230
0.048914492 0.75400001 0.013220133 1.4474364e-38 357 230
-0.025351444 0.76099998 0.012008579 1.5210484e-38 301 231
-0.024017159 0.76099998 0.012008579 1.2068642e-38 302 231
-0.022682872 0.76099998 0.012008579 5.5227527e-39 303 231
-0.021348584 0.76099998 0.012008579 8.90879e-39 304 231
-0.020014299 0.76099998 0.012008579 9.7389094e-39 305 231
-0.018680012 0.76099998 0.012008579 1.3520357e-38 306 231
-0.017300138 0.759 0.01197702 1.3889138e-38 307 231
-0.015927281 0.75700003 0.01194546 1.3976649e-38 308 231
-0.014600007 0.75700003 0.01194546 1.3423475e-38 309 231
-0.013237666 0.755 0.011913899 1.3970513e-38 310 231
-0.01189812 0.75400001 0.01189812 1.3232948e-38 311 231
-0.010576107 0.75400001 0.01189812 1.332083e-38 312 231
-0.0092295464 0.75199997 0.011866559 1.3043884e-38 313 231
-0.0079110395 0.75199997 0.011866559 1.2771972e-38 314 231
-0.0065925326 0.75199997 0.011866559 1.3786124e-38 315 231
-0.0052880533 0.75400001 0.01189812 1.268767e-38 316 231
-0.00396604 0.75400001 0.01189812 1.1949746e-38 317 231
-0.0026440267 0.75400001 0.01189812 1.1671733e-38 318 231
-0.0013220133 0.75400001 0.01189812 1.1579537e-38 319 231
0 0.75400001 0.01189812 1.0477881e-38 320 231
0.0013237667 0.755 0.011913899 1.0385686e-38 321 231
0.0026475333 0.755 0.011913899 9.1017824e-39 322 231
0.0039712996 0.755 0.011913899 9.1939795e-39 323 231
0.0052950666 0.755 0.011913899 7.7278443e-39 324 231
0.0066363667 0.75700003 0.01194546 7.5438132e-39 325 231
0.0079846792 0.759 0.01197702 6.8094866e-39 326 231
0.0093400059 0.76099998 0.012008579 6.5332598e-39 327 231
0.010674292 0.76099998 0.012008579 6.7172881e-39 328 231
0.012008579 0.76099998 0.012008579 6.9942352e-39 329 231
0.0133604 0.76200002 0.01202436 7.5470334e-39 330 231
0.01469644 0.76200002 0.01202436 8.2845984e-39 331 231
0.01603248 0.76200002 0.01202436 8.6558851e-39 332 231
0.017345725 0.76099998 0.012008579 9.1165045e-39 333 231
0.018680012 0.76099998 0.012008579 9.5767596e-39 334 231
0.0199617 0.759 0.01197702 9.4845639e-39 335 231
0.021236373 0.75700003 0.01194546 1.0948548e-38 336 231
0.022504034 0.755 0.011913899 1.0210624e-38 337 231
0.02379624 0.75400001 0.01189812 1.1122529e-38 338 231
0.025051624 0.75199997 0.011866559 1.0292767e-38 339 231
0.0263 0.75 0.011835 1.0471057e-38 340 231
0.027615 0.75 0.011835 1.0010439e-38 341 231
0.028891427 0.74900001 0.01181922 9.367229e-39 342 231
0.030204674 0.74900001 0.01181922 9.7352941e-39 343 231
0.03156 0.75 0.011835 9.1885873e-39 344 231
0.032874998 0.75 0.011835 9.6495654e-39 345 231
0.034189999 0.75 0.011835 8.4556942e-39 346 231
0.035505001 0.75 0.011835 8.0865529e-39 347 231
0.036819998 0.75 0.011835 7.6270237e-39 348 231
0.038236689 0.75199997 0.011866559 7.7192193e-39 349 231
0.039555199 0.75199997 0.011866559 6.9856256e-39 350 231
0.040873703 0.75199997 0.011866559 7.1696567e-39 351 231
0.04219221 0.75199997 0.011866559 6.8012441e-39 352 231
0.04351072 0.75199997 0.011866559 6.7090485e-39 353 231
0.044829223 0.75199997 0.011866559 5.2393288e-39 354 231
0.04614773 0.75199997 0.011866559 3.5816012e-39 355 231
0.04759248 0.75400001 0.01189812 7.0018428e-39 356 231
0.048914492 0.75400001 0.01189812 1.3732483e-38 357 231
-0.025351444 0.76099998 0.010674292 1.4012662e-38 301 232
-0.024017159 0.76099998 0.010674292 1.1604424e-38 302 232
-0.022682872 0.76099998 0.010674292 5.1507303e-39 303 232
-0.021348584 0.76099998 0.010674292 9.8293058e-39 304 232
-0.020014299 0.76099998 0.010674292 1.0474675e-38 305 232
-0.01863092 0.759 0.01064624 1.3518555e-38 306 232
-0.017254554 0.75700003 0.010618187 1.3703306e-38 307 232
-0.015885198 0.755 0.010590133 1.4249993e-38 308 232
-0.014561433 0.755 0.010590133 1.4157796e-38 309 232
-0.013237666 0.755 0.010590133 1.3972312e-38 310 232
-0.01189812 0.75400001 0.010576107 1.3511332e-38 311 232
-0.010576107 0.75400001 0.010576107 1.3413745e-38 312 232
-0.0092295464 0.75199997 0.010548052 1.3044963e-38 313 232
-0.0079110395 0.75199997 0.010548052 1.2954922e-38 314 232
-0.0065925326 0.75199997 0.010548052 1.3968715e-38 315 232
-0.0052740262 0.75199997 0.010548052 1.2962825e-38 316 232
-0.0039555198 0.75199997 0.010548052 1.2409651e-38 317 232
-0.0026370131 0.75199997 0.010548052 1.19476e-38 318 232
-0.0013220133 0.75400001 0.010576107 1.1578819e-38 319 232
0 0.75400001 0.010576107 1.0478953e-38 320 232
0.0013220133 0.75400001 0.010576107 1.0017975e-38 321 232
0.0026440267 0.75400001 0.010576107 9.0088623e-39 322 232
0.0039712996 0.755 0.010590133 9.101058e-39 323 232
0.0052950666 0.755 0.010590133 7.4505344e-39 324 232
0.0066363667 0.75700003 0.010618187 7.2665033e-39 325 232
0.0079846792 0.759 0.01064624 6.4381873e-39 326 232
0.0093400059 0.76099998 0.010674292 6.3459917e-39 327 232
0.010674292 0.76099998 0.010674292 6.4385404e-39 328 232
0.012008579 0.76099998 0.010674292 6.807323e-39 329 232
0.0133604 0.76200002 0.01068832 6.8112676e-39 330 232
0.01469644 0.76200002 0.01068832 7.6406682e-39 331 232
0.01603248 0.76200002 0.01068832 8.4689729e-39 332 232
0.017345725 0.76099998 0.010674292 9.2065379e-39 333 232
0.018680012 0.76099998 0.010674292 9.5749463e-39 334 232
0.0199617 0.759 0.01064624 9.3905536e-39 335 232
0.021236373 0.75700003 0.010618187 1.0578321e-38 336 232
0.022504034 0.755 0.010590133 1.0025147e-38 337 232
0.02379624 0.75400001 0.010576107 1.0935983e-38 338 232
0.025051624 0.75199997 0.010548052 1.0198418e-38 339 232
0.0263 0.75 0.01052 1.0377426e-38 340 232
0.027615 0.75 0.01052 1.0101914e-38 341 232
0.028891427 0.74900001 0.010505973 9.5519818e-39 342 232
0.030204674 0.74900001 0.010505973 9.9204042e-39 343 232
0.031517919 0.74900001 0.010505973 8.9155975e-39 344 232
0.032831166 0.74900001 0.010505973 8.7312063e-39 345 232
0.034144413 0.74900001 0.010505973 8.3613419e-39 346 232
0.03545766 0.74900001 0.010505973 8.2691463e-39 347 232
0.036770906 0.74900001 0.010505973 7.4433527e-39 348 232
0.038084153 0.74900001 0.010505973 7.5355498e-39 349 232
0.039449997 0.75 0.01052 6.8934244e-39 350 232
0.040873703 0.75199997 0.010548052 6.8934244e-39 351 232
0.04219221 0.75199997 0.010548052 6.618285e-39 352 232
0.04351072 0.75199997 0.010548052 6.5257306e-39 353 232
0.044829223 0.75199997 0.010548052 5.5151772e-39 354 232
0.04614773 0.75199997 0.010548052 4.0407646e-39 355 232
0.04759248 0.75400001 0.010576107 5.0657178e-39 356 232
0.048914492 0.75400001 0.010576107 1.1796359e-38 357 232
-0.026685731 0.76099998 0.0093400059 1.6502665e-38 300 233
-0.025351444 0.76099998 0.0093400059 1.2999231e-38 301 233
-0.024017159 0.76099998 0.0093400059 1.1598657e-38 302 233
-0.02262326 0.759 0.00931546 5.4219096e-39 303 233
-0.02129248 0.759 0.00931546 1.0101931e-38 304 233
-0.0199617 0.759 0.00931546 1.1208277e-38 305 233
-0.018581826 0.75700003 0.0092909131 1.3330924e-38 306 233
-0.017254554 0.75700003 0.0092909131 1.3976293e-38 307 233
-0.015885198 0.755 0.0092663663 1.4158864e-38 308 233
-0.014561433 0.755 0.0092663663 1.3882636e-38 309 233
-0.013237666 0.755 0.0092663663 1.4063782e-38 310 233
-0.01189812 0.75400001 0.0092540924 1.3418412e-38 311 233
-0.010576107 0.75400001 0.0092540924 1.332298e-38 312 233
-0.0092295464 0.75199997 0.0092295464 1.3599206e-38 313 233
-0.0079110395 0.75199997 0.0092295464 1.3236172e-38 314 233
-0.0065925326 0.75199997 0.0092295464 1.3236172e-38 315 233
-0.0052740262 0.75199997 0.0092295464 1.3236875e-38 316 233
-0.003945 0.75 0.0092049995 1.3052124e-38 317 233
-0.00263 0.75 0.0092049995 1.240676e-38 318 233
-0.001315 0.75 0.0092049995 1.2038342e-38 319 233
0 0.75 0.0092049995 1.0937039e-38 320 233
0.0013185065 0.75199997 0.0092295464 1.0476062e-38 321 233
0.0026370131 0.75199997 0.0092295464 9.5573488e-39 322 233
0.00396604 0.75400001 0.0092540924 9.6499031e-39 323 233
0.0052950666 0.755 0.0092663663 7.9986705e-39 324 233
0.0066188332 0.755 0.0092663663 7.4458554e-39 325 233
0.0079846792 0.759 0.00931546 6.2512905e-39 326 233
0.0093400059 0.76099998 0.0093400059 5.9750638e-39 327 233
0.010674292 0.76099998 0.0093400059 5.3350964e-39 328 233
0.01202436 0.76200002 0.0093522798 5.5198464e-39 329 233
0.0133604 0.76200002 0.0093522798 6.0733705e-39 330 233
0.01469644 0.76200002 0.0093522798 6.7187399e-39 331 233
0.016011439 0.76099998 0.0093400059 7.2740591e-39 332 233
0.017300138 0.759 0.00931546 7.7350372e-39 333 233
0.01863092 0.759 0.00931546 9.0214432e-39 334 233
0.019909101 0.75700003 0.0092909131 8.6526621e-39 335 233
0.021180267 0.755 0.0092663663 1.03925e-38 336 233
0.022474226 0.75400001 0.0092540924 9.7471308e-39 337 233
0.023733119 0.75199997 0.0092295464 1.1026013e-38 338 233
0.024984999 0.75 0.0092049995 1.0196253e-38 339 233
0.0263 0.75 0.0092049995 1.0377411e-38 340 233
0.027578179 0.74900001 0.0091927266 1.0836596e-38 341 233
0.028891427 0.74900001 0.0091927266 9.9236146e-39 342 233
0.030204674 0.74900001 0.0091927266 1.0476786e-38 343 233
0.031517919 0.74900001 0.0091927266 9.6495472e-39 344 233
0.032831166 0.74900001 0.0091927266 9.1882131e-39 345 233
0.034144413 0.74900001 0.0091927266 8.1758773e-39 346 233
0.03545766 0.74900001 0.0091927266 8.2680729e-39 347 233
0.036770906 0.74900001 0.0091927266 7.6270265e-39 348 233
0.038084153 0.74900001 0.0091927266 7.6270265e-39 349 233
0.0393974 0.74900001 0.0091927266 7.5351938e-39 350 233
0.040710647 0.74900001 0.0091927266 7.6273895e-39 351 233
0.04208 0.75 0.0092049995 7.1685693e-39 352 233
0.043394998 0.75 0.0092049995 7.0763723e-39 353 233
0.044829223 0.75199997 0.0092295464 6.15766e-39 354 233
0.04614773 0.75199997 0.0092295464 4.6836103e-39 355 233
0.047466237 0.75199997 0.0092295464 4.3249129e-39 356 233
0.048784744 0.75199997 0.0092295464 1.0041042e-38 357 233
-0.026685731 0.76099998 0.0080057196 1.6133526e-38 300 234
-0.025351444 0.76099998 0.0080057196 1.2538255e-38 301 234
-0.024017159 0.76099998 0.0080057196 1.1687618e-38 302 234
-0.02262326 0.759 0.0079846792 5.8792934e-39 303 234
-0.02129248 0.759 0.0079846792 1.0101931e-38 304 234
-0.0199617 0.759 0.0079846792 1.1300474e-38 305 234
-0.018581826 0.75700003 0.0079636406 1.296214e-38 306 234
-0.017208965 0.755 0.0079425992 1.4068847e-38 307 234
-0.015885198 0.755 0.0079425992 1.4159943e-38 308 234
-0.014561433 0.755 0.0079425992 1.3883355e-38 309 234
-0.013220133 0.75400001 0.00793208 1.3695008e-38 310 234
-0.01189812 0.75400001 0.00793208 1.3049638e-38 311 234
-0.010576107 0.75400001 0.00793208 1.3325865e-38 312 234
-0.0092049995 0.75 0.00789 1.4155627e-38 313 234
-0.00789 0.75 0.00789 1.3336271e-38 314 234
-0.006575 0.75 0.00789 1.2690902e-38 315 234
-0.00526 0.75 0.00789 1.3238671e-38 316 234
-0.0039397399 0.74900001 0.0078794798 1.3146475e-38 317 234
-0.0026264933 0.74900001 0.0078794798 1.268407e-38 318 234
-0.001315 0.75 0.00789 1.2130896e-38 319 234
0 0.75 0.00789 1.0846644e-38 320 234
0.001315 0.75 0.00789 1.029347e-38 321 234
0.0026370131 0.75199997 0.0079110395 9.7424617e-39 322 234
0.00396604 0.75400001 0.00793208 9.5580705e-39 323 234
0.0052880533 0.75400001 0.00793208 7.9057546e-39 324 234
0.0066188332 0.755 0.0079425992 7.4451366e-39 325 234
0.0079846792 0.759 0.0079846792 5.5151562e-39 326 234
0.0093400059 0.76099998 0.0080057196 5.7917417e-39 327 234
0.010674292 0.76099998 0.0080057196 5.4247613e-39 328 234
0.01202436 0.76200002 0.0080162399 5.700988e-39 329 234
0.0133604 0.76200002 0.0080162399 6.070481e-39 330 234
0.01469644 0.76200002 0.0080162399 6.7158504e-39 331 234
0.016011439 0.76099998 0.0080057196 7.7285506e-39 332 234
0.017300138 0.759 0.0079846792 8.4661156e-39 333 234
0.018581826 0.75700003 0.0079636406 9.2919106e-39 334 234
0.0198565 0.755 0.0079425992 9.199715e-39 335 234
0.021180267 0.755 0.0079425992 1.0574017e-38 336 234
0.022474226 0.75400001 0.00793208 1.0205594e-38 337 234
0.023733119 0.75199997 0.0079110395 1.1027088e-38 338 234
0.024984999 0.75 0.00789 1.0473916e-38 339 234
0.026264934 0.74900001 0.0078794798 1.0286297e-38 340 234
0.027578179 0.74900001 0.0078794798 1.1208612e-38 341 234
0.028891427 0.74900001 0.0078794798 1.0390705e-38 342 234
0.030204674 0.74900001 0.0078794798 1.0575096e-38 343 234
0.031517919 0.74900001 0.0078794798 9.3751127e-39 344 234
0.032831166 0.74900001 0.0078794798 7.9921993e-39 345 234
0.034144413 0.74900001 0.0078794798 8.1765877e-39 346 234
0.03545766 0.74900001 0.0078794798 8.1765877e-39 347 234
0.036770906 0.74900001 0.0078794798 7.8106891e-39 348 234
0.038084153 0.74900001 0.0078794798 7.9028847e-39 349 234
0.0393974 0.74900001 0.0078794798 7.6277426e-39 350 234
0.040710647 0.74900001 0.0078794798 7.6277426e-39 351 234
0.042023893 0.74900001 0.0078794798 7.1692882e-39 352 234
0.04333714 0.74900001 0.0078794798 7.1692882e-39 353 234
0.044709999 0.75 0.00789 5.9754267e-39 354 234
0.04614773 0.75199997 0.0079110395 5.330416e-39 355 234
0.047466237 0.75199997 0.0079110395 4.1387266e-39 356 234
0.048784744 0.75199997 0.0079110395 7.6421605e-39 357 234
0.050103247 0.75199997 0.0079110395 1.2998138e-38 358 234
-0.025351444 0.76099998 0.0066714329 1.2169114e-38 301 235
-0.024017159 0.76099998 0.0066714329 1.1593269e-38 302 235
-0.02262326 0.759 0.0066538998 6.0618896e-39 303 235
-0.02129248 0.759 0.0066538998 1.0285613e-38 304 235
-0.019909101 0.75700003 0.0066363667 1.1760026e-38 305 235
-0.018532733 0.755 0.0066188332 1.2683409e-38 306 235
-0.017208965 0.755 0.0066188332 1.4066343e-38 307 235
-0.01586416 0.75400001 0.0066100666 1.3514945e-38 308 235
-0.014542146 0.75400001 0.0066100666 1.2961771e-38 309 235
-0.013220133 0.75400001 0.0066100666 1.3048932e-38 310 235
-0.011866559 0.75199997 0.0065925326 1.2864541e-38 311 235
-0.010548052 0.75199997 0.0065925326 1.2866686e-38 312 235
-0.0092049995 0.75 0.006575 1.4065229e-38 313 235
-0.00789 0.75 0.006575 1.3518147e-38 314 235
-0.0065662335 0.74900001 0.0065662335 1.324156e-38 315 235
-0.0052529867 0.74900001 0.0065662335 1.342486e-38 316 235
-0.0039397399 0.74900001 0.0065662335 1.2871686e-38 317 235
-0.0026264933 0.74900001 0.0065662335 1.295921e-38 318 235
-0.0013132467 0.74900001 0.0065662335 1.2498596e-38 319 235
0 0.74900001 0.0065662335 1.1397646e-38 320 235
0.0013132467 0.74900001 0.0065662335 1.0937034e-38 321 235
0.00263 0.75 0.006575 1.0659733e-38 322 235
0.003945 0.75 0.006575 1.0567539e-38 323 235
0.0052740262 0.75199997 0.0065925326 9.0992475e-39 324 235
0.0066100666 0.75400001 0.0066100666 8.7304706e-39 325 235
0.0079425992 0.755 0.0066188332 6.2516297e-39 326 235
0.00931546 0.759 0.0066538998 5.975047e-39 327 235
0.010674292 0.76099998 0.0066714329 5.1478198e-39 328 235
0.012008579 0.76099998 0.0066714329 5.4244081e-39 329 235
0.013342866 0.76099998 0.0066714329 5.6098742e-39 330 235
0.014677152 0.76099998 0.0066714329 6.2552436e-39 331 235
0.016011439 0.76099998 0.0066714329 6.9016836e-39 332 235
0.017300138 0.759 0.0066538998 7.1782705e-39 333 235
0.018581826 0.75700003 0.0066363667 8.7380362e-39 334 235
0.0198565 0.755 0.0066188332 8.7380362e-39 335 235
0.021152213 0.75400001 0.0066100666 1.0480746e-38 336 235
0.022474226 0.75400001 0.0066100666 1.0480746e-38 337 235
0.023669999 0.75 0.006575 1.1210759e-38 338 235
0.024951685 0.74900001 0.0065662335 1.0934171e-38 339 235
0.026264934 0.74900001 0.0065662335 1.084377e-38 340 235
0.027578179 0.74900001 0.0065662335 1.1581337e-38 341 235
0.028891427 0.74900001 0.0065662335 1.0576153e-38 342 235
0.030204674 0.74900001 0.0065662335 1.0391762e-38 343 235
0.031517919 0.74900001 0.0065662335 9.8342902e-39 344 235
0.032831166 0.74900001 0.0065662335 8.3595413e-39 345 235
0.034144413 0.74900001 0.0065662335 8.452453e-39 346 235
0.03545766 0.74900001 0.0065662335 8.452453e-39 347 235
0.036770906 0.74900001 0.0065662335 8.5442941e-39 348 235
0.038084153 0.74900001 0.0065662335 8.5442941e-39 349 235
0.0393974 0.74900001 0.0065662335 8.1776794e-39 350 235
0.040710647 0.74900001 0.0065662335 8.1776794e-39 351 235
0.042023893 0.74900001 0.0065662335 7.7192221e-39 352 235
0.04333714 0.74900001 0.0065662335 7.6270265e-39 353 235
0.044709999 0.75 0.006575 6.1580285e-39 354 235
0.04614773 0.75199997 0.0065925326 5.6048547e-39 355 235
0.04759248 0.75400001 0.0066100666 3.8599887e-39 356 235
0.048914492 0.75400001 0.0066100666 5.9808469e-39 357 235
0.050236505 0.75400001 0.0066100666 1.1705958e-38 358 235
-0.025351444 0.76099998 0.0053371461 1.1801409e-38 301 236
-0.024017159 0.76099998 0.0053371461 1.1318127e-38 302 236
-0.02262326 0.759 0.0053231199 5.8789431e-39 303 236
-0.02129248 0.759 0.0053231199 1.0286338e-38 304 236
-0.019909101 0.75700003 0.0053090933 1.1116459e-38 305 236
-0.018532733 0.755 0.0052950666 1.2221352e-38 306 236
-0.017186172 0.75400001 0.0052880533 1.2866721e-38 307 236
-0.01586416 0.75400001 0.0052880533 1.2406096e-38 308 236
-0.014542146 0.75400001 0.0052880533 1.2221705e-38 309 236
-0.013185065 0.75199997 0.0052740262 1.2678723e-38 310 236
-0.011866559 0.75199997 0.0052740262 1.2586527e-38 311 236
-0.01052 0.75 0.00526 1.2679796e-38 312 236
-0.0091927266 0.74900001 0.0052529867 1.3048579e-38 313 236
-0.0078794798 0.74900001 0.0052529867 1.3145086e-38 314 236
-0.0065662335 0.74900001 0.0052529867 1.3882651e-38 315 236
-0.0052529867 0.74900001 0.0052529867 1.370363e-38 316 236
-0.0039397399 0.74900001 0.0052529867 1.305826e-38 317 236
-0.0026264933 0.74900001 0.0052529867 1.2960304e-38 318 236
-0.0013132467 0.74900001 0.0052529867 1.240749e-38 319 236
0 0.74900001 0.0052529867 1.1672455e-38 320 236
0.0013132467 0.74900001 0.0052529867 1.1211478e-38 321 236
0.0026264933 0.74900001 0.0052529867 1.0844493e-38 322 236
0.0039397399 0.74900001 0.0052529867 1.0844493e-38 323 236
0.00526 0.75 0.00526 9.5609403e-39 324 236
0.0065925326 0.75199997 0.0052740262 9.2847136e-39 325 236
0.00793208 0.75400001 0.0052880533 8.0897745e-39 326 236
0.0092909131 0.75700003 0.0053090933 7.168191e-39 327 236
0.01064624 0.759 0.0053231199 5.4208054e-39 328 236
0.012008579 0.76099998 0.0053371461 6.066165e-39 329 236
0.0133078 0.759 0.0053231199 6.2523499e-39 330 236
0.014638579 0.759 0.0053231199 6.8977193e-39 331 236
0.015969358 0.759 0.0053231199 7.1746607e-39 332 236
0.017254554 0.75700003 0.0053090933 7.6352788e-39 333 236
0.018532733 0.755 0.0052950666 9.1017768e-39 334 236
0.019830201 0.75400001 0.0052880533 9.2865282e-39 335 236
0.021096105 0.75199997 0.0052740262 1.0662623e-38 336 236
0.022414612 0.75199997 0.0052740262 1.0754819e-38 337 236
0.023669999 0.75 0.00526 1.1396228e-38 338 236
0.024951685 0.74900001 0.0052529867 1.1119282e-38 339 236
0.026264934 0.74900001 0.0052529867 1.0846644e-38 340 236
0.027578179 0.74900001 0.0052529867 1.1399459e-38 341 236
0.028891427 0.74900001 0.0052529867 1.0574724e-38 342 236
0.030204674 0.74900001 0.0052529867 1.0298137e-38 343 236
0.031517919 0.74900001 0.0052529867 9.8350133e-39 344 236
0.032831166 0.74900001 0.0052529867 9.0974538e-39 345 236
0.034144413 0.74900001 0.0052529867 8.7286825e-39 346 236
0.03545766 0.74900001 0.0052529867 8.5442913e-39 347 236
0.036770906 0.74900001 0.0052529867 8.819802e-39 348 236
0.038084153 0.74900001 0.0052529867 8.6357708e-39 349 236
0.0393974 0.74900001 0.0052529867 8.4524684e-39 350 236
0.040710647 0.74900001 0.0052529867 8.4524684e-39 351 236
0.042023893 0.74900001 0.0052529867 7.8099857e-39 352 236
0.04333714 0.74900001 0.0052529867 7.625593e-39 353 236
0.044709999 0.75 0.00526 5.9732813e-39 354 236
0.04614773 0.75199997 0.0052740262 5.6966958e-39 355 236
0.047466237 0.75199997 0.0052740262 4.0447359e-39 356 236
0.048914492 0.75400001 0.0052880533 4.5979097e-39 357 236
0.050236505 0.75400001 0.0052880533 1.0506333e-38 358 236
-0.025351444 0.76099998 0.0040028598 1.1250391e-38 301 237
-0.024017159 0.76099998 0.0040028598 1.0581638e-38 302 237
-0.02262326 0.759 0.0039923396 5.4186824e-39 303 237
-0.02129248 0.759 0.0039923396 9.9186316e-39 304 237
-0.0198565 0.755 0.0039712996 1.0748392e-38 305 237
-0.018532733 0.755 0.0039712996 1.1023893e-38 306 237
-0.017186172 0.75400001 0.00396604 1.1484513e-38 307 237
-0.01586416 0.75400001 0.00396604 1.2125566e-38 308 237
-0.014542146 0.75400001 0.00396604 1.2309957e-38 309 237
-0.013185065 0.75199997 0.0039555198 1.2311382e-38 310 237
-0.011866559 0.75199997 0.0039555198 1.2311382e-38 311 237
-0.01052 0.75 0.003945 1.2494682e-38 312 237
-0.0091927266 0.74900001 0.0039397399 1.2494682e-38 313 237
-0.0078794798 0.74900001 0.0039397399 1.2681594e-38 314 237
-0.0065662335 0.74900001 0.0039397399 1.3879779e-38 315 237
-0.0052529867 0.74900001 0.0039397399 1.3427418e-38 316 237
-0.0039397399 0.74900001 0.0039397399 1.3519614e-38 317 237
-0.0026264933 0.74900001 0.0039397399 1.3329462e-38 318 237
-0.0013132467 0.74900001 0.0039397399 1.2591897e-38 319 237
0 0.74900001 0.0039397399 1.1856134e-38 320 237
0.0013132467 0.74900001 0.0039397399 1.1394796e-38 321 237
0.0026264933 0.74900001 0.0039397399 1.1211481e-38 322 237
0.0039397399 0.74900001 0.0039397399 1.1303676e-38 323 237
0.0052529867 0.74900001 0.0039397399 1.0387831e-38 324 237
0.006575 0.75 0.003945 1.0295635e-38 325 237
0.00789 0.75 0.003945 9.3779952e-39 326 237
0.0092295464 0.75199997 0.0039555198 8.1794576e-39 327 237
0.010590133 0.755 0.0039712996 6.8934019e-39 328 237
0.01197702 0.759 0.0039923396 7.0777904e-39 329 237
0.013237666 0.755 0.0039712996 6.7126064e-39 330 237
0.014561433 0.755 0.0039712996 7.0813889e-39 331 237
0.015885198 0.755 0.0039712996 7.6327648e-39 332 237
0.017208965 0.755 0.0039712996 7.7249605e-39 333 237
0.018508185 0.75400001 0.00396604 9.3758526e-39 334 237
0.0197776 0.75199997 0.0039555198 9.7442764e-39 335 237
0.021096105 0.75199997 0.0039555198 1.075374e-38 336 237
0.022355 0.75 0.003945 1.0845935e-38 337 237
0.023669999 0.75 0.003945 1.1304029e-38 338 237
0.024951685 0.74900001 0.0039397399 1.1211834e-38 339 237
0.026264934 0.74900001 0.0039397399 1.0659023e-38 340 237
0.027578179 0.74900001 0.0039397399 1.0382796e-38 341 237
0.028891427 0.74900001 0.0039397399 1.0021925e-38 342 237
0.030204674 0.74900001 0.0039397399 1.0667295e-38 343 237
0.031517919 0.74900001 0.0039397399 1.0202371e-38 344 237
0.032831166 0.74900001 0.0039397399 9.3726086e-39 345 237
0.034144413 0.74900001 0.0039397399 8.8212467e-39 346 237
0.03545766 0.74900001 0.0039397399 8.4528243e-39 347 237
0.036770906 0.74900001 0.0039397399 8.9109256e-39 348 237
0.038084153 0.74900001 0.0039397399 9.0031212e-39 349 237
0.0393974 0.74900001 0.0039397399 8.7279791e-39 350 237
0.040710647 0.74900001 0.0039397399 8.7279791e-39 351 237
0.042023893 0.74900001 0.0039397399 7.8092682e-39 352 237
0.04333714 0.74900001 0.0039397399 7.6248769e-39 353 237
0.044709999 0.75 0.003945 5.8807298e-39 354 237
0.04614773 0.75199997 0.0039555198 5.8807298e-39 355 237
0.047466237 0.75199997 0.0039555198 4.5039092e-39 356 237
0.048914492 0.75400001 0.00396604 4.4117136e-39 357 237
0.050236505 0.75400001 0.00396604 9.7691242e-39 358 237
-0.025351444 0.76099998 0.0026685731 1.1801406e-38 301 238
-0.024017159 0.76099998 0.0026685731 1.0211764e-38 302 238
-0.02262326 0.759 0.00266156 5.32647e-39 303 238
-0.021236373 0.75700003 0.0026545466 9.367613e-39 304 238
-0.0198565 0.755 0.0026475333 1.0289209e-38 305 238
-0.018532733 0.755 0.0026475333 1.0380333e-38 306 238
-0.017186172 0.75400001 0.0026440267 1.0656918e-38 307 238
-0.01586416 0.75400001 0.0026440267 1.0932063e-38 308 238
-0.014542146 0.75400001 0.0026440267 1.1484878e-38 309 238
-0.013185065 0.75199997 0.0026370131 1.1670682e-38 310 238
-0.011835 0.75 0.00263 1.1670682e-38 311 238
-0.01052 0.75 0.00263 1.221989e-38 312 238
-0.0091927266 0.74900001 0.0026264933 1.1943305e-38 313 238
-0.0078794798 0.74900001 0.0026264933 1.2128433e-38 314 238
-0.0065662335 0.74900001 0.0026264933 1.240538e-38 315 238
-0.0052389596 0.74699998 0.0026194798 1.2317863e-38 316 238
-0.0039292197 0.74699998 0.0026194798 1.3147983e-38 317 238
-0.0026194798 0.74699998 0.0026194798 1.3055769e-38 318 238
-0.0013132467 0.74900001 0.0026264933 1.2594431e-38 319 238
0 0.74900001 0.0026264933 1.2040165e-38 320 238
0.0013132467 0.74900001 0.0026264933 1.1671383e-38 321 238
0.0026194798 0.74699998 0.0026194798 1.1303679e-38 322 238
0.0039292197 0.74699998 0.0026194798 1.1303679e-38 323 238
0.0052529867 0.74900001 0.0026264933 1.0753389e-38 324 238
0.0065662335 0.74900001 0.0026264933 1.0661194e-38 325 238
0.0078794798 0.74900001 0.0026264933 9.6520696e-39 326 238
0.0091927266 0.74900001 0.0026264933 9.2829283e-39 327 238
0.01052 0.75 0.00263 8.5485933e-39 328 238
0.011866559 0.75199997 0.0026370131 8.456399e-39 329 238
0.013185065 0.75199997 0.0026370131 7.8153442e-39 330 238
0.014503572 0.75199997 0.0026370131 7.8153442e-39 331 238
0.015822079 0.75199997 0.0026370131 8.2738182e-39 332 238
0.017140586 0.75199997 0.0026370131 8.3660139e-39 333 238
0.018459093 0.75199997 0.0026370131 9.6502815e-39 334 238
0.019724999 0.75 0.00263 9.9272285e-39 335 238
0.02104 0.75 0.00263 1.0753742e-38 336 238
0.022355 0.75 0.00263 1.0753742e-38 337 238
0.02363844 0.74900001 0.0026264933 1.1211484e-38 338 238
0.024951685 0.74900001 0.0026264933 1.0566114e-38 339 238
0.026264934 0.74900001 0.0026264933 9.9182448e-39 340 238
0.027578179 0.74900001 0.0026264933 1.0102279e-38 341 238
0.028891427 0.74900001 0.0026264933 9.9290264e-39 342 238
0.030204674 0.74900001 0.0026264933 1.0574396e-38 343 238
0.031433757 0.74699998 0.0026194798 9.9265026e-39 344 238
0.032743499 0.74699998 0.0026194798 9.1889376e-39 345 238
0.034053236 0.74699998 0.0026194798 9.0960385e-39 346 238
0.03545766 0.74900001 0.0026264933 8.9116473e-39 347 238
0.036770906 0.74900001 0.0026264933 9.2789879e-39 348 238
0.038084153 0.74900001 0.0026264933 9.3711835e-39 349 238
0.0393974 0.74900001 0.0026264933 9.0038429e-39 350 238
0.040710647 0.74900001 0.0026264933 8.9116473e-39 351 238
0.042023893 0.74900001 0.0026264933 7.8092682e-39 352 238
0.04333714 0.74900001 0.0026264933 7.4401269e-39 353 238
0.044709999 0.75 0.00263 5.6967014e-39 354 238
0.04614773 0.75199997 0.0026370131 5.6967014e-39 355 238
0.047466237 0.75199997 0.0026370131 4.4135184e-39 356 238
0.048914492 0.75400001 0.0026440267 4.228767e-39 357 238
0.050236505 0.75400001 0.0026440267 9.8591647e-39 358 238
0.051558517 0.75400001 0.0026440267 1.4468946e-38 359 238
-0.025284819 0.759 0.00133078 1.2724089e-38 301 239
-0.02389092 0.75700003 0.0013272733 1.0306127e-38 302 239
-0.022563647 0.75700003 0.0013272733 4.775464e-39 303 239
-0.021236373 0.75700003 0.0013272733 9.1839378e-39 304 239
-0.0198565 0.755 0.0013237667 9.9215028e-39 305 239
-0.018532733 0.755 0.0013237667 1.0195572e-38 306 239
-0.017186172 0.75400001 0.0013220133 1.0195572e-38 307 239
-0.01586416 0.75400001 0.0013220133 1.019809e-38 308 239
-0.014503572 0.75199997 0.0013185065 1.0751263e-38 309 239
-0.013185065 0.75199997 0.0013185065 1.1487017e-38 310 239
-0.011835 0.75 0.001315 1.1763245e-38 311 239
-0.01052 0.75 0.001315 1.1853994e-38 312 239
-0.0091927266 0.74900001 0.0013132467 1.1577768e-38 313 239
-0.0078794798 0.74900001 0.0013132467 1.1483051e-38 314 239
-0.0065662335 0.74900001 0.0013132467 1.1206105e-38 315 239
-0.0052389596 0.74699998 0.0013097399 1.0564692e-38 316 239
-0.0039292197 0.74699998 0.0013097399 1.1670679e-38 317 239
-0.0026194798 0.74699998 0.0013097399 1.1951216e-38 318 239
-0.0013097399 0.74699998 0.0013097399 1.1951216e-38 319 239
0 0.74900001 0.0013132467 1.1946528e-38 320 239
0.0013097399 0.74699998 0.0013097399 1.1946528e-38 321 239
0.0026194798 0.74699998 0.0013097399 1.1120727e-38 322 239
0.0039292197 0.74699998 0.0013097399 1.0936336e-38 323 239
0.0052389596 0.74699998 0.0013097399 1.0475729e-38 324 239
0.0065662335 0.74900001 0.0013132467 1.0475729e-38 325 239
0.0078794798 0.74900001 0.0013132467 9.4658972e-39 326 239
0.0091927266 0.74900001 0.0013132467 9.3737016e-39 327 239
0.010505973 0.74900001 0.0013132467 8.8241208e-39 328 239
0.01181922 0.74900001 0.0013132467 8.8241208e-39 329 239
0.013132467 0.74900001 0.0013132467 8.3660167e-39 330 239
0.014465 0.75 0.001315 8.2734623e-39 331 239
0.01578 0.75 0.001315 8.5478912e-39 332 239
0.017095 0.75 0.001315 8.5478912e-39 333 239
0.018409999 0.75 0.001315 9.6495626e-39 334 239
0.0196987 0.74900001 0.0013132467 9.8343126e-39 335 239
0.021011947 0.74900001 0.0013132467 1.084414e-38 336 239
0.022325192 0.74900001 0.0013132467 1.084414e-38 337 239
0.02363844 0.74900001 0.0013132467 1.0932746e-38 338 239
0.024951685 0.74900001 0.0013132467 1.0010789e-38 339 239
0.026264934 0.74900001 0.0013132467 1.0010073e-38 340 239
0.027578179 0.74900001 0.0013132467 1.0837682e-38 341 239
0.028891427 0.74900001 0.0013132467 9.8368252e-39 342 239
