# .PCD v.7 - Point Cloud Data file format
FIELDS x y z rgb imX imY
SIZE 4 4 4 4 4 4
TYPE F F F F F F
COUNT 1 1 1 1 1 1
WIDTH 833
HEIGHT 1
VIEWPOINT 0 0 0 1 0 0 0
POINTS 833
DATA ascii
0.0012606466 0.71899998 0.0012606466 9.6793248e-39 321 239
0.0025212932 0.71899998 0.0012606466 9.4034666e-39 322 239
0.0037714199 0.71700001 0.00125714 9.4956622e-39 323 239
0.0050285598 0.71700001 0.00125714 9.037575e-39 324 239
0.0063032326 0.71899998 0.0012606466 8.9453779e-39 325 239
0.0075743999 0.72000003 0.0012624001 8.9468367e-39 326 239
0.0088367993 0.72000003 0.0012624001 9.1315867e-39 327 239
0.010099201 0.72000003 0.0012624001 9.5915293e-39 328 239
0.011361601 0.72000003 0.0012624001 1.0236899e-38 329 239
0.012624 0.72000003 0.0012624001 1.0792631e-38 330 239
0.013924973 0.722 0.0012659066 1.1991174e-38 331 239
-0.045193922 0.71600002 -0 1.1431812e-38 284 240
-0.043938532 0.71600002 -0 1.0325105e-38 285 240
-0.042563915 0.71399999 -0 1.1244137e-38 286 240
-0.041254178 0.713 -0 1.1244137e-38 287 240
-0.040004052 0.713 -0 1.1060446e-38 288 240
-0.038645219 0.71100003 -0 1.0876053e-38 289 240
-0.037398599 0.71100003 -0 1.0417948e-38 290 240
-0.036151983 0.71100003 -0 1.0325754e-38 291 240
-0.034856264 0.70999998 -0 9.9576941e-39 292 240
-0.033611398 0.70999998 -0 9.8654999e-39 293 240
-0.032366529 0.70999998 -0 9.8654999e-39 294 240
-0.031121666 0.70999998 -0 1.0234637e-38 295 240
-0.02979264 0.708 -0 1.1152644e-38 296 240
-0.02855128 0.708 -0 1.0968253e-38 297 240
-0.027309919 0.708 -0 1.0597314e-38 298 240
-0.02603174 0.70700002 -0 1.004379e-38 299 240
-0.024792133 0.70700002 -0 8.7577342e-39 300 240
-0.023552528 0.70700002 -0 8.7577342e-39 301 240
-0.022312919 0.70700002 -0 8.4807984e-39 302 240
-0.021162732 0.70999998 -0 8.1123746e-39 303 240
-0.020198401 0.72000003 -0 7.4677325e-39 304 240
-0.0189886 0.722 -0 7.0989556e-39 305 240
-0.017747238 0.72299999 -0 6.6376257e-39 306 240
-0.01647958 0.72299999 -0 6.5454315e-39 307 240
-0.015211919 0.72299999 -0 6.1773805e-39 308 240
-0.01394426 0.72299999 -0 6.3617717e-39 309 240
-0.012711667 0.72500002 -0 5.9980283e-39 310 240
-0.0114405 0.72500002 -0 6.551202e-39 311 240
-0.010169334 0.72500002 -0 6.6458948e-39 312 240
-0.0088981669 0.72500002 -0 6.8302874e-39 313 240
-0.0076270006 0.72500002 -0 7.3816465e-39 314 240
-0.0063382997 0.72299999 -0 7.5660378e-39 315 240
-0.0050636264 0.722 -0 8.1170438e-39 316 240
-0.0037819401 0.71899998 -0 8.2092408e-39 317 240
-0.0025142799 0.71700001 -0 8.6684169e-39 318 240
-0.00125714 0.71700001 -0 8.8528081e-39 319 240
0 0.71700001 -0 8.9450094e-39 320 240
0.00125714 0.71700001 -0 8.9450094e-39 321 240
0.0025142799 0.71700001 -0 8.8524578e-39 322 240
0.0037714199 0.71700001 -0 9.2212403e-39 323 240
0.0050285598 0.71700001 -0 9.3145276e-39 324 240
0.0062857 0.71700001 -0 9.7755057e-39 325 240
0.0075638802 0.71899998 -0 1.0326907e-38 326 240
0.0088245263 0.71899998 -0 1.0511298e-38 327 240
0.010099201 0.72000003 -0 1.0970498e-38 328 240
0.011361601 0.72000003 -0 1.1063052e-38 329 240
0.012624 0.72000003 -0 1.1431141e-38 330 240
0.013924973 0.722 -0 1.2445652e-38 331 240
0.015190879 0.722 -0 1.336944e-38 332 240
-0.046319555 0.71399999 -0.00125188 1.1064517e-38 283 241
-0.045067675 0.71399999 -0.00125188 1.133924e-38 284 241
-0.043815799 0.71399999 -0.00125188 1.0509481e-38 285 241
-0.042504307 0.713 -0.0012501266 1.1521072e-38 286 241
-0.041138459 0.71100003 -0.00124662 1.1244487e-38 287 241
-0.039891839 0.71100003 -0.00124662 1.0878206e-38 288 241
-0.038645219 0.71100003 -0.00124662 1.0693454e-38 289 241
-0.037345998 0.70999998 -0.0012448666 1.0235353e-38 290 241
-0.036101133 0.70999998 -0.0012448666 1.0050606e-38 291 241
-0.034856264 0.70999998 -0.0012448666 9.7750994e-39 292 241
-0.033611398 0.70999998 -0.0012448666 9.6829051e-39 293 241
-0.03227536 0.708 -0.00124136 9.9576941e-39 294 241
-0.031034 0.708 -0.00124136 1.0233918e-38 295 241
-0.029750559 0.70700002 -0.0012396066 1.0417589e-38 296 241
-0.028510952 0.70700002 -0.0012396066 1.0693813e-38 297 241
-0.027271347 0.70700002 -0.0012396066 1.0600901e-38 298 241
-0.025994917 0.70599997 -0.0012378532 9.9555418e-39 299 241
-0.024757065 0.70599997 -0.0012378532 9.4942119e-39 300 241
-0.023519212 0.70599997 -0.0012378532 9.4020177e-39 301 241
-0.022281358 0.70599997 -0.0012378532 8.4829494e-39 302 241
-0.021073313 0.70700002 -0.0012396066 8.3907538e-39 303 241
-0.020002026 0.713 -0.0012501266 7.8365108e-39 304 241
-0.018909698 0.71899998 -0.0012606466 7.1911498e-39 305 241
-0.017722692 0.722 -0.0012659066 7.0071201e-39 306 241
-0.016456785 0.722 -0.0012659066 6.546149e-39 307 241
-0.015211919 0.72299999 -0.0012676599 6.177372e-39 308 241
-0.01394426 0.72299999 -0.0012676599 6.0851778e-39 309 241
-0.012711667 0.72500002 -0.0012711667 6.0866141e-39 310 241
-0.0114405 0.72500002 -0.0012711667 6.7319836e-39 311 241
-0.010169334 0.72500002 -0.0012711667 6.7345017e-39 312 241
-0.0088736191 0.72299999 -0.0012676599 7.1032828e-39 313 241
-0.0076059597 0.72299999 -0.0012676599 7.7464802e-39 314 241
-0.0063382997 0.72299999 -0.0012676599 8.0234258e-39 315 241
-0.0050636264 0.722 -0.0012659066 8.3918356e-39 316 241
-0.0037714199 0.71700001 -0.00125714 8.5758681e-39 317 241
-0.0025107733 0.71600002 -0.0012553866 8.7606125e-39 318 241
-0.0012553866 0.71600002 -0.0012553866 8.8528081e-39 319 241
0 0.71600002 -0.0012553866 9.1283188e-39 320 241
0.0012553866 0.71600002 -0.0012553866 8.8520921e-39 321 241
0.0025107733 0.71600002 -0.0012553866 8.6673505e-39 322 241
0.00376616 0.71600002 -0.0012553866 9.4971112e-39 323 241
0.0050215465 0.71600002 -0.0012553866 1.0604569e-38 324 241
0.0062769335 0.71600002 -0.0012553866 1.1434331e-38 325 241
0.00753232 0.71600002 -0.0012553866 1.2258722e-38 326 241
0.0087999795 0.71700001 -0.00125714 1.1889579e-38 327 241
0.01005712 0.71700001 -0.00125714 1.1521525e-38 328 241
0.01134582 0.71899998 -0.0012606466 1.1798112e-38 329 241
0.012606465 0.71899998 -0.0012606466 1.1982523e-38 330 241
0.0138864 0.72000003 -0.0012624001 1.2443501e-38 331 241
0.0151488 0.72000003 -0.0012624001 1.272407e-38 332 241
-0.047571439 0.71399999 -0.0025037599 1.1157416e-38 282 242
-0.046319555 0.71399999 -0.0025037599 1.0788273e-38 283 242
-0.045067675 0.71399999 -0.0025037599 1.1338871e-38 284 242
-0.043815799 0.71399999 -0.0025037599 1.1246676e-38 285 242
-0.042504307 0.713 -0.0025002533 1.1705818e-38 286 242
-0.041138459 0.71100003 -0.0024932399 1.1521426e-38 287 242
-0.039835732 0.70999998 -0.0024897333 1.124662e-38 288 242
-0.038590867 0.70999998 -0.0024897333 1.1062231e-38 289 242
-0.037345998 0.70999998 -0.0024897333 1.0327547e-38 290 242
-0.036101133 0.70999998 -0.0024897333 1.0143159e-38 291 242
-0.034758076 0.708 -0.00248272 1.0050965e-38 292 242
-0.033516716 0.708 -0.00248272 9.9584116e-39 293 242
-0.03227536 0.708 -0.00248272 9.8658587e-39 294 242
-0.030990168 0.70700002 -0.0024792133 9.8658587e-39 295 242
-0.029708479 0.70599997 -0.0024757064 9.9573354e-39 296 242
-0.028470624 0.70599997 -0.0024757064 9.9573354e-39 297 242
-0.027232772 0.70599997 -0.0024757064 1.0691661e-38 298 242
-0.025994917 0.70599997 -0.0024757064 1.0783855e-38 299 242
-0.024757065 0.70599997 -0.0024757064 1.1519256e-38 300 242
-0.023519212 0.70599997 -0.0024757064 1.0597673e-38 301 242
-0.022281358 0.70599997 -0.0024757064 9.4942119e-39 302 242
-0.021043506 0.70599997 -0.0024757064 9.4942119e-39 303 242
-0.019833706 0.70700002 -0.0024792133 8.574429e-39 304 242
-0.018909698 0.71899998 -0.0025212932 7.9290624e-39 305 242
-0.017722692 0.722 -0.0025318132 8.019463e-39 306 242
-0.016456785 0.722 -0.0025318132 7.650686e-39 307 242
-0.015190879 0.722 -0.0025318132 6.9145671e-39 308 242
-0.01394426 0.72299999 -0.0025353199 6.6379845e-39 309 242
-0.012711667 0.72500002 -0.0025423334 6.3631982e-39 310 242
-0.01140894 0.72299999 -0.0025353199 6.7319808e-39 311 242
-0.01014128 0.72299999 -0.0025353199 7.1014793e-39 312 242
-0.0088736191 0.72299999 -0.0025353199 7.7468487e-39 313 242
-0.0076059597 0.72299999 -0.0025353199 8.3904007e-39 314 242
-0.0063382997 0.72299999 -0.0025353199 8.5751507e-39 315 242
-0.0050285598 0.71700001 -0.0025142799 8.7602468e-39 316 242
-0.0037714199 0.71700001 -0.0025142799 8.8524424e-39 317 242
-0.0024897333 0.70999998 -0.0024897333 9.0368295e-39 318 242
-0.0012448666 0.70999998 -0.0024897333 9.0368295e-39 319 242
0 0.71100003 -0.0024932399 9.4038197e-39 320 242
0.00124662 0.71100003 -0.0024932399 9.3112654e-39 321 242
0.0025002533 0.713 -0.0025002533 9.5853593e-39 322 242
0.0037556398 0.71399999 -0.0025037599 1.1060489e-38 323 242
0.0050075199 0.71399999 -0.0025037599 1.1617295e-38 324 242
0.0062593995 0.71399999 -0.0025037599 1.1709491e-38 325 242
0.0075112795 0.71399999 -0.0025037599 1.1706635e-38 326 242
0.0087877065 0.71600002 -0.0025107733 1.0508093e-38 327 242
0.010043093 0.71600002 -0.0025107733 1.1242787e-38 328 242
0.01131426 0.71700001 -0.0025142799 1.1335341e-38 329 242
0.0125714 0.71700001 -0.0025142799 1.1425752e-38 330 242
0.013828539 0.71700001 -0.0025142799 1.1425752e-38 331 242
0.015085679 0.71700001 -0.0025142799 1.0326987e-38 332 242
-0.048960082 0.71600002 -0.00376616 1.1987574e-38 281 243
-0.047571439 0.71399999 -0.0037556398 1.0696059e-38 282 243
-0.046319555 0.71399999 -0.0037556398 1.0788255e-38 283 243
-0.045004558 0.713 -0.0037503797 1.1615086e-38 284 243
-0.043754432 0.713 -0.0037503797 1.1615086e-38 285 243
-0.042385083 0.71100003 -0.0037398601 1.1706534e-38 286 243
-0.041080594 0.70999998 -0.0037345996 1.1522503e-38 287 243
-0.039835732 0.70999998 -0.0037345996 1.1155502e-38 288 243
-0.038590867 0.70999998 -0.0037345996 1.1063307e-38 289 243
-0.0372408 0.708 -0.00372408 1.0695607e-38 290 243
-0.03599944 0.708 -0.00372408 1.0511218e-38 291 243
-0.034758076 0.708 -0.00372408 1.0418665e-38 292 243
-0.033516716 0.708 -0.00372408 1.0326471e-38 293 243
-0.032229774 0.70700002 -0.0037188199 1.0325754e-38 294 243
-0.030946331 0.70599997 -0.0037135598 1.0325754e-38 295 243
-0.029708479 0.70599997 -0.0037135598 1.0508348e-38 296 243
-0.028389972 0.704 -0.0037030398 1.0323601e-38 297 243
-0.027155625 0.704 -0.0037030398 1.0599108e-38 298 243
-0.02592128 0.704 -0.0037030398 1.1060438e-38 299 243
-0.024686933 0.704 -0.0037030398 1.2164623e-38 300 243
-0.023452586 0.704 -0.0037030398 1.1427062e-38 301 243
-0.022218239 0.704 -0.0037030398 1.050799e-38 302 243
-0.020983893 0.704 -0.0037030398 1.0323242e-38 303 243
-0.019805651 0.70599997 -0.0037135598 9.4034526e-39 304 243
-0.018567799 0.70599997 -0.0037135598 8.9424814e-39 305 243
-0.017722692 0.722 -0.0037977197 8.7580972e-39 306 243
-0.016456785 0.722 -0.0037977197 8.2971218e-39 307 243
-0.015190879 0.722 -0.0037977197 7.8375856e-39 308 243
-0.01394426 0.72299999 -0.0038029798 7.7453914e-39 309 243
-0.012711667 0.72500002 -0.0038135003 7.5617204e-39 310 243
-0.01140894 0.72299999 -0.0038029798 7.746469e-39 311 243
-0.01014128 0.72299999 -0.0038029798 7.8393849e-39 312 243
-0.0088981669 0.72500002 -0.0038135003 8.2078073e-39 313 243
-0.0076270006 0.72500002 -0.0038135003 8.6680511e-39 314 243
-0.0061892662 0.70599997 -0.0037135598 8.8524424e-39 315 243
-0.0049514128 0.70599997 -0.0037135598 9.1286636e-39 316 243
-0.0037135598 0.70599997 -0.0037135598 9.2208578e-39 317 243
-0.0024792133 0.70700002 -0.0037188199 9.3119758e-39 318 243
-0.0012396066 0.70700002 -0.0037188199 9.3119758e-39 319 243
0 0.70700002 -0.0037188199 9.4030981e-39 320 243
0.0012396066 0.70700002 -0.0037188199 9.5871292e-39 321 243
0.0024897333 0.70999998 -0.0037345996 1.0229306e-38 322 243
0.0037345996 0.70999998 -0.0037345996 1.1980665e-38 323 243
0.0049794666 0.70999998 -0.0037345996 1.2168692e-38 324 243
0.0062330998 0.71100003 -0.0037398601 1.1707716e-38 325 243
0.0074797203 0.71100003 -0.0037398601 1.1612649e-38 326 243
0.0087508867 0.713 -0.0037503797 9.8605716e-39 327 243
0.01001504 0.71399999 -0.0037556398 1.0778572e-38 328 243
0.011266919 0.71399999 -0.0037556398 1.0409789e-38 329 243
0.012553867 0.71600002 -0.00376616 1.0041003e-38 330 243
0.013828539 0.71700001 -0.0037714199 9.580026e-39 331 243
0.015085679 0.71700001 -0.0037714199 7.837332e-39 332 243
0.016342819 0.71700001 -0.0037714199 1.0695397e-38 333 243
-0.050215468 0.71600002 -0.0050215465 1.1897527e-38 280 244
-0.048823316 0.71399999 -0.0050075199 1.0514593e-38 281 244
-0.047571439 0.71399999 -0.0050075199 1.0787878e-38 282 244
-0.046254687 0.713 -0.0050005065 1.1157021e-38 283 244
-0.045004558 0.713 -0.0050005065 1.1524684e-38 284 244
-0.043631699 0.71100003 -0.0049864799 1.1432487e-38 285 244
-0.042325463 0.70999998 -0.0049794666 1.1707969e-38 286 244
-0.041080594 0.70999998 -0.0049794666 1.1523219e-38 287 244
-0.039723519 0.708 -0.0049654399 1.1431727e-38 288 244
-0.038482159 0.708 -0.0049654399 1.1155502e-38 289 244
-0.0372408 0.708 -0.0049654399 1.0971831e-38 290 244
-0.03599944 0.708 -0.0049654399 1.0971831e-38 291 244
-0.034708988 0.70700002 -0.0049584266 1.0695965e-38 292 244
-0.033469379 0.70700002 -0.0049584266 1.0695965e-38 293 244
-0.032229774 0.70700002 -0.0049584266 1.0603771e-38 294 244
-0.030858666 0.704 -0.0049373866 1.0879995e-38 295 244
-0.029624319 0.704 -0.0049373866 1.1338814e-38 296 244
-0.028389972 0.704 -0.0049373866 1.1431008e-38 297 244
-0.027155625 0.704 -0.0049373866 1.1428856e-38 298 244
-0.025884461 0.70300001 -0.0049303733 1.1612885e-38 299 244
-0.024651866 0.70300001 -0.0049303733 1.1428856e-38 300 244
-0.023419274 0.70300001 -0.0049303733 1.105972e-38 301 244
-0.02218668 0.70300001 -0.0049303733 1.0876408e-38 302 244
-0.020983893 0.704 -0.0049373866 1.1245543e-38 303 244
-0.019721493 0.70300001 -0.0049303733 1.142599e-38 304 244
-0.018488899 0.70300001 -0.0049303733 1.0780626e-38 305 244
-0.017256306 0.70300001 -0.0049303733 9.5867648e-39 306 244
-0.015955333 0.69999999 -0.0049093333 9.4023764e-39 307 244
-0.014727999 0.69999999 -0.0049093333 8.7595279e-39 308 244
-0.013500666 0.69999999 -0.0049093333 8.5754982e-39 309 244
-0.012290866 0.70099998 -0.0049163462 8.3007092e-39 310 244
-0.011061779 0.70099998 -0.0049163462 8.3007092e-39 311 244
-0.0098326923 0.70099998 -0.0049163462 8.3925447e-39 312 244
-0.0086036054 0.70099998 -0.0049163462 8.6691273e-39 313 244
-0.0073745195 0.70099998 -0.0049163462 9.2197816e-39 314 244
-0.0061717331 0.704 -0.0049373866 9.3119758e-39 315 244
-0.0049373866 0.704 -0.0049373866 9.4048875e-39 316 244
-0.0037030398 0.704 -0.0049373866 9.4048875e-39 317 244
-0.0024757064 0.70599997 -0.0049514128 9.4045288e-39 318 244
-0.0012378532 0.70599997 -0.0049514128 9.3123345e-39 319 244
0 0.70599997 -0.0049514128 9.4034526e-39 320 244
0.0012378532 0.70599997 -0.0049514128 9.6796765e-39 321 244
0.0024792133 0.70700002 -0.0049584266 9.954509e-39 322 244
0.0037188199 0.70700002 -0.0049584266 1.1153052e-38 323 244
0.0049584266 0.70700002 -0.0049584266 1.2166176e-38 324 244
0.0061980332 0.70700002 -0.0049584266 1.2534598e-38 325 244
0.0074481601 0.708 -0.0049654399 1.2070753e-38 326 244
0.0087140659 0.70999998 -0.0049794666 1.022684e-38 327 244
0.0099729598 0.71100003 -0.0049864799 1.0593823e-38 328 244
0.011251139 0.713 -0.0050005065 1.0686019e-38 329 244
0.012518799 0.71399999 -0.0050075199 1.0043168e-38 330 244
0.013809253 0.71600002 -0.0050215465 9.766941e-39 331 244
0.015085679 0.71700001 -0.0050285598 8.6627739e-39 332 244
0.016342819 0.71700001 -0.0050285598 9.7691214e-39 333 244
-0.050215468 0.71600002 -0.0062769335 1.0607492e-38 280 245
-0.048823316 0.71399999 -0.0062593995 9.4093072e-39 281 245
-0.047571439 0.71399999 -0.0062593995 1.097333e-38 282 245
-0.046254687 0.713 -0.0062506334 1.1249917e-38 283 245
-0.044878319 0.71100003 -0.0062330998 1.1525393e-38 284 245
-0.043631699 0.71100003 -0.0062330998 1.1340641e-38 285 245
-0.042325463 0.70999998 -0.0062243328 1.1523941e-38 286 245
-0.040964879 0.708 -0.0062067998 1.1523941e-38 287 245
-0.039723519 0.708 -0.0062067998 1.1248418e-38 288 245
-0.038482159 0.708 -0.0062067998 1.1155862e-38 289 245
-0.037188202 0.70700002 -0.0061980332 1.115586e-38 290 245
-0.035948593 0.70700002 -0.0061980332 1.133989e-38 291 245
-0.034659892 0.70599997 -0.0061892662 1.1064025e-38 292 245
-0.033422034 0.70599997 -0.0061892662 1.1064025e-38 293 245
-0.032093015 0.704 -0.0061717331 1.0879995e-38 294 245
-0.030858666 0.704 -0.0061717331 1.0972189e-38 295 245
-0.029582238 0.70300001 -0.0061629666 1.0973266e-38 296 245
-0.028349647 0.70300001 -0.0061629666 1.1157295e-38 297 245
-0.027117053 0.70300001 -0.0061629666 1.152392e-38 298 245
-0.025884461 0.70300001 -0.0061629666 1.1246978e-38 299 245
-0.024651866 0.70300001 -0.0061629666 1.1061872e-38 300 245
-0.023419274 0.70300001 -0.0061629666 1.078529e-38 301 245
-0.02218668 0.70300001 -0.0061629666 1.1153708e-38 302 245
-0.020954086 0.70300001 -0.0061629666 1.1614679e-38 303 245
-0.019665385 0.70099998 -0.0061454331 1.1704004e-38 304 245
-0.018436298 0.70099998 -0.0061454331 1.1243391e-38 305 245
-0.017182667 0.69999999 -0.0061366665 1.0416154e-38 306 245
-0.015955333 0.69999999 -0.0061366665 1.0416154e-38 307 245
-0.014727999 0.69999999 -0.0061366665 9.8651412e-39 308 245
-0.013500666 0.69999999 -0.0061366665 9.6807527e-39 309 245
-0.012290866 0.70099998 -0.0061454331 9.40417e-39 310 245
-0.011061779 0.70099998 -0.0061454331 9.3119758e-39 311 245
-0.0098326923 0.70099998 -0.0061454331 9.2204991e-39 312 245
-0.0086036054 0.70099998 -0.0061454331 9.2204991e-39 313 245
-0.0073745195 0.70099998 -0.0061454331 9.3126933e-39 314 245
-0.0061629666 0.70300001 -0.0061629666 9.4048875e-39 315 245
-0.0049373866 0.704 -0.0061717331 9.4970817e-39 316 245
-0.0037030398 0.704 -0.0061717331 9.4048875e-39 317 245
-0.0024686933 0.704 -0.0061717331 9.4048875e-39 318 245
-0.0012343467 0.704 -0.0061717331 9.4048875e-39 319 245
0 0.70599997 -0.0061892662 9.496723e-39 320 245
0.0012378532 0.70599997 -0.0061892662 9.496723e-39 321 245
0.0024757064 0.70599997 -0.0061892662 9.4953091e-39 322 245
0.0037135598 0.70599997 -0.0061892662 1.0048483e-38 323 245
0.0049514128 0.70599997 -0.0061892662 1.1152717e-38 324 245
0.0061892662 0.70599997 -0.0061892662 1.1982478e-38 325 245
0.0074376399 0.70700002 -0.0061980332 1.1795961e-38 326 245
0.008689519 0.708 -0.0062067998 1.0874005e-38 327 245
0.0099308798 0.708 -0.0062067998 1.1055875e-38 328 245
0.01121958 0.71100003 -0.0062330998 1.1055875e-38 329 245
0.0124662 0.71100003 -0.0062330998 1.0505578e-38 330 245
0.01377068 0.71399999 -0.0062593995 1.0413024e-38 331 245
0.015022559 0.71399999 -0.0062593995 9.1240883e-39 332 245
0.016274439 0.71399999 -0.0062593995 8.3865233e-39 333 245
0.017575413 0.71600002 -0.0062769335 1.0418088e-38 334 245
0.0188308 0.71600002 -0.0062769335 1.3091761e-38 335 245
0.020086186 0.71600002 -0.0062769335 1.5853683e-38 336 245
-0.051470853 0.71600002 -0.00753232 1.5118639e-38 279 246
-0.050215468 0.71600002 -0.00753232 8.8557621e-39 280 246
-0.048823316 0.71399999 -0.0075112795 9.0401519e-39 281 246
-0.047571439 0.71399999 -0.0075112795 1.1159875e-38 282 246
-0.046254687 0.713 -0.0075007593 1.1343908e-38 283 246
-0.044878319 0.71100003 -0.0074797203 1.1342093e-38 284 246
-0.043570329 0.70999998 -0.0074691991 1.1065506e-38 285 246
-0.042206239 0.708 -0.0074481601 1.1247724e-38 286 246
-0.040964879 0.708 -0.0074481601 1.1340278e-38 287 246
-0.039667413 0.70700002 -0.0074376399 1.1248427e-38 288 246
-0.038427804 0.70700002 -0.0074376399 1.1156232e-38 289 246
-0.037135597 0.70599997 -0.0074271196 1.1156582e-38 290 246
-0.035897743 0.70599997 -0.0074271196 1.097255e-38 291 246
-0.034561705 0.704 -0.0074060797 1.115586e-38 292 246
-0.03332736 0.704 -0.0074060797 1.0971113e-38 293 246
-0.032093015 0.704 -0.0074060797 1.0879636e-38 294 246
-0.030814834 0.70300001 -0.0073955595 1.0603412e-38 295 246
-0.029582238 0.70300001 -0.0073955595 1.0878919e-38 296 246
-0.028349647 0.70300001 -0.0073955595 1.0971113e-38 297 246
-0.027117053 0.70300001 -0.0073955595 1.124662e-38 298 246
-0.025884461 0.70300001 -0.0073955595 1.1431008e-38 299 246
-0.024651866 0.70300001 -0.0073955595 1.1708673e-38 300 246
-0.023352645 0.70099998 -0.0073745195 1.1523923e-38 301 246
-0.022123558 0.70099998 -0.0073745195 1.1706873e-38 302 246
-0.020894472 0.70099998 -0.0073745195 1.1799426e-38 303 246
-0.019665385 0.70099998 -0.0073745195 1.161432e-38 304 246
-0.018436298 0.70099998 -0.0073745195 1.1337738e-38 305 246
-0.017182667 0.69999999 -0.0073639993 1.0694531e-38 306 246
-0.015955333 0.69999999 -0.0073639993 1.0786725e-38 307 246
-0.014727999 0.69999999 -0.0073639993 1.0511577e-38 308 246
-0.013500666 0.69999999 -0.0073639993 1.01428e-38 309 246
-0.012273333 0.69999999 -0.0073639993 9.7722295e-39 310 246
-0.011045999 0.69999999 -0.0073639993 9.6800353e-39 311 246
-0.0098326923 0.70099998 -0.0073745195 9.5885585e-39 312 246
-0.0086036054 0.70099998 -0.0073745195 9.40417e-39 313 246
-0.0073745195 0.70099998 -0.0073745195 9.5885585e-39 314 246
-0.0061629666 0.70300001 -0.0073955595 9.5885585e-39 315 246
-0.0049303733 0.70300001 -0.0073955595 9.5881998e-39 316 246
-0.0036977797 0.70300001 -0.0073955595 9.680394e-39 317 246
-0.0024686933 0.704 -0.0074060797 9.2212165e-39 318 246
-0.0012343467 0.704 -0.0074060797 9.2212165e-39 319 246
0 0.704 -0.0074060797 9.587841e-39 320 246
0.0012343467 0.704 -0.0074060797 9.6800353e-39 321 246
0.0024686933 0.704 -0.0074060797 9.7708016e-39 322 246
0.0037135598 0.70599997 -0.0074271196 9.6786059e-39 323 246
0.0049514128 0.70599997 -0.0074271196 9.128714e-39 324 246
0.0061892662 0.70599997 -0.0074271196 1.0142865e-38 325 246
0.0074376399 0.70700002 -0.0074376399 1.1428605e-38 326 246
0.008677247 0.70700002 -0.0074376399 1.1981777e-38 327 246
0.0099308798 0.708 -0.0074481601 1.1245658e-38 328 246
0.011203799 0.70999998 -0.0074691991 1.0692485e-38 329 246
0.0124662 0.71100003 -0.0074797203 1.0597418e-38 330 246
0.013751393 0.713 -0.0075007593 1.0320831e-38 331 246
0.015001519 0.713 -0.0075007593 9.5843476e-39 332 246
0.016274439 0.71399999 -0.0075112795 9.2152049e-39 333 246
0.017526319 0.71399999 -0.0075112795 9.1277023e-39 334 246
0.0188308 0.71600002 -0.00753232 1.170918e-38 335 246
-0.051470853 0.71600002 -0.0087877065 1.4287789e-38 279 247
-0.050075196 0.71399999 -0.0087631596 8.0241895e-39 280 247
-0.048823316 0.71399999 -0.0087631596 8.7617546e-39 281 247
-0.047504812 0.713 -0.0087508867 1.09762e-38 282 247
-0.046124939 0.71100003 -0.0087263398 1.09762e-38 283 247
-0.044815198 0.70999998 -0.0087140659 1.1341018e-38 284 247
-0.043447599 0.708 -0.008689519 1.106443e-38 285 247
-0.042206239 0.708 -0.008689519 1.0972935e-38 286 247
-0.040907022 0.70700002 -0.008677247 1.0972935e-38 287 247
-0.039667413 0.70700002 -0.008677247 1.0972919e-38 288 247
-0.038373452 0.70599997 -0.0086649731 1.0972919e-38 289 247
-0.037135597 0.70599997 -0.0086649731 1.1156219e-38 290 247
-0.035897743 0.70599997 -0.0086649731 1.1064025e-38 291 247
-0.034561705 0.704 -0.0086404262 1.0879636e-38 292 247
-0.033280019 0.70300001 -0.0086281532 1.0879636e-38 293 247
-0.032047424 0.70300001 -0.0086281532 1.0144594e-38 294 247
-0.030814834 0.70300001 -0.0086281532 1.0144594e-38 295 247
-0.029582238 0.70300001 -0.0086281532 9.9602095e-39 296 247
-0.028349647 0.70300001 -0.0086281532 1.0144601e-38 297 247
-0.027039904 0.70099998 -0.0086036054 1.0237152e-38 298 247
-0.025810819 0.70099998 -0.0086036054 1.0329348e-38 299 247
-0.024581732 0.70099998 -0.0086036054 1.0881076e-38 300 247
-0.023352645 0.70099998 -0.0086036054 1.078888e-38 301 247
-0.022123558 0.70099998 -0.0086036054 1.1064025e-38 302 247
-0.020894472 0.70099998 -0.0086036054 1.1064025e-38 303 247
-0.019665385 0.70099998 -0.0086036054 1.1246261e-38 304 247
-0.018409999 0.69999999 -0.0085913334 1.1154067e-38 305 247
-0.017182667 0.69999999 -0.0085913334 1.087856e-38 306 247
-0.015955333 0.69999999 -0.0085913334 1.106259e-38 307 247
-0.014727999 0.69999999 -0.0085913334 1.0968602e-38 308 247
-0.013500666 0.69999999 -0.0085913334 1.0692019e-38 309 247
-0.012273333 0.69999999 -0.0085913334 1.0231407e-38 310 247
-0.011045999 0.69999999 -0.0085913334 1.0139213e-38 311 247
-0.0098326923 0.70099998 -0.0086036054 9.6800353e-39 312 247
-0.0086036054 0.70099998 -0.0086036054 9.6800353e-39 313 247
-0.0073745195 0.70099998 -0.0086036054 9.4048875e-39 314 247
-0.0061629666 0.70300001 -0.0086281532 9.4048875e-39 315 247
-0.0049303733 0.70300001 -0.0086281532 9.4048875e-39 316 247
-0.0036977797 0.70300001 -0.0086281532 9.4048875e-39 317 247
-0.0024651866 0.70300001 -0.0086281532 9.2212165e-39 318 247
-0.0012325933 0.70300001 -0.0086281532 9.1290223e-39 319 247
0 0.704 -0.0086404262 9.1286636e-39 320 247
0.0012343467 0.704 -0.0086404262 9.1286636e-39 321 247
0.0024686933 0.704 -0.0086404262 9.4027477e-39 322 247
0.0037030398 0.704 -0.0086404262 9.6789745e-39 323 247
0.0049373866 0.704 -0.0086404262 9.4031317e-39 324 247
0.0061892662 0.70599997 -0.0086649731 9.7719156e-39 325 247
0.0074271196 0.70599997 -0.0086649731 1.0784305e-38 326 247
0.008677247 0.70700002 -0.008677247 1.170662e-38 327 247
0.0099308798 0.708 -0.008689519 1.1979273e-38 328 247
0.011203799 0.70999998 -0.0087140659 1.1149873e-38 329 247
0.0124662 0.71100003 -0.0087263398 1.0872928e-38 330 247
0.013751393 0.713 -0.0087508867 1.0688537e-38 331 247
0.015001519 0.713 -0.0087508867 1.0780736e-38 332 247
0.016251646 0.713 -0.0087508867 1.0872931e-38 333 247
0.017526319 0.71399999 -0.0087631596 1.0507393e-38 334 247
0.0188308 0.71600002 -0.0087877065 1.1152762e-38 335 247
0.020086186 0.71600002 -0.0087877065 1.3274357e-38 336 247
0.021341572 0.71600002 -0.0087877065 1.5486692e-38 337 247
-0.051470853 0.71600002 -0.010043093 1.3550218e-38 279 248
-0.050075196 0.71399999 -0.01001504 7.930189e-39 280 248
-0.048754938 0.713 -0.010001013 9.4975161e-39 281 248
-0.047504812 0.713 -0.010001013 1.1343187e-38 282 248
-0.046060063 0.70999998 -0.0099589331 1.1343187e-38 283 248
-0.044688959 0.708 -0.0099308798 1.1065512e-38 284 248
-0.043447599 0.708 -0.0099308798 1.0788566e-38 285 248
-0.042146627 0.70700002 -0.0099168532 1.0788904e-38 286 248
-0.040907022 0.70700002 -0.0099168532 1.0788904e-38 287 248
-0.039611302 0.70599997 -0.0099028256 1.0972919e-38 288 248
-0.038373452 0.70599997 -0.0099028256 1.1065115e-38 289 248
-0.037030395 0.704 -0.0098747732 1.1155865e-38 290 248
-0.035796054 0.704 -0.0098747732 1.1063669e-38 291 248
-0.034561705 0.704 -0.0098747732 1.0696683e-38 292 248
-0.033280019 0.70300001 -0.0098607466 1.0328265e-38 293 248
-0.032047424 0.70300001 -0.0098607466 1.0144952e-38 294 248
-0.030727165 0.70099998 -0.0098326923 9.960564e-39 295 248
-0.029498078 0.70099998 -0.0098326923 9.960564e-39 296 248
-0.028268991 0.70099998 -0.0098326923 1.0052758e-38 297 248
-0.027001332 0.69999999 -0.0098186666 1.0144952e-38 298 248
-0.025773998 0.69999999 -0.0098186666 1.0144952e-38 299 248
-0.024546666 0.69999999 -0.0098186666 1.0510501e-38 300 248
-0.023319334 0.69999999 -0.0098186666 1.0418307e-38 301 248
-0.022091998 0.69999999 -0.0098186666 1.0509783e-38 302 248
-0.020864666 0.69999999 -0.0098186666 1.0693813e-38 303 248
-0.019637333 0.69999999 -0.0098186666 1.1060796e-38 304 248
-0.018409999 0.69999999 -0.0098186666 1.1060796e-38 305 248
-0.017182667 0.69999999 -0.0098186666 1.1061514e-38 306 248
-0.015955333 0.69999999 -0.0098186666 1.096932e-38 307 248
-0.014727999 0.69999999 -0.0098186666 1.0784572e-38 308 248
-0.013500666 0.69999999 -0.0098186666 1.0416154e-38 309 248
-0.012273333 0.69999999 -0.0098186666 9.9555418e-39 310 248
-0.011045999 0.69999999 -0.0098186666 9.8633475e-39 311 248
-0.0098186666 0.69999999 -0.0098186666 9.40417e-39 312 248
-0.0086036054 0.70099998 -0.0098326923 9.40417e-39 313 248
-0.0073745195 0.70099998 -0.0098326923 9.3119758e-39 314 248
-0.0061629666 0.70300001 -0.0098607466 9.40417e-39 315 248
-0.0049303733 0.70300001 -0.0098607466 9.3119758e-39 316 248
-0.0036977797 0.70300001 -0.0098607466 9.40417e-39 317 248
-0.0024651866 0.70300001 -0.0098607466 9.129381e-39 318 248
-0.0012325933 0.70300001 -0.0098607466 9.0371868e-39 319 248
0 0.70300001 -0.0098607466 9.2201403e-39 320 248
0.0012325933 0.70300001 -0.0098607466 9.0361106e-39 321 248
0.0024686933 0.704 -0.0098747732 9.4023764e-39 322 248
0.0037030398 0.704 -0.0098747732 9.4949293e-39 323 248
0.0049373866 0.704 -0.0098747732 9.5867789e-39 324 248
0.0061892662 0.70599997 -0.0099028256 9.7711715e-39 325 248
0.0074271196 0.70599997 -0.0099028256 9.3113102e-39 326 248
0.008677247 0.70700002 -0.0099168532 9.9566796e-39 327 248
0.0099308798 0.708 -0.0099308798 1.0966183e-38 328 248
0.011203799 0.70999998 -0.0099589331 1.1334607e-38 329 248
0.012448666 0.70999998 -0.0099589331 1.1795245e-38 330 248
0.01371282 0.71100003 -0.0099729598 1.1979276e-38 331 248
0.015001519 0.713 -0.010001013 1.1886011e-38 332 248
0.016251646 0.713 -0.010001013 1.1886011e-38 333 248
0.017526319 0.71399999 -0.01001504 1.1151313e-38 334 248
0.018778199 0.71399999 -0.01001504 1.0967282e-38 335 248
0.020086186 0.71600002 -0.010043093 1.1430788e-38 336 248
-0.051470853 0.71600002 -0.01129848 1.2536413e-38 279 249
-0.049794663 0.70999998 -0.011203799 8.3907958e-39 280 249
-0.048549797 0.70999998 -0.011203799 1.0142511e-38 281 249
-0.047304932 0.70999998 -0.011203799 1.0884004e-38 282 249
-0.046060063 0.70999998 -0.011203799 1.0515223e-38 283 249
-0.044688959 0.708 -0.01117224 1.0788566e-38 284 249
-0.043447599 0.708 -0.01117224 1.0604175e-38 285 249
-0.042146627 0.70700002 -0.011156459 1.0605229e-38 286 249
-0.040849157 0.70599997 -0.011140679 1.0697424e-38 287 249
-0.039611302 0.70599997 -0.011140679 1.0972919e-38 288 249
-0.038264744 0.704 -0.011109119 1.0972919e-38 289 249
-0.037030395 0.704 -0.011109119 1.0972907e-38 290 249
-0.035796054 0.704 -0.011109119 1.0880713e-38 291 249
-0.034414422 0.70099998 -0.011061779 1.0513729e-38 292 249
-0.03318534 0.70099998 -0.011061779 1.0328982e-38 293 249
-0.031956252 0.70099998 -0.011061779 1.0053476e-38 294 249
-0.030727165 0.70099998 -0.011061779 9.8690872e-39 295 249
-0.029455997 0.69999999 -0.011045999 9.960564e-39 296 249
-0.028228667 0.69999999 -0.011045999 1.0052758e-38 297 249
-0.027001332 0.69999999 -0.011045999 1.0053476e-38 298 249
-0.025773998 0.69999999 -0.011045999 9.8687285e-39 299 249
-0.024546666 0.69999999 -0.011045999 9.6843401e-39 300 249
-0.023252707 0.69800001 -0.01101444 9.4999516e-39 301 249
-0.02202888 0.69800001 -0.01101444 9.7754581e-39 302 249
-0.020864666 0.69999999 -0.011045999 9.8676523e-39 303 249
-0.019637333 0.69999999 -0.011045999 1.0510142e-38 304 249
-0.018409999 0.69999999 -0.011045999 1.0510142e-38 305 249
-0.017133573 0.69800001 -0.01101444 1.1060796e-38 306 249
-0.015909746 0.69800001 -0.01101444 1.133702e-38 307 249
-0.01468592 0.69800001 -0.01101444 1.1428856e-38 308 249
-0.013462093 0.69800001 -0.01101444 1.0967526e-38 309 249
-0.012238266 0.69800001 -0.01101444 9.8633475e-39 310 249
-0.011045999 0.69999999 -0.011045999 9.7711533e-39 311 249
-0.0098186666 0.69999999 -0.011045999 9.5874823e-39 312 249
-0.0085913334 0.69999999 -0.011045999 9.4952881e-39 313 249
-0.0073745195 0.70099998 -0.011061779 9.3119758e-39 314 249
-0.0061454331 0.70099998 -0.011061779 9.3119758e-39 315 249
-0.0049163462 0.70099998 -0.011061779 9.3119758e-39 316 249
-0.0036872597 0.70099998 -0.011061779 9.3119758e-39 317 249
-0.0024581731 0.70099998 -0.011061779 9.0361106e-39 318 249
-0.0012325933 0.70300001 -0.01109334 9.2201403e-39 319 249
0 0.70300001 -0.01109334 9.0357519e-39 320 249
0.0012325933 0.70300001 -0.01109334 8.9435576e-39 321 249
0.0024686933 0.704 -0.011109119 8.9435576e-39 322 249
0.0037030398 0.704 -0.011109119 9.2197816e-39 323 249
0.0049373866 0.704 -0.011109119 9.3112654e-39 324 249
0.0061717331 0.704 -0.011109119 9.4038197e-39 325 249
0.0074271196 0.70599997 -0.011140679 9.2180188e-39 326 249
0.008677247 0.70700002 -0.011156459 9.5868027e-39 327 249
0.0099308798 0.708 -0.01117224 9.678669e-39 328 249
0.011203799 0.70999998 -0.011203799 1.0139288e-38 329 249
0.012448666 0.70999998 -0.011203799 1.0967632e-38 330 249
0.01371282 0.71100003 -0.01121958 1.1243859e-38 331 249
0.014959441 0.71100003 -0.01121958 1.1701613e-38 332 249
0.016251646 0.713 -0.011251139 1.1333191e-38 333 249
0.017526319 0.71399999 -0.011266919 1.0688522e-38 334 249
0.018778199 0.71399999 -0.011266919 1.0227544e-38 335 249
0.020030079 0.71399999 -0.011266919 9.4024647e-39 336 249
0.021281958 0.71399999 -0.011266919 1.3551628e-38 337 249
0.022533838 0.71399999 -0.011266919 1.6772735e-38 338 249
-0.051470853 0.71600002 -0.012553867 1.1614086e-38 279 250
-0.049794663 0.70999998 -0.012448666 8.851404e-39 280 250
-0.048549797 0.70999998 -0.012448666 1.0326534e-38 281 250
-0.047304932 0.70999998 -0.012448666 1.0054601e-38 282 250
-0.046060063 0.70999998 -0.012448666 1.0054601e-38 283 250
-0.044688959 0.708 -0.0124136 1.0236464e-38 284 250
-0.043386232 0.70700002 -0.012396066 1.032866e-38 285 250
-0.042146627 0.70700002 -0.012396066 1.0605226e-38 286 250
-0.040849157 0.70599997 -0.012378532 1.0605226e-38 287 250
-0.039499093 0.704 -0.012343466 1.0697763e-38 288 250
-0.038264744 0.704 -0.012343466 1.078996e-38 289 250
-0.037030395 0.704 -0.012343466 1.0973626e-38 290 250
-0.035745207 0.70300001 -0.012325933 1.0881071e-38 291 250
-0.034414422 0.70099998 -0.012290866 1.0422611e-38 292 250
-0.03318534 0.70099998 -0.012290866 1.0237864e-38 293 250
-0.031956252 0.70099998 -0.012290866 1.014567e-38 294 250
-0.030683333 0.69999999 -0.012273333 1.0053476e-38 295 250
-0.029455997 0.69999999 -0.012273333 1.0053476e-38 296 250
-0.028228667 0.69999999 -0.012273333 1.0053476e-38 297 250
-0.026924185 0.69800001 -0.012238266 9.9612815e-39 298 250
-0.025700359 0.69800001 -0.012238266 9.6850575e-39 299 250
-0.024476532 0.69800001 -0.012238266 9.5003103e-39 300 250
-0.023252707 0.69800001 -0.012238266 9.5003103e-39 301 250
-0.02202888 0.69800001 -0.012238266 9.6836226e-39 302 250
-0.020805053 0.69800001 -0.012238266 9.6836226e-39 303 250
-0.019581227 0.69800001 -0.012238266 1.0050606e-38 304 250
-0.0183574 0.69800001 -0.012238266 1.01428e-38 305 250
-0.017133573 0.69800001 -0.012238266 1.0693454e-38 306 250
-0.015909746 0.69800001 -0.012238266 1.1338814e-38 307 250
-0.01468592 0.69800001 -0.012238266 1.1522485e-38 308 250
-0.013462093 0.69800001 -0.012238266 1.096932e-38 309 250
-0.012238266 0.69800001 -0.012238266 9.9555418e-39 310 250
-0.01101444 0.69800001 -0.012238266 9.8633475e-39 311 250
-0.0098186666 0.69999999 -0.012273333 9.4048875e-39 312 250
-0.0085913334 0.69999999 -0.012273333 9.2204991e-39 313 250
-0.0073639993 0.69999999 -0.012273333 9.2204991e-39 314 250
-0.0061366665 0.69999999 -0.012273333 9.0364693e-39 315 250
-0.0049093333 0.69999999 -0.012273333 8.9439164e-39 316 250
-0.0036819996 0.69999999 -0.012273333 9.0361106e-39 317 250
-0.0024581731 0.70099998 -0.012290866 8.9442751e-39 318 250
-0.0012290865 0.70099998 -0.012290866 8.9442751e-39 319 250
0 0.70099998 -0.012290866 8.9435576e-39 320 250
0.0012290865 0.70099998 -0.012290866 8.9435576e-39 321 250
0.0024651866 0.70300001 -0.012325933 8.8513634e-39 322 250
0.0037030398 0.704 -0.012343466 9.0357519e-39 323 250
0.0049373866 0.704 -0.012343466 9.3112584e-39 324 250
0.0061717331 0.704 -0.012343466 9.3112584e-39 325 250
0.0074060797 0.704 -0.012343466 9.3105465e-39 326 250
0.0086649731 0.70599997 -0.012378532 9.4031009e-39 327 250
0.0099168532 0.70700002 -0.012396066 9.3098458e-39 328 250
0.011203799 0.70999998 -0.012448666 9.2176502e-39 329 250
0.012448666 0.70999998 -0.012448666 9.6772215e-39 330 250
0.01371282 0.71100003 -0.0124662 1.0322591e-38 331 250
0.014959441 0.71100003 -0.0124662 1.0873637e-38 332 250
0.016251646 0.713 -0.012501267 1.0504856e-38 333 250
0.017526319 0.71399999 -0.012518799 1.0226465e-38 334 250
0.018778199 0.71399999 -0.012518799 9.6732908e-39 335 250
0.020030079 0.71399999 -0.012518799 8.109928e-39 336 250
0.021281958 0.71399999 -0.012518799 1.2719709e-38 337 250
-0.051255193 0.713 -0.013751393 1.1520806e-38 279 251
-0.049794663 0.70999998 -0.013693533 9.3120137e-39 280 251
-0.048549797 0.70999998 -0.013693533 1.0049579e-38 281 251
-0.047304932 0.70999998 -0.013693533 9.7776441e-39 282 251
-0.046060063 0.70999998 -0.013693533 9.7776441e-39 283 251
-0.044688959 0.708 -0.013654959 9.9605906e-39 284 251
-0.043386232 0.70700002 -0.013635674 1.0144622e-38 285 251
-0.042087011 0.70599997 -0.013616386 1.0421549e-38 286 251
-0.040733438 0.704 -0.013577812 1.0421549e-38 287 251
-0.039499093 0.704 -0.013577812 1.0697407e-38 288 251
-0.038264744 0.704 -0.013577812 1.0789604e-38 289 251
-0.036977798 0.70300001 -0.013558527 1.0972917e-38 290 251
-0.035745207 0.70300001 -0.013558527 1.0972917e-38 291 251
-0.034414422 0.70099998 -0.013519952 1.0605933e-38 292 251
-0.03318534 0.70099998 -0.013519952 1.0605933e-38 293 251
-0.031956252 0.70099998 -0.013519952 1.0146755e-38 294 251
-0.030683333 0.69999999 -0.013500666 1.0054559e-38 295 251
-0.029455997 0.69999999 -0.013500666 9.7790482e-39 296 251
-0.028148014 0.69800001 -0.013462093 9.6868526e-39 297 251
-0.026924185 0.69800001 -0.013462093 9.869446e-39 298 251
-0.025700359 0.69800001 -0.013462093 9.6850575e-39 299 251
-0.024476532 0.69800001 -0.013462093 9.5928633e-39 300 251
-0.023252707 0.69800001 -0.013462093 9.5006691e-39 301 251
-0.02202888 0.69800001 -0.013462093 9.2244451e-39 302 251
-0.020805053 0.69800001 -0.013462093 9.2244451e-39 303 251
-0.019581227 0.69800001 -0.013462093 9.6829051e-39 304 251
-0.0183574 0.69800001 -0.013462093 9.7750994e-39 305 251
-0.017133573 0.69800001 -0.013462093 9.9584116e-39 306 251
-0.015909746 0.69800001 -0.013462093 1.0603771e-38 307 251
-0.01468592 0.69800001 -0.013462093 1.1429932e-38 308 251
-0.013462093 0.69800001 -0.013462093 1.0876767e-38 309 251
-0.012238266 0.69800001 -0.013462093 9.6800353e-39 310 251
-0.01101444 0.69800001 -0.013462093 9.587841e-39 311 251
-0.0097906133 0.69800001 -0.013462093 9.129381e-39 312 251
-0.0085913334 0.69999999 -0.013500666 9.0371868e-39 313 251
-0.0073639993 0.69999999 -0.013500666 9.0361106e-39 314 251
-0.0061366665 0.69999999 -0.013500666 8.8517221e-39 315 251
-0.0049093333 0.69999999 -0.013500666 8.8513634e-39 316 251
-0.0036819996 0.69999999 -0.013500666 8.9439164e-39 317 251
-0.0024581731 0.70099998 -0.013519952 8.8520809e-39 318 251
-0.0012290865 0.70099998 -0.013519952 8.8520809e-39 319 251
0 0.70099998 -0.013519952 8.8520809e-39 320 251
0.0012290865 0.70099998 -0.013519952 8.8520809e-39 321 251
0.0024651866 0.70300001 -0.013558527 8.9431989e-39 322 251
0.0037030398 0.704 -0.013577812 8.9431989e-39 323 251
0.0049373866 0.704 -0.013577812 9.2187054e-39 324 251
0.0061717331 0.704 -0.013577812 9.1265112e-39 325 251
0.0074060797 0.704 -0.013577812 9.2187068e-39 326 251
0.0086649731 0.70599997 -0.013616386 9.2187068e-39 327 251
0.0099028256 0.70599997 -0.013616386 9.4013128e-39 328 251
0.01117224 0.708 -0.013654959 9.4013128e-39 329 251
0.012448666 0.70999998 -0.013693533 9.4928106e-39 330 251
0.013693533 0.70999998 -0.013693533 9.7693975e-39 331 251
0.014959441 0.71100003 -0.01371282 9.678669e-39 332 251
0.016251646 0.713 -0.013751393 9.678669e-39 333 251
0.017526319 0.71399999 -0.01377068 9.7661927e-39 334 251
0.018778199 0.71399999 -0.01377068 9.3052146e-39 335 251
0.020030079 0.71399999 -0.01377068 7.8322523e-39 336 251
0.021281958 0.71399999 -0.01377068 1.1796664e-38 337 251
0.022533838 0.71399999 -0.01377068 1.5576713e-38 338 251
-0.052578956 0.71399999 -0.015022559 1.3917532e-38 278 252
-0.051255193 0.713 -0.015001519 1.1520806e-38 279 252
-0.049864799 0.71100003 -0.014959441 9.5893194e-39 280 252
-0.048618179 0.71100003 -0.014959441 9.8659063e-39 281 252
-0.047371563 0.71100003 -0.014959441 9.5932501e-39 282 252
-0.046060063 0.70999998 -0.014938398 9.5932501e-39 283 252
-0.044688959 0.708 -0.01489632 9.5932472e-39 284 252
-0.043386232 0.70700002 -0.01487528 9.7776385e-39 285 252
-0.042087011 0.70599997 -0.014854239 9.9620101e-39 286 252
-0.040733438 0.704 -0.014812159 1.0238598e-38 287 252
-0.039499093 0.704 -0.014812159 1.0514813e-38 288 252
-0.038264744 0.704 -0.014812159 1.0607008e-38 289 252
-0.036977798 0.70300001 -0.014791119 1.0973991e-38 290 252
-0.035643511 0.70099998 -0.014749039 1.0973991e-38 291 252
-0.034414422 0.70099998 -0.014749039 1.0882519e-38 292 252
-0.03318534 0.70099998 -0.014749039 1.0882519e-38 293 252
-0.031910665 0.69999999 -0.014727999 1.0791045e-38 294 252
-0.030683333 0.69999999 -0.014727999 1.0514818e-38 295 252
-0.029371841 0.69800001 -0.01468592 1.0788877e-38 296 252
-0.028148014 0.69800001 -0.01468592 1.0696683e-38 297 252
-0.026924185 0.69800001 -0.01468592 1.0513012e-38 298 252
-0.025663542 0.69700003 -0.01466488 1.023607e-38 299 252
-0.024441468 0.69700003 -0.01466488 1.0052758e-38 300 252
-0.023219392 0.69700003 -0.01466488 9.6836226e-39 301 252
-0.02199732 0.69700003 -0.01466488 9.4999516e-39 302 252
-0.020805053 0.69800001 -0.01468592 9.4077574e-39 303 252
-0.019553173 0.69700003 -0.01466488 9.3152044e-39 304 252
-0.018331099 0.69700003 -0.01466488 9.3152044e-39 305 252
-0.017109027 0.69700003 -0.01466488 9.4070399e-39 306 252
-0.015886955 0.69700003 -0.01466488 9.6836254e-39 307 252
-0.01468592 0.69800001 -0.01468592 1.0050256e-38 308 252
-0.013442807 0.69700003 -0.01466488 9.6818331e-39 309 252
-0.012220734 0.69700003 -0.01466488 9.4045288e-39 310 252
-0.01099866 0.69700003 -0.01466488 9.2201403e-39 311 252
-0.0097906133 0.69800001 -0.01468592 8.7609628e-39 312 252
-0.0085667865 0.69800001 -0.01468592 8.6687686e-39 313 252
-0.0073639993 0.69999999 -0.014727999 8.8513634e-39 314 252
-0.0061366665 0.69999999 -0.014727999 8.7591692e-39 315 252
-0.0049093333 0.69999999 -0.014727999 8.4840214e-39 316 252
-0.0036819996 0.69999999 -0.014727999 8.4840214e-39 317 252
-0.0024546667 0.69999999 -0.014727999 8.7595279e-39 318 252
-0.0012290865 0.70099998 -0.014749039 8.7595279e-39 319 252
0 0.70099998 -0.014749039 8.7595279e-39 320 252
0.0012290865 0.70099998 -0.014749039 8.8517221e-39 321 252
0.0024651866 0.70300001 -0.014791119 8.7591692e-39 322 252
0.0036977797 0.70300001 -0.014791119 8.7591692e-39 323 252
0.0049373866 0.704 -0.014812159 8.8513634e-39 324 252
0.0061717331 0.704 -0.014812159 8.8513634e-39 325 252
0.0074060797 0.704 -0.014812159 8.9428416e-39 326 252
0.0086649731 0.70599997 -0.014854239 9.0350386e-39 327 252
0.0099028256 0.70599997 -0.014854239 9.2180033e-39 328 252
0.01117224 0.708 -0.01489632 9.2180033e-39 329 252
0.0124136 0.708 -0.01489632 9.3094927e-39 330 252
0.013693533 0.70999998 -0.014938398 9.3094927e-39 331 252
0.014959441 0.71100003 -0.014959441 9.3095109e-39 332 252
0.01620606 0.71100003 -0.014959441 9.4017066e-39 333 252
0.017526319 0.71399999 -0.015022559 9.3073571e-39 334 252
0.018778199 0.71399999 -0.015022559 8.6619877e-39 335 252
0.020030079 0.71399999 -0.015022559 7.1879549e-39 336 252
0.021281958 0.71399999 -0.015022559 1.0691389e-38 337 252
0.022533838 0.71399999 -0.015022559 1.4655114e-38 338 252
-0.052505318 0.713 -0.016251646 1.373422e-38 278 253
-0.051255193 0.713 -0.016251646 1.1336775e-38 279 253
-0.049864799 0.71100003 -0.01620606 9.5903942e-39 280 253
-0.048549797 0.70999998 -0.016183265 9.8669825e-39 281 253
-0.047304932 0.70999998 -0.016183265 9.4102881e-39 282 253
-0.046060063 0.70999998 -0.016183265 9.3177338e-39 283 253
-0.044688959 0.708 -0.01613768 9.7772658e-39 284 253
-0.043386232 0.70700002 -0.016114887 9.7772658e-39 285 253
-0.042087011 0.70599997 -0.016092092 9.962729e-39 286 253
-0.040733438 0.704 -0.016046507 1.0147122e-38 287 253
-0.039499093 0.704 -0.016046507 1.060738e-38 288 253
-0.038264744 0.704 -0.016046507 1.0699575e-38 289 253
-0.036977798 0.70300001 -0.016023712 1.0699222e-38 290 253
-0.035643511 0.70099998 -0.015978126 1.0791418e-38 291 253
-0.034414422 0.70099998 -0.015978126 1.0607769e-38 292 253
-0.033137999 0.69999999 -0.015955333 1.1253139e-38 293 253
-0.031910665 0.69999999 -0.015955333 1.1805609e-38 294 253
-0.030595668 0.69800001 -0.015909746 1.1252794e-38 295 253
-0.029371841 0.69800001 -0.015909746 1.0974385e-38 296 253
-0.028148014 0.69800001 -0.015909746 1.0421213e-38 297 253
-0.026885614 0.69700003 -0.015886955 1.0237152e-38 298 253
-0.025663542 0.69700003 -0.015886955 1.0052761e-38 299 253
-0.024441468 0.69700003 -0.015886955 9.7779692e-39 300 253
-0.023219392 0.69700003 -0.015886955 9.5013865e-39 301 253
-0.02199732 0.69700003 -0.015886955 9.5003103e-39 302 253
-0.020775247 0.69700003 -0.015886955 9.2240864e-39 303 253
-0.019553173 0.69700003 -0.015886955 8.9485799e-39 304 253
-0.018331099 0.69700003 -0.015886955 8.7641914e-39 305 253
-0.017109027 0.69700003 -0.015886955 9.4977992e-39 306 253
-0.015886955 0.69700003 -0.015886955 9.405605e-39 307 253
-0.01466488 0.69700003 -0.015886955 9.6800353e-39 308 253
-0.013442807 0.69700003 -0.015886955 9.4034526e-39 309 253
-0.0122032 0.69599998 -0.015864158 9.1268699e-39 310 253
-0.010982879 0.69599998 -0.015864158 9.1268699e-39 311 253
-0.0097906133 0.69800001 -0.015909746 8.5758569e-39 312 253
-0.0085667865 0.69800001 -0.015909746 8.5758569e-39 313 253
-0.0073429602 0.69800001 -0.015909746 8.5758569e-39 314 253
-0.0061366665 0.69999999 -0.015955333 8.4836627e-39 315 253
-0.0049093333 0.69999999 -0.015955333 8.4836627e-39 316 253
-0.0036819996 0.69999999 -0.015955333 8.5758569e-39 317 253
-0.0024546667 0.69999999 -0.015955333 8.8510047e-39 318 253
-0.0012273333 0.69999999 -0.015955333 8.8510047e-39 319 253
0 0.70099998 -0.015978126 8.7588104e-39 320 253
0.0012290865 0.70099998 -0.015978126 8.8510047e-39 321 253
0.0024581731 0.70099998 -0.015978126 8.8506459e-39 322 253
0.0036977797 0.70300001 -0.016023712 8.8506459e-39 323 253
0.0049303733 0.70300001 -0.016023712 8.7595279e-39 324 253
0.0061717331 0.704 -0.016046507 8.8517221e-39 325 253
0.0074060797 0.704 -0.016046507 9.1261524e-39 326 253
0.0086404262 0.704 -0.016046507 9.1261524e-39 327 253
0.0099028256 0.70599997 -0.016092092 9.3091172e-39 328 253
0.01117224 0.708 -0.01613768 9.3091172e-39 329 253
0.0124136 0.708 -0.01613768 9.308764e-39 330 253
0.013693533 0.70999998 -0.016183265 9.308764e-39 331 253
0.014938398 0.70999998 -0.016183265 9.3087696e-39 332 253
0.01620606 0.71100003 -0.01620606 9.0321828e-39 333 253
0.017501773 0.713 -0.016251646 9.1229463e-39 334 253
0.018778199 0.71399999 -0.016274439 8.7545239e-39 335 253
0.020086186 0.71600002 -0.016320027 7.7411132e-39 336 253
0.021341572 0.71600002 -0.016320027 1.0230035e-38 337 253
0.022596961 0.71600002 -0.016320027 1.3549479e-38 338 253
-0.053755447 0.713 -0.017501773 1.668055e-38 277 254
-0.052505318 0.713 -0.017501773 1.3549826e-38 278 254
-0.051255193 0.713 -0.017501773 1.1337131e-38 279 254
-0.049864799 0.71100003 -0.01745268 9.6825912e-39 280 254
-0.048549797 0.70999998 -0.017428132 9.9591781e-39 281 254
-0.047304932 0.70999998 -0.017428132 9.7769154e-39 282 254
-0.046060063 0.70999998 -0.017428132 9.5925256e-39 283 254
-0.044688959 0.708 -0.017379038 9.5014047e-39 284 254
-0.043386232 0.70700002 -0.017354494 9.5936004e-39 285 254
-0.042087011 0.70599997 -0.017329946 9.5032026e-39 286 254
-0.040733438 0.704 -0.017280852 9.8716264e-39 287 254
-0.039499093 0.704 -0.017280852 1.0239686e-38 288 254
-0.038210396 0.70300001 -0.017256306 1.0516631e-38 289 254
-0.036872596 0.70099998 -0.017207211 1.1251677e-38 290 254
-0.035643511 0.70099998 -0.017207211 1.1435708e-38 291 254
-0.034365334 0.69999999 -0.017182667 1.143681e-38 292 254
-0.033137999 0.69999999 -0.017182667 1.1713396e-38 293 254
-0.031819493 0.69800001 -0.017133573 1.2819785e-38 294 254
-0.030595668 0.69800001 -0.017133573 1.3096013e-38 295 254
-0.029371841 0.69800001 -0.017133573 1.2451725e-38 296 254
-0.028148014 0.69800001 -0.017133573 1.217478e-38 297 254
-0.026885614 0.69700003 -0.017109027 1.2355895e-38 298 254
-0.025663542 0.69700003 -0.017109027 1.097296e-38 299 254
-0.024441468 0.69700003 -0.017109027 1.0145322e-38 300 254
-0.023186078 0.69599998 -0.017084479 9.8690957e-39 301 254
-0.021965759 0.69599998 -0.017084479 9.6843401e-39 302 254
-0.020775247 0.69700003 -0.017109027 9.4995929e-39 303 254
-0.019553173 0.69700003 -0.017109027 9.2230102e-39 304 254
-0.018331099 0.69700003 -0.017109027 9.0389805e-39 305 254
-0.017109027 0.69700003 -0.017109027 8.854592e-39 306 254
-0.015886955 0.69700003 -0.017109027 8.6705623e-39 307 254
-0.01466488 0.69700003 -0.017109027 8.7609628e-39 308 254
-0.013423519 0.69599998 -0.017084479 8.5765744e-39 309 254
