# .PCD v.7 - Point Cloud Data file format
FIELDS x y z rgb imX imY
SIZE 4 4 4 4 4 4
TYPE F F F F F F
COUNT 1 1 1 1 1 1
WIDTH 864
HEIGHT 1
VIEWPOINT 0 0 0 1 0 0 0
POINTS 864
DATA ascii
-0.01068832 0.76200002 0.030728921 1.6040498e-38 312 217
-0.0093522798 0.76200002 0.030728921 1.5855748e-38 313 217
-0.0080162399 0.76200002 0.030728921 1.6315618e-38 314 217
-0.0066801999 0.76200002 0.030728921 1.5670248e-38 315 217
-0.0053441599 0.76200002 0.030728921 1.5946091e-38 316 217
-0.0040081199 0.76200002 0.030728921 1.57617e-38 317 217
-0.00267208 0.76200002 0.030728921 1.5944277e-38 318 217
-0.00133604 0.76200002 0.030728921 1.5759885e-38 319 217
0 0.76200002 0.030728921 1.5575849e-38 320 217
0.00133604 0.76200002 0.030728921 1.5391456e-38 321 217
0.00267208 0.76200002 0.030728921 1.5207059e-38 322 217
0.0040081199 0.76200002 0.030728921 1.5207059e-38 323 217
0.0053441599 0.76200002 0.030728921 1.4748602e-38 324 217
0.0066714329 0.76099998 0.030688593 1.1982739e-38 325 217
0.0080057196 0.76099998 0.030688593 8.5765744e-39 326 217
0.0093400059 0.76099998 0.030688593 1.0235712e-38 327 217
0.010674292 0.76099998 0.030688593 1.3458964e-38 328 217
0.01197702 0.759 0.030607941 1.4288365e-38 329 217
0.0133078 0.759 0.030607941 1.4747182e-38 330 217
0.01469644 0.76200002 0.030728921 1.4931213e-38 331 217
0.01603248 0.76200002 0.030728921 1.5205642e-38 332 217
0.017459691 0.76599997 0.030890226 1.5297838e-38 333 217
0.018802745 0.76599997 0.030890226 1.4839043e-38 334 217
0.020145798 0.76599997 0.030890226 1.493124e-38 335 217
0.021488851 0.76599997 0.030890226 1.4839807e-38 336 217
-0.016116638 0.76599997 0.029547172 1.7236579e-38 308 218
-0.014735013 0.764 0.029470026 1.659121e-38 309 218
-0.013395466 0.764 0.029470026 1.686631e-38 310 218
-0.01205592 0.764 0.029470026 1.6681919e-38 311 218
-0.010716373 0.764 0.029470026 1.6407458e-38 312 218
-0.0093768267 0.764 0.029470026 1.6315262e-38 313 218
-0.0080162399 0.76200002 0.029392879 1.6223048e-38 314 218
-0.0066801999 0.76200002 0.029392879 1.5854624e-38 315 218
-0.0053441599 0.76200002 0.029392879 1.5946076e-38 316 218
-0.0040081199 0.76200002 0.029392879 1.5761683e-38 317 218
-0.00267208 0.76200002 0.029392879 1.6127573e-38 318 218
-0.00133604 0.76200002 0.029392879 1.5850985e-38 319 218
0 0.76200002 0.029392879 1.5758421e-38 320 218
0.00133604 0.76200002 0.029392879 1.5665867e-38 321 218
0.00267208 0.76200002 0.029392879 1.5114851e-38 322 218
0.0040081199 0.76200002 0.029392879 1.4930099e-38 323 218
0.0053441599 0.76200002 0.029392879 1.4471662e-38 324 218
0.0066801999 0.76200002 0.029392879 1.2904695e-38 325 218
0.0080162399 0.76200002 0.029392879 9.8647825e-39 326 218
0.0093522798 0.76200002 0.029392879 9.40417e-39 327 218
0.010674292 0.76099998 0.029354304 1.2812512e-38 328 218
0.012008579 0.76099998 0.029354304 1.4287643e-38 329 218
0.013342866 0.76099998 0.029354304 1.465461e-38 330 218
0.01469644 0.76200002 0.029392879 1.465461e-38 331 218
0.01603248 0.76200002 0.029392879 1.520526e-38 332 218
0.017459691 0.76599997 0.029547172 1.5297457e-38 333 218
0.018802745 0.76599997 0.029547172 1.5206346e-38 334 218
0.020145798 0.76599997 0.029547172 1.5113791e-38 335 218
0.021488851 0.76599997 0.029547172 1.4470255e-38 336 218
0.022861714 0.76700002 0.029585747 1.5115624e-38 337 218
-0.017459691 0.76599997 0.028204117 1.7237674e-38 307 219
-0.016116638 0.76599997 0.028204117 1.6592615e-38 308 219
-0.014735013 0.764 0.028130481 1.6039443e-38 309 219
-0.013395466 0.764 0.028130481 1.6682249e-38 310 219
-0.01205592 0.764 0.028130481 1.6682249e-38 311 219
-0.010716373 0.764 0.028130481 1.6866974e-38 312 219
-0.0093768267 0.764 0.028130481 1.6498193e-38 313 219
-0.0080372803 0.764 0.028130481 1.6314501e-38 314 219
-0.0066801999 0.76200002 0.028056841 1.5946079e-38 315 219
-0.0053441599 0.76200002 0.028056841 1.6220844e-38 316 219
-0.0040081199 0.76200002 0.028056841 1.5852063e-38 317 219
-0.00267208 0.76200002 0.028056841 1.5943163e-38 318 219
-0.00133604 0.76200002 0.028056841 1.5850967e-38 319 219
0 0.76200002 0.028056841 1.5482905e-38 320 219
0.00133604 0.76200002 0.028056841 1.5298513e-38 321 219
0.00267208 0.76200002 0.028056841 1.4930099e-38 322 219
0.0040081199 0.76200002 0.028056841 1.4653873e-38 323 219
0.0053441599 0.76200002 0.028056841 1.4284029e-38 324 219
0.0066714329 0.76099998 0.028020019 1.363866e-38 325 219
0.0080057196 0.76099998 0.028020019 1.1338824e-38 326 219
0.0093522798 0.76200002 0.028056841 9.1265112e-39 327 219
0.01068832 0.76200002 0.028056841 1.2163905e-38 328 219
0.01202436 0.76200002 0.028056841 1.4468437e-38 329 219
0.0133604 0.76200002 0.028056841 1.4379099e-38 330 219
0.014735013 0.764 0.028130481 1.4471295e-38 331 219
0.016074561 0.764 0.028130481 1.4929752e-38 332 219
0.017459691 0.76599997 0.028204117 1.5021948e-38 333 219
0.018827293 0.76700002 0.02824094 1.5022301e-38 334 219
0.020172099 0.76700002 0.02824094 1.4930105e-38 335 219
0.021516906 0.76700002 0.02824094 1.493083e-38 336 219
0.022861714 0.76700002 0.02824094 1.4838633e-38 337 219
0.024206521 0.76700002 0.02824094 1.437986e-38 338 219
0.025551327 0.76700002 0.02824094 1.4564251e-38 339 219
0.026896132 0.76700002 0.02824094 1.4289894e-38 340 219
0.02824094 0.76700002 0.02824094 1.5764664e-38 341 219
-0.018802745 0.76599997 0.026861066 1.6592279e-38 306 220
-0.017459691 0.76599997 0.026861066 1.6131301e-38 307 220
-0.016074561 0.764 0.026790932 1.6132318e-38 308 220
-0.014735013 0.764 0.026790932 1.6224514e-38 309 220
-0.013395466 0.764 0.026790932 1.6683293e-38 310 220
-0.01205592 0.764 0.026790932 1.6683293e-38 311 220
-0.01068832 0.76200002 0.0267208 1.6682911e-38 312 220
-0.0093522798 0.76200002 0.0267208 1.6406684e-38 313 220
-0.0080162399 0.76200002 0.0267208 1.6405587e-38 314 220
-0.0066801999 0.76200002 0.0267208 1.631339e-38 315 220
-0.0053441599 0.76200002 0.0267208 1.6220823e-38 316 220
-0.0040081199 0.76200002 0.0267208 1.5944235e-38 317 220
-0.00267208 0.76200002 0.0267208 1.5943869e-38 318 220
-0.00133604 0.76200002 0.0267208 1.5666923e-38 319 220
0 0.76200002 0.0267208 1.5300299e-38 320 220
0.00133604 0.76200002 0.0267208 1.493116e-38 321 220
0.00267208 0.76200002 0.0267208 1.4654579e-38 322 220
0.0040081199 0.76200002 0.0267208 1.446983e-38 323 220
0.0053441599 0.76200002 0.0267208 1.3641882e-38 324 220
0.0066714329 0.76099998 0.026685731 1.3180905e-38 325 220
0.0080057196 0.76099998 0.026685731 1.1801231e-38 326 220
0.0093522798 0.76200002 0.0267208 9.1275874e-39 327 220
0.010674292 0.76099998 0.026685731 1.1062231e-38 328 220
0.012008579 0.76099998 0.026685731 1.3274919e-38 329 220
0.0133604 0.76200002 0.0267208 1.3918827e-38 330 220
0.01469644 0.76200002 0.0267208 1.410322e-38 331 220
0.016074561 0.764 0.026790932 1.5021202e-38 332 220
0.017414106 0.764 0.026790932 1.5113755e-38 333 220
0.018802745 0.76599997 0.026861066 1.5114114e-38 334 220
0.020145798 0.76599997 0.026861066 1.5206308e-38 335 220
0.021516906 0.76700002 0.026896132 1.4930809e-38 336 220
0.022831906 0.76599997 0.026861066 1.5023004e-38 337 220
0.024174958 0.76599997 0.026861066 1.456351e-38 338 220
0.025518013 0.76599997 0.026861066 1.4655706e-38 339 220
0.026861066 0.76599997 0.026861066 1.4012189e-38 340 220
0.028204117 0.76599997 0.026861066 1.4380971e-38 341 220
0.029547172 0.76599997 0.026861066 1.4474656e-38 342 220
-0.018753653 0.764 0.025451386 1.6223462e-38 306 221
-0.017414106 0.764 0.025451386 1.5946875e-38 307 221
-0.01603248 0.76200002 0.02538476 1.6315597e-38 308 221
-0.01469644 0.76200002 0.02538476 1.6315597e-38 309 221
-0.0133604 0.76200002 0.02538476 1.6592149e-38 310 221
-0.01202436 0.76200002 0.02538476 1.6499952e-38 311 221
-0.010674292 0.76099998 0.025351444 1.6590687e-38 312 221
-0.0093400059 0.76099998 0.025351444 1.6498133e-38 313 221
-0.0080057196 0.76099998 0.025351444 1.640592e-38 314 221
-0.0066714329 0.76099998 0.025351444 1.6221529e-38 315 221
-0.0053371461 0.76099998 0.025351444 1.6313356e-38 316 221
-0.0040028598 0.76099998 0.025351444 1.6037132e-38 317 221
-0.00266156 0.759 0.025284819 1.5852744e-38 318 221
-0.00133078 0.759 0.025284819 1.5668355e-38 319 221
0 0.76099998 0.025351444 1.4932954e-38 320 221
0.0013342865 0.76099998 0.025351444 1.4656012e-38 321 221
0.0026685731 0.76099998 0.025351444 1.4470907e-38 322 221
0.0040028598 0.76099998 0.025351444 1.4102488e-38 323 221
0.0053441599 0.76200002 0.02538476 1.3642235e-38 324 221
0.0066801999 0.76200002 0.02538476 1.3365293e-38 325 221
0.0080162399 0.76200002 0.02538476 1.2262913e-38 326 221
0.0093522798 0.76200002 0.02538476 9.7736644e-39 327 221
0.010674292 0.76099998 0.025351444 1.1153708e-38 328 221
0.012008579 0.76099998 0.025351444 1.3089806e-38 329 221
0.0133604 0.76200002 0.02538476 1.3641528e-38 330 221
0.01469644 0.76200002 0.02538476 1.4010671e-38 331 221
0.016074561 0.764 0.025451386 1.4562393e-38 332 221
0.017414106 0.764 0.025451386 1.4654589e-38 333 221
0.018753653 0.764 0.025451386 1.5022637e-38 334 221
0.020093199 0.764 0.025451386 1.5022637e-38 335 221
0.021432746 0.764 0.025451386 1.4839336e-38 336 221
0.022772292 0.764 0.025451386 1.4839336e-38 337 221
0.024111839 0.764 0.025451386 1.4656056e-38 338 221
0.025451386 0.764 0.025451386 1.4656056e-38 339 221
0.026790932 0.764 0.025451386 1.4288741e-38 340 221
0.028056841 0.76200002 0.02538476 1.4012154e-38 341 221
0.029392879 0.76200002 0.02538476 1.3828173e-38 342 221
0.030728921 0.76200002 0.02538476 1.4842325e-38 343 221
0.032064959 0.76200002 0.02538476 1.5579226e-38 344 221
-0.0200406 0.76200002 0.02404872 1.5947266e-38 305 222
-0.01870456 0.76200002 0.02404872 1.640711e-38 306 222
-0.01736852 0.76200002 0.02404872 1.6499306e-38 307 222
-0.01603248 0.76200002 0.02404872 1.6591458e-38 308 222
-0.014677152 0.76099998 0.024017159 1.6499262e-38 309 222
-0.013342866 0.76099998 0.024017159 1.6775444e-38 310 222
-0.012008579 0.76099998 0.024017159 1.6591053e-38 311 222
-0.01064624 0.759 0.023954039 1.6682507e-38 312 222
-0.00931546 0.759 0.023954039 1.6589951e-38 313 222
-0.0079846792 0.759 0.023954039 1.6681058e-38 314 222
-0.0066363667 0.75700003 0.02389092 1.6496668e-38 315 222
-0.0053090933 0.75700003 0.02389092 1.640555e-38 316 222
-0.0039818203 0.75700003 0.02389092 1.6129326e-38 317 222
-0.0026545466 0.75700003 0.02389092 1.566979e-38 318 222
-0.0013272733 0.75700003 0.02389092 1.5301372e-38 319 222
0 0.759 0.023954039 1.4749283e-38 320 222
0.00133078 0.759 0.023954039 1.4288312e-38 321 222
0.00266156 0.759 0.023954039 1.4378712e-38 322 222
0.0040028598 0.76099998 0.024017159 1.4102488e-38 323 222
0.0053371461 0.76099998 0.024017159 1.3641517e-38 324 222
0.0066714329 0.76099998 0.024017159 1.3457129e-38 325 222
0.0080162399 0.76200002 0.02404872 1.244625e-38 326 222
0.0093522798 0.76200002 0.02404872 1.0694893e-38 327 222
0.01068832 0.76200002 0.02404872 1.1154092e-38 328 222
0.01202436 0.76200002 0.02404872 1.2813255e-38 329 222
0.0133604 0.76200002 0.02404872 1.3641534e-38 330 222
0.01469644 0.76200002 0.02404872 1.3918121e-38 331 222
0.01603248 0.76200002 0.02404872 1.4562383e-38 332 222
0.01736852 0.76200002 0.02404872 1.5023354e-38 333 222
0.018753653 0.764 0.024111839 1.4838966e-38 334 222
0.020093199 0.764 0.024111839 1.5023713e-38 335 222
0.02137664 0.76200002 0.02404872 1.493116e-38 336 222
0.02271268 0.76200002 0.02404872 1.5023354e-38 337 222
0.02404872 0.76200002 0.02404872 1.4747859e-38 338 222
0.02538476 0.76200002 0.02404872 1.4747859e-38 339 222
0.0267208 0.76200002 0.02404872 1.4563857e-38 340 222
0.028056841 0.76200002 0.02404872 1.4563857e-38 341 222
0.029392879 0.76200002 0.02404872 1.4011447e-38 342 222
0.030728921 0.76200002 0.02404872 1.4011447e-38 343 222
0.032022879 0.76099998 0.024017159 1.4198417e-38 344 222
0.033357166 0.76099998 0.024017159 1.5396959e-38 345 222
-0.022682872 0.76099998 0.022682872 1.6960367e-38 303 223
-0.021348584 0.76099998 0.022682872 1.6315654e-38 304 223
-0.0200406 0.76200002 0.02271268 1.5762839e-38 305 223
-0.01870456 0.76200002 0.02271268 1.6315602e-38 306 223
-0.01736852 0.76200002 0.02271268 1.6407798e-38 307 223
-0.01603248 0.76200002 0.02271268 1.6683994e-38 308 223
-0.014677152 0.76099998 0.022682872 1.6499601e-38 309 223
-0.013342866 0.76099998 0.022682872 1.6867264e-38 310 223
-0.012008579 0.76099998 0.022682872 1.6591038e-38 311 223
-0.01064624 0.759 0.02262326 1.6682135e-38 312 223
-0.00931546 0.759 0.02262326 1.6589939e-38 313 223
-0.0079636406 0.75700003 0.022563647 1.6498103e-38 314 223
-0.0066188332 0.755 0.022504034 1.6498103e-38 315 223
-0.0052950666 0.755 0.022504034 1.6498103e-38 316 223
-0.0039712996 0.755 0.022504034 1.6129685e-38 317 223
-0.0026475333 0.755 0.022504034 1.5853103e-38 318 223
-0.0013237667 0.755 0.022504034 1.5392131e-38 319 223
0 0.75700003 0.022563647 1.4472341e-38 320 223
0.00133078 0.759 0.02262326 1.4195759e-38 321 223
0.00266156 0.759 0.02262326 1.4010294e-38 322 223
0.0039923396 0.759 0.02262326 1.373407e-38 323 223
0.0053371461 0.76099998 0.022682872 1.3456417e-38 324 223
0.0066714329 0.76099998 0.022682872 1.318019e-38 325 223
0.0080057196 0.76099998 0.022682872 1.2628143e-38 326 223
0.0093400059 0.76099998 0.022682872 1.1798382e-38 327 223
0.010674292 0.76099998 0.022682872 1.0328311e-38 328 223
0.01202436 0.76200002 0.02271268 1.1434657e-38 329 223
0.0133604 0.76200002 0.02271268 1.3364967e-38 330 223
0.01469644 0.76200002 0.02271268 1.3825945e-38 331 223
0.01603248 0.76200002 0.02271268 1.4377999e-38 332 223
0.01736852 0.76200002 0.02271268 1.4654945e-38 333 223
0.01870456 0.76200002 0.02271268 1.4655295e-38 334 223
0.0200406 0.76200002 0.02271268 1.4840042e-38 335 223
0.02137664 0.76200002 0.02271268 1.4747848e-38 336 223
0.02271268 0.76200002 0.02271268 1.4840042e-38 337 223
0.02404872 0.76200002 0.02271268 1.4748212e-38 338 223
0.02538476 0.76200002 0.02271268 1.4748212e-38 339 223
0.0267208 0.76200002 0.02271268 1.456349e-38 340 223
0.028056841 0.76200002 0.02271268 1.456349e-38 341 223
0.029392879 0.76200002 0.02271268 1.4286573e-38 342 223
0.030728921 0.76200002 0.02271268 1.4286573e-38 343 223
0.032022879 0.76099998 0.022682872 1.3919999e-38 344 223
0.033357166 0.76099998 0.022682872 1.4841956e-38 345 223
0.034691449 0.76099998 0.022682872 1.5856164e-38 346 223
-0.024017159 0.76099998 0.021348584 1.7053986e-38 302 224
-0.022682872 0.76099998 0.021348584 1.5855443e-38 303 224
-0.021348584 0.76099998 0.021348584 1.5946837e-38 304 224
-0.0200406 0.76200002 0.02137664 1.5946837e-38 305 224
-0.018680012 0.76099998 0.021348584 1.6316286e-38 306 224
-0.017345725 0.76099998 0.021348584 1.6500319e-38 307 224
-0.016011439 0.76099998 0.021348584 1.6775811e-38 308 224
-0.014677152 0.76099998 0.021348584 1.6683614e-38 309 224
-0.013342866 0.76099998 0.021348584 1.6775053e-38 310 224
-0.01197702 0.759 0.02129248 1.6682858e-38 311 224
-0.01064624 0.759 0.02129248 1.6590656e-38 312 224
-0.0092909131 0.75700003 0.021236373 1.6406268e-38 313 224
-0.0079636406 0.75700003 0.021236373 1.6498103e-38 314 224
-0.0066188332 0.755 0.021180267 1.6405909e-38 315 224
-0.0052950666 0.755 0.021180267 1.6313356e-38 316 224
-0.0039712996 0.755 0.021180267 1.5944579e-38 317 224
-0.0026475333 0.755 0.021180267 1.5299946e-38 318 224
-0.0013237667 0.755 0.021180267 1.5023357e-38 319 224
0 0.755 0.021180267 1.4562746e-38 320 224
0.0013272733 0.75700003 0.021236373 1.4101771e-38 321 224
0.0026545466 0.75700003 0.021236373 1.373443e-38 322 224
0.0039923396 0.759 0.02129248 1.3366011e-38 323 224
0.0053371461 0.76099998 0.021348584 1.3088713e-38 324 224
0.0066714329 0.76099998 0.021348584 1.2627739e-38 325 224
0.0080057196 0.76099998 0.021348584 1.2351904e-38 326 224
0.0093400059 0.76099998 0.021348584 1.133811e-38 327 224
0.010674292 0.76099998 0.021348584 9.6832905e-39 328 224
0.01202436 0.76200002 0.02137664 1.0789638e-38 329 224
0.0133604 0.76200002 0.02137664 1.2812512e-38 330 224
0.01469644 0.76200002 0.02137664 1.3089459e-38 331 224
0.01603248 0.76200002 0.02137664 1.3642235e-38 332 224
0.01736852 0.76200002 0.02137664 1.3826626e-38 333 224
0.01870456 0.76200002 0.02137664 1.4380506e-38 334 224
0.0200406 0.76200002 0.02137664 1.4564897e-38 335 224
0.02137664 0.76200002 0.02137664 1.4748565e-38 336 224
0.02271268 0.76200002 0.02137664 1.4748565e-38 337 224
0.02404872 0.76200002 0.02137664 1.5023354e-38 338 224
0.025351444 0.76099998 0.021348584 1.5023354e-38 339 224
0.026685731 0.76099998 0.021348584 1.4747153e-38 340 224
0.028056841 0.76200002 0.02137664 1.4839709e-38 341 224
0.029392879 0.76200002 0.02137664 1.4654984e-38 342 224
0.030728921 0.76200002 0.02137664 1.4654984e-38 343 224
0.032022879 0.76099998 0.021348584 1.3734863e-38 344 224
0.033357166 0.76099998 0.021348584 1.401145e-38 345 224
0.034691449 0.76099998 0.021348584 1.4750873e-38 346 224
0.036025736 0.76099998 0.021348584 1.5949058e-38 347 224
-0.025351444 0.76099998 0.020014299 1.705473e-38 301 225
-0.024017159 0.76099998 0.020014299 1.6501866e-38 302 225
-0.022682872 0.76099998 0.020014299 1.5579908e-38 303 225
-0.021348584 0.76099998 0.020014299 1.5670946e-38 304 225
-0.020014299 0.76099998 0.020014299 1.5855696e-38 305 225
-0.018680012 0.76099998 0.020014299 1.6316634e-38 306 225
-0.017345725 0.76099998 0.020014299 1.6685416e-38 307 225
-0.016011439 0.76099998 0.020014299 1.6776513e-38 308 225
-0.014638579 0.759 0.0199617 1.6684318e-38 309 225
-0.0133078 0.759 0.0199617 1.6775406e-38 310 225
-0.01194546 0.75700003 0.019909101 1.6590656e-38 311 225
-0.010590133 0.755 0.0198565 1.6498103e-38 312 225
-0.0092663663 0.755 0.0198565 1.6590656e-38 313 225
-0.0079425992 0.755 0.0198565 1.6405909e-38 314 225
-0.0066188332 0.755 0.0198565 1.6313715e-38 315 225
-0.0052950666 0.755 0.0198565 1.5853103e-38 316 225
-0.0039712996 0.755 0.0198565 1.5484326e-38 317 225
-0.0026475333 0.755 0.0198565 1.5022996e-38 318 225
-0.0013237667 0.755 0.0198565 1.4838607e-38 319 225
0 0.755 0.0198565 1.4287594e-38 320 225
0.0013272733 0.75700003 0.019909101 1.3826623e-38 321 225
0.0026545466 0.75700003 0.019909101 1.3366011e-38 322 225
0.0039923396 0.759 0.0199617 1.2904681e-38 323 225
0.0053371461 0.76099998 0.020014299 1.2260039e-38 324 225
0.0066714329 0.76099998 0.020014299 1.1983097e-38 325 225
0.0080057196 0.76099998 0.020014299 1.1613971e-38 326 225
0.0093400059 0.76099998 0.020014299 1.1060799e-38 327 225
0.010674292 0.76099998 0.020014299 1.0506572e-38 328 225
0.01202436 0.76200002 0.0200406 1.1059745e-38 329 225
0.0133604 0.76200002 0.0200406 1.1889481e-38 330 225
0.01469644 0.76200002 0.0200406 1.253485e-38 331 225
0.01603248 0.76200002 0.0200406 1.3181622e-38 332 225
0.01736852 0.76200002 0.0200406 1.3550765e-38 333 225
0.01870456 0.76200002 0.0200406 1.4473065e-38 334 225
0.020014299 0.76099998 0.020014299 1.4565619e-38 335 225
0.021348584 0.76099998 0.020014299 1.4657096e-38 336 225
0.022682872 0.76099998 0.020014299 1.4657096e-38 337 225
0.024017159 0.76099998 0.020014299 1.4931885e-38 338 225
0.025351444 0.76099998 0.020014299 1.4931885e-38 339 225
0.026685731 0.76099998 0.020014299 1.4839353e-38 340 225
0.028020019 0.76099998 0.020014299 1.4931548e-38 341 225
0.029392879 0.76200002 0.0200406 1.4656056e-38 342 225
0.030728921 0.76200002 0.0200406 1.456386e-38 343 225
0.032022879 0.76099998 0.020014299 1.4194743e-38 344 225
0.033357166 0.76099998 0.020014299 1.4194743e-38 345 225
0.034737039 0.76200002 0.0200406 1.3644147e-38 346 225
0.036073081 0.76200002 0.0200406 1.5119279e-38 347 225
-0.025351444 0.76099998 0.018680012 1.6042005e-38 301 226
-0.024017159 0.76099998 0.018680012 1.6316714e-38 302 226
-0.022682872 0.76099998 0.018680012 1.5579147e-38 303 226
-0.021348584 0.76099998 0.018680012 1.6131905e-38 304 226
-0.020014299 0.76099998 0.018680012 1.62241e-38 305 226
-0.018680012 0.76099998 0.018680012 1.6593221e-38 306 226
-0.017300138 0.759 0.01863092 1.6777612e-38 307 226
-0.015969358 0.759 0.01863092 1.7052009e-38 308 226
-0.014600007 0.75700003 0.018581826 1.6867617e-38 309 226
-0.013272733 0.75700003 0.018581826 1.6775045e-38 310 226
-0.011913899 0.755 0.018532733 1.6590298e-38 311 226
-0.010590133 0.755 0.018532733 1.6590298e-38 312 226
-0.0092663663 0.755 0.018532733 1.6405909e-38 313 226
-0.00793208 0.75400001 0.018508185 1.6405192e-38 314 226
-0.0066100666 0.75400001 0.018508185 1.6312997e-38 315 226
-0.0052880533 0.75400001 0.018508185 1.5577955e-38 316 226
-0.00396604 0.75400001 0.018508185 1.5116984e-38 317 226
-0.0026475333 0.755 0.018532733 1.4931519e-38 318 226
-0.0013237667 0.755 0.018532733 1.4563101e-38 319 226
0 0.755 0.018532733 1.4011012e-38 320 226
0.0013272733 0.75700003 0.018581826 1.3642235e-38 321 226
0.0026545466 0.75700003 0.018581826 1.2996875e-38 322 226
0.0039923396 0.759 0.01863092 1.2535904e-38 323 226
0.0053371461 0.76099998 0.018680012 1.1890903e-38 324 226
0.0066714329 0.76099998 0.018680012 1.1429932e-38 325 226
0.0080057196 0.76099998 0.018680012 1.1061521e-38 326 226
0.0093522798 0.76200002 0.01870456 1.0508348e-38 327 226
0.01068832 0.76200002 0.01870456 1.0047033e-38 328 226
0.01202436 0.76200002 0.01870456 1.0231783e-38 329 226
0.0133604 0.76200002 0.01870456 1.0693454e-38 330 226
0.01469644 0.76200002 0.01870456 1.1062597e-38 331 226
0.016011439 0.76099998 0.018680012 1.2720651e-38 332 226
0.017345725 0.76099998 0.018680012 1.3458572e-38 333 226
0.018680012 0.76099998 0.018680012 1.4473067e-38 334 226
0.020014299 0.76099998 0.018680012 1.465746e-38 335 226
0.021348584 0.76099998 0.018680012 1.4933327e-38 336 226
0.022682872 0.76099998 0.018680012 1.4933327e-38 337 226
0.023954039 0.759 0.01863092 1.5391065e-38 338 226
0.025284819 0.759 0.01863092 1.5483261e-38 339 226
0.026615599 0.759 0.01863092 1.5207049e-38 340 226
0.028020019 0.76099998 0.018680012 1.5299245e-38 341 226
0.029354304 0.76099998 0.018680012 1.4931551e-38 342 226
0.030688593 0.76099998 0.018680012 1.4839356e-38 343 226
0.032022879 0.76099998 0.018680012 1.465534e-38 344 226
0.033357166 0.76099998 0.018680012 1.4378393e-38 345 226
0.034691449 0.76099998 0.018680012 1.3549771e-38 346 226
0.036025736 0.76099998 0.018680012 1.4379532e-38 347 226
0.037360024 0.76099998 0.018680012 1.5762175e-38 348 226
-0.025351444 0.76099998 0.017345725 1.5488808e-38 301 227
-0.024017159 0.76099998 0.017345725 1.585499e-38 302 227
-0.022682872 0.76099998 0.017345725 1.5762794e-38 303 227
-0.021348584 0.76099998 0.017345725 1.622481e-38 304 227
-0.020014299 0.76099998 0.017345725 1.6409202e-38 305 227
-0.01863092 0.759 0.017300138 1.7055288e-38 306 227
-0.017300138 0.759 0.017300138 1.6686864e-38 307 227
-0.015927281 0.75700003 0.017254554 1.6869782e-38 308 227
-0.014561433 0.755 0.017208965 1.6409163e-38 309 227
-0.013237666 0.755 0.017208965 1.6683209e-38 310 227
-0.011913899 0.755 0.017208965 1.6591015e-38 311 227
-0.010576107 0.75400001 0.017186172 1.6498103e-38 312 227
-0.0092540924 0.75400001 0.017186172 1.6313715e-38 313 227
-0.00793208 0.75400001 0.017186172 1.5944579e-38 314 227
-0.0066100666 0.75400001 0.017186172 1.5667997e-38 315 227
-0.0052880533 0.75400001 0.017186172 1.4932595e-38 316 227
-0.00396604 0.75400001 0.017186172 1.4656012e-38 317 227
-0.0026440267 0.75400001 0.017186172 1.4656012e-38 318 227
-0.0013220133 0.75400001 0.017186172 1.4195041e-38 319 227
0 0.755 0.017208965 1.3734077e-38 320 227
0.0013237667 0.755 0.017208965 1.2996516e-38 321 227
0.0026475333 0.755 0.017208965 1.1889468e-38 322 227
0.0039818203 0.75700003 0.017254554 1.1612885e-38 323 227
0.0053371461 0.76099998 0.017345725 1.1334509e-38 324 227
0.0066714329 0.76099998 0.017345725 1.0504761e-38 325 227
0.0080162399 0.76200002 0.01736852 9.3083885e-39 326 227
0.0093522798 0.76200002 0.01736852 9.492777e-39 327 227
0.01068832 0.76200002 0.01736852 9.216553e-39 328 227
0.01202436 0.76200002 0.01736852 8.7555819e-39 329 227
0.0133604 0.76200002 0.01736852 9.0361106e-39 330 227
0.01469644 0.76200002 0.01736852 1.0049888e-38 331 227
0.016011439 0.76099998 0.017345725 1.2445145e-38 332 227
0.017345725 0.76099998 0.017345725 1.3182708e-38 333 227
0.018680012 0.76099998 0.017345725 1.4473444e-38 334 227
0.0199617 0.759 0.017300138 1.4934421e-38 335 227
0.02129248 0.759 0.017300138 1.4933349e-38 336 227
0.02262326 0.759 0.017300138 1.511738e-38 337 227
0.023827799 0.755 0.017208965 1.530033e-38 338 227
0.025151566 0.755 0.017208965 1.530033e-38 339 227
0.026475333 0.755 0.017208965 1.5024822e-38 340 227
0.027799098 0.755 0.017208965 1.5024822e-38 341 227
0.029122867 0.755 0.017208965 1.4841156e-38 342 227
0.030607941 0.759 0.017300138 1.4656406e-38 343 227
0.032022879 0.76099998 0.017345725 1.4380548e-38 344 227
0.033357166 0.76099998 0.017345725 1.4288352e-38 345 227
0.034691449 0.76099998 0.017345725 1.4101847e-38 346 227
0.036025736 0.76099998 0.017345725 1.4286239e-38 347 227
0.037360024 0.76099998 0.017345725 1.4472856e-38 348 227
-0.025351444 0.76099998 0.016011439 1.5028534e-38 301 228
-0.024017159 0.76099998 0.016011439 1.6039009e-38 302 228
-0.02262326 0.759 0.015969358 1.6131204e-38 303 228
-0.02129248 0.759 0.015969358 1.6409202e-38 304 228
-0.0199617 0.759 0.015969358 1.6777625e-38 305 228
-0.018581826 0.75700003 0.015927281 1.6962729e-38 306 228
-0.017254554 0.75700003 0.015927281 1.6962729e-38 307 228
-0.015885198 0.755 0.015885198 1.7144927e-38 308 228
-0.014561433 0.755 0.015885198 1.6776145e-38 309 228
-0.013220133 0.75400001 0.01586416 1.6776121e-38 310 228
-0.01189812 0.75400001 0.01586416 1.631515e-38 311 228
-0.010576107 0.75400001 0.01586416 1.6497745e-38 312 228
-0.0092295464 0.75199997 0.015822079 1.6220803e-38 313 228
-0.0079110395 0.75199997 0.015822079 1.5852026e-38 314 228
-0.0066100666 0.75400001 0.01586416 1.5483608e-38 315 228
-0.0052880533 0.75400001 0.01586416 1.4840042e-38 316 228
-0.00396604 0.75400001 0.01586416 1.4655654e-38 317 228
-0.0026440267 0.75400001 0.01586416 1.4470907e-38 318 228
-0.0013220133 0.75400001 0.01586416 1.4194324e-38 319 228
0 0.75400001 0.01586416 1.3181272e-38 320 228
0.0013237667 0.755 0.015885198 1.26281e-38 321 228
0.0026475333 0.755 0.015885198 1.1521054e-38 322 228
0.0039712996 0.755 0.015885198 1.0967885e-38 323 228
0.0053231199 0.759 0.015969358 1.0505837e-38 324 228
0.0066714329 0.76099998 0.016011439 9.3073123e-39 325 228
0.0080057196 0.76099998 0.016011439 8.477923e-39 326 228
0.0093522798 0.76200002 0.01603248 8.8463412e-39 327 228
0.01068832 0.76200002 0.01603248 8.2942674e-39 328 228
0.01202436 0.76200002 0.01603248 7.7410936e-39 329 228
0.0133604 0.76200002 0.01603248 7.4702436e-39 330 228
0.014677152 0.76099998 0.016011439 8.7609684e-39 331 228
0.016011439 0.76099998 0.016011439 1.2352595e-38 332 228
0.017345725 0.76099998 0.016011439 1.3274551e-38 333 228
0.01863092 0.759 0.015969358 1.4841153e-38 334 228
0.0198565 0.755 0.015885198 1.5394327e-38 335 228
0.021180267 0.755 0.015885198 1.520958e-38 336 228
0.022504034 0.755 0.015885198 1.5117383e-38 337 228
0.02379624 0.75400001 0.01586416 1.5300683e-38 338 228
0.025118252 0.75400001 0.01586416 1.5300683e-38 339 228
0.026440267 0.75400001 0.01586416 1.5300683e-38 340 228
0.027762281 0.75400001 0.01586416 1.5116293e-38 341 228
0.029084291 0.75400001 0.01586416 1.5024103e-38 342 228
0.030446632 0.755 0.015885198 1.4931548e-38 343 228
0.031938717 0.759 0.015969358 1.456349e-38 344 228
0.033269498 0.759 0.015969358 1.456349e-38 345 228
0.034600276 0.759 0.015969358 1.4103984e-38 346 228
0.035931058 0.759 0.015969358 1.3734841e-38 347 228
0.03726184 0.759 0.015969358 1.3919295e-38 348 228
0.038694311 0.76099998 0.016011439 1.5394427e-38 349 228
-0.026685731 0.76099998 0.014677152 1.6226331e-38 300 229
-0.025351444 0.76099998 0.014677152 1.4935593e-38 301 229
-0.023954039 0.759 0.014638579 1.6223387e-38 302 229
-0.02262326 0.759 0.014638579 1.6315584e-38 303 229
-0.02129248 0.759 0.014638579 1.6776558e-38 304 229
-0.0199617 0.759 0.014638579 1.7329732e-38 305 229
-0.018581826 0.75700003 0.014600007 1.7054937e-38 306 229
-0.017208965 0.755 0.014561433 1.6962742e-38 307 229
-0.015885198 0.755 0.014561433 1.7054176e-38 308 229
-0.014542146 0.75400001 0.014542146 1.6501003e-38 309 229
-0.013220133 0.75400001 0.014542146 1.6867957e-38 310 229
-0.011866559 0.75199997 0.014503572 1.6407344e-38 311 229
-0.010548052 0.75199997 0.014503572 1.6497745e-38 312 229
-0.0092295464 0.75199997 0.014503572 1.6313356e-38 313 229
-0.0079110395 0.75199997 0.014503572 1.5576879e-38 314 229
-0.0065925326 0.75199997 0.014503572 1.539249e-38 315 229
-0.0052740262 0.75199997 0.014503572 1.5023354e-38 316 229
-0.0039555198 0.75199997 0.014503572 1.493116e-38 317 229
-0.0026440267 0.75400001 0.014542146 1.4471279e-38 318 229
-0.0013220133 0.75400001 0.014542146 1.4194334e-38 319 229
0 0.75400001 0.014542146 1.3364224e-38 320 229
0.0013220133 0.75400001 0.014542146 1.2811052e-38 321 229
0.0026440267 0.75400001 0.014542146 1.1794763e-38 322 229
0.0039712996 0.755 0.014561433 1.0872462e-38 323 229
0.0053090933 0.75700003 0.014600007 9.7650548e-39 324 229
0.0066538998 0.759 0.014638579 8.0137232e-39 325 229
0.0080057196 0.76099998 0.014677152 7.1846926e-39 326 229
0.0093522798 0.76200002 0.01469644 8.0144407e-39 327 229
0.01068832 0.76200002 0.01469644 7.8296963e-39 328 229
0.012008579 0.76099998 0.014677152 7.091781e-39 329 229
0.013342866 0.76099998 0.014677152 6.8227316e-39 330 229
0.014677152 0.76099998 0.014677152 8.8510103e-39 331 229
0.015969358 0.759 0.014638579 1.2535556e-38 332 229
0.017300138 0.759 0.014638579 1.3918491e-38 333 229
0.018532733 0.755 0.014561433 1.5118113e-38 334 229
0.0198565 0.755 0.014561433 1.539434e-38 335 229
0.021152213 0.75400001 0.014542146 1.5209227e-38 336 229
0.022474226 0.75400001 0.014542146 1.5209227e-38 337 229
0.02379624 0.75400001 0.014542146 1.520956e-38 338 229
0.025051624 0.75199997 0.014503572 1.5117365e-38 339 229
0.02637013 0.75199997 0.014503572 1.5300311e-38 340 229
0.027762281 0.75400001 0.014542146 1.5300311e-38 341 229
0.029084291 0.75400001 0.014542146 1.5115214e-38 342 229
0.030406307 0.75400001 0.014542146 1.5115214e-38 343 229
0.03172832 0.75400001 0.014542146 1.4656041e-38 344 229
0.033094164 0.755 0.014561433 1.4563843e-38 345 229
0.034509107 0.75700003 0.014600007 1.4287632e-38 346 229
0.035931058 0.759 0.014638579 1.3918491e-38 347 229
0.03726184 0.759 0.014638579 1.345757e-38 348 229
0.038694311 0.76099998 0.014677152 1.5025255e-38 349 229
-0.026685731 0.76099998 0.013342866 1.5948284e-38 300 230
-0.025351444 0.76099998 0.013342866 1.5210719e-38 301 230
-0.023954039 0.759 0.0133078 1.6223735e-38 302 230
-0.02262326 0.759 0.0133078 1.631593e-38 303 230
-0.02129248 0.759 0.0133078 1.6593609e-38 304 230
-0.0199617 0.759 0.0133078 1.7238978e-38 305 230
-0.018581826 0.75700003 0.013272733 1.7422644e-38 306 230
-0.017208965 0.755 0.013237666 1.7146417e-38 307 230
-0.01586416 0.75400001 0.013220133 1.7237489e-38 308 230
-0.014542146 0.75400001 0.013220133 1.6684674e-38 309 230
-0.013220133 0.75400001 0.013220133 1.6867957e-38 310 230
-0.011835 0.75 0.01315 1.6591015e-38 311 230
-0.01052 0.75 0.01315 1.6498103e-38 312 230
-0.0092049995 0.75 0.01315 1.6129685e-38 313 230
-0.00789 0.75 0.01315 1.5853461e-38 314 230
-0.006575 0.75 0.01315 1.5576879e-38 315 230
-0.00526 0.75 0.01315 1.5667279e-38 316 230
-0.003945 0.75 0.01315 1.5482891e-38 317 230
-0.0026370131 0.75199997 0.013185065 1.4655661e-38 318 230
-0.0013185065 0.75199997 0.013185065 1.4379434e-38 319 230
0 0.75199997 0.013185065 1.4377284e-38 320 230
0.0013185065 0.75199997 0.013185065 1.3824112e-38 321 230
0.0026370131 0.75199997 0.013185065 1.3360988e-38 322 230
0.00396604 0.75400001 0.013220133 1.2346852e-38 323 230
0.0052950666 0.755 0.013237666 1.0593368e-38 324 230
0.0066363667 0.75700003 0.013272733 7.6431527e-39 325 230
0.0079846792 0.759 0.0133078 5.0681714e-39 326 230
0.0093400059 0.76099998 0.013342866 6.0826667e-39 327 230
0.010674292 0.76099998 0.013342866 6.6300923e-39 328 230
0.012008579 0.76099998 0.013342866 6.1687625e-39 329 230
0.0133078 0.759 0.0133078 7.6474574e-39 330 230
0.014638579 0.759 0.0133078 1.0228911e-38 331 230
0.015885198 0.755 0.013237666 1.3087285e-38 332 230
0.017208965 0.755 0.013237666 1.4378024e-38 333 230
0.018508185 0.75400001 0.013220133 1.5118466e-38 334 230
0.019830201 0.75400001 0.013220133 1.5210662e-38 335 230
0.021152213 0.75400001 0.013220133 1.5209577e-38 336 230
0.022414612 0.75199997 0.013185065 1.511738e-38 337 230
0.023733119 0.75199997 0.013185065 1.5301033e-38 338 230
0.025051624 0.75199997 0.013185065 1.5117002e-38 339 230
0.02637013 0.75199997 0.013185065 1.5483258e-38 340 230
0.027688639 0.75199997 0.013185065 1.5483258e-38 341 230
0.029007144 0.75199997 0.013185065 1.5115201e-38 342 230
0.030325651 0.75199997 0.013185065 1.5115201e-38 343 230
0.03172832 0.75400001 0.013220133 1.4840056e-38 344 230
0.033094164 0.755 0.013237666 1.4747859e-38 345 230
0.034417931 0.755 0.013237666 1.4471645e-38 346 230
0.035741698 0.755 0.013237666 1.4103223e-38 347 230
0.037163652 0.75700003 0.013272733 1.3824888e-38 348 230
-0.028020019 0.76099998 0.012008579 1.5029632e-38 299 231
-0.026615599 0.759 0.01197702 1.5854287e-38 300 231
-0.025284819 0.759 0.01197702 1.5762091e-38 301 231
-0.023954039 0.759 0.01197702 1.6039709e-38 302 231
-0.02262326 0.759 0.01197702 1.62241e-38 303 231
-0.02129248 0.759 0.01197702 1.6593609e-38 304 231
-0.0199617 0.759 0.01197702 1.7054587e-38 305 231
-0.018581826 0.75700003 0.01194546 1.7239331e-38 306 231
-0.017186172 0.75400001 0.01189812 1.6962745e-38 307 231
-0.01586416 0.75400001 0.01189812 1.7237845e-38 308 231
-0.014503572 0.75199997 0.011866559 1.6684671e-38 309 231
-0.013185065 0.75199997 0.011866559 1.6959075e-38 310 231
-0.011835 0.75 0.011835 1.6775045e-38 311 231
-0.010505973 0.74900001 0.01181922 1.6683209e-38 312 231
-0.0091927266 0.74900001 0.01181922 1.6406268e-38 313 231
-0.0078794798 0.74900001 0.01181922 1.6129685e-38 314 231
-0.006575 0.75 0.011835 1.5945297e-38 315 231
-0.00526 0.75 0.011835 1.6035697e-38 316 231
-0.003945 0.75 0.011835 1.5667279e-38 317 231
-0.00263 0.75 0.011835 1.5116266e-38 318 231
-0.001315 0.75 0.011835 1.4931519e-38 319 231
0 0.75 0.011835 1.4838607e-38 320 231
0.0013185065 0.75199997 0.011866559 1.4470189e-38 321 231
0.0026370131 0.75199997 0.011866559 1.4375128e-38 322 231
0.0039555198 0.75199997 0.011866559 1.3545736e-38 323 231
0.0052740262 0.75199997 0.011866559 1.1886598e-38 324 231
0.0066100666 0.75400001 0.01189812 9.3051599e-39 325 231
0.0079636406 0.75700003 0.01194546 6.5378981e-39 326 231
0.00931546 0.759 0.01197702 6.2616742e-39 327 231
0.01064624 0.759 0.01197702 5.7088675e-39 328 231
0.01194546 0.75700003 0.01194546 6.1698387e-39 329 231
0.013272733 0.75700003 0.01194546 8.2931758e-39 330 231
0.014561433 0.755 0.011913899 1.0874645e-38 331 231
0.015885198 0.755 0.011913899 1.3548617e-38 332 231
0.017186172 0.75400001 0.01189812 1.4378377e-38 333 231
0.018459093 0.75199997 0.011866559 1.5210283e-38 334 231
0.0197776 0.75199997 0.011866559 1.5302479e-38 335 231
0.021096105 0.75199997 0.011866559 1.520921e-38 336 231
0.022414612 0.75199997 0.011866559 1.5117014e-38 337 231
0.023733119 0.75199997 0.011866559 1.5300311e-38 338 231
0.024984999 0.75 0.011835 1.5208116e-38 339 231
0.0263 0.75 0.011835 1.5208102e-38 340 231
0.027615 0.75 0.011835 1.5115907e-38 341 231
0.028929999 0.75 0.011835 1.5207025e-38 342 231
0.030244999 0.75 0.011835 1.529922e-38 343 231
0.03172832 0.75400001 0.01189812 1.4931885e-38 344 231
0.033050332 0.75400001 0.01189812 1.4839689e-38 345 231
0.034372345 0.75400001 0.01189812 1.4655308e-38 346 231
0.035741698 0.755 0.011913899 1.4379081e-38 347 231
0.037163652 0.75700003 0.01194546 1.4010336e-38 348 231
0.038490929 0.75700003 0.01194546 1.4194727e-38 349 231
-0.028020019 0.76099998 0.010674292 1.5028181e-38 299 232
-0.026615599 0.759 0.01064624 1.6312741e-38 300 232
-0.025284819 0.759 0.01064624 1.6220545e-38 301 232
-0.023954039 0.759 0.01064624 1.6037918e-38 302 232
-0.02262326 0.759 0.01064624 1.6314504e-38 303 232
-0.021236373 0.75700003 0.010618187 1.6226258e-38 304 232
-0.019909101 0.75700003 0.010618187 1.6686878e-38 305 232
-0.018532733 0.755 0.010590133 1.7422278e-38 306 232
-0.017186172 0.75400001 0.010576107 1.7145691e-38 307 232
-0.015822079 0.75199997 0.010548052 1.7146372e-38 308 232
-0.014503572 0.75199997 0.010548052 1.6685754e-38 309 232
-0.01315 0.75 0.01052 1.6959795e-38 310 232
-0.01181922 0.74900001 0.010505973 1.6867599e-38 311 232
-0.010505973 0.74900001 0.010505973 1.6959075e-38 312 232
-0.0091927266 0.74900001 0.010505973 1.6590656e-38 313 232
-0.0078794798 0.74900001 0.010505973 1.6497386e-38 314 232
-0.0065662335 0.74900001 0.010505973 1.6404833e-38 315 232
-0.0052529867 0.74900001 0.010505973 1.6036415e-38 316 232
-0.0039397399 0.74900001 0.010505973 1.5759832e-38 317 232
-0.0026264933 0.74900001 0.010505973 1.5301015e-38 318 232
-0.0013132467 0.74900001 0.010505973 1.5116625e-38 319 232
0 0.74900001 0.010505973 1.4564897e-38 320 232
0.001315 0.75 0.01052 1.4380506e-38 321 232
0.00263 0.75 0.01052 1.4930099e-38 322 232
0.003945 0.75 0.01052 1.4837904e-38 323 232
0.00526 0.75 0.01052 1.4100367e-38 324 232
0.006575 0.75 0.01052 1.3362802e-38 325 232
0.00789 0.75 0.01052 1.206884e-38 326 232
0.0092663663 0.755 0.010590133 1.0501174e-38 327 232
0.010590133 0.755 0.010590133 9.4013002e-39 328 232
0.01189812 0.75400001 0.010576107 1.0692038e-38 329 232
0.013220133 0.75400001 0.010576107 1.1707631e-38 330 232
0.014503572 0.75199997 0.010548052 1.2629589e-38 331 232
0.015822079 0.75199997 0.010548052 1.4287276e-38 332 232
0.017140586 0.75199997 0.010548052 1.4748254e-38 333 232
0.018459093 0.75199997 0.010548052 1.4749674e-38 334 232
0.0197776 0.75199997 0.010548052 1.4934065e-38 335 232
0.02104 0.75 0.01052 1.530068e-38 336 232
0.022355 0.75 0.01052 1.530068e-38 337 232
0.023669999 0.75 0.01052 1.5483624e-38 338 232
0.024984999 0.75 0.01052 1.5299592e-38 339 232
0.0263 0.75 0.01052 1.5391415e-38 340 232
0.027615 0.75 0.01052 1.5391415e-38 341 232
0.028929999 0.75 0.01052 1.529922e-38 342 232
0.030204674 0.74900001 0.010505973 1.529922e-38 343 232
0.031517919 0.74900001 0.010505973 1.4931889e-38 344 232
0.032831166 0.74900001 0.010505973 1.4931889e-38 345 232
0.034189999 0.75 0.01052 1.4656391e-38 346 232
0.035599679 0.75199997 0.010548052 1.4379803e-38 347 232
0.037016369 0.75400001 0.010576107 1.428655e-38 348 232
0.038389232 0.755 0.010590133 1.3917769e-38 349 232
0.039712999 0.755 0.010590133 1.3641614e-38 350 232
-0.028020019 0.76099998 0.0093400059 1.4844142e-38 299 233
-0.026685731 0.76099998 0.0093400059 1.6130854e-38 300 233
-0.025284819 0.759 0.00931546 1.5854268e-38 301 233
-0.023954039 0.759 0.00931546 1.5763482e-38 302 233
-0.022563647 0.75700003 0.0092909131 1.6131905e-38 303 233
-0.021236373 0.75700003 0.0092909131 1.6317022e-38 304 233
-0.019909101 0.75700003 0.0092909131 1.6685805e-38 305 233
-0.018532733 0.755 0.0092663663 1.714642e-38 306 233
-0.017186172 0.75400001 0.0092540924 1.696167e-38 307 233
-0.015822079 0.75199997 0.0092295464 1.7237123e-38 308 233
-0.014503572 0.75199997 0.0092295464 1.7052732e-38 309 233
-0.013132467 0.74900001 0.0091927266 1.7328569e-38 310 233
-0.01181922 0.74900001 0.0091927266 1.7236375e-38 311 233
-0.010505973 0.74900001 0.0091927266 1.7418969e-38 312 233
-0.0091927266 0.74900001 0.0091927266 1.6958357e-38 313 233
-0.0078794798 0.74900001 0.0091927266 1.7049116e-38 314 233
-0.0065662335 0.74900001 0.0091927266 1.6864728e-38 315 233
-0.0052529867 0.74900001 0.0091927266 1.6588504e-38 316 233
-0.0039397399 0.74900001 0.0091927266 1.631228e-38 317 233
-0.0026264933 0.74900001 0.0091927266 1.5760191e-38 318 233
-0.0013132467 0.74900001 0.0091927266 1.5667997e-38 319 233
0 0.74900001 0.0091927266 1.5208819e-38 320 233
0.0013132467 0.74900001 0.0091927266 1.5024431e-38 321 233
0.0026264933 0.74900001 0.0091927266 1.5115907e-38 322 233
0.0039397399 0.74900001 0.0091927266 1.5023713e-38 323 233
0.0052529867 0.74900001 0.0091927266 1.4470923e-38 324 233
0.0065662335 0.74900001 0.0091927266 1.4747509e-38 325 233
0.0078794798 0.74900001 0.0091927266 1.4561327e-38 326 233
0.0091927266 0.74900001 0.0091927266 1.3270588e-38 327 233
0.010505973 0.74900001 0.0091927266 1.2810699e-38 328 233
0.01181922 0.74900001 0.0091927266 1.3640459e-38 329 233
0.013132467 0.74900001 0.0091927266 1.3917785e-38 330 233
0.014445714 0.74900001 0.0091927266 1.4286926e-38 331 233
0.01575896 0.74900001 0.0091927266 1.5023765e-38 332 233
0.017072206 0.74900001 0.0091927266 1.5392549e-38 333 233
0.018385453 0.74900001 0.0091927266 1.511703e-38 334 233
0.0196987 0.74900001 0.0091927266 1.511703e-38 335 233
0.021011947 0.74900001 0.0091927266 1.530068e-38 336 233
0.022325192 0.74900001 0.0091927266 1.5024453e-38 337 233
0.02363844 0.74900001 0.0091927266 1.5299946e-38 338 233
0.024951685 0.74900001 0.0091927266 1.5299946e-38 339 233
0.026264934 0.74900001 0.0091927266 1.5391773e-38 340 233
0.027578179 0.74900001 0.0091927266 1.5299578e-38 341 233
0.028891427 0.74900001 0.0091927266 1.5298862e-38 342 233
0.030204674 0.74900001 0.0091927266 1.5298862e-38 343 233
0.031517919 0.74900001 0.0091927266 1.4931183e-38 344 233
0.032831166 0.74900001 0.0091927266 1.4931183e-38 345 233
0.034189999 0.75 0.0092049995 1.4747143e-38 346 233
0.035505001 0.75 0.0092049995 1.4654589e-38 347 233
0.036918186 0.75199997 0.0092295464 1.4562043e-38 348 233
0.038338386 0.75400001 0.0092540924 1.4193619e-38 349 233
0.039660402 0.75400001 0.0092540924 1.3455405e-38 350 233
0.040982414 0.75400001 0.0092540924 1.5299318e-38 351 233
-0.028020019 0.76099998 0.0080057196 1.5211477e-38 299 234
-0.026685731 0.76099998 0.0080057196 1.6130132e-38 300 234
-0.025284819 0.759 0.0079846792 1.6037937e-38 301 234
-0.02389092 0.75700003 0.0079636406 1.5946429e-38 302 234
-0.022563647 0.75700003 0.0079636406 1.6314851e-38 303 234
-0.021236373 0.75700003 0.0079636406 1.6500672e-38 304 234
-0.0198565 0.755 0.0079425992 1.6869454e-38 305 234
-0.018508185 0.75400001 0.00793208 1.7053123e-38 306 234
-0.017186172 0.75400001 0.00793208 1.7237515e-38 307 234
-0.01578 0.75 0.00789 1.7329687e-38 308 234
-0.014465 0.75 0.00789 1.7237492e-38 309 234
-0.013132467 0.74900001 0.0078794798 1.7420786e-38 310 234
-0.01181922 0.74900001 0.0078794798 1.7236754e-38 311 234
-0.010505973 0.74900001 0.0078794798 1.7418623e-38 312 234
-0.0091927266 0.74900001 0.0078794798 1.7326428e-38 313 234
-0.0078794798 0.74900001 0.0078794798 1.6864728e-38 314 234
-0.0065486995 0.74699998 0.0078584393 1.6864728e-38 315 234
-0.0052389596 0.74699998 0.0078584393 1.6405909e-38 316 234
-0.0039292197 0.74699998 0.0078584393 1.6129685e-38 317 234
-0.0026194798 0.74699998 0.0078584393 1.566979e-38 318 234
-0.0013097399 0.74699998 0.0078584393 1.5301372e-38 319 234
0 0.74699998 0.0078584393 1.5300655e-38 320 234
0.0013097399 0.74699998 0.0078584393 1.520846e-38 321 234
0.0026159731 0.74599999 0.0078479191 1.511627e-38 322 234
0.0039239596 0.74599999 0.0078479191 1.4932238e-38 323 234
0.0052389596 0.74699998 0.0078584393 1.4472714e-38 324 234
0.0065399334 0.74599999 0.0078479191 1.4749661e-38 325 234
0.0078479191 0.74599999 0.0078479191 1.5482923e-38 326 234
0.0091559067 0.74599999 0.0078479191 1.5482923e-38 327 234
0.010463892 0.74599999 0.0078479191 1.5484019e-38 328 234
0.011771879 0.74599999 0.0078479191 1.5668769e-38 329 234
0.013097399 0.74699998 0.0078584393 1.5575498e-38 330 234
0.014387853 0.74599999 0.0078479191 1.5483303e-38 331 234
0.015695838 0.74599999 0.0078479191 1.5392172e-38 332 234
0.017003827 0.74599999 0.0078479191 1.5299976e-38 333 234
0.018336359 0.74699998 0.0078584393 1.5300327e-38 334 234
0.019646099 0.74699998 0.0078584393 1.50241e-38 335 234
0.020955838 0.74699998 0.0078584393 1.5300314e-38 336 234
0.022325192 0.74900001 0.0078794798 1.5208118e-38 337 234
0.02363844 0.74900001 0.0078794798 1.5300299e-38 338 234
0.024951685 0.74900001 0.0078794798 1.5300299e-38 339 234
0.026264934 0.74900001 0.0078794798 1.5391773e-38 340 234
0.027578179 0.74900001 0.0078794798 1.5299578e-38 341 234
0.028891427 0.74900001 0.0078794798 1.5206667e-38 342 234
0.030204674 0.74900001 0.0078794798 1.5206667e-38 343 234
0.031517919 0.74900001 0.0078794798 1.5022651e-38 344 234
0.032831166 0.74900001 0.0078794798 1.5022651e-38 345 234
0.034189999 0.75 0.00789 1.4839336e-38 346 234
0.035505001 0.75 0.00789 1.4562749e-38 347 234
0.036918186 0.75199997 0.0079110395 1.4470198e-38 348 234
0.038338386 0.75400001 0.00793208 1.4101774e-38 349 234
0.039660402 0.75400001 0.00793208 1.3823814e-38 350 234
0.040982414 0.75400001 0.00793208 1.493016e-38 351 234
0.042304426 0.75400001 0.00793208 1.5485569e-38 352 234
-0.029470026 0.764 0.006697733 1.6500051e-38 298 235
-0.028020019 0.76099998 0.0066714329 1.5670291e-38 299 235
-0.026685731 0.76099998 0.0066714329 1.6313798e-38 300 235
-0.025284819 0.759 0.0066538998 1.6221602e-38 301 235
-0.02389092 0.75700003 0.0066363667 1.5856028e-38 302 235
-0.022563647 0.75700003 0.0066363667 1.6132255e-38 303 235
-0.021180267 0.755 0.0066188332 1.6500672e-38 304 235
-0.0198565 0.755 0.0066188332 1.6777259e-38 305 235
-0.018508185 0.75400001 0.0066100666 1.6962006e-38 306 235
-0.017140586 0.75199997 0.0065925326 1.7146039e-38 307 235
-0.01578 0.75 0.006575 1.7146375e-38 308 235
-0.014465 0.75 0.006575 1.7054179e-38 309 235
-0.013132467 0.74900001 0.0065662335 1.751334e-38 310 235
-0.01181922 0.74900001 0.0065662335 1.7236754e-38 311 235
-0.010505973 0.74900001 0.0065662335 1.7602652e-38 312 235
-0.0091927266 0.74900001 0.0065662335 1.7417902e-38 313 235
-0.0078584393 0.74699998 0.0065486995 1.7233864e-38 314 235
-0.0065486995 0.74699998 0.0065486995 1.7141311e-38 315 235
-0.0052389596 0.74699998 0.0065486995 1.6866163e-38 316 235
-0.0039239596 0.74599999 0.0065399334 1.6497386e-38 317 235
-0.0026159731 0.74599999 0.0065399334 1.6129685e-38 318 235
-0.0013079866 0.74599999 0.0065399334 1.5852744e-38 319 235
0 0.74599999 0.0065399334 1.5576879e-38 320 235
0.0013079866 0.74599999 0.0065399334 1.5484684e-38 321 235
0.0026159731 0.74599999 0.0065399334 1.5300655e-38 322 235
0.0039239596 0.74599999 0.0065399334 1.5485043e-38 323 235
0.0052319462 0.74599999 0.0065399334 1.5300664e-38 324 235
0.0065399334 0.74599999 0.0065399334 1.5208469e-38 325 235
0.0078268806 0.74400002 0.0065223998 1.5666926e-38 326 235
0.0091313599 0.74400002 0.0065223998 1.5482895e-38 327 235
0.010463892 0.74599999 0.0065399334 1.5483608e-38 328 235
0.011771879 0.74599999 0.0065399334 1.5576163e-38 329 235
0.013079867 0.74599999 0.0065399334 1.5667279e-38 330 235
0.01434928 0.74400002 0.0065223998 1.5667279e-38 331 235
0.015653761 0.74400002 0.0065223998 1.5483977e-38 332 235
0.016958239 0.74400002 0.0065223998 1.5576172e-38 333 235
0.018311813 0.74599999 0.0065399334 1.5300314e-38 334 235
0.019619798 0.74599999 0.0065399334 1.5300314e-38 335 235
0.020955838 0.74699998 0.0065486995 1.5300299e-38 336 235
0.022265578 0.74699998 0.0065486995 1.5300299e-38 337 235
0.023575317 0.74699998 0.0065486995 1.5484326e-38 338 235
0.024885058 0.74699998 0.0065486995 1.5484326e-38 339 235
0.026194798 0.74699998 0.0065486995 1.5392131e-38 340 235
0.027504537 0.74699998 0.0065486995 1.5299937e-38 341 235
0.028814279 0.74699998 0.0065486995 1.5023354e-38 342 235
0.030204674 0.74900001 0.0065662335 1.5023354e-38 343 235
0.031517919 0.74900001 0.0065662335 1.5023001e-38 344 235
0.032831166 0.74900001 0.0065662335 1.483861e-38 345 235
0.034144413 0.74900001 0.0065662335 1.483861e-38 346 235
0.035505001 0.75 0.006575 1.4562025e-38 347 235
0.036918186 0.75199997 0.0065925326 1.4469835e-38 348 235
0.038338386 0.75400001 0.0066100666 1.4285083e-38 349 235
0.039660402 0.75400001 0.0066100666 1.3824516e-38 350 235
0.040982414 0.75400001 0.0066100666 1.4377689e-38 351 235
0.042304426 0.75400001 0.0066100666 1.4748351e-38 352 235
-0.029470026 0.764 0.0053581866 1.6315657e-38 298 236
-0.028020019 0.76099998 0.0053371461 1.5762483e-38 299 236
-0.026685731 0.76099998 0.0053371461 1.6037934e-38 300 236
-0.025351444 0.76099998 0.0053371461 1.6037934e-38 301 236
-0.023954039 0.759 0.0053231199 1.6039694e-38 302 236
-0.022563647 0.75700003 0.0053090933 1.6224085e-38 303 236
-0.021180267 0.755 0.0052950666 1.631699e-38 304 236
-0.019830201 0.75400001 0.0052880533 1.6685414e-38 305 236
-0.018459093 0.75199997 0.0052740262 1.705312e-38 306 236
-0.017140586 0.75199997 0.0052740262 1.7145674e-38 307 236
-0.01578 0.75 0.00526 1.7329337e-38 308 236
