# .PCD v.7 - Point Cloud Data file format
FIELDS x y z rgb imX imY
SIZE 4 4 4 4 4 4
TYPE F F F F F F
COUNT 1 1 1 1 1 1
WIDTH 836
HEIGHT 1
VIEWPOINT 0 0 0 1 0 0 0
POINTS 836
DATA ascii
-0.015955333 0.69999999 -0.023319334 1.2533784e-38 307 259
-0.014727999 0.69999999 -0.023319334 1.2533064e-38 308 259
-0.013500666 0.69999999 -0.023319334 1.2533064e-38 309 259
-0.012238266 0.69800001 -0.023252707 1.2533061e-38 310 259
-0.01101444 0.69800001 -0.023252707 1.2440865e-38 311 259
-0.0097906133 0.69800001 -0.023252707 1.271601e-38 312 259
-0.0085667865 0.69800001 -0.023252707 1.253126e-38 313 259
-0.0073429602 0.69800001 -0.023252707 1.2623814e-38 314 259
-0.006119133 0.69800001 -0.023252707 1.2623814e-38 315 259
-0.0048953067 0.69800001 -0.023252707 1.2623458e-38 316 259
-0.0036714801 0.69800001 -0.023252707 1.2531263e-38 317 259
-0.0024476533 0.69800001 -0.023252707 1.2531263e-38 318 259
-0.0012238267 0.69800001 -0.023252707 1.2439067e-38 319 259
0 0.69800001 -0.023252707 1.2346869e-38 320 259
0.0012238267 0.69800001 -0.023252707 1.2254672e-38 321 259
0.0024476533 0.69800001 -0.023252707 1.2254669e-38 322 259
0.0036714801 0.69800001 -0.023252707 1.2070638e-38 323 259
0.0049093333 0.69999999 -0.023319334 1.1885891e-38 324 259
0.0061366665 0.69999999 -0.023319334 1.1701499e-38 325 259
0.0073639993 0.69999999 -0.023319334 1.1793332e-38 326 259
0.0085913334 0.69999999 -0.023319334 1.1700776e-38 327 259
0.0098186666 0.69999999 -0.023319334 1.1700779e-38 328 259
0.011061779 0.70099998 -0.023352645 1.1608583e-38 329 259
0.012290866 0.70099998 -0.023352645 1.1516035e-38 330 259
0.013558527 0.70300001 -0.023419274 1.1516035e-38 331 259
0.014791119 0.70300001 -0.023419274 1.1515319e-38 332 259
0.016046507 0.704 -0.023452586 1.1515319e-38 333 259
0.017280852 0.704 -0.023452586 1.1423483e-38 334 259
0.018567799 0.70599997 -0.023519212 1.1331288e-38 335 259
0.019805651 0.70599997 -0.023519212 1.1515319e-38 336 259
0.021043506 0.70599997 -0.023519212 1.1515319e-38 337 259
0.022281358 0.70599997 -0.023519212 1.142277e-38 338 259
0.023552528 0.70700002 -0.023552528 1.1514966e-38 339 259
0.024827199 0.708 -0.023585839 1.1514612e-38 340 259
0.026142199 0.70999998 -0.023652466 1.1790839e-38 341 259
0.027387066 0.70999998 -0.023652466 1.1791569e-38 342 259
0.028672259 0.71100003 -0.023685781 1.216035e-38 343 259
0.029918881 0.71100003 -0.023685781 1.2342593e-38 344 259
0.03156 0.72000003 -0.0239856 1.2987963e-38 345 259
0.0328224 0.72000003 -0.0239856 1.4742233e-38 346 259
-0.040509012 0.722 -0.025318133 1.5850031e-38 288 260
-0.039134402 0.72000003 -0.025248 1.4559292e-38 289 260
-0.037714198 0.71700001 -0.0251428 1.4101143e-38 290 260
-0.036457058 0.71700001 -0.0251428 1.3732362e-38 291 260
-0.035150826 0.71600002 -0.025107734 1.4007485e-38 292 260
-0.033800758 0.71399999 -0.025037598 1.4007485e-38 293 260
-0.032412119 0.71100003 -0.024932399 1.3731967e-38 294 260
-0.031121666 0.70999998 -0.024897331 1.3731967e-38 295 260
-0.02979264 0.708 -0.024827199 1.3732323e-38 296 260
-0.028510952 0.70700002 -0.024792133 1.3456096e-38 297 260
-0.027232772 0.70599997 -0.024757065 1.3454658e-38 298 260
-0.02592128 0.704 -0.024686933 1.3454658e-38 299 260
-0.024651866 0.70300001 -0.024651866 1.317843e-38 300 260
-0.023352645 0.70099998 -0.024581732 1.317843e-38 301 260
-0.022123558 0.70099998 -0.024581732 1.3085879e-38 302 260
-0.020894472 0.70099998 -0.024581732 1.2901487e-38 303 260
-0.019637333 0.69999999 -0.024546666 1.2718175e-38 304 260
-0.018409999 0.69999999 -0.024546666 1.2533784e-38 305 260
-0.017182667 0.69999999 -0.024546666 1.280857e-38 306 260
-0.015955333 0.69999999 -0.024546666 1.280857e-38 307 260
-0.014727999 0.69999999 -0.024546666 1.2533061e-38 308 260
-0.013500666 0.69999999 -0.024546666 1.2533061e-38 309 260
-0.012273333 0.69999999 -0.024546666 1.262453e-38 310 260
-0.011045999 0.69999999 -0.024546666 1.262453e-38 311 260
-0.0097906133 0.69800001 -0.024476532 1.2623809e-38 312 260
-0.0085667865 0.69800001 -0.024476532 1.2623809e-38 313 260
-0.0073429602 0.69800001 -0.024476532 1.2807121e-38 314 260
-0.006119133 0.69800001 -0.024476532 1.2807121e-38 315 260
-0.0049093333 0.69999999 -0.024546666 1.253126e-38 316 260
-0.0036714801 0.69800001 -0.024476532 1.253126e-38 317 260
-0.0024476533 0.69800001 -0.024476532 1.2531263e-38 318 260
-0.0012238267 0.69800001 -0.024476532 1.2439067e-38 319 260
0 0.69800001 -0.024476532 1.2346872e-38 320 260
0.0012238267 0.69800001 -0.024476532 1.2254316e-38 321 260
0.0024476533 0.69800001 -0.024476532 1.207136e-38 322 260
0.0036819996 0.69999999 -0.024546666 1.1978805e-38 323 260
0.0049093333 0.69999999 -0.024546666 1.2069562e-38 324 260
0.0061366665 0.69999999 -0.024546666 1.1792976e-38 325 260
0.0073639993 0.69999999 -0.024546666 1.1793332e-38 326 260
0.0086036054 0.70099998 -0.024581732 1.1700776e-38 327 260
0.0098326923 0.70099998 -0.024581732 1.1884447e-38 328 260
0.01109334 0.70300001 -0.024651866 1.1791893e-38 329 260
0.012325933 0.70300001 -0.024651866 1.1791899e-38 330 260
0.013558527 0.70300001 -0.024651866 1.1699703e-38 331 260
0.014791119 0.70300001 -0.024651866 1.1515316e-38 332 260
0.016046507 0.704 -0.024686933 1.1515316e-38 333 260
0.017280852 0.704 -0.024686933 1.1423483e-38 334 260
0.018567799 0.70599997 -0.024757065 1.1423483e-38 335 260
0.019805651 0.70599997 -0.024757065 1.1515319e-38 336 260
0.021043506 0.70599997 -0.024757065 1.1422764e-38 337 260
0.022281358 0.70599997 -0.024757065 1.1514963e-38 338 260
0.023552528 0.70700002 -0.024792133 1.1514963e-38 339 260
0.024827199 0.708 -0.024827199 1.160788e-38 340 260
0.026142199 0.70999998 -0.024897331 1.1700076e-38 341 260
0.027387066 0.70999998 -0.024897331 1.2067433e-38 342 260
0.028672259 0.71100003 -0.024932399 1.234366e-38 343 260
0.029918881 0.71100003 -0.024932399 1.27103e-38 344 260
0.03156 0.72000003 -0.025248 1.3816647e-38 345 260
0.0328224 0.72000003 -0.025248 1.5387605e-38 346 260
-0.040509012 0.722 -0.026584039 1.6034789e-38 288 261
-0.039134402 0.72000003 -0.026510401 1.4836246e-38 289 261
-0.037819397 0.71899998 -0.02647358 1.4375936e-38 290 261
-0.036457058 0.71700001 -0.02639994 1.3914958e-38 291 261
-0.035150826 0.71600002 -0.026363119 1.4007479e-38 292 261
-0.033800758 0.71399999 -0.026289478 1.4007479e-38 293 261
-0.032412119 0.71100003 -0.026179021 1.373232e-38 294 261
-0.031121666 0.70999998 -0.026142199 1.373232e-38 295 261
-0.02979264 0.708 -0.026068559 1.3732676e-38 296 261
-0.028510952 0.70700002 -0.02603174 1.345609e-38 297 261
-0.027232772 0.70599997 -0.025994917 1.3546488e-38 298 261
-0.02592128 0.704 -0.02592128 1.3454291e-38 299 261
-0.024686933 0.704 -0.02592128 1.317843e-38 300 261
-0.023419274 0.70300001 -0.025884461 1.2994039e-38 301 261
-0.02218668 0.70300001 -0.025884461 1.2718175e-38 302 261
-0.020894472 0.70099998 -0.025810819 1.2625979e-38 303 261
-0.019665385 0.70099998 -0.025810819 1.271674e-38 304 261
-0.018436298 0.70099998 -0.025810819 1.271674e-38 305 261
-0.017182667 0.69999999 -0.025773998 1.2532708e-38 306 261
-0.015955333 0.69999999 -0.025773998 1.2532708e-38 307 261
-0.014727999 0.69999999 -0.025773998 1.2441584e-38 308 261
-0.013500666 0.69999999 -0.025773998 1.2441584e-38 309 261
-0.012273333 0.69999999 -0.025773998 1.2624175e-38 310 261
-0.011045999 0.69999999 -0.025773998 1.2531979e-38 311 261
-0.0098186666 0.69999999 -0.025773998 1.2532335e-38 312 261
-0.0085913334 0.69999999 -0.025773998 1.2532335e-38 313 261
-0.0073639993 0.69999999 -0.025773998 1.2623809e-38 314 261
-0.0061366665 0.69999999 -0.025773998 1.2623809e-38 315 261
-0.0049093333 0.69999999 -0.025773998 1.2531979e-38 316 261
-0.0036714801 0.69800001 -0.025700359 1.2439783e-38 317 261
-0.0024476533 0.69800001 -0.025700359 1.2255755e-38 318 261
-0.0012238267 0.69800001 -0.025700359 1.2255755e-38 319 261
0 0.69800001 -0.025700359 1.2254316e-38 320 261
0.0012238267 0.69800001 -0.025700359 1.2254316e-38 321 261
0.0024476533 0.69800001 -0.025700359 1.2161401e-38 322 261
0.0036819996 0.69999999 -0.025773998 1.2069206e-38 323 261
0.0049093333 0.69999999 -0.025773998 1.1976288e-38 324 261
0.0061366665 0.69999999 -0.025773998 1.1976288e-38 325 261
0.0073745195 0.70099998 -0.025810819 1.1884447e-38 326 261
0.0086036054 0.70099998 -0.025810819 1.1884447e-38 327 261
0.0098607466 0.70300001 -0.025884461 1.1791893e-38 328 261
0.01109334 0.70300001 -0.025884461 1.1791893e-38 329 261
0.012343466 0.704 -0.02592128 1.1699703e-38 330 261
0.013577812 0.704 -0.02592128 1.1515313e-38 331 261
0.014812159 0.704 -0.02592128 1.1515319e-38 332 261
0.016046507 0.704 -0.02592128 1.1515319e-38 333 261
0.017280852 0.704 -0.02592128 1.1516038e-38 334 261
0.018567799 0.70599997 -0.025994917 1.1423483e-38 335 261
0.019805651 0.70599997 -0.025994917 1.1423483e-38 336 261
0.021043506 0.70599997 -0.025994917 1.1331288e-38 337 261
0.022312919 0.70700002 -0.02603174 1.1514963e-38 338 261
0.023585839 0.708 -0.026068559 1.1698994e-38 339 261
0.024897331 0.70999998 -0.026142199 1.1883388e-38 340 261
0.026142199 0.70999998 -0.026142199 1.1975585e-38 341 261
0.027387066 0.70999998 -0.026142199 1.2068152e-38 342 261
0.028631933 0.70999998 -0.026142199 1.2252543e-38 343 261
0.029876797 0.70999998 -0.026142199 1.2897582e-38 344 261
0.031121666 0.70999998 -0.026142199 1.3911734e-38 345 261
-0.040396802 0.72000003 -0.027772799 1.6034792e-38 288 262
-0.039134402 0.72000003 -0.027772799 1.502064e-38 289 262
-0.037819397 0.71899998 -0.027734226 1.4283386e-38 290 262
-0.036457058 0.71700001 -0.027657079 1.3730214e-38 291 262
-0.035150826 0.71600002 -0.027618507 1.4007482e-38 292 262
-0.033800758 0.71399999 -0.02754136 1.4007482e-38 293 262
-0.032412119 0.71100003 -0.027425639 1.38238e-38 294 262
-0.031121666 0.70999998 -0.027387066 1.38238e-38 295 262
-0.02979264 0.708 -0.027309919 1.373232e-38 296 262
-0.028510952 0.70700002 -0.027271347 1.3456093e-38 297 262
-0.027232772 0.70599997 -0.027232772 1.354721e-38 298 262
-0.025994917 0.70599997 -0.027232772 1.3362817e-38 299 262
-0.024686933 0.704 -0.027155625 1.3086232e-38 300 262
-0.023419274 0.70300001 -0.027117053 1.3086232e-38 301 262
-0.02218668 0.70300001 -0.027117053 1.2718172e-38 302 262
-0.020954086 0.70300001 -0.027117053 1.2625977e-38 303 262
-0.019721493 0.70300001 -0.027117053 1.2717096e-38 304 262
-0.018436298 0.70099998 -0.027039904 1.2440868e-38 305 262
-0.017207211 0.70099998 -0.027039904 1.2440512e-38 306 262
-0.015955333 0.69999999 -0.027001332 1.2532708e-38 307 262
-0.014727999 0.69999999 -0.027001332 1.2533064e-38 308 262
-0.013500666 0.69999999 -0.027001332 1.2533064e-38 309 262
-0.012273333 0.69999999 -0.027001332 1.2531979e-38 310 262
-0.011045999 0.69999999 -0.027001332 1.2531979e-38 311 262
-0.0098186666 0.69999999 -0.027001332 1.2531979e-38 312 262
-0.0085913334 0.69999999 -0.027001332 1.2439783e-38 313 262
-0.0073639993 0.69999999 -0.027001332 1.2532335e-38 314 262
-0.0061366665 0.69999999 -0.027001332 1.2440139e-38 315 262
-0.0049093333 0.69999999 -0.027001332 1.2439783e-38 316 262
-0.0036819996 0.69999999 -0.027001332 1.2255752e-38 317 262
-0.0024546667 0.69999999 -0.027001332 1.2438711e-38 318 262
-0.0012273333 0.69999999 -0.027001332 1.2346516e-38 319 262
0 0.69999999 -0.027001332 1.2163203e-38 320 262
0.0012273333 0.69999999 -0.027001332 1.1978811e-38 321 262
0.0024546667 0.69999999 -0.027001332 1.2161401e-38 322 262
0.0036819996 0.69999999 -0.027001332 1.2069206e-38 323 262
0.0049093333 0.69999999 -0.027001332 1.1976644e-38 324 262
0.0061454331 0.70099998 -0.027039904 1.1884447e-38 325 262
0.0073955595 0.70300001 -0.027117053 1.1884446e-38 326 262
0.0086281532 0.70300001 -0.027117053 1.1792252e-38 327 262
0.0098607466 0.70300001 -0.027117053 1.1791896e-38 328 262
0.011109119 0.704 -0.027155625 1.1791896e-38 329 262
0.012343466 0.704 -0.027155625 1.1699347e-38 330 262
0.013577812 0.704 -0.027155625 1.1515316e-38 331 262
0.014812159 0.704 -0.027155625 1.1515319e-38 332 262
0.016046507 0.704 -0.027155625 1.1515319e-38 333 262
0.017280852 0.704 -0.027155625 1.1515316e-38 334 262
0.018567799 0.70599997 -0.027232772 1.1699347e-38 335 262
0.019805651 0.70599997 -0.027232772 1.1423839e-38 336 262
0.021073313 0.70700002 -0.027271347 1.1423839e-38 337 262
0.022312919 0.70700002 -0.027271347 1.1698994e-38 338 262
0.023585839 0.708 -0.027309919 1.1791548e-38 339 262
0.024897331 0.70999998 -0.027387066 1.1975941e-38 340 262
0.026142199 0.70999998 -0.027387066 1.1975941e-38 341 262
0.027387066 0.70999998 -0.027387066 1.2159982e-38 342 262
0.028631933 0.70999998 -0.027387066 1.2344013e-38 343 262
0.029876797 0.70999998 -0.027387066 1.3174525e-38 344 262
0.031121666 0.70999998 -0.027387066 1.4372709e-38 345 262
0.032366529 0.70999998 -0.027387066 1.5203587e-38 346 262
-0.037819397 0.71899998 -0.028994869 1.474329e-38 290 263
-0.036457058 0.71700001 -0.028914221 1.3821693e-38 291 263
-0.035150826 0.71600002 -0.028873893 1.4099677e-38 292 263
-0.033800758 0.71399999 -0.028793238 1.3823449e-38 293 263
-0.032412119 0.71100003 -0.028672259 1.4007112e-38 294 263
-0.031121666 0.70999998 -0.028631933 1.4007112e-38 295 263
-0.02979264 0.708 -0.02855128 1.3823797e-38 296 263
-0.02855128 0.708 -0.02855128 1.3639405e-38 297 263
-0.027271347 0.70700002 -0.028510952 1.3730522e-38 298 263
-0.025994917 0.70599997 -0.028470624 1.3546491e-38 299 263
-0.024686933 0.704 -0.028389972 1.317843e-38 300 263
-0.023452586 0.704 -0.028389972 1.3086235e-38 301 263
-0.022218239 0.704 -0.028389972 1.2901843e-38 302 263
-0.020983893 0.704 -0.028389972 1.2809289e-38 303 263
-0.019721493 0.70300001 -0.028349647 1.2441584e-38 304 263
-0.018488899 0.70300001 -0.028349647 1.2441584e-38 305 263
-0.017207211 0.70099998 -0.028268991 1.2440868e-38 306 263
-0.015978126 0.70099998 -0.028268991 1.2440868e-38 307 263
-0.014749039 0.70099998 -0.028268991 1.262418e-38 308 263
-0.013500666 0.69999999 -0.028228667 1.262418e-38 309 263
-0.012273333 0.69999999 -0.028228667 1.2531982e-38 310 263
-0.011045999 0.69999999 -0.028228667 1.2531982e-38 311 263
-0.0098186666 0.69999999 -0.028228667 1.2531982e-38 312 263
-0.0085913334 0.69999999 -0.028228667 1.2531982e-38 313 263
-0.0073639993 0.69999999 -0.028228667 1.2531979e-38 314 263
-0.0061366665 0.69999999 -0.028228667 1.2531979e-38 315 263
-0.0049093333 0.69999999 -0.028228667 1.2532335e-38 316 263
-0.0036819996 0.69999999 -0.028228667 1.2440139e-38 317 263
-0.0024546667 0.69999999 -0.028228667 1.2439064e-38 318 263
-0.0012273333 0.69999999 -0.028228667 1.2346869e-38 319 263
0 0.69999999 -0.028228667 1.2346869e-38 320 263
0.0012273333 0.69999999 -0.028228667 1.2254672e-38 321 263
0.0024546667 0.69999999 -0.028228667 1.2253953e-38 322 263
0.0036819996 0.69999999 -0.028228667 1.2161757e-38 323 263
0.0049093333 0.69999999 -0.028228667 1.206884e-38 324 263
0.0061454331 0.70099998 -0.028268991 1.1976644e-38 325 263
0.0073955595 0.70300001 -0.028349647 1.1884447e-38 326 263
0.0086281532 0.70300001 -0.028349647 1.1884447e-38 327 263
0.0098607466 0.70300001 -0.028349647 1.1884091e-38 328 263
0.011109119 0.704 -0.028389972 1.1884091e-38 329 263
0.012343466 0.704 -0.028389972 1.1883375e-38 330 263
0.013577812 0.704 -0.028389972 1.179118e-38 331 263
0.014812159 0.704 -0.028389972 1.1515319e-38 332 263
0.016046507 0.704 -0.028389972 1.1422764e-38 333 263
0.017329946 0.70599997 -0.028470624 1.1698631e-38 334 263
0.018567799 0.70599997 -0.028470624 1.1698631e-38 335 263
0.019833706 0.70700002 -0.028510952 1.1698994e-38 336 263
0.021073313 0.70700002 -0.028510952 1.1698994e-38 337 263
0.022344479 0.708 -0.02855128 1.1791548e-38 338 263
0.023652466 0.70999998 -0.028631933 1.1883744e-38 339 263
0.024932399 0.71100003 -0.028672259 1.1883744e-38 340 263
0.026142199 0.70999998 -0.028631933 1.2068137e-38 341 263
0.027387066 0.70999998 -0.028631933 1.2343294e-38 342 263
0.028631933 0.70999998 -0.028631933 1.243549e-38 343 263
0.029876797 0.70999998 -0.028631933 1.3726624e-38 344 263
0.031121666 0.70999998 -0.028631933 1.5201394e-38 345 263
-0.036558751 0.71899998 -0.030255521 1.3914255e-38 291 264
-0.035150826 0.71600002 -0.03012928 1.4007482e-38 292 264
-0.033753417 0.713 -0.030003037 1.3823449e-38 293 264
-0.032412119 0.71100003 -0.029918881 1.3731604e-38 294 264
-0.031121666 0.70999998 -0.029876797 1.3731604e-38 295 264
-0.02979264 0.708 -0.02979264 1.3639408e-38 296 264
-0.02855128 0.708 -0.02979264 1.3547213e-38 297 264
-0.027271347 0.70700002 -0.029750559 1.354721e-38 298 264
-0.025994917 0.70599997 -0.029708479 1.3362817e-38 299 264
-0.024757065 0.70599997 -0.029708479 1.3178427e-38 300 264
-0.023452586 0.704 -0.029624319 1.2994036e-38 301 264
-0.022218239 0.704 -0.029624319 1.2901843e-38 302 264
-0.020983893 0.704 -0.029624319 1.2809289e-38 303 264
-0.019749546 0.704 -0.029624319 1.2441584e-38 304 264
-0.018488899 0.70300001 -0.029582238 1.2257193e-38 305 264
-0.017207211 0.70099998 -0.029498078 1.2257193e-38 306 264
-0.015978126 0.70099998 -0.029498078 1.2257193e-38 307 264
-0.014749039 0.70099998 -0.029498078 1.2348314e-38 308 264
-0.013519952 0.70099998 -0.029498078 1.2348314e-38 309 264
-0.012273333 0.69999999 -0.029455997 1.2531985e-38 310 264
-0.011045999 0.69999999 -0.029455997 1.2531985e-38 311 264
-0.0098186666 0.69999999 -0.029455997 1.2531979e-38 312 264
-0.0085913334 0.69999999 -0.029455997 1.2531979e-38 313 264
-0.0073639993 0.69999999 -0.029455997 1.2531979e-38 314 264
-0.0061366665 0.69999999 -0.029455997 1.2531979e-38 315 264
-0.0049093333 0.69999999 -0.029455997 1.2531979e-38 316 264
-0.0036819996 0.69999999 -0.029455997 1.2255752e-38 317 264
-0.0024546667 0.69999999 -0.029455997 1.2163201e-38 318 264
-0.0012273333 0.69999999 -0.029455997 1.2163201e-38 319 264
0 0.69999999 -0.029455997 1.2254316e-38 320 264
0.0012273333 0.69999999 -0.029455997 1.2070285e-38 321 264
0.0024546667 0.69999999 -0.029455997 1.2070285e-38 322 264
0.0036819996 0.69999999 -0.029455997 1.1978089e-38 323 264
0.0049163462 0.70099998 -0.029498078 1.2068843e-38 324 264
0.0061454331 0.70099998 -0.029498078 1.1976288e-38 325 264
0.0073955595 0.70300001 -0.029582238 1.1884094e-38 326 264
0.0086281532 0.70300001 -0.029582238 1.1884094e-38 327 264
0.0098747732 0.704 -0.029624319 1.1700426e-38 328 264
0.011109119 0.704 -0.029624319 1.160823e-38 329 264
0.012343466 0.704 -0.029624319 1.1699347e-38 330 264
0.013577812 0.704 -0.029624319 1.1699347e-38 331 264
0.014812159 0.704 -0.029624319 1.1515319e-38 332 264
0.016046507 0.704 -0.029624319 1.1515319e-38 333 264
0.017329946 0.70599997 -0.029708479 1.1698275e-38 334 264
0.018594101 0.70700002 -0.029750559 1.1698275e-38 335 264
0.019833706 0.70700002 -0.029750559 1.1698997e-38 336 264
0.021103119 0.708 -0.02979264 1.1791192e-38 337 264
0.022344479 0.708 -0.02979264 1.160788e-38 338 264
0.023652466 0.70999998 -0.029876797 1.1700076e-38 339 264
0.024932399 0.71100003 -0.029918881 1.1883394e-38 340 264
0.026142199 0.70999998 -0.029876797 1.2067786e-38 341 264
0.027387066 0.70999998 -0.029876797 1.2159629e-38 342 264
0.028631933 0.70999998 -0.029876797 1.252841e-38 343 264
0.029876797 0.70999998 -0.029876797 1.4279444e-38 344 264
-0.035052639 0.71399999 -0.031296998 1.3731622e-38 292 265
-0.033753417 0.713 -0.031253166 1.3639068e-38 293 265
-0.032412119 0.71100003 -0.031165501 1.3731251e-38 294 265
-0.031121666 0.70999998 -0.031121666 1.3731251e-38 295 265
-0.02979264 0.708 -0.031034 1.3639055e-38 296 265
-0.02855128 0.708 -0.031034 1.354686e-38 297 265
-0.027271347 0.70700002 -0.030990168 1.3271346e-38 298 265
-0.02603174 0.70700002 -0.030990168 1.3179149e-38 299 265
-0.024757065 0.70599997 -0.030946331 1.3086235e-38 300 265
-0.023452586 0.704 -0.030858666 1.3086235e-38 301 265
-0.022218239 0.704 -0.030858666 1.2718172e-38 302 265
-0.020983893 0.704 -0.030858666 1.2625977e-38 303 265
-0.019749546 0.704 -0.030858666 1.2349388e-38 304 265
-0.018515198 0.704 -0.030858666 1.2257193e-38 305 265
-0.017256306 0.70300001 -0.030814834 1.225719e-38 306 265
-0.016023712 0.70300001 -0.030814834 1.2073159e-38 307 265
-0.014791119 0.70300001 -0.030814834 1.2256474e-38 308 265
-0.013519952 0.70099998 -0.030727165 1.2256474e-38 309 265
-0.012290866 0.70099998 -0.030727165 1.2531263e-38 310 265
-0.011061779 0.70099998 -0.030727165 1.2531263e-38 311 265
-0.0098186666 0.69999999 -0.030683333 1.2624175e-38 312 265
-0.0085913334 0.69999999 -0.030683333 1.2531979e-38 313 265
-0.0073639993 0.69999999 -0.030683333 1.2531979e-38 314 265
-0.0061366665 0.69999999 -0.030683333 1.2439783e-38 315 265
-0.0049093333 0.69999999 -0.030683333 1.2346872e-38 316 265
-0.0036819996 0.69999999 -0.030683333 1.2254316e-38 317 265
-0.0024546667 0.69999999 -0.030683333 1.2254672e-38 318 265
-0.0012273333 0.69999999 -0.030683333 1.2070641e-38 319 265
0 0.69999999 -0.030683333 1.2253597e-38 320 265
0.0012273333 0.69999999 -0.030683333 1.2161401e-38 321 265
0.0024546667 0.69999999 -0.030683333 1.2161404e-38 322 265
0.0036872597 0.70099998 -0.030727165 1.2161404e-38 323 265
0.0049163462 0.70099998 -0.030727165 1.2069209e-38 324 265
0.0061629666 0.70300001 -0.030814834 1.1977013e-38 325 265
0.0074060797 0.704 -0.030858666 1.1700782e-38 326 265
0.0086404262 0.704 -0.030858666 1.1700782e-38 327 265
0.0098747732 0.704 -0.030858666 1.1883738e-38 328 265
0.011109119 0.704 -0.030858666 1.1791543e-38 329 265
0.012343466 0.704 -0.030858666 1.169935e-38 330 265
0.013577812 0.704 -0.030858666 1.1515319e-38 331 265
0.014854239 0.70599997 -0.030946331 1.1698631e-38 332 265
0.016092092 0.70599997 -0.030946331 1.1698631e-38 333 265
0.017354494 0.70700002 -0.030990168 1.1698994e-38 334 265
0.018594101 0.70700002 -0.030990168 1.1698994e-38 335 265
0.01986176 0.708 -0.031034 1.1698994e-38 336 265
0.021162732 0.70999998 -0.031121666 1.1791548e-38 337 265
0.022407599 0.70999998 -0.031121666 1.1700076e-38 338 265
0.023685781 0.71100003 -0.031165501 1.1700076e-38 339 265
0.024932399 0.71100003 -0.031165501 1.1975588e-38 340 265
0.026179021 0.71100003 -0.031165501 1.2067783e-38 341 265
0.027425639 0.71100003 -0.031165501 1.2528055e-38 342 265
0.028672259 0.71100003 -0.031165501 1.345037e-38 343 265
-0.035052639 0.71399999 -0.032548878 1.3730903e-38 292 266
-0.033800758 0.71399999 -0.032548878 1.3823099e-38 293 266
-0.032548878 0.71399999 -0.032548878 1.3731248e-38 294 266
-0.031253166 0.713 -0.032503292 1.3731248e-38 295 266
-0.029876797 0.70999998 -0.032366529 1.3822723e-38 296 266
-0.028631933 0.70999998 -0.032366529 1.3546138e-38 297 266
-0.027309919 0.708 -0.03227536 1.3454291e-38 298 266
-0.02603174 0.70700002 -0.032229774 1.3362096e-38 299 266
-0.024792133 0.70700002 -0.032229774 1.3269897e-38 300 266
-0.023519212 0.70599997 -0.032184184 1.3177701e-38 301 266
-0.022218239 0.704 -0.032093015 1.2809642e-38 302 266
-0.020983893 0.704 -0.032093015 1.2717445e-38 303 266
-0.019805651 0.70599997 -0.032184184 1.2441218e-38 304 266
-0.018515198 0.704 -0.032093015 1.2349023e-38 305 266
-0.017280852 0.704 -0.032093015 1.2073156e-38 306 266
-0.016023712 0.70300001 -0.032047424 1.2073156e-38 307 266
-0.014791119 0.70300001 -0.032047424 1.2163919e-38 308 266
-0.013558527 0.70300001 -0.032047424 1.2163919e-38 309 266
-0.012325933 0.70300001 -0.032047424 1.2256474e-38 310 266
-0.011061779 0.70099998 -0.031956252 1.2348669e-38 311 266
-0.0098326923 0.70099998 -0.031956252 1.2531979e-38 312 266
-0.0086281532 0.70300001 -0.032047424 1.2531979e-38 313 266
-0.0073955595 0.70300001 -0.032047424 1.2531616e-38 314 266
-0.0061629666 0.70300001 -0.032047424 1.243942e-38 315 266
-0.0049303733 0.70300001 -0.032047424 1.2438346e-38 316 266
-0.0036819996 0.69999999 -0.031910665 1.2346149e-38 317 266
-0.0024546667 0.69999999 -0.031910665 1.2254672e-38 318 266
-0.0012273333 0.69999999 -0.031910665 1.2070641e-38 319 266
0 0.70099998 -0.031956252 1.2161401e-38 320 266
0.0012290865 0.70099998 -0.031956252 1.2161401e-38 321 266
0.0024581731 0.70099998 -0.031956252 1.1978092e-38 322 266
0.0036977797 0.70300001 -0.032047424 1.1978092e-38 323 266
0.0049303733 0.70300001 -0.032047424 1.197701e-38 324 266
0.0061717331 0.704 -0.032093015 1.1792979e-38 325 266
0.0074060797 0.704 -0.032093015 1.1976291e-38 326 266
0.0086404262 0.704 -0.032093015 1.1791899e-38 327 266
0.0098747732 0.704 -0.032093015 1.1608233e-38 328 266
0.011109119 0.704 -0.032093015 1.1516038e-38 329 266
0.012378532 0.70599997 -0.032184184 1.1515319e-38 330 266
0.013616386 0.70599997 -0.032184184 1.1515319e-38 331 266
0.014854239 0.70599997 -0.032184184 1.1790824e-38 332 266
0.016092092 0.70599997 -0.032184184 1.1790824e-38 333 266
0.017354494 0.70700002 -0.032229774 1.1698994e-38 334 266
0.0186204 0.708 -0.03227536 1.1698994e-38 335 266
0.019917866 0.70999998 -0.032366529 1.1791192e-38 336 266
0.021162732 0.70999998 -0.032366529 1.1883388e-38 337 266
0.022407599 0.70999998 -0.032366529 1.1700076e-38 338 266
0.023685781 0.71100003 -0.032412119 1.1792273e-38 339 266
0.025002534 0.713 -0.032503292 1.1975956e-38 340 266
0.026179021 0.71100003 -0.032412119 1.2252543e-38 341 266
0.027425639 0.71100003 -0.032412119 1.2622423e-38 342 266
0.028672259 0.71100003 -0.032412119 1.3820607e-38 343 266
-0.035052639 0.71399999 -0.033800758 1.3729844e-38 292 267
-0.033800758 0.71399999 -0.033800758 1.3822041e-38 293 267
-0.032548878 0.71399999 -0.033800758 1.3639774e-38 294 267
-0.031296998 0.71399999 -0.033800758 1.3455743e-38 295 267
-0.029876797 0.70999998 -0.033611398 1.3546857e-38 296 267
-0.028631933 0.70999998 -0.033611398 1.3454661e-38 297 267
-0.027309919 0.708 -0.033516716 1.3454294e-38 298 267
-0.026068559 0.708 -0.033516716 1.3362098e-38 299 267
-0.024792133 0.70700002 -0.033469379 1.3086588e-38 300 267
-0.023519212 0.70599997 -0.033422034 1.3086588e-38 301 267
-0.022281358 0.70599997 -0.033422034 1.2902559e-38 302 267
-0.021043506 0.70599997 -0.033422034 1.2626333e-38 303 267
-0.019805651 0.70599997 -0.033422034 1.2349386e-38 304 267
-0.018567799 0.70599997 -0.033422034 1.225719e-38 305 267
-0.017280852 0.704 -0.03332736 1.225719e-38 306 267
-0.016023712 0.70300001 -0.033280019 1.1980963e-38 307 267
-0.014791119 0.70300001 -0.033280019 1.1980963e-38 308 267
-0.013558527 0.70300001 -0.033280019 1.1980963e-38 309 267
-0.012325933 0.70300001 -0.033280019 1.2440139e-38 310 267
-0.01109334 0.70300001 -0.033280019 1.2440139e-38 311 267
-0.0098607466 0.70300001 -0.033280019 1.2623814e-38 312 267
-0.0086281532 0.70300001 -0.033280019 1.253126e-38 313 267
-0.0073955595 0.70300001 -0.033280019 1.2531982e-38 314 267
-0.0061717331 0.704 -0.03332736 1.2255755e-38 315 267
-0.0049303733 0.70300001 -0.033280019 1.2346872e-38 316 267
-0.0036977797 0.70300001 -0.033280019 1.2346872e-38 317 267
-0.0024651866 0.70300001 -0.033280019 1.2163201e-38 318 267
-0.0012325933 0.70300001 -0.033280019 1.2071004e-38 319 267
0 0.70300001 -0.033280019 1.2070288e-38 320 267
0.0012325933 0.70300001 -0.033280019 1.1885896e-38 321 267
0.0024651866 0.70300001 -0.033280019 1.1885896e-38 322 267
0.0036977797 0.70300001 -0.033280019 1.1885896e-38 323 267
0.0049373866 0.704 -0.03332736 1.1977013e-38 324 267
0.0061892662 0.70599997 -0.033422034 1.1792623e-38 325 267
0.0074271196 0.70599997 -0.033422034 1.1883741e-38 326 267
0.0086649731 0.70599997 -0.033422034 1.1883741e-38 327 267
0.0099028256 0.70599997 -0.033422034 1.169935e-38 328 267
0.011140679 0.70599997 -0.033422034 1.169935e-38 329 267
0.012396066 0.70700002 -0.033469379 1.1699347e-38 330 267
0.013635674 0.70700002 -0.033469379 1.1699347e-38 331 267
0.01489632 0.708 -0.033516716 1.169935e-38 332 267
0.016183265 0.70999998 -0.033611398 1.169935e-38 333 267
0.017428132 0.70999998 -0.033611398 1.1698997e-38 334 267
0.0186993 0.71100003 -0.033658739 1.1698997e-38 335 267
0.01994592 0.71100003 -0.033658739 1.1698997e-38 336 267
0.021192541 0.71100003 -0.033658739 1.1883388e-38 337 267
0.022502279 0.713 -0.033753417 1.1792276e-38 338 267
0.02378572 0.71399999 -0.033800758 1.1792276e-38 339 267
0.025107734 0.71600002 -0.03389544 1.2159985e-38 340 267
0.026363119 0.71600002 -0.03389544 1.2436211e-38 341 267
0.027618507 0.71600002 -0.03389544 1.3266364e-38 342 267
-0.035052639 0.71399999 -0.035052639 1.4006078e-38 292 268
-0.033800758 0.71399999 -0.035052639 1.3822047e-38 293 268
-0.032548878 0.71399999 -0.035052639 1.3639771e-38 294 268
-0.031296998 0.71399999 -0.035052639 1.345574e-38 295 268
-0.030045118 0.71399999 -0.035052639 1.3730525e-38 296 268
-0.028631933 0.70999998 -0.034856264 1.3453938e-38 297 268
-0.027387066 0.70999998 -0.034856264 1.3454294e-38 298 268
-0.026068559 0.708 -0.034758076 1.3269544e-38 299 268
-0.024827199 0.708 -0.034758076 1.32699e-38 300 268
-0.023552528 0.70700002 -0.034708988 1.3177704e-38 301 268
-0.022281358 0.70599997 -0.034659892 1.2901838e-38 302 268
-0.021043506 0.70599997 -0.034659892 1.2809642e-38 303 268
-0.019833706 0.70700002 -0.034708988 1.2533411e-38 304 268
-0.018567799 0.70599997 -0.034659892 1.234902e-38 305 268
-0.017329946 0.70599997 -0.034659892 1.2073512e-38 306 268
-0.016046507 0.704 -0.034561705 1.2073512e-38 307 268
-0.014812159 0.704 -0.034561705 1.2256468e-38 308 268
-0.013577812 0.704 -0.034561705 1.2164273e-38 309 268
-0.012343466 0.704 -0.034561705 1.2256468e-38 310 268
-0.011109119 0.704 -0.034561705 1.2349023e-38 311 268
-0.0098747732 0.704 -0.034561705 1.2531979e-38 312 268
-0.0086404262 0.704 -0.034561705 1.2531979e-38 313 268
-0.0074060797 0.704 -0.034561705 1.253126e-38 314 268
-0.0061717331 0.704 -0.034561705 1.253126e-38 315 268
-0.0049373866 0.704 -0.034561705 1.2622377e-38 316 268
-0.0037030398 0.704 -0.034561705 1.2438346e-38 317 268
-0.0024651866 0.70300001 -0.034512613 1.2347221e-38 318 268
-0.0012325933 0.70300001 -0.034512613 1.2347221e-38 319 268
0 0.704 -0.034561705 1.225395e-38 320 268
0.0012343467 0.704 -0.034561705 1.2161754e-38 321 268
0.0024686933 0.704 -0.034561705 1.1793342e-38 322 268
0.0037030398 0.704 -0.034561705 1.1793342e-38 323 268
0.0049373866 0.704 -0.034561705 1.2068487e-38 324 268
0.0061892662 0.70599997 -0.034659892 1.1976291e-38 325 268
0.0074271196 0.70599997 -0.034659892 1.1975574e-38 326 268
0.0086649731 0.70599997 -0.034659892 1.1883019e-38 327 268
0.0099168532 0.70700002 -0.034708988 1.1791543e-38 328 268
0.011156459 0.70700002 -0.034708988 1.1699347e-38 329 268
0.0124136 0.708 -0.034758076 1.1516035e-38 330 268
0.013654959 0.708 -0.034758076 1.1516035e-38 331 268
0.014938398 0.70999998 -0.034856264 1.169935e-38 332 268
0.016183265 0.70999998 -0.034856264 1.169935e-38 333 268
0.01745268 0.71100003 -0.034905359 1.1791548e-38 334 268
0.0186993 0.71100003 -0.034905359 1.1791548e-38 335 268
0.01994592 0.71100003 -0.034905359 1.160788e-38 336 268
0.021252153 0.713 -0.035003547 1.1792273e-38 337 268
0.022502279 0.713 -0.035003547 1.1700446e-38 338 268
0.02378572 0.71399999 -0.035052639 1.1884837e-38 339 268
0.025107734 0.71600002 -0.035150826 1.1976682e-38 340 268
0.026363119 0.71600002 -0.035150826 1.2529856e-38 341 268
0.027618507 0.71600002 -0.035150826 1.3911383e-38 342 268
-0.035052639 0.71399999 -0.036304519 1.4099002e-38 292 269
-0.033800758 0.71399999 -0.036304519 1.3637664e-38 293 269
-0.032548878 0.71399999 -0.036304519 1.3548301e-38 294 269
-0.031296998 0.71399999 -0.036304519 1.336391e-38 295 269
-0.030045118 0.71399999 -0.036304519 1.3639052e-38 296 269
-0.028793238 0.71399999 -0.036304519 1.3454661e-38 297 269
-0.027387066 0.70999998 -0.036101133 1.3453938e-38 298 269
-0.026142199 0.70999998 -0.036101133 1.3361742e-38 299 269
-0.024827199 0.708 -0.03599944 1.317843e-38 300 269
-0.023585839 0.708 -0.03599944 1.2994039e-38 301 269
-0.022312919 0.70700002 -0.035948593 1.2718172e-38 302 269
-0.021073313 0.70700002 -0.035948593 1.2625977e-38 303 269
-0.019833706 0.70700002 -0.035948593 1.2534133e-38 304 269
-0.018594101 0.70700002 -0.035948593 1.2349383e-38 305 269
-0.017329946 0.70599997 -0.035897743 1.2257543e-38 306 269
-0.016092092 0.70599997 -0.035897743 1.2257543e-38 307 269
-0.014854239 0.70599997 -0.035897743 1.2257187e-38 308 269
-0.013616386 0.70599997 -0.035897743 1.2073156e-38 309 269
-0.012378532 0.70599997 -0.035897743 1.2439786e-38 310 269
-0.011109119 0.704 -0.035796054 1.2439786e-38 311 269
-0.0098747732 0.704 -0.035796054 1.2348667e-38 312 269
-0.0086404262 0.704 -0.035796054 1.2348667e-38 313 269
-0.0074060797 0.704 -0.035796054 1.2531616e-38 314 269
-0.0061717331 0.704 -0.035796054 1.2531616e-38 315 269
-0.0049373866 0.704 -0.035796054 1.2255752e-38 316 269
-0.0037030398 0.704 -0.035796054 1.2255752e-38 317 269
-0.0024686933 0.704 -0.035796054 1.2163552e-38 318 269
-0.0012343467 0.704 -0.035796054 1.2163552e-38 319 269
0 0.704 -0.035796054 1.2254669e-38 320 269
0.0012343467 0.704 -0.035796054 1.1978442e-38 321 269
0.0024686933 0.704 -0.035796054 1.1885891e-38 322 269
0.0037135598 0.70599997 -0.035897743 1.1793695e-38 323 269
0.0049514128 0.70599997 -0.035897743 1.197701e-38 324 269
0.0061980332 0.70700002 -0.035948593 1.197701e-38 325 269
0.0074376399 0.70700002 -0.035948593 1.1884094e-38 326 269
0.008677247 0.70700002 -0.035948593 1.1791899e-38 327 269
0.0099308798 0.708 -0.03599944 1.1790824e-38 328 269
0.01117224 0.708 -0.03599944 1.1883019e-38 329 269
0.012448666 0.70999998 -0.036101133 1.1516038e-38 330 269
0.013693533 0.70999998 -0.036101133 1.1516038e-38 331 269
0.014938398 0.70999998 -0.036101133 1.169935e-38 332 269
0.01620606 0.71100003 -0.036151983 1.169935e-38 333 269
0.01745268 0.71100003 -0.036151983 1.169935e-38 334 269
0.0186993 0.71100003 -0.036151983 1.169935e-38 335 269
0.01994592 0.71100003 -0.036151983 1.160788e-38 336 269
0.021252153 0.713 -0.036253672 1.1700076e-38 337 269
0.022502279 0.713 -0.036253672 1.1700446e-38 338 269
0.02378572 0.71399999 -0.036304519 1.1977032e-38 339 269
0.025107734 0.71600002 -0.036406212 1.2069248e-38 340 269
0.02647358 0.71899998 -0.036558751 1.3083398e-38 341 269
0.027734226 0.71899998 -0.036558751 1.4372374e-38 342 269
-0.035150826 0.71600002 -0.037661601 1.428376e-38 292 270
-0.03389544 0.71600002 -0.037661601 1.3822781e-38 293 270
-0.032640055 0.71600002 -0.037661601 1.3639424e-38 294 270
-0.031384666 0.71600002 -0.037661601 1.3455393e-38 295 270
-0.03012928 0.71600002 -0.037661601 1.3546857e-38 296 270
-0.028793238 0.71399999 -0.037556399 1.3454661e-38 297 270
-0.02754136 0.71399999 -0.037556399 1.3453938e-38 298 270
-0.026142199 0.70999998 -0.037345998 1.3361742e-38 299 270
-0.024897331 0.70999998 -0.037345998 1.317843e-38 300 270
-0.023585839 0.708 -0.0372408 1.3086235e-38 301 270
-0.022344479 0.708 -0.0372408 1.2994039e-38 302 270
-0.021103119 0.708 -0.0372408 1.2809289e-38 303 270
-0.01986176 0.708 -0.0372408 1.2441937e-38 304 270
-0.018594101 0.70700002 -0.037188202 1.2349383e-38 305 270
-0.017354494 0.70700002 -0.037188202 1.2349739e-38 306 270
-0.016092092 0.70599997 -0.037135597 1.2257543e-38 307 270
-0.014854239 0.70599997 -0.037135597 1.2073159e-38 308 270
-0.013616386 0.70599997 -0.037135597 1.2073159e-38 309 270
-0.012378532 0.70599997 -0.037135597 1.2256474e-38 310 270
-0.011140679 0.70599997 -0.037135597 1.2256474e-38 311 270
-0.0099028256 0.70599997 -0.037135597 1.2439786e-38 312 270
-0.0086649731 0.70599997 -0.037135597 1.2439786e-38 313 270
-0.0074271196 0.70599997 -0.037135597 1.2439067e-38 314 270
-0.0061717331 0.704 -0.037030395 1.2439067e-38 315 270
-0.0049373866 0.704 -0.037030395 1.2439067e-38 316 270
-0.0037030398 0.704 -0.037030395 1.2346872e-38 317 270
-0.0024686933 0.704 -0.037030395 1.2346146e-38 318 270
-0.0012343467 0.704 -0.037030395 1.2346146e-38 319 270
0 0.704 -0.037030395 1.2254669e-38 320 270
0.0012378532 0.70599997 -0.037135597 1.1978442e-38 321 270
0.0024757064 0.70599997 -0.037135597 1.1978445e-38 322 270
0.0037135598 0.70599997 -0.037135597 1.1885891e-38 323 270
0.0049584266 0.70700002 -0.037188202 1.2068487e-38 324 270
0.0061980332 0.70700002 -0.037188202 1.1976291e-38 325 270
0.0074481601 0.708 -0.0372408 1.2159606e-38 326 270
0.008689519 0.708 -0.0372408 1.1975574e-38 327 270
0.0099589331 0.70999998 -0.037345998 1.1883375e-38 328 270
0.011203799 0.70999998 -0.037345998 1.1883375e-38 329 270
0.0124662 0.71100003 -0.037398599 1.1791543e-38 330 270
0.01371282 0.71100003 -0.037398599 1.1699347e-38 331 270
0.014959441 0.71100003 -0.037398599 1.1790827e-38 332 270
0.01620606 0.71100003 -0.037398599 1.1698631e-38 333 270
0.01745268 0.71100003 -0.037398599 1.1698994e-38 334 270
0.018751899 0.713 -0.037503798 1.1791548e-38 335 270
0.020002026 0.713 -0.037503798 1.1791192e-38 336 270
0.021281958 0.71399999 -0.037556399 1.1975585e-38 337 270
0.022596961 0.71600002 -0.037661601 1.1975953e-38 338 270
0.02388566 0.71700001 -0.037714198 1.2252899e-38 339 270
0.0251428 0.71700001 -0.037714198 1.2346203e-38 340 270
0.02647358 0.71899998 -0.037819397 1.3636942e-38 341 270
0.027734226 0.71899998 -0.037819397 1.446422e-38 342 270
-0.035150826 0.71600002 -0.038916986 1.4468876e-38 292 271
-0.03389544 0.71600002 -0.038916986 1.4099735e-38 293 271
-0.032640055 0.71600002 -0.038916986 1.3731622e-38 294 271
-0.031384666 0.71600002 -0.038916986 1.3639068e-38 295 271
-0.03012928 0.71600002 -0.038916986 1.3547213e-38 296 271
-0.028873893 0.71600002 -0.038916986 1.3454658e-38 297 271
-0.02754136 0.71399999 -0.038808275 1.3454291e-38 298 271
-0.026179021 0.71100003 -0.038645219 1.3362096e-38 299 271
-0.024897331 0.70999998 -0.038590867 1.317878e-38 300 271
-0.023652466 0.70999998 -0.038590867 1.2994389e-38 301 271
-0.022344479 0.708 -0.038482159 1.2994036e-38 302 271
-0.021103119 0.708 -0.038482159 1.2809645e-38 303 271
-0.01986176 0.708 -0.038482159 1.2533414e-38 304 271
-0.0186204 0.708 -0.038482159 1.2441218e-38 305 271
-0.017379038 0.708 -0.038482159 1.2257187e-38 306 271
-0.016114887 0.70700002 -0.038427804 1.2073156e-38 307 271
-0.01487528 0.70700002 -0.038427804 1.2256471e-38 308 271
-0.013635674 0.70700002 -0.038427804 1.2256471e-38 309 271
-0.012396066 0.70700002 -0.038427804 1.2439786e-38 310 271
-0.011156459 0.70700002 -0.038427804 1.2255755e-38 311 271
-0.0099028256 0.70599997 -0.038373452 1.2439067e-38 312 271
-0.0086649731 0.70599997 -0.038373452 1.2439067e-38 313 271
-0.0074271196 0.70599997 -0.038373452 1.2622377e-38 314 271
-0.0061892662 0.70599997 -0.038373452 1.2438346e-38 315 271
-0.0049514128 0.70599997 -0.038373452 1.2438346e-38 316 271
-0.0037135598 0.70599997 -0.038373452 1.2346149e-38 317 271
-0.0024757064 0.70599997 -0.038373452 1.2346865e-38 318 271
-0.0012378532 0.70599997 -0.038373452 1.2254669e-38 319 271
0 0.70599997 -0.038373452 1.2253953e-38 320 271
0.0012396066 0.70700002 -0.038427804 1.2161757e-38 321 271
0.0024792133 0.70700002 -0.038427804 1.2069206e-38 322 271
0.0037188199 0.70700002 -0.038427804 1.2069206e-38 323 271
0.0049654399 0.708 -0.038482159 1.206849e-38 324 271
0.0062067998 0.708 -0.038482159 1.1976294e-38 325 271
0.0074691991 0.70999998 -0.038590867 1.1975574e-38 326 271
0.0087140659 0.70999998 -0.038590867 1.1975574e-38 327 271
0.0099589331 0.70999998 -0.038590867 1.1883375e-38 328 271
0.01121958 0.71100003 -0.038645219 1.179118e-38 329 271
0.0124662 0.71100003 -0.038645219 1.1790824e-38 330 271
0.01371282 0.71100003 -0.038645219 1.1698628e-38 331 271
0.015001519 0.713 -0.038753927 1.1698631e-38 332 271
0.016251646 0.713 -0.038753927 1.1698631e-38 333 271
0.017501773 0.713 -0.038753927 1.1698994e-38 334 271
0.018778199 0.71399999 -0.038808275 1.1698994e-38 335 271
0.020030079 0.71399999 -0.038808275 1.1790839e-38 336 271
0.021341572 0.71600002 -0.038916986 1.1883394e-38 337 271
0.02262852 0.71700001 -0.038971342 1.1792644e-38 338 271
0.02388566 0.71700001 -0.038971342 1.2069231e-38 339 271
0.025212931 0.71899998 -0.039080046 1.2713917e-38 340 271
0.02647358 0.71899998 -0.039080046 1.4189047e-38 341 271
0.027734226 0.71899998 -0.039080046 1.4464952e-38 342 271
-0.03389544 0.71600002 -0.040172372 1.4284497e-38 293 272
-0.032640055 0.71600002 -0.040172372 1.3822041e-38 294 272
-0.031384666 0.71600002 -0.040172372 1.3729844e-38 295 272
-0.03012928 0.71600002 -0.040172372 1.354686e-38 296 272
-0.028873893 0.71600002 -0.040172372 1.3454664e-38 297 272
-0.02754136 0.71399999 -0.040060159 1.3454291e-38 298 272
-0.026252659 0.713 -0.040004052 1.3454291e-38 299 272
-0.024932399 0.71100003 -0.039891839 1.3178783e-38 300 272
-0.023685781 0.71100003 -0.039891839 1.3178783e-38 301 272
-0.022407599 0.70999998 -0.039835732 1.2994036e-38 302 272
-0.021162732 0.70999998 -0.039835732 1.290184e-38 303 272
-0.019917866 0.70999998 -0.039835732 1.2533777e-38 304 272
-0.0186204 0.708 -0.039723519 1.2349386e-38 305 272
-0.017379038 0.708 -0.039723519 1.2257187e-38 306 272
-0.01613768 0.708 -0.039723519 1.198096e-38 307 272
-0.01487528 0.70700002 -0.039667413 1.2164273e-38 308 272
-0.013635674 0.70700002 -0.039667413 1.2164273e-38 309 272
-0.012396066 0.70700002 -0.039667413 1.2439064e-38 310 272
-0.011156459 0.70700002 -0.039667413 1.2439064e-38 311 272
-0.0099168532 0.70700002 -0.039667413 1.2439064e-38 312 272
-0.008677247 0.70700002 -0.039667413 1.2439064e-38 313 272
-0.0074376399 0.70700002 -0.039667413 1.2439786e-38 314 272
-0.0061980332 0.70700002 -0.039667413 1.2255755e-38 315 272
-0.0049584266 0.70700002 -0.039667413 1.2346872e-38 316 272
-0.0037188199 0.70700002 -0.039667413 1.2346872e-38 317 272
-0.0024792133 0.70700002 -0.039667413 1.2346872e-38 318 272
-0.0012396066 0.70700002 -0.039667413 1.2254316e-38 319 272
0 0.70700002 -0.039667413 1.2254319e-38 320 272
0.0012396066 0.70700002 -0.039667413 1.1885896e-38 321 272
0.0024792133 0.70700002 -0.039667413 1.2069209e-38 322 272
0.00372408 0.708 -0.039723519 1.1977013e-38 323 272
0.0049794666 0.70999998 -0.039835732 1.2159606e-38 324 272
0.0062243328 0.70999998 -0.039835732 1.2159606e-38 325 272
0.0074691991 0.70999998 -0.039835732 1.1975571e-38 326 272
0.0087263398 0.71100003 -0.039891839 1.1975571e-38 327 272
0.0099729598 0.71100003 -0.039891839 1.1883375e-38 328 272
0.01121958 0.71100003 -0.039891839 1.179118e-38 329 272
0.012501267 0.713 -0.040004052 1.1790827e-38 330 272
0.013751393 0.713 -0.040004052 1.1698631e-38 331 272
0.015001519 0.713 -0.040004052 1.1698275e-38 332 272
0.016251646 0.713 -0.040004052 1.1698275e-38 333 272
0.017526319 0.71399999 -0.040060159 1.1698275e-38 334 272
0.018778199 0.71399999 -0.040060159 1.1790829e-38 335 272
0.020086186 0.71600002 -0.040172372 1.1790839e-38 336 272
0.021341572 0.71600002 -0.040172372 1.1975591e-38 337 272
0.02262852 0.71700001 -0.040228479 1.1976685e-38 338 272
0.023952285 0.71899998 -0.040340692 1.2345109e-38 339 272
0.025212931 0.71899998 -0.040340692 1.2990519e-38 340 272
0.02647358 0.71899998 -0.040340692 1.382064e-38 341 272
-0.032640055 0.71600002 -0.041427758 1.409827e-38 294 273
-0.031384666 0.71600002 -0.041427758 1.3729847e-38 295 273
-0.03012928 0.71600002 -0.041427758 1.3639403e-38 296 273
-0.028873893 0.71600002 -0.041427758 1.3455011e-38 297 273
-0.02754136 0.71399999 -0.041312039 1.3362812e-38 298 273
-0.026289478 0.71399999 -0.041312039 1.3362812e-38 299 273
-0.024932399 0.71100003 -0.041138459 1.3269897e-38 300 273
-0.023685781 0.71100003 -0.041138459 1.3269897e-38 301 273
-0.022407599 0.70999998 -0.041080594 1.290184e-38 302 273
-0.021162732 0.70999998 -0.041080594 1.2809645e-38 303 273
-0.019917866 0.70999998 -0.041080594 1.2441581e-38 304 273
-0.018672999 0.70999998 -0.041080594 1.225719e-38 305 273
-0.017379038 0.708 -0.040964879 1.2256468e-38 306 273
-0.01613768 0.708 -0.040964879 1.2164273e-38 307 273
-0.01489632 0.708 -0.040964879 1.2164275e-38 308 273
-0.013654959 0.708 -0.040964879 1.207208e-38 309 273
-0.0124136 0.708 -0.040964879 1.2163557e-38 310 273
-0.01117224 0.708 -0.040964879 1.2255752e-38 311 273
-0.0099308798 0.708 -0.040964879 1.2255752e-38 312 273
-0.008689519 0.708 -0.040964879 1.2439783e-38 313 273
-0.0074481601 0.708 -0.040964879 1.2439783e-38 314 273
-0.0061980332 0.70700002 -0.040907022 1.2255752e-38 315 273
-0.0049584266 0.70700002 -0.040907022 1.2346869e-38 316 273
-0.0037188199 0.70700002 -0.040907022 1.2346869e-38 317 273
-0.0024792133 0.70700002 -0.040907022 1.2346869e-38 318 273
-0.0012396066 0.70700002 -0.040907022 1.2254672e-38 319 273
0 0.70700002 -0.040907022 1.2345072e-38 320 273
0.00124136 0.708 -0.040964879 1.2345072e-38 321 273
0.00248272 0.708 -0.040964879 1.2251802e-38 322 273
0.0037345996 0.70999998 -0.041080594 1.2251802e-38 323 273
0.0049794666 0.70999998 -0.041080594 1.1976291e-38 324 273
0.0062330998 0.71100003 -0.041138459 1.1884094e-38 325 273
0.0074797203 0.71100003 -0.041138459 1.2158883e-38 326 273
0.0087263398 0.71100003 -0.041138459 1.2066688e-38 327 273
0.010001013 0.713 -0.041254178 1.1974492e-38 328 273
0.011251139 0.713 -0.041254178 1.1974492e-38 329 273
0.012501267 0.713 -0.041254178 1.1790824e-38 330 273
0.013751393 0.713 -0.041254178 1.1698628e-38 331 273
0.015001519 0.713 -0.041254178 1.1698631e-38 332 273
0.016274439 0.71399999 -0.041312039 1.1698631e-38 333 273
0.017526319 0.71399999 -0.041312039 1.1514966e-38 334 273
0.0188308 0.71600002 -0.041427758 1.1791192e-38 335 273
0.020086186 0.71600002 -0.041427758 1.1699376e-38 336 273
0.021371379 0.71700001 -0.041485619 1.2067799e-38 337 273
0.022691639 0.71899998 -0.041601337 1.1793032e-38 338 273
0.023952285 0.71899998 -0.041601337 1.2530599e-38 339 273
0.025212931 0.71899998 -0.041601337 1.3175636e-38 340 273
-0.031384666 0.71600002 -0.042683143 1.3546914e-38 295 274
-0.03012928 0.71600002 -0.042683143 1.3455393e-38 296 274
-0.028873893 0.71600002 -0.042683143 1.3362838e-38 297 274
-0.027618507 0.71600002 -0.042683143 1.3454658e-38 298 274
-0.026289478 0.71399999 -0.042563915 1.3362461e-38 299 274
-0.025037598 0.71399999 -0.042563915 1.3086232e-38 300 274
-0.023752406 0.713 -0.042504307 1.2994036e-38 301 274
-0.022439159 0.71100003 -0.042385083 1.2809645e-38 302 274
-0.021192541 0.71100003 -0.042385083 1.2717448e-38 303 274
-0.01994592 0.71100003 -0.042385083 1.2441934e-38 304 274
-0.018672999 0.70999998 -0.042325463 1.2257543e-38 305 274
-0.017428132 0.70999998 -0.042325463 1.2256468e-38 306 274
-0.016183265 0.70999998 -0.042325463 1.2164273e-38 307 274
-0.014938398 0.70999998 -0.042325463 1.2164275e-38 308 274
-0.013693533 0.70999998 -0.042325463 1.207208e-38 309 274
-0.012448666 0.70999998 -0.042325463 1.2346865e-38 310 274
-0.011203799 0.70999998 -0.042325463 1.2346865e-38 311 274
-0.0099589331 0.70999998 -0.042325463 1.2346865e-38 312 274
-0.0087140659 0.70999998 -0.042325463 1.2346865e-38 313 274
-0.0074691991 0.70999998 -0.042325463 1.2438346e-38 314 274
-0.0062067998 0.708 -0.042206239 1.2438346e-38 315 274
-0.0049654399 0.708 -0.042206239 1.2255755e-38 316 274
-0.00372408 0.708 -0.042206239 1.2163201e-38 317 274
-0.00248272 0.708 -0.042206239 1.2346869e-38 318 274
-0.00124136 0.708 -0.042206239 1.2254672e-38 319 274
0 0.708 -0.042206239 1.2070641e-38 320 274
0.0012448666 0.70999998 -0.042325463 1.1885891e-38 321 274
0.0024897333 0.70999998 -0.042325463 1.2068843e-38 322 274
0.0037398601 0.71100003 -0.042385083 1.1976288e-38 323 274
0.0049864799 0.71100003 -0.042385083 1.1975571e-38 324 274
0.0062330998 0.71100003 -0.042385083 1.1975571e-38 325 274
0.0075007593 0.713 -0.042504307 1.2158164e-38 326 274
0.0087508867 0.713 -0.042504307 1.2158164e-38 327 274
0.010001013 0.713 -0.042504307 1.1974492e-38 328 274
0.011251139 0.713 -0.042504307 1.1974492e-38 329 274
0.012518799 0.71399999 -0.042563915 1.1790827e-38 330 274
0.01377068 0.71399999 -0.042563915 1.1790827e-38 331 274
0.015022559 0.71399999 -0.042563915 1.1698994e-38 332 274
0.016320027 0.71600002 -0.042683143 1.1514963e-38 333 274
0.017575413 0.71600002 -0.042683143 1.1514966e-38 334 274
0.018857099 0.71700001 -0.042742759 1.1791192e-38 335 274
0.020114239 0.71700001 -0.042742759 1.1700092e-38 336 274
0.021371379 0.71700001 -0.042742759 1.1977038e-38 337 274
0.022691639 0.71899998 -0.042861983 1.2252941e-38 338 274
0.023952285 0.71899998 -0.042861983 1.3174537e-38 339 274
-0.031428497 0.71700001 -0.043999899 1.3639478e-38 295 275
-0.030171359 0.71700001 -0.043999899 1.3639073e-38 296 275
-0.028914221 0.71700001 -0.043999899 1.3362488e-38 297 275
-0.027657079 0.71700001 -0.043999899 1.3362465e-38 298 275
-0.026363119 0.71600002 -0.043938532 1.3178433e-38 299 275
-0.025037598 0.71399999 -0.043815799 1.3269544e-38 300 275
-0.02378572 0.71399999 -0.043815799 1.3085153e-38 301 275
-0.022502279 0.713 -0.043754432 1.2901475e-38 302 275
-0.021252153 0.713 -0.043754432 1.2809278e-38 303 275
-0.01994592 0.71100003 -0.043631699 1.2441569e-38 304 275
