# .PCD v.7 - Point Cloud Data file format
FIELDS x y z rgb imX imY
SIZE 4 4 4 4 4 4
TYPE F F F F F F
COUNT 1 1 1 1 1 1
WIDTH 843
HEIGHT 1
VIEWPOINT 0 0 0 1 0 0 0
POINTS 843
DATA ascii
0.036593821 0.773 0.0013553266 9.9584523e-39 347 239
0.038096428 0.77600002 0.0013605866 1.0049231e-38 348 239
0.039457016 0.77600002 0.0013605866 1.1800588e-38 349 239
0.0408176 0.77600002 0.0013605866 1.4743688e-38 350 239
0.042178184 0.77600002 0.0013605866 1.4651132e-38 351 239
-0.034409165 0.78500003 -0 1.5856557e-38 295 240
-0.032948639 0.78299999 -0 1.5211891e-38 296 240
-0.031495128 0.78100002 -0 1.3275783e-38 297 240
-0.030125774 0.78100002 -0 1.1344301e-38 298 240
-0.028719598 0.77999997 -0 1.1344301e-38 299 240
-0.027351998 0.77999997 -0 1.1160947e-38 300 240
-0.025917772 0.778 -0 1.069997e-38 301 240
-0.02442744 0.77399999 -0 9.2305758e-39 302 240
-0.02298094 0.77100003 -0 8.5852064e-39 303 240
-0.021629119 0.77100003 -0 8.1271177e-39 304 240
-0.020277301 0.77100003 -0 8.311509e-39 305 240
-0.018876385 0.76899999 -0 7.6708689e-39 306 240
-0.017528072 0.76899999 -0 8.9616078e-39 307 240
-0.016179759 0.76899999 -0 1.0894508e-38 308 240
-0.014792874 0.76700002 -0 1.1724628e-38 309 240
-0.013448066 0.76700002 -0 1.2094502e-38 310 240
-0.01210326 0.76700002 -0 1.3477436e-38 311 240
-0.010744425 0.76599997 -0 1.5591822e-38 312 240
-0.0093768267 0.764 -0 1.5315237e-38 313 240
-0.0080372803 0.764 -0 1.5592172e-38 314 240
-0.0066801999 0.76200002 -0 1.5592172e-38 315 240
-0.0053441599 0.76200002 -0 1.5404894e-38 316 240
-0.0040081199 0.76200002 -0 1.4206351e-38 317 240
-0.00267208 0.76200002 -0 1.3470193e-38 318 240
-0.00133604 0.76200002 -0 1.2917019e-38 319 240
0 0.76200002 -0 1.2179044e-38 320 240
0.0013342865 0.76099998 -0 1.2179044e-38 321 240
0.0026685731 0.76099998 -0 1.2086453e-38 322 240
0.0040028598 0.76099998 -0 1.2086453e-38 323 240
0.0053371461 0.76099998 -0 1.2269397e-38 324 240
0.0066714329 0.76099998 -0 1.199317e-38 325 240
0.0080057196 0.76099998 -0 1.2266516e-38 326 240
0.0093400059 0.76099998 -0 1.2081766e-38 327 240
0.010674292 0.76099998 -0 1.1714061e-38 328 240
0.012008579 0.76099998 -0 1.1621865e-38 329 240
0.013342866 0.76099998 -0 1.1345645e-38 330 240
0.01469644 0.76200002 -0 1.1161254e-38 331 240
0.01603248 0.76200002 -0 1.0885393e-38 332 240
0.01736852 0.76200002 -0 1.0885393e-38 333 240
0.01870456 0.76200002 -0 1.0517335e-38 334 240
0.020093199 0.764 -0 1.0517335e-38 335 240
0.021432746 0.764 -0 1.0699572e-38 336 240
0.022772292 0.764 -0 1.0607377e-38 337 240
0.024111839 0.764 -0 1.0789973e-38 338 240
0.025518013 0.76599997 -0 1.0421549e-38 339 240
0.026861066 0.76599997 -0 1.0787452e-38 340 240
0.02824094 0.76700002 -0 1.0326834e-38 341 240
0.029585747 0.76700002 -0 9.8665761e-39 342 240
0.031011207 0.76899999 -0 9.6821877e-39 343 240
0.032359518 0.76899999 -0 9.4066882e-39 344 240
0.033795502 0.77100003 -0 9.4988838e-39 345 240
0.03514732 0.77100003 -0 9.5907473e-39 346 240
0.036593821 0.773 -0 9.8673356e-39 347 240
0.037998237 0.77399999 -0 1.0602052e-38 348 240
0.039457016 0.77600002 -0 1.1984986e-38 349 240
0.040922798 0.778 -0 1.4838767e-38 350 240
-0.034409165 0.78500003 -0.0013763667 1.5857273e-38 295 241
-0.032948639 0.78299999 -0.0013728599 1.5213689e-38 296 241
-0.031495128 0.78100002 -0.0013693533 1.3553809e-38 297 241
-0.030125774 0.78100002 -0.0013693533 1.1896751e-38 298 241
-0.028719598 0.77999997 -0.0013675999 1.1343936e-38 299 241
-0.027351998 0.77999997 -0.0013675999 1.0886152e-38 300 241
-0.025917772 0.778 -0.0013640933 1.0517371e-38 301 241
-0.02442744 0.77399999 -0.0013570799 1.0058544e-38 302 241
-0.02298094 0.77100003 -0.00135182 9.9659884e-39 303 241
-0.021629119 0.77100003 -0.00135182 9.6901274e-39 304 241
-0.020277301 0.77100003 -0.00135182 9.782323e-39 305 241
-0.018876385 0.76899999 -0.0013483133 8.6806698e-39 306 241
-0.017528072 0.76899999 -0.0013483133 9.4182349e-39 307 241
-0.016179759 0.76899999 -0.0013483133 9.8799557e-39 308 241
-0.014792874 0.76700002 -0.0013448066 1.0525325e-38 309 241
-0.013448066 0.76700002 -0.0013448066 1.1079253e-38 310 241
-0.01210326 0.76700002 -0.0013448066 1.3200112e-38 311 241
-0.010744425 0.76599997 -0.0013430532 1.485533e-38 312 241
-0.0093768267 0.764 -0.0013395466 1.4486548e-38 313 241
-0.0080372803 0.764 -0.0013395466 1.4854958e-38 314 241
-0.0066801999 0.76200002 -0.00133604 1.4854958e-38 315 241
-0.0053441599 0.76200002 -0.00133604 1.4390717e-38 316 241
-0.0040081199 0.76200002 -0.00133604 1.3192174e-38 317 241
-0.00267208 0.76200002 -0.00133604 1.2918436e-38 318 241
-0.00133604 0.76200002 -0.00133604 1.2273425e-38 319 241
0 0.76200002 -0.00133604 1.1902097e-38 320 241
0.0013342865 0.76099998 -0.0013342865 1.1902097e-38 321 241
0.0026685731 0.76099998 -0.0013342865 1.2177942e-38 322 241
0.0040028598 0.76099998 -0.0013342865 1.2085747e-38 323 241
0.0053371461 0.76099998 -0.0013342865 1.2176498e-38 324 241
0.0066714329 0.76099998 -0.0013342865 1.1992466e-38 325 241
0.0080057196 0.76099998 -0.0013342865 1.1898822e-38 326 241
0.0093400059 0.76099998 -0.0013342865 1.1530039e-38 327 241
0.010674292 0.76099998 -0.0013342865 1.1529316e-38 328 241
0.012008579 0.76099998 -0.0013342865 1.1436762e-38 329 241
0.013342866 0.76099998 -0.0013342865 1.1067985e-38 330 241
0.01469644 0.76200002 -0.00133604 1.0975789e-38 331 241
0.01603248 0.76200002 -0.00133604 1.0700647e-38 332 241
0.01736852 0.76200002 -0.00133604 1.0608452e-38 333 241
0.01870456 0.76200002 -0.00133604 1.0424418e-38 334 241
0.020093199 0.764 -0.0013395466 1.0424418e-38 335 241
0.021432746 0.764 -0.0013395466 1.0791045e-38 336 241
0.022831906 0.76599997 -0.0013430532 1.0514818e-38 337 241
0.024174958 0.76599997 -0.0013430532 1.0605582e-38 338 241
0.025518013 0.76599997 -0.0013430532 1.0328995e-38 339 241
0.026896132 0.76700002 -0.0013448066 1.0143885e-38 340 241
0.02824094 0.76700002 -0.0013448066 9.959492e-39 341 241
0.029585747 0.76700002 -0.0013448066 9.5914326e-39 342 241
0.031011207 0.76899999 -0.0013483133 9.4992369e-39 343 241
0.032359518 0.76899999 -0.0013483133 9.3152212e-39 344 241
0.033795502 0.77100003 -0.00135182 9.591448e-39 345 241
0.03514732 0.77100003 -0.00135182 9.6829444e-39 346 241
0.036593821 0.773 -0.0013553266 1.0236117e-38 347 241
0.037998237 0.77399999 -0.0013570799 1.0787159e-38 348 241
0.039457016 0.77600002 -0.0013605866 1.2077898e-38 349 241
-0.034189999 0.77999997 -0.0027351999 1.5856554e-38 295 242
-0.032822397 0.77999997 -0.0027351999 1.5213333e-38 296 242
-0.031495128 0.78100002 -0.0027387065 1.4015148e-38 297 242
-0.030125774 0.78100002 -0.0027387065 1.2633242e-38 298 242
-0.028719598 0.77999997 -0.0027351999 1.161909e-38 299 242
-0.027351998 0.77999997 -0.0027351999 1.0979068e-38 300 242
-0.025917772 0.778 -0.0027281865 1.051809e-38 301 242
-0.024490559 0.77600002 -0.0027211732 1.0150018e-38 302 242
-0.023040552 0.773 -0.0027106532 1.0057821e-38 303 242
-0.021685226 0.773 -0.0027106532 9.4156887e-39 304 242
-0.020277301 0.77100003 -0.0027036399 9.3234931e-39 305 242
-0.018925481 0.77100003 -0.0027036399 9.1401808e-39 306 242
-0.017528072 0.76899999 -0.0026966266 9.4167691e-39 307 242
-0.016179759 0.76899999 -0.0026966266 9.510055e-39 308 242
-0.014831445 0.76899999 -0.0026966266 9.8788389e-39 309 242
-0.013448066 0.76700002 -0.0026896133 1.0065078e-38 310 242
-0.01210326 0.76700002 -0.0026896133 1.1632764e-38 311 242
-0.010744425 0.76599997 -0.0026861064 1.3011045e-38 312 242
-0.0094013726 0.76599997 -0.0026861064 1.2734818e-38 313 242
-0.0080372803 0.764 -0.0026790933 1.273407e-38 314 242
-0.006697733 0.764 -0.0026790933 1.2641874e-38 315 242
-0.0053581866 0.764 -0.0026790933 1.2915908e-38 316 242
-0.0040081199 0.76200002 -0.00267208 1.2546765e-38 317 242
-0.00267208 0.76200002 -0.00267208 1.199646e-38 318 242
-0.00133604 0.76200002 -0.00267208 1.1904264e-38 319 242
0 0.76200002 -0.00267208 1.1994296e-38 320 242
0.00133604 0.76200002 -0.00267208 1.1902099e-38 321 242
0.0026685731 0.76099998 -0.0026685731 1.1718769e-38 322 242
0.0040028598 0.76099998 -0.0026685731 1.1626573e-38 323 242
0.0053371461 0.76099998 -0.0026685731 1.1717321e-38 324 242
0.0066714329 0.76099998 -0.0026685731 1.1532929e-38 325 242
0.0080057196 0.76099998 -0.0026685731 1.1530765e-38 326 242
0.0093400059 0.76099998 -0.0026685731 1.1161983e-38 327 242
0.010674292 0.76099998 -0.0026685731 1.1068352e-38 328 242
0.012008579 0.76099998 -0.0026685731 1.0699928e-38 329 242
0.0133604 0.76200002 -0.00267208 1.088289e-38 330 242
0.01469644 0.76200002 -0.00267208 1.0790695e-38 331 242
0.01603248 0.76200002 -0.00267208 1.0240042e-38 332 242
0.01736852 0.76200002 -0.00267208 1.0240042e-38 333 242
0.01870456 0.76200002 -0.00267208 1.0056361e-38 334 242
0.020093199 0.764 -0.0026790933 1.0056361e-38 335 242
0.021432746 0.764 -0.0026790933 1.0238953e-38 336 242
0.022831906 0.76599997 -0.0026861064 1.0054203e-38 337 242
0.024174958 0.76599997 -0.0026861064 9.9620101e-39 338 242
0.025518013 0.76599997 -0.0026861064 9.7776189e-39 339 242
0.026896132 0.76700002 -0.0026896133 9.9602095e-39 340 242
0.02824094 0.76700002 -0.0026896133 9.8680124e-39 341 242
0.02966289 0.76899999 -0.0026966266 9.6836282e-39 342 242
0.031011207 0.76899999 -0.0026966266 9.5914326e-39 343 242
0.032443684 0.77100003 -0.0027036399 9.5907319e-39 344 242
0.033795502 0.77100003 -0.0027036399 9.8669587e-39 345 242
0.035238493 0.773 -0.0027106532 1.0142846e-38 346 242
0.036593821 0.773 -0.0027106532 1.069602e-38 347 242
0.037998237 0.77399999 -0.0027141599 1.1522932e-38 348 242
0.039355319 0.77399999 -0.0027141599 1.2998062e-38 349 242
-0.034189999 0.77999997 -0.0041027996 1.585691e-38 295 243
-0.032822397 0.77999997 -0.0041027996 1.512114e-38 296 243
-0.031495128 0.78100002 -0.0041080597 1.4383575e-38 297 243
-0.030125774 0.78100002 -0.0041080597 1.3370457e-38 298 243
-0.028719598 0.77999997 -0.0041027996 1.161874e-38 299 243
-0.027351998 0.77999997 -0.0041027996 1.0978002e-38 300 243
-0.025784519 0.77399999 -0.0040712398 1.0793251e-38 301 243
-0.02442744 0.77399999 -0.0040712398 1.0425532e-38 302 243
-0.023040552 0.773 -0.0040659797 1.0332977e-38 303 243
-0.021685226 0.773 -0.0040659797 9.5075214e-39 304 243
-0.020277301 0.77100003 -0.0040554604 9.4149671e-39 305 243
-0.018925481 0.77100003 -0.0040554604 9.3234903e-39 306 243
-0.017528072 0.76899999 -0.0040449398 9.5082403e-39 307 243
-0.016179759 0.76899999 -0.0040449398 9.2330925e-39 308 243
-0.014831445 0.76899999 -0.0040449398 9.3252896e-39 309 243
-0.013448066 0.76700002 -0.00403442 9.0512446e-39 310 243
-0.01210326 0.76700002 -0.00403442 9.8810067e-39 311 243
-0.010758453 0.76700002 -0.00403442 1.0799734e-38 312 243
-0.0094013726 0.76599997 -0.0040291594 1.0431312e-38 313 243
-0.0080372803 0.764 -0.0040186401 1.0798623e-38 314 243
-0.006697733 0.764 -0.0040186401 1.0614232e-38 315 243
-0.0053581866 0.764 -0.0040186401 1.1165612e-38 316 243
-0.0040081199 0.76200002 -0.0040081199 1.1442198e-38 317 243
-0.00267208 0.76200002 -0.0040081199 1.1258548e-38 318 243
-0.00133604 0.76200002 -0.0040081199 1.144294e-38 319 243
0 0.76200002 -0.0040081199 1.1625885e-38 320 243
0.00133604 0.76200002 -0.0040081199 1.1625885e-38 321 243
0.0026685731 0.76099998 -0.0040028598 1.1534746e-38 322 243
0.0040028598 0.76099998 -0.0040028598 1.1442192e-38 323 243
0.0053371461 0.76099998 -0.0040028598 1.1441462e-38 324 243
0.0066801999 0.76200002 -0.0040081199 1.1164516e-38 325 243
0.0080057196 0.76099998 -0.0040028598 1.1345663e-38 326 243
0.0093400059 0.76099998 -0.0040028598 1.0884687e-38 327 243
0.010674292 0.76099998 -0.0040028598 1.0607029e-38 328 243
0.012008579 0.76099998 -0.0040028598 1.0146051e-38 329 243
0.0133604 0.76200002 -0.0040081199 1.0421213e-38 330 243
0.01469644 0.76200002 -0.0040081199 1.0329016e-38 331 243
0.01603248 0.76200002 -0.0040081199 1.0054221e-38 332 243
0.01736852 0.76200002 -0.0040081199 1.0054221e-38 333 243
0.018753653 0.764 -0.0040186401 9.8716124e-39 334 243
0.020093199 0.764 -0.0040186401 9.7794168e-39 335 243
0.021432746 0.764 -0.0040186401 9.7786923e-39 336 243
0.022831906 0.76599997 -0.0040291594 9.6864967e-39 337 243
0.024174958 0.76599997 -0.0040291594 9.7772517e-39 338 243
0.025551327 0.76700002 -0.00403442 9.6850575e-39 339 243
0.026896132 0.76700002 -0.00403442 9.5013865e-39 340 243
0.028314579 0.76899999 -0.0040449398 9.4091923e-39 341 243
0.02966289 0.76899999 -0.0040449398 9.5914326e-39 342 243
0.031091858 0.77100003 -0.0040554604 9.5914326e-39 343 243
0.032443684 0.77100003 -0.0040554604 9.6825716e-39 344 243
0.033883166 0.773 -0.0040659797 9.9591585e-39 345 243
0.035238493 0.773 -0.0040659797 1.0234694e-38 346 243
0.036593821 0.773 -0.0040659797 1.0787509e-38 347 243
0.037998237 0.77399999 -0.0040712398 1.2167598e-38 348 243
0.039355319 0.77399999 -0.0040712398 1.4011152e-38 349 243
-0.034189999 0.77999997 -0.0054703997 1.5581043e-38 295 244
-0.032822397 0.77999997 -0.0054703997 1.502931e-38 296 244
-0.031454798 0.77999997 -0.0054703997 1.4383941e-38 297 244
-0.030087199 0.77999997 -0.0054703997 1.3738891e-38 298 244
-0.028645959 0.778 -0.0054563731 1.1986814e-38 299 244
-0.027211733 0.77600002 -0.0054423464 1.1160964e-38 300 244
-0.025784519 0.77399999 -0.0054283198 1.1160964e-38 301 244
-0.02442744 0.77399999 -0.0054283198 1.0792882e-38 302 244
-0.023040552 0.773 -0.0054213065 1.0700686e-38 303 244
-0.021685226 0.773 -0.0054213065 9.7837524e-39 304 244
-0.0203299 0.773 -0.0054213065 9.5071655e-39 305 244
-0.018925481 0.77100003 -0.0054072798 9.2327296e-39 306 244
-0.01757366 0.77100003 -0.0054072798 9.2327296e-39 307 244
-0.016179759 0.76899999 -0.0053932532 9.4156705e-39 308 244
-0.014792874 0.76700002 -0.0053792265 9.4156705e-39 309 244
-0.013448066 0.76700002 -0.0053792265 9.3249224e-39 310 244
-0.01210326 0.76700002 -0.0053792265 9.6937049e-39 311 244
-0.010758453 0.76700002 -0.0053792265 9.9699387e-39 312 244
-0.0094013726 0.76599997 -0.0053722127 9.9699387e-39 313 244
-0.0080372803 0.764 -0.0053581866 1.089008e-38 314 244
-0.006697733 0.764 -0.0053581866 1.0982276e-38 315 244
-0.0053581866 0.764 -0.0053581866 1.1165612e-38 316 244
-0.0040081199 0.76200002 -0.0053441599 1.1442198e-38 317 244
-0.00267208 0.76200002 -0.0053441599 1.1074516e-38 318 244
-0.00133604 0.76200002 -0.0053441599 1.1258548e-38 319 244
0 0.76200002 -0.0053441599 1.1257823e-38 320 244
0.00133604 0.76200002 -0.0053441599 1.1257823e-38 321 244
0.00267208 0.76200002 -0.0053441599 1.125781e-38 322 244
0.0040081199 0.76200002 -0.0053441599 1.1165615e-38 323 244
0.0053441599 0.76200002 -0.0053441599 1.1440027e-38 324 244
0.0066801999 0.76200002 -0.0053441599 1.1071605e-38 325 244
0.0080162399 0.76200002 -0.0053441599 1.0518781e-38 326 244
0.0093522798 0.76200002 -0.0053441599 9.5964646e-39 327 244
0.01068832 0.76200002 -0.0053441599 1.032901e-38 328 244
0.01202436 0.76200002 -0.0053441599 9.9605878e-39 329 244
0.0133604 0.76200002 -0.0053441599 9.9602375e-39 330 244
0.01469644 0.76200002 -0.0053441599 1.0144269e-38 331 244
0.01603248 0.76200002 -0.0053441599 9.7776385e-39 332 244
0.01736852 0.76200002 -0.0053441599 9.9620284e-39 333 244
0.018753653 0.764 -0.0053581866 9.5957514e-39 334 244
0.020093199 0.764 -0.0053581866 9.5035557e-39 335 244
0.021488851 0.76599997 -0.0053722127 9.6864995e-39 336 244
0.022831906 0.76599997 -0.0053722127 9.5021082e-39 337 244
0.024174958 0.76599997 -0.0053722127 9.5017453e-39 338 244
0.025617953 0.76899999 -0.0053932532 9.409551e-39 339 244
0.026966266 0.76899999 -0.0053932532 9.4091923e-39 340 244
0.028314579 0.76899999 -0.0053932532 9.4091923e-39 341 244
0.029740039 0.77100003 -0.0054072798 9.5917955e-39 342 244
0.031091858 0.77100003 -0.0054072798 9.5917955e-39 343 244
0.032527838 0.773 -0.0054213065 9.8666069e-39 344 244
0.033883166 0.773 -0.0054213065 1.0143553e-38 345 244
0.035238493 0.773 -0.0054213065 1.0604197e-38 346 244
0.036593821 0.773 -0.0054213065 1.1065175e-38 347 244
0.037949149 0.773 -0.0054213065 1.2814409e-38 348 244
-0.034189999 0.77999997 -0.0068379994 1.5581399e-38 295 245
-0.032822397 0.77999997 -0.0068379994 1.5120787e-38 296 245
-0.031454798 0.77999997 -0.0068379994 1.4567613e-38 297 245
-0.030087199 0.77999997 -0.0068379994 1.3832177e-38 298 245
-0.028645959 0.778 -0.0068204664 1.1988264e-38 299 245
-0.027211733 0.77600002 -0.0068029333 1.1437198e-38 300 245
-0.025784519 0.77399999 -0.0067853997 1.1252806e-38 301 245
-0.02442744 0.77399999 -0.0067853997 1.1068749e-38 302 245
-0.023040552 0.773 -0.0067766332 1.0976553e-38 303 245
-0.021685226 0.773 -0.0067766332 9.9677779e-39 304 245
-0.0203299 0.773 -0.0067766332 9.7830265e-39 305 245
-0.018925481 0.77100003 -0.0067590997 9.3241965e-39 306 245
-0.01757366 0.77100003 -0.0067590997 9.3241965e-39 307 245
-0.016179759 0.76899999 -0.0067415666 9.3234777e-39 308 245
-0.014792874 0.76700002 -0.006724033 9.3234777e-39 309 245
-0.013448066 0.76700002 -0.006724033 9.2323737e-39 310 245
-0.01210326 0.76700002 -0.006724033 9.4171251e-39 311 245
-0.010758453 0.76700002 -0.006724033 9.8762983e-39 312 245
-0.0094136465 0.76700002 -0.006724033 9.968494e-39 313 245
-0.0080583189 0.76599997 -0.0067152665 1.0797529e-38 314 245
-0.0067152665 0.76599997 -0.0067152665 1.098192e-38 315 245
-0.0053581866 0.764 -0.006697733 1.088975e-38 316 245
-0.0040081199 0.76200002 -0.0066801999 1.088975e-38 317 245
-0.00267208 0.76200002 -0.0066801999 1.0706451e-38 318 245
-0.00133604 0.76200002 -0.0066801999 1.0706451e-38 319 245
0 0.76200002 -0.0066801999 1.0706807e-38 320 245
0.00133604 0.76200002 -0.0066801999 1.0890838e-38 321 245
0.00267208 0.76200002 -0.0066801999 1.1073782e-38 322 245
0.0040081199 0.76200002 -0.0066801999 1.088975e-38 323 245
0.0053441599 0.76200002 -0.0066801999 1.107197e-38 324 245
0.0066801999 0.76200002 -0.0066801999 1.0518796e-38 325 245
0.0080162399 0.76200002 -0.0066801999 1.0057818e-38 326 245
0.0093522798 0.76200002 -0.0066801999 9.2280577e-39 327 245
0.01068832 0.76200002 -0.0066801999 9.8680419e-39 328 245
0.01202436 0.76200002 -0.0066801999 9.7754875e-39 329 245
0.0133604 0.76200002 -0.0066801999 9.5921781e-39 330 245
0.01469644 0.76200002 -0.0066801999 9.7762092e-39 331 245
0.016074561 0.764 -0.006697733 9.4095847e-39 332 245
0.017414106 0.764 -0.006697733 9.5936158e-39 333 245
0.018753653 0.764 -0.006697733 9.4102979e-39 334 245
0.020145798 0.76599997 -0.0067152665 9.4102979e-39 335 245
0.021488851 0.76599997 -0.0067152665 9.3184428e-39 336 245
0.022861714 0.76700002 -0.006724033 9.225887e-39 337 245
0.024206521 0.76700002 -0.006724033 9.5017453e-39 338 245
0.025617953 0.76899999 -0.0067415666 9.409551e-39 339 245
0.027036399 0.77100003 -0.0067590997 9.4088336e-39 340 245
0.028388219 0.77100003 -0.0067590997 9.4088336e-39 341 245
0.029740039 0.77100003 -0.0067590997 9.6832779e-39 342 245
0.03117251 0.773 -0.0067766332 9.867309e-39 343 245
0.032527838 0.773 -0.0067766332 1.0051001e-38 344 245
0.033883166 0.773 -0.0067766332 1.0327947e-38 345 245
0.035238493 0.773 -0.0067766332 1.088043e-38 346 245
0.036593821 0.773 -0.0067766332 1.1710192e-38 347 245
0.037949149 0.773 -0.0067766332 1.3643821e-38 348 245
-0.034189999 0.77999997 -0.0082055992 1.558069e-38 295 246
-0.032822397 0.77999997 -0.0082055992 1.4844926e-38 296 246
-0.031454798 0.77999997 -0.0082055992 1.4567979e-38 297 246
-0.030125774 0.78100002 -0.0082161194 1.3923666e-38 298 246
-0.028756421 0.78100002 -0.0082161194 1.2632927e-38 299 246
-0.027211733 0.77600002 -0.0081635201 1.189747e-38 300 246
-0.025784519 0.77399999 -0.0081424797 1.0791481e-38 301 246
-0.02442744 0.77399999 -0.0081424797 1.0885083e-38 302 246
-0.023040552 0.773 -0.0081319595 1.0792888e-38 303 246
-0.021685226 0.773 -0.0081319595 9.8755949e-39 304 246
-0.0203299 0.773 -0.0081319595 9.5993667e-39 305 246
-0.018974574 0.773 -0.0081319595 9.3245693e-39 306 246
-0.01757366 0.77100003 -0.0081109209 9.140178e-39 307 246
-0.016179759 0.76899999 -0.0080898795 9.3241937e-39 308 246
-0.014831445 0.76899999 -0.0080898795 9.1401626e-39 309 246
-0.013448066 0.76700002 -0.00806884 9.3231063e-39 310 246
-0.01210326 0.76700002 -0.00806884 9.5074962e-39 311 246
-0.010758453 0.76700002 -0.00806884 9.8751969e-39 312 246
-0.0094136465 0.76700002 -0.00806884 9.8751969e-39 313 246
-0.0080583189 0.76599997 -0.0080583189 9.9692002e-39 314 246
-0.0067152665 0.76599997 -0.0080583189 9.8766458e-39 315 246
-0.0053581866 0.764 -0.0080372803 9.6947993e-39 316 246
-0.0040186401 0.764 -0.0080372803 1.0063223e-38 317 246
-0.0026790933 0.764 -0.0080372803 1.0797201e-38 318 246
-0.0013395466 0.764 -0.0080372803 1.0797201e-38 319 246
0 0.76200002 -0.0080162399 1.0889752e-38 320 246
0.00133604 0.76200002 -0.0080162399 1.0797557e-38 321 246
0.00267208 0.76200002 -0.0080162399 1.0981222e-38 322 246
0.0040081199 0.76200002 -0.0080162399 1.0888668e-38 323 246
0.0053441599 0.76200002 -0.0080162399 1.0703544e-38 324 246
0.0066801999 0.76200002 -0.0080162399 9.8734243e-39 325 246
0.0080162399 0.76200002 -0.0080162399 1.0145698e-38 326 246
0.0093522798 0.76200002 -0.0080162399 9.7769154e-39 327 246
0.01068832 0.76200002 -0.0080162399 9.6829247e-39 328 246
0.01202436 0.76200002 -0.0080162399 9.6829247e-39 329 246
0.013395466 0.764 -0.0080372803 9.591448e-39 330 246
0.014735013 0.764 -0.0080372803 9.6836436e-39 331 246
0.016074561 0.764 -0.0080372803 9.6836436e-39 332 246
0.017414106 0.764 -0.0080372803 9.6836436e-39 333 246
0.018753653 0.764 -0.0080372803 9.408849e-39 334 246
0.020145798 0.76599997 -0.0080583189 9.408849e-39 335 246
0.021516906 0.76700002 -0.00806884 9.5013879e-39 336 246
0.022921326 0.76899999 -0.0080898795 9.4088336e-39 337 246
0.024269639 0.76899999 -0.0080898795 9.409551e-39 338 246
0.02568458 0.77100003 -0.0081109209 9.409551e-39 339 246
0.027036399 0.77100003 -0.0081109209 9.4088364e-39 340 246
0.028461859 0.773 -0.0081319595 9.501032e-39 341 246
0.029817186 0.773 -0.0081319595 9.7758406e-39 342 246
0.03117251 0.773 -0.0081319595 9.8680363e-39 343 246
0.032569919 0.77399999 -0.0081424797 9.9595313e-39 344 246
0.033883166 0.773 -0.0081319595 1.0328314e-38 345 246
0.035238493 0.773 -0.0081319595 1.1248863e-38 346 246
0.036593821 0.773 -0.0081319595 1.2355211e-38 347 246
-0.032822397 0.77999997 -0.0095731998 1.4844926e-38 296 247
-0.031454798 0.77999997 -0.0095731998 1.4383587e-38 297 247
-0.030087199 0.77999997 -0.0095731998 1.3648527e-38 298 247
-0.028572321 0.77600002 -0.009524107 1.2910961e-38 299 247
-0.027211733 0.77600002 -0.009524107 1.2632889e-38 300 247
-0.025851147 0.77600002 -0.009524107 1.1434346e-38 301 247
-0.02442744 0.77399999 -0.0094995592 1.0609938e-38 302 247
-0.02307036 0.77399999 -0.0094995592 1.0609938e-38 303 247
-0.021713279 0.77399999 -0.0094995592 1.0151103e-38 304 247
-0.020356199 0.77399999 -0.0094995592 9.874876e-39 305 247
-0.018999118 0.77399999 -0.0094995592 9.6000702e-39 306 247
-0.017619247 0.773 -0.0094872871 9.5075158e-39 307 247
-0.016221842 0.77100003 -0.0094627403 9.6911686e-39 308 247
-0.014831445 0.76899999 -0.0094381925 9.598973e-39 309 247
-0.013483133 0.76899999 -0.0094381925 9.598973e-39 310 247
-0.01210326 0.76700002 -0.0094136465 9.5067773e-39 311 247
-0.010758453 0.76700002 -0.0094136465 9.3234777e-39 312 247
-0.0094136465 0.76700002 -0.0094136465 9.4156733e-39 313 247
-0.00806884 0.76700002 -0.0094136465 9.4156859e-39 314 247
-0.0067152665 0.76599997 -0.0094013726 9.5082403e-39 315 247
-0.0053722127 0.76599997 -0.0094013726 9.4164216e-39 316 247
-0.0040186401 0.764 -0.0093768267 9.8770396e-39 317 247
-0.0026790933 0.764 -0.0093768267 9.7859398e-39 318 247
-0.0013395466 0.764 -0.0093768267 9.8781354e-39 319 247
0 0.76200002 -0.0093522798 1.0154002e-38 320 247
0.00133604 0.76200002 -0.0093522798 1.0246198e-38 321 247
0.00267208 0.76200002 -0.0093522798 1.0337302e-38 322 247
0.0040081199 0.76200002 -0.0093522798 1.0244747e-38 323 247
0.0053441599 0.76200002 -0.0093522798 1.0335128e-38 324 247
0.0066801999 0.76200002 -0.0093522798 9.6897589e-39 325 247
0.0080162399 0.76200002 -0.0093522798 1.0146054e-38 326 247
0.0093522798 0.76200002 -0.0093522798 9.5006845e-39 327 247
0.010716373 0.764 -0.0093768267 9.5917983e-39 328 247
0.01205592 0.764 -0.0093768267 9.4996027e-39 329 247
0.013395466 0.764 -0.0093768267 9.4992495e-39 330 247
0.014735013 0.764 -0.0093768267 9.5914452e-39 331 247
0.016074561 0.764 -0.0093768267 9.316659e-39 332 247
0.017414106 0.764 -0.0093768267 9.316659e-39 333 247
0.018802745 0.76599997 -0.0094013726 9.2258927e-39 334 247
0.020145798 0.76599997 -0.0094013726 9.133697e-39 335 247
0.021516906 0.76700002 -0.0094136465 9.4091923e-39 336 247
0.022921326 0.76899999 -0.0094381925 9.4091923e-39 337 247
0.02433276 0.77100003 -0.0094627403 9.4091923e-39 338 247
0.025751207 0.773 -0.0094872871 9.4091923e-39 339 247
0.027106533 0.773 -0.0094872871 9.5006789e-39 340 247
0.028498679 0.77399999 -0.0094995592 9.5932346e-39 341 247
0.029855758 0.77399999 -0.0094995592 9.7762064e-39 342 247
0.031212838 0.77399999 -0.0094995592 9.9609564e-39 343 247
0.032569919 0.77399999 -0.0094995592 1.0603474e-38 344 247
0.033883166 0.773 -0.0094872871 1.0880061e-38 345 247
0.035238493 0.773 -0.0094872871 1.207756e-38 346 247
-0.031454798 0.77999997 -0.010940799 1.4475064e-38 297 248
-0.027211733 0.77600002 -0.010884693 1.2818379e-38 300 248
-0.025851147 0.77600002 -0.010884693 1.1803867e-38 301 248
-0.02442744 0.77399999 -0.01085664 1.1069857e-38 302 248
-0.02307036 0.77399999 -0.01085664 1.079363e-38 303 248
-0.021769386 0.77600002 -0.010884693 1.0150399e-38 304 248
-0.0204088 0.77600002 -0.010884693 9.9663682e-39 305 248
-0.018999118 0.77399999 -0.01085664 9.7830433e-39 306 248
-0.01764204 0.77399999 -0.01085664 9.7830433e-39 307 248
-0.016221842 0.77100003 -0.01081456 9.5997142e-39 308 248
-0.01487002 0.77100003 -0.01081456 9.5075186e-39 309 248
-0.013483133 0.76899999 -0.010786506 9.5986198e-39 310 248
-0.012134819 0.76899999 -0.010786506 9.5064242e-39 311 248
-0.010758453 0.76700002 -0.010758453 9.5067773e-39 312 248
-0.0094136465 0.76700002 -0.010758453 9.5067773e-39 313 248
-0.00806884 0.76700002 -0.010758453 9.5064214e-39 314 248
-0.006724033 0.76700002 -0.010758453 9.598617e-39 315 248
-0.0053792265 0.76700002 -0.010758453 9.690112e-39 316 248
-0.0040291594 0.76599997 -0.010744425 9.9666975e-39 317 248
-0.0026861064 0.76599997 -0.010744425 9.6004527e-39 318 248
-0.0013430532 0.76599997 -0.010744425 9.8770396e-39 319 248
0 0.76599997 -0.010744425 1.0244034e-38 320 248
0.00133604 0.76200002 -0.01068832 1.0428065e-38 321 248
0.00267208 0.76200002 -0.01068832 1.0427695e-38 322 248
0.0040186401 0.764 -0.010716373 1.0243304e-38 323 248
0.0053581866 0.764 -0.010716373 1.0058541e-38 324 248
0.006697733 0.764 -0.010716373 9.5975632e-39 325 248
0.0080372803 0.764 -0.010716373 9.7783476e-39 326 248
0.0093768267 0.764 -0.010716373 9.5935976e-39 327 248
0.010744425 0.76599997 -0.010744425 9.4088364e-39 328 248
0.012087479 0.76599997 -0.010744425 9.4088364e-39 329 248
0.013430533 0.76599997 -0.010744425 9.3173596e-39 330 248
0.014735013 0.764 -0.010716373 9.3173596e-39 331 248
0.016074561 0.764 -0.010716373 9.3173596e-39 332 248
0.017459691 0.76599997 -0.010744425 9.1333285e-39 333 248
0.018827293 0.76700002 -0.010758453 9.3169981e-39 334 248
0.020172099 0.76700002 -0.010758453 9.3169981e-39 335 248
0.021516906 0.76700002 -0.010758453 9.409551e-39 336 248
0.022921326 0.76899999 -0.010786506 9.409551e-39 337 248
0.024395877 0.773 -0.010842613 9.4099098e-39 338 248
0.025751207 0.773 -0.010842613 9.4099098e-39 339 248
0.027141599 0.77399999 -0.01085664 9.4092049e-39 340 248
0.028498679 0.77399999 -0.01085664 9.5935976e-39 341 248
0.029855758 0.77399999 -0.01085664 9.9598844e-39 342 248
0.031212838 0.77399999 -0.01085664 1.0328667e-38 343 248
0.032527838 0.773 -0.010842613 1.06042e-38 344 248
0.033883166 0.773 -0.010842613 1.1157374e-38 345 248
-0.024553679 0.778 -0.012276839 1.1529763e-38 302 249
-0.023189586 0.778 -0.012276839 1.1069144e-38 303 249
-0.021825492 0.778 -0.012276839 1.0425544e-38 304 249
-0.020461399 0.778 -0.012276839 1.0333349e-38 305 249
-0.019048214 0.77600002 -0.01224528 9.8752417e-39 306 249
-0.01764204 0.77399999 -0.01221372 9.7830461e-39 307 249
-0.016263919 0.773 -0.012197939 9.8752291e-39 308 249
-0.01487002 0.77100003 -0.01216638 9.6904777e-39 309 249
-0.013518199 0.77100003 -0.01216638 9.6904623e-39 310 249
-0.012134819 0.76899999 -0.012134819 9.5982667e-39 311 249
-0.010786506 0.76899999 -0.012134819 9.4138726e-39 312 249
-0.0094381925 0.76899999 -0.012134819 9.4138726e-39 313 249
-0.0080898795 0.76899999 -0.012134819 9.6897393e-39 314 249
-0.006724033 0.76700002 -0.01210326 9.7819349e-39 315 249
-0.0053792265 0.76700002 -0.01210326 9.5060837e-39 316 249
-0.00403442 0.76700002 -0.01210326 9.598638e-39 317 249
-0.0026896133 0.76700002 -0.01210326 9.5071851e-39 318 249
-0.0013448066 0.76700002 -0.01210326 9.5993807e-39 319 249
0 0.76599997 -0.012087479 9.6915792e-39 320 249
0.0013430532 0.76599997 -0.012087479 9.9678059e-39 321 249
0.0026861064 0.76599997 -0.012087479 9.9674374e-39 322 249
0.0040291594 0.76599997 -0.012087479 9.8752417e-39 323 249
0.0053722127 0.76599997 -0.012087479 9.9659786e-39 324 249
0.0067152665 0.76599997 -0.012087479 9.689033e-39 325 249
0.0080583189 0.76599997 -0.012087479 9.6872183e-39 326 249
0.0094013726 0.76599997 -0.012087479 9.4109916e-39 327 249
0.010744425 0.76599997 -0.012087479 9.3187917e-39 328 249
0.012087479 0.76599997 -0.012087479 9.3187917e-39 329 249
0.013430533 0.76599997 -0.012087479 9.4099098e-39 330 249
0.014773586 0.76599997 -0.012087479 9.4099098e-39 331 249
0.016116638 0.76599997 -0.012087479 9.4088336e-39 332 249
0.017459691 0.76599997 -0.012087479 9.4088336e-39 333 249
0.018827293 0.76700002 -0.01210326 9.4091923e-39 334 249
0.0202247 0.76899999 -0.012134819 9.4091923e-39 335 249
0.021573013 0.76899999 -0.012134819 9.4102685e-39 336 249
0.023040552 0.773 -0.012197939 9.4102685e-39 337 249
0.02442744 0.77399999 -0.01221372 9.226243e-39 338 249
0.025784519 0.77399999 -0.01221372 9.226243e-39 339 249
0.027141599 0.77399999 -0.01221372 9.5006957e-39 340 249
0.028498679 0.77399999 -0.01221372 9.6854457e-39 341 249
0.029855758 0.77399999 -0.01221372 9.9606159e-39 342 249
0.031293493 0.77600002 -0.01224528 1.0145367e-38 343 249
0.032527838 0.773 -0.012197939 1.1064838e-38 344 249
-0.024553679 0.778 -0.013640933 1.1806371e-38 302 250
-0.023189586 0.778 -0.013640933 1.1068806e-38 303 250
-0.021825492 0.778 -0.013640933 1.0425191e-38 304 250
-0.020513998 0.77999997 -0.013675999 1.0148964e-38 305 250
-0.019097306 0.778 -0.013640933 9.8745229e-39 306 250
-0.017687626 0.77600002 -0.013605867 9.8745229e-39 307 250
-0.016284959 0.77399999 -0.013570799 1.0058188e-38 308 250
-0.014908593 0.773 -0.013553266 9.9659912e-39 309 250
-0.013553266 0.773 -0.013553266 9.6908309e-39 310 250
-0.012134819 0.76899999 -0.013483133 9.5986352e-39 311 250
-0.010786506 0.76899999 -0.013483133 9.3224029e-39 312 250
-0.0094381925 0.76899999 -0.013483133 9.3224029e-39 313 250
-0.0080898795 0.76899999 -0.013483133 9.505355e-39 314 250
-0.0067415666 0.76899999 -0.013483133 9.6893861e-39 315 250
-0.0053792265 0.76700002 -0.013448066 9.5057179e-39 316 250
-0.00403442 0.76700002 -0.013448066 9.5979136e-39 317 250
-0.0026896133 0.76700002 -0.013448066 9.5071683e-39 318 250
-0.0013448066 0.76700002 -0.013448066 9.5993639e-39 319 250
0 0.76700002 -0.013448066 9.507534e-39 320 250
0.0013448066 0.76700002 -0.013448066 9.5997311e-39 321 250
0.0026896133 0.76700002 -0.013448066 9.5993639e-39 322 250
0.0040291594 0.76599997 -0.013430533 9.5071683e-39 323 250
0.0053722127 0.76599997 -0.013430533 9.7815846e-39 324 250
0.006724033 0.76700002 -0.013448066 9.5049991e-39 325 250
0.00806884 0.76700002 -0.013448066 9.4124265e-39 326 250
0.0094136465 0.76700002 -0.013448066 9.2283954e-39 327 250
0.010758453 0.76700002 -0.013448066 9.2287499e-39 328 250
0.01210326 0.76700002 -0.013448066 9.2287499e-39 329 250
0.013448066 0.76700002 -0.013448066 9.4113447e-39 330 250
0.014792874 0.76700002 -0.013448066 9.3191505e-39 331 250
0.01613768 0.76700002 -0.013448066 9.5939395e-39 332 250
0.017528072 0.76899999 -0.013483133 9.5017453e-39 333 250
0.018876385 0.76899999 -0.013483133 9.5024627e-39 334 250
0.0202247 0.76899999 -0.013483133 9.4102685e-39 335 250
0.021685226 0.773 -0.013553266 9.502104e-39 336 250
0.02307036 0.77399999 -0.013570799 9.594301e-39 337 250
0.02442744 0.77399999 -0.013570799 9.4102881e-39 338 250
0.025784519 0.77399999 -0.013570799 9.4102881e-39 339 250
0.027211733 0.77600002 -0.013605867 9.776212e-39 340 250
0.028572321 0.77600002 -0.013605867 9.9606032e-39 341 250
0.029932907 0.77600002 -0.013605867 1.0145014e-38 342 250
0.031293493 0.77600002 -0.013605867 1.0329405e-38 343 250
-0.021881599 0.77999997 -0.0150436 1.1160255e-38 304 251
-0.020513998 0.77999997 -0.0150436 1.0699635e-38 305 251
-0.019097306 0.778 -0.015005025 9.9667213e-39 306 251
-0.017687626 0.77600002 -0.014966453 9.7823301e-39 307 251
-0.016284959 0.77399999 -0.014927879 1.0057471e-38 308 251
-0.014927879 0.77399999 -0.014927879 1.0057471e-38 309 251
-0.013553266 0.773 -0.014908593 9.6908337e-39 310 251
-0.01216638 0.77100003 -0.01487002 9.598638e-39 311 251
-0.010786506 0.76899999 -0.014831445 9.5057179e-39 312 251
-0.0094381925 0.76899999 -0.014831445 9.5057179e-39 313 251
-0.0080898795 0.76899999 -0.014831445 9.5053648e-39 314 251
-0.0067415666 0.76899999 -0.014831445 9.5053648e-39 315 251
-0.0053932532 0.76899999 -0.014831445 9.3227714e-39 316 251
-0.00403442 0.76700002 -0.014792874 9.2305758e-39 317 251
-0.0026896133 0.76700002 -0.014792874 9.3224183e-39 318 251
-0.0013448066 0.76700002 -0.014792874 9.4149727e-39 319 251
0 0.76700002 -0.014792874 9.3231372e-39 320 251
0.0013448066 0.76700002 -0.014792874 9.3231372e-39 321 251
0.0026896133 0.76700002 -0.014792874 9.5986352e-39 322 251
0.00403442 0.76700002 -0.014792874 9.5064396e-39 323 251
0.0053792265 0.76700002 -0.014792874 9.5053522e-39 324 251
0.006724033 0.76700002 -0.014792874 9.4131552e-39 325 251
0.00806884 0.76700002 -0.014792874 9.3209567e-39 326 251
0.0094136465 0.76700002 -0.014792874 9.3209567e-39 327 251
0.010758453 0.76700002 -0.014792874 9.2287583e-39 328 251
0.01210326 0.76700002 -0.014792874 9.2287583e-39 329 251
0.013448066 0.76700002 -0.014792874 9.5039061e-39 330 251
0.014792874 0.76700002 -0.014792874 9.4117104e-39 331 251
0.01613768 0.76700002 -0.014792874 9.4109888e-39 332 251
0.017528072 0.76899999 -0.014831445 9.4109888e-39 333 251
0.018876385 0.76899999 -0.014831445 9.3191561e-39 334 251
0.020277301 0.77100003 -0.01487002 9.2269604e-39 335 251
0.021685226 0.773 -0.014908593 9.4102853e-39 336 251
0.02307036 0.77399999 -0.014927879 9.4102853e-39 337 251
0.02442744 0.77399999 -0.014927879 9.5928969e-39 338 251
0.025851147 0.77600002 -0.014966453 9.6850926e-39 339 251
0.027211733 0.77600002 -0.014966453 9.9606159e-39 340 251
0.028572321 0.77600002 -0.014966453 1.0145367e-38 341 251
0.029932907 0.77600002 -0.014966453 1.0513819e-38 342 251
-0.021909652 0.78100002 -0.016432239 1.1620892e-38 304 252
-0.020540299 0.78100002 -0.016432239 1.1159554e-38 305 252
-0.019170946 0.78100002 -0.016432239 1.0792885e-38 306 252
-0.017778799 0.77999997 -0.016411198 1.0516298e-38 307 252
-0.016369121 0.778 -0.016369121 1.033261e-38 308 252
-0.014966453 0.77600002 -0.01632704 1.033261e-38 309 252
-0.013570799 0.77399999 -0.016284959 9.9659786e-39 310 252
-0.012197939 0.773 -0.016263919 9.8734243e-39 311 252
-0.01081456 0.77100003 -0.016221842 9.7812314e-39 312 252
-0.0094627403 0.77100003 -0.016221842 9.6890358e-39 313 252
-0.0081109209 0.77100003 -0.016221842 9.3217022e-39 314 252
-0.0067415666 0.76899999 -0.016179759 9.2295066e-39 315 252
-0.0053932532 0.76899999 -0.016179759 9.3217022e-39 316 252
-0.0040449398 0.76899999 -0.016179759 9.3217022e-39 317 252
-0.0026966266 0.76899999 -0.016179759 9.3220582e-39 318 252
-0.0013483133 0.76899999 -0.016179759 9.3220582e-39 319 252
0 0.76899999 -0.016179759 9.5053676e-39 320 252
0.0013483133 0.76899999 -0.016179759 9.5975632e-39 321 252
0.0026966266 0.76899999 -0.016179759 9.6890302e-39 322 252
0.0040449398 0.76899999 -0.016179759 9.6890302e-39 323 252
0.0053932532 0.76899999 -0.016179759 9.4131552e-39 324 252
0.0067415666 0.76899999 -0.016179759 9.3209595e-39 325 252
0.0080898795 0.76899999 -0.016179759 9.2294828e-39 326 252
0.0094381925 0.76899999 -0.016179759 9.2294828e-39 327 252
0.010786506 0.76899999 -0.016179759 9.5042718e-39 328 252
0.012134819 0.76899999 -0.016179759 9.5964674e-39 329 252
0.013483133 0.76899999 -0.016179759 9.5957458e-39 330 252
0.014831445 0.76899999 -0.016179759 9.5035501e-39 331 252
0.016179759 0.76899999 -0.016179759 9.4124265e-39 332 252
0.01757366 0.77100003 -0.016221842 9.2283954e-39 333 252
0.018925481 0.77100003 -0.016221842 9.6872183e-39 334 252
0.0203299 0.773 -0.016263919 9.5950227e-39 335 252
0.021713279 0.77399999 -0.016284959 9.6857988e-39 336 252
0.02307036 0.77399999 -0.016284959 9.6857988e-39 337 252
0.02442744 0.77399999 -0.016284959 9.6843863e-39 338 252
0.025851147 0.77600002 -0.01632704 9.9609718e-39 339 252
0.027211733 0.77600002 -0.01632704 1.0053194e-38 340 252
0.028572321 0.77600002 -0.01632704 1.0514172e-38 341 252
-0.021909652 0.78100002 -0.017801592 1.1897865e-38 304 253
-0.020540299 0.78100002 -0.017801592 1.1344691e-38 305 253
-0.019170946 0.78100002 -0.017801592 1.079255e-38 306 253
-0.017801592 0.78100002 -0.017801592 1.0423769e-38 307 253
-0.016411198 0.77999997 -0.017778799 1.033263e-38 308 253
-0.015005025 0.778 -0.017733213 1.0240434e-38 309 253
-0.013605867 0.77600002 -0.017687626 9.8737956e-39 310 253
-0.012197939 0.773 -0.017619247 9.8737956e-39 311 253
-0.010842613 0.773 -0.017619247 9.597566e-39 312 253
-0.0094627403 0.77100003 -0.01757366 9.5053704e-39 313 253
-0.0081109209 0.77100003 -0.01757366 9.4128189e-39 314 253
-0.0067590997 0.77100003 -0.01757366 9.5050145e-39 315 253
-0.0054072798 0.77100003 -0.01757366 9.4128189e-39 316 253
-0.0040554604 0.77100003 -0.01757366 9.4128189e-39 317 253
-0.0027036399 0.77100003 -0.01757366 9.5050145e-39 318 253
-0.00135182 0.77100003 -0.01757366 9.5050145e-39 319 253
0 0.77100003 -0.01757366 9.5060893e-39 320 253
0.00135182 0.77100003 -0.01757366 9.5060893e-39 321 253
0.0027036399 0.77100003 -0.01757366 9.6890302e-39 322 253
0.0040554604 0.77100003 -0.01757366 9.5049991e-39 323 253
0.0054072798 0.77100003 -0.01757366 9.413158e-39 324 253
0.0067590997 0.77100003 -0.01757366 9.3206036e-39 325 253
0.0081109209 0.77100003 -0.01757366 9.2287737e-39 326 253
0.0094381925 0.76899999 -0.017528072 9.2287737e-39 327 253
0.010786506 0.76899999 -0.017528072 9.5961199e-39 328 253
0.012134819 0.76899999 -0.017528072 9.5961199e-39 329 253
0.013483133 0.76899999 -0.017528072 9.6875939e-39 330 253
0.014831445 0.76899999 -0.017528072 9.5953982e-39 331 253
0.016221842 0.77100003 -0.01757366 9.3206036e-39 332 253
0.01757366 0.77100003 -0.01757366 9.3206036e-39 333 253
0.018974574 0.773 -0.017619247 9.5032026e-39 334 253
0.0203299 0.773 -0.017619247 9.5953982e-39 335 253
0.021713279 0.77399999 -0.01764204 9.6858114e-39 336 253
0.02307036 0.77399999 -0.01764204 9.778007e-39 337 253
0.024490559 0.77600002 -0.017687626 9.6861912e-39 338 253
0.025851147 0.77600002 -0.017687626 9.9624179e-39 339 253
0.027211733 0.77600002 -0.017687626 9.9635292e-39 340 253
-0.020540299 0.78100002 -0.019170946 1.1897883e-38 305 254
-0.019170946 0.78100002 -0.019170946 1.1436864e-38 306 254
-0.017801592 0.78100002 -0.019170946 1.0699298e-38 307 254
-0.016432239 0.78100002 -0.019170946 1.0883651e-38 308 254
-0.015062887 0.78100002 -0.019170946 1.069962e-38 309 254
-0.013640933 0.778 -0.019097306 1.033261e-38 310 254
-0.012276839 0.778 -0.019097306 1.0240415e-38 311 254
-0.01085664 0.77399999 -0.018999118 1.0056742e-38 312 254
-0.0094995592 0.77399999 -0.018999118 9.872711e-39 313 254
-0.0081319595 0.773 -0.018974574 9.7801622e-39 314 254
-0.0067766332 0.773 -0.018974574 9.6879666e-39 315 254
-0.0054213065 0.773 -0.018974574 9.4128217e-39 316 254
-0.0040554604 0.77100003 -0.018925481 9.4128217e-39 317 254
-0.0027036399 0.77100003 -0.018925481 9.6883296e-39 318 254
-0.00135182 0.77100003 -0.018925481 9.6883296e-39 319 254
0 0.773 -0.018974574 9.597566e-39 320 254
0.0013553266 0.773 -0.018974574 9.597566e-39 321 254
0.0027106532 0.773 -0.018974574 9.6890302e-39 322 254
0.0040659797 0.773 -0.018974574 9.5049991e-39 323 254
0.0054213065 0.773 -0.018974574 9.413158e-39 324 254
0.0067766332 0.773 -0.018974574 9.413158e-39 325 254
0.0081319595 0.773 -0.018974574 9.2287765e-39 326 254
0.0094872871 0.773 -0.018974574 9.3209722e-39 327 254
0.010842613 0.773 -0.018974574 9.5957668e-39 328 254
0.012197939 0.773 -0.018974574 9.5957668e-39 329 254
0.013553266 0.773 -0.018974574 9.6875939e-39 330 254
0.014908593 0.773 -0.018974574 9.6875939e-39 331 254
0.016263919 0.773 -0.018974574 9.687947e-39 332 254
0.017619247 0.773 -0.018974574 9.5957514e-39 333 254
0.018974574 0.773 -0.018974574 1.0054218e-38 334 254
0.020356199 0.77399999 -0.018999118 1.0146774e-38 335 254
0.021713279 0.77399999 -0.018999118 1.0146071e-38 336 254
0.023129974 0.77600002 -0.019048214 1.0238266e-38 337 254
0.024490559 0.77600002 -0.019048214 1.0330127e-38 338 254
-0.0191464 0.77999997 -0.020513998 1.1805665e-38 306 255
-0.017778799 0.77999997 -0.020513998 1.1160295e-38 307 255
-0.016432239 0.78100002 -0.020540299 1.1160258e-38 308 255
-0.015062887 0.78100002 -0.020540299 1.088403e-38 309 255
-0.013693534 0.78100002 -0.020540299 1.0424825e-38 310 255
-0.01232418 0.78100002 -0.020540299 1.033263e-38 311 255
-0.010912746 0.778 -0.020461399 1.0148232e-38 312 255
-0.0095486529 0.778 -0.020461399 1.0056036e-38 313 255
-0.0081635201 0.77600002 -0.0204088 9.8720019e-39 314 255
-0.0068029333 0.77600002 -0.0204088 9.7798063e-39 315 255
-0.0054283198 0.77399999 -0.020356199 9.5042956e-39 316 255
-0.0040712398 0.77399999 -0.020356199 9.5042956e-39 317 255
-0.0027106532 0.773 -0.0203299 9.6883296e-39 318 255
-0.0013553266 0.773 -0.0203299 9.7805252e-39 319 255
0 0.773 -0.0203299 9.7805252e-39 320 255
0.0013553266 0.773 -0.0203299 9.7805252e-39 321 255
0.0027106532 0.773 -0.0203299 9.597566e-39 322 255
0.0040712398 0.77399999 -0.020356199 9.597566e-39 323 255
0.0054283198 0.77399999 -0.020356199 9.5046459e-39 324 255
0.0067853997 0.77399999 -0.020356199 9.4124489e-39 325 255
0.0081424797 0.77399999 -0.020356199 9.4124517e-39 326 255
0.0094995592 0.77399999 -0.020356199 9.4124517e-39 327 255
0.010842613 0.773 -0.0203299 9.6872407e-39 328 255
0.012197939 0.773 -0.0203299 9.6872407e-39 329 255
0.013570799 0.77399999 -0.020356199 9.6872407e-39 330 255
0.014927879 0.77399999 -0.020356199 9.8712733e-39 331 255
0.016284959 0.77399999 -0.020356199 9.687961e-39 332 255
0.01764204 0.77399999 -0.020356199 9.687961e-39 333 255
0.018999118 0.77399999 -0.020356199 9.9631214e-39 334 255
0.020356199 0.77399999 -0.020356199 1.0055317e-38 335 255
0.021713279 0.77399999 -0.020356199 1.0146812e-38 336 255
0.023129974 0.77600002 -0.0204088 1.0331205e-38 337 255
-0.017778799 0.77999997 -0.021881599 1.1621653e-38 307 256
-0.016432239 0.78100002 -0.021909652 1.1620892e-38 308 256
-0.015062887 0.78100002 -0.021909652 1.1159554e-38 309 256
-0.013693534 0.78100002 -0.021909652 1.0975847e-38 310 256
-0.01232418 0.78100002 -0.021909652 1.0883651e-38 311 256
-0.010940799 0.77999997 -0.021881599 1.0608494e-38 312 256
-0.0095731998 0.77999997 -0.021881599 1.0331908e-38 313 256
-0.0081635201 0.77600002 -0.021769386 1.0148587e-38 314 256
-0.0068029333 0.77600002 -0.021769386 9.8720019e-39 315 256
-0.0054423464 0.77600002 -0.021769386 9.7808811e-39 316 256
-0.0040817601 0.77600002 -0.021769386 9.5042956e-39 317 256
-0.0027141599 0.77399999 -0.021713279 9.6883324e-39 318 256
-0.0013570799 0.77399999 -0.021713279 9.6883324e-39 319 256
0 0.77399999 -0.021713279 9.5968598e-39 320 256
0.0013570799 0.77399999 -0.021713279 9.5968598e-39 321 256
0.0027141599 0.77399999 -0.021713279 9.5972101e-39 322 256
0.0040712398 0.77399999 -0.021713279 9.5050145e-39 323 256
0.0054283198 0.77399999 -0.021713279 9.6886799e-39 324 256
0.0067853997 0.77399999 -0.021713279 9.6886799e-39 325 256
0.0081424797 0.77399999 -0.021713279 9.6886799e-39 326 256
0.0094995592 0.77399999 -0.021713279 9.5046488e-39 327 256
0.01085664 0.77399999 -0.021713279 9.8712733e-39 328 256
0.01221372 0.77399999 -0.021713279 9.8712733e-39 329 256
0.013570799 0.77399999 -0.021713279 9.8712761e-39 330 256
0.014927879 0.77399999 -0.021713279 9.9634717e-39 331 256
0.016284959 0.77399999 -0.021713279 9.9631214e-39 332 256
0.01764204 0.77399999 -0.021713279 9.9631214e-39 333 256
0.018999118 0.77399999 -0.021713279 1.0054616e-38 334 256
0.020356199 0.77399999 -0.021713279 1.0239008e-38 335 256
0.021769386 0.77600002 -0.021769386 1.0423065e-38 336 256
-0.010982879 0.78299999 -0.02333862 1.0792897e-38 312 257
-0.0095854728 0.78100002 -0.023279008 1.0516671e-38 313 257
-0.0082055992 0.77999997 -0.023249198 1.033298e-38 314 257
-0.0068204664 0.778 -0.023189586 1.0148587e-38 315 257
-0.0054423464 0.77600002 -0.023129974 1.0056386e-38 316 257
-0.0040817601 0.77600002 -0.023129974 9.7801594e-39 317 257
-0.0027211732 0.77600002 -0.023129974 9.7808811e-39 318 257
-0.0013605866 0.77600002 -0.023129974 9.7808811e-39 319 257
0 0.77399999 -0.02307036 9.7798091e-39 320 257
0.0013570799 0.77399999 -0.02307036 9.8720047e-39 321 257
0.0027141599 0.77399999 -0.02307036 9.6883296e-39 322 257
0.0040712398 0.77399999 -0.02307036 9.7805252e-39 323 257
0.0054283198 0.77399999 -0.02307036 9.7801594e-39 324 257
0.0067853997 0.77399999 -0.02307036 9.7801594e-39 325 257
0.0081424797 0.77399999 -0.02307036 9.9634717e-39 326 257
0.0094995592 0.77399999 -0.02307036 9.9634717e-39 327 257
0.01085664 0.77399999 -0.02307036 9.9634745e-39 328 257
0.01221372 0.77399999 -0.02307036 9.8712789e-39 329 257
0.013570799 0.77399999 -0.02307036 9.7798091e-39 330 257
0.014927879 0.77399999 -0.02307036 9.7798091e-39 331 257
0.016284959 0.77399999 -0.02307036 1.0054969e-38 332 257
0.01764204 0.77399999 -0.02307036 9.9627739e-39 333 257
0.019048214 0.77600002 -0.023129974 9.8709636e-39 334 257
0.0204088 0.77600002 -0.023129974 1.0424137e-38 335 257
-0.0054563731 0.778 -0.024553679 1.0056769e-38 316 258
-0.0040817601 0.77600002 -0.024490559 9.8720174e-39 317 258
-0.0027211732 0.77600002 -0.024490559 9.8723705e-39 318 258
-0.0013605866 0.77600002 -0.024490559 9.8723705e-39 319 258
0 0.77399999 -0.02442744 9.7801749e-39 320 258
0.0013570799 0.77399999 -0.02442744 9.8723705e-39 321 258
0.0027211732 0.77600002 -0.024490559 9.5968598e-39 322 258
0.0040712398 0.77399999 -0.02442744 9.5968598e-39 323 258
0.0054283198 0.77399999 -0.02442744 9.780528e-39 324 258
0.0067853997 0.77399999 -0.02442744 9.780528e-39 325 258
0.0081424797 0.77399999 -0.02442744 1.0055683e-38 326 258
0.0094995592 0.77399999 -0.02442744 9.8716516e-39 327 258
0.01085664 0.77399999 -0.02442744 9.7798217e-39 328 258
0.01221372 0.77399999 -0.02442744 9.7798217e-39 329 258
0.013605867 0.77600002 -0.024490559 9.7794714e-39 330 258
0.014927879 0.77399999 -0.02442744 9.7794714e-39 331 258
0.016284959 0.77399999 -0.02442744 9.9635292e-39 332 258
0.01764204 0.77399999 -0.02442744 1.0148279e-38 333 258
0.019048214 0.77600002 -0.024490559 1.0516375e-38 334 258
-0.0040922803 0.778 -0.025917772 1.0608143e-38 317 259
-0.0027211732 0.77600002 -0.025851147 1.033298e-38 318 259
-0.0013605866 0.77600002 -0.025851147 1.0148587e-38 319 259
0 0.77600002 -0.025851147 1.0240783e-38 320 259
0.0013605866 0.77600002 -0.025851147 1.0148587e-38 321 259
0.0027211732 0.77600002 -0.025851147 9.9649192e-39 322 259
0.0040712398 0.77399999 -0.025784519 9.9649192e-39 323 259
0.0054283198 0.77399999 -0.025784519 1.0148234e-38 324 259
0.0067853997 0.77399999 -0.025784519 1.0332627e-38 325 259
0.0081424797 0.77399999 -0.025784519 1.0331911e-38 326 259
0.0094995592 0.77399999 -0.025784519 1.0331911e-38 327 259
0.010842613 0.773 -0.025751207 1.0239361e-38 328 259
0.012197939 0.773 -0.025751207 1.0331558e-38 329 259
0.013570799 0.77399999 -0.025784519 1.0146476e-38 330 259
0.014966453 0.77600002 -0.025851147 1.0146476e-38 331 259
-0.0013605866 0.77600002 -0.027211733 1.0424535e-38 319 260
0 0.77600002 -0.027211733 1.042453e-38 320 260
0.0081424797 0.77399999 -0.027141599 1.0331984e-38 326 260
0.0094995592 0.77399999 -0.027141599 1.0331984e-38 327 260
0.010842613 0.773 -0.027106533 1.0424182e-38 328 260
