# .PCD v.7 - Point Cloud Data file format
FIELDS x y z rgb imX imY
SIZE 4 4 4 4 4 4
TYPE F F F F F F
COUNT 1 1 1 1 1 1
WIDTH 837
HEIGHT 1
VIEWPOINT 0 0 0 1 0 0 0
POINTS 837
DATA ascii
0.020086186 0.71600002 0.00753232 1.3359619e-38 336 234
0.021341572 0.71600002 0.00753232 1.3082674e-38 337 234
0.022596961 0.71600002 0.00753232 1.1891749e-38 338 234
0.023852346 0.71600002 0.00753232 1.3920053e-38 339 234
-0.043754432 0.713 0.0062506334 1.5399544e-38 285 235
-0.042325463 0.70999998 0.0062243328 1.5857964e-38 286 235
-0.041080594 0.70999998 0.0062243328 1.5212594e-38 287 235
-0.039891839 0.71100003 0.0062330998 1.6221626e-38 288 235
-0.038645219 0.71100003 0.0062330998 1.5852842e-38 289 235
-0.037398599 0.71100003 0.0062330998 1.668075e-38 290 235
-0.036101133 0.70999998 0.0062243328 1.6588196e-38 291 235
-0.034856264 0.70999998 0.0062243328 1.640522e-38 292 235
-0.033516716 0.708 0.0062067998 1.6220828e-38 293 235
-0.03227536 0.708 0.0062067998 1.6403769e-38 294 235
-0.030990168 0.70700002 0.0061980332 1.6311574e-38 295 235
-0.029708479 0.70599997 0.0061892662 1.6586719e-38 296 235
-0.028389972 0.704 0.0061717331 1.6494522e-38 297 235
-0.027155625 0.704 0.0061717331 1.6769664e-38 298 235
-0.02592128 0.704 0.0061717331 1.6769664e-38 299 235
-0.024651866 0.70300001 0.0061629666 1.6861141e-38 300 235
-0.023419274 0.70300001 0.0061629666 1.6861141e-38 301 235
-0.02218668 0.70300001 0.0061629666 1.6952626e-38 302 235
-0.020983893 0.704 0.0061717331 1.686043e-38 303 235
-0.019749546 0.704 0.0061717331 1.6584213e-38 304 235
-0.018515198 0.704 0.0061717331 1.6399822e-38 305 235
-0.017280852 0.704 0.0061717331 1.6399453e-38 306 235
-0.016046507 0.704 0.0061717331 1.6307258e-38 307 235
-0.014812159 0.704 0.0061717331 1.5939557e-38 308 235
-0.013577812 0.704 0.0061717331 1.5847363e-38 309 235
-0.012343466 0.704 0.0061717331 1.5664051e-38 310 235
-0.01109334 0.70300001 0.0061629666 1.5571856e-38 311 235
-0.0098607466 0.70300001 0.0061629666 1.5387109e-38 312 235
-0.0086281532 0.70300001 0.0061629666 1.5479303e-38 313 235
-0.0073955595 0.70300001 0.0061629666 1.5388185e-38 314 235
-0.0061717331 0.704 0.0061717331 1.5572215e-38 315 235
-0.0049373866 0.704 0.0061717331 1.5295632e-38 316 235
-0.0037030398 0.704 0.0061717331 1.501905e-38 317 235
-0.0024686933 0.704 0.0061717331 1.5109092e-38 318 235
-0.0012343467 0.704 0.0061717331 1.4924703e-38 319 235
0 0.704 0.0061717331 1.5015821e-38 320 235
0.0012343467 0.704 0.0061717331 1.4923627e-38 321 235
0.0024757064 0.70599997 0.0061892662 1.4829645e-38 322 235
0.0037135598 0.70599997 0.0061892662 1.4737449e-38 323 235
0.0049514128 0.70599997 0.0061892662 1.4552004e-38 324 235
0.0061892662 0.70599997 0.0061892662 1.4275417e-38 325 235
0.0074271196 0.70599997 0.0061892662 1.3999559e-38 326 235
0.008677247 0.70700002 0.0061980332 1.4183591e-38 327 235
0.0099308798 0.708 0.0062067998 1.372549e-38 328 235
0.01117224 0.708 0.0062067998 1.3817686e-38 329 235
0.012448666 0.70999998 0.0062243328 1.3542538e-38 330 235
0.013693533 0.70999998 0.0062243328 1.3542538e-38 331 235
0.014959441 0.71100003 0.0062330998 1.3267752e-38 332 235
0.01620606 0.71100003 0.0062330998 1.3359947e-38 333 235
0.017501773 0.713 0.0062506334 1.308373e-38 334 235
0.018778199 0.71399999 0.0062593995 1.308373e-38 335 235
0.020086186 0.71600002 0.0062769335 1.308338e-38 336 235
0.021341572 0.71600002 0.0062769335 1.2991184e-38 337 235
0.022596961 0.71600002 0.0062769335 1.1796296e-38 338 235
0.023852346 0.71600002 0.0062769335 1.2994839e-38 339 235
-0.043754432 0.713 0.0050005065 1.53981e-38 285 236
-0.042385083 0.71100003 0.0049864799 1.5948695e-38 286 236
-0.041138459 0.71100003 0.0049864799 1.5395521e-38 287 236
-0.039891839 0.71100003 0.0049864799 1.6405996e-38 288 236
-0.038645219 0.71100003 0.0049864799 1.6221605e-38 289 236
-0.037345998 0.70999998 0.0049794666 1.6680747e-38 290 236
-0.036101133 0.70999998 0.0049794666 1.6680747e-38 291 236
-0.034758076 0.708 0.0049654399 1.6589254e-38 292 236
-0.033469379 0.70700002 0.0049584266 1.6312668e-38 293 236
-0.032229774 0.70700002 0.0049584266 1.6495617e-38 294 236
-0.030946331 0.70599997 0.0049514128 1.6403422e-38 295 236
-0.029624319 0.704 0.0049373866 1.6586731e-38 296 236
-0.028389972 0.704 0.0049373866 1.6679286e-38 297 236
-0.027155625 0.704 0.0049373866 1.6955147e-38 298 236
-0.025884461 0.70300001 0.0049303733 1.6862951e-38 299 236
-0.024651866 0.70300001 0.0049303733 1.7045544e-38 300 236
-0.023419274 0.70300001 0.0049303733 1.7045544e-38 301 236
-0.02218668 0.70300001 0.0049303733 1.7045189e-38 302 236
-0.020983893 0.704 0.0049373866 1.7137384e-38 303 236
-0.019749546 0.704 0.0049373866 1.7137384e-38 304 236
-0.018515198 0.704 0.0049373866 1.676896e-38 305 236
-0.017256306 0.70300001 0.0049303733 1.6309777e-38 306 236
-0.016023712 0.70300001 0.0049303733 1.5940996e-38 307 236
-0.014791119 0.70300001 0.0049303733 1.5849156e-38 308 236
-0.013558527 0.70300001 0.0049303733 1.5756962e-38 309 236
-0.012290866 0.70099998 0.0049163462 1.5664768e-38 310 236
-0.011061779 0.70099998 0.0049163462 1.5572574e-38 311 236
-0.0098326923 0.70099998 0.0049163462 1.5664051e-38 312 236
-0.0086036054 0.70099998 0.0049163462 1.5571856e-38 313 236
-0.0073955595 0.70300001 0.0049303733 1.5388185e-38 314 236
-0.0061629666 0.70300001 0.0049303733 1.5295991e-38 315 236
-0.0049303733 0.70300001 0.0049303733 1.5386392e-38 316 236
-0.0036977797 0.70300001 0.0049303733 1.5017973e-38 317 236
-0.0024651866 0.70300001 0.0049303733 1.4924703e-38 318 236
-0.0012325933 0.70300001 0.0049303733 1.4832509e-38 319 236
0 0.704 0.0049373866 1.4739956e-38 320 236
0.0012343467 0.704 0.0049373866 1.4739956e-38 321 236
0.0024686933 0.704 0.0049373866 1.4646332e-38 322 236
0.0037030398 0.704 0.0049373866 1.4554137e-38 323 236
0.0049373866 0.704 0.0049373866 1.436797e-38 324 236
0.0061717331 0.704 0.0049373866 1.4183577e-38 325 236
0.0074271196 0.70599997 0.0049514128 1.3998477e-38 326 236
0.0086649731 0.70599997 0.0049514128 1.3998477e-38 327 236
0.0099168532 0.70700002 0.0049584266 1.3632215e-38 328 236
0.01117224 0.708 0.0049654399 1.372477e-38 329 236
0.0124136 0.708 0.0049654399 1.3449978e-38 330 236
0.013693533 0.70999998 0.0049794666 1.3449978e-38 331 236
0.014959441 0.71100003 0.0049864799 1.317483e-38 332 236
0.01620606 0.71100003 0.0049864799 1.317483e-38 333 236
0.01745268 0.71100003 0.0049864799 1.2898969e-38 334 236
0.018778199 0.71399999 0.0050075199 1.2991165e-38 335 236
0.020030079 0.71399999 0.0050075199 1.2898985e-38 336 236
0.021341572 0.71600002 0.0050215465 1.3083377e-38 337 236
0.022596961 0.71600002 0.0050215465 1.2716065e-38 338 236
0.023852346 0.71600002 0.0050215465 1.1886304e-38 339 236
0.0251428 0.71700001 0.0050285598 1.1527659e-38 340 236
-0.044815198 0.70999998 0.0037345996 1.5674679e-38 284 237
-0.043570329 0.70999998 0.0037345996 1.5121506e-38 285 237
-0.042385083 0.71100003 0.0037398601 1.6130909e-38 286 237
-0.041138459 0.71100003 0.0037398601 1.5762486e-38 287 237
-0.039835732 0.70999998 0.0037345996 1.6405993e-38 288 237
-0.038590867 0.70999998 0.0037345996 1.6221602e-38 289 237
-0.037345998 0.70999998 0.0037345996 1.6771871e-38 290 237
-0.03599944 0.708 0.00372408 1.6679675e-38 291 237
-0.034758076 0.708 0.00372408 1.6588182e-38 292 237
-0.033469379 0.70700002 0.0037188199 1.6495986e-38 293 237
-0.032229774 0.70700002 0.0037188199 1.649562e-38 294 237
-0.030946331 0.70599997 0.0037135598 1.649562e-38 295 237
-0.029624319 0.704 0.0037030398 1.6679286e-38 296 237
-0.028389972 0.704 0.0037030398 1.6586731e-38 297 237
-0.027117053 0.70300001 0.0036977797 1.6861876e-38 298 237
-0.025884461 0.70300001 0.0036977797 1.6769681e-38 299 237
-0.024581732 0.70099998 0.0036872597 1.676896e-38 300 237
-0.023352645 0.70099998 0.0036872597 1.676896e-38 301 237
-0.02218668 0.70300001 0.0036977797 1.6676762e-38 302 237
-0.020954086 0.70300001 0.0036977797 1.6676762e-38 303 237
-0.019721493 0.70300001 0.0036977797 1.6676765e-38 304 237
-0.018488899 0.70300001 0.0036977797 1.676896e-38 305 237
-0.017207211 0.70099998 0.0036872597 1.6584566e-38 306 237
-0.015978126 0.70099998 0.0036872597 1.6216144e-38 307 237
-0.014749039 0.70099998 0.0036872597 1.5941351e-38 308 237
-0.013519952 0.70099998 0.0036872597 1.5849156e-38 309 237
-0.012290866 0.70099998 0.0036872597 1.5939916e-38 310 237
-0.011061779 0.70099998 0.0036872597 1.5939916e-38 311 237
-0.0098326923 0.70099998 0.0036872597 1.5756245e-38 312 237
-0.0086036054 0.70099998 0.0036872597 1.5756245e-38 313 237
-0.0073745195 0.70099998 0.0036872597 1.5571856e-38 314 237
-0.0061454331 0.70099998 0.0036872597 1.5295632e-38 315 237
-0.0049303733 0.70300001 0.0036977797 1.5018691e-38 316 237
-0.0036977797 0.70300001 0.0036977797 1.4742108e-38 317 237
-0.0024651866 0.70300001 0.0036977797 1.4649914e-38 318 237
-0.0012325933 0.70300001 0.0036977797 1.4465526e-38 319 237
0 0.70300001 0.0036977797 1.4648479e-38 320 237
0.0012343467 0.704 0.0037030398 1.4464449e-38 321 237
0.0024686933 0.704 0.0037030398 1.4462657e-38 322 237
0.0037030398 0.704 0.0037030398 1.4278626e-38 323 237
0.0049373866 0.704 0.0037030398 1.4276846e-38 324 237
0.0061717331 0.704 0.0037030398 1.4000259e-38 325 237
0.0074060797 0.704 0.0037030398 1.3723322e-38 326 237
0.0086649731 0.70599997 0.0037135598 1.3630768e-38 327 237
0.0099168532 0.70700002 0.0037188199 1.3447821e-38 328 237
0.011156459 0.70700002 0.0037188199 1.3447821e-38 329 237
0.0124136 0.708 0.00372408 1.3356708e-38 330 237
0.013693533 0.70999998 0.0037345996 1.3356708e-38 331 237
0.014938398 0.70999998 0.0037345996 1.3081919e-38 332 237
0.01620606 0.71100003 0.0037398601 1.3081919e-38 333 237
0.01745268 0.71100003 0.0037398601 1.2806057e-38 334 237
0.018751899 0.713 0.0037503797 1.2806057e-38 335 237
0.020030079 0.71399999 0.0037556398 1.2622755e-38 336 237
0.021281958 0.71399999 0.0037556398 1.2714951e-38 337 237
0.022596961 0.71600002 0.00376616 1.2532007e-38 338 237
0.02388566 0.71700001 0.0037714199 1.1517496e-38 339 237
0.0251428 0.71700001 0.0037714199 1.0878307e-38 340 237
0.02639994 0.71700001 0.0037714199 1.4565773e-38 341 237
-0.044815198 0.70999998 0.0024897333 1.5582115e-38 284 238
-0.043570329 0.70999998 0.0024897333 1.484455e-38 285 238
-0.042385083 0.71100003 0.0024932399 1.6037626e-38 286 238
-0.041080594 0.70999998 0.0024897333 1.6129821e-38 287 238
-0.039835732 0.70999998 0.0024897333 1.658894e-38 288 238
-0.038590867 0.70999998 0.0024897333 1.6404549e-38 289 238
-0.0372408 0.708 0.00248272 1.6588201e-38 290 238
-0.03599944 0.708 0.00248272 1.640381e-38 291 238
-0.034758076 0.708 0.00248272 1.6678945e-38 292 238
-0.033469379 0.70700002 0.0024792133 1.6678945e-38 293 238
-0.032184184 0.70599997 0.0024757064 1.6678579e-38 294 238
-0.030946331 0.70599997 0.0024757064 1.6678579e-38 295 238
-0.029624319 0.704 0.0024686933 1.6586737e-38 296 238
-0.028349647 0.70300001 0.0024651866 1.6494183e-38 297 238
-0.027117053 0.70300001 0.0024651866 1.6493466e-38 298 238
-0.025884461 0.70300001 0.0024651866 1.6401269e-38 299 238
-0.024581732 0.70099998 0.0024581731 1.6400916e-38 300 238
-0.023352645 0.70099998 0.0024581731 1.6216525e-38 301 238
-0.02218668 0.70300001 0.0024651866 1.6033213e-38 302 238
-0.020954086 0.70300001 0.0024651866 1.6033213e-38 303 238
-0.019721493 0.70300001 0.0024651866 1.6216169e-38 304 238
-0.018488899 0.70300001 0.0024651866 1.6216169e-38 305 238
-0.017207211 0.70099998 0.0024581731 1.6216159e-38 306 238
-0.015978126 0.70099998 0.0024581731 1.6031409e-38 307 238
-0.014749039 0.70099998 0.0024581731 1.5572935e-38 308 238
-0.013500666 0.69999999 0.0024546667 1.5665131e-38 309 238
-0.012273333 0.69999999 0.0024546667 1.5481097e-38 310 238
-0.011045999 0.69999999 0.0024546667 1.5481097e-38 311 238
-0.0098186666 0.69999999 0.0024546667 1.5481097e-38 312 238
-0.0085913334 0.69999999 0.0024546667 1.5481097e-38 313 238
-0.0073639993 0.69999999 0.0024546667 1.5572215e-38 314 238
-0.0061454331 0.70099998 0.0024581731 1.5203438e-38 315 238
-0.0049163462 0.70099998 0.0024581731 1.5018691e-38 316 238
-0.0036872597 0.70099998 0.0024581731 1.4742467e-38 317 238
-0.0024581731 0.70099998 0.0024581731 1.4558437e-38 318 238
-0.0012290865 0.70099998 0.0024581731 1.4466243e-38 319 238
0 0.70300001 0.0024651866 1.4372614e-38 320 238
0.0012325933 0.70300001 0.0024651866 1.428042e-38 321 238
0.0024686933 0.704 0.0024686933 1.4279348e-38 322 238
0.0037030398 0.704 0.0024686933 1.4094598e-38 323 238
0.0049373866 0.704 0.0024686933 1.4001334e-38 324 238
0.0061717331 0.704 0.0024686933 1.3816584e-38 325 238
0.0074060797 0.704 0.0024686933 1.3540007e-38 326 238
0.0086649731 0.70599997 0.0024757064 1.3355256e-38 327 238
0.0099028256 0.70599997 0.0024757064 1.3172313e-38 328 238
0.011156459 0.70700002 0.0024792133 1.3080118e-38 329 238
0.012396066 0.70700002 0.0024792133 1.3171963e-38 330 238
0.013654959 0.708 0.00248272 1.3171963e-38 331 238
0.014938398 0.70999998 0.0024897333 1.2713506e-38 332 238
0.016183265 0.70999998 0.0024897333 1.2713506e-38 333 238
0.01745268 0.71100003 0.0024932399 1.2437642e-38 334 238
0.0186993 0.71100003 0.0024932399 1.2621673e-38 335 238
0.020030079 0.71399999 0.0025037599 1.2254696e-38 336 238
0.021281958 0.71399999 0.0025037599 1.2438727e-38 337 238
0.022596961 0.71600002 0.0025107733 1.2071396e-38 338 238
0.02388566 0.71700001 0.0025142799 1.114944e-38 339 238
0.0251428 0.71700001 0.0025142799 1.0873635e-38 340 238
0.02639994 0.71700001 0.0025142799 1.4192677e-38 341 238
-0.044815198 0.70999998 0.0012448666 1.5211874e-38 284 239
-0.043570329 0.70999998 0.0012448666 1.4750537e-38 285 239
-0.042325463 0.70999998 0.0012448666 1.6221294e-38 286 239
-0.041080594 0.70999998 0.0012448666 1.6774467e-38 287 239
-0.039835732 0.70999998 0.0012448666 1.6866255e-38 288 239
-0.038482159 0.708 0.00124136 1.6036136e-38 289 239
-0.0372408 0.708 0.00124136 1.6587475e-38 290 239
-0.03599944 0.708 0.00124136 1.649528e-38 291 239
-0.034708988 0.70700002 0.0012396066 1.6494911e-38 292 239
-0.033422034 0.70599997 0.0012378532 1.6494911e-38 293 239
-0.032184184 0.70599997 0.0012378532 1.6678577e-38 294 239
-0.030858666 0.704 0.0012343467 1.6586381e-38 295 239
-0.029624319 0.704 0.0012343467 1.6586381e-38 296 239
-0.028349647 0.70300001 0.0012325933 1.6310154e-38 297 239
-0.027039904 0.70099998 0.0012290865 1.6401269e-38 298 239
-0.025810819 0.70099998 0.0012290865 1.6309074e-38 299 239
-0.024581732 0.70099998 0.0012290865 1.5941012e-38 300 239
-0.023352645 0.70099998 0.0012290865 1.5848816e-38 301 239
-0.022123558 0.70099998 0.0012290865 1.5848816e-38 302 239
-0.020894472 0.70099998 0.0012290865 1.5848816e-38 303 239
-0.019665385 0.70099998 0.0012290865 1.5848097e-38 304 239
-0.018436298 0.70099998 0.0012290865 1.5848097e-38 305 239
-0.017182667 0.69999999 0.0012273333 1.5204881e-38 306 239
-0.015955333 0.69999999 0.0012273333 1.5204881e-38 307 239
-0.014727999 0.69999999 0.0012273333 1.5021206e-38 308 239
-0.013500666 0.69999999 0.0012273333 1.5113402e-38 309 239
-0.012273333 0.69999999 0.0012273333 1.5387472e-38 310 239
-0.011045999 0.69999999 0.0012273333 1.5387472e-38 311 239
-0.0098186666 0.69999999 0.0012273333 1.5480742e-38 312 239
-0.0085913334 0.69999999 0.0012273333 1.5572938e-38 313 239
-0.0073639993 0.69999999 0.0012273333 1.5573302e-38 314 239
-0.0061366665 0.69999999 0.0012273333 1.5112683e-38 315 239
-0.0049093333 0.69999999 0.0012273333 1.4835737e-38 316 239
-0.0036872597 0.70099998 0.0012290865 1.4559513e-38 317 239
-0.0024546667 0.69999999 0.0012273333 1.4374766e-38 318 239
-0.0012273333 0.69999999 0.0012273333 1.4097825e-38 319 239
0 0.70099998 0.0012290865 1.428042e-38 320 239
0.0012325933 0.70300001 0.0012325933 1.4004196e-38 321 239
0.0024651866 0.70300001 0.0012325933 1.4186432e-38 322 239
0.0037030398 0.704 0.0012343467 1.4094238e-38 323 239
0.0049373866 0.704 0.0012343467 1.3725468e-38 324 239
0.0061717331 0.704 0.0012343467 1.3541076e-38 325 239
0.0074060797 0.704 0.0012343467 1.3171944e-38 326 239
0.0086404262 0.704 0.0012343467 1.3171944e-38 327 239
0.0099028256 0.70599997 0.0012378532 1.2987199e-38 328 239
0.011140679 0.70599997 0.0012378532 1.2987199e-38 329 239
0.012396066 0.70700002 0.0012396066 1.2986849e-38 330 239
0.013654959 0.708 0.00124136 1.2986849e-38 331 239
0.01489632 0.708 0.00124136 1.2711704e-38 332 239
0.016183265 0.70999998 0.0012448666 1.2711704e-38 333 239
0.017428132 0.70999998 0.0012448666 1.2436915e-38 334 239
0.0186993 0.71100003 0.00124662 1.252911e-38 335 239
0.020002026 0.713 0.0012501266 1.2345445e-38 336 239
0.021281958 0.71399999 0.00125188 1.2345445e-38 337 239
0.022596961 0.71600002 0.0012553866 1.2070306e-38 338 239
0.02388566 0.71700001 0.00125714 1.1609329e-38 339 239
0.025212931 0.71899998 0.0012606466 1.1242049e-38 340 239
0.02647358 0.71899998 0.0012606466 1.3454744e-38 341 239
0.027772799 0.72000003 0.0012624001 1.3185774e-38 342 239
-0.044815198 0.70999998 -0 1.5210777e-38 284 240
-0.043570329 0.70999998 -0 1.493383e-38 285 240
-0.042325463 0.70999998 -0 1.6681902e-38 286 240
-0.041080594 0.70999998 -0 1.7419467e-38 287 240
-0.039723519 0.708 -0 1.6959167e-38 288 240
-0.038482159 0.708 -0 1.585318e-38 289 240
-0.0372408 0.708 -0 1.6404513e-38 290 240
-0.035948593 0.70700002 -0 1.6312318e-38 291 240
-0.034659892 0.70599997 -0 1.6403434e-38 292 240
-0.033422034 0.70599997 -0 1.6403434e-38 293 240
-0.032093015 0.704 -0 1.6311236e-38 294 240
-0.030858666 0.704 -0 1.6311236e-38 295 240
-0.029582238 0.70300001 -0 1.631087e-38 296 240
-0.028268991 0.70099998 -0 1.6218675e-38 297 240
-0.027039904 0.70099998 -0 1.6217952e-38 298 240
-0.025773998 0.69999999 -0 1.603356e-38 299 240
-0.024546666 0.69999999 -0 1.6032844e-38 300 240
-0.023319334 0.69999999 -0 1.5940649e-38 301 240
-0.022123558 0.70099998 -0 1.5665504e-38 302 240
-0.020894472 0.70099998 -0 1.5573308e-38 303 240
-0.019665385 0.70099998 -0 1.5572952e-38 304 240
-0.018409999 0.69999999 -0 1.5572952e-38 305 240
-0.017182667 0.69999999 -0 1.5297446e-38 306 240
-0.015955333 0.69999999 -0 1.5204891e-38 307 240
-0.014727999 0.69999999 -0 1.4929383e-38 308 240
-0.013462093 0.69800001 -0 1.4929383e-38 309 240
-0.012238266 0.69800001 -0 1.4837185e-38 310 240
-0.01101444 0.69800001 -0 1.4837185e-38 311 240
-0.0097906133 0.69800001 -0 1.4929734e-38 312 240
-0.0085667865 0.69800001 -0 1.5021929e-38 313 240
-0.0073429602 0.69800001 -0 1.5205244e-38 314 240
-0.0061366665 0.69999999 -0 1.4652071e-38 315 240
-0.0049093333 0.69999999 -0 1.4559878e-38 316 240
-0.0036819996 0.69999999 -0 1.4191097e-38 317 240
-0.0024546667 0.69999999 -0 1.4098901e-38 318 240
-0.0012273333 0.69999999 -0 1.3914513e-38 319 240
0 0.69999999 -0 1.3729048e-38 320 240
0.0012290865 0.70099998 -0 1.3729048e-38 321 240
0.0024651866 0.70300001 -0 1.3543948e-38 322 240
0.0036977797 0.70300001 -0 1.3451751e-38 323 240
0.0049303733 0.70300001 -0 1.335813e-38 324 240
0.0061629666 0.70300001 -0 1.3173739e-38 325 240
0.0074060797 0.704 -0 1.3171949e-38 326 240
0.0086404262 0.704 -0 1.2895004e-38 327 240
0.0098747732 0.704 -0 1.2711341e-38 328 240
0.011140679 0.70599997 -0 1.2619145e-38 329 240
0.012378532 0.70599997 -0 1.2526959e-38 330 240
0.013635674 0.70700002 -0 1.2619155e-38 331 240
0.01489632 0.708 -0 1.2068502e-38 332 240
0.01613768 0.708 -0 1.2068502e-38 333 240
0.017428132 0.70999998 -0 1.1977388e-38 334 240
0.0186993 0.71100003 -0 1.1977388e-38 335 240
0.020002026 0.713 -0 1.1977388e-38 336 240
0.021281958 0.71399999 -0 1.1977388e-38 337 240
0.022596961 0.71600002 -0 1.1885912e-38 338 240
0.02388566 0.71700001 -0 1.1609326e-38 339 240
0.025212931 0.71899998 -0 1.1242752e-38 340 240
0.02647358 0.71899998 -0 1.234874e-38 341 240
0.027734226 0.71899998 -0 1.3552752e-38 342 240
-0.044815198 0.70999998 -0.0012448666 1.493382e-38 284 241
-0.043570329 0.70999998 -0.0012448666 1.5394439e-38 285 241
-0.042325463 0.70999998 -0.0012448666 1.714323e-38 286 241
-0.040964879 0.708 -0.00124136 1.6958841e-38 287 241
-0.039723519 0.708 -0.00124136 1.6499262e-38 288 241
-0.038482159 0.708 -0.00124136 1.5761697e-38 289 241
-0.0372408 0.708 -0.00124136 1.6220488e-38 290 241
-0.035948593 0.70700002 -0.0012396066 1.6220488e-38 291 241
-0.034659892 0.70599997 -0.0012378532 1.6403437e-38 292 241
-0.033422034 0.70599997 -0.0012378532 1.6403437e-38 293 241
-0.032093015 0.704 -0.0012343467 1.640379e-38 294 241
-0.030858666 0.704 -0.0012343467 1.640379e-38 295 241
-0.029498078 0.70099998 -0.0012290865 1.6311592e-38 296 241
-0.028268991 0.70099998 -0.0012290865 1.6127561e-38 297 241
-0.027001332 0.69999999 -0.0012273333 1.6218675e-38 298 241
-0.025773998 0.69999999 -0.0012273333 1.6034282e-38 299 241
-0.024546666 0.69999999 -0.0012273333 1.5941362e-38 300 241
-0.023319334 0.69999999 -0.0012273333 1.5941362e-38 301 241
-0.022091998 0.69999999 -0.0012273333 1.5573657e-38 302 241
-0.020864666 0.69999999 -0.0012273333 1.5573657e-38 303 241
-0.019637333 0.69999999 -0.0012273333 1.5573308e-38 304 241
-0.018409999 0.69999999 -0.0012273333 1.5481111e-38 305 241
-0.017182667 0.69999999 -0.0012273333 1.529744e-38 306 241
-0.015909746 0.69800001 -0.0012238267 1.5205244e-38 307 241
-0.01468592 0.69800001 -0.0012238267 1.4929734e-38 308 241
-0.013462093 0.69800001 -0.0012238267 1.4745342e-38 309 241
-0.012238266 0.69800001 -0.0012238267 1.4836819e-38 310 241
-0.01101444 0.69800001 -0.0012238267 1.4836819e-38 311 241
-0.0097906133 0.69800001 -0.0012238267 1.4837535e-38 312 241
-0.0085667865 0.69800001 -0.0012238267 1.4837535e-38 313 241
-0.0073429602 0.69800001 -0.0012238267 1.4927933e-38 314 241
-0.006119133 0.69800001 -0.0012238267 1.4375125e-38 315 241
-0.0049093333 0.69999999 -0.0012273333 1.4558079e-38 316 241
-0.0036819996 0.69999999 -0.0012273333 1.4281855e-38 317 241
-0.0024546667 0.69999999 -0.0012273333 1.3914154e-38 318 241
-0.0012273333 0.69999999 -0.0012273333 1.3729765e-38 319 241
0 0.69999999 -0.0012273333 1.3729048e-38 320 241
0.0012273333 0.69999999 -0.0012273333 1.3544301e-38 321 241
0.0024581731 0.70099998 -0.0012290865 1.3543225e-38 322 241
0.0036977797 0.70300001 -0.0012325933 1.345103e-38 323 241
0.0049303733 0.70300001 -0.0012325933 1.3358127e-38 324 241
0.0061629666 0.70300001 -0.0012325933 1.3173736e-38 325 241
0.0074060797 0.704 -0.0012343467 1.2803884e-38 326 241
0.0086404262 0.704 -0.0012343467 1.2803884e-38 327 241
0.0098747732 0.704 -0.0012343467 1.2710259e-38 328 241
0.011140679 0.70599997 -0.0012378532 1.2710259e-38 329 241
0.012378532 0.70599997 -0.0012378532 1.2343281e-38 330 241
0.013616386 0.70599997 -0.0012378532 1.2251086e-38 331 241
0.01487528 0.70700002 -0.0012396066 1.2159256e-38 332 241
0.01613768 0.708 -0.00124136 1.2159256e-38 333 241
0.017428132 0.70999998 -0.0012448666 1.2068139e-38 334 241
0.018672999 0.70999998 -0.0012448666 1.2068139e-38 335 241
0.020002026 0.713 -0.0012501266 1.1976304e-38 336 241
0.021281958 0.71399999 -0.00125188 1.1976304e-38 337 241
0.022596961 0.71600002 -0.0012553866 1.1700443e-38 338 241
0.02388566 0.71700001 -0.00125714 1.1700443e-38 339 241
0.0251428 0.71700001 -0.00125714 1.0965439e-38 340 241
0.02647358 0.71899998 -0.0012606466 1.1149831e-38 341 241
0.027734226 0.71899998 -0.0012606466 1.3182878e-38 342 241
0.029035201 0.72000003 -0.0012624001 1.5949105e-38 343 241
-0.044815198 0.70999998 -0.0024897333 1.493237e-38 284 242
-0.043570329 0.70999998 -0.0024897333 1.5577739e-38 285 242
-0.042325463 0.70999998 -0.0024897333 1.6959547e-38 286 242
-0.040964879 0.708 -0.00248272 1.6590404e-38 287 242
-0.039723519 0.708 -0.00248272 1.6589659e-38 288 242
-0.038482159 0.708 -0.00248272 1.6129041e-38 289 242
-0.037188202 0.70700002 -0.0024792133 1.6220135e-38 290 242
-0.035948593 0.70700002 -0.0024792133 1.6220135e-38 291 242
-0.034659892 0.70599997 -0.0024757064 1.6220844e-38 292 242
-0.03332736 0.704 -0.0024686933 1.612829e-38 293 242
-0.032093015 0.704 -0.0024686933 1.6312321e-38 294 242
-0.030814834 0.70300001 -0.0024651866 1.6312321e-38 295 242
-0.029498078 0.70099998 -0.0024581731 1.6312318e-38 296 242
-0.028228667 0.69999999 -0.0024546667 1.6127927e-38 297 242
-0.027001332 0.69999999 -0.0024546667 1.631087e-38 298 242
-0.025773998 0.69999999 -0.0024546667 1.6126478e-38 299 242
-0.024546666 0.69999999 -0.0024546667 1.6033913e-38 300 242
-0.023319334 0.69999999 -0.0024546667 1.5941718e-38 301 242
-0.022091998 0.69999999 -0.0024546667 1.5482186e-38 302 242
-0.020864666 0.69999999 -0.0024546667 1.538999e-38 303 242
-0.019637333 0.69999999 -0.0024546667 1.529744e-38 304 242
-0.018409999 0.69999999 -0.0024546667 1.529744e-38 305 242
-0.017182667 0.69999999 -0.0024546667 1.5205963e-38 306 242
-0.015909746 0.69800001 -0.0024476533 1.5021932e-38 307 242
-0.01468592 0.69800001 -0.0024476533 1.4837538e-38 308 242
-0.013462093 0.69800001 -0.0024476533 1.4745342e-38 309 242
-0.012238266 0.69800001 -0.0024476533 1.4469479e-38 310 242
-0.01101444 0.69800001 -0.0024476533 1.4469479e-38 311 242
-0.0097906133 0.69800001 -0.0024476533 1.4469126e-38 312 242
-0.0085667865 0.69800001 -0.0024476533 1.4376928e-38 313 242
-0.0073429602 0.69800001 -0.0024476533 1.4376212e-38 314 242
-0.006119133 0.69800001 -0.0024476533 1.4191821e-38 315 242
-0.0049093333 0.69999999 -0.0024546667 1.4098548e-38 316 242
-0.0036819996 0.69999999 -0.0024546667 1.3914155e-38 317 242
-0.0024546667 0.69999999 -0.0024546667 1.3546099e-38 318 242
-0.0012273333 0.69999999 -0.0024546667 1.3453903e-38 319 242
0 0.69999999 -0.0024546667 1.3361351e-38 320 242
0.0012273333 0.69999999 -0.0024546667 1.3269156e-38 321 242
0.0024546667 0.69999999 -0.0024546667 1.3176241e-38 322 242
0.0036872597 0.70099998 -0.0024581731 1.3176241e-38 323 242
0.0049163462 0.70099998 -0.0024581731 1.299114e-38 324 242
0.0061629666 0.70300001 -0.0024651866 1.2714913e-38 325 242
0.0073955595 0.70300001 -0.0024651866 1.2712407e-38 326 242
0.0086404262 0.704 -0.0024686933 1.2528016e-38 327 242
0.0098747732 0.704 -0.0024686933 1.2526591e-38 328 242
0.011109119 0.704 -0.0024686933 1.2434395e-38 329 242
0.012378532 0.70599997 -0.0024757064 1.1974865e-38 330 242
0.013616386 0.70599997 -0.0024757064 1.1882669e-38 331 242
0.01487528 0.70700002 -0.0024792133 1.1791195e-38 332 242
0.01613768 0.708 -0.00248272 1.1883391e-38 333 242
0.017379038 0.708 -0.00248272 1.1700078e-38 334 242
0.018672999 0.70999998 -0.0024897333 1.1700078e-38 335 242
0.01994592 0.71100003 -0.0024932399 1.1608602e-38 336 242
0.021281958 0.71399999 -0.0025037599 1.1516047e-38 337 242
0.022596961 0.71600002 -0.0025107733 1.1515697e-38 338 242
0.023852346 0.71600002 -0.0025107733 1.1515697e-38 339 242
0.0251428 0.71700001 -0.0025142799 1.0780325e-38 340 242
0.02639994 0.71700001 -0.0025142799 1.0227153e-38 341 242
0.027734226 0.71899998 -0.0025212932 1.2169435e-38 342 242
0.029035201 0.72000003 -0.0025248001 1.5765063e-38 343 242
-0.044815198 0.70999998 -0.0037345996 1.4746889e-38 284 243
-0.043570329 0.70999998 -0.0037345996 1.5392259e-38 285 243
-0.042206239 0.708 -0.00372408 1.6314177e-38 286 243
-0.040964879 0.708 -0.00372408 1.603723e-38 287 243
-0.039723519 0.708 -0.00372408 1.6128687e-38 288 243
-0.038482159 0.708 -0.00372408 1.6128687e-38 289 243
-0.037188202 0.70700002 -0.0037188199 1.6128668e-38 290 243
-0.035948593 0.70700002 -0.0037188199 1.6128668e-38 291 243
-0.034659892 0.70599997 -0.0037135598 1.6312686e-38 292 243
-0.03332736 0.704 -0.0037030398 1.6312686e-38 293 243
-0.032093015 0.704 -0.0037030398 1.6312684e-38 294 243
-0.030727165 0.70099998 -0.0036872597 1.6405239e-38 295 243
-0.029455997 0.69999999 -0.0036819996 1.6588552e-38 296 243
-0.028228667 0.69999999 -0.0036819996 1.6404519e-38 297 243
-0.027001332 0.69999999 -0.0036819996 1.6495636e-38 298 243
-0.025773998 0.69999999 -0.0036819996 1.6403081e-38 299 243
-0.024546666 0.69999999 -0.0036819996 1.5943533e-38 300 243
-0.023319334 0.69999999 -0.0036819996 1.5667304e-38 301 243
-0.022091998 0.69999999 -0.0036819996 1.566622e-38 302 243
-0.020864666 0.69999999 -0.0036819996 1.5482189e-38 303 243
-0.019637333 0.69999999 -0.0036819996 1.529744e-38 304 243
-0.018409999 0.69999999 -0.0036819996 1.529744e-38 305 243
-0.017182667 0.69999999 -0.0036819996 1.5205966e-38 306 243
-0.015909746 0.69800001 -0.0036714801 1.4929381e-38 307 243
-0.01468592 0.69800001 -0.0036714801 1.4654226e-38 308 243
-0.013462093 0.69800001 -0.0036714801 1.456203e-38 309 243
-0.012220734 0.69700003 -0.00366622 1.456095e-38 310 243
-0.01099866 0.69700003 -0.00366622 1.437656e-38 311 243
-0.0097906133 0.69800001 -0.0036714801 1.4284736e-38 312 243
-0.0085667865 0.69800001 -0.0036714801 1.4192181e-38 313 243
-0.0073429602 0.69800001 -0.0036714801 1.409927e-38 314 243
-0.006119133 0.69800001 -0.0036714801 1.3914877e-38 315 243
-0.0048953067 0.69800001 -0.0036714801 1.3821604e-38 316 243
-0.0036714801 0.69800001 -0.0036714801 1.3729408e-38 317 243
-0.0024546667 0.69999999 -0.0036819996 1.3453547e-38 318 243
-0.0012273333 0.69999999 -0.0036819996 1.3361351e-38 319 243
0 0.69800001 -0.0036714801 1.32688e-38 320 243
0.0012238267 0.69800001 -0.0036714801 1.3084767e-38 321 243
0.0024546667 0.69999999 -0.0036819996 1.2900376e-38 322 243
0.0036819996 0.69999999 -0.0036819996 1.2808182e-38 323 243
0.0049093333 0.69999999 -0.0036819996 1.2714913e-38 324 243
0.0061454331 0.70099998 -0.0036872597 1.2530523e-38 325 243
0.0073955595 0.70300001 -0.0036977797 1.2619859e-38 326 243
0.0086404262 0.704 -0.0037030398 1.2343632e-38 327 243
0.0098747732 0.704 -0.0037030398 1.225073e-38 328 243
0.011109119 0.704 -0.0037030398 1.2158533e-38 329 243
0.012378532 0.70599997 -0.0037135598 1.1973788e-38 330 243
0.013616386 0.70599997 -0.0037135598 1.1881593e-38 331 243
0.01487528 0.70700002 -0.0037188199 1.1698281e-38 332 243
0.01613768 0.708 -0.00372408 1.1790476e-38 333 243
0.017379038 0.708 -0.00372408 1.1515684e-38 334 243
0.018672999 0.70999998 -0.0037345996 1.1515684e-38 335 243
0.01994592 0.71100003 -0.0037398601 1.1332372e-38 336 243
0.021252153 0.713 -0.0037503797 1.1239818e-38 337 243
0.022596961 0.71600002 -0.00376616 1.1423136e-38 338 243
0.023852346 0.71600002 -0.00376616 1.1423136e-38 339 243
0.0251428 0.71700001 -0.0037714199 1.0780307e-38 340 243
0.02639994 0.71700001 -0.0037714199 9.9505461e-39 341 243
0.027734226 0.71899998 -0.0037819401 1.1707368e-38 342 243
0.029035201 0.72000003 -0.0037872 1.5855811e-38 343 243
-0.046060063 0.70999998 -0.0049794666 1.3738909e-38 283 244
-0.044815198 0.70999998 -0.0049794666 1.4561046e-38 284 244
-0.043570329 0.70999998 -0.0049794666 1.511422e-38 285 244
-0.042206239 0.708 -0.0049654399 1.5943939e-38 286 244
-0.040964879 0.708 -0.0049654399 1.5759908e-38 287 244
-0.039723519 0.708 -0.0049654399 1.5761333e-38 288 244
-0.038482159 0.708 -0.0049654399 1.5761333e-38 289 244
-0.037188202 0.70700002 -0.0049584266 1.6037191e-38 290 244
-0.035948593 0.70700002 -0.0049584266 1.6129388e-38 291 244
-0.034659892 0.70599997 -0.0049514128 1.6221221e-38 292 244
-0.03332736 0.704 -0.0049373866 1.6497448e-38 293 244
-0.032093015 0.704 -0.0049373866 1.6313785e-38 294 244
-0.030727165 0.70099998 -0.0049163462 1.6682209e-38 295 244
-0.029455997 0.69999999 -0.0049093333 1.6865887e-38 296 244
-0.028228667 0.69999999 -0.0049093333 1.6681135e-38 297 244
-0.027001332 0.69999999 -0.0049093333 1.6772608e-38 298 244
-0.025700359 0.69800001 -0.0048953067 1.6588577e-38 299 244
-0.024476532 0.69800001 -0.0048953067 1.6127939e-38 300 244
-0.023319334 0.69999999 -0.0049093333 1.566732e-38 301 244
-0.022091998 0.69999999 -0.0049093333 1.557475e-38 302 244
-0.020864666 0.69999999 -0.0049093333 1.5482554e-38 303 244
-0.019637333 0.69999999 -0.0049093333 1.5207049e-38 304 244
-0.018409999 0.69999999 -0.0049093333 1.5114495e-38 305 244
-0.017182667 0.69999999 -0.0049093333 1.4838986e-38 306 244
-0.015909746 0.69800001 -0.0048953067 1.4654594e-38 307 244
-0.01468592 0.69800001 -0.0048953067 1.4562393e-38 308 244
-0.013442807 0.69700003 -0.0048882933 1.4378002e-38 309 244
-0.012220734 0.69700003 -0.0048882933 1.4101774e-38 310 244
-0.01099866 0.69700003 -0.0048882933 1.4009219e-38 311 244
-0.0097765867 0.69700003 -0.0048882933 1.3916673e-38 312 244
-0.0085545136 0.69700003 -0.0048882933 1.3824478e-38 313 244
-0.00733244 0.69700003 -0.0048882933 1.3823406e-38 314 244
-0.006119133 0.69800001 -0.0048953067 1.3731209e-38 315 244
-0.0048953067 0.69800001 -0.0048953067 1.3362784e-38 316 244
-0.0036714801 0.69800001 -0.0048953067 1.3178394e-38 317 244
-0.0024476533 0.69800001 -0.0048953067 1.3178039e-38 318 244
-0.0012238267 0.69800001 -0.0048953067 1.3085844e-38 319 244
0 0.69800001 -0.0048953067 1.2901098e-38 320 244
0.0012238267 0.69800001 -0.0048953067 1.2901098e-38 321 244
0.0024546667 0.69999999 -0.0049093333 1.2807827e-38 322 244
0.0036819996 0.69999999 -0.0049093333 1.2715632e-38 323 244
0.0049093333 0.69999999 -0.0049093333 1.2439048e-38 324 244
0.0061454331 0.70099998 -0.0049163462 1.2346852e-38 325 244
0.0073745195 0.70099998 -0.0049163462 1.2161038e-38 326 244
0.0086281532 0.70300001 -0.0049303733 1.2068843e-38 327 244
0.0098747732 0.704 -0.0049373866 1.1974865e-38 328 244
0.011109119 0.704 -0.0049373866 1.1882669e-38 329 244
0.012378532 0.70599997 -0.0049514128 1.1881593e-38 330 244
0.013616386 0.70599997 -0.0049514128 1.1697562e-38 331 244
0.01487528 0.70700002 -0.0049584266 1.1605729e-38 332 244
0.01613768 0.708 -0.0049654399 1.1605729e-38 333 244
0.017379038 0.708 -0.0049654399 1.151461e-38 334 244
0.018672999 0.70999998 -0.0049794666 1.151461e-38 335 244
0.01994592 0.71100003 -0.0049864799 1.1239821e-38 336 244
0.021252153 0.713 -0.0050005065 1.1055429e-38 337 244
0.022533838 0.71399999 -0.0050075199 1.133094e-38 338 244
0.023852346 0.71600002 -0.0050215465 1.133094e-38 339 244
0.0251428 0.71700001 -0.0050285598 1.0964678e-38 340 244
0.02639994 0.71700001 -0.0050285598 1.0227113e-38 341 244
0.027772799 0.72000003 -0.0050496003 1.1704469e-38 342 244
0.029115854 0.722 -0.0050636264 1.5853272e-38 343 244
-0.046060063 0.70999998 -0.0062243328 1.3828934e-38 283 245
-0.044815198 0.70999998 -0.0062243328 1.4467762e-38 284 245
-0.043570329 0.70999998 -0.0062243328 1.5113131e-38 285 245
-0.042206239 0.708 -0.0062067998 1.511598e-38 286 245
-0.040964879 0.708 -0.0062067998 1.5208176e-38 287 245
-0.039723519 0.708 -0.0062067998 1.5393273e-38 288 245
-0.038427804 0.70700002 -0.0061980332 1.5485469e-38 289 245
-0.037188202 0.70700002 -0.0061980332 1.585353e-38 290 245
-0.035897743 0.70599997 -0.0061892662 1.5945726e-38 291 245
-0.034659892 0.70599997 -0.0061892662 1.5946444e-38 292 245
-0.03332736 0.704 -0.0061717331 1.6130836e-38 293 245
-0.032093015 0.704 -0.0061717331 1.6407442e-38 294 245
-0.030727165 0.70099998 -0.0061454331 1.6776223e-38 295 245
-0.029455997 0.69999999 -0.0061366665 1.686772e-38 296 245
-0.028228667 0.69999999 -0.0061366665 1.686772e-38 297 245
-0.026924185 0.69800001 -0.006119133 1.705031e-38 298 245
-0.025700359 0.69800001 -0.006119133 1.6865918e-38 299 245
-0.024476532 0.69800001 -0.006119133 1.6589311e-38 300 245
-0.023252707 0.69800001 -0.006119133 1.6036139e-38 301 245
-0.022091998 0.69999999 -0.0061366665 1.5759885e-38 302 245
-0.020864666 0.69999999 -0.0061366665 1.5391103e-38 303 245
-0.019637333 0.69999999 -0.0061366665 1.5298892e-38 304 245
-0.0183574 0.69800001 -0.006119133 1.5021945e-38 305 245
-0.017133573 0.69800001 -0.006119133 1.4747509e-38 306 245
-0.015909746 0.69800001 -0.006119133 1.4470923e-38 307 245
-0.01468592 0.69800001 -0.006119133 1.4561674e-38 308 245
-0.013442807 0.69700003 -0.0061103669 1.4377282e-38 309 245
-0.012220734 0.69700003 -0.0061103669 1.4192534e-38 310 245
-0.01099866 0.69700003 -0.0061103669 1.4008503e-38 311 245
-0.0097765867 0.69700003 -0.0061103669 1.3640812e-38 312 245
-0.0085545136 0.69700003 -0.0061103669 1.3548617e-38 313 245
-0.00733244 0.69700003 -0.0061103669 1.3547542e-38 314 245
-0.0061103669 0.69700003 -0.0061103669 1.3363149e-38 315 245
-0.0048953067 0.69800001 -0.006119133 1.3270232e-38 316 245
-0.0036714801 0.69800001 -0.006119133 1.3178036e-38 317 245
-0.0024476533 0.69800001 -0.006119133 1.2902175e-38 318 245
-0.0012238267 0.69800001 -0.006119133 1.2809978e-38 319 245
0 0.69800001 -0.006119133 1.2717432e-38 320 245
0.0012238267 0.69800001 -0.006119133 1.2624878e-38 321 245
0.0024476533 0.69800001 -0.006119133 1.2440487e-38 322 245
0.0036819996 0.69999999 -0.0061366665 1.2256456e-38 323 245
0.0049093333 0.69999999 -0.0061366665 1.2346499e-38 324 245
0.0061366665 0.69999999 -0.0061366665 1.2254303e-38 325 245
0.0073745195 0.70099998 -0.0061454331 1.2160685e-38 326 245
0.0086036054 0.70099998 -0.0061454331 1.1976294e-38 327 245
0.0098607466 0.70300001 -0.0061629666 1.1883391e-38 328 245
0.011109119 0.704 -0.0061717331 1.1791195e-38 329 245
0.012343466 0.704 -0.0061717331 1.1697925e-38 330 245
0.013577812 0.704 -0.0061717331 1.1605729e-38 331 245
0.014854239 0.70599997 -0.0061892662 1.1330221e-38 332 245
0.016114887 0.70700002 -0.0061980332 1.1330221e-38 333 245
0.017379038 0.708 -0.0062067998 1.1329865e-38 334 245
0.018672999 0.70999998 -0.0062243328 1.123767e-38 335 245
0.01994592 0.71100003 -0.0062330998 1.123767e-38 336 245
0.021252153 0.713 -0.0062506334 1.1145473e-38 337 245
0.022533838 0.71399999 -0.0062593995 1.0962876e-38 338 245
0.023852346 0.71600002 -0.0062769335 1.1055073e-38 339 245
0.0251428 0.71700001 -0.0062857 1.0689165e-38 340 245
0.02647358 0.71899998 -0.0063032326 9.9515999e-39 341 245
0.027772799 0.72000003 -0.0063120001 1.151826e-38 342 245
0.029115854 0.722 -0.0063295332 1.5667063e-38 343 245
-0.046060063 0.70999998 -0.0074691991 1.4286297e-38 283 246
-0.044815198 0.70999998 -0.0074691991 1.4834724e-38 284 246
-0.043570329 0.70999998 -0.0074691991 1.5203507e-38 285 246
-0.042206239 0.708 -0.0074481601 1.511416e-38 286 246
-0.040964879 0.708 -0.0074481601 1.529891e-38 287 246
-0.039723519 0.708 -0.0074481601 1.5484019e-38 288 246
-0.038427804 0.70700002 -0.0074376399 1.5668769e-38 289 246
-0.037135597 0.70599997 -0.0074271196 1.5760614e-38 290 246
-0.035897743 0.70599997 -0.0074271196 1.5944645e-38 291 246
-0.034561705 0.704 -0.0074060797 1.6131207e-38 292 246
-0.03332736 0.704 -0.0074060797 1.6407795e-38 293 246
-0.032093015 0.704 -0.0074060797 1.6960634e-38 294 246
-0.030727165 0.70099998 -0.0073745195 1.7145025e-38 295 246
-0.029455997 0.69999999 -0.0073639993 1.6870263e-38 296 246
-0.028228667 0.69999999 -0.0073639993 1.7423437e-38 297 246
-0.026924185 0.69800001 -0.0073429602 1.7791509e-38 298 246
-0.025700359 0.69800001 -0.0073429602 1.7883705e-38 299 246
-0.024476532 0.69800001 -0.0073429602 1.7881538e-38 300 246
-0.023252707 0.69800001 -0.0073429602 1.695958e-38 301 246
-0.022091998 0.69999999 -0.0073639993 1.6130152e-38 302 246
-0.020864666 0.69999999 -0.0073639993 1.5484782e-38 303 246
-0.019637333 0.69999999 -0.0073639993 1.5391476e-38 304 246
-0.0183574 0.69800001 -0.0073429602 1.4930497e-38 305 246
-0.017133573 0.69800001 -0.0073429602 1.465569e-38 306 246
-0.015909746 0.69800001 -0.0073429602 1.4286548e-38 307 246
-0.01468592 0.69800001 -0.0073429602 1.4469494e-38 308 246
-0.013442807 0.69700003 -0.00733244 1.4193266e-38 309 246
-0.012220734 0.69700003 -0.00733244 1.4008519e-38 310 246
-0.01099866 0.69700003 -0.00733244 1.3916323e-38 311 246
-0.0097765867 0.69700003 -0.00733244 1.3731576e-38 312 246
-0.0085545136 0.69700003 -0.00733244 1.3547545e-38 313 246
-0.00733244 0.69700003 -0.00733244 1.3362433e-38 314 246
-0.0061103669 0.69700003 -0.00733244 1.3270238e-38 315 246
-0.0048882933 0.69700003 -0.00733244 1.3178036e-38 316 246
-0.00366622 0.69700003 -0.00733244 1.2993647e-38 317 246
-0.0024476533 0.69800001 -0.0073429602 1.2901094e-38 318 246
-0.0012238267 0.69800001 -0.0073429602 1.262487e-38 319 246
0 0.69800001 -0.0073429602 1.2624159e-38 320 246
0.0012238267 0.69800001 -0.0073429602 1.2531964e-38 321 246
0.0024476533 0.69800001 -0.0073429602 1.2346865e-38 322 246
0.0036819996 0.69999999 -0.0073639993 1.2254669e-38 323 246
0.0049093333 0.69999999 -0.0073639993 1.2253953e-38 324 246
0.0061366665 0.69999999 -0.0073639993 1.2161757e-38 325 246
0.0073639993 0.69999999 -0.0073639993 1.206849e-38 326 246
0.0086036054 0.70099998 -0.0073745195 1.1976294e-38 327 246
0.0098607466 0.70300001 -0.0073955595 1.1791548e-38 328 246
0.011109119 0.704 -0.0074060797 1.1514963e-38 329 246
0.012343466 0.704 -0.0074060797 1.1422414e-38 330 246
0.013577812 0.704 -0.0074060797 1.1330218e-38 331 246
0.014854239 0.70599997 -0.0074271196 1.1329501e-38 332 246
0.016114887 0.70700002 -0.0074376399 1.1237305e-38 333 246
0.017379038 0.708 -0.0074481601 1.1237302e-38 334 246
0.018672999 0.70999998 -0.0074691991 1.1237302e-38 335 246
0.01994592 0.71100003 -0.0074797203 1.12373e-38 336 246
0.021192541 0.71100003 -0.0074797203 1.1145104e-38 337 246
0.022502279 0.713 -0.0075007593 1.0962508e-38 338 246
0.02378572 0.71399999 -0.0075112795 1.0962508e-38 339 246
0.0251428 0.71700001 -0.0075428397 1.0963583e-38 340 246
0.026510401 0.72000003 -0.0075743999 1.031822e-38 341 246
0.027849946 0.722 -0.0075954394 1.151789e-38 342 246
0.029115854 0.722 -0.0075954394 1.5390107e-38 343 246
-0.046124939 0.71100003 -0.0087263398 1.4194084e-38 283 247
-0.044815198 0.70999998 -0.0087140659 1.4836149e-38 284 247
-0.043570329 0.70999998 -0.0087140659 1.5112738e-38 285 247
-0.042206239 0.708 -0.008689519 1.4931564e-38 286 247
-0.040964879 0.708 -0.008689519 1.5116314e-38 287 247
-0.039723519 0.708 -0.008689519 1.5300709e-38 288 247
-0.038427804 0.70700002 -0.008677247 1.5576936e-38 289 247
-0.037135597 0.70599997 -0.0086649731 1.576098e-38 290 247
-0.035897743 0.70599997 -0.0086649731 1.5668784e-38 291 247
-0.034561705 0.704 -0.0086404262 1.6038305e-38 292 247
-0.03332736 0.704 -0.0086404262 1.6683675e-38 293 247
-0.031956252 0.70099998 -0.0086036054 1.7144675e-38 294 247
-0.030727165 0.70099998 -0.0086036054 1.7421263e-38 295 247
-0.029455997 0.69999999 -0.0085913334 1.7053941e-38 296 247
-0.028228667 0.69999999 -0.0085913334 1.769931e-38 297 247
-0.026924185 0.69800001 -0.0085667865 1.806991e-38 298 247
-0.025700359 0.69800001 -0.0085667865 1.8438693e-38 299 247
-0.024476532 0.69800001 -0.0085667865 1.8161383e-38 300 247
-0.023252707 0.69800001 -0.0085667865 1.6686613e-38 301 247
-0.022091998 0.69999999 -0.0085913334 1.6500402e-38 302 247
-0.020864666 0.69999999 -0.0085913334 1.5578445e-38 303 247
-0.019637333 0.69999999 -0.0085913334 1.5298946e-38 304 247
-0.0183574 0.69800001 -0.0085667865 1.4930163e-38 305 247
-0.017133573 0.69800001 -0.0085667865 1.4746101e-38 306 247
-0.015909746 0.69800001 -0.0085667865 1.4377677e-38 307 247
-0.01468592 0.69800001 -0.0085667865 1.4377301e-38 308 247
-0.013442807 0.69700003 -0.0085545136 1.4100714e-38 309 247
-0.012220734 0.69700003 -0.0085545136 1.3916323e-38 310 247
-0.01099866 0.69700003 -0.0085545136 1.3824127e-38 311 247
-0.0097765867 0.69700003 -0.0085545136 1.3547548e-38 312 247
-0.0085545136 0.69700003 -0.0085545136 1.3362796e-38 313 247
-0.00733244 0.69700003 -0.0085545136 1.3270956e-38 314 247
-0.0061103669 0.69700003 -0.0085545136 1.3086206e-38 315 247
-0.0048882933 0.69700003 -0.0085545136 1.3085841e-38 316 247
-0.00366622 0.69700003 -0.0085545136 1.2901452e-38 317 247
-0.0024476533 0.69800001 -0.0085667865 1.2716708e-38 318 247
-0.0012238267 0.69800001 -0.0085667865 1.2624512e-38 319 247
0 0.69800001 -0.0085667865 1.2256824e-38 320 247
0.0012238267 0.69800001 -0.0085667865 1.2072073e-38 321 247
0.0024476533 0.69800001 -0.0085667865 1.2163201e-38 322 247
0.0036714801 0.69800001 -0.0085667865 1.2071004e-38 323 247
0.0049093333 0.69999999 -0.0085913334 1.1978089e-38 324 247
0.0061366665 0.69999999 -0.0085913334 1.1793698e-38 325 247
0.0073639993 0.69999999 -0.0085913334 1.1793345e-38 326 247
0.0086036054 0.70099998 -0.0086036054 1.1516756e-38 327 247
0.0098607466 0.70300001 -0.0086281532 1.1515684e-38 328 247
0.011109119 0.704 -0.0086404262 1.1423489e-38 329 247
0.012343466 0.704 -0.0086404262 1.1330218e-38 330 247
0.013577812 0.704 -0.0086404262 1.1145826e-38 331 247
0.014854239 0.70599997 -0.0086649731 1.1053277e-38 332 247
0.016114887 0.70700002 -0.008677247 1.1145473e-38 333 247
0.017379038 0.708 -0.008689519 1.1053277e-38 334 247
0.018672999 0.70999998 -0.0087140659 1.1053277e-38 335 247
0.019917866 0.70999998 -0.0087140659 1.0869243e-38 336 247
0.021192541 0.71100003 -0.0087263398 1.1053274e-38 337 247
0.022502279 0.713 -0.0087508867 1.0869962e-38 338 247
0.02378572 0.71399999 -0.0087631596 1.0962158e-38 339 247
0.0251428 0.71700001 -0.0087999795 1.0504051e-38 340 247
0.026584039 0.722 -0.0088613462 1.0135268e-38 341 247
0.027849946 0.722 -0.0088613462 1.1425692e-38 342 247
0.029156178 0.72299999 -0.0088736191 1.5113517e-38 343 247
-0.046124939 0.71100003 -0.0099729598 1.4010772e-38 283 248
-0.044815198 0.70999998 -0.0099589331 1.4745033e-38 284 248
-0.043570329 0.70999998 -0.0099589331 1.5113457e-38 285 248
-0.042206239 0.708 -0.0099308798 1.5024113e-38 286 248
-0.040964879 0.708 -0.0099308798 1.5116308e-38 287 248
-0.039723519 0.708 -0.0099308798 1.5392175e-38 288 248
-0.038427804 0.70700002 -0.0099168532 1.5576567e-38 289 248
-0.037135597 0.70599997 -0.0099028256 1.5576939e-38 290 248
-0.035897743 0.70599997 -0.0099028256 1.576133e-38 291 248
-0.034561705 0.704 -0.0098747732 1.6037586e-38 292 248
-0.033280019 0.70300001 -0.0098607466 1.6775151e-38 293 248
-0.031956252 0.70099998 -0.0098326923 1.696101e-38 294 248
-0.030727165 0.70099998 -0.0098326923 1.7237238e-38 295 248
-0.029455997 0.69999999 -0.0098186666 1.7330535e-38 296 248
-0.028228667 0.69999999 -0.0098186666 1.7975904e-38 297 248
-0.026924185 0.69800001 -0.0097906133 1.7426699e-38 298 248
-0.025700359 0.69800001 -0.0097906133 1.761073e-38 299 248
-0.024476532 0.69800001 -0.0097906133 1.7148304e-38 300 248
-0.023252707 0.69800001 -0.0097906133 1.6226708e-38 301 248
-0.022091998 0.69999999 -0.0098186666 1.6499676e-38 302 248
-0.020864666 0.69999999 -0.0098186666 1.5670274e-38 303 248
-0.019581227 0.69800001 -0.0097906133 1.4839759e-38 304 248
-0.0183574 0.69800001 -0.0097906133 1.4286945e-38 305 248
-0.017133573 0.69800001 -0.0097906133 1.4470588e-38 306 248
-0.015909746 0.69800001 -0.0097906133 1.4102166e-38 307 248
-0.01468592 0.69800001 -0.0097906133 1.4101437e-38 308 248
-0.013442807 0.69700003 -0.0097765867 1.400924e-38 309 248
-0.012220734 0.69700003 -0.0097765867 1.391597e-38 310 248
-0.01099866 0.69700003 -0.0097765867 1.3823774e-38 311 248
-0.0097765867 0.69700003 -0.0097765867 1.3455715e-38 312 248
-0.0085545136 0.69700003 -0.0097765867 1.3179487e-38 313 248
-0.00733244 0.69700003 -0.0097765867 1.3270238e-38 314 248
-0.0061103669 0.69700003 -0.0097765867 1.3177683e-38 315 248
-0.0048882933 0.69700003 -0.0097765867 1.2993647e-38 316 248
-0.00366622 0.69700003 -0.0097765867 1.2717064e-38 317 248
-0.0024476533 0.69800001 -0.0097906133 1.2624515e-38 318 248
-0.0012238267 0.69800001 -0.0097906133 1.2440124e-38 319 248
0 0.69800001 -0.0097906133 1.2163905e-38 320 248
0.0012238267 0.69800001 -0.0097906133 1.1979514e-38 321 248
0.0024476533 0.69800001 -0.0097906133 1.2070638e-38 322 248
0.0036714801 0.69800001 -0.0097906133 1.1978442e-38 323 248
0.0049093333 0.69999999 -0.0098186666 1.1794061e-38 324 248
0.0061366665 0.69999999 -0.0098186666 1.1517834e-38 325 248
0.0073745195 0.70099998 -0.0098326923 1.1608596e-38 326 248
0.0086036054 0.70099998 -0.0098326923 1.15164e-38 327 248
0.0098607466 0.70300001 -0.0098607466 1.1423486e-38 328 248
0.011109119 0.704 -0.0098747732 1.133129e-38 329 248
0.012343466 0.704 -0.0098747732 1.1238374e-38 330 248
0.013577812 0.704 -0.0098747732 1.1053624e-38 331 248
0.014854239 0.70599997 -0.0099028256 1.1052911e-38 332 248
0.01613768 0.708 -0.0099308798 1.0960357e-38 333 248
0.017428132 0.70999998 -0.0099589331 1.0777045e-38 334 248
0.018672999 0.70999998 -0.0099589331 1.086924e-38 335 248
0.019917866 0.70999998 -0.0099589331 1.0777398e-38 336 248
0.021192541 0.71100003 -0.0099729598 1.0869593e-38 337 248
0.022502279 0.713 -0.010001013 1.0778119e-38 338 248
0.023752406 0.713 -0.010001013 1.0778119e-38 339 248
0.025002534 0.713 -0.010001013 1.0595523e-38 340 248
0.026620859 0.72299999 -0.01014128 1.0134549e-38 341 248
0.02788852 0.72299999 -0.01014128 1.1333496e-38 342 248
0.029156178 0.72299999 -0.01014128 1.5205712e-38 343 248
0.030423839 0.72299999 -0.01014128 1.6496509e-38 344 248
-0.047571439 0.71399999 -0.011266919 1.5024202e-38 282 249
-0.046124939 0.71100003 -0.01121958 1.400969e-38 283 249
