# .PCD v.7 - Point Cloud Data file format
FIELDS x y z rgb imX imY
SIZE 4 4 4 4 4 4
TYPE F F F F F F
COUNT 1 1 1 1 1 1
WIDTH 834
HEIGHT 1
VIEWPOINT 0 0 0 1 0 0 0
POINTS 834
DATA ascii
0.058508728 0.70999998 -0.034856264 1.2344405e-38 367 268
0.059837762 0.71100003 -0.034905359 1.3173484e-38 368 268
0.061513945 0.71600002 -0.035150826 1.3265681e-38 369 268
-0.012553867 0.71600002 -0.036406212 1.2900826e-38 310 269
-0.01129848 0.71600002 -0.036406212 1.1610087e-38 311 269
-0.010043093 0.71600002 -0.036406212 1.1975941e-38 312 269
-0.0087631596 0.71399999 -0.036304519 1.2160332e-38 313 269
-0.0075007593 0.713 -0.036253672 1.1978795e-38 314 269
-0.0062330998 0.71100003 -0.036151983 1.2070991e-38 315 269
-0.0049654399 0.708 -0.03599944 1.2255019e-38 316 269
-0.0037188199 0.70700002 -0.035948593 1.2347574e-38 317 269
-0.0024757064 0.70599997 -0.035897743 1.2347569e-38 318 269
-0.0012378532 0.70599997 -0.035897743 1.2440124e-38 319 269
0 0.70599997 -0.035897743 1.2623076e-38 320 269
0.0012343467 0.704 -0.035796054 1.2623076e-38 321 269
0.0024686933 0.704 -0.035796054 1.2623076e-38 322 269
0.0036977797 0.70300001 -0.035745207 1.271527e-38 323 269
0.0049163462 0.70099998 -0.035643511 1.2807823e-38 324 269
0.0061366665 0.69999999 -0.035592664 1.2807823e-38 325 269
0.0073639993 0.69999999 -0.035592664 1.2991494e-38 326 269
0.0085667865 0.69800001 -0.035490975 1.28993e-38 327 269
0.0097906133 0.69800001 -0.035490975 1.28993e-38 328 269
0.01099866 0.69700003 -0.035440128 1.2807106e-38 329 269
0.012220734 0.69700003 -0.035440128 1.2807106e-38 330 269
0.013423519 0.69599998 -0.035389278 1.2807106e-38 331 269
0.01460176 0.69400001 -0.035287585 1.2623435e-38 332 269
0.015818574 0.69400001 -0.035287585 1.2623435e-38 333 269
0.017035386 0.69400001 -0.035287585 1.2623435e-38 334 269
0.0182522 0.69400001 -0.035287585 1.2623435e-38 335 269
0.019469013 0.69400001 -0.035287585 1.2622717e-38 336 269
0.020685827 0.69400001 -0.035287585 1.2530523e-38 337 269
0.021902639 0.69400001 -0.035287585 1.2622717e-38 338 269
0.023119451 0.69400001 -0.035287585 1.2622717e-38 339 269
0.024301201 0.69300002 -0.035236739 1.2806388e-38 340 269
0.02551626 0.69300002 -0.035236739 1.2714194e-38 341 269
0.026769891 0.69400001 -0.035287585 1.289643e-38 342 269
0.027986705 0.69400001 -0.035287585 1.2804236e-38 343 269
0.029203519 0.69400001 -0.035287585 1.2620565e-38 344 269
0.030420333 0.69400001 -0.035287585 1.2528371e-38 345 269
0.031637147 0.69400001 -0.035287585 1.2252505e-38 346 269
0.032853961 0.69400001 -0.035287585 1.2252505e-38 347 269
0.034070771 0.69400001 -0.035287585 1.2160311e-38 348 269
0.035287585 0.69400001 -0.035287585 1.2068117e-38 349 269
0.036504399 0.69400001 -0.035287585 1.1975564e-38 350 269
0.037829921 0.69599998 -0.035389278 1.188337e-38 351 269
0.039050236 0.69599998 -0.035389278 1.1790099e-38 352 269
0.040270556 0.69599998 -0.035389278 1.1790099e-38 353 269
0.041550495 0.69700003 -0.035440128 1.1606787e-38 354 269
0.042772565 0.69700003 -0.035440128 1.1514593e-38 355 269
0.04405776 0.69800001 -0.035490975 1.142204e-38 356 269
0.045281585 0.69800001 -0.035490975 1.1329846e-38 357 269
0.046638668 0.69999999 -0.035592664 1.1237293e-38 358 269
0.047865998 0.69999999 -0.035592664 1.1237293e-38 359 269
0.049163464 0.70099998 -0.035643511 1.1236934e-38 360 269
0.050536323 0.70300001 -0.035745207 1.1236934e-38 361 269
0.051768921 0.70300001 -0.035745207 1.1052545e-38 362 269
0.053076904 0.704 -0.035796054 1.0960351e-38 363 269
0.054465543 0.70599997 -0.035897743 1.05001e-38 364 269
0.055703394 0.70599997 -0.035897743 1.0407905e-38 365 269
0.057021905 0.70700002 -0.035948593 9.8551261e-39 366 269
0.058343921 0.708 -0.03599944 1.1975626e-38 367 269
0.059753593 0.70999998 -0.036101133 1.2712507e-38 368 269
0.061513945 0.71600002 -0.036406212 1.3081288e-38 369 269
-0.012553867 0.71600002 -0.037661601 1.271643e-38 310 270
-0.01129848 0.71600002 -0.037661601 1.1518246e-38 311 270
-0.010043093 0.71600002 -0.037661601 1.206849e-38 312 270
-0.0087631596 0.71399999 -0.037556399 1.2160685e-38 313 270
-0.0075007593 0.713 -0.037503798 1.1978795e-38 314 270
-0.0062330998 0.71100003 -0.037398599 1.1978795e-38 315 270
-0.0049654399 0.708 -0.0372408 1.22543e-38 316 270
-0.0037188199 0.70700002 -0.037188202 1.22543e-38 317 270
-0.0024757064 0.70599997 -0.037135597 1.2164257e-38 318 270
-0.0012378532 0.70599997 -0.037135597 1.2440484e-38 319 270
0 0.70599997 -0.037135597 1.2440481e-38 320 270
0.0012343467 0.704 -0.037030395 1.2440481e-38 321 270
0.0024686933 0.704 -0.037030395 1.271527e-38 322 270
0.0036872597 0.70099998 -0.036872596 1.2807823e-38 323 270
0.0049163462 0.70099998 -0.036872596 1.2991853e-38 324 270
0.0061366665 0.69999999 -0.036819998 1.2991853e-38 325 270
0.0073429602 0.69800001 -0.0367148 1.2991494e-38 326 270
0.0085667865 0.69800001 -0.0367148 1.2991494e-38 327 270
0.0097765867 0.69700003 -0.036662199 1.28993e-38 328 270
0.01099866 0.69700003 -0.036662199 1.2807106e-38 329 270
0.0122032 0.69599998 -0.036609598 1.2806029e-38 330 270
0.013384946 0.69400001 -0.036504399 1.2806029e-38 331 270
0.01460176 0.69400001 -0.036504399 1.2622717e-38 332 270
0.015818574 0.69400001 -0.036504399 1.2530523e-38 333 270
0.017035386 0.69400001 -0.036504399 1.2530523e-38 334 270
0.0182522 0.69400001 -0.036504399 1.2530523e-38 335 270
0.019469013 0.69400001 -0.036504399 1.2713835e-38 336 270
0.020685827 0.69400001 -0.036504399 1.2713835e-38 337 270
0.021902639 0.69400001 -0.036504399 1.2530523e-38 338 270
0.023119451 0.69400001 -0.036504399 1.2622717e-38 339 270
0.024301201 0.69300002 -0.036451802 1.2713835e-38 340 270
0.02551626 0.69300002 -0.036451802 1.2621641e-38 341 270
0.02673132 0.69300002 -0.036451802 1.2711683e-38 342 270
0.027946379 0.69300002 -0.036451802 1.2527653e-38 343 270
0.029161438 0.69300002 -0.036451802 1.2435818e-38 344 270
0.0303765 0.69300002 -0.036451802 1.2343623e-38 345 270
0.031637147 0.69400001 -0.036504399 1.2160311e-38 346 270
0.032853961 0.69400001 -0.036504399 1.2160311e-38 347 270
0.034070771 0.69400001 -0.036504399 1.2068117e-38 348 270
0.035287585 0.69400001 -0.036504399 1.1975564e-38 349 270
0.036504399 0.69400001 -0.036504399 1.1698981e-38 350 270
0.037829921 0.69599998 -0.036609598 1.1606787e-38 351 270
0.039050236 0.69599998 -0.036609598 1.1514234e-38 352 270
0.040270556 0.69599998 -0.036609598 1.1514234e-38 353 270
0.041550495 0.69700003 -0.036662199 1.1330922e-38 354 270
0.042772565 0.69700003 -0.036662199 1.1238369e-38 355 270
0.04405776 0.69800001 -0.0367148 1.1421681e-38 356 270
0.045281585 0.69800001 -0.0367148 1.1237293e-38 357 270
0.046505414 0.69800001 -0.0367148 1.1052904e-38 358 270
0.047865998 0.69999999 -0.036819998 1.1052904e-38 359 270
0.049163464 0.70099998 -0.036872596 1.0868874e-38 360 270
0.050392549 0.70099998 -0.036872596 1.0868874e-38 361 270
0.051768921 0.70300001 -0.036977798 1.0868516e-38 362 270
0.053001512 0.70300001 -0.036977798 1.0684486e-38 363 270
0.054465543 0.70599997 -0.037135597 1.0591583e-38 364 270
0.055703394 0.70599997 -0.037135597 1.0406833e-38 365 270
0.056941248 0.70599997 -0.037135597 9.6718167e-39 366 270
0.058343921 0.708 -0.0372408 1.1607925e-38 367 270
0.059753593 0.70999998 -0.037345998 1.2345519e-38 368 270
0.060998458 0.70999998 -0.037345998 1.2990889e-38 369 270
-0.013828539 0.71700001 -0.038971342 1.3452242e-38 309 271
-0.012553867 0.71600002 -0.038916986 1.2715714e-38 310 271
-0.01129848 0.71600002 -0.038916986 1.1885954e-38 311 271
-0.01001504 0.71399999 -0.038808275 1.2160332e-38 312 271
-0.0087508867 0.713 -0.038753927 1.2344363e-38 313 271
-0.0074797203 0.71100003 -0.038645219 1.1978793e-38 314 271
-0.0062243328 0.70999998 -0.038590867 1.1886598e-38 315 271
-0.0049654399 0.708 -0.038482159 1.2162464e-38 316 271
-0.0037188199 0.70700002 -0.038427804 1.2254658e-38 317 271
-0.0024757064 0.70599997 -0.038373452 1.2347569e-38 318 271
-0.0012378532 0.70599997 -0.038373452 1.2440124e-38 319 271
0 0.704 -0.038264744 1.2532675e-38 320 271
0.0012343467 0.704 -0.038264744 1.2532675e-38 321 271
0.0024651866 0.70300001 -0.038210396 1.2715988e-38 322 271
0.0036872597 0.70099998 -0.038101684 1.2808541e-38 323 271
0.0049093333 0.69999999 -0.038047329 1.2991853e-38 324 271
0.0061366665 0.69999999 -0.038047329 1.2991853e-38 325 271
0.0073429602 0.69800001 -0.037938625 1.2991494e-38 326 271
0.0085667865 0.69800001 -0.037938625 1.2991494e-38 327 271
0.0097765867 0.69700003 -0.037884273 1.28993e-38 328 271
0.010982879 0.69599998 -0.037829921 1.28993e-38 329 271
0.0122032 0.69599998 -0.037829921 1.2807106e-38 330 271
0.013384946 0.69400001 -0.037721213 1.2622717e-38 331 271
0.01460176 0.69400001 -0.037721213 1.2530523e-38 332 271
0.015818574 0.69400001 -0.037721213 1.2530523e-38 333 271
0.017035386 0.69400001 -0.037721213 1.2530523e-38 334 271
0.0182522 0.69400001 -0.037721213 1.2530523e-38 335 271
0.019469013 0.69400001 -0.037721213 1.2530164e-38 336 271
0.020656019 0.69300002 -0.037666857 1.243797e-38 337 271
0.021871079 0.69300002 -0.037666857 1.2346493e-38 338 271
0.02308614 0.69300002 -0.037666857 1.2346493e-38 339 271
0.024301201 0.69300002 -0.037666857 1.243797e-38 340 271
0.02551626 0.69300002 -0.037666857 1.2345776e-38 341 271
0.02673132 0.69300002 -0.037666857 1.2435818e-38 342 271
0.027946379 0.69300002 -0.037666857 1.2343623e-38 343 271
0.029161438 0.69300002 -0.037666857 1.2067758e-38 344 271
0.0303765 0.69300002 -0.037666857 1.2067758e-38 345 271
0.031591557 0.69300002 -0.037666857 1.1975564e-38 346 271
0.032853961 0.69400001 -0.037721213 1.1975564e-38 347 271
0.034070771 0.69400001 -0.037721213 1.1792252e-38 348 271
0.035287585 0.69400001 -0.037721213 1.1700057e-38 349 271
0.036504399 0.69400001 -0.037721213 1.151531e-38 350 271
0.037721213 0.69400001 -0.037721213 1.1331281e-38 351 271
0.039050236 0.69599998 -0.037829921 1.1605352e-38 352 271
0.040270556 0.69599998 -0.037829921 1.1605352e-38 353 271
0.041490879 0.69599998 -0.037829921 1.1238369e-38 354 271
0.042772565 0.69700003 -0.037884273 1.1146175e-38 355 271
0.043994639 0.69700003 -0.037884273 1.1145816e-38 356 271
0.045281585 0.69800001 -0.037938625 1.1053622e-38 357 271
0.046505414 0.69800001 -0.037938625 1.1236216e-38 358 271
0.047865998 0.69999999 -0.038047329 1.1144022e-38 359 271
0.049093332 0.69999999 -0.038047329 1.0684845e-38 360 271
0.050392549 0.70099998 -0.038101684 1.0684845e-38 361 271
0.051621638 0.70099998 -0.038101684 1.0500815e-38 362 271
0.053001512 0.70300001 -0.038210396 1.0408262e-38 363 271
0.054465543 0.70599997 -0.038373452 1.0223523e-38 364 271
0.055703394 0.70599997 -0.038373452 1.0407554e-38 365 271
0.056941248 0.70599997 -0.038373452 1.0133155e-38 366 271
0.05826151 0.70700002 -0.038427804 1.1239863e-38 367 271
0.059753593 0.70999998 -0.038590867 1.2252601e-38 368 271
0.060998458 0.70999998 -0.038590867 1.289797e-38 369 271
-0.013828539 0.71700001 -0.040228479 1.3452242e-38 309 272
-0.012553867 0.71600002 -0.040172372 1.3081623e-38 310 272
-0.01129848 0.71600002 -0.040172372 1.2620645e-38 311 272
-0.01001504 0.71399999 -0.040060159 1.2253252e-38 312 272
-0.0087508867 0.713 -0.040004052 1.2160698e-38 313 272
-0.0074797203 0.71100003 -0.039891839 1.1978439e-38 314 272
-0.0062243328 0.70999998 -0.039835732 1.1978439e-38 315 272
-0.0049654399 0.708 -0.039723519 1.1978793e-38 316 272
-0.0037188199 0.70700002 -0.039667413 1.2071345e-38 317 272
-0.0024757064 0.70599997 -0.039611302 1.2346852e-38 318 272
-0.0012378532 0.70599997 -0.039611302 1.2715632e-38 319 272
0 0.704 -0.039499093 1.2715632e-38 320 272
0.0012343467 0.704 -0.039499093 1.2807827e-38 321 272
0.0024651866 0.70300001 -0.039442986 1.2716711e-38 322 272
0.0036872597 0.70099998 -0.039330769 1.2900742e-38 323 272
0.0049093333 0.69999999 -0.039274666 1.2900389e-38 324 272
0.006119133 0.69800001 -0.039162453 1.2900389e-38 325 272
0.0073429602 0.69800001 -0.039162453 1.2716726e-38 326 272
0.0085545136 0.69700003 -0.039106347 1.2716726e-38 327 272
0.0097765867 0.69700003 -0.039106347 1.2533058e-38 328 272
0.010982879 0.69599998 -0.039050236 1.2533058e-38 329 272
0.012168133 0.69400001 -0.038938027 1.2533414e-38 330 272
0.013384946 0.69400001 -0.038938027 1.2349023e-38 331 272
0.01460176 0.69400001 -0.038938027 1.2531964e-38 332 272
0.015818574 0.69400001 -0.038938027 1.2255375e-38 333 272
0.017035386 0.69400001 -0.038938027 1.2530523e-38 334 272
0.0182522 0.69400001 -0.038938027 1.2438329e-38 335 272
0.019469013 0.69400001 -0.038938027 1.2529806e-38 336 272
0.020656019 0.69300002 -0.03888192 1.2437611e-38 337 272
0.021871079 0.69300002 -0.03888192 1.2345417e-38 338 272
0.02308614 0.69300002 -0.03888192 1.2252864e-38 339 272
0.024301201 0.69300002 -0.03888192 1.2253223e-38 340 272
0.02551626 0.69300002 -0.03888192 1.2161029e-38 341 272
0.02673132 0.69300002 -0.03888192 1.1976999e-38 342 272
0.027946379 0.69300002 -0.03888192 1.1884805e-38 343 272
0.029161438 0.69300002 -0.03888192 1.1974846e-38 344 272
0.0303765 0.69300002 -0.03888192 1.1974846e-38 345 272
0.031591557 0.69300002 -0.03888192 1.1974846e-38 346 272
0.032853961 0.69400001 -0.038938027 1.1790458e-38 347 272
0.034070771 0.69400001 -0.038938027 1.1790099e-38 348 272
0.035287585 0.69400001 -0.038938027 1.1697905e-38 349 272
0.036504399 0.69400001 -0.038938027 1.1514593e-38 350 272
0.037721213 0.69400001 -0.038938027 1.1422399e-38 351 272
0.038938027 0.69400001 -0.038938027 1.1329846e-38 352 272
0.040154841 0.69400001 -0.038938027 1.142204e-38 353 272
0.041490879 0.69599998 -0.039050236 1.1146175e-38 354 272
0.042772565 0.69700003 -0.039106347 1.1146175e-38 355 272
0.043994639 0.69700003 -0.039106347 1.1053622e-38 356 272
0.045216713 0.69700003 -0.039106347 1.0961427e-38 357 272
0.046505414 0.69800001 -0.039162453 1.1235499e-38 358 272
0.047729239 0.69800001 -0.039162453 1.1143305e-38 359 272
0.049093332 0.69999999 -0.039274666 1.0868157e-38 360 272
0.050320663 0.69999999 -0.039274666 1.0683769e-38 361 272
0.051621638 0.70099998 -0.039330769 1.0408262e-38 362 272
0.052850723 0.70099998 -0.039330769 1.0224232e-38 363 272
0.054465543 0.70599997 -0.039611302 1.022352e-38 364 272
0.055703394 0.70599997 -0.039611302 1.0407552e-38 365 272
0.056941248 0.70599997 -0.039611302 1.04083e-38 366 272
0.05826151 0.70700002 -0.039667413 1.1606843e-38 367 272
0.059753593 0.70999998 -0.039835732 1.2252603e-38 368 272
0.060998458 0.70999998 -0.039835732 1.2990168e-38 369 272
-0.015190879 0.722 -0.041774917 1.4097612e-38 308 273
-0.0138864 0.72000003 -0.041659199 1.3452242e-38 309 273
-0.012553867 0.71600002 -0.041427758 1.3357481e-38 310 273
-0.01129848 0.71600002 -0.041427758 1.2712112e-38 311 273
-0.01001504 0.71399999 -0.041312039 1.2528394e-38 312 273
-0.0087508867 0.713 -0.041254178 1.2436199e-38 313 273
-0.0074797203 0.71100003 -0.041138459 1.1978442e-38 314 273
-0.0062243328 0.70999998 -0.041080594 1.1886247e-38 315 273
-0.0049654399 0.708 -0.040964879 1.1978795e-38 316 273
-0.0037188199 0.70700002 -0.040907022 1.2070991e-38 317 273
-0.0024757064 0.70599997 -0.040849157 1.2255022e-38 318 273
-0.0012378532 0.70599997 -0.040849157 1.2439415e-38 319 273
0 0.704 -0.040733438 1.2531969e-38 320 273
0.0012343467 0.704 -0.040733438 1.2531969e-38 321 273
0.0024581731 0.70099998 -0.040559858 1.2624884e-38 322 273
0.0036872597 0.70099998 -0.040559858 1.2809275e-38 323 273
0.0049093333 0.69999999 -0.040502001 1.2992234e-38 324 273
0.006119133 0.69800001 -0.040386278 1.3176985e-38 325 273
0.0073429602 0.69800001 -0.040386278 1.3176632e-38 326 273
0.0085545136 0.69700003 -0.040328421 1.3268828e-38 327 273
0.0097625591 0.69599998 -0.040270556 1.2994039e-38 328 273
0.010982879 0.69599998 -0.040270556 1.3086235e-38 329 273
0.012168133 0.69400001 -0.040154841 1.2902547e-38 330 273
0.013384946 0.69400001 -0.040154841 1.2533764e-38 331 273
0.01460176 0.69400001 -0.040154841 1.2532317e-38 332 273
0.015818574 0.69400001 -0.040154841 1.2347928e-38 333 273
0.017035386 0.69400001 -0.040154841 1.2530882e-38 334 273
0.0182522 0.69400001 -0.040154841 1.2438687e-38 335 273
0.019469013 0.69400001 -0.040154841 1.2346135e-38 336 273
0.020656019 0.69300002 -0.04009698 1.2162105e-38 337 273
0.021871079 0.69300002 -0.04009698 1.2069552e-38 338 273
0.02308614 0.69300002 -0.04009698 1.1976999e-38 339 273
0.024301201 0.69300002 -0.04009698 1.197664e-38 340 273
0.02551626 0.69300002 -0.04009698 1.1791893e-38 341 273
0.02673132 0.69300002 -0.04009698 1.1792252e-38 342 273
0.027946379 0.69300002 -0.04009698 1.1700057e-38 343 273
0.029161438 0.69300002 -0.04009698 1.151531e-38 344 273
0.0303765 0.69300002 -0.04009698 1.151531e-38 345 273
0.031591557 0.69300002 -0.04009698 1.1514234e-38 346 273
0.032853961 0.69400001 -0.040154841 1.1606428e-38 347 273
0.034070771 0.69400001 -0.040154841 1.1514234e-38 348 273
0.035287585 0.69400001 -0.040154841 1.1514234e-38 349 273
0.036504399 0.69400001 -0.040154841 1.142204e-38 350 273
0.037721213 0.69400001 -0.040154841 1.1329846e-38 351 273
0.038938027 0.69400001 -0.040154841 1.1329487e-38 352 273
0.040154841 0.69400001 -0.040154841 1.1237293e-38 353 273
0.041490879 0.69599998 -0.040270556 1.1146175e-38 354 273
0.042772565 0.69700003 -0.040328421 1.1053622e-38 355 273
0.043994639 0.69700003 -0.040328421 1.0961069e-38 356 273
0.045216713 0.69700003 -0.040328421 1.0961069e-38 357 273
0.046505414 0.69800001 -0.040386278 1.0960351e-38 358 273
0.047729239 0.69800001 -0.040386278 1.0868157e-38 359 273
0.049093332 0.69999999 -0.040502001 1.0500815e-38 360 273
0.050320663 0.69999999 -0.040502001 1.0408621e-38 361 273
0.051621638 0.70099998 -0.040559858 1.0223874e-38 362 273
0.052850723 0.70099998 -0.040559858 1.0131679e-38 363 273
0.054311249 0.704 -0.040733438 1.022317e-38 364 273
0.055703394 0.70599997 -0.040849157 1.0499397e-38 365 273
0.056941248 0.70599997 -0.040849157 1.0134237e-38 366 273
0.058179103 0.70599997 -0.040849157 1.0963637e-38 367 273
0.059416957 0.70599997 -0.040849157 1.2160052e-38 368 273
-0.015190879 0.722 -0.043040827 1.3913219e-38 308 274
-0.0138864 0.72000003 -0.042921603 1.3360045e-38 309 274
-0.0125714 0.71700001 -0.042742759 1.2898308e-38 310 274
-0.01129848 0.71600002 -0.042683143 1.2529524e-38 311 274
-0.010043093 0.71600002 -0.042683143 1.2436209e-38 312 274
-0.0087508867 0.713 -0.042504307 1.2344013e-38 313 274
-0.0074797203 0.71100003 -0.042385083 1.1886247e-38 314 274
-0.0062243328 0.70999998 -0.042325463 1.1886247e-38 315 274
-0.0049654399 0.708 -0.042206239 1.1978793e-38 316 274
-0.0037188199 0.70700002 -0.042146627 1.2070988e-38 317 274
-0.0024757064 0.70599997 -0.042087011 1.2254658e-38 318 274
-0.0012378532 0.70599997 -0.042087011 1.2623436e-38 319 274
0 0.704 -0.041967787 1.2439768e-38 320 274
0.0012325933 0.70300001 -0.041908171 1.2531964e-38 321 274
0.0024581731 0.70099998 -0.041788943 1.2716007e-38 322 274
0.0036819996 0.69999999 -0.041729331 1.2900038e-38 323 274
0.0049093333 0.69999999 -0.041729331 1.290114e-38 324 274
0.006119133 0.69800001 -0.041610107 1.3453955e-38 325 274
0.0073429602 0.69800001 -0.041610107 1.3180616e-38 326 274
0.0085545136 0.69700003 -0.041550495 1.3088062e-38 327 274
0.0097625591 0.69599998 -0.041490879 1.3180616e-38 328 274
0.010982879 0.69599998 -0.041490879 1.2995866e-38 329 274
0.012168133 0.69400001 -0.041371655 1.2811105e-38 330 274
0.013384946 0.69400001 -0.041371655 1.2442683e-38 331 274
0.01460176 0.69400001 -0.041371655 1.2441584e-38 332 274
0.015818574 0.69400001 -0.041371655 1.1888412e-38 333 274
0.01701084 0.69300002 -0.041312039 1.2347574e-38 334 274
0.018225901 0.69300002 -0.041312039 1.2255019e-38 335 274
0.01944096 0.69300002 -0.041312039 1.2254658e-38 336 274
0.020656019 0.69300002 -0.041312039 1.2162464e-38 337 274
0.021871079 0.69300002 -0.041312039 1.1977358e-38 338 274
0.02308614 0.69300002 -0.041312039 1.1885163e-38 339 274
0.024301201 0.69300002 -0.041312039 1.1792969e-38 340 274
0.02551626 0.69300002 -0.041312039 1.1700775e-38 341 274
0.02673132 0.69300002 -0.041312039 1.1607504e-38 342 274
0.027946379 0.69300002 -0.041312039 1.151531e-38 343 274
0.029161438 0.69300002 -0.041312039 1.1514593e-38 344 274
0.0303765 0.69300002 -0.041312039 1.142204e-38 345 274
0.031591557 0.69300002 -0.041312039 1.1605352e-38 346 274
0.03280662 0.69300002 -0.041312039 1.1605352e-38 347 274
0.034021679 0.69300002 -0.041312039 1.1605352e-38 348 274
0.035287585 0.69400001 -0.041371655 1.1605352e-38 349 274
0.036504399 0.69400001 -0.041371655 1.1421322e-38 350 274
0.037721213 0.69400001 -0.041371655 1.1421322e-38 351 274
0.038938027 0.69400001 -0.041371655 1.1328769e-38 352 274
0.040154841 0.69400001 -0.041371655 1.1328769e-38 353 274
0.041490879 0.69599998 -0.041490879 1.1052904e-38 354 274
0.042772565 0.69700003 -0.041550495 1.1052904e-38 355 274
0.043994639 0.69700003 -0.041550495 1.1052904e-38 356 274
0.045216713 0.69700003 -0.041550495 1.0868157e-38 357 274
0.046505414 0.69800001 -0.041610107 1.0959275e-38 358 274
0.047729239 0.69800001 -0.041610107 1.0775245e-38 359 274
0.049093332 0.69999999 -0.041729331 1.0408621e-38 360 274
0.050320663 0.69999999 -0.041729331 1.0132038e-38 361 274
0.051621638 0.70099998 -0.041788943 1.031535e-38 362 274
0.052850723 0.70099998 -0.041788943 1.031535e-38 363 274
0.054234106 0.70300001 -0.041908171 1.0314993e-38 364 274
0.055545598 0.704 -0.041967787 1.0314993e-38 365 274
0.056779943 0.704 -0.041967787 1.0223904e-38 366 274
0.058179103 0.70599997 -0.042087011 1.1146221e-38 367 274
0.059416957 0.70599997 -0.042087011 1.2068209e-38 368 274
-0.015190879 0.722 -0.044306733 1.3637709e-38 308 275
-0.0138864 0.72000003 -0.044183999 1.3084535e-38 309 275
-0.0125714 0.71700001 -0.043999899 1.2806831e-38 310 275
-0.01129848 0.71600002 -0.043938532 1.2161462e-38 311 275
-0.010043093 0.71600002 -0.043938532 1.2436565e-38 312 275
-0.0087508867 0.713 -0.043754432 1.2344369e-38 313 275
-0.0074797203 0.71100003 -0.043631699 1.2069559e-38 314 275
-0.0062243328 0.70999998 -0.043570329 1.2069559e-38 315 275
-0.0049794666 0.70999998 -0.043570329 1.1978793e-38 316 275
-0.00372408 0.708 -0.043447599 1.2070988e-38 317 275
-0.0024757064 0.70599997 -0.043324865 1.2255019e-38 318 275
-0.0012378532 0.70599997 -0.043324865 1.2439771e-38 319 275
0 0.704 -0.043202132 1.243942e-38 320 275
0.0012325933 0.70300001 -0.043140765 1.243942e-38 321 275
0.0024581731 0.70099998 -0.043018032 1.253091e-38 322 275
0.0036819996 0.69999999 -0.042956665 1.2899691e-38 323 275
0.0049093333 0.69999999 -0.042956665 1.2624926e-38 324 275
0.006119133 0.69800001 -0.042833932 1.3270295e-38 325 275
0.0073429602 0.69800001 -0.042833932 1.3086993e-38 326 275
0.0085545136 0.69700003 -0.042772565 1.3086993e-38 327 275
0.0097625591 0.69599998 -0.042711195 1.3087349e-38 328 275
0.010982879 0.69599998 -0.042711195 1.2995153e-38 329 275
0.012168133 0.69400001 -0.042588469 1.2811461e-38 330 275
0.013384946 0.69400001 -0.042588469 1.244268e-38 331 275
0.01460176 0.69400001 -0.042588469 1.2440862e-38 332 275
0.015818574 0.69400001 -0.042588469 1.207208e-38 333 275
0.01701084 0.69300002 -0.042527102 1.2255025e-38 334 275
0.018225901 0.69300002 -0.042527102 1.2070635e-38 335 275
0.01944096 0.69300002 -0.042527102 1.2162108e-38 336 275
0.020656019 0.69300002 -0.042527102 1.1977716e-38 337 275
0.021871079 0.69300002 -0.042527102 1.1976999e-38 338 275
0.02308614 0.69300002 -0.042527102 1.1700416e-38 339 275
0.024301201 0.69300002 -0.042527102 1.1516386e-38 340 275
0.02551626 0.69300002 -0.042527102 1.1424192e-38 341 275
0.02673132 0.69300002 -0.042527102 1.1239445e-38 342 275
0.027946379 0.69300002 -0.042527102 1.1239445e-38 343 275
0.029161438 0.69300002 -0.042527102 1.1329846e-38 344 275
0.0303765 0.69300002 -0.042527102 1.1329846e-38 345 275
0.031591557 0.69300002 -0.042527102 1.1329487e-38 346 275
0.03280662 0.69300002 -0.042527102 1.142204e-38 347 275
0.034021679 0.69300002 -0.042527102 1.1146175e-38 348 275
0.035287585 0.69400001 -0.042588469 1.1146175e-38 349 275
0.036504399 0.69400001 -0.042588469 1.1146175e-38 350 275
0.037721213 0.69400001 -0.042588469 1.105398e-38 351 275
0.038938027 0.69400001 -0.042588469 1.0961427e-38 352 275
0.040154841 0.69400001 -0.042588469 1.0869233e-38 353 275
0.041490879 0.69599998 -0.042711195 1.0685562e-38 354 275
0.042772565 0.69700003 -0.042772565 1.0685562e-38 355 275
0.043994639 0.69700003 -0.042772565 1.0684845e-38 356 275
0.045216713 0.69700003 -0.042772565 1.0592651e-38 357 275
0.046505414 0.69800001 -0.042833932 1.0500098e-38 358 275
0.047729239 0.69800001 -0.042833932 1.0500098e-38 359 275
0.049093332 0.69999999 -0.042956665 1.0132756e-38 360 275
0.050320663 0.69999999 -0.042956665 1.0040561e-38 361 275
0.051621638 0.70099998 -0.043018032 1.0039485e-38 362 275
0.052850723 0.70099998 -0.043018032 1.0039485e-38 363 275
0.054234106 0.70300001 -0.043140765 1.0039132e-38 364 275
0.055545598 0.704 -0.043202132 1.0131328e-38 365 275
0.056779943 0.704 -0.043202132 1.0040957e-38 366 275
0.05826151 0.70700002 -0.043386232 1.0871076e-38 367 275
0.059501119 0.70700002 -0.043386232 1.1884175e-38 368 275
-0.015190879 0.722 -0.045572639 1.4005412e-38 308 276
-0.0138864 0.72000003 -0.045446403 1.345224e-38 309 276
-0.0125714 0.71700001 -0.045257039 1.2714279e-38 310 276
-0.01129848 0.71600002 -0.045193922 1.2345856e-38 311 276
-0.01001504 0.71399999 -0.045067675 1.2436211e-38 312 276
-0.0087508867 0.713 -0.045004558 1.2436211e-38 313 276
-0.0075007593 0.713 -0.045004558 1.2345067e-38 314 276
-0.0062330998 0.71100003 -0.044878319 1.2345067e-38 315 276
-0.0049794666 0.70999998 -0.044815198 1.2254303e-38 316 276
-0.00372408 0.708 -0.044688959 1.2346499e-38 317 276
-0.0024792133 0.70700002 -0.044625837 1.2346865e-38 318 276
-0.0012378532 0.70599997 -0.044562716 1.243942e-38 319 276
0 0.704 -0.044436477 1.2439064e-38 320 276
0.0012325933 0.70300001 -0.04437336 1.2346869e-38 321 276
0.0024581731 0.70099998 -0.044247117 1.2622026e-38 322 276
0.0036819996 0.69999999 -0.044183996 1.2806776e-38 323 276
0.0049093333 0.69999999 -0.044183996 1.253201e-38 324 276
0.006119133 0.69800001 -0.04405776 1.2900434e-38 325 276
0.0073429602 0.69800001 -0.04405776 1.2810055e-38 326 276
0.0085545136 0.69700003 -0.043994639 1.2994447e-38 327 276
0.0097765867 0.69700003 -0.043994639 1.2995166e-38 328 276
0.010982879 0.69599998 -0.043931518 1.3087361e-38 329 276
0.012168133 0.69400001 -0.043805279 1.2810757e-38 330 276
0.013384946 0.69400001 -0.043805279 1.2349781e-38 331 276
0.01460176 0.69400001 -0.043805279 1.2255765e-38 332 276
0.015818574 0.69400001 -0.043805279 1.1887341e-38 333 276
0.01701084 0.69300002 -0.043742158 1.2070285e-38 334 276
0.018225901 0.69300002 -0.043742158 1.1978089e-38 335 276
0.01944096 0.69300002 -0.043742158 1.2069556e-38 336 276
0.020656019 0.69300002 -0.043742158 1.197736e-38 337 276
0.021871079 0.69300002 -0.043742158 1.1884805e-38 338 276
0.02308614 0.69300002 -0.043742158 1.1700416e-38 339 276
0.024301201 0.69300002 -0.043742158 1.1607504e-38 340 276
0.02551626 0.69300002 -0.043742158 1.1331281e-38 341 276
0.02673132 0.69300002 -0.043742158 1.1238728e-38 342 276
0.027946379 0.69300002 -0.043742158 1.1238728e-38 343 276
0.029161438 0.69300002 -0.043742158 1.1421322e-38 344 276
0.0303765 0.69300002 -0.043742158 1.1421322e-38 345 276
0.031591557 0.69300002 -0.043742158 1.1329846e-38 346 276
0.03280662 0.69300002 -0.043742158 1.1329846e-38 347 276
0.034021679 0.69300002 -0.043742158 1.1146533e-38 348 276
0.035287585 0.69400001 -0.043805279 1.1054339e-38 349 276
0.036504399 0.69400001 -0.043805279 1.0870668e-38 350 276
0.037721213 0.69400001 -0.043805279 1.0778474e-38 351 276
0.038938027 0.69400001 -0.043805279 1.0685562e-38 352 276
0.040154841 0.69400001 -0.043805279 1.0593368e-38 353 276
0.041490879 0.69599998 -0.043931518 1.0410056e-38 354 276
0.042772565 0.69700003 -0.043994639 1.0410056e-38 355 276
0.043994639 0.69700003 -0.043994639 1.0592651e-38 356 276
0.045216713 0.69700003 -0.043994639 1.0500456e-38 357 276
0.046505414 0.69800001 -0.04405776 1.0407903e-38 358 276
0.047729239 0.69800001 -0.04405776 1.0407903e-38 359 276
0.049093332 0.69999999 -0.044183996 1.0223874e-38 360 276
0.050320663 0.69999999 -0.044183996 1.0039485e-38 361 276
0.051621638 0.70099998 -0.044247117 9.9472909e-39 362 276
0.052850723 0.70099998 -0.044247117 9.9472909e-39 363 276
0.054311249 0.704 -0.044436477 9.9469336e-39 364 276
0.055545598 0.704 -0.044436477 1.0131325e-38 365 276
0.056941248 0.70599997 -0.044562716 1.0040957e-38 366 276
0.05826151 0.70700002 -0.044625837 1.0963272e-38 367 276
0.059585281 0.708 -0.044688959 1.2068212e-38 368 276
0.060826641 0.708 -0.044688959 1.3082366e-38 369 276
-0.0138864 0.72000003 -0.0467088 1.326893e-38 309 277
-0.0125714 0.71700001 -0.046514176 1.2898664e-38 310 277
-0.01129848 0.71600002 -0.046449307 1.2253294e-38 311 277
-0.01001504 0.71399999 -0.046319555 1.2528038e-38 312 277
-0.0087508867 0.713 -0.046254687 1.2528038e-38 313 277
-0.0075007593 0.713 -0.046254687 1.234507e-38 314 277
-0.0062330998 0.71100003 -0.046124939 1.234507e-38 315 277
-0.0049794666 0.70999998 -0.046060063 1.2161757e-38 316 277
-0.00372408 0.708 -0.045930319 1.2346149e-38 317 277
-0.0024792133 0.70700002 -0.045865446 1.2254316e-38 318 277
-0.0012378532 0.70599997 -0.04580057 1.2346872e-38 319 277
0 0.704 -0.045670826 1.2438348e-38 320 277
0.0012325933 0.70300001 -0.04560595 1.2438348e-38 321 277
0.0024651866 0.70300001 -0.04560595 1.2346163e-38 322 277
0.0036872597 0.70099998 -0.045476202 1.2346163e-38 323 277
0.0049093333 0.69999999 -0.04541133 1.2621323e-38 324 277
0.006119133 0.69800001 -0.045281585 1.2713519e-38 325 277
0.0073429602 0.69800001 -0.045281585 1.2439825e-38 326 277
0.0085545136 0.69700003 -0.045216713 1.2716771e-38 327 277
0.0097765867 0.69700003 -0.045216713 1.2717137e-38 328 277
0.010982879 0.69599998 -0.045151837 1.2809332e-38 329 277
0.012168133 0.69400001 -0.045022093 1.2715319e-38 330 277
0.013384946 0.69400001 -0.045022093 1.2438732e-38 331 277
0.01460176 0.69400001 -0.045022093 1.2253966e-38 332 277
0.015818574 0.69400001 -0.045022093 1.1885543e-38 333 277
0.017035386 0.69400001 -0.045022093 1.2069209e-38 334 277
0.0182522 0.69400001 -0.045022093 1.1977013e-38 335 277
0.019469013 0.69400001 -0.045022093 1.1793332e-38 336 277
0.020656019 0.69300002 -0.044957221 1.1793332e-38 337 277
0.021871079 0.69300002 -0.044957221 1.1700057e-38 338 277
0.02308614 0.69300002 -0.044957221 1.1423833e-38 339 277
0.024301201 0.69300002 -0.044957221 1.151531e-38 340 277
0.02551626 0.69300002 -0.044957221 1.1238728e-38 341 277
0.02673132 0.69300002 -0.044957221 1.1146533e-38 342 277
0.027946379 0.69300002 -0.044957221 1.1146533e-38 343 277
0.029161438 0.69300002 -0.044957221 1.1237293e-38 344 277
0.0303765 0.69300002 -0.044957221 1.1053263e-38 345 277
0.031591557 0.69300002 -0.044957221 1.1054339e-38 346 277
0.03280662 0.69300002 -0.044957221 1.0961786e-38 347 277
0.034021679 0.69300002 -0.044957221 1.1053263e-38 348 277
0.035287585 0.69400001 -0.045022093 1.1053263e-38 349 277
0.036504399 0.69400001 -0.045022093 1.0778115e-38 350 277
0.037721213 0.69400001 -0.045022093 1.0778115e-38 351 277
0.038938027 0.69400001 -0.045022093 1.0410056e-38 352 277
0.040154841 0.69400001 -0.045022093 1.0317861e-38 353 277
0.041490879 0.69599998 -0.045151837 1.0317861e-38 354 277
0.042772565 0.69700003 -0.045216713 1.0317861e-38 355 277
0.043994639 0.69700003 -0.045216713 1.040898e-38 356 277
0.045281585 0.69800001 -0.045281585 1.0224591e-38 357 277
0.046505414 0.69800001 -0.045281585 1.0224232e-38 358 277
0.047729239 0.69800001 -0.045281585 1.0132038e-38 359 277
0.049093332 0.69999999 -0.04541133 1.0314992e-38 360 277
0.050320663 0.69999999 -0.04541133 1.0222797e-38 361 277
0.051621638 0.70099998 -0.045476202 9.9472909e-39 362 277
0.052850723 0.70099998 -0.045476202 9.9472909e-39 363 277
0.054311249 0.704 -0.045670826 9.8558169e-39 364 277
0.055545598 0.704 -0.045670826 1.0039848e-38 365 277
0.056941248 0.70599997 -0.04580057 9.6732516e-39 366 277
0.05826151 0.70700002 -0.045865446 1.0779959e-38 367 277
0.059585281 0.708 -0.045930319 1.2159333e-38 368 277
0.060826641 0.708 -0.045930319 1.3081288e-38 369 277
-0.0138864 0.72000003 -0.0479712 1.3452242e-38 309 278
-0.0125714 0.71700001 -0.04777132 1.2899027e-38 310 278
-0.01129848 0.71600002 -0.047704693 1.2161462e-38 311 278
-0.010043093 0.71600002 -0.047704693 1.2803549e-38 312 278
-0.0087508867 0.713 -0.047504812 1.2619158e-38 313 278
-0.0075007593 0.713 -0.047504812 1.2343998e-38 314 278
-0.0062330998 0.71100003 -0.047371563 1.2436193e-38 315 278
-0.0049794666 0.70999998 -0.047304932 1.2344719e-38 316 278
-0.00372408 0.708 -0.047171678 1.2436915e-38 317 278
-0.0024792133 0.70700002 -0.047105055 1.197846e-38 318 278
-0.0012378532 0.70599997 -0.047038425 1.2070656e-38 319 278
0 0.70599997 -0.047038425 1.2253968e-38 320 278
0.0012343467 0.704 -0.046905171 1.2253968e-38 321 278
0.0024651866 0.70300001 -0.046838548 1.2253966e-38 322 278
0.0036872597 0.70099998 -0.046705291 1.2069934e-38 323 278
0.0049093333 0.69999999 -0.046638668 1.2252896e-38 324 278
0.006119133 0.69800001 -0.046505414 1.2160701e-38 325 278
0.0073429602 0.69800001 -0.046505414 1.207032e-38 326 278
0.0085545136 0.69700003 -0.046438783 1.2162515e-38 327 278
0.0097765867 0.69700003 -0.046438783 1.2438026e-38 328 278
0.010982879 0.69599998 -0.046372157 1.2438026e-38 329 278
0.012168133 0.69400001 -0.046238903 1.2070317e-38 330 278
0.013384946 0.69400001 -0.046238903 1.1794089e-38 331 278
0.01460176 0.69400001 -0.046238903 1.1884837e-38 332 278
0.015818574 0.69400001 -0.046238903 1.1700446e-38 333 278
0.017035386 0.69400001 -0.046238903 1.1792629e-38 334 278
0.0182522 0.69400001 -0.046238903 1.1700073e-38 335 278
0.019469013 0.69400001 -0.046238903 1.1608946e-38 336 278
0.020656019 0.69300002 -0.04617228 1.1516751e-38 337 278
0.021871079 0.69300002 -0.04617228 1.1700057e-38 338 278
0.02308614 0.69300002 -0.04617228 1.1331281e-38 339 278
0.024301201 0.69300002 -0.04617228 1.1514952e-38 340 278
0.02551626 0.69300002 -0.04617228 1.1238728e-38 341 278
0.02673132 0.69300002 -0.04617228 1.0870668e-38 342 278
0.027946379 0.69300002 -0.04617228 1.0870668e-38 343 278
0.029161438 0.69300002 -0.04617228 1.0961427e-38 344 278
0.0303765 0.69300002 -0.04617228 1.0961427e-38 345 278
0.031591557 0.69300002 -0.04617228 1.0869233e-38 346 278
0.032853961 0.69400001 -0.046238903 1.0869233e-38 347 278
0.034070771 0.69400001 -0.046238903 1.0593727e-38 348 278
0.035287585 0.69400001 -0.046238903 1.0593727e-38 349 278
0.036504399 0.69400001 -0.046238903 1.0685921e-38 350 278
0.037721213 0.69400001 -0.046238903 1.0501532e-38 351 278
0.038938027 0.69400001 -0.046238903 1.0501174e-38 352 278
0.040154841 0.69400001 -0.046238903 1.0501174e-38 353 278
0.041490879 0.69599998 -0.046372157 1.0041996e-38 354 278
0.042772565 0.69700003 -0.046438783 1.0041996e-38 355 278
0.043994639 0.69700003 -0.046438783 1.0224591e-38 356 278
0.045281585 0.69800001 -0.046505414 1.0132397e-38 357 278
0.046505414 0.69800001 -0.046505414 1.031535e-38 358 278
0.047865998 0.69999999 -0.046638668 1.031535e-38 359 278
0.049093332 0.69999999 -0.046638668 1.0039485e-38 360 278
0.050392549 0.70099998 -0.046705291 9.9472909e-39 361 278
0.051621638 0.70099998 -0.046705291 9.9472909e-39 362 278
0.053001512 0.70300001 -0.046838548 9.9472909e-39 363 278
0.054311249 0.704 -0.046905171 9.8554638e-39 364 278
0.055545598 0.704 -0.046905171 1.0131691e-38 365 278
0.057021905 0.70700002 -0.047105055 9.6732544e-39 366 278
0.05826151 0.70700002 -0.047105055 1.0963993e-38 367 278
0.059585281 0.708 -0.047171678 1.2159689e-38 368 278
0.060826641 0.708 -0.047171678 1.2805058e-38 369 278
-0.013828539 0.71700001 -0.04902846 1.3360045e-38 309 279
-0.0125714 0.71700001 -0.04902846 1.3174535e-38 310 279
-0.01129848 0.71600002 -0.048960082 1.2068547e-38 311 279
-0.010043093 0.71600002 -0.048960082 1.2619161e-38 312 279
-0.0087508867 0.713 -0.048754938 1.2619161e-38 313 279
-0.0075007593 0.713 -0.048754938 1.2344716e-38 314 279
-0.0062330998 0.71100003 -0.048618179 1.2160685e-38 315 279
-0.0049864799 0.71100003 -0.048618179 1.2068487e-38 316 279
-0.0037345996 0.70999998 -0.048549797 1.2160682e-38 317 279
-0.0024792133 0.70700002 -0.048344657 1.1885543e-38 318 279
-0.0012378532 0.70599997 -0.048276275 1.1885543e-38 319 279
0 0.70599997 -0.048276275 1.2159979e-38 320 279
0.0012343467 0.704 -0.048139516 1.2344369e-38 321 279
0.0024651866 0.70300001 -0.048071139 1.2253249e-38 322 279
0.0036872597 0.70099998 -0.047934376 1.2161054e-38 323 279
0.0049093333 0.69999999 -0.047865998 1.2160688e-38 324 279
0.006119133 0.69800001 -0.047729239 1.1975938e-38 325 279
0.0073429602 0.69800001 -0.047729239 1.1792273e-38 326 279
0.0085667865 0.69800001 -0.047729239 1.1976304e-38 327 279
0.0097765867 0.69700003 -0.047660861 1.2068505e-38 328 279
0.01099866 0.69700003 -0.047660861 1.2068505e-38 329 279
0.0122032 0.69599998 -0.047592476 1.1885193e-38 330 279
0.013384946 0.69400001 -0.047455717 1.1700443e-38 331 279
0.01460176 0.69400001 -0.047455717 1.1700073e-38 332 279
0.015818574 0.69400001 -0.047455717 1.1515682e-38 333 279
0.017035386 0.69400001 -0.047455717 1.1516754e-38 334 279
0.0182522 0.69400001 -0.047455717 1.1516754e-38 335 279
0.019469013 0.69400001 -0.047455717 1.160823e-38 336 279
0.020656019 0.69300002 -0.047387339 1.1516035e-38 337 279
0.021871079 0.69300002 -0.047387339 1.1423475e-38 338 279
0.02308614 0.69300002 -0.047387339 1.1331281e-38 339 279
0.024301201 0.69300002 -0.047387339 1.1147251e-38 340 279
0.02551626 0.69300002 -0.047387339 1.1054698e-38 341 279
0.02673132 0.69300002 -0.047387339 1.0778833e-38 342 279
0.027946379 0.69300002 -0.047387339 1.0686638e-38 343 279
0.029161438 0.69300002 -0.047387339 1.0961427e-38 344 279
0.0303765 0.69300002 -0.047387339 1.0685203e-38 345 279
0.031591557 0.69300002 -0.047387339 1.0593009e-38 346 279
0.032853961 0.69400001 -0.047455717 1.0408621e-38 347 279
0.034070771 0.69400001 -0.047455717 1.0500815e-38 348 279
0.035287585 0.69400001 -0.047455717 1.0593009e-38 349 279
0.036504399 0.69400001 -0.047455717 1.0593009e-38 350 279
0.037721213 0.69400001 -0.047455717 1.0500815e-38 351 279
0.038938027 0.69400001 -0.047455717 1.022495e-38 352 279
0.040270556 0.69599998 -0.047592476 1.022495e-38 353 279
0.041550495 0.69700003 -0.047660861 1.0041996e-38 354 279
0.042772565 0.69700003 -0.047660861 9.949802e-39 355 279
0.043994639 0.69700003 -0.047660861 1.0224591e-38 356 279
0.045281585 0.69800001 -0.047729239 1.0132038e-38 357 279
0.046505414 0.69800001 -0.047729239 1.031535e-38 358 279
0.047865998 0.69999999 -0.047865998 1.0223156e-38 359 279
0.049093332 0.69999999 -0.047865998 1.0039485e-38 360 279
0.050392549 0.70099998 -0.047934376 9.9472909e-39 361 279
0.051621638 0.70099998 -0.047934376 9.8550967e-39 362 279
0.053001512 0.70300001 -0.048071139 9.8550967e-39 363 279
0.054311249 0.704 -0.048139516 9.9469336e-39 364 279
0.055545598 0.704 -0.048139516 1.0039129e-38 365 279
0.056941248 0.70599997 -0.048276275 1.0223186e-38 366 279
0.05826151 0.70700002 -0.048344657 1.160612e-38 367 279
0.059585281 0.708 -0.048413038 1.2251156e-38 368 279
-0.013828539 0.71700001 -0.0502856 1.3635555e-38 309 280
-0.0125714 0.71700001 -0.0502856 1.335821e-38 310 280
-0.01129848 0.71600002 -0.050215468 1.2344058e-38 311 280
-0.01001504 0.71399999 -0.050075196 1.2802833e-38 312 280
-0.0087508867 0.713 -0.050005067 1.2618442e-38 313 280
-0.0075007593 0.713 -0.050005067 1.2345072e-38 314 280
-0.0062506334 0.713 -0.050005067 1.2160682e-38 315 280
-0.0049864799 0.71100003 -0.049864799 1.2251802e-38 316 280
-0.0037345996 0.70999998 -0.049794663 1.2159606e-38 317 280
-0.0024792133 0.70700002 -0.049584266 1.1699723e-38 318 280
-0.0012378532 0.70599997 -0.04951413 1.179192e-38 319 280
0 0.704 -0.049373865 1.1975603e-38 320 280
0.0012343467 0.704 -0.049373865 1.1975603e-38 321 280
0.0024651866 0.70300001 -0.049303733 1.188484e-38 322 280
0.0036872597 0.70099998 -0.049163464 1.1792644e-38 323 280
0.0049093333 0.69999999 -0.049093332 1.1883388e-38 324 280
0.0061366665 0.69999999 -0.049093332 1.1883388e-38 325 280
0.0073429602 0.69800001 -0.048953064 1.1700076e-38 326 280
0.0085667865 0.69800001 -0.048953064 1.160788e-38 327 280
0.0097765867 0.69700003 -0.048882935 1.1608249e-38 328 280
0.01099866 0.69700003 -0.048882935 1.1700446e-38 329 280
0.0122032 0.69599998 -0.048812799 1.1332735e-38 330 280
0.013384946 0.69400001 -0.048672531 1.1424931e-38 331 280
0.01460176 0.69400001 -0.048672531 1.1240893e-38 332 280
0.015818574 0.69400001 -0.048672531 1.1240893e-38 333 280
0.017035386 0.69400001 -0.048672531 1.124089e-38 334 280
0.0182522 0.69400001 -0.048672531 1.1333085e-38 335 280
0.019469013 0.69400001 -0.048672531 1.1332722e-38 336 280
0.020656019 0.69300002 -0.048602402 1.1240527e-38 337 280
0.021871079 0.69300002 -0.048602402 1.1423475e-38 338 280
0.02308614 0.69300002 -0.048602402 1.1239086e-38 339 280
0.024301201 0.69300002 -0.048602402 1.1147251e-38 340 280
0.02551626 0.69300002 -0.048602402 1.0870668e-38 341 280
0.02673132 0.69300002 -0.048602402 1.0870668e-38 342 280
0.027946379 0.69300002 -0.048602402 1.0778115e-38 343 280
0.029161438 0.69300002 -0.048602402 1.0502609e-38 344 280
0.0303765 0.69300002 -0.048602402 1.0410056e-38 345 280
0.031591557 0.69300002 -0.048602402 1.0408621e-38 346 280
0.032853961 0.69400001 -0.048672531 1.0500815e-38 347 280
0.034070771 0.69400001 -0.048672531 1.0133473e-38 348 280
0.035287585 0.69400001 -0.048672531 1.0133473e-38 349 280
0.036504399 0.69400001 -0.048672531 1.0224591e-38 350 280
0.037721213 0.69400001 -0.048672531 1.0132397e-38 351 280
0.038938027 0.69400001 -0.048672531 9.949802e-39 352 280
0.040270556 0.69599998 -0.048812799 9.949802e-39 353 280
0.041550495 0.69700003 -0.048882935 9.949802e-39 354 280
0.042772565 0.69700003 -0.048882935 9.949802e-39 355 280
0.04405776 0.69800001 -0.048953064 9.8572491e-39 356 280
0.045281585 0.69800001 -0.048953064 9.9494433e-39 357 280
0.046638668 0.69999999 -0.049093332 1.0132038e-38 358 280
0.047865998 0.69999999 -0.049093332 9.9472909e-39 359 280
0.049093332 0.69999999 -0.049093332 9.9472909e-39 360 280
0.050392549 0.70099998 -0.049163464 9.8550967e-39 361 280
0.051621638 0.70099998 -0.049163464 9.8550967e-39 362 280
0.053076904 0.704 -0.049373865 9.8550967e-39 363 280
0.054311249 0.704 -0.049373865 9.7632682e-39 364 280
0.055545598 0.704 -0.049373865 1.0039495e-38 365 280
0.056941248 0.70599997 -0.04951413 9.8572799e-39 366 280
0.058343921 0.708 -0.049654398 1.1240216e-38 367 280
0.059585281 0.708 -0.049654398 1.2343707e-38 368 280
-0.0125714 0.71700001 -0.051542737 1.3634446e-38 310 281
-0.01129848 0.71600002 -0.051470853 1.2528099e-38 311 281
-0.01001504 0.71399999 -0.05132708 1.2802127e-38 312 281
-0.0087508867 0.713 -0.051255193 1.2709931e-38 313 281
-0.0075007593 0.713 -0.051255193 1.2251805e-38 314 281
-0.0062506334 0.713 -0.051255193 1.215925e-38 315 281
-0.0049864799 0.71100003 -0.051111419 1.2159239e-38 316 281
-0.0037345996 0.70999998 -0.051039528 1.2066685e-38 317 281
-0.0024792133 0.70700002 -0.050823875 1.1790829e-38 318 281
-0.0012378532 0.70599997 -0.050751984 1.1883025e-38 319 281
0 0.704 -0.050608214 1.1882691e-38 320 281
0.0012343467 0.704 -0.050608214 1.2159278e-38 321 281
0.0024651866 0.70300001 -0.050536323 1.188378e-38 322 281
0.0036872597 0.70099998 -0.050392549 1.1791585e-38 323 281
0.0049093333 0.69999999 -0.050320663 1.1882689e-38 324 281
0.0061366665 0.69999999 -0.050320663 1.1790492e-38 325 281
0.0073639993 0.69999999 -0.050320663 1.1698999e-38 326 281
0.0085667865 0.69800001 -0.050176892 1.1698999e-38 327 281
0.0097906133 0.69800001 -0.050176892 1.1332369e-38 328 281
0.01099866 0.69700003 -0.050105009 1.1332369e-38 329 281
0.012220734 0.69700003 -0.050105009 1.1516032e-38 330 281
0.013423519 0.69599998 -0.050033119 1.1423836e-38 331 281
0.01460176 0.69400001 -0.049889345 1.1240521e-38 332 281
0.015818574 0.69400001 -0.049889345 1.1148327e-38 333 281
0.017035386 0.69400001 -0.049889345 1.1331641e-38 334 281
0.0182522 0.69400001 -0.049889345 1.1423836e-38 335 281
0.019469013 0.69400001 -0.049889345 1.1423836e-38 336 281
0.020656019 0.69300002 -0.049817458 1.114761e-38 337 281
0.021871079 0.69300002 -0.049817458 1.1239086e-38 338 281
0.02308614 0.69300002 -0.049817458 1.1146533e-38 339 281
0.024301201 0.69300002 -0.049817458 1.0871386e-38 340 281
0.02551626 0.69300002 -0.049817458 1.0778833e-38 341 281
0.02673132 0.69300002 -0.049817458 1.0686638e-38 342 281
0.027946379 0.69300002 -0.049817458 1.0686638e-38 343 281
0.029161438 0.69300002 -0.049817458 1.0502609e-38 344 281
0.0303765 0.69300002 -0.049817458 1.031822e-38 345 281
0.031637147 0.69400001 -0.049889345 1.022495e-38 346 281
0.032853961 0.69400001 -0.049889345 1.0040203e-38 347 281
0.034070771 0.69400001 -0.049889345 1.0040203e-38 348 281
0.035287585 0.69400001 -0.049889345 1.0132397e-38 349 281
0.036504399 0.69400001 -0.049889345 1.0040203e-38 350 281
0.037721213 0.69400001 -0.049889345 1.0040203e-38 351 281
0.039050236 0.69599998 -0.050033119 1.004092e-38 352 281
0.040270556 0.69599998 -0.050033119 1.004092e-38 353 281
0.041550495 0.69700003 -0.050105009 9.8576078e-39 354 281
0.042772565 0.69700003 -0.050105009 9.8576078e-39 355 281
0.04405776 0.69800001 -0.050176892 1.0040561e-38 356 281
0.045281585 0.69800001 -0.050176892 9.8565316e-39 357 281
0.046638668 0.69999999 -0.050320663 1.0130603e-38 358 281
0.047865998 0.69999999 -0.050320663 9.9465734e-39 359 281
0.049093332 0.69999999 -0.050320663 9.9465734e-39 360 281
0.050392549 0.70099998 -0.050392549 9.9465734e-39 361 281
0.051621638 0.70099998 -0.050392549 9.8550967e-39 362 281
0.053076904 0.704 -0.050608214 9.8550967e-39 363 281
0.054311249 0.704 -0.050608214 9.9469336e-39 364 281
0.055703394 0.70599997 -0.050751984 1.0039129e-38 365 281
0.057263866 0.70999998 -0.051039528 9.8562009e-39 366 281
0.058508728 0.70999998 -0.051039528 1.1607919e-38 367 281
0.059753593 0.70999998 -0.051039528 1.2342989e-38 368 281
-0.012553867 0.71600002 -0.052726239 1.3360383e-38 310 282
-0.01129848 0.71600002 -0.052726239 1.2438068e-38 311 282
-0.01001504 0.71399999 -0.052578956 1.2895048e-38 312 282
-0.0087508867 0.713 -0.052505318 1.2618101e-38 313 282
-0.0075007593 0.713 -0.052505318 1.2343281e-38 314 282
-0.0062506334 0.713 -0.052505318 1.215853e-38 315 282
-0.0049864799 0.71100003 -0.052358042 1.215852e-38 316 282
-0.0037345996 0.70999998 -0.052284397 1.2065966e-38 317 282
-0.00248272 0.708 -0.052137118 1.1697925e-38 318 282
-0.0012396066 0.70700002 -0.05206348 1.1882675e-38 319 282
0 0.70599997 -0.051989835 1.1793752e-38 320 282
0.0012343467 0.704 -0.051842559 1.1885948e-38 321 282
0.0024651866 0.70300001 -0.051768921 1.1335301e-38 322 282
0.0036977797 0.70300001 -0.051768921 1.0689931e-38 323 282
0.0049163462 0.70099998 -0.051621638 1.105582e-38 324 282
0.0061366665 0.69999999 -0.051547997 1.1608994e-38 325 282
0.0073639993 0.69999999 -0.051547997 1.1700448e-38 326 282
0.0085667865 0.69800001 -0.051400717 1.1055079e-38 327 282
0.0097906133 0.69800001 -0.051400717 1.1423486e-38 328 282
0.01099866 0.69700003 -0.051327083 1.1423486e-38 329 282
0.012220734 0.69700003 -0.051327083 1.1147972e-38 330 282
0.013423519 0.69599998 -0.051253434 1.1147972e-38 331 282
0.014643839 0.69599998 -0.051253434 1.1331641e-38 332 282
0.015818574 0.69400001 -0.051106159 1.114761e-38 333 282
0.017035386 0.69400001 -0.051106159 1.105578e-38 334 282
0.0182522 0.69400001 -0.051106159 1.105578e-38 335 282
0.019469013 0.69400001 -0.051106159 1.1055777e-38 336 282
0.020685827 0.69400001 -0.051106159 1.096358e-38 337 282
0.021871079 0.69300002 -0.051032521 1.1146533e-38 338 282
0.02308614 0.69300002 -0.051032521 1.1054339e-38 339 282
0.024301201 0.69300002 -0.051032521 1.1054339e-38 340 282
0.025553079 0.69400001 -0.051106159 1.0870309e-38 341 282
0.02673132 0.69300002 -0.051032521 1.0778115e-38 342 282
0.027946379 0.69300002 -0.051032521 1.0778115e-38 343 282
0.029203519 0.69400001 -0.051106159 1.0502609e-38 344 282
0.030420333 0.69400001 -0.051106159 1.0317861e-38 345 282
0.031637147 0.69400001 -0.051106159 1.0224591e-38 346 282
0.032853961 0.69400001 -0.051106159 9.9480084e-39 347 282
0.034070771 0.69400001 -0.051106159 9.7643374e-39 348 282
0.035287585 0.69400001 -0.051106159 9.7643374e-39 349 282
0.036504399 0.69400001 -0.051106159 9.6728606e-39 350 282
0.037721213 0.69400001 -0.051106159 9.6728606e-39 351 282
0.039050236 0.69599998 -0.051253434 9.7650548e-39 352 282
