# .PCD v.7 - Point Cloud Data file format
FIELDS x y z rgb imX imY
SIZE 4 4 4 4 4 4
TYPE F F F F F F
COUNT 1 1 1 1 1 1
WIDTH 833
HEIGHT 1
VIEWPOINT 0 0 0 1 0 0 0
POINTS 833
DATA ascii
-0.0073008798 0.69400001 -0.030420333 1.1976999e-38 314 265
-0.0061015999 0.69599998 -0.030507999 1.1976999e-38 315 265
-0.0048882933 0.69700003 -0.030551834 1.2159957e-38 316 265
-0.00366622 0.69700003 -0.030551834 1.2159957e-38 317 265
-0.0024441467 0.69700003 -0.030551834 1.1975923e-38 318 265
-0.0012238267 0.69800001 -0.030595668 1.1791534e-38 319 265
0 0.69800001 -0.030595668 1.1699699e-38 320 265
0.0012238267 0.69800001 -0.030595668 1.1515669e-38 321 265
0.0024546667 0.69999999 -0.030683333 1.160643e-38 322 265
0.0036819996 0.69999999 -0.030683333 1.1698984e-38 323 265
0.0049303733 0.70300001 -0.030814834 1.160643e-38 324 265
0.0061717331 0.704 -0.030858666 1.160643e-38 325 265
0.0074060797 0.704 -0.030858666 1.1514237e-38 326 265
0.0086649731 0.70599997 -0.030946331 1.1514237e-38 327 265
0.0099168532 0.70700002 -0.030990168 1.1423486e-38 328 265
0.011156459 0.70700002 -0.030990168 1.1423486e-38 329 265
0.0124136 0.708 -0.031034 1.1332019e-38 330 265
0.013693533 0.70999998 -0.031121666 1.1608246e-38 331 265
0.014959441 0.71100003 -0.031165501 1.1789785e-38 332 265
0.01620606 0.71100003 -0.031165501 1.2712102e-38 333 265
0.017501773 0.713 -0.031253166 1.4836599e-38 334 265
0.018751899 0.713 -0.031253166 1.502099e-38 335 265
-0.053168077 0.722 -0.032913569 1.6218833e-38 278 266
-0.051902171 0.722 -0.032913569 1.5850052e-38 279 266
-0.050636265 0.722 -0.032913569 1.5017365e-38 280 266
-0.0492336 0.72000003 -0.0328224 1.42798e-38 281 266
-0.04790457 0.71899998 -0.032776814 1.473821e-38 282 266
-0.046449307 0.71600002 -0.032640055 1.4461983e-38 283 266
-0.045193922 0.71600002 -0.032640055 1.4553086e-38 284 266
-0.043815799 0.71399999 -0.032548878 1.4368336e-38 285 266
-0.042325463 0.70999998 -0.032366529 1.4550228e-38 286 266
-0.040964879 0.708 -0.03227536 1.4365836e-38 287 266
-0.039611302 0.70599997 -0.032184184 1.3723029e-38 288 266
-0.038264744 0.704 -0.032093015 1.4460594e-38 289 266
-0.036872596 0.70099998 -0.031956252 1.3544441e-38 290 266
-0.035643511 0.70099998 -0.031956252 1.3452245e-38 291 266
-0.034365334 0.69999999 -0.031910665 1.2810854e-38 292 266
-0.033043321 0.69800001 -0.031819493 1.290305e-38 293 266
-0.031819493 0.69800001 -0.031819493 1.2351681e-38 294 266
-0.030551834 0.69700003 -0.03177391 1.2351681e-38 295 266
-0.02932976 0.69700003 -0.03177391 1.262791e-38 296 266
-0.028067358 0.69599998 -0.031728316 1.2720106e-38 297 266
-0.026847038 0.69599998 -0.031728316 1.271975e-38 298 266
-0.025626717 0.69599998 -0.031728316 1.2627554e-38 299 266
-0.024336265 0.69400001 -0.031637147 1.2534993e-38 300 266
-0.02308614 0.69300002 -0.031591557 1.2258046e-38 301 266
-0.021871079 0.69300002 -0.031591557 1.207399e-38 302 266
-0.020685827 0.69400001 -0.031637147 1.1520816e-38 303 266
-0.019469013 0.69400001 -0.031637147 1.2067101e-38 304 266
-0.0182522 0.69400001 -0.031637147 1.1790515e-38 305 266
-0.017084479 0.69599998 -0.031728316 1.2434045e-38 306 266
-0.015818574 0.69400001 -0.031637147 1.2434045e-38 307 266
-0.01460176 0.69400001 -0.031637147 1.2434748e-38 308 266
-0.013384946 0.69400001 -0.031637147 1.2342551e-38 309 266
-0.0122032 0.69599998 -0.031728316 1.24351e-38 310 266
-0.010982879 0.69599998 -0.031728316 1.24351e-38 311 266
-0.0097625591 0.69599998 -0.031728316 1.2251788e-38 312 266
-0.0085422397 0.69599998 -0.031728316 1.2344341e-38 313 266
-0.0073219193 0.69599998 -0.031728316 1.2251788e-38 314 266
-0.0061103669 0.69700003 -0.03177391 1.2251788e-38 315 266
-0.0048882933 0.69700003 -0.03177391 1.2435459e-38 316 266
-0.0036714801 0.69800001 -0.031819493 1.2435459e-38 317 266
-0.0024476533 0.69800001 -0.031819493 1.1976281e-38 318 266
-0.0012238267 0.69800001 -0.031819493 1.1883728e-38 319 266
0 0.69800001 -0.031819493 1.1974846e-38 320 266
0.0012273333 0.69999999 -0.031910665 1.1882652e-38 321 266
0.0024546667 0.69999999 -0.031910665 1.1606787e-38 322 266
0.0036872597 0.70099998 -0.031956252 1.1606787e-38 323 266
0.0049303733 0.70300001 -0.032047424 1.1698265e-38 324 266
0.0061717331 0.704 -0.032093015 1.1605711e-38 325 266
0.0074271196 0.70599997 -0.032184184 1.1514237e-38 326 266
0.0086649731 0.70599997 -0.032184184 1.1606432e-38 327 266
0.0099168532 0.70700002 -0.032229774 1.1423486e-38 328 266
0.011156459 0.70700002 -0.032229774 1.1423486e-38 329 266
0.0124136 0.708 -0.03227536 1.1515697e-38 330 266
0.013693533 0.70999998 -0.032366529 1.1607894e-38 331 266
0.014959441 0.71100003 -0.032412119 1.1607569e-38 332 266
0.01620606 0.71100003 -0.032412119 1.2713917e-38 333 266
0.017501773 0.713 -0.032503292 1.3915735e-38 334 266
0.018751899 0.713 -0.032503292 1.4561104e-38 335 266
-0.051902171 0.722 -0.034179479 1.5850776e-38 279 267
-0.050496001 0.72000003 -0.034084801 1.5387239e-38 280 267
-0.049165215 0.71899998 -0.03403746 1.4557119e-38 281 267
-0.04790457 0.71899998 -0.03403746 1.4552392e-38 282 267
-0.046449307 0.71600002 -0.03389544 1.4644948e-38 283 267
-0.045193922 0.71600002 -0.03389544 1.4553098e-38 284 267
-0.043815799 0.71399999 -0.033800758 1.4276872e-38 285 267
-0.042385083 0.71100003 -0.033658739 1.4458386e-38 286 267
-0.041080594 0.70999998 -0.033611398 1.4458386e-38 287 267
-0.039667413 0.70700002 -0.033469379 1.3907379e-38 288 267
-0.038373452 0.70599997 -0.033422034 1.3354206e-38 289 267
-0.037030395 0.704 -0.03332736 1.2331435e-38 290 267
-0.035745207 0.70300001 -0.033280019 1.0395706e-38 291 267
-0.034414422 0.70099998 -0.03318534 8.4714882e-39 292 267
-0.033137999 0.69999999 -0.033137999 8.7484338e-39 293 267
-0.031910665 0.69999999 -0.033137999 8.1077924e-39 294 267
-0.030595668 0.69800001 -0.033043321 8.6609648e-39 295 267
-0.029371841 0.69800001 -0.033043321 8.4773134e-39 296 267
-0.028107686 0.69700003 -0.03299598 8.4773134e-39 297 267
-0.026847038 0.69599998 -0.032948639 8.7521024e-39 298 267
-0.025626717 0.69599998 -0.032948639 8.6599054e-39 299 267
-0.0244064 0.69599998 -0.032948639 8.198186e-39 300 267
-0.023186078 0.69599998 -0.032948639 6.6308603e-39 301 267
-0.021965759 0.69599998 -0.032948639 5.8968447e-39 302 267
-0.020745439 0.69599998 -0.032948639 8.2939297e-39 303 267
-0.019525118 0.69599998 -0.032948639 1.1605379e-38 304 267
-0.018304799 0.69599998 -0.032948639 1.1881966e-38 305 267
-0.017084479 0.69599998 -0.032948639 1.2616987e-38 306 267
-0.015864158 0.69599998 -0.032948639 1.2709543e-38 307 267
-0.014643839 0.69599998 -0.032948639 1.24351e-38 308 267
-0.013423519 0.69599998 -0.032948639 1.2342906e-38 309 267
-0.0122032 0.69599998 -0.032948639 1.2342906e-38 310 267
-0.010982879 0.69599998 -0.032948639 1.24351e-38 311 267
-0.0097625591 0.69599998 -0.032948639 1.24351e-38 312 267
-0.0085545136 0.69700003 -0.03299598 1.24351e-38 313 267
-0.00733244 0.69700003 -0.03299598 1.2252505e-38 314 267
-0.0061103669 0.69700003 -0.03299598 1.2252505e-38 315 267
-0.0048953067 0.69800001 -0.033043321 1.2252505e-38 316 267
-0.0036714801 0.69800001 -0.033043321 1.2160311e-38 317 267
-0.0024476533 0.69800001 -0.033043321 1.2159952e-38 318 267
-0.0012238267 0.69800001 -0.033043321 1.1975923e-38 319 267
0 0.69999999 -0.033137999 1.16997e-38 320 267
0.0012273333 0.69999999 -0.033137999 1.1515669e-38 321 267
0.0024581731 0.70099998 -0.03318534 1.1515316e-38 322 267
0.0036977797 0.70300001 -0.033280019 1.1515316e-38 323 267
0.0049373866 0.704 -0.03332736 1.160643e-38 324 267
0.0061717331 0.704 -0.03332736 1.160643e-38 325 267
0.0074271196 0.70599997 -0.033422034 1.142312e-38 326 267
0.008677247 0.70700002 -0.033469379 1.142312e-38 327 267
0.0099308798 0.708 -0.033516716 1.1239818e-38 328 267
0.01117224 0.708 -0.033516716 1.1332372e-38 329 267
0.012448666 0.70999998 -0.033611398 1.1607897e-38 330 267
0.013693533 0.70999998 -0.033611398 1.1700092e-38 331 267
0.014959441 0.71100003 -0.033658739 1.1790162e-38 332 267
0.01620606 0.71100003 -0.033658739 1.2435532e-38 333 267
0.017526319 0.71399999 -0.033800758 1.2902656e-38 334 267
-0.051902171 0.722 -0.035445385 1.621848e-38 279 268
-0.050496001 0.72000003 -0.035347197 1.5664915e-38 280 268
-0.049165215 0.71899998 -0.035298105 1.4651122e-38 281 268
-0.04790457 0.71899998 -0.035298105 1.4460927e-38 282 268
-0.046449307 0.71600002 -0.035150826 1.4276534e-38 283 268
-0.045193922 0.71600002 -0.035150826 1.4736045e-38 284 268
-0.043815799 0.71399999 -0.035052639 1.4643849e-38 285 268
-0.042504307 0.713 -0.035003547 1.4550935e-38 286 268
-0.041138459 0.71100003 -0.034905359 1.4182152e-38 287 268
-0.039835732 0.70999998 -0.034856264 1.4090325e-38 288 268
-0.038427804 0.70700002 -0.034708988 1.3905575e-38 289 268
-0.037135597 0.70599997 -0.034659892 1.2983982e-38 290 268
-0.035796054 0.704 -0.034561705 1.1601047e-38 291 268
-0.034512613 0.70300001 -0.034512613 1.1045015e-38 292 268
-0.03318534 0.70099998 -0.034414422 9.4777102e-39 293 268
-0.031956252 0.70099998 -0.034414422 6.7194265e-39 294 268
-0.030683333 0.69999999 -0.034365334 6.1662541e-39 295 268
-0.029371841 0.69800001 -0.034267146 4.7883924e-39 296 268
-0.028107686 0.69700003 -0.034218054 5.1571749e-39 297 268
-0.026885614 0.69700003 -0.034218054 5.4334087e-39 298 268
-0.025663542 0.69700003 -0.034218054 5.0646262e-39 299 268
-0.024441468 0.69700003 -0.034218054 4.9749262e-39 300 268
-0.023219392 0.69700003 -0.034218054 5.6202957e-39 301 268
-0.021965759 0.69599998 -0.034168959 8.4689575e-39 302 268
-0.020745439 0.69599998 -0.034168959 1.0865685e-38 303 268
-0.019553173 0.69700003 -0.034218054 1.2063833e-38 304 268
-0.018331099 0.69700003 -0.034218054 1.2248583e-38 305 268
-0.017109027 0.69700003 -0.034218054 1.261699e-38 306 268
-0.015886955 0.69700003 -0.034218054 1.261699e-38 307 268
-0.01466488 0.69700003 -0.034218054 1.2709889e-38 308 268
-0.013442807 0.69700003 -0.034218054 1.2617695e-38 309 268
-0.012220734 0.69700003 -0.034218054 1.2617695e-38 310 268
-0.01099866 0.69700003 -0.034218054 1.2709889e-38 311 268
-0.0097765867 0.69700003 -0.034218054 1.24351e-38 312 268
-0.0085667865 0.69800001 -0.034267146 1.2527297e-38 313 268
-0.0073429602 0.69800001 -0.034267146 1.2343982e-38 314 268
-0.006119133 0.69800001 -0.034267146 1.2343982e-38 315 268
-0.0048953067 0.69800001 -0.034267146 1.2343982e-38 316 268
-0.0036819996 0.69999999 -0.034365334 1.2251788e-38 317 268
-0.0024546667 0.69999999 -0.034365334 1.1976281e-38 318 268
-0.0012273333 0.69999999 -0.034365334 1.1976281e-38 319 268
0 0.69999999 -0.034365334 1.1883728e-38 320 268
0.0012290865 0.70099998 -0.034414422 1.1791534e-38 321 268
0.0024651866 0.70300001 -0.034512613 1.1515669e-38 322 268
0.0036977797 0.70300001 -0.034512613 1.1515669e-38 323 268
0.0049373866 0.704 -0.034561705 1.1697909e-38 324 268
0.0061892662 0.70599997 -0.034659892 1.1697909e-38 325 268
0.0074376399 0.70700002 -0.034708988 1.1606435e-38 326 268
0.008677247 0.70700002 -0.034708988 1.1698631e-38 327 268
0.0099308798 0.708 -0.034758076 1.1515328e-38 328 268
0.011203799 0.70999998 -0.034856264 1.1607883e-38 329 268
0.0124662 0.71100003 -0.034905359 1.1516783e-38 330 268
0.01371282 0.71100003 -0.034905359 1.1516783e-38 331 268
0.014959441 0.71100003 -0.034905359 1.2161464e-38 332 268
0.01620606 0.71100003 -0.034905359 1.3083421e-38 333 268
-0.050636265 0.722 -0.03671129 1.5758561e-38 280 269
-0.0492336 0.72000003 -0.036609601 1.5020996e-38 281 269
-0.04790457 0.71899998 -0.036558751 1.483152e-38 282 269
-0.046514176 0.71700001 -0.036457058 1.3817726e-38 283 269
-0.045257039 0.71700001 -0.036457058 1.4734973e-38 284 269
-0.043938532 0.71600002 -0.036406212 1.4734973e-38 285 269
-0.042504307 0.713 -0.036253672 1.4458386e-38 286 269
-0.041138459 0.71100003 -0.036151983 1.4366189e-38 287 269
-0.039835732 0.70999998 -0.036101133 1.4089959e-38 288 269
-0.038482159 0.708 -0.03599944 1.3997405e-38 289 269
-0.037188202 0.70700002 -0.035948593 1.3904493e-38 290 269
-0.035897743 0.70599997 -0.035897743 1.3720101e-38 291 269
-0.034659892 0.70599997 -0.035897743 1.3163707e-38 292 269
-0.03332736 0.704 -0.035796054 1.224139e-38 293 269
-0.032047424 0.70300001 -0.035745207 9.1100095e-39 294 269
-0.030814834 0.70300001 -0.035745207 7.5427076e-39 295 269
-0.029498078 0.70099998 -0.035643511 5.0595619e-39 296 269
-0.028228667 0.69999999 -0.035592664 4.9673676e-39 297 269
-0.027001332 0.69999999 -0.035592664 4.6003858e-39 298 269
-0.025700359 0.69800001 -0.035490975 4.6003858e-39 299 269
-0.024476532 0.69800001 -0.035490975 5.7110297e-39 300 269
-0.023252707 0.69800001 -0.035490975 8.0159205e-39 301 269
-0.02202888 0.69800001 -0.035490975 1.1417047e-38 302 269
-0.020805053 0.69800001 -0.035490975 1.2430839e-38 303 269
-0.019581227 0.69800001 -0.035490975 1.2616274e-38 304 269
-0.0183574 0.69800001 -0.035490975 1.2616274e-38 305 269
-0.017133573 0.69800001 -0.035490975 1.2709893e-38 306 269
-0.015909746 0.69800001 -0.035490975 1.2709893e-38 307 269
-0.01466488 0.69700003 -0.035440128 1.2526577e-38 308 269
-0.013442807 0.69700003 -0.035440128 1.2526577e-38 309 269
-0.012238266 0.69800001 -0.035490975 1.2526577e-38 310 269
-0.01101444 0.69800001 -0.035490975 1.2526577e-38 311 269
-0.0097906133 0.69800001 -0.035490975 1.2343982e-38 312 269
-0.0085667865 0.69800001 -0.035490975 1.2528013e-38 313 269
-0.0073429602 0.69800001 -0.035490975 1.2252505e-38 314 269
-0.006119133 0.69800001 -0.035490975 1.2252505e-38 315 269
-0.0048953067 0.69800001 -0.035490975 1.2251788e-38 316 269
-0.0036819996 0.69999999 -0.035592664 1.2159594e-38 317 269
-0.0024546667 0.69999999 -0.035592664 1.1976281e-38 318 269
-0.0012273333 0.69999999 -0.035592664 1.1976281e-38 319 269
0 0.69999999 -0.035592664 1.1976281e-38 320 269
0.0012290865 0.70099998 -0.035643511 1.1791534e-38 321 269
0.0024651866 0.70300001 -0.035745207 1.1791177e-38 322 269
0.0037030398 0.704 -0.035796054 1.1698981e-38 323 269
0.0049514128 0.70599997 -0.035897743 1.160643e-38 324 269
0.0061892662 0.70599997 -0.035897743 1.160643e-38 325 269
0.0074481601 0.708 -0.03599944 1.1515316e-38 326 269
0.008689519 0.708 -0.03599944 1.1699347e-38 327 269
0.0099589331 0.70999998 -0.036101133 1.1515684e-38 328 269
0.011203799 0.70999998 -0.036101133 1.1700076e-38 329 269
0.0124662 0.71100003 -0.036151983 1.1607894e-38 330 269
0.01371282 0.71100003 -0.036151983 1.1700448e-38 331 269
0.014959441 0.71100003 -0.036151983 1.34522e-38 332 269
-0.0492336 0.72000003 -0.037871998 1.5481991e-38 281 270
-0.04790457 0.71899998 -0.037819397 1.5110646e-38 282 270
-0.046514176 0.71700001 -0.037714198 1.3727711e-38 283 270
-0.045257039 0.71700001 -0.037714198 1.464279e-38 284 270
-0.043938532 0.71600002 -0.037661601 1.464279e-38 285 270
-0.042504307 0.713 -0.037503798 1.4458033e-38 286 270
-0.041138459 0.71100003 -0.037398599 1.4181805e-38 287 270
-0.039835732 0.70999998 -0.037345998 1.4272919e-38 288 270
-0.038590867 0.70999998 -0.037345998 1.3904496e-38 289 270
-0.0372408 0.708 -0.0372408 1.3812293e-38 290 270
-0.035948593 0.70700002 -0.037188202 1.3535707e-38 291 270
-0.034708988 0.70700002 -0.037188202 1.3717228e-38 292 270
-0.033422034 0.70599997 -0.037135597 1.3532835e-38 293 270
-0.032093015 0.704 -0.037030395 1.2796016e-38 294 270
-0.030814834 0.70300001 -0.036977798 1.2150646e-38 295 270
-0.029498078 0.70099998 -0.036872596 1.0862091e-38 296 270
-0.028268991 0.70099998 -0.036872596 1.0493308e-38 297 270
-0.027001332 0.69999999 -0.036819998 1.0034148e-38 298 270
-0.025773998 0.69999999 -0.036819998 1.0495126e-38 299 270
-0.024546666 0.69999999 -0.036819998 1.0772419e-38 300 270
-0.023319334 0.69999999 -0.036819998 1.1233397e-38 301 270
-0.02202888 0.69800001 -0.0367148 1.2246432e-38 302 270
-0.020805053 0.69800001 -0.0367148 1.2615215e-38 303 270
-0.019637333 0.69999999 -0.036819998 1.270882e-38 304 270
-0.018409999 0.69999999 -0.036819998 1.2892853e-38 305 270
-0.017182667 0.69999999 -0.036819998 1.2802442e-38 306 270
-0.015909746 0.69800001 -0.0367148 1.2894638e-38 307 270
-0.01468592 0.69800001 -0.0367148 1.261949e-38 308 270
-0.013462093 0.69800001 -0.0367148 1.261949e-38 309 270
-0.012238266 0.69800001 -0.0367148 1.2527294e-38 310 270
-0.01101444 0.69800001 -0.0367148 1.261949e-38 311 270
-0.0097906133 0.69800001 -0.0367148 1.2436897e-38 312 270
-0.0085667865 0.69800001 -0.0367148 1.2436897e-38 313 270
-0.0073429602 0.69800001 -0.0367148 1.2620565e-38 314 270
-0.006119133 0.69800001 -0.0367148 1.2528371e-38 315 270
-0.0049093333 0.69999999 -0.036819998 1.2251788e-38 316 270
-0.0036819996 0.69999999 -0.036819998 1.2251788e-38 317 270
-0.0024546667 0.69999999 -0.036819998 1.2252147e-38 318 270
-0.0012290865 0.70099998 -0.036872596 1.2159952e-38 319 270
0 0.70099998 -0.036872596 1.1975923e-38 320 270
0.0012290865 0.70099998 -0.036872596 1.1883728e-38 321 270
0.0024651866 0.70300001 -0.036977798 1.179118e-38 322 270
0.0037030398 0.704 -0.037030395 1.179118e-38 323 270
0.0049514128 0.70599997 -0.037135597 1.179118e-38 324 270
0.0061980332 0.70700002 -0.037188202 1.1698984e-38 325 270
0.0074481601 0.708 -0.0372408 1.1790827e-38 326 270
0.0087140659 0.70999998 -0.037345998 1.1790827e-38 327 270
0.0099729598 0.71100003 -0.037398599 1.1607883e-38 328 270
0.01121958 0.71100003 -0.037398599 1.1607883e-38 329 270
0.012501267 0.713 -0.037503798 1.1699374e-38 330 270
0.013751393 0.713 -0.037503798 1.216035e-38 331 270
-0.046514176 0.71700001 -0.038971342 1.382317e-38 283 271
-0.045257039 0.71700001 -0.038971342 1.4460942e-38 284 271
-0.043938532 0.71600002 -0.038916986 1.4000323e-38 285 271
-0.042563915 0.71399999 -0.038808275 1.4732827e-38 286 271
-0.041254178 0.713 -0.038753927 1.4364045e-38 287 271
-0.039891839 0.71100003 -0.038645219 1.4179648e-38 288 271
-0.038590867 0.70999998 -0.038590867 1.3995255e-38 289 271
-0.037345998 0.70999998 -0.038590867 1.390306e-38 290 271
-0.03599944 0.708 -0.038482159 1.3534279e-38 291 271
-0.034758076 0.708 -0.038482159 1.3717578e-38 292 271
-0.033516716 0.708 -0.038482159 1.3625381e-38 293 271
-0.032229774 0.70700002 -0.038427804 1.3810142e-38 294 271
-0.030946331 0.70599997 -0.038373452 1.3902338e-38 295 271
-0.029624319 0.704 -0.038264744 1.3165872e-38 296 271
-0.028389972 0.704 -0.038264744 1.3073675e-38 297 271
-0.027117053 0.70300001 -0.038210396 1.2707768e-38 298 271
-0.025810819 0.70099998 -0.038101684 1.2615571e-38 299 271
-0.024581732 0.70099998 -0.038101684 1.2798867e-38 300 271
-0.023352645 0.70099998 -0.038101684 1.2706672e-38 301 271
-0.022091998 0.69999999 -0.038047329 1.2799937e-38 302 271
-0.020864666 0.69999999 -0.038047329 1.2892132e-38 303 271
-0.019665385 0.70099998 -0.038101684 1.289356e-38 304 271
-0.018409999 0.69999999 -0.038047329 1.307795e-38 305 271
-0.017182667 0.69999999 -0.038047329 1.3079025e-38 306 271
-0.015955333 0.69999999 -0.038047329 1.3079025e-38 307 271
-0.01468592 0.69800001 -0.037938625 1.2804595e-38 308 271
-0.013462093 0.69800001 -0.037938625 1.2712042e-38 309 271
-0.012273333 0.69999999 -0.038047329 1.2620565e-38 310 271
-0.011045999 0.69999999 -0.038047329 1.2620565e-38 311 271
-0.0098186666 0.69999999 -0.038047329 1.2529448e-38 312 271
-0.0085913334 0.69999999 -0.038047329 1.2529448e-38 313 271
-0.0073639993 0.69999999 -0.038047329 1.2620209e-38 314 271
-0.0061366665 0.69999999 -0.038047329 1.2528013e-38 315 271
-0.0049093333 0.69999999 -0.038047329 1.2527653e-38 316 271
-0.0036872597 0.70099998 -0.038101684 1.2435459e-38 317 271
-0.0024581731 0.70099998 -0.038101684 1.2252147e-38 318 271
-0.0012290865 0.70099998 -0.038101684 1.2159952e-38 319 271
0 0.70300001 -0.038210396 1.2159235e-38 320 271
0.0012325933 0.70300001 -0.038210396 1.2067041e-38 321 271
0.0024686933 0.704 -0.038264744 1.179118e-38 322 271
0.0037135598 0.70599997 -0.038373452 1.179118e-38 323 271
0.0049584266 0.70700002 -0.038427804 1.1698628e-38 324 271
0.0062067998 0.708 -0.038482159 1.1790824e-38 325 271
0.0074691991 0.70999998 -0.038590867 1.1790829e-38 326 271
0.0087140659 0.70999998 -0.038590867 1.1790829e-38 327 271
0.010001013 0.713 -0.038753927 1.160753e-38 328 271
0.011251139 0.713 -0.038753927 1.1699725e-38 329 271
0.012518799 0.71399999 -0.038808275 1.1976329e-38 330 271
0.01377068 0.71399999 -0.038808275 1.2898285e-38 331 271
-0.045257039 0.71700001 -0.040228479 1.4555305e-38 284 272
-0.043999899 0.71700001 -0.040228479 1.3357121e-38 285 272
-0.042563915 0.71399999 -0.040060159 1.4548079e-38 286 272
-0.041254178 0.713 -0.040004052 1.4364048e-38 287 272
-0.039891839 0.71100003 -0.039891839 1.4086382e-38 288 272
-0.038645219 0.71100003 -0.039891839 1.3994186e-38 289 272
-0.037345998 0.70999998 -0.039835732 1.3993104e-38 290 272
-0.036101133 0.70999998 -0.039835732 1.3809073e-38 291 272
-0.034856264 0.70999998 -0.039835732 1.3809424e-38 292 272
-0.033516716 0.708 -0.039723519 1.3717228e-38 293 272
-0.03227536 0.708 -0.039723519 1.3625751e-38 294 272
-0.030990168 0.70700002 -0.039667413 1.3625751e-38 295 272
-0.029750559 0.70700002 -0.039667413 1.3258774e-38 296 272
-0.028470624 0.70599997 -0.039611302 1.3258774e-38 297 272
-0.027155625 0.704 -0.039499093 1.2983982e-38 298 272
-0.025884461 0.70300001 -0.039442986 1.2891785e-38 299 272
-0.024651866 0.70300001 -0.039442986 1.2984332e-38 300 272
-0.023419274 0.70300001 -0.039442986 1.2984332e-38 301 272
-0.022123558 0.70099998 -0.039330769 1.2985401e-38 302 272
-0.020894472 0.70099998 -0.039330769 1.2985401e-38 303 272
-0.019665385 0.70099998 -0.039330769 1.2894638e-38 304 272
-0.018436298 0.70099998 -0.039330769 1.3170865e-38 305 272
-0.017207211 0.70099998 -0.039330769 1.2988624e-38 306 272
-0.015955333 0.69999999 -0.039274666 1.2988624e-38 307 272
-0.014727999 0.69999999 -0.039274666 1.2805312e-38 308 272
-0.013500666 0.69999999 -0.039274666 1.2712759e-38 309 272
-0.012273333 0.69999999 -0.039274666 1.2621641e-38 310 272
-0.011045999 0.69999999 -0.039274666 1.2621641e-38 311 272
-0.0098186666 0.69999999 -0.039274666 1.2529811e-38 312 272
-0.0085913334 0.69999999 -0.039274666 1.2529811e-38 313 272
-0.0073639993 0.69999999 -0.039274666 1.2529098e-38 314 272
-0.0061366665 0.69999999 -0.039274666 1.2344348e-38 315 272
-0.0049163462 0.70099998 -0.039330769 1.2527297e-38 316 272
-0.0036977797 0.70300001 -0.039442986 1.24351e-38 317 272
-0.0024651866 0.70300001 -0.039442986 1.2251788e-38 318 272
-0.0012325933 0.70300001 -0.039442986 1.2159594e-38 319 272
0 0.70300001 -0.039442986 1.2066685e-38 320 272
0.0012343467 0.704 -0.039499093 1.1974489e-38 321 272
0.0024757064 0.70599997 -0.039611302 1.1790827e-38 322 272
0.0037188199 0.70700002 -0.039667413 1.1790827e-38 323 272
0.0049654399 0.708 -0.039723519 1.1790827e-38 324 272
0.0062243328 0.70999998 -0.039835732 1.1790827e-38 325 272
0.0074797203 0.71100003 -0.039891839 1.1698994e-38 326 272
0.0087263398 0.71100003 -0.039891839 1.1698994e-38 327 272
0.010001013 0.713 -0.040004052 1.1516053e-38 328 272
0.011266919 0.71399999 -0.040060159 1.1516053e-38 329 272
0.012553867 0.71600002 -0.040172372 1.2161446e-38 330 272
0.013809253 0.71600002 -0.040172372 1.3267792e-38 331 272
-0.045193922 0.71600002 -0.041427758 1.4741867e-38 284 273
-0.043938532 0.71600002 -0.041427758 1.3358933e-38 285 273
-0.042683143 0.71600002 -0.041427758 1.4825386e-38 286 273
-0.041312039 0.71399999 -0.041312039 1.4180017e-38 287 273
-0.040004052 0.713 -0.041254178 1.427005e-38 288 273
-0.038645219 0.71100003 -0.041138459 1.40853e-38 289 273
-0.037398599 0.71100003 -0.041138459 1.3992741e-38 290 273
-0.036101133 0.70999998 -0.041080594 1.3900187e-38 291 273
-0.034856264 0.70999998 -0.041080594 1.3717231e-38 292 273
-0.033516716 0.708 -0.040964879 1.3717231e-38 293 273
-0.03227536 0.708 -0.040964879 1.3717228e-38 294 273
-0.030990168 0.70700002 -0.040907022 1.3717228e-38 295 273
-0.029750559 0.70700002 -0.040907022 1.3534632e-38 296 273
-0.028470624 0.70599997 -0.040849157 1.3534632e-38 297 273
-0.027155625 0.704 -0.040733438 1.326019e-38 298 273
-0.02592128 0.704 -0.040733438 1.344494e-38 299 273
-0.024651866 0.70300001 -0.040675577 1.326162e-38 300 273
-0.023419274 0.70300001 -0.040675577 1.3353814e-38 301 273
-0.02218668 0.70300001 -0.040675577 1.3354173e-38 302 273
-0.020954086 0.70300001 -0.040675577 1.3354173e-38 303 273
-0.019721493 0.70300001 -0.040675577 1.3171578e-38 304 273
-0.018436298 0.70099998 -0.040559858 1.3263772e-38 305 273
-0.017207211 0.70099998 -0.040559858 1.3081177e-38 306 273
-0.015978126 0.70099998 -0.040559858 1.3081177e-38 307 273
-0.014727999 0.69999999 -0.040502001 1.3081177e-38 308 273
-0.013500666 0.69999999 -0.040502001 1.2988983e-38 309 273
-0.012273333 0.69999999 -0.040502001 1.2897865e-38 310 273
-0.011045999 0.69999999 -0.040502001 1.2805671e-38 311 273
-0.0098326923 0.70099998 -0.040559858 1.2897506e-38 312 273
-0.0086036054 0.70099998 -0.040559858 1.2713118e-38 313 273
-0.0073745195 0.70099998 -0.040559858 1.2712759e-38 314 273
-0.0061454331 0.70099998 -0.040559858 1.2528371e-38 315 273
-0.0049303733 0.70300001 -0.040675577 1.2343982e-38 316 273
-0.0036977797 0.70300001 -0.040675577 1.2159594e-38 317 273
-0.0024651866 0.70300001 -0.040675577 1.2342549e-38 318 273
-0.0012343467 0.704 -0.040733438 1.2342549e-38 319 273
0 0.704 -0.040733438 1.1883375e-38 320 273
0.0012343467 0.704 -0.040733438 1.179118e-38 321 273
0.0024757064 0.70599997 -0.040849157 1.1974139e-38 322 273
0.0037188199 0.70700002 -0.040907022 1.1974139e-38 323 273
0.0049794666 0.70999998 -0.041080594 1.1790827e-38 324 273
0.0062330998 0.71100003 -0.041138459 1.1790827e-38 325 273
0.0075007593 0.713 -0.041254178 1.1791192e-38 326 273
0.0087508867 0.713 -0.041254178 1.1791192e-38 327 273
0.01001504 0.71399999 -0.041312039 1.1607544e-38 328 273
0.011266919 0.71399999 -0.041312039 1.1699739e-38 329 273
0.012553867 0.71600002 -0.041427758 1.225366e-38 330 273
0.013809253 0.71600002 -0.041427758 1.3636594e-38 331 273
-0.043815799 0.71399999 -0.042563915 1.3913204e-38 285 274
-0.042563915 0.71399999 -0.042563915 1.4276184e-38 286 274
-0.041312039 0.71399999 -0.042563915 1.3538618e-38 287 274
-0.040060159 0.71399999 -0.042563915 1.436261e-38 288 274
-0.038753927 0.713 -0.042504307 1.3901991e-38 289 274
-0.037503798 0.713 -0.042504307 1.3993104e-38 290 274
-0.036151983 0.71100003 -0.042385083 1.3809073e-38 291 274
-0.034856264 0.70999998 -0.042325463 1.3809426e-38 292 274
-0.033611398 0.70999998 -0.042325463 1.3717231e-38 293 274
-0.03227536 0.708 -0.042206239 1.3717231e-38 294 274
-0.031034 0.708 -0.042206239 1.3809426e-38 295 274
-0.029750559 0.70700002 -0.042146627 1.3627549e-38 296 274
-0.028470624 0.70599997 -0.042087011 1.381194e-38 297 274
-0.027232772 0.70599997 -0.042087011 1.3354189e-38 298 274
-0.02592128 0.704 -0.041967787 1.3538222e-38 299 274
-0.024686933 0.704 -0.041967787 1.3356332e-38 300 274
-0.023452586 0.704 -0.041967787 1.3356332e-38 301 274
-0.02218668 0.70300001 -0.041908171 1.344816e-38 302 274
-0.020954086 0.70300001 -0.041908171 1.344816e-38 303 274
-0.019749546 0.704 -0.041967787 1.3081177e-38 304 274
-0.018488899 0.70300001 -0.041908171 1.3173371e-38 305 274
-0.017256306 0.70300001 -0.041908171 1.3173371e-38 306 274
-0.016023712 0.70300001 -0.041908171 1.3173371e-38 307 274
-0.014749039 0.70099998 -0.041788943 1.3174448e-38 308 274
-0.013519952 0.70099998 -0.041788943 1.2990059e-38 309 274
-0.012290866 0.70099998 -0.041788943 1.2897865e-38 310 274
-0.011061779 0.70099998 -0.041788943 1.2990059e-38 311 274
-0.0098607466 0.70300001 -0.041908171 1.2805312e-38 312 274
-0.0086036054 0.70099998 -0.041788943 1.2805312e-38 313 274
-0.0073745195 0.70099998 -0.041788943 1.2620565e-38 314 274
-0.0061629666 0.70300001 -0.041908171 1.2344341e-38 315 274
-0.0049303733 0.70300001 -0.041908171 1.24351e-38 316 274
-0.0037030398 0.704 -0.041967787 1.2342906e-38 317 274
-0.0024686933 0.704 -0.041967787 1.2159236e-38 318 274
-0.0012343467 0.704 -0.041967787 1.2159236e-38 319 274
0 0.704 -0.041967787 1.1883373e-38 320 274
0.0012378532 0.70599997 -0.042087011 1.1791177e-38 321 274
0.0024792133 0.70700002 -0.042146627 1.188194e-38 322 274
0.0037345996 0.70999998 -0.042325463 1.188194e-38 323 274
0.0049864799 0.71100003 -0.042385083 1.169935e-38 324 274
0.0062330998 0.71100003 -0.042385083 1.169935e-38 325 274
0.0075007593 0.713 -0.042504307 1.1515684e-38 326 274
0.0087631596 0.71399999 -0.042563915 1.1515684e-38 327 274
0.01001504 0.71399999 -0.042563915 1.1607897e-38 328 274
0.011266919 0.71399999 -0.042563915 1.1700092e-38 329 274
0.013237666 0.755 -0.045008067 1.253097e-38 330 274
-0.042742759 0.71700001 -0.043999899 1.446311e-38 286 275
-0.041485619 0.71700001 -0.043999899 1.3357121e-38 287 275
-0.040228479 0.71700001 -0.043999899 1.4548432e-38 288 275
-0.038808275 0.71399999 -0.043815799 1.4087455e-38 289 275
-0.037556399 0.71399999 -0.043815799 1.3994887e-38 290 275
-0.036253672 0.713 -0.043754432 1.3810496e-38 291 275
-0.034905359 0.71100003 -0.043631699 1.3810496e-38 292 275
-0.033658739 0.71100003 -0.043631699 1.3810496e-38 293 275
-0.032366529 0.70999998 -0.043570329 1.3811212e-38 294 275
-0.031034 0.708 -0.043447599 1.3903766e-38 295 275
-0.02979264 0.708 -0.043447599 1.363005e-38 296 275
-0.028510952 0.70700002 -0.043386232 1.3722247e-38 297 275
-0.027232772 0.70599997 -0.043324865 1.3631121e-38 298 275
-0.02592128 0.704 -0.043202132 1.3815871e-38 299 275
-0.024686933 0.704 -0.043202132 1.3541072e-38 300 275
-0.023452586 0.704 -0.043202132 1.3817296e-38 301 275
-0.022218239 0.704 -0.043202132 1.3542148e-38 302 275
-0.020983893 0.704 -0.043202132 1.3542148e-38 303 275
-0.019749546 0.704 -0.043202132 1.3266283e-38 304 275
-0.018515198 0.704 -0.043202132 1.3266283e-38 305 275
-0.017280852 0.704 -0.043202132 1.3266283e-38 306 275
-0.016046507 0.704 -0.043202132 1.3266283e-38 307 275
-0.014791119 0.70300001 -0.043140765 1.3174089e-38 308 275
-0.013558527 0.70300001 -0.043140765 1.3174089e-38 309 275
-0.012325933 0.70300001 -0.043140765 1.3081536e-38 310 275
-0.01109334 0.70300001 -0.043140765 1.3081536e-38 311 275
-0.0098607466 0.70300001 -0.043140765 1.2805312e-38 312 275
-0.0086281532 0.70300001 -0.043140765 1.2713118e-38 313 275
-0.0073955595 0.70300001 -0.043140765 1.2712042e-38 314 275
-0.0061717331 0.704 -0.043202132 1.2527653e-38 315 275
-0.0049373866 0.704 -0.043202132 1.2527294e-38 316 275
-0.0037030398 0.704 -0.043202132 1.24351e-38 317 275
-0.0024757064 0.70599997 -0.043324865 1.1975923e-38 318 275
-0.0012378532 0.70599997 -0.043324865 1.1975923e-38 319 275
0 0.70599997 -0.043324865 1.1974492e-38 320 275
0.0012396066 0.70700002 -0.043386232 1.1974492e-38 321 275
0.00248272 0.708 -0.043447599 1.1881943e-38 322 275
0.0037345996 0.70999998 -0.043570329 1.1881943e-38 323 275
0.0049864799 0.71100003 -0.043631699 1.1698994e-38 324 275
0.0062506334 0.713 -0.043754432 1.1698994e-38 325 275
0.0075112795 0.71399999 -0.043815799 1.1607527e-38 326 275
0.0087631596 0.71399999 -0.043815799 1.1699723e-38 327 275
0.01001504 0.71399999 -0.043815799 1.1516074e-38 328 275
0.011913899 0.755 -0.04633183 1.1884855e-38 329 275
-0.041774917 0.722 -0.045572639 1.345185e-38 287 276
-0.040509012 0.722 -0.045572639 1.4183967e-38 288 276
-0.039134402 0.72000003 -0.045446403 1.3907379e-38 289 276
-0.037661601 0.71600002 -0.045193922 1.3998833e-38 290 276
-0.036304519 0.71399999 -0.045067675 1.3722247e-38 291 276
-0.035003547 0.713 -0.045004558 1.3905193e-38 292 276
-0.033753417 0.713 -0.045004558 1.3812997e-38 293 276
-0.032366529 0.70999998 -0.044815198 1.3813713e-38 294 276
-0.031034 0.708 -0.044688959 1.409066e-38 295 276
-0.02979264 0.708 -0.044688959 1.3908064e-38 296 276
-0.028510952 0.70700002 -0.044625837 1.3908064e-38 297 276
-0.027232772 0.70599997 -0.044562716 1.3725821e-38 298 276
-0.025994917 0.70599997 -0.044562716 1.3725821e-38 299 276
-0.024686933 0.704 -0.044436477 1.3726537e-38 300 276
-0.023452586 0.704 -0.044436477 1.3726537e-38 301 276
-0.022218239 0.704 -0.044436477 1.3634343e-38 302 276
-0.020983893 0.704 -0.044436477 1.3634343e-38 303 276
-0.019805651 0.70599997 -0.044562716 1.3359195e-38 304 276
-0.018567799 0.70599997 -0.044562716 1.3267001e-38 305 276
-0.017329946 0.70599997 -0.044562716 1.3359195e-38 306 276
-0.016092092 0.70599997 -0.044562716 1.3267001e-38 307 276
-0.014812159 0.704 -0.044436477 1.3358477e-38 308 276
-0.013577812 0.704 -0.044436477 1.3266283e-38 309 276
-0.012343466 0.704 -0.044436477 1.2990059e-38 310 276
-0.011109119 0.704 -0.044436477 1.2897865e-38 311 276
-0.0098747732 0.704 -0.044436477 1.2805312e-38 312 276
-0.0086404262 0.704 -0.044436477 1.2713118e-38 313 276
-0.0074060797 0.704 -0.044436477 1.2620565e-38 314 276
-0.0061717331 0.704 -0.044436477 1.2528371e-38 315 276
-0.0049373866 0.704 -0.044436477 1.2344348e-38 316 276
-0.0037135598 0.70599997 -0.044562716 1.2159957e-38 317 276
-0.0024757064 0.70599997 -0.044562716 1.1975568e-38 318 276
-0.0012378532 0.70599997 -0.044562716 1.1883373e-38 319 276
0 0.70599997 -0.044562716 1.1790824e-38 320 276
0.00124136 0.708 -0.044688959 1.1790824e-38 321 276
0.00248272 0.708 -0.044688959 1.1790827e-38 322 276
0.0037398601 0.71100003 -0.044878319 1.1790827e-38 323 276
0.0050005065 0.713 -0.045004558 1.1698997e-38 324 276
0.0062593995 0.71399999 -0.045067675 1.1698997e-38 325 276
0.0075112795 0.71399999 -0.045067675 1.1514978e-38 326 276
0.0087631596 0.71399999 -0.045067675 1.1607174e-38 327 276
0.01001504 0.71399999 -0.045067675 1.1425329e-38 328 276
-0.041948501 0.72500002 -0.047033165 1.3638775e-38 287 277
-0.040677335 0.72500002 -0.047033165 1.4095384e-38 288 277
-0.039297458 0.72299999 -0.046903417 1.37266e-38 289 277
-0.0379772 0.722 -0.046838548 1.4001351e-38 290 277
-0.036406212 0.71600002 -0.046449307 1.3817319e-38 291 277
-0.035052639 0.71399999 -0.046319555 1.3908783e-38 292 277
-0.033800758 0.71399999 -0.046319555 1.3816587e-38 293 277
-0.032503292 0.713 -0.046254687 1.3909133e-38 294 277
-0.031121666 0.70999998 -0.046060063 1.4001329e-38 295 277
-0.02979264 0.708 -0.045930319 1.4002405e-38 296 277
-0.02855128 0.708 -0.045930319 1.4002405e-38 297 277
-0.027271347 0.70700002 -0.045865446 1.381909e-38 298 277
-0.02603174 0.70700002 -0.045865446 1.381909e-38 299 277
-0.024757065 0.70599997 -0.04580057 1.381909e-38 300 277
-0.023519212 0.70599997 -0.04580057 1.381909e-38 301 277
-0.022281358 0.70599997 -0.04580057 1.3727254e-38 302 277
-0.021043506 0.70599997 -0.04580057 1.3727254e-38 303 277
-0.019833706 0.70700002 -0.045865446 1.3635419e-38 304 277
-0.018594101 0.70700002 -0.045865446 1.3635419e-38 305 277
-0.017329946 0.70599997 -0.04580057 1.3176241e-38 306 277
-0.016092092 0.70599997 -0.04580057 1.3084047e-38 307 277
-0.014854239 0.70599997 -0.04580057 1.3267001e-38 308 277
-0.013616386 0.70599997 -0.04580057 1.3174448e-38 309 277
-0.012378532 0.70599997 -0.04580057 1.2990059e-38 310 277
-0.011140679 0.70599997 -0.04580057 1.2897865e-38 311 277
-0.0099028256 0.70599997 -0.04580057 1.2804595e-38 312 277
-0.0086649731 0.70599997 -0.04580057 1.2804595e-38 313 277
-0.0074271196 0.70599997 -0.04580057 1.2620209e-38 314 277
-0.0061892662 0.70599997 -0.04580057 1.2528013e-38 315 277
-0.0049514128 0.70599997 -0.04580057 1.2252155e-38 316 277
-0.0037135598 0.70599997 -0.04580057 1.2159959e-38 317 277
-0.0024792133 0.70700002 -0.045865446 1.1975574e-38 318 277
-0.0012396066 0.70700002 -0.045865446 1.1883019e-38 319 277
0 0.70700002 -0.045865446 1.1791545e-38 320 277
0.0012448666 0.70999998 -0.046060063 1.169935e-38 321 277
0.0024932399 0.71100003 -0.046124939 1.169935e-38 322 277
0.0037556398 0.71399999 -0.046319555 1.169935e-38 323 277
0.0050075199 0.71399999 -0.046319555 1.1698999e-38 324 277
0.0062593995 0.71399999 -0.046319555 1.1698999e-38 325 277
0.0075112795 0.71399999 -0.046319555 1.1515344e-38 326 277
0.0087631596 0.71399999 -0.046319555 1.1515344e-38 327 277
-0.040789545 0.727 -0.048437584 1.4006801e-38 288 278
-0.039406165 0.72500002 -0.048304334 1.3269236e-38 289 278
-0.038135 0.72500002 -0.048304334 1.3912029e-38 290 278
-0.036457058 0.71700001 -0.04777132 1.3819834e-38 291 278
-0.035150826 0.71600002 -0.047704693 1.4003484e-38 292 278
-0.03389544 0.71600002 -0.047704693 1.3911288e-38 293 278
-0.032548878 0.71399999 -0.047571439 1.4003837e-38 294 278
-0.031165501 0.71100003 -0.047371563 1.4003837e-38 295 278
-0.029876797 0.70999998 -0.047304932 1.4003837e-38 296 278
-0.02855128 0.708 -0.047171678 1.4003837e-38 297 278
-0.027309919 0.708 -0.047171678 1.3911285e-38 298 278
-0.026068559 0.708 -0.047171678 1.381909e-38 299 278
-0.024827199 0.708 -0.047171678 1.381909e-38 300 278
-0.023585839 0.708 -0.047171678 1.381909e-38 301 278
-0.022312919 0.70700002 -0.047105055 1.3819807e-38 302 278
-0.021073313 0.70700002 -0.047105055 1.3727254e-38 303 278
-0.01986176 0.708 -0.047171678 1.345103e-38 304 278
-0.0186204 0.708 -0.047171678 1.363506e-38 305 278
-0.017354494 0.70700002 -0.047105055 1.3359195e-38 306 278
-0.016114887 0.70700002 -0.047105055 1.3267001e-38 307 278
-0.01487528 0.70700002 -0.047105055 1.3267001e-38 308 278
-0.013635674 0.70700002 -0.047105055 1.3174448e-38 309 278
-0.012396066 0.70700002 -0.047105055 1.317373e-38 310 278
-0.011156459 0.70700002 -0.047105055 1.2989342e-38 311 278
-0.0099028256 0.70599997 -0.047038425 1.2804595e-38 312 278
-0.0086649731 0.70599997 -0.047038425 1.27124e-38 313 278
-0.0074376399 0.70700002 -0.047105055 1.2712407e-38 314 278
-0.0061980332 0.70700002 -0.047105055 1.2343985e-38 315 278
-0.0049584266 0.70700002 -0.047105055 1.2251433e-38 316 278
-0.0037188199 0.70700002 -0.047105055 1.2251433e-38 317 278
-0.00248272 0.708 -0.047171678 1.1884094e-38 318 278
-0.00124136 0.708 -0.047171678 1.1791899e-38 319 278
0 0.70999998 -0.047304932 1.1791543e-38 320 278
0.0012501266 0.713 -0.047504812 1.1791543e-38 321 278
0.0025037599 0.71399999 -0.047571439 1.1515319e-38 322 278
0.0037556398 0.71399999 -0.047571439 1.1791545e-38 323 278
0.0050215465 0.71600002 -0.047704693 1.1332016e-38 324 278
0.0062769335 0.71600002 -0.047704693 1.1516047e-38 325 278
0.00753232 0.71600002 -0.047704693 1.1332034e-38 326 278
0.0087877065 0.71600002 -0.047704693 1.1516427e-38 327 278
-0.038292799 0.72799999 -0.049780637 1.382202e-38 290 279
-0.036965527 0.727 -0.049712259 1.3545434e-38 291 279
-0.035592668 0.72500002 -0.0495755 1.4096414e-38 292 279
-0.03389544 0.71600002 -0.048960082 1.3912383e-38 293 279
-0.032640055 0.71600002 -0.048960082 1.3913086e-38 294 279
-0.031253166 0.713 -0.048754938 1.382089e-38 295 279
-0.030003037 0.713 -0.048754938 1.382089e-38 296 279
-0.028672259 0.71100003 -0.048618179 1.3728695e-38 297 279
-0.027425639 0.71100003 -0.048618179 1.3911651e-38 298 279
-0.026142199 0.70999998 -0.048549797 1.3911651e-38 299 279
-0.024897331 0.70999998 -0.048549797 1.363614e-38 300 279
-0.023652466 0.70999998 -0.048549797 1.363614e-38 301 279
-0.022344479 0.708 -0.048413038 1.3636136e-38 302 279
-0.021103119 0.708 -0.048413038 1.3636136e-38 303 279
-0.019917866 0.70999998 -0.048549797 1.3451389e-38 304 279
-0.018672999 0.70999998 -0.048549797 1.3359195e-38 305 279
-0.017428132 0.70999998 -0.048549797 1.3358836e-38 306 279
-0.016183265 0.70999998 -0.048549797 1.3358836e-38 307 279
-0.01489632 0.708 -0.048413038 1.3175524e-38 308 279
-0.013654959 0.708 -0.048413038 1.308333e-38 309 279
-0.0124136 0.708 -0.048413038 1.3174089e-38 310 279
-0.01117224 0.708 -0.048413038 1.2897865e-38 311 279
-0.0099168532 0.70700002 -0.048344657 1.2713118e-38 312 279
-0.008677247 0.70700002 -0.048344657 1.2713118e-38 313 279
-0.0074481601 0.708 -0.048413038 1.2528371e-38 314 279
-0.0062067998 0.708 -0.048413038 1.2528371e-38 315 279
-0.0049654399 0.708 -0.048413038 1.2252508e-38 316 279
-0.00372408 0.708 -0.048413038 1.2159952e-38 317 279
-0.0024897333 0.70999998 -0.048549797 1.1976288e-38 318 279
-0.00124662 0.71100003 -0.048618179 1.1884091e-38 319 279
0 0.71399999 -0.048823316 1.1608228e-38 320 279
0.00125188 0.71399999 -0.048823316 1.1516032e-38 321 279
0.0025107733 0.71600002 -0.048960082 1.1516038e-38 322 279
0.00376616 0.71600002 -0.048960082 1.1608233e-38 323 279
0.0050285598 0.71700001 -0.04902846 1.1332016e-38 324 279
0.0062857 0.71700001 -0.04902846 1.1332016e-38 325 279
0.0075428397 0.71700001 -0.04902846 1.1424234e-38 326 279
-0.038292799 0.72799999 -0.051057063 1.3547601e-38 290 280
-0.037016369 0.72799999 -0.051057063 1.336321e-38 291 280
-0.035592668 0.72500002 -0.050846666 1.3730156e-38 292 280
-0.03422682 0.72299999 -0.050706398 1.3637959e-38 293 280
-0.032913569 0.722 -0.050636265 1.3821253e-38 294 280
-0.03156 0.72000003 -0.050496001 1.3821253e-38 295 280
-0.03012928 0.71600002 -0.050215468 1.4004203e-38 296 280
-0.028793238 0.71399999 -0.050075196 1.3912007e-38 297 280
-0.02754136 0.71399999 -0.050075196 1.3912007e-38 298 280
-0.026179021 0.71100003 -0.049864799 1.3819811e-38 299 280
-0.024932399 0.71100003 -0.049864799 1.3819807e-38 300 280
-0.023685781 0.71100003 -0.049864799 1.3635778e-38 301 280
-0.022407599 0.70999998 -0.049794663 1.3636136e-38 302 280
-0.021162732 0.70999998 -0.049794663 1.3636136e-38 303 280
-0.01994592 0.71100003 -0.049864799 1.3268077e-38 304 280
-0.0186993 0.71100003 -0.049864799 1.3268077e-38 305 280
-0.017428132 0.70999998 -0.049794663 1.3268077e-38 306 280
-0.016183265 0.70999998 -0.049794663 1.3175883e-38 307 280
-0.014938398 0.70999998 -0.049794663 1.3175883e-38 308 280
-0.013693533 0.70999998 -0.049794663 1.308333e-38 309 280
-0.0124136 0.708 -0.049654398 1.317373e-38 310 280
-0.01117224 0.708 -0.049654398 1.3081177e-38 311 280
-0.0099308798 0.708 -0.049654398 1.2805671e-38 312 280
-0.008689519 0.708 -0.049654398 1.2713476e-38 313 280
-0.0074691991 0.70999998 -0.049794663 1.2620924e-38 314 280
-0.0062243328 0.70999998 -0.049794663 1.2528729e-38 315 280
-0.0049794666 0.70999998 -0.049794663 1.2252505e-38 316 280
-0.0037345996 0.70999998 -0.049794663 1.2160311e-38 317 280
-0.0024932399 0.71100003 -0.049864799 1.1884091e-38 318 280
-0.00125188 0.71399999 -0.050075196 1.1791896e-38 319 280
0 0.71600002 -0.050215468 1.1516032e-38 320 280
0.0012553866 0.71600002 -0.050215468 1.1516032e-38 321 280
0.0025142799 0.71700001 -0.0502856 1.15164e-38 322 280
0.0037714199 0.71700001 -0.0502856 1.15164e-38 323 280
0.0050285598 0.71700001 -0.0502856 1.123912e-38 324 280
0.0062857 0.71700001 -0.0502856 1.1331316e-38 325 280
-0.036965527 0.727 -0.052261602 1.2904067e-38 291 281
-0.035690852 0.727 -0.052261602 1.3455037e-38 292 281
-0.03422682 0.72299999 -0.051974058 1.317845e-38 293 281
-0.032959159 0.72299999 -0.051974058 1.3913469e-38 294 281
-0.031647664 0.722 -0.051902171 1.363724e-38 295 281
-0.0302976 0.72000003 -0.051758397 1.3728707e-38 296 281
-0.028914221 0.71700001 -0.051542737 1.3544676e-38 297 281
-0.027618507 0.71600002 -0.051470853 1.3727986e-38 298 281
-0.026289478 0.71399999 -0.05132708 1.3727986e-38 299 281
-0.025002534 0.713 -0.051255193 1.363614e-38 300 281
-0.023752406 0.713 -0.051255193 1.363614e-38 301 281
-0.022439159 0.71100003 -0.051111419 1.3544301e-38 302 281
-0.021192541 0.71100003 -0.051111419 1.3544301e-38 303 281
-0.020002026 0.713 -0.051255193 1.3452107e-38 304 281
-0.0186993 0.71100003 -0.051111419 1.3268077e-38 305 281
-0.01745268 0.71100003 -0.051111419 1.3358836e-38 306 281
-0.01620606 0.71100003 -0.051111419 1.3358836e-38 307 281
-0.014959441 0.71100003 -0.051111419 1.3358836e-38 308 281
-0.013693533 0.70999998 -0.051039528 1.3266283e-38 309 281
-0.012448666 0.70999998 -0.051039528 1.3174089e-38 310 281
-0.011203799 0.70999998 -0.051039528 1.2990059e-38 311 281
-0.0099589331 0.70999998 -0.051039528 1.2622e-38 312 281
-0.0087140659 0.70999998 -0.051039528 1.2529806e-38 313 281
-0.0074797203 0.71100003 -0.051111419 1.2345058e-38 314 281
-0.0062330998 0.71100003 -0.051111419 1.2252864e-38 315 281
-0.0049864799 0.71100003 -0.051111419 1.2251433e-38 316 281
-0.0037503797 0.713 -0.051255193 1.2067041e-38 317 281
-0.0025037599 0.71399999 -0.05132708 1.1791545e-38 318 281
-0.00125188 0.71399999 -0.05132708 1.169935e-38 319 281
0 0.71600002 -0.051470853 1.1698997e-38 320 281
0.00125714 0.71700001 -0.051542737 1.1698997e-38 321 281
0.0025142799 0.71700001 -0.051542737 1.1331663e-38 322 281
0.0037714199 0.71700001 -0.051542737 1.1239467e-38 323 281
0.0050285598 0.71700001 -0.051542737 1.0871423e-38 324 281
0.0062857 0.71700001 -0.051542737 1.0871423e-38 325 281
-0.03441618 0.727 -0.053536277 1.2627812e-38 293 282
-0.033050332 0.72500002 -0.053388998 1.336211e-38 294 282
-0.031691495 0.72299999 -0.053241719 1.3085881e-38 295 282
-0.030381758 0.722 -0.053168077 1.3361374e-38 296 282
-0.029035201 0.72000003 -0.053020801 1.3269178e-38 297 282
-0.027657079 0.71700001 -0.052799881 1.3544676e-38 298 282
-0.026363119 0.71600002 -0.052726239 1.3452481e-38 299 282
-0.025107734 0.71600002 -0.052726239 1.3636143e-38 300 282
-0.02378572 0.71399999 -0.052578956 1.3636143e-38 301 282
-0.022502279 0.713 -0.052505318 1.3544301e-38 302 282
-0.021252153 0.713 -0.052505318 1.3544301e-38 303 282
-0.020030079 0.71399999 -0.052578956 1.3268077e-38 304 282
-0.018751899 0.713 -0.052505318 1.3175883e-38 305 282
-0.017501773 0.713 -0.052505318 1.3175165e-38 306 282
-0.016251646 0.713 -0.052505318 1.3175165e-38 307 282
-0.014959441 0.71100003 -0.052358042 1.3082972e-38 308 282
-0.01371282 0.71100003 -0.052358042 1.2990777e-38 309 282
-0.0124662 0.71100003 -0.052358042 1.2898582e-38 310 282
-0.011203799 0.70999998 -0.052284397 1.2806388e-38 311 282
-0.0099589331 0.70999998 -0.052284397 1.2713118e-38 312 282
-0.0087140659 0.70999998 -0.052284397 1.2620924e-38 313 282
-0.0074797203 0.71100003 -0.052358042 1.2528013e-38 314 282
-0.0062330998 0.71100003 -0.052358042 1.2251788e-38 315 282
-0.0049864799 0.71100003 -0.052358042 1.1883738e-38 316 282
-0.0037503797 0.713 -0.052505318 1.1699347e-38 317 282
-0.0025037599 0.71399999 -0.052578956 1.1698997e-38 318 282
-0.0012553866 0.71600002 -0.052726239 1.1698997e-38 319 282
0 0.71600002 -0.052726239 1.1239823e-38 320 282
0.0012553866 0.71600002 -0.052726239 1.1239823e-38 321 282
0.0025107733 0.71600002 -0.052726239 1.0871777e-38 322 282
0.0037714199 0.71700001 -0.052799881 1.0779581e-38 323 282
0.0050285598 0.71700001 -0.052799881 1.032007e-38 324 282
-0.034463517 0.72799999 -0.054886345 1.2352693e-38 293 283
-0.033187091 0.72799999 -0.054886345 1.3178815e-38 294 283
-0.031691495 0.72299999 -0.054509375 1.2902587e-38 295 283
-0.030381758 0.722 -0.054433983 1.3085879e-38 296 283
-0.029035201 0.72000003 -0.054283202 1.2993683e-38 297 283
-0.027734226 0.71899998 -0.054207806 1.3176983e-38 298 283
-0.02647358 0.71899998 -0.054207806 1.3176983e-38 299 283
-0.0251428 0.71700001 -0.054057021 1.3361001e-38 300 283
-0.023852346 0.71600002 -0.053981625 1.3361001e-38 301 283
-0.022533838 0.71399999 -0.053830836 1.3360635e-38 302 283
-0.021281958 0.71399999 -0.053830836 1.326808e-38 303 283
-0.020030079 0.71399999 -0.053830836 1.3175165e-38 304 283
-0.018778199 0.71399999 -0.053830836 1.3082971e-38 305 283
-0.017526319 0.71399999 -0.053830836 1.299114e-38 306 283
-0.016274439 0.71399999 -0.053830836 1.299114e-38 307 283
-0.015001519 0.713 -0.053755447 1.2807108e-38 308 283
-0.013751393 0.713 -0.053755447 1.2714913e-38 309 283
-0.012501267 0.713 -0.053755447 1.2622358e-38 310 283
-0.01121958 0.71100003 -0.053604662 1.2622358e-38 311 283
-0.0099729598 0.71100003 -0.053604662 1.2529806e-38 312 283
-0.0087508867 0.713 -0.053755447 1.2437253e-38 313 283
-0.0075007593 0.713 -0.053755447 1.206884e-38 314 283
-0.0062506334 0.713 -0.053755447 1.1976644e-38 315 283
-0.0050005065 0.713 -0.053755447 1.1700429e-38 316 283
-0.0037556398 0.71399999 -0.053830836 1.1516038e-38 317 283
-0.0025107733 0.71600002 -0.053981625 1.1239823e-38 318 283
-0.0012553866 0.71600002 -0.053981625 1.1239823e-38 319 283
0 0.71600002 -0.053981625 1.0779578e-38 320 283
0.0012553866 0.71600002 -0.053981625 1.0779578e-38 321 283
0.0025107733 0.71600002 -0.053981625 1.0410817e-38 322 283
0.00376616 0.71600002 -0.053981625 1.0410817e-38 323 283
-0.033278264 0.73000002 -0.056317069 1.2535639e-38 294 284
-0.031779166 0.72500002 -0.055931333 1.2351248e-38 295 284
-0.030381758 0.722 -0.055699892 1.262637e-38 296 284
-0.029035201 0.72000003 -0.055545598 1.2441979e-38 297 284
-0.027772799 0.72000003 -0.055545598 1.2808941e-38 298 284
-0.02647358 0.71899998 -0.055468451 1.2716746e-38 299 284
-0.025212931 0.71899998 -0.055468451 1.2992234e-38 300 284
-0.02388566 0.71700001 -0.055314157 1.2992234e-38 301 284
-0.022596961 0.71600002 -0.055237014 1.3175534e-38 302 284
