# .PCD v.7 - Point Cloud Data file format
FIELDS x y z rgb imX imY
SIZE 4 4 4 4 4 4
TYPE F F F F F F
COUNT 1 1 1 1 1 1
WIDTH 845
HEIGHT 1
VIEWPOINT 0 0 0 1 0 0 0
POINTS 845
DATA ascii
0.022091998 0.69999999 -0.056457333 4.9809995e-39 338 286
0.023319334 0.69999999 -0.056457333 4.8888052e-39 339 286
0.024546666 0.69999999 -0.056457333 4.9792058e-39 340 286
0.025773998 0.69999999 -0.056457333 4.9792058e-39 341 286
0.027001332 0.69999999 -0.056457333 4.887729e-39 342 286
0.028228667 0.69999999 -0.056457333 4.9799233e-39 343 286
0.029455997 0.69999999 -0.056457333 4.9799233e-39 344 286
0.030683333 0.69999999 -0.056457333 4.887729e-39 345 286
0.031956252 0.70099998 -0.056537982 4.9799233e-39 346 286
0.03318534 0.70099998 -0.056537982 4.9799233e-39 347 286
0.034414422 0.70099998 -0.056537982 4.9799233e-39 348 286
0.035745207 0.70300001 -0.056699295 4.887729e-39 349 286
0.036977798 0.70300001 -0.056699295 5.1618006e-39 350 286
0.038264744 0.704 -0.056779943 5.2543536e-39 351 286
0.039499093 0.704 -0.056779943 5.2543536e-39 352 286
0.040733438 0.704 -0.056779943 5.3465478e-39 353 286
0.042087011 0.70599997 -0.056941248 5.2543536e-39 354 286
0.043324865 0.70599997 -0.056941248 5.3465478e-39 355 286
0.044562716 0.70599997 -0.056941248 5.3469065e-39 356 286
0.045865446 0.70700002 -0.057021905 5.4391008e-39 357 286
0.047105055 0.70700002 -0.057021905 5.8982782e-39 358 286
0.048549797 0.70999998 -0.057263866 5.9908312e-39 359 286
0.049864799 0.71100003 -0.057344519 6.3578144e-39 360 286
0.051111419 0.71100003 -0.057344519 6.5422029e-39 361 286
0.052358042 0.71100003 -0.057344519 6.8184339e-39 362 286
0.053830836 0.71399999 -0.057586476 6.9106295e-39 363 286
0.055237014 0.71600002 -0.057747785 7.37053e-39 364 286
0.056492399 0.71600002 -0.057747785 7.37053e-39 365 286
0.057747785 0.71600002 -0.057747785 8.6584004e-39 366 286
-0.0138864 0.72000003 -0.059332799 1.0226465e-38 309 287
-0.012606465 0.71899998 -0.059250388 8.3825366e-39 310 287
-0.01131426 0.71700001 -0.059085581 8.290341e-39 311 287
-0.010043093 0.71600002 -0.059003171 7.9229836e-39 312 287
-0.0087631596 0.71399999 -0.058838356 7.3698098e-39 313 287
-0.0075007593 0.713 -0.058755953 6.5450742e-39 314 287
-0.0062330998 0.71100003 -0.058591139 6.4525198e-39 315 287
-0.0049864799 0.71100003 -0.058591139 6.0858953e-39 316 287
-0.0037345996 0.70999998 -0.058508728 6.0858953e-39 317 287
-0.00248272 0.708 -0.058343921 5.8103888e-39 318 287
-0.00124136 0.708 -0.058343921 5.8103888e-39 319 287
0 0.708 -0.058343921 5.6270765e-39 320 287
0.0012396066 0.70700002 -0.05826151 5.6270765e-39 321 287
0.0024757064 0.70599997 -0.058179103 5.8103888e-39 322 287
0.0037135598 0.70599997 -0.058179103 5.8103888e-39 323 287
0.0049373866 0.704 -0.058014292 5.5345236e-39 324 287
0.0061717331 0.704 -0.058014292 5.4419706e-39 325 287
0.0074060797 0.704 -0.058014292 5.4416119e-39 326 287
0.0086281532 0.70300001 -0.057931885 5.4416119e-39 327 287
0.0098607466 0.70300001 -0.057931885 5.6249255e-39 328 287
0.011061779 0.70099998 -0.057767071 5.6249255e-39 329 287
0.012290866 0.70099998 -0.057767071 5.6249283e-39 330 287
0.013519952 0.70099998 -0.057767071 5.6249283e-39 331 287
0.014749039 0.70099998 -0.057767071 5.1657495e-39 332 287
0.015955333 0.69999999 -0.05768466 5.1657495e-39 333 287
0.017182667 0.69999999 -0.05768466 5.0735524e-39 334 287
0.018409999 0.69999999 -0.05768466 5.0735524e-39 335 287
0.019637333 0.69999999 -0.05768466 5.2572234e-39 336 287
0.020864666 0.69999999 -0.05768466 4.9809995e-39 337 287
0.022091998 0.69999999 -0.05768466 5.0721175e-39 338 287
0.023319334 0.69999999 -0.05768466 5.0721175e-39 339 287
0.024546666 0.69999999 -0.05768466 4.980282e-39 340 287
0.025773998 0.69999999 -0.05768466 4.887729e-39 341 287
0.027001332 0.69999999 -0.05768466 4.9799233e-39 342 287
0.028228667 0.69999999 -0.05768466 4.887729e-39 343 287
0.029498078 0.70099998 -0.057767071 4.796611e-39 344 287
0.030727165 0.70099998 -0.057767071 4.7044168e-39 345 287
0.031956252 0.70099998 -0.057767071 4.7044168e-39 346 287
0.03318534 0.70099998 -0.057767071 4.7044168e-39 347 287
0.034512613 0.70300001 -0.057931885 4.8873703e-39 348 287
0.035745207 0.70300001 -0.057931885 4.7033406e-39 349 287
0.036977798 0.70300001 -0.057931885 4.8866528e-39 350 287
0.038264744 0.704 -0.058014292 4.8866528e-39 351 287
0.039499093 0.704 -0.058014292 4.8866528e-39 352 287
0.040733438 0.704 -0.058014292 4.8866528e-39 353 287
0.042087011 0.70599997 -0.058179103 4.9788471e-39 354 287
0.043324865 0.70599997 -0.058179103 4.9788471e-39 355 287
0.044625837 0.70700002 -0.05826151 5.0710413e-39 356 287
0.045865446 0.70700002 -0.05826151 5.0710413e-39 357 287
0.047171678 0.708 -0.058343921 5.5298601e-39 358 287
0.048549797 0.70999998 -0.058508728 5.7142513e-39 359 287
0.049864799 0.71100003 -0.058591139 5.8071658e-39 360 287
0.051111419 0.71100003 -0.058591139 5.9919172e-39 361 287
0.052505318 0.713 -0.058755953 6.542933e-39 362 287
0.053830836 0.71399999 -0.058838356 6.6354873e-39 363 287
0.055237014 0.71600002 -0.059003171 6.9127917e-39 364 287
0.056571297 0.71700001 -0.059085581 7.6507155e-39 365 287
0.057828441 0.71700001 -0.059085581 9.8551443e-39 366 287
-0.013867113 0.71899998 -0.060511041 1.0779285e-38 309 288
-0.012606465 0.71899998 -0.060511041 8.9357132e-39 310 288
-0.01131426 0.71700001 -0.060342718 8.7513205e-39 311 288
-0.010043093 0.71600002 -0.06025856 7.740037e-39 312 288
-0.0087631596 0.71399999 -0.060090236 7.3712545e-39 313 288
-0.0075007593 0.713 -0.060006075 6.544721e-39 314 288
-0.0062330998 0.71100003 -0.059837762 6.544721e-39 315 288
-0.0049864799 0.71100003 -0.059837762 6.1777308e-39 316 288
-0.0037345996 0.70999998 -0.059753593 6.0855366e-39 317 288
-0.0024897333 0.70999998 -0.059753593 5.902583e-39 318 288
-0.00124136 0.708 -0.059585281 5.902583e-39 319 288
0 0.708 -0.059585281 5.8111063e-39 320 288
0.0012396066 0.70700002 -0.059501119 5.8111063e-39 321 288
0.0024757064 0.70599997 -0.059416957 5.6267178e-39 322 288
0.0037135598 0.70599997 -0.059416957 5.5345236e-39 323 288
0.0049373866 0.704 -0.059248637 5.7178358e-39 324 288
0.0061717331 0.704 -0.059248637 5.7178358e-39 325 288
0.0074060797 0.704 -0.059248637 5.6256416e-39 326 288
0.0086281532 0.70300001 -0.059164476 5.5330886e-39 327 288
0.0098607466 0.70300001 -0.059164476 5.5330886e-39 328 288
0.01109334 0.70300001 -0.059164476 5.5330886e-39 329 288
0.012325933 0.70300001 -0.059164476 5.6249241e-39 330 288
0.013519952 0.70099998 -0.058996156 5.5327299e-39 331 288
0.014749039 0.70099998 -0.058996156 5.3494177e-39 332 288
0.015978126 0.70099998 -0.058996156 5.2572234e-39 333 288
0.017207211 0.70099998 -0.058996156 5.2572234e-39 334 288
0.018409999 0.69999999 -0.058911994 5.1650292e-39 335 288
0.019637333 0.69999999 -0.058911994 4.9809995e-39 336 288
0.020864666 0.69999999 -0.058911994 4.8884465e-39 337 288
0.022091998 0.69999999 -0.058911994 4.9799233e-39 338 288
0.023319334 0.69999999 -0.058911994 4.9799233e-39 339 288
0.024546666 0.69999999 -0.058911994 4.887729e-39 340 288
0.025773998 0.69999999 -0.058911994 4.887729e-39 341 288
0.027001332 0.69999999 -0.058911994 4.887729e-39 342 288
0.028228667 0.69999999 -0.058911994 4.887729e-39 343 288
0.029498078 0.70099998 -0.058996156 4.887729e-39 344 288
0.030727165 0.70099998 -0.058996156 4.887729e-39 345 288
0.032047424 0.70300001 -0.059164476 4.887729e-39 346 288
0.033280019 0.70300001 -0.059164476 4.887729e-39 347 288
0.034512613 0.70300001 -0.059164476 4.8870116e-39 348 288
0.035796054 0.704 -0.059248637 4.8870116e-39 349 288
0.037030395 0.704 -0.059248637 4.7937412e-39 350 288
0.038264744 0.704 -0.059248637 4.8859354e-39 351 288
0.039499093 0.704 -0.059248637 4.7944586e-39 352 288
0.040733438 0.704 -0.059248637 4.7022644e-39 353 288
0.042087011 0.70599997 -0.059416957 4.9774121e-39 354 288
0.043324865 0.70599997 -0.059416957 5.1618006e-39 355 288
0.044625837 0.70700002 -0.059501119 5.1618006e-39 356 288
0.045865446 0.70700002 -0.059501119 5.2539948e-39 357 288
0.047171678 0.708 -0.059585281 5.3461891e-39 358 288
0.048549797 0.70999998 -0.059753593 5.7146072e-39 359 288
0.049864799 0.71100003 -0.059837762 5.7146072e-39 360 288
0.051255193 0.713 -0.060006075 5.9915501e-39 361 288
0.052505318 0.713 -0.060006075 6.4503716e-39 362 288
0.053830836 0.71399999 -0.060090236 6.8195129e-39 363 288
0.055237014 0.71600002 -0.06025856 7.095741e-39 364 288
0.056571297 0.71700001 -0.060342718 8.6634255e-39 365 288
0.057828441 0.71700001 -0.060342718 1.08693e-38 366 288
-0.012624 0.72000003 -0.061857603 9.6739999e-39 310 289
-0.01131426 0.71700001 -0.061599858 8.9360761e-39 311 289
-0.01005712 0.71700001 -0.061599858 8.1992173e-39 312 289
-0.0087877065 0.71600002 -0.061513945 7.6460435e-39 313 289
-0.00753232 0.71600002 -0.061513945 6.6369167e-39 314 289
-0.0062506334 0.713 -0.061256204 6.544721e-39 315 289
-0.0049864799 0.71100003 -0.061084379 6.4532387e-39 316 289
-0.0037345996 0.70999998 -0.060998458 6.4532387e-39 317 289
-0.0024897333 0.70999998 -0.060998458 5.9947773e-39 318 289
-0.00124136 0.708 -0.060826641 5.9947773e-39 319 289
0 0.708 -0.060826641 5.9033005e-39 320 289
0.00124136 0.708 -0.060826641 5.8111063e-39 321 289
0.0024792133 0.70700002 -0.060740728 5.902583e-39 322 289
0.0037135598 0.70599997 -0.060654808 5.8103888e-39 323 289
0.0049514128 0.70599997 -0.060654808 5.8100301e-39 324 289
0.0061892662 0.70599997 -0.060654808 5.6256416e-39 325 289
0.0074271196 0.70599997 -0.060654808 5.4419706e-39 326 289
0.0086404262 0.704 -0.060482983 5.3497764e-39 327 289
0.0098607466 0.70300001 -0.06039707 5.3497764e-39 328 289
0.01109334 0.70300001 -0.06039707 5.2575822e-39 329 289
0.012325933 0.70300001 -0.06039707 5.2572234e-39 330 289
0.013558527 0.70300001 -0.06039707 5.1650292e-39 331 289
0.014749039 0.70099998 -0.060225245 4.9817169e-39 332 289
0.015978126 0.70099998 -0.060225245 4.889164e-39 333 289
0.017207211 0.70099998 -0.060225245 4.889164e-39 334 289
0.018409999 0.69999999 -0.060139328 4.7969697e-39 335 289
0.019637333 0.69999999 -0.060139328 4.7962523e-39 336 289
0.020864666 0.69999999 -0.060139328 4.7962523e-39 337 289
0.022091998 0.69999999 -0.060139328 4.8873703e-39 338 289
0.023319334 0.69999999 -0.060139328 4.8873703e-39 339 289
0.024581732 0.70099998 -0.060225245 4.7033406e-39 340 289
0.025810819 0.70099998 -0.060225245 4.7033406e-39 341 289
0.027039904 0.70099998 -0.060225245 4.7033406e-39 342 289
0.028268991 0.70099998 -0.060225245 4.7033406e-39 343 289
0.029582238 0.70300001 -0.06039707 4.7033406e-39 344 289
0.030814834 0.70300001 -0.06039707 4.7033406e-39 345 289
0.032047424 0.70300001 -0.06039707 4.8870116e-39 346 289
0.033280019 0.70300001 -0.06039707 4.8870116e-39 347 289
0.034512613 0.70300001 -0.06039707 4.8862941e-39 348 289
0.035796054 0.704 -0.060482983 5.0703238e-39 349 289
0.037030395 0.704 -0.060482983 4.7944586e-39 350 289
0.038264744 0.704 -0.060482983 4.7944586e-39 351 289
0.039499093 0.704 -0.060482983 4.7937412e-39 352 289
0.040733438 0.704 -0.060482983 4.7937412e-39 353 289
0.042087011 0.70599997 -0.060654808 4.7937412e-39 354 289
0.043324865 0.70599997 -0.060654808 4.8859354e-39 355 289
0.044625837 0.70700002 -0.060740728 4.8859354e-39 356 289
0.045930319 0.708 -0.060826641 5.1625181e-39 357 289
0.047304932 0.70999998 -0.060998458 5.2543536e-39 358 289
0.048618179 0.71100003 -0.061084379 5.4391008e-39 359 289
0.049864799 0.71100003 -0.061084379 5.5309362e-39 360 289
0.051255193 0.713 -0.061256204 5.8075217e-39 361 289
0.052505318 0.713 -0.061256204 6.3596207e-39 362 289
0.053830836 0.71399999 -0.061342116 6.5443707e-39 363 289
0.055237014 0.71600002 -0.061513945 7.0946676e-39 364 289
0.056571297 0.71700001 -0.061599858 9.1229729e-39 365 289
-0.01134582 0.71899998 -0.063032329 9.1211946e-39 311 290
-0.01005712 0.71700001 -0.062856995 8.016268e-39 312 290
-0.0087877065 0.71600002 -0.062769331 7.4630942e-39 313 290
-0.0075112795 0.71399999 -0.062593997 7.0049775e-39 314 290
-0.0062593995 0.71399999 -0.062593997 6.8205849e-39 315 290
-0.0050005065 0.713 -0.062506333 6.362478e-39 316 290
-0.0037398601 0.71100003 -0.062331002 6.1777308e-39 317 290
-0.0024897333 0.70999998 -0.062243331 6.1777308e-39 318 290
-0.0012448666 0.70999998 -0.062243331 6.1777308e-39 319 290
0 0.70999998 -0.062243331 5.995136e-39 320 290
0.00124136 0.708 -0.062068 5.9029418e-39 321 290
0.00248272 0.708 -0.062068 5.9022243e-39 322 290
0.0037188199 0.70700002 -0.061980337 5.9022243e-39 323 290
0.0049514128 0.70599997 -0.061892662 5.8100301e-39 324 290
0.0061892662 0.70599997 -0.061892662 5.7178358e-39 325 290
0.0074271196 0.70599997 -0.061892662 5.7171184e-39 326 290
0.0086404262 0.704 -0.061717331 5.6249241e-39 327 290
0.0098607466 0.70300001 -0.061629668 5.5334474e-39 328 290
0.01109334 0.70300001 -0.061629668 5.5334474e-39 329 290
0.012325933 0.70300001 -0.061629668 5.440177e-39 330 290
0.013558527 0.70300001 -0.061629668 5.440177e-39 331 290
0.014749039 0.70099998 -0.06145433 4.8888052e-39 332 290
0.015978126 0.70099998 -0.06145433 4.8888052e-39 333 290
0.017207211 0.70099998 -0.06145433 4.9809995e-39 334 290
0.018436298 0.70099998 -0.06145433 4.796611e-39 335 290
0.019665385 0.70099998 -0.06145433 4.9799233e-39 336 290
0.020894472 0.70099998 -0.06145433 4.887729e-39 337 290
0.022123558 0.70099998 -0.06145433 4.7033406e-39 338 290
0.023352645 0.70099998 -0.06145433 4.6111464e-39 339 290
0.024581732 0.70099998 -0.06145433 4.7944586e-39 340 290
0.025810819 0.70099998 -0.06145433 4.7944586e-39 341 290
0.027039904 0.70099998 -0.06145433 4.6111464e-39 342 290
0.028268991 0.70099998 -0.06145433 4.6111464e-39 343 290
0.029582238 0.70300001 -0.061629668 4.6115051e-39 344 290
0.030814834 0.70300001 -0.061629668 4.6115051e-39 345 290
0.032047424 0.70300001 -0.061629668 4.7944586e-39 346 290
0.033280019 0.70300001 -0.061629668 4.7944586e-39 347 290
0.034561705 0.704 -0.061717331 4.7948174e-39 348 290
0.035796054 0.704 -0.061717331 4.7948174e-39 349 290
0.037030395 0.704 -0.061717331 4.7944586e-39 350 290
0.038264744 0.704 -0.061717331 4.7022644e-39 351 290
0.039499093 0.704 -0.061717331 4.7015469e-39 352 290
0.040849157 0.70599997 -0.061892662 4.7937412e-39 353 290
0.042087011 0.70599997 -0.061892662 4.7022644e-39 354 290
0.043324865 0.70599997 -0.061892662 4.7944586e-39 355 290
0.044625837 0.70700002 -0.061980337 4.8866528e-39 356 290
0.045930319 0.708 -0.062068 5.0714e-39 357 290
0.047304932 0.70999998 -0.062243331 5.3469065e-39 358 290
0.048618179 0.71100003 -0.062331002 5.4391008e-39 359 290
0.050005067 0.713 -0.062506333 5.4394595e-39 360 290
0.051255193 0.713 -0.062506333 5.8086021e-39 361 290
0.052505318 0.713 -0.062506333 6.1763113e-39 362 290
0.053981625 0.71600002 -0.062769331 6.5447336e-39 363 290
0.055237014 0.71600002 -0.062769331 7.8300845e-39 364 290
-0.01005712 0.71700001 -0.064114138 8.017347e-39 312 291
-0.0087877065 0.71600002 -0.064024724 7.6485631e-39 313 291
-0.0075112795 0.71399999 -0.063845873 7.1886555e-39 314 291
-0.0062593995 0.71399999 -0.063845873 6.9124288e-39 315 291
-0.0050005065 0.713 -0.063756458 6.362122e-39 316 291
-0.0037398601 0.71100003 -0.063577622 6.1777308e-39 317 291
-0.0024932399 0.71100003 -0.063577622 6.1777308e-39 318 291
-0.00124662 0.71100003 -0.063577622 6.1777308e-39 319 291
0 0.70999998 -0.063488193 5.9940626e-39 320 291
0.0012448666 0.70999998 -0.063488193 5.9940626e-39 321 291
0.00248272 0.708 -0.063309364 5.9940626e-39 322 291
0.00372408 0.708 -0.063309364 5.901867e-39 323 291
0.0049584266 0.70700002 -0.063219935 5.9022243e-39 324 291
0.0061980332 0.70700002 -0.063219935 5.8096713e-39 325 291
0.0074271196 0.70599997 -0.063130513 5.7178358e-39 326 291
0.0086404262 0.704 -0.062951677 5.6256416e-39 327 291
0.0098747732 0.704 -0.062951677 5.6256416e-39 328 291
0.01109334 0.70300001 -0.062862262 5.6256416e-39 329 291
0.012325933 0.70300001 -0.062862262 5.3490589e-39 330 291
0.013558527 0.70300001 -0.062862262 5.1646705e-39 331 291
0.014791119 0.70300001 -0.062862262 4.9809995e-39 332 291
0.015978126 0.70099998 -0.062683418 4.8888052e-39 333 291
0.017207211 0.70099998 -0.062683418 4.9809995e-39 334 291
0.018488899 0.70300001 -0.062862262 4.8888052e-39 335 291
0.019721493 0.70300001 -0.062862262 4.9799233e-39 336 291
0.020954086 0.70300001 -0.062862262 4.887729e-39 337 291
0.02218668 0.70300001 -0.062862262 4.7033406e-39 338 291
0.023419274 0.70300001 -0.062862262 4.7033406e-39 339 291
0.024651866 0.70300001 -0.062862262 4.6111464e-39 340 291
0.025884461 0.70300001 -0.062862262 4.6111464e-39 341 291
0.027117053 0.70300001 -0.062862262 4.6111464e-39 342 291
0.028349647 0.70300001 -0.062862262 4.6111464e-39 343 291
0.029582238 0.70300001 -0.062862262 4.6115051e-39 344 291
0.030814834 0.70300001 -0.062862262 4.6115051e-39 345 291
0.032047424 0.70300001 -0.062862262 4.7948174e-39 346 291
0.033280019 0.70300001 -0.062862262 4.7948174e-39 347 291
0.034561705 0.704 -0.062951677 4.7948174e-39 348 291
0.035796054 0.704 -0.062951677 4.7948174e-39 349 291
0.037030395 0.704 -0.062951677 4.7022644e-39 350 291
0.038264744 0.704 -0.062951677 4.7022644e-39 351 291
0.039611302 0.70599997 -0.063130513 4.7022644e-39 352 291
0.040849157 0.70599997 -0.063130513 4.7022644e-39 353 291
0.042087011 0.70599997 -0.063130513 4.6111464e-39 354 291
0.043386232 0.70700002 -0.063219935 4.7033406e-39 355 291
0.044625837 0.70700002 -0.063219935 5.1625181e-39 356 291
0.045930319 0.708 -0.063309364 5.3469065e-39 357 291
0.047304932 0.70999998 -0.063488193 5.3469065e-39 358 291
0.048618179 0.71100003 -0.063577622 5.531295e-39 359 291
0.050005067 0.713 -0.063756458 5.5309391e-39 360 291
0.05132708 0.71399999 -0.063845873 5.9919172e-39 361 291
0.052578956 0.71399999 -0.063845873 6.4521849e-39 362 291
0.053981625 0.71600002 -0.064024724 7.0975543e-39 363 291
0.055314157 0.71700001 -0.064114138 8.8424413e-39 364 291
-0.010099201 0.72000003 -0.065644801 8.6612745e-39 312 292
-0.0087877065 0.71600002 -0.06528011 8.1081007e-39 313 292
-0.00753232 0.71600002 -0.06528011 7.8311411e-39 314 292
-0.0062769335 0.71600002 -0.06528011 7.6467498e-39 315 292
-0.0050215465 0.71600002 -0.06528011 6.637267e-39 316 292
-0.0037503797 0.713 -0.065006584 6.5450728e-39 317 292
-0.0025002533 0.713 -0.065006584 6.1777308e-39 318 292
-0.00124662 0.71100003 -0.064824238 6.1777308e-39 319 292
0 0.71100003 -0.064824238 6.1773777e-39 320 292
0.0012448666 0.70999998 -0.064733058 6.085182e-39 321 292
0.0024897333 0.70999998 -0.064733058 5.9018698e-39 322 292
0.0037345996 0.70999998 -0.064733058 5.9018698e-39 323 292
0.0049584266 0.70700002 -0.064459547 6.0855366e-39 324 292
0.0061980332 0.70700002 -0.064459547 6.0855366e-39 325 292
0.0074271196 0.70599997 -0.064368367 5.9933423e-39 326 292
0.0086649731 0.70599997 -0.064368367 5.8093126e-39 327 292
0.0098747732 0.704 -0.064186029 5.7174771e-39 328 292
0.011109119 0.704 -0.064186029 5.6249241e-39 329 292
0.012325933 0.70300001 -0.064094849 5.7160422e-39 330 292
0.013558527 0.70300001 -0.064094849 5.5320124e-39 331 292
0.014791119 0.70300001 -0.064094849 5.440177e-39 332 292
0.016023712 0.70300001 -0.064094849 5.3479827e-39 333 292
0.017256306 0.70300001 -0.064094849 5.1646705e-39 334 292
0.018488899 0.70300001 -0.064094849 5.0724762e-39 335 292
0.019721493 0.70300001 -0.064094849 5.0717588e-39 336 292
0.020954086 0.70300001 -0.064094849 5.0717588e-39 337 292
0.02218668 0.70300001 -0.064094849 4.9792058e-39 338 292
0.023419274 0.70300001 -0.064094849 4.8870116e-39 339 292
0.024651866 0.70300001 -0.064094849 4.8870116e-39 340 292
0.025884461 0.70300001 -0.064094849 4.7944586e-39 341 292
0.027117053 0.70300001 -0.064094849 4.6111464e-39 342 292
0.028349647 0.70300001 -0.064094849 4.6111464e-39 343 292
0.029582238 0.70300001 -0.064094849 4.8862941e-39 344 292
0.030814834 0.70300001 -0.064094849 4.8862941e-39 345 292
0.032093015 0.704 -0.064186029 4.7948174e-39 346 292
0.03332736 0.704 -0.064186029 4.7948174e-39 347 292
0.034561705 0.704 -0.064186029 4.7948174e-39 348 292
0.035796054 0.704 -0.064186029 4.7948174e-39 349 292
0.037135597 0.70599997 -0.064368367 4.7944586e-39 350 292
0.038373452 0.70599997 -0.064368367 4.7944586e-39 351 292
0.039611302 0.70599997 -0.064368367 4.7944586e-39 352 292
0.040849157 0.70599997 -0.064368367 4.7944586e-39 353 292
0.042146627 0.70700002 -0.064459547 4.8870116e-39 354 292
0.043386232 0.70700002 -0.064459547 4.9792058e-39 355 292
0.044625837 0.70700002 -0.064459547 5.0714e-39 356 292
0.045930319 0.708 -0.06455072 5.1635943e-39 357 292
0.047304932 0.70999998 -0.064733058 5.622413e-39 358 292
0.048618179 0.71100003 -0.064824238 5.7146072e-39 359 292
0.050005067 0.713 -0.065006584 5.8986454e-39 360 292
0.05132708 0.71399999 -0.065097757 6.1752323e-39 361 292
0.052726239 0.71600002 -0.06528011 6.6358643e-39 362 292
0.054057021 0.71700001 -0.065371275 7.4652648e-39 363 292
-0.011361601 0.72000003 -0.066907197 1.0042446e-38 311 293
-0.010099201 0.72000003 -0.066907197 9.3963368e-39 312 293
-0.0088245263 0.71899998 -0.066814266 8.93536e-39 313 293
-0.0075638802 0.71899998 -0.066814266 7.6478414e-39 314 293
-0.0062857 0.71700001 -0.066628419 7.5556458e-39 315 293
-0.0050215465 0.71600002 -0.066535495 6.6379901e-39 316 293
-0.0037503797 0.713 -0.066256717 6.4532387e-39 317 293
-0.0025002533 0.713 -0.066256717 6.2699264e-39 318 293
-0.00124662 0.71100003 -0.066070862 6.1777308e-39 319 293
0 0.71100003 -0.066070862 6.0851792e-39 320 293
0.00124662 0.71100003 -0.066070862 6.0851792e-39 321 293
0.0024897333 0.70999998 -0.065977924 5.901867e-39 322 293
0.0037345996 0.70999998 -0.065977924 5.901867e-39 323 293
0.0049654399 0.708 -0.065792084 6.0855366e-39 324 293
0.0062067998 0.708 -0.065792084 6.0855366e-39 325 293
0.0074376399 0.70700002 -0.065699153 5.9022243e-39 326 293
0.0086649731 0.70599997 -0.065606222 5.8100301e-39 327 293
0.0098747732 0.704 -0.065420374 5.8093126e-39 328 293
0.011109119 0.704 -0.065420374 5.8093126e-39 329 293
0.012343466 0.704 -0.065420374 5.6245654e-39 330 293
0.013577812 0.704 -0.065420374 5.6245654e-39 331 293
0.014812159 0.704 -0.065420374 5.2575822e-39 332 293
0.016023712 0.70300001 -0.065327443 5.1650292e-39 333 293
0.017256306 0.70300001 -0.065327443 5.256506e-39 334 293
0.018488899 0.70300001 -0.065327443 5.0721175e-39 335 293
0.019721493 0.70300001 -0.065327443 5.0721175e-39 336 293
0.020954086 0.70300001 -0.065327443 4.9795645e-39 337 293
0.02218668 0.70300001 -0.065327443 4.9795645e-39 338 293
0.023419274 0.70300001 -0.065327443 4.8873703e-39 339 293
0.024651866 0.70300001 -0.065327443 4.7033406e-39 340 293
0.02592128 0.704 -0.065420374 4.6111464e-39 341 293
0.027155625 0.704 -0.065420374 4.5193109e-39 342 293
0.028389972 0.704 -0.065420374 4.6115051e-39 343 293
0.029624319 0.704 -0.065420374 4.8866528e-39 344 293
0.030858666 0.704 -0.065420374 4.7944586e-39 345 293
0.032093015 0.704 -0.065420374 4.7944586e-39 346 293
0.03332736 0.704 -0.065420374 4.7944586e-39 347 293
0.034561705 0.704 -0.065420374 4.7944586e-39 348 293
0.035897743 0.70599997 -0.065606222 4.7944586e-39 349 293
0.037135597 0.70599997 -0.065606222 4.8870116e-39 350 293
0.038373452 0.70599997 -0.065606222 4.7944586e-39 351 293
0.039611302 0.70599997 -0.065606222 4.7944586e-39 352 293
0.040907022 0.70700002 -0.065699153 4.8870116e-39 353 293
0.042146627 0.70700002 -0.065699153 4.9788471e-39 354 293
0.043386232 0.70700002 -0.065699153 4.9788471e-39 355 293
0.044688959 0.708 -0.065792084 5.0710413e-39 356 293
0.046060063 0.70999998 -0.065977924 5.347624e-39 357 293
0.047371563 0.71100003 -0.066070862 5.622413e-39 358 293
0.048754938 0.713 -0.066256717 5.8068029e-39 359 293
0.050075196 0.71399999 -0.066349633 5.8064525e-39 360 293
0.051470853 0.71600002 -0.066535495 6.267072e-39 361 293
0.052799881 0.71700001 -0.066628419 7.1865199e-39 362 293
-0.010127253 0.722 -0.068358958 9.6757977e-39 312 294
-0.0088367993 0.72000003 -0.068169601 8.477256e-39 313 294
-0.0075743999 0.72000003 -0.068169601 8.7502205e-39 314 294
-0.0063032326 0.71899998 -0.068074919 8.2892423e-39 315 294
-0.0050285598 0.71700001 -0.067885563 7.3723097e-39 316 294
-0.0037556398 0.71399999 -0.067601517 7.18828e-39 317 294
-0.0025002533 0.713 -0.067506835 6.820938e-39 318 294
-0.0012501266 0.713 -0.067506835 6.7287438e-39 319 294
0 0.71100003 -0.067317478 6.1770133e-39 320 294
0.00124662 0.71100003 -0.067317478 6.1770133e-39 321 294
0.0024897333 0.70999998 -0.067222796 6.0855366e-39 322 294
0.0037345996 0.70999998 -0.067222796 6.0855366e-39 323 294
0.0049794666 0.70999998 -0.067222796 6.0858953e-39 324 294
0.0062067998 0.708 -0.067033432 6.0858953e-39 325 294
0.0074376399 0.70700002 -0.066938758 6.0858953e-39 326 294
0.0086649731 0.70599997 -0.066844068 5.9937011e-39 327 294
0.0099028256 0.70599997 -0.066844068 6.1762958e-39 328 294
0.011109119 0.704 -0.066654719 5.9922661e-39 329 294
0.012343466 0.704 -0.066654719 5.8078777e-39 330 294
0.013577812 0.704 -0.066654719 5.8078777e-39 331 294
0.014812159 0.704 -0.066654719 5.6249241e-39 332 294
0.016046507 0.704 -0.066654719 5.5323712e-39 333 294
0.017280852 0.704 -0.066654719 5.440177e-39 334 294
0.018515198 0.704 -0.066654719 5.3479827e-39 335 294
0.019749546 0.704 -0.066654719 5.3472653e-39 336 294
0.020983893 0.704 -0.066654719 5.255071e-39 337 294
0.022218239 0.704 -0.066654719 5.0714e-39 338 294
0.023452586 0.704 -0.066654719 5.0714e-39 339 294
0.024686933 0.704 -0.066654719 4.9792058e-39 340 294
0.02592128 0.704 -0.066654719 4.8870116e-39 341 294
0.027155625 0.704 -0.066654719 4.7033406e-39 342 294
0.028389972 0.704 -0.066654719 4.7033406e-39 343 294
0.029624319 0.704 -0.066654719 5.0703238e-39 344 294
0.030858666 0.704 -0.066654719 5.0703238e-39 345 294
0.032093015 0.704 -0.066654719 5.3454716e-39 346 294
0.033422034 0.70599997 -0.066844068 5.3454716e-39 347 294
0.034659892 0.70599997 -0.066844068 5.0703238e-39 348 294
0.035897743 0.70599997 -0.066844068 5.0703238e-39 349 294
0.037135597 0.70599997 -0.066844068 4.6111464e-39 350 294
0.038427804 0.70700002 -0.066938758 4.7033406e-39 351 294
0.039667413 0.70700002 -0.066938758 4.7944586e-39 352 294
0.040907022 0.70700002 -0.066938758 4.9788471e-39 353 294
0.042206239 0.708 -0.067033432 4.9788471e-39 354 294
0.043447599 0.708 -0.067033432 4.9788471e-39 355 294
0.044815198 0.70999998 -0.067222796 5.0710413e-39 356 294
0.046060063 0.70999998 -0.067222796 5.3472653e-39 357 294
0.047371563 0.71100003 -0.067317478 5.5309419e-39 358 294
0.048823316 0.71399999 -0.067601517 5.5309419e-39 359 294
0.050215468 0.71600002 -0.067790881 6.1745232e-39 360 294
0.051542737 0.71700001 -0.067885563 6.4514688e-39 361 294
0.05294716 0.71899998 -0.068074919 7.3712741e-39 362 294
-0.0075743999 0.72000003 -0.069432005 8.7516652e-39 314 295
-0.0063032326 0.71899998 -0.069335558 8.1988502e-39 315 295
-0.0050285598 0.71700001 -0.069142699 7.5563492e-39 316 295
-0.00376616 0.71600002 -0.069046266 7.371958e-39 317 295
-0.0025037599 0.71399999 -0.068853401 6.637267e-39 318 295
-0.00125188 0.71399999 -0.068853401 6.5450728e-39 319 295
0 0.713 -0.068756968 6.1777308e-39 320 295
0.00124662 0.71100003 -0.068564095 6.0855366e-39 321 295
0.0024932399 0.71100003 -0.068564095 6.0855366e-39 322 295
0.0037345996 0.70999998 -0.068467662 6.0855366e-39 323 295
0.0049794666 0.70999998 -0.068467662 6.0858953e-39 324 295
0.0062067998 0.708 -0.068274796 6.0858953e-39 325 295
0.0074376399 0.70700002 -0.068178371 6.0851778e-39 326 295
0.008677247 0.70700002 -0.068178371 6.0851778e-39 327 295
0.0099028256 0.70599997 -0.06808193 5.8093126e-39 328 295
0.011140679 0.70599997 -0.06808193 5.7167596e-39 329 295
0.012378532 0.70599997 -0.06808193 5.7167596e-39 330 295
0.013616386 0.70599997 -0.06808193 5.7167596e-39 331 295
0.014812159 0.704 -0.067889065 5.6242067e-39 332 295
0.016046507 0.704 -0.067889065 5.5320124e-39 333 295
0.017280852 0.704 -0.067889065 5.6245654e-39 334 295
0.018515198 0.704 -0.067889065 5.4398182e-39 335 295
0.019749546 0.704 -0.067889065 5.1643117e-39 336 295
0.020983893 0.704 -0.067889065 5.0721175e-39 337 295
0.022218239 0.704 -0.067889065 5.1635943e-39 338 295
0.023452586 0.704 -0.067889065 5.0714e-39 339 295
0.024686933 0.704 -0.067889065 5.0714e-39 340 295
0.02592128 0.704 -0.067889065 4.9792058e-39 341 295
0.027155625 0.704 -0.067889065 4.9788471e-39 342 295
0.028389972 0.704 -0.067889065 4.9788471e-39 343 295
0.029708479 0.70599997 -0.06808193 5.1625181e-39 344 295
0.030946331 0.70599997 -0.06808193 5.1625181e-39 345 295
0.032184184 0.70599997 -0.06808193 5.1625181e-39 346 295
0.033422034 0.70599997 -0.06808193 5.1625181e-39 347 295
0.034659892 0.70599997 -0.06808193 5.1625181e-39 348 295
0.035948593 0.70700002 -0.068178371 5.0703238e-39 349 295
0.037188202 0.70700002 -0.068178371 4.7944586e-39 350 295
0.038427804 0.70700002 -0.068178371 4.8870116e-39 351 295
0.039723519 0.708 -0.068274796 4.8870116e-39 352 295
0.040964879 0.708 -0.068274796 4.9792058e-39 353 295
0.042325463 0.70999998 -0.068467662 5.0710413e-39 354 295
0.043570329 0.70999998 -0.068467662 5.0710413e-39 355 295
0.044815198 0.70999998 -0.068467662 5.1632355e-39 356 295
0.046124939 0.71100003 -0.068564095 5.3472667e-39 357 295
0.047571439 0.71399999 -0.068853401 5.7142541e-39 358 295
0.048960082 0.71600002 -0.069046266 5.8986454e-39 359 295
0.0502856 0.71700001 -0.069142699 6.3585515e-39 360 295
0.051542737 0.71700001 -0.069142699 6.9117253e-39 361 295
0.05294716 0.71899998 -0.069335558 7.8322551e-39 362 295
-0.0075954394 0.722 -0.070890769 8.7531142e-39 314 296
-0.0063120001 0.72000003 -0.070694394 8.2002991e-39 315 296
-0.0050425865 0.71899998 -0.070596211 7.9233367e-39 316 296
-0.0037714199 0.71700001 -0.070399836 7.7389454e-39 317 296
-0.0025037599 0.71399999 -0.070105277 6.8205821e-39 318 296
-0.00125188 0.71399999 -0.070105277 6.7283864e-39 319 296
0 0.713 -0.070007093 6.361043e-39 320 296
0.0012501266 0.713 -0.070007093 6.1770133e-39 321 296
0.0024932399 0.71100003 -0.069810718 6.1770133e-39 322 296
0.0037398601 0.71100003 -0.069810718 6.1770133e-39 323 296
0.0049794666 0.70999998 -0.069712527 6.0855366e-39 324 296
0.0062067998 0.708 -0.069516152 5.9933423e-39 325 296
0.0074481601 0.708 -0.069516152 6.0848191e-39 326 296
0.008677247 0.70700002 -0.069417976 6.0848191e-39 327 296
0.0099168532 0.70700002 -0.069417976 5.9933423e-39 328 296
0.011140679 0.70599997 -0.069319785 5.8093126e-39 329 296
0.012378532 0.70599997 -0.069319785 5.7167596e-39 330 296
0.013616386 0.70599997 -0.069319785 5.7167596e-39 331 296
0.014854239 0.70599997 -0.069319785 5.8078777e-39 332 296
0.016092092 0.70599997 -0.069319785 5.8078777e-39 333 296
0.017329946 0.70599997 -0.069319785 5.7156834e-39 334 296
0.018567799 0.70599997 -0.069319785 5.7156834e-39 335 296
0.019749546 0.704 -0.06912341 5.4398182e-39 336 296
0.020983893 0.704 -0.06912341 5.347624e-39 337 296
0.022218239 0.704 -0.06912341 5.163953e-39 338 296
0.023519212 0.70599997 -0.069319785 5.163953e-39 339 296
0.024757065 0.70599997 -0.069319785 5.0714e-39 340 296
0.025994917 0.70599997 -0.069319785 5.0714e-39 341 296
0.027232772 0.70599997 -0.069319785 5.0714e-39 342 296
0.028470624 0.70599997 -0.069319785 5.0714e-39 343 296
0.029708479 0.70599997 -0.069319785 5.2543536e-39 344 296
0.030946331 0.70599997 -0.069319785 5.2543536e-39 345 296
0.032184184 0.70599997 -0.069319785 5.2547123e-39 346 296
0.033422034 0.70599997 -0.069319785 5.1625181e-39 347 296
0.034708988 0.70700002 -0.069417976 5.2539948e-39 348 296
0.03599944 0.708 -0.069516152 5.2539948e-39 349 296
0.0372408 0.708 -0.069516152 5.0699651e-39 350 296
0.038482159 0.708 -0.069516152 5.0699651e-39 351 296
0.039723519 0.708 -0.069516152 4.9788471e-39 352 296
0.041080594 0.70999998 -0.069712527 5.0714e-39 353 296
0.042325463 0.70999998 -0.069712527 5.2543536e-39 354 296
0.043570329 0.70999998 -0.069712527 5.3469065e-39 355 296
0.044878319 0.71100003 -0.069810718 5.3472667e-39 356 296
0.046254687 0.713 -0.070007093 5.4394623e-39 357 296
0.047704693 0.71600002 -0.070301652 5.714973e-39 358 296
0.04902846 0.71700001 -0.070399836 5.8993656e-39 359 296
0.0502856 0.71700001 -0.070399836 6.5436645e-39 360 296
0.051542737 0.71700001 -0.070399836 7.1890339e-39 361 296
0.053020801 0.72000003 -0.070694394 8.3850757e-39 362 296
-0.0063295332 0.722 -0.072156675 8.5676495e-39 315 297
-0.0050496003 0.72000003 -0.071956798 8.1995676e-39 316 297
-0.0037714199 0.71700001 -0.07165698 7.8311439e-39 317 297
-0.0025107733 0.71600002 -0.071557038 7.0053306e-39 318 297
-0.0012553866 0.71600002 -0.071557038 6.8205793e-39 319 297
0 0.71399999 -0.071357153 6.361043e-39 320 297
0.00125188 0.71399999 -0.071357153 6.361043e-39 321 297
0.0025002533 0.713 -0.071257219 6.4525198e-39 322 297
0.0037398601 0.71100003 -0.071057342 6.4525198e-39 323 297
0.0049864799 0.71100003 -0.071057342 6.1770133e-39 324 297
0.0062243328 0.70999998 -0.070957392 6.0848191e-39 325 297
0.0074691991 0.70999998 -0.070957392 5.9926249e-39 326 297
0.008689519 0.708 -0.070757516 5.9926249e-39 327 297
0.0099308798 0.708 -0.070757516 5.9926249e-39 328 297
0.011156459 0.70700002 -0.070657574 5.9926249e-39 329 297
0.012396066 0.70700002 -0.070657574 5.9926249e-39 330 297
0.013616386 0.70599997 -0.070557632 5.9004306e-39 331 297
0.014854239 0.70599997 -0.070557632 5.8078777e-39 332 297
0.016114887 0.70700002 -0.070657574 5.7156834e-39 333 297
0.017329946 0.70599997 -0.070557632 5.7156834e-39 334 297
0.018567799 0.70599997 -0.070557632 5.7156834e-39 335 297
0.019805651 0.70599997 -0.070557632 5.440177e-39 336 297
0.021043506 0.70599997 -0.070557632 5.440177e-39 337 297
0.022281358 0.70599997 -0.070557632 5.4398182e-39 338 297
0.023519212 0.70599997 -0.070557632 5.347624e-39 339 297
0.024757065 0.70599997 -0.070557632 5.1635943e-39 340 297
0.025994917 0.70599997 -0.070557632 5.1635943e-39 341 297
0.027232772 0.70599997 -0.070557632 5.1632355e-39 342 297
0.028470624 0.70599997 -0.070557632 5.1632355e-39 343 297
0.029708479 0.70599997 -0.070557632 5.438742e-39 344 297
0.030946331 0.70599997 -0.070557632 5.3465478e-39 345 297
0.032184184 0.70599997 -0.070557632 5.3469065e-39 346 297
0.033469379 0.70700002 -0.070657574 5.2543536e-39 347 297
0.034758076 0.708 -0.070757516 5.2539948e-39 348 297
0.036101133 0.70999998 -0.070957392 5.2539948e-39 349 297
0.037345998 0.70999998 -0.070957392 5.1625181e-39 350 297
0.038590867 0.70999998 -0.070957392 5.1625181e-39 351 297
0.039835732 0.70999998 -0.070957392 5.2547123e-39 352 297
0.041080594 0.70999998 -0.070957392 5.3469065e-39 353 297
0.042385083 0.71100003 -0.071057342 5.3469065e-39 354 297
0.043631699 0.71100003 -0.071057342 5.4391008e-39 355 297
0.045004558 0.713 -0.071257219 5.5309391e-39 356 297
0.046319555 0.71399999 -0.071357153 5.7149702e-39 357 297
0.04777132 0.71700001 -0.07165698 5.8071714e-39 358 297
0.04902846 0.71700001 -0.07165698 6.0837597e-39 359 297
0.050425861 0.71899998 -0.071856856 7.0035678e-39 360 297
0.05168651 0.71899998 -0.071856856 7.6489372e-39 361 297
0.053020801 0.72000003 -0.071956798 8.2936032e-39 362 297
-0.0050496003 0.72000003 -0.073219202 7.8329557e-39 316 298
-0.0037819401 0.71899998 -0.073117502 7.3719776e-39 317 298
-0.0025142799 0.71700001 -0.072914116 7.0056936e-39 318 298
-0.0012553866 0.71600002 -0.072812423 6.6372698e-39 319 298
0 0.71600002 -0.072812423 6.453596e-39 320 298
0.00125188 0.71399999 -0.072609037 6.453596e-39 321 298
0.0025037599 0.71399999 -0.072609037 6.3614018e-39 322 298
0.0037503797 0.713 -0.072507344 6.1770133e-39 323 298
0.0049864799 0.71100003 -0.072303966 6.0844604e-39 324 298
0.0062330998 0.71100003 -0.072303966 5.9922661e-39 325 298
0.0074691991 0.70999998 -0.072202265 5.9922675e-39 326 298
0.0087140659 0.70999998 -0.072202265 5.9922675e-39 327 298
0.0099308798 0.708 -0.071998879 6.1755784e-39 328 298
0.01117224 0.708 -0.071998879 5.9915487e-39 329 298
0.0124136 0.708 -0.071998879 5.9919074e-39 330 298
0.013654959 0.708 -0.071998879 5.9919074e-39 331 298
0.01489632 0.708 -0.071998879 5.9915487e-39 332 298
0.01613768 0.708 -0.071998879 5.8993544e-39 333 298
0.017379038 0.708 -0.071998879 5.8078777e-39 334 298
0.018594101 0.70700002 -0.071897186 5.8078777e-39 335 298
0.019833706 0.70700002 -0.071897186 5.5320124e-39 336 298
0.021073313 0.70700002 -0.071897186 5.4398182e-39 337 298
0.022312919 0.70700002 -0.071897186 5.256506e-39 338 298
0.023552528 0.70700002 -0.071897186 5.256506e-39 339 298
0.024792133 0.70700002 -0.071897186 5.347624e-39 340 298
0.02603174 0.70700002 -0.071897186 5.347624e-39 341 298
0.027271347 0.70700002 -0.071897186 5.1632355e-39 342 298
0.028510952 0.70700002 -0.071897186 5.3472653e-39 343 298
0.029750559 0.70700002 -0.071897186 5.3472667e-39 344 298
0.030990168 0.70700002 -0.071897186 5.1632355e-39 345 298
0.032229774 0.70700002 -0.071897186 5.3465478e-39 346 298
0.033516716 0.708 -0.071998879 5.2543536e-39 347 298
0.034856264 0.70999998 -0.072202265 5.2543536e-39 348 298
0.036101133 0.70999998 -0.072202265 5.2543536e-39 349 298
0.037345998 0.70999998 -0.072202265 5.2547123e-39 350 298
0.038590867 0.70999998 -0.072202265 5.2547123e-39 351 298
0.039891839 0.71100003 -0.072303966 5.1632355e-39 352 298
0.041138459 0.71100003 -0.072303966 5.1632355e-39 353 298
0.042385083 0.71100003 -0.072303966 5.6220557e-39 354 298
0.043631699 0.71100003 -0.072303966 5.7142513e-39 355 298
0.045004558 0.713 -0.072507344 5.5313048e-39 356 298
0.046449307 0.71600002 -0.072812423 5.6235004e-39 357 298
0.04777132 0.71700001 -0.072914116 5.9915669e-39 358 298
0.04902846 0.71700001 -0.072914116 6.4521849e-39 359 298
0.050425861 0.71899998 -0.073117502 7.2798002e-39 360 298
0.051758397 0.72000003 -0.073219202 8.0173652e-39 361 298
-0.0025142799 0.71700001 -0.07417126 7.2808413e-39 318 299
-0.00125714 0.71700001 -0.07417126 7.0960913e-39 319 299
0 0.71600002 -0.074067809 6.5457902e-39 320 299
0.0012553866 0.71600002 -0.074067809 6.5457902e-39 321 299
0.0025037599 0.71399999 -0.073860914 6.3614018e-39 322 299
0.0037556398 0.71399999 -0.073860914 6.1770133e-39 323 299
0.0050005065 0.713 -0.07375747 6.2681313e-39 324 299
0.0062506334 0.713 -0.07375747 6.1755784e-39 325 299
0.0074797203 0.71100003 -0.073550582 6.1755798e-39 326 299
0.0087263398 0.71100003 -0.073550582 6.1755798e-39 327 299
0.0099589331 0.70999998 -0.073447131 5.9922661e-39 328 299
0.011203799 0.70999998 -0.073447131 5.9000719e-39 329 299
0.0124136 0.708 -0.073240235 6.1752197e-39 330 299
0.013654959 0.708 -0.073240235 6.1752197e-39 331 299
0.01489632 0.708 -0.073240235 6.0830254e-39 332 299
0.01613768 0.708 -0.073240235 6.0830254e-39 333 299
0.017379038 0.708 -0.073240235 5.8071602e-39 334 299
0.0186204 0.708 -0.073240235 5.8993544e-39 335 299
0.01986176 0.708 -0.073240235 5.8071602e-39 336 299
0.021103119 0.708 -0.073240235 5.7146072e-39 337 299
0.022344479 0.708 -0.073240235 5.7146072e-39 338 299
0.023585839 0.708 -0.073240235 5.7146072e-39 339 299
0.024792133 0.70700002 -0.073136792 5.531295e-39 340 299
0.02603174 0.70700002 -0.073136792 5.4391008e-39 341 299
0.027271347 0.70700002 -0.073136792 5.3472653e-39 342 299
0.02855128 0.708 -0.073240235 5.3472653e-39 343 299
0.02979264 0.708 -0.073240235 5.3472667e-39 344 299
0.031034 0.708 -0.073240235 5.3472667e-39 345 299
0.03227536 0.708 -0.073240235 5.6216955e-39 346 299
0.033611398 0.70999998 -0.073447131 5.6216955e-39 347 299
0.034856264 0.70999998 -0.073447131 5.3469065e-39 348 299
0.036151983 0.71100003 -0.073550582 5.3469065e-39 349 299
0.037398599 0.71100003 -0.073550582 5.2543536e-39 350 299
0.038645219 0.71100003 -0.073550582 5.3469065e-39 351 299
0.039891839 0.71100003 -0.073550582 5.3465478e-39 352 299
0.041254178 0.713 -0.07375747 5.4387434e-39 353 299
0.042504307 0.713 -0.07375747 5.5309391e-39 354 299
0.043754432 0.713 -0.07375747 5.7149702e-39 355 299
0.045067675 0.71399999 -0.073860914 5.8071686e-39 356 299
0.046449307 0.71600002 -0.074067809 6.0841156e-39 357 299
0.04777132 0.71700001 -0.07417126 6.3599921e-39 358 299
0.04902846 0.71700001 -0.07417126 6.728776e-39 359 299
0.050425861 0.71899998 -0.074378148 7.8311831e-39 360 299
-0.0012606466 0.71899998 -0.075638793 6.7291319e-39 319 300
0 0.71700001 -0.075428396 6.4543247e-39 320 300
0.00125714 0.71700001 -0.075428396 6.2695733e-39 321 300
0.0025107733 0.71600002 -0.075323202 6.1777336e-39 322 300
0.00376616 0.71600002 -0.075323202 6.0851792e-39 323 300
0.0050075199 0.71399999 -0.075112797 6.2677754e-39 324 300
0.0062506334 0.713 -0.075007595 6.2677754e-39 325 300
0.0075007593 0.713 -0.075007595 6.0844604e-39 326 300
0.0087263398 0.71100003 -0.074797198 5.9922661e-39 327 300
0.0099729598 0.71100003 -0.074797198 6.1755784e-39 328 300
0.011203799 0.70999998 -0.074691996 5.9915487e-39 329 300
0.012448666 0.70999998 -0.074691996 6.1752197e-39 330 300
0.013693533 0.70999998 -0.074691996 6.0826667e-39 331 300
0.014938398 0.70999998 -0.074691996 6.0830254e-39 332 300
0.016183265 0.70999998 -0.074691996 6.0830254e-39 333 300
0.017428132 0.70999998 -0.074691996 5.8997132e-39 334 300
0.018672999 0.70999998 -0.074691996 5.8071602e-39 335 300
0.019917866 0.70999998 -0.074691996 5.8071602e-39 336 300
0.021162732 0.70999998 -0.074691996 5.7146072e-39 337 300
0.022407599 0.70999998 -0.074691996 5.7146072e-39 338 300
0.023652466 0.70999998 -0.074691996 5.8071602e-39 339 300
0.024827199 0.708 -0.074481599 5.4398182e-39 340 300
0.026068559 0.708 -0.074481599 5.4398182e-39 341 300
0.027309919 0.708 -0.074481599 5.347624e-39 342 300
0.028631933 0.70999998 -0.074691996 5.4398182e-39 343 300
0.029876797 0.70999998 -0.074691996 5.4394595e-39 344 300
0.031121666 0.70999998 -0.074691996 5.3472653e-39 345 300
0.032366529 0.70999998 -0.074691996 5.438742e-39 346 300
0.033611398 0.70999998 -0.074691996 5.3465478e-39 347 300
0.034905359 0.71100003 -0.074797198 5.3465478e-39 348 300
0.036151983 0.71100003 -0.074797198 5.2543536e-39 349 300
0.037398599 0.71100003 -0.074797198 5.3465478e-39 350 300
0.038645219 0.71100003 -0.074797198 5.3465478e-39 351 300
0.040004052 0.713 -0.075007595 5.5309391e-39 352 300
0.041312039 0.71399999 -0.075112797 5.4387434e-39 353 300
0.042563915 0.71399999 -0.075112797 5.8064469e-39 354 300
0.043938532 0.71600002 -0.075323202 5.8990013e-39 355 300
0.045193922 0.71600002 -0.075323202 5.990848e-39 356 300
0.046449307 0.71600002 -0.075323202 6.2670748e-39 357 300
-0.0012624001 0.72000003 -0.0770064 7.0971886e-39 319 301
0 0.71899998 -0.076899439 6.6376397e-39 320 301
0.00125714 0.71700001 -0.076685533 6.4528883e-39 321 301
0.0025142799 0.71700001 -0.076685533 6.4521695e-39 322 301
0.0037714199 0.71700001 -0.076685533 6.3599738e-39 323 301
0.0050215465 0.71600002 -0.076578587 6.2677754e-39 324 301
0.0062769335 0.71600002 -0.076578587 6.2677754e-39 325 301
0.00753232 0.71600002 -0.076578587 6.2677754e-39 326 301
0.0087631596 0.71399999 -0.076364681 6.1755798e-39 327 301
0.0099729598 0.71100003 -0.076043822 6.1755798e-39 328 301
0.01121958 0.71100003 -0.076043822 5.9915487e-39 329 301
0.0124662 0.71100003 -0.076043822 5.9919074e-39 330 301
0.01371282 0.71100003 -0.076043822 5.8997132e-39 331 301
0.014959441 0.71100003 -0.076043822 5.8997132e-39 332 301
0.01620606 0.71100003 -0.076043822 5.8997132e-39 333 301
0.01745268 0.71100003 -0.076043822 5.8997132e-39 334 301
0.018672999 0.70999998 -0.075936861 5.8071602e-39 335 301
0.019917866 0.70999998 -0.075936861 5.8982782e-39 336 301
0.021162732 0.70999998 -0.075936861 5.9904725e-39 337 301
0.022407599 0.70999998 -0.075936861 5.8071602e-39 338 301
0.023652466 0.70999998 -0.075936861 5.8071602e-39 339 301
0.024897331 0.70999998 -0.075936861 5.7156834e-39 340 301
0.026142199 0.70999998 -0.075936861 5.4391008e-39 341 301
0.027387066 0.70999998 -0.075936861 5.4391008e-39 342 301
0.028631933 0.70999998 -0.075936861 5.531295e-39 343 301
0.029876797 0.70999998 -0.075936861 5.25615e-39 344 301
0.031165501 0.71100003 -0.076043822 5.1639544e-39 345 301
0.032412119 0.71100003 -0.076043822 5.438742e-39 346 301
0.033658739 0.71100003 -0.076043822 5.3465478e-39 347 301
0.034905359 0.71100003 -0.076043822 5.5298601e-39 348 301
0.036253672 0.713 -0.076257721 5.5298601e-39 349 301
0.037503798 0.713 -0.076257721 5.3465478e-39 350 301
0.038753927 0.713 -0.076257721 5.4387434e-39 351 301
0.040060159 0.71399999 -0.076364681 5.4394623e-39 352 301
0.041312039 0.71399999 -0.076364681 5.5316579e-39 353 301
0.042683143 0.71600002 -0.076578587 5.8986454e-39 354 301
0.043938532 0.71600002 -0.076578587 5.9908424e-39 355 301
0.045193922 0.71600002 -0.076578587 6.2670776e-39 356 301
0 0.72000003 -0.078268804 6.8220464e-39 320 302
0.0012606466 0.71899998 -0.078160092 6.3610697e-39 321 302
0.0025142799 0.71700001 -0.077942684 6.4518164e-39 322 302
0.0037714199 0.71700001 -0.077942684 6.3596207e-39 323 302
0.0050285598 0.71700001 -0.077942684 6.3599767e-39 324 302
0.0062857 0.71700001 -0.077942684 6.3599767e-39 325 302
0.0075428397 0.71700001 -0.077942684 6.084466e-39 326 302
0.0087877065 0.71600002 -0.077833973 5.9922703e-39 327 302
0.010001013 0.713 -0.077507854 5.9922675e-39 328 302
0.01121958 0.71100003 -0.077290438 5.9922675e-39 329 302
0.0124662 0.71100003 -0.077290438 5.9004306e-39 330 302
0.01371282 0.71100003 -0.077290438 5.9004306e-39 331 302
0.014959441 0.71100003 -0.077290438 5.9004306e-39 332 302
0.01620606 0.71100003 -0.077290438 5.7156834e-39 333 302
0.01745268 0.71100003 -0.077290438 5.8071602e-39 334 302
0.0186993 0.71100003 -0.077290438 5.8071602e-39 335 302
0.01994592 0.71100003 -0.077290438 5.9908312e-39 336 302
0.021192541 0.71100003 -0.077290438 5.9908312e-39 337 302
0.022439159 0.71100003 -0.077290438 5.7156834e-39 338 302
0.023685781 0.71100003 -0.077290438 5.7156834e-39 339 302
0.024932399 0.71100003 -0.077290438 5.6227717e-39 340 302
0.026179021 0.71100003 -0.077290438 5.6227717e-39 341 302
0.027425639 0.71100003 -0.077290438 5.622413e-39 342 302
0.028672259 0.71100003 -0.077290438 5.622413e-39 343 302
0.029918881 0.71100003 -0.077290438 5.1632355e-39 344 302
0.031253166 0.713 -0.077507854 5.3472653e-39 345 302
0.032503292 0.713 -0.077507854 5.438742e-39 346 302
0.033753417 0.713 -0.077507854 5.3465478e-39 347 302
0.035003547 0.713 -0.077507854 5.5298601e-39 348 302
0.036304519 0.71399999 -0.07761655 5.3458303e-39 349 302
0.037556399 0.71399999 -0.07761655 5.3465478e-39 350 302
0.038808275 0.71399999 -0.07761655 5.4387434e-39 351 302
0.040060159 0.71399999 -0.07761655 5.714973e-39 352 302
0.041427758 0.71600002 -0.077833973 5.8071686e-39 353 302
0.042683143 0.71600002 -0.077833973 5.9915669e-39 354 302
0.043938532 0.71600002 -0.077833973 6.0837625e-39 355 302
0.0012606466 0.71899998 -0.07942073 6.4547086e-39 321 303
0.0025212932 0.71899998 -0.07942073 6.5440176e-39 322 303
0.0037819401 0.71899998 -0.07942073 6.451822e-39 323 303
0.0050425865 0.71899998 -0.07942073 6.3596235e-39 324 303
0.0063032326 0.71899998 -0.07942073 6.3596235e-39 325 303
0.0075638802 0.71899998 -0.07942073 6.1763057e-39 326 303
0.0087999795 0.71700001 -0.079199821 6.08411e-39 327 303
0.010043093 0.71600002 -0.079089358 5.9922675e-39 328 303
0.01129848 0.71600002 -0.079089358 5.9922675e-39 329 303
0.012518799 0.71399999 -0.078868434 5.7167596e-39 330 303
0.01377068 0.71399999 -0.078868434 5.6245654e-39 331 303
0.015022559 0.71399999 -0.078868434 5.8078777e-39 332 303
0.016251646 0.713 -0.078757972 5.8078777e-39 333 303
0.01745268 0.71100003 -0.078537062 5.8071602e-39 334 303
0.0186993 0.71100003 -0.078537062 5.8071602e-39 335 303
0.01994592 0.71100003 -0.078537062 5.8071602e-39 336 303
0.021252153 0.713 -0.078757972 5.8071602e-39 337 303
0.022502279 0.713 -0.078757972 5.8982782e-39 338 303
0.023752406 0.713 -0.078757972 5.8982782e-39 339 303
0.025002534 0.713 -0.078757972 5.7142485e-39 340 303
0.026252659 0.713 -0.078757972 5.7142485e-39 341 303
0.027502786 0.713 -0.078757972 5.622413e-39 342 303
0.028793238 0.71399999 -0.078868434 5.622413e-39 343 303
0.030045118 0.71399999 -0.078868434 5.1632355e-39 344 303
0.031296998 0.71399999 -0.078868434 5.1632355e-39 345 303
0.032548878 0.71399999 -0.078868434 5.3465478e-39 346 303
0.03389544 0.71600002 -0.079089358 5.3465478e-39 347 303
0.035150826 0.71600002 -0.079089358 5.5298601e-39 348 303
0.036304519 0.71399999 -0.078868434 5.5298601e-39 349 303
0.037556399 0.71399999 -0.078868434 5.3472667e-39 350 303
0.038916986 0.71600002 -0.079089358 5.4394623e-39 351 303
0.040172372 0.71600002 -0.079089358 5.5313076e-39 352 303
0.041427758 0.71600002 -0.079089358 5.7157003e-39 353 303
0.042742759 0.71700001 -0.079199821 5.8075456e-39 354 303
