# .PCD v.7 - Point Cloud Data file format
FIELDS x y z rgb imX imY
SIZE 4 4 4 4 4 4
TYPE F F F F F F
COUNT 1 1 1 1 1 1
WIDTH 848
HEIGHT 1
VIEWPOINT 0 0 0 1 0 0 0
POINTS 848
DATA ascii
0.015653761 0.74400002 -0.0078268806 1.6318802e-38 332 246
0.016958239 0.74400002 -0.0078268806 1.6042215e-38 333 246
0.018311813 0.74599999 -0.0078479191 1.6041845e-38 334 246
0.019619798 0.74599999 -0.0078479191 1.5857454e-38 335 246
0.020927785 0.74599999 -0.0078479191 1.5947849e-38 336 246
0.022235774 0.74599999 -0.0078479191 1.5855653e-38 337 246
0.023543758 0.74599999 -0.0078479191 1.5946402e-38 338 246
0.024885058 0.74699998 -0.0078584393 1.5762371e-38 339 246
0.026194798 0.74699998 -0.0078584393 1.5760573e-38 340 246
0.027578179 0.74900001 -0.0078794798 1.5760573e-38 341 246
0.028814279 0.74699998 -0.0078584393 1.5667304e-38 342 246
0.030124018 0.74699998 -0.0078584393 1.557475e-38 343 246
0.031433757 0.74699998 -0.0078584393 1.5299245e-38 344 246
0.032831166 0.74900001 -0.0078794798 1.5114495e-38 345 246
0.034144413 0.74900001 -0.0078794798 1.5114498e-38 346 246
0.03545766 0.74900001 -0.0078794798 1.4930105e-38 347 246
0.036819998 0.75 -0.00789 1.4654241e-38 348 246
0.038135 0.75 -0.00789 1.4562046e-38 349 246
0.039660402 0.75400001 -0.00793208 1.4376945e-38 350 246
0.041036766 0.755 -0.0079425992 1.4376945e-38 351 246
0.042360533 0.755 -0.0079425992 1.4285125e-38 352 246
0.043800019 0.75700003 -0.0079636406 1.4285125e-38 353 246
0.045127295 0.75700003 -0.0079636406 1.4470283e-38 354 246
-0.025518013 0.76599997 -0.0094013726 1.5579945e-38 301 247
-0.024174958 0.76599997 -0.0094013726 1.5763555e-38 302 247
-0.022831906 0.76599997 -0.0094013726 1.5487329e-38 303 247
-0.021488851 0.76599997 -0.0094013726 1.5580195e-38 304 247
-0.020172099 0.76700002 -0.0094136465 1.5580195e-38 305 247
-0.018802745 0.76599997 -0.0094013726 1.5856412e-38 306 247
-0.01736852 0.76200002 -0.0093522798 1.5672381e-38 307 247
-0.016011439 0.76099998 -0.0093400059 1.5764201e-38 308 247
-0.014600007 0.75700003 -0.0092909131 1.5856397e-38 309 247
-0.013237666 0.755 -0.0092663663 1.585675e-38 310 247
-0.011913899 0.755 -0.0092663663 1.5764554e-38 311 247
-0.010590133 0.755 -0.0092663663 1.5763848e-38 312 247
-0.0092540924 0.75400001 -0.0092540924 1.5948239e-38 313 247
-0.00793208 0.75400001 -0.0092540924 1.5673453e-38 314 247
-0.0066100666 0.75400001 -0.0092540924 1.576565e-38 315 247
-0.0052740262 0.75199997 -0.0092295464 1.585714e-38 316 247
-0.0039555198 0.75199997 -0.0092295464 1.5949694e-38 317 247
-0.00263 0.75 -0.0092049995 1.6133019e-38 318 247
-0.0013132467 0.74900001 -0.0091927266 1.6409966e-38 319 247
0 0.74900001 -0.0091927266 1.6684752e-38 320 247
0.0013132467 0.74900001 -0.0091927266 1.6961338e-38 321 247
0.0026194798 0.74699998 -0.0091681797 1.6777657e-38 322 247
0.0039292197 0.74699998 -0.0091681797 1.6777657e-38 323 247
0.0052389596 0.74699998 -0.0091681797 1.668653e-38 324 247
0.0065486995 0.74699998 -0.0091681797 1.6594335e-38 325 247
0.0078584393 0.74699998 -0.0091681797 1.6686881e-38 326 247
0.0091681797 0.74699998 -0.0091681797 1.6594684e-38 327 247
0.010477919 0.74699998 -0.0091681797 1.6869473e-38 328 247
0.011787659 0.74699998 -0.0091681797 1.6777277e-38 329 247
0.013097399 0.74699998 -0.0091681797 1.6318101e-38 330 247
0.014387853 0.74599999 -0.0091559067 1.6225905e-38 331 247
0.015695838 0.74599999 -0.0091559067 1.6134057e-38 332 247
0.017003827 0.74599999 -0.0091559067 1.6041862e-38 333 247
0.018311813 0.74599999 -0.0091559067 1.6224441e-38 334 247
0.019619798 0.74599999 -0.0091559067 1.604005e-38 335 247
0.020927785 0.74599999 -0.0091559067 1.5947851e-38 336 247
0.022235774 0.74599999 -0.0091559067 1.57631e-38 337 247
0.023543758 0.74599999 -0.0091559067 1.5762018e-38 338 247
0.024885058 0.74699998 -0.0091681797 1.5669822e-38 339 247
0.026194798 0.74699998 -0.0091681797 1.5760939e-38 340 247
0.027504537 0.74699998 -0.0091681797 1.5484352e-38 341 247
0.028814279 0.74699998 -0.0091681797 1.5575474e-38 342 247
0.030204674 0.74900001 -0.0091927266 1.548292e-38 343 247
0.031517919 0.74900001 -0.0091927266 1.5114866e-38 344 247
0.032831166 0.74900001 -0.0091927266 1.4930835e-38 345 247
0.034144413 0.74900001 -0.0091927266 1.4838635e-38 346 247
0.035505001 0.75 -0.0092049995 1.4654244e-38 347 247
0.036918186 0.75199997 -0.0092295464 1.456169e-38 348 247
0.038338386 0.75400001 -0.0092540924 1.4469494e-38 349 247
0.039660402 0.75400001 -0.0092540924 1.4192561e-38 350 247
0.041036766 0.755 -0.0092663663 1.4376592e-38 351 247
0.042360533 0.755 -0.0092663663 1.4009986e-38 352 247
0.043915741 0.759 -0.00931546 1.4102181e-38 353 247
0.045246519 0.759 -0.00931546 1.4561775e-38 354 247
-0.024174958 0.76599997 -0.010744425 1.5855048e-38 302 248
-0.022831906 0.76599997 -0.010744425 1.5486625e-38 303 248
-0.021488851 0.76599997 -0.010744425 1.5579845e-38 304 248
-0.020172099 0.76700002 -0.010758453 1.5579845e-38 305 248
-0.018827293 0.76700002 -0.010758453 1.5672028e-38 306 248
-0.017414106 0.764 -0.010716373 1.5856059e-38 307 248
-0.016011439 0.76099998 -0.010674292 1.5672732e-38 308 248
-0.014638579 0.759 -0.01064624 1.5856763e-38 309 248
-0.013272733 0.75700003 -0.010618187 1.5580886e-38 310 248
-0.011913899 0.755 -0.010590133 1.5580886e-38 311 248
-0.010590133 0.755 -0.010590133 1.5671281e-38 312 248
-0.0092540924 0.75400001 -0.010576107 1.5763836e-38 313 248
-0.00793208 0.75400001 -0.010576107 1.5764201e-38 314 248
-0.0066100666 0.75400001 -0.010576107 1.5948593e-38 315 248
-0.0052880533 0.75400001 -0.010576107 1.6040795e-38 316 248
-0.0039555198 0.75199997 -0.010548052 1.6040795e-38 317 248
-0.00263 0.75 -0.01052 1.6223752e-38 318 248
-0.001315 0.75 -0.01052 1.6500697e-38 319 248
0 0.74900001 -0.010505973 1.6684009e-38 320 248
0.0013132467 0.74900001 -0.010505973 1.6960598e-38 321 248
0.0026194798 0.74699998 -0.010477919 1.6685809e-38 322 248
0.0039292197 0.74699998 -0.010477919 1.6685809e-38 323 248
0.0052389596 0.74699998 -0.010477919 1.6685809e-38 324 248
0.0065486995 0.74699998 -0.010477919 1.6685809e-38 325 248
0.0078584393 0.74699998 -0.010477919 1.6685809e-38 326 248
0.0091681797 0.74699998 -0.010477919 1.6593612e-38 327 248
0.010477919 0.74699998 -0.010477919 1.6500697e-38 328 248
0.011787659 0.74699998 -0.010477919 1.6500697e-38 329 248
0.013097399 0.74699998 -0.010477919 1.640922e-38 330 248
0.014407139 0.74699998 -0.010477919 1.640922e-38 331 248
0.015695838 0.74599999 -0.010463892 1.6225903e-38 332 248
0.017003827 0.74599999 -0.010463892 1.5949314e-38 333 248
0.018311813 0.74599999 -0.010463892 1.6132258e-38 334 248
0.019619798 0.74599999 -0.010463892 1.5763836e-38 335 248
0.020927785 0.74599999 -0.010463892 1.5946782e-38 336 248
0.022235774 0.74599999 -0.010463892 1.5854226e-38 337 248
0.023543758 0.74599999 -0.010463892 1.5578716e-38 338 248
0.024885058 0.74699998 -0.010477919 1.5394324e-38 339 248
0.026194798 0.74699998 -0.010477919 1.5576918e-38 340 248
0.027504537 0.74699998 -0.010477919 1.5392525e-38 341 248
0.028814279 0.74699998 -0.010477919 1.5298895e-38 342 248
0.030204674 0.74900001 -0.010505973 1.5114145e-38 343 248
0.031517919 0.74900001 -0.010505973 1.502195e-38 344 248
0.032831166 0.74900001 -0.010505973 1.4929396e-38 345 248
0.034144413 0.74900001 -0.010505973 1.4837206e-38 346 248
0.035599679 0.75199997 -0.010548052 1.4652816e-38 347 248
0.036918186 0.75199997 -0.010548052 1.4561339e-38 348 248
0.038338386 0.75400001 -0.010576107 1.4376948e-38 349 248
0.039712999 0.755 -0.010590133 1.4193283e-38 350 248
0.041145474 0.75700003 -0.010618187 1.4193283e-38 351 248
0.042472746 0.75700003 -0.010618187 1.4101826e-38 352 248
0.044031456 0.76099998 -0.010674292 1.419438e-38 353 248
0.045365743 0.76099998 -0.010674292 1.4654338e-38 354 248
-0.022861714 0.76700002 -0.01210326 1.5486991e-38 303 249
-0.021516906 0.76700002 -0.01210326 1.5487296e-38 304 249
-0.0202247 0.76899999 -0.012134819 1.5487296e-38 305 249
-0.018827293 0.76700002 -0.01210326 1.5580551e-38 306 249
-0.017482487 0.76700002 -0.01210326 1.5580551e-38 307 249
-0.016074561 0.764 -0.01205592 1.5672734e-38 308 249
-0.014677152 0.76099998 -0.012008579 1.5672734e-38 309 249
-0.013272733 0.75700003 -0.01194546 1.5580889e-38 310 249
-0.01194546 0.75700003 -0.01194546 1.5580889e-38 311 249
-0.010590133 0.755 -0.011913899 1.5671287e-38 312 249
-0.0092663663 0.755 -0.011913899 1.5763482e-38 313 249
-0.0079425992 0.755 -0.011913899 1.5580533e-38 314 249
-0.0066100666 0.75400001 -0.01189812 1.5580533e-38 315 249
-0.0052880533 0.75400001 -0.01189812 1.5856044e-38 316 249
-0.00396604 0.75400001 -0.01189812 1.5948239e-38 317 249
-0.0026370131 0.75199997 -0.011866559 1.6131555e-38 318 249
-0.0013185065 0.75199997 -0.011866559 1.6223752e-38 319 249
0 0.75 -0.011835 1.6132635e-38 320 249
0.0013132467 0.74900001 -0.01181922 1.640922e-38 321 249
0.0026264933 0.74900001 -0.01181922 1.6317748e-38 322 249
0.0039397399 0.74900001 -0.01181922 1.6501779e-38 323 249
0.0052389596 0.74699998 -0.011787659 1.6317395e-38 324 249
0.0065486995 0.74699998 -0.011787659 1.6317395e-38 325 249
0.0078584393 0.74699998 -0.011787659 1.6317751e-38 326 249
0.0091927266 0.74900001 -0.01181922 1.6317751e-38 327 249
0.010505973 0.74900001 -0.01181922 1.6132638e-38 328 249
0.01181922 0.74900001 -0.01181922 1.6040442e-38 329 249
0.013097399 0.74699998 -0.011787659 1.6041161e-38 330 249
0.014407139 0.74699998 -0.011787659 1.6041161e-38 331 249
0.015716879 0.74699998 -0.011787659 1.6132991e-38 332 249
0.017026618 0.74699998 -0.011787659 1.5948239e-38 333 249
0.018311813 0.74599999 -0.011771879 1.6040062e-38 334 249
0.019619798 0.74599999 -0.011771879 1.5671281e-38 335 249
0.020955838 0.74699998 -0.011787659 1.5855303e-38 336 249
0.022265578 0.74699998 -0.011787659 1.548652e-38 337 249
0.023575317 0.74699998 -0.011787659 1.5669832e-38 338 249
0.024885058 0.74699998 -0.011787659 1.5393606e-38 339 249
0.026264934 0.74900001 -0.01181922 1.520886e-38 340 249
0.027578179 0.74900001 -0.01181922 1.5024468e-38 341 249
0.028891427 0.74900001 -0.01181922 1.4839e-38 342 249
0.030204674 0.74900001 -0.01181922 1.4746803e-38 343 249
0.031517919 0.74900001 -0.01181922 1.4470223e-38 344 249
0.032831166 0.74900001 -0.01181922 1.4470223e-38 345 249
0.034281172 0.75199997 -0.011866559 1.4469872e-38 346 249
0.035599679 0.75199997 -0.011866559 1.4469872e-38 347 249
0.037016369 0.75400001 -0.01189812 1.4377677e-38 348 249
0.038389232 0.755 -0.011913899 1.4285481e-38 349 249
0.039712999 0.755 -0.011913899 1.4192576e-38 350 249
0.041145474 0.75700003 -0.01194546 1.4284772e-38 351 249
0.042472746 0.75700003 -0.01194546 1.4101844e-38 352 249
0.044031456 0.76099998 -0.012008579 1.4286236e-38 353 249
0.045365743 0.76099998 -0.012008579 1.4746908e-38 354 249
-0.021573013 0.76899999 -0.013483133 1.5302915e-38 304 250
-0.0202247 0.76899999 -0.013483133 1.5302915e-38 305 250
-0.018827293 0.76700002 -0.013448066 1.5303969e-38 306 250
-0.017482487 0.76700002 -0.013448066 1.5303969e-38 307 250
-0.016074561 0.764 -0.013395466 1.5487631e-38 308 250
-0.014677152 0.76099998 -0.013342866 1.5487631e-38 309 250
-0.0133078 0.759 -0.0133078 1.5488338e-38 310 250
-0.01194546 0.75700003 -0.013272733 1.5488338e-38 311 250
-0.010590133 0.755 -0.013237666 1.5671284e-38 312 250
-0.0092663663 0.755 -0.013237666 1.5671284e-38 313 250
-0.0079425992 0.755 -0.013237666 1.5672003e-38 314 250
-0.0066100666 0.75400001 -0.013220133 1.5672003e-38 315 250
-0.0052880533 0.75400001 -0.013220133 1.5763482e-38 316 250
-0.00396604 0.75400001 -0.013220133 1.5855678e-38 317 250
-0.0026370131 0.75199997 -0.013185065 1.603899e-38 318 250
-0.0013185065 0.75199997 -0.013185065 1.6223382e-38 319 250
0 0.75199997 -0.013185065 1.5948595e-38 320 250
0.001315 0.75 -0.01315 1.6040791e-38 321 250
0.0026264933 0.74900001 -0.013132467 1.6133357e-38 322 250
0.0039397399 0.74900001 -0.013132467 1.6225552e-38 323 250
0.0052529867 0.74900001 -0.013132467 1.6316319e-38 324 250
0.0065662335 0.74900001 -0.013132467 1.6316319e-38 325 250
0.0078794798 0.74900001 -0.013132467 1.6133001e-38 326 250
0.0091927266 0.74900001 -0.013132467 1.6040805e-38 327 250
0.010505973 0.74900001 -0.013132467 1.6223752e-38 328 250
0.01181922 0.74900001 -0.013132467 1.6039359e-38 329 250
0.013132467 0.74900001 -0.013132467 1.5948245e-38 330 250
0.014407139 0.74699998 -0.013097399 1.6040442e-38 331 250
0.015716879 0.74699998 -0.013097399 1.5856047e-38 332 250
0.017026618 0.74699998 -0.013097399 1.5763851e-38 333 250
0.018336359 0.74699998 -0.013097399 1.5672e-38 334 250
0.019646099 0.74699998 -0.013097399 1.5395772e-38 335 250
0.020955838 0.74699998 -0.013097399 1.5763106e-38 336 250
0.022265578 0.74699998 -0.013097399 1.5394324e-38 337 250
0.023575317 0.74699998 -0.013097399 1.5577639e-38 338 250
0.024951685 0.74900001 -0.013132467 1.5301413e-38 339 250
0.026264934 0.74900001 -0.013132467 1.5116664e-38 340 250
0.027615 0.75 -0.01315 1.4932273e-38 341 250
0.028891427 0.74900001 -0.013132467 1.4839e-38 342 250
0.030204674 0.74900001 -0.013132467 1.4654607e-38 343 250
0.031517919 0.74900001 -0.013132467 1.4378743e-38 344 250
0.032962665 0.75199997 -0.013185065 1.4378743e-38 345 250
0.034281172 0.75199997 -0.013185065 1.4377674e-38 346 250
0.035694357 0.75400001 -0.013220133 1.4377674e-38 347 250
0.037065465 0.755 -0.013237666 1.4377321e-38 348 250
0.038490929 0.75700003 -0.013272733 1.4377321e-38 349 250
0.0399234 0.759 -0.0133078 1.410111e-38 350 250
0.041254178 0.759 -0.0133078 1.4285141e-38 351 250
0.042697169 0.76099998 -0.013342866 1.4010025e-38 352 250
0.044089317 0.76200002 -0.0133604 1.4471002e-38 353 250
-0.0202247 0.76899999 -0.014831445 1.5027067e-38 305 251
-0.018876385 0.76899999 -0.014831445 1.5303616e-38 306 251
-0.017482487 0.76700002 -0.014792874 1.521142e-38 307 251
-0.016116638 0.76599997 -0.014773586 1.5395438e-38 308 251
-0.014735013 0.764 -0.014735013 1.5395438e-38 309 251
-0.013342866 0.76099998 -0.014677152 1.5487621e-38 310 251
-0.01197702 0.759 -0.014638579 1.5487621e-38 311 251
-0.010618187 0.75700003 -0.014600007 1.5672006e-38 312 251
-0.0092663663 0.755 -0.014561433 1.5487616e-38 313 251
-0.0079425992 0.755 -0.014561433 1.5487616e-38 314 251
-0.0066188332 0.755 -0.014561433 1.5487616e-38 315 251
-0.0052950666 0.755 -0.014561433 1.5671284e-38 316 251
-0.00396604 0.75400001 -0.014542146 1.576348e-38 317 251
-0.0026440267 0.75400001 -0.014542146 1.5947148e-38 318 251
-0.0013220133 0.75400001 -0.014542146 1.6039343e-38 319 251
0 0.75199997 -0.014503572 1.6039346e-38 320 251
0.0013185065 0.75199997 -0.014503572 1.6223738e-38 321 251
0.00263 0.75 -0.014465 1.6224108e-38 322 251
0.003945 0.75 -0.014465 1.6316303e-38 323 251
0.0052529867 0.74900001 -0.014445714 1.6315947e-38 324 251
0.0065662335 0.74900001 -0.014445714 1.6223752e-38 325 251
0.0078794798 0.74900001 -0.014445714 1.6040439e-38 326 251
0.0091927266 0.74900001 -0.014445714 1.6040439e-38 327 251
0.010505973 0.74900001 -0.014445714 1.6131557e-38 328 251
0.01181922 0.74900001 -0.014445714 1.6039362e-38 329 251
0.013132467 0.74900001 -0.014445714 1.5763498e-38 330 251
0.014445714 0.74900001 -0.014445714 1.5855694e-38 331 251
0.015716879 0.74699998 -0.014407139 1.5671297e-38 332 251
0.017026618 0.74699998 -0.014407139 1.5671297e-38 333 251
0.018336359 0.74699998 -0.014407139 1.5671281e-38 334 251
0.019646099 0.74699998 -0.014407139 1.5486889e-38 335 251
0.021011947 0.74900001 -0.014445714 1.5395399e-38 336 251
0.022325192 0.74900001 -0.014445714 1.5211009e-38 337 251
0.02363844 0.74900001 -0.014445714 1.5302129e-38 338 251
0.024951685 0.74900001 -0.014445714 1.5117736e-38 339 251
0.026264934 0.74900001 -0.014445714 1.5024113e-38 340 251
0.027615 0.75 -0.014465 1.4747886e-38 341 251
0.028929999 0.75 -0.014465 1.4563139e-38 342 251
0.030244999 0.75 -0.014465 1.4563139e-38 343 251
0.031644158 0.75199997 -0.014503572 1.4287632e-38 344 251
0.032962665 0.75199997 -0.014503572 1.4195078e-38 345 251
0.034372345 0.75400001 -0.014542146 1.437804e-38 346 251
0.035694357 0.75400001 -0.014542146 1.437804e-38 347 251
0.037065465 0.755 -0.014561433 1.4285491e-38 348 251
0.038592618 0.759 -0.014638579 1.4285491e-38 349 251
0.0399234 0.759 -0.014638579 1.4101831e-38 350 251
0.041362885 0.76099998 -0.014677152 1.4194027e-38 351 251
0.042697169 0.76099998 -0.014677152 1.3918924e-38 352 251
0.044089317 0.76200002 -0.01469644 1.484052e-38 353 251
-0.018876385 0.76899999 -0.016179759 1.5119227e-38 306 252
-0.017528072 0.76899999 -0.016179759 1.5119227e-38 307 252
-0.01613768 0.76700002 -0.01613768 1.5119575e-38 308 252
-0.014735013 0.764 -0.016074561 1.5119575e-38 309 252
-0.0133604 0.76200002 -0.01603248 1.5395792e-38 310 252
-0.012008579 0.76099998 -0.016011439 1.5395792e-38 311 252
-0.010674292 0.76099998 -0.016011439 1.5395786e-38 312 252
-0.0092909131 0.75700003 -0.015927281 1.5395786e-38 313 252
-0.0079636406 0.75700003 -0.015927281 1.5487621e-38 314 252
-0.0066363667 0.75700003 -0.015927281 1.5487621e-38 315 252
-0.0052950666 0.755 -0.015885198 1.5487616e-38 316 252
-0.0039712996 0.755 -0.015885198 1.5487616e-38 317 252
-0.0026475333 0.755 -0.015885198 1.5671284e-38 318 252
-0.0013220133 0.75400001 -0.01586416 1.5671284e-38 319 252
0 0.75400001 -0.01586416 1.5670578e-38 320 252
0.0013220133 0.75400001 -0.01586416 1.5855328e-38 321 252
0.0026370131 0.75199997 -0.015822079 1.5855696e-38 322 252
0.0039555198 0.75199997 -0.015822079 1.5947892e-38 323 252
0.00526 0.75 -0.01578 1.5947889e-38 324 252
0.006575 0.75 -0.01578 1.5947889e-38 325 252
0.00789 0.75 -0.01578 1.5856412e-38 326 252
0.0092049995 0.75 -0.01578 1.5672381e-38 327 252
0.01052 0.75 -0.01578 1.5855696e-38 328 252
0.01181922 0.74900001 -0.01575896 1.5763142e-38 329 252
0.013132467 0.74900001 -0.01575896 1.5671302e-38 330 252
0.014445714 0.74900001 -0.01575896 1.5487271e-38 331 252
0.01575896 0.74900001 -0.01575896 1.5395789e-38 332 252
0.017072206 0.74900001 -0.01575896 1.5395789e-38 333 252
0.018385453 0.74900001 -0.01575896 1.5579087e-38 334 252
0.0196987 0.74900001 -0.01575896 1.5486891e-38 335 252
0.021011947 0.74900001 -0.01575896 1.548652e-38 336 252
0.022325192 0.74900001 -0.01575896 1.5302129e-38 337 252
0.02363844 0.74900001 -0.01575896 1.511738e-38 338 252
0.024951685 0.74900001 -0.01575896 1.4841153e-38 339 252
0.026264934 0.74900001 -0.01575896 1.4749326e-38 340 252
0.027615 0.75 -0.01578 1.4472741e-38 341 252
0.028929999 0.75 -0.01578 1.4471665e-38 342 252
0.030244999 0.75 -0.01578 1.4287632e-38 343 252
0.031644158 0.75199997 -0.015822079 1.4378396e-38 344 252
0.033050332 0.75400001 -0.01586416 1.4378396e-38 345 252
0.034372345 0.75400001 -0.01586416 1.4378043e-38 346 252
0.035741698 0.755 -0.015885198 1.4285847e-38 347 252
0.037163652 0.75700003 -0.015927281 1.4285497e-38 348 252
0.038694311 0.76099998 -0.016011439 1.4377692e-38 349 252
0.040028598 0.76099998 -0.016011439 1.4194044e-38 350 252
0.041417241 0.76200002 -0.01603248 1.4378435e-38 351 252
0.042865492 0.764 -0.016074561 1.419553e-38 352 252
0.044320758 0.76599997 -0.016116638 1.5209681e-38 353 252
-0.018925481 0.77100003 -0.01757366 1.4933778e-38 306 253
-0.017528072 0.76899999 -0.017528072 1.5025975e-38 307 253
-0.016179759 0.76899999 -0.017528072 1.5210337e-38 308 253
-0.014792874 0.76700002 -0.017482487 1.5302892e-38 309 253
-0.013430533 0.76599997 -0.017459691 1.5395441e-38 310 253
-0.01202436 0.76200002 -0.01736852 1.5395441e-38 311 253
-0.01068832 0.76200002 -0.01736852 1.5395792e-38 312 253
-0.00931546 0.759 -0.017300138 1.5395792e-38 313 253
-0.0079636406 0.75700003 -0.017254554 1.5487621e-38 314 253
-0.0066363667 0.75700003 -0.017254554 1.5487621e-38 315 253
-0.0053090933 0.75700003 -0.017254554 1.5762048e-38 316 253
-0.0039712996 0.755 -0.017208965 1.5762048e-38 317 253
-0.0026475333 0.755 -0.017208965 1.5762402e-38 318 253
-0.0013237667 0.755 -0.017208965 1.5578371e-38 319 253
0 0.755 -0.017208965 1.5762048e-38 320 253
0.0013237667 0.755 -0.017208965 1.5854243e-38 321 253
0.0026440267 0.75400001 -0.017186172 1.5854246e-38 322 253
0.0039555198 0.75199997 -0.017140586 1.5854246e-38 323 253
0.0052740262 0.75199997 -0.017140586 1.5854246e-38 324 253
0.0065925326 0.75199997 -0.017140586 1.5946442e-38 325 253
0.00789 0.75 -0.017095 1.5856047e-38 326 253
0.0092049995 0.75 -0.017095 1.5763851e-38 327 253
0.01052 0.75 -0.017095 1.5762776e-38 328 253
0.011835 0.75 -0.017095 1.5762776e-38 329 253
0.01315 0.75 -0.017095 1.5670934e-38 330 253
0.014465 0.75 -0.017095 1.5670934e-38 331 253
0.01575896 0.74900001 -0.017072206 1.5396492e-38 332 253
0.017072206 0.74900001 -0.017072206 1.5304295e-38 333 253
0.018385453 0.74900001 -0.017072206 1.5396125e-38 334 253
0.0196987 0.74900001 -0.017072206 1.5211734e-38 335 253
0.021011947 0.74900001 -0.017072206 1.5211012e-38 336 253
0.022325192 0.74900001 -0.017072206 1.5026621e-38 337 253
0.02363844 0.74900001 -0.017072206 1.4934071e-38 338 253
0.024984999 0.75 -0.017095 1.4841875e-38 339 253
0.0263 0.75 -0.017095 1.4472388e-38 340 253
0.027615 0.75 -0.017095 1.4380192e-38 341 253
0.028929999 0.75 -0.017095 1.4287279e-38 342 253
0.030325651 0.75199997 -0.017140586 1.4471312e-38 343 253
0.03172832 0.75400001 -0.017186172 1.4470241e-38 344 253
0.033050332 0.75400001 -0.017186172 1.4378045e-38 345 253
0.034417931 0.755 -0.017208965 1.4193671e-38 346 253
0.03583638 0.75700003 -0.017254554 1.4193671e-38 347 253
0.03726184 0.759 -0.017300138 1.4193676e-38 348 253
0.038694311 0.76099998 -0.017345725 1.4285874e-38 349 253
0.040081199 0.76200002 -0.01736852 1.4286608e-38 350 253
0.041417241 0.76200002 -0.01736852 1.4378803e-38 351 253
0.042753279 0.76200002 -0.01736852 1.4471407e-38 352 253
-0.018925481 0.77100003 -0.018925481 1.4841956e-38 306 254
-0.01757366 0.77100003 -0.018925481 1.5025988e-38 307 254
-0.016179759 0.76899999 -0.018876385 1.5119227e-38 308 254
-0.014792874 0.76700002 -0.018827293 1.5119227e-38 309 254
-0.013448066 0.76700002 -0.018827293 1.5211776e-38 310 254
-0.01205592 0.764 -0.018753653 1.5119221e-38 311 254
-0.010716373 0.764 -0.018753653 1.5212126e-38 312 254
-0.0093400059 0.76099998 -0.018680012 1.5119931e-38 313 254
-0.0080057196 0.76099998 -0.018680012 1.530324e-38 314 254
-0.0066538998 0.759 -0.01863092 1.5211043e-38 315 254
-0.0053231199 0.759 -0.01863092 1.530252e-38 316 254
-0.0039818203 0.75700003 -0.018581826 1.5394717e-38 317 254
-0.0026545466 0.75700003 -0.018581826 1.539507e-38 318 254
-0.0013272733 0.75700003 -0.018581826 1.539507e-38 319 254
0 0.755 -0.018532733 1.539507e-38 320 254
0.0013237667 0.755 -0.018532733 1.5487266e-38 321 254
0.0026475333 0.755 -0.018532733 1.5487268e-38 322 254
0.00396604 0.75400001 -0.018508185 1.5487268e-38 323 254
0.0052880533 0.75400001 -0.018508185 1.5487266e-38 324 254
0.0066100666 0.75400001 -0.018508185 1.5671297e-38 325 254
0.0079110395 0.75199997 -0.018459093 1.5580183e-38 326 254
0.0092295464 0.75199997 -0.018459093 1.5395792e-38 327 254
0.010548052 0.75199997 -0.018459093 1.5487271e-38 328 254
0.011866559 0.75199997 -0.018459093 1.5394717e-38 329 254
0.013185065 0.75199997 -0.018459093 1.5487621e-38 330 254
0.014465 0.75 -0.018409999 1.5395426e-38 331 254
0.01578 0.75 -0.018409999 1.5304298e-38 332 254
0.017095 0.75 -0.018409999 1.5304298e-38 333 254
0.018409999 0.75 -0.018409999 1.5303929e-38 334 254
0.019724999 0.75 -0.018409999 1.5119179e-38 335 254
0.02104 0.75 -0.018409999 1.5302129e-38 336 254
0.022355 0.75 -0.018409999 1.5209933e-38 337 254
0.023733119 0.75199997 -0.018459093 1.4841522e-38 338 254
0.025051624 0.75199997 -0.018459093 1.4472741e-38 339 254
0.02637013 0.75199997 -0.018459093 1.4472391e-38 340 254
0.027688639 0.75199997 -0.018459093 1.4287999e-38 341 254
0.029007144 0.75199997 -0.018459093 1.4471314e-38 342 254
0.030406307 0.75400001 -0.018508185 1.4471314e-38 343 254
0.03172832 0.75400001 -0.018508185 1.4286573e-38 344 254
0.033094164 0.755 -0.018532733 1.4194377e-38 345 254
0.034417931 0.755 -0.018532733 1.4193671e-38 346 254
0.03583638 0.75700003 -0.018581826 1.4193671e-38 347 254
0.03726184 0.759 -0.01863092 1.4101847e-38 348 254
0.038694311 0.76099998 -0.018680012 1.4286239e-38 349 254
0.040028598 0.76099998 -0.018680012 1.4194788e-38 350 254
0.041362885 0.76099998 -0.018680012 1.4563211e-38 351 254
0.042753279 0.76200002 -0.01870456 1.4471787e-38 352 254
-0.018999118 0.77399999 -0.020356199 1.4658304e-38 306 255
-0.017619247 0.773 -0.0203299 1.4658304e-38 307 255
-0.016221842 0.77100003 -0.020277301 1.5119237e-38 308 255
-0.014831445 0.76899999 -0.0202247 1.5027041e-38 309 255
-0.013483133 0.76899999 -0.0202247 1.5119221e-38 310 255
-0.01210326 0.76700002 -0.020172099 1.5119221e-38 311 255
-0.010758453 0.76700002 -0.020172099 1.5119931e-38 312 255
-0.0093768267 0.764 -0.020093199 1.5119931e-38 313 255
-0.0080372803 0.764 -0.020093199 1.5211043e-38 314 255
-0.0066801999 0.76200002 -0.0200406 1.5211043e-38 315 255
-0.0053371461 0.76099998 -0.020014299 1.530252e-38 316 255
-0.0040028598 0.76099998 -0.020014299 1.530252e-38 317 255
-0.00266156 0.759 -0.0199617 1.530252e-38 318 255
-0.0013272733 0.75700003 -0.019909101 1.530252e-38 319 255
0 0.75700003 -0.019909101 1.5302876e-38 320 255
0.0013272733 0.75700003 -0.019909101 1.5302876e-38 321 255
0.0026475333 0.755 -0.0198565 1.5578735e-38 322 255
0.0039712996 0.755 -0.0198565 1.5670931e-38 323 255
0.0052880533 0.75400001 -0.019830201 1.5579087e-38 324 255
0.0066100666 0.75400001 -0.019830201 1.5579087e-38 325 255
0.00793208 0.75400001 -0.019830201 1.5395426e-38 326 255
0.0092540924 0.75400001 -0.019830201 1.5395426e-38 327 255
0.010576107 0.75400001 -0.019830201 1.5395426e-38 328 255
0.01189812 0.75400001 -0.019830201 1.530287e-38 329 255
0.013185065 0.75199997 -0.0197776 1.5303223e-38 330 255
0.014503572 0.75199997 -0.0197776 1.5303223e-38 331 255
0.015822079 0.75199997 -0.0197776 1.5486889e-38 332 255
0.017140586 0.75199997 -0.0197776 1.5486889e-38 333 255
0.018459093 0.75199997 -0.0197776 1.5211378e-38 334 255
0.019830201 0.75400001 -0.019830201 1.5026987e-38 335 255
0.021096105 0.75199997 -0.0197776 1.5209583e-38 336 255
0.022414612 0.75199997 -0.0197776 1.4932996e-38 337 255
0.023733119 0.75199997 -0.0197776 1.4748617e-38 338 255
0.025051624 0.75199997 -0.0197776 1.4564586e-38 339 255
0.02637013 0.75199997 -0.0197776 1.4470958e-38 340 255
0.027762281 0.75400001 -0.019830201 1.4470958e-38 341 255
0.029084291 0.75400001 -0.019830201 1.4286923e-38 342 255
0.030446632 0.755 -0.0198565 1.4286923e-38 343 255
0.031770397 0.755 -0.0198565 1.4194024e-38 344 255
0.033094164 0.755 -0.0198565 1.428622e-38 345 255
0.034509107 0.75700003 -0.019909101 1.4101847e-38 346 255
0.035931058 0.759 -0.0199617 1.4101847e-38 347 255
0.03726184 0.759 -0.0199617 1.4102224e-38 348 255
0.038745161 0.76200002 -0.0200406 1.437845e-38 349 255
0.040028598 0.76099998 -0.020014299 1.4378843e-38 350 255
0.041362885 0.76099998 -0.020014299 1.4655788e-38 351 255
-0.018999118 0.77399999 -0.021713279 1.4475726e-38 306 256
-0.017619247 0.773 -0.021685226 1.438353e-38 307 256
-0.016263919 0.773 -0.021685226 1.4843382e-38 308 256
-0.01487002 0.77100003 -0.021629119 1.4750827e-38 309 256
-0.013483133 0.76899999 -0.021573013 1.5027027e-38 310 256
-0.012134819 0.76899999 -0.021573013 1.5027027e-38 311 256
-0.010786506 0.76899999 -0.021573013 1.5211046e-38 312 256
-0.0094136465 0.76700002 -0.021516906 1.5303243e-38 313 256
-0.0080583189 0.76599997 -0.021488851 1.5027731e-38 314 256
-0.006697733 0.764 -0.021432746 1.5027731e-38 315 256
-0.0053441599 0.76200002 -0.02137664 1.5211043e-38 316 256
-0.0040081199 0.76200002 -0.02137664 1.5211043e-38 317 256
-0.00266156 0.759 -0.02129248 1.5211046e-38 318 256
-0.00133078 0.759 -0.02129248 1.493446e-38 319 256
0 0.759 -0.02129248 1.5118128e-38 320 256
0.00133078 0.759 -0.02129248 1.5210324e-38 321 256
0.0026545466 0.75700003 -0.021236373 1.5486185e-38 322 256
0.0039712996 0.755 -0.021180267 1.5578382e-38 323 256
0.0052950666 0.755 -0.021180267 1.5486541e-38 324 256
0.0066188332 0.755 -0.021180267 1.5486541e-38 325 256
0.00793208 0.75400001 -0.021152213 1.5302876e-38 326 256
0.0092540924 0.75400001 -0.021152213 1.5302876e-38 327 256
0.010576107 0.75400001 -0.021152213 1.5211396e-38 328 256
0.01189812 0.75400001 -0.021152213 1.5211396e-38 329 256
0.013220133 0.75400001 -0.021152213 1.5027362e-38 330 256
0.014542146 0.75400001 -0.021152213 1.5211393e-38 331 256
0.01586416 0.75400001 -0.021152213 1.5486538e-38 332 256
0.017186172 0.75400001 -0.021152213 1.5394343e-38 333 256
0.018508185 0.75400001 -0.021152213 1.5118832e-38 334 256
0.019830201 0.75400001 -0.021152213 1.5026636e-38 335 256
0.021152213 0.75400001 -0.021152213 1.4933722e-38 336 256
0.022474226 0.75400001 -0.021152213 1.4564939e-38 337 256
0.02379624 0.75400001 -0.021152213 1.4472391e-38 338 256
0.025118252 0.75400001 -0.021152213 1.4472391e-38 339 256
0.026440267 0.75400001 -0.021152213 1.4287643e-38 340 256
0.027762281 0.75400001 -0.021152213 1.4287643e-38 341 256
0.029122867 0.755 -0.021180267 1.4286923e-38 342 256
0.030446632 0.755 -0.021180267 1.4286923e-38 343 256
0.031854562 0.75700003 -0.021236373 1.410255e-38 344 256
0.033181835 0.75700003 -0.021236373 1.4194746e-38 345 256
0.034509107 0.75700003 -0.021236373 1.4010731e-38 346 256
0.035931058 0.759 -0.02129248 1.4102927e-38 347 256
0.037360024 0.76099998 -0.021348584 1.391928e-38 348 256
0.038745161 0.76200002 -0.02137664 1.4195507e-38 349 256
0.040081199 0.76200002 -0.02137664 1.4287741e-38 350 256
-0.01757366 0.77100003 -0.02298094 1.429136e-38 307 257
-0.016221842 0.77100003 -0.02298094 1.4567177e-38 308 257
-0.01487002 0.77100003 -0.02298094 1.4474982e-38 309 257
-0.013518199 0.77100003 -0.02298094 1.4934479e-38 310 257
-0.012134819 0.76899999 -0.022921326 1.4934479e-38 311 257
-0.010786506 0.76899999 -0.022921326 1.5026662e-38 312 257
-0.0094136465 0.76700002 -0.022861714 1.5026662e-38 313 257
-0.00806884 0.76700002 -0.022861714 1.5026659e-38 314 257
-0.006724033 0.76700002 -0.022861714 1.5026659e-38 315 257
-0.0053722127 0.76599997 -0.022831906 1.5211046e-38 316 257
-0.0040186401 0.764 -0.022772292 1.5026656e-38 317 257
-0.0026685731 0.76099998 -0.022682872 1.493446e-38 318 257
-0.0013342865 0.76099998 -0.022682872 1.493446e-38 319 257
0 0.76099998 -0.022682872 1.5118128e-38 320 257
0.0013342865 0.76099998 -0.022682872 1.5118128e-38 321 257
0.00266156 0.759 -0.02262326 1.5209605e-38 322 257
0.0039923396 0.759 -0.02262326 1.5393636e-38 323 257
0.0053090933 0.75700003 -0.022563647 1.5210324e-38 324 257
0.0066363667 0.75700003 -0.022563647 1.5210324e-38 325 257
0.0079425992 0.755 -0.022504034 1.5210321e-38 326 257
0.0092663663 0.755 -0.022504034 1.5118126e-38 327 257
0.010590133 0.755 -0.022504034 1.5027365e-38 328 257
0.011913899 0.755 -0.022504034 1.5027365e-38 329 257
0.013237666 0.755 -0.022504034 1.5027365e-38 330 257
0.014561433 0.755 -0.022504034 1.5027365e-38 331 257
0.015885198 0.755 -0.022504034 1.5210321e-38 332 257
0.017208965 0.755 -0.022504034 1.5118126e-38 333 257
0.018532733 0.755 -0.022504034 1.5118479e-38 334 257
0.0198565 0.755 -0.022504034 1.4750056e-38 335 257
0.021180267 0.755 -0.022504034 1.4841166e-38 336 257
0.022504034 0.755 -0.022504034 1.4564939e-38 337 257
0.023827799 0.755 -0.022504034 1.4472744e-38 338 257
0.025151566 0.755 -0.022504034 1.4380548e-38 339 257
0.026475333 0.755 -0.022504034 1.4471309e-38 340 257
0.027799098 0.755 -0.022504034 1.4287276e-38 341 257
0.029200014 0.75700003 -0.022563647 1.4286926e-38 342 257
0.030607941 0.759 -0.02262326 1.419473e-38 343 257
0.032022879 0.76099998 -0.022682872 1.4194746e-38 344 257
0.033357166 0.76099998 -0.022682872 1.4194746e-38 345 257
0.034691449 0.76099998 -0.022682872 1.4011094e-38 346 257
0.036073081 0.76200002 -0.02271268 1.410329e-38 347 257
0.037409119 0.76200002 -0.02271268 1.4011491e-38 348 257
0.038846854 0.764 -0.022772292 1.4195884e-38 349 257
-0.016221842 0.77100003 -0.02433276 1.4383527e-38 308 258
-0.01487002 0.77100003 -0.02433276 1.4015105e-38 309 258
-0.013518199 0.77100003 -0.02433276 1.4933422e-38 310 258
-0.012134819 0.76899999 -0.024269639 1.4841226e-38 311 258
-0.010786506 0.76899999 -0.024269639 1.4933762e-38 312 258
-0.0094136465 0.76700002 -0.024206521 1.4933762e-38 313 258
-0.00806884 0.76700002 -0.024206521 1.4934107e-38 314 258
-0.006724033 0.76700002 -0.024206521 1.5026662e-38 315 258
-0.0053722127 0.76599997 -0.024174958 1.5211046e-38 316 258
-0.0040291594 0.76599997 -0.024174958 1.5026656e-38 317 258
-0.0026790933 0.764 -0.024111839 1.5027012e-38 318 258
-0.0013395466 0.764 -0.024111839 1.4842621e-38 319 258
0 0.764 -0.024111839 1.5025933e-38 320 258
0.00133604 0.76200002 -0.02404872 1.4841902e-38 321 258
0.0026685731 0.76099998 -0.024017159 1.5117054e-38 322 258
0.0039923396 0.759 -0.023954039 1.5209608e-38 323 258
0.0053231199 0.759 -0.023954039 1.5117773e-38 324 258
0.0066538998 0.759 -0.023954039 1.5117773e-38 325 258
0.0079846792 0.759 -0.023954039 1.5118126e-38 326 258
0.00931546 0.759 -0.023954039 1.5118126e-38 327 258
0.010618187 0.75700003 -0.02389092 1.5118479e-38 328 258
0.01194546 0.75700003 -0.02389092 1.5118479e-38 329 258
0.013272733 0.75700003 -0.02389092 1.5118126e-38 330 258
0.014638579 0.759 -0.023954039 1.5118126e-38 331 258
0.015927281 0.75700003 -0.02389092 1.5118482e-38 332 258
0.017254554 0.75700003 -0.02389092 1.5025927e-38 333 258
0.018581826 0.75700003 -0.02389092 1.5026283e-38 334 258
0.0198565 0.755 -0.023827799 1.4750056e-38 335 258
0.021180267 0.755 -0.023827799 1.4657857e-38 336 258
0.022504034 0.755 -0.023827799 1.4565661e-38 337 258
0.023827799 0.755 -0.023827799 1.4381264e-38 338 258
0.025151566 0.755 -0.023827799 1.4289068e-38 339 258
0.026475333 0.755 -0.023827799 1.4287276e-38 340 258
0.027872739 0.75700003 -0.02389092 1.4287276e-38 341 258
0.029354304 0.76099998 -0.024017159 1.4194377e-38 342 258
0.030688593 0.76099998 -0.024017159 1.4286573e-38 343 258
0.032064959 0.76200002 -0.02404872 1.4010726e-38 344 258
0.033401001 0.76200002 -0.02404872 1.410328e-38 345 258
0.034737039 0.76200002 -0.02404872 1.4102589e-38 346 258
0.036073081 0.76200002 -0.02404872 1.4194785e-38 347 258
0.037409119 0.76200002 -0.02404872 1.4011152e-38 348 258
-0.014908593 0.773 -0.025751207 1.3831452e-38 309 259
-0.013553266 0.773 -0.025751207 1.4382068e-38 310 259
-0.01216638 0.77100003 -0.02568458 1.4289873e-38 311 259
-0.010786506 0.76899999 -0.025617953 1.4566422e-38 312 259
-0.0094381925 0.76899999 -0.025617953 1.4658617e-38 313 259
-0.0080898795 0.76899999 -0.025617953 1.484263e-38 314 259
-0.0067415666 0.76899999 -0.025617953 1.4934826e-38 315 259
-0.0053792265 0.76700002 -0.025551327 1.4935182e-38 316 259
-0.00403442 0.76700002 -0.025551327 1.4935182e-38 317 259
-0.0026861064 0.76599997 -0.025518013 1.493446e-38 318 259
-0.0013395466 0.764 -0.025451386 1.4842265e-38 319 259
0 0.764 -0.025451386 1.4841899e-38 320 259
0.0013395466 0.764 -0.025451386 1.4841899e-38 321 259
0.00267208 0.76200002 -0.02538476 1.5024858e-38 322 259
0.0040028598 0.76099998 -0.025351444 1.5117054e-38 323 259
0.0053371461 0.76099998 -0.025351444 1.4842267e-38 324 259
0.0066714329 0.76099998 -0.025351444 1.4934463e-38 325 259
0.0080057196 0.76099998 -0.025351444 1.4843337e-38 326 259
0.0093400059 0.76099998 -0.025351444 1.4843337e-38 327 259
0.01064624 0.759 -0.025284819 1.5210674e-38 328 259
0.01197702 0.759 -0.025284819 1.5210674e-38 329 259
0.0133078 0.759 -0.025284819 1.4935167e-38 330 259
0.014677152 0.76099998 -0.025351444 1.4935167e-38 331 259
0.016011439 0.76099998 -0.025351444 1.4842615e-38 332 259
0.017300138 0.759 -0.025284819 1.4842615e-38 333 259
0.01863092 0.759 -0.025284819 1.47497e-38 334 259
0.0199617 0.759 -0.025284819 1.4657503e-38 335 259
0.02129248 0.759 -0.025284819 1.4565661e-38 336 259
0.02262326 0.759 -0.025284819 1.4473107e-38 337 259
0.02389092 0.75700003 -0.025218192 1.4472391e-38 338 259
0.025218192 0.75700003 -0.025218192 1.4287999e-38 339 259
0.026545467 0.75700003 -0.025218192 1.4194377e-38 340 259
0.028020019 0.76099998 -0.025351444 1.4194377e-38 341 259
0.029392879 0.76200002 -0.02538476 1.4102197e-38 342 259
0.030809574 0.764 -0.025451386 1.4194394e-38 343 259
0.032149121 0.764 -0.025451386 1.4011097e-38 344 259
0.033488665 0.764 -0.025451386 1.4011097e-38 345 259
0.034828212 0.764 -0.025451386 1.4195153e-38 346 259
0.036167759 0.764 -0.025451386 1.4195153e-38 347 259
-0.01081456 0.77100003 -0.027036399 1.4474249e-38 312 260
-0.0094627403 0.77100003 -0.027036399 1.4474249e-38 313 260
-0.0081109209 0.77100003 -0.027036399 1.4842636e-38 314 260
-0.0067590997 0.77100003 -0.027036399 1.4934832e-38 315 260
-0.0053932532 0.76899999 -0.026966266 1.4934816e-38 316 260
-0.0040449398 0.76899999 -0.026966266 1.5027012e-38 317 260
-0.0026896133 0.76700002 -0.026896132 1.4934816e-38 318 260
-0.0013448066 0.76700002 -0.026896132 1.4934816e-38 319 260
0 0.76700002 -0.026896132 1.4842984e-38 320 260
0.0013430532 0.76599997 -0.026861066 1.4566757e-38 321 260
0.0026790933 0.764 -0.026790932 1.502558e-38 322 260
0.0040186401 0.764 -0.026790932 1.4841549e-38 323 260
0.0053441599 0.76200002 -0.0267208 1.4750072e-38 324 260
0.0066801999 0.76200002 -0.0267208 1.4842267e-38 325 260
0.0080162399 0.76200002 -0.0267208 1.502593e-38 326 260
0.0093522798 0.76200002 -0.0267208 1.502593e-38 327 260
0.010674292 0.76099998 -0.026685731 1.5118479e-38 328 260
0.012008579 0.76099998 -0.026685731 1.5210674e-38 329 260
0.013342866 0.76099998 -0.026685731 1.4934811e-38 330 260
0.014677152 0.76099998 -0.026685731 1.4842615e-38 331 260
0.016011439 0.76099998 -0.026685731 1.4842621e-38 332 260
0.017345725 0.76099998 -0.026685731 1.4657871e-38 333 260
0.018680012 0.76099998 -0.026685731 1.4749347e-38 334 260
0.0199617 0.759 -0.026615599 1.465715e-38 335 260
0.02129248 0.759 -0.026615599 1.4564958e-38 336 260
0.022682872 0.76099998 -0.026685731 1.4472403e-38 337 260
0.023954039 0.759 -0.026615599 1.4379138e-38 338 260
0.025284819 0.759 -0.026615599 1.4286943e-38 339 260
0.026685731 0.76099998 -0.026685731 1.41022e-38 340 260
0.028056841 0.76200002 -0.0267208 1.41022e-38 341 260
0.029392879 0.76200002 -0.0267208 1.4010375e-38 342 260
0.030809574 0.764 -0.026790932 1.4010375e-38 343 260
0.032233275 0.76599997 -0.026861066 1.4102236e-38 344 260
0.033576332 0.76599997 -0.026861066 1.4286986e-38 345 260
0.034919381 0.76599997 -0.026861066 1.4010438e-38 346 260
-0.01085664 0.77399999 -0.028498679 1.3831763e-38 312 261
-0.0094995592 0.77399999 -0.028498679 1.3923959e-38 313 261
-0.0081319595 0.773 -0.028461859 1.4382751e-38 314 261
-0.0067590997 0.77100003 -0.028388219 1.4475305e-38 315 261
-0.0054072798 0.77100003 -0.028388219 1.4567125e-38 316 261
-0.0040449398 0.76899999 -0.028314579 1.4751517e-38 317 261
-0.0026966266 0.76899999 -0.028314579 1.4476009e-38 318 261
-0.0013483133 0.76899999 -0.028314579 1.4476009e-38 319 261
0 0.76700002 -0.02824094 1.4658599e-38 320 261
0.0013448066 0.76700002 -0.02824094 1.4566404e-38 321 261
0.0026861064 0.76599997 -0.028204117 1.4841912e-38 322 261
0.0040291594 0.76599997 -0.028204117 1.4749716e-38 323 261
0.0053722127 0.76599997 -0.028204117 1.4658599e-38 324 261
0.006697733 0.764 -0.028130481 1.4658599e-38 325 261
0.0080372803 0.764 -0.028130481 1.4842621e-38 326 261
0.0093522798 0.76200002 -0.028056841 1.4842621e-38 327 261
0.01068832 0.76200002 -0.028056841 1.4934811e-38 328 261
0.01202436 0.76200002 -0.028056841 1.4934811e-38 329 261
0.0133604 0.76200002 -0.028056841 1.4934813e-38 330 261
0.01469644 0.76200002 -0.028056841 1.4842618e-38 331 261
0.01603248 0.76200002 -0.028056841 1.4750422e-38 332 261
0.017345725 0.76099998 -0.028020019 1.4750422e-38 333 261
0.018680012 0.76099998 -0.028020019 1.4657871e-38 334 261
0.020014299 0.76099998 -0.028020019 1.4565674e-38 335 261
0.021348584 0.76099998 -0.028020019 1.4564604e-38 336 261
0.022682872 0.76099998 -0.028020019 1.4380213e-38 337 261
0.024017159 0.76099998 -0.028020019 1.410328e-38 338 261
0.025351444 0.76099998 -0.028020019 1.4010726e-38 339 261
0.026685731 0.76099998 -0.028020019 1.3918899e-38 340 261
0.028056841 0.76200002 -0.028056841 1.3734866e-38 341 261
0.029470026 0.764 -0.028130481 1.373488e-38 342 261
0.030890226 0.76599997 -0.028204117 1.3827435e-38 343 261
0.032233275 0.76599997 -0.028204117 1.3643431e-38 344 261
0.033576332 0.76599997 -0.028204117 1.3827823e-38 345 261
-0.009524107 0.77600002 -0.029932907 1.3923275e-38 313 262
-0.0081635201 0.77600002 -0.029932907 1.4382419e-38 314 262
-0.0067853997 0.77399999 -0.029855758 1.4382419e-38 315 262
-0.0054213065 0.773 -0.029817186 1.4291274e-38 316 262
-0.0040554604 0.77100003 -0.029740039 1.4291274e-38 317 262
-0.0027036399 0.77100003 -0.029740039 1.4566772e-38 318 262
-0.0013483133 0.76899999 -0.02966289 1.4566772e-38 319 262
0 0.76899999 -0.02966289 1.4658249e-38 320 262
0.0013483133 0.76899999 -0.02966289 1.4658249e-38 321 262
0.0026896133 0.76700002 -0.029585747 1.4658246e-38 322 262
0.00403442 0.76700002 -0.029585747 1.4566051e-38 323 262
0.0053792265 0.76700002 -0.029585747 1.4750072e-38 324 262
0.0067152665 0.76599997 -0.029547172 1.4842267e-38 325 262
0.0080583189 0.76599997 -0.029547172 1.4842615e-38 326 262
0.0093768267 0.764 -0.029470026 1.4842615e-38 327 262
0.01068832 0.76200002 -0.029392879 1.4934811e-38 328 262
0.01202436 0.76200002 -0.029392879 1.4842615e-38 329 262
0.0133604 0.76200002 -0.029392879 1.4934816e-38 330 262
0.01469644 0.76200002 -0.029392879 1.4842621e-38 331 262
0.01603248 0.76200002 -0.029392879 1.4750066e-38 332 262
0.01736852 0.76200002 -0.029392879 1.4657871e-38 333 262
0.01870456 0.76200002 -0.029392879 1.4657873e-38 334 262
0.0200406 0.76200002 -0.029392879 1.4381287e-38 335 262
0.02137664 0.76200002 -0.029392879 1.4288741e-38 336 262
0.02271268 0.76200002 -0.029392879 1.4104349e-38 337 262
0.02404872 0.76200002 -0.029392879 1.4102924e-38 338 262
0.02538476 0.76200002 -0.029392879 1.4010729e-38 339 262
0.026790932 0.764 -0.029470026 1.3643039e-38 340 262
0.028130481 0.764 -0.029470026 1.3643039e-38 341 262
0.029547172 0.76599997 -0.029547172 1.3734898e-38 342 262
0.030890226 0.76599997 -0.029547172 1.3827094e-38 343 262
-0.0081845606 0.778 -0.031374145 1.3830707e-38 314 263
-0.0068029333 0.77600002 -0.031293493 1.3923261e-38 315 263
-0.0054423464 0.77600002 -0.031293493 1.4107261e-38 316 263
-0.0040712398 0.77399999 -0.031212838 1.4107261e-38 317 263
-0.0027141599 0.77399999 -0.031212838 1.4382751e-38 318 263
-0.00135182 0.77100003 -0.031091858 1.4290555e-38 319 263
0 0.77100003 -0.031091858 1.4474577e-38 320 263
0.0013483133 0.76899999 -0.031011207 1.4474577e-38 321 263
0.0026966266 0.76899999 -0.031011207 1.4566053e-38 322 263
0.0040449398 0.76899999 -0.031011207 1.4566053e-38 323 263
0.0053932532 0.76899999 -0.031011207 1.4566406e-38 324 263
0.006724033 0.76700002 -0.030930554 1.4658602e-38 325 263
0.00806884 0.76700002 -0.030930554 1.4750066e-38 326 263
0.0094013726 0.76599997 -0.030890226 1.4842621e-38 327 263
0.010716373 0.764 -0.030809574 1.4934816e-38 328 263
0.01205592 0.764 -0.030809574 1.4934816e-38 329 263
0.013395466 0.764 -0.030809574 1.5025577e-38 330 263
0.014735013 0.764 -0.030809574 1.5025577e-38 331 263
0.01603248 0.76200002 -0.030728921 1.5025577e-38 332 263
0.01736852 0.76200002 -0.030728921 1.474935e-38 333 263
0.01870456 0.76200002 -0.030728921 1.4657517e-38 334 263
0.0200406 0.76200002 -0.030728921 1.4381289e-38 335 263
0.02137664 0.76200002 -0.030728921 1.4472056e-38 336 263
0.022772292 0.764 -0.030809574 1.4287664e-38 337 263
0.024111839 0.764 -0.030809574 1.401145e-38 338 263
0.025451386 0.764 -0.030809574 1.3919255e-38 339 263
0.026861066 0.76599997 -0.030890226 1.3827081e-38 340 263
0.028204117 0.76599997 -0.030890226 1.3827081e-38 341 263
0.029547172 0.76599997 -0.030890226 1.3551248e-38 342 263
-0.0068029333 0.77600002 -0.032654081 1.3554861e-38 315 264
-0.0054423464 0.77600002 -0.032654081 1.3738864e-38 316 264
-0.0040817601 0.77600002 -0.032654081 1.3738864e-38 317 264
-0.0027211732 0.77600002 -0.032654081 1.4106895e-38 318 264
-0.0013570799 0.77399999 -0.032569919 1.4106895e-38 319 264
0 0.77399999 -0.032569919 1.4198357e-38 320 264
0.00135182 0.77100003 -0.032443684 1.4198357e-38 321 264
0.0027036399 0.77100003 -0.032443684 1.4382028e-38 322 264
0.0040554604 0.77100003 -0.032443684 1.4382028e-38 323 264
0.0054072798 0.77100003 -0.032443684 1.4473502e-38 324 264
0.0067590997 0.77100003 -0.032443684 1.4565697e-38 325 264
0.0080898795 0.76899999 -0.032359518 1.4566404e-38 326 264
0.0094136465 0.76700002 -0.03227536 1.4566404e-38 327 264
0.010744425 0.76599997 -0.032233275 1.4566404e-38 328 264
0.012087479 0.76599997 -0.032233275 1.4566404e-38 329 264
0.013395466 0.764 -0.032149121 1.4841195e-38 330 264
0.014735013 0.764 -0.032149121 1.4841195e-38 331 264
0.01603248 0.76200002 -0.032064959 1.4750072e-38 332 264
0.01736852 0.76200002 -0.032064959 1.4657517e-38 333 264
0.018827293 0.76700002 -0.03227536 1.4565323e-38 334 264
0.020172099 0.76700002 -0.03227536 1.4289096e-38 335 264
0.021516906 0.76700002 -0.03227536 1.401288e-38 336 264
0.022861714 0.76700002 -0.03227536 1.3920684e-38 337 264
0.024206521 0.76700002 -0.03227536 1.3736308e-38 338 264
0.025551327 0.76700002 -0.03227536 1.3736308e-38 339 264
0.026896132 0.76700002 -0.03227536 1.3551952e-38 340 264
0.02824094 0.76700002 -0.03227536 1.3551952e-38 341 264
-0.0054563731 0.778 -0.034102332 1.3555217e-38 316 265
-0.0040817601 0.77600002 -0.034014668 1.3463021e-38 317 265
-0.0027211732 0.77600002 -0.034014668 1.3738498e-38 318 265
-0.0013605866 0.77600002 -0.034014668 1.3738498e-38 319 265
0 0.77399999 -0.033927001 1.4198009e-38 320 265
0.0013553266 0.773 -0.033883166 1.4198009e-38 321 265
0.0027106532 0.773 -0.033883166 1.4473149e-38 322 265
0.0040659797 0.773 -0.033883166 1.4473149e-38 323 265
0.0054213065 0.773 -0.033883166 1.4656817e-38 324 265
0.0067590997 0.77100003 -0.033795502 1.4656817e-38 325 265
0.0080898795 0.76899999 -0.033707831 1.4566053e-38 326 265
0.0094381925 0.76899999 -0.033707831 1.4566053e-38 327 265
0.010758453 0.76700002 -0.033620168 1.4566051e-38 328 265
0.01210326 0.76700002 -0.033620168 1.4473855e-38 329 265
0.013448066 0.76700002 -0.033620168 1.4749363e-38 330 265
0.014792874 0.76700002 -0.033620168 1.4749363e-38 331 265
0.01613768 0.76700002 -0.033620168 1.4749363e-38 332 265
0.017528072 0.76899999 -0.033707831 1.456497e-38 333 265
0.018827293 0.76700002 -0.033620168 1.4381309e-38 334 265
0.020172099 0.76700002 -0.033620168 1.4196558e-38 335 265
0.021516906 0.76700002 -0.033620168 1.4012179e-38 336 265
0.022861714 0.76700002 -0.033620168 1.4012179e-38 337 265
0.024206521 0.76700002 -0.033620168 1.373598e-38 338 265
0.025551327 0.76700002 -0.033620168 1.373598e-38 339 265
0.026966266 0.76899999 -0.033707831 1.3001694e-38 340 265
-0.0013640933 0.778 -0.035466425 1.3187139e-38 319 266
0 0.77600002 -0.035375252 1.3646653e-38 320 266
0.0013570799 0.77399999 -0.03528408 1.3646653e-38 321 266
0.0027141599 0.77399999 -0.03528408 1.3647003e-38 322 266
0.0040712398 0.77399999 -0.03528408 1.3647003e-38 323 266
0.0054213065 0.773 -0.035238493 1.4014697e-38 324 266
0.0067766332 0.773 -0.035238493 1.4014697e-38 325 266
0.0081319595 0.773 -0.035238493 1.4015047e-38 326 266
0.0094627403 0.77100003 -0.03514732 1.4015047e-38 327 266
0.010786506 0.76899999 -0.035056144 1.4382028e-38 328 266
0.01210326 0.76700002 -0.034964975 1.4382028e-38 329 266
0.013448066 0.76700002 -0.034964975 1.4198357e-38 330 266
0.014792874 0.76700002 -0.034964975 1.4198357e-38 331 266
0.016179759 0.76899999 -0.035056144 1.4106164e-38 332 266
0.017528072 0.76899999 -0.035056144 1.4106164e-38 333 266
0.018876385 0.76899999 -0.035056144 1.4105093e-38 334 266
0.0202247 0.76899999 -0.035056144 1.4012898e-38 335 266
0.021573013 0.76899999 -0.035056144 1.3737049e-38 336 266
0.023994366 0.80500001 -0.036697265 1.3737049e-38 337 266
0 0.778 -0.036830518 1.3278631e-38 320 267
0.0013605866 0.77600002 -0.036735836 1.3186436e-38 321 267
0.0027211732 0.77600002 -0.036735836 1.3645962e-38 322 267
0.0040712398 0.77399999 -0.036641158 1.3645962e-38 323 267
0.0054283198 0.77399999 -0.036641158 1.3645947e-38 324 267
0.0067766332 0.773 -0.036593821 1.3738142e-38 325 267
0.0081319595 0.773 -0.036593821 1.3922514e-38 326 267
0.0094872871 0.773 -0.036593821 1.3922514e-38 327 267
0.010786506 0.76899999 -0.036404461 1.3922145e-38 328 267
0.012134819 0.76899999 -0.036404461 1.3922145e-38 329 267
0.013483133 0.76899999 -0.036404461 1.3922145e-38 330 267
