# .PCD v.7 - Point Cloud Data file format
FIELDS x y z rgb imX imY
SIZE 4 4 4 4 4 4
TYPE F F F F F F
COUNT 1 1 1 1 1 1
WIDTH 851
HEIGHT 1
VIEWPOINT 0 0 0 1 0 0 0
POINTS 851
DATA ascii
0.010477919 0.74699998 -0.0052389596 1.6404494e-38 328 244
0.011787659 0.74699998 -0.0052389596 1.6311939e-38 329 244
0.013097399 0.74699998 -0.0052389596 1.5851689e-38 330 244
0.014445714 0.74900001 -0.0052529867 1.5575103e-38 331 244
0.01575896 0.74900001 -0.0052529867 1.5299245e-38 332 244
0.017072206 0.74900001 -0.0052529867 1.5114495e-38 333 244
0.018409999 0.75 -0.00526 1.5021945e-38 334 244
0.0197776 0.75199997 -0.0052740262 1.4837554e-38 335 244
0.021152213 0.75400001 -0.0052880533 1.4653522e-38 336 244
0.022474226 0.75400001 -0.0052880533 1.4561327e-38 337 244
0.023827799 0.755 -0.0052950666 1.4468775e-38 338 244
0.025151566 0.755 -0.0052950666 1.4468775e-38 339 244
0.026545467 0.75700003 -0.0053090933 1.4468072e-38 340 244
0.028020019 0.76099998 -0.0053371461 1.4375876e-38 341 244
0.029392879 0.76200002 -0.0053441599 1.4192226e-38 342 244
0.030809574 0.764 -0.0053581866 1.4376617e-38 343 244
0.032149121 0.764 -0.0053581866 1.4100421e-38 344 244
0.033488665 0.764 -0.0053581866 1.4653595e-38 345 244
0.034919381 0.76599997 -0.0053722127 1.5484841e-38 346 244
-0.0406598 0.773 -0.0067766332 1.6684866e-38 290 245
-0.039101087 0.76899999 -0.0067415666 1.6408279e-38 291 245
-0.037654586 0.76700002 -0.006724033 1.5855811e-38 292 245
-0.036309779 0.76700002 -0.006724033 1.5948007e-38 293 245
-0.034919381 0.76599997 -0.0067152665 1.5030386e-38 294 245
-0.033576332 0.76599997 -0.0067152665 1.4477573e-38 295 245
-0.032149121 0.764 -0.006697733 1.2359629e-38 296 245
-0.030809574 0.764 -0.006697733 1.2635856e-38 297 245
-0.029392879 0.76200002 -0.0066801999 1.2730575e-38 298 245
-0.028020019 0.76099998 -0.0066714329 1.3836924e-38 299 245
-0.026615599 0.759 -0.0066538998 1.5398453e-38 300 245
-0.025151566 0.755 -0.0066188332 1.2079051e-38 301 245
-0.02379624 0.75400001 -0.0066100666 1.0240084e-38 302 245
-0.022474226 0.75400001 -0.0066100666 1.3005953e-38 303 245
-0.021152213 0.75400001 -0.0066100666 1.576531e-38 304 245
-0.019830201 0.75400001 -0.0066100666 1.6226648e-38 305 245
-0.018459093 0.75199997 -0.0065925326 1.6869868e-38 306 245
-0.017140586 0.75199997 -0.0065925326 1.6962064e-38 307 245
-0.01578 0.75 -0.006575 1.6960619e-38 308 245
-0.014445714 0.74900001 -0.0065662335 1.6960619e-38 309 245
-0.013132467 0.74900001 -0.0065662335 1.6960247e-38 310 245
-0.01181922 0.74900001 -0.0065662335 1.686805e-38 311 245
-0.010505973 0.74900001 -0.0065662335 1.7235734e-38 312 245
-0.0091927266 0.74900001 -0.0065662335 1.7051703e-38 313 245
-0.0078794798 0.74900001 -0.0065662335 1.7235719e-38 314 245
-0.0065662335 0.74900001 -0.0065662335 1.7235719e-38 315 245
-0.0052389596 0.74699998 -0.0065486995 1.7236069e-38 316 245
-0.0039292197 0.74699998 -0.0065486995 1.7051678e-38 317 245
-0.0026194798 0.74699998 -0.0065486995 1.7143505e-38 318 245
-0.0013097399 0.74699998 -0.0065486995 1.7051308e-38 319 245
0 0.74699998 -0.0065486995 1.7052011e-38 320 245
0.0013079866 0.74599999 -0.0065399334 1.6775066e-38 321 245
0.0026159731 0.74599999 -0.0065399334 1.6684302e-38 322 245
0.0039239596 0.74599999 -0.0065399334 1.6592107e-38 323 245
0.0052389596 0.74699998 -0.0065486995 1.6591035e-38 324 245
0.0065486995 0.74699998 -0.0065486995 1.6498839e-38 325 245
0.0078584393 0.74699998 -0.0065486995 1.6314096e-38 326 245
0.0091681797 0.74699998 -0.0065486995 1.6221542e-38 327 245
0.010477919 0.74699998 -0.0065486995 1.5945318e-38 328 245
0.011787659 0.74699998 -0.0065486995 1.5852763e-38 329 245
0.013097399 0.74699998 -0.0065486995 1.5668018e-38 330 245
0.014445714 0.74900001 -0.0065662335 1.5483626e-38 331 245
0.01575896 0.74900001 -0.0065662335 1.5115214e-38 332 245
0.017072206 0.74900001 -0.0065662335 1.4931183e-38 333 245
0.018409999 0.75 -0.006575 1.4837556e-38 334 245
0.0197776 0.75199997 -0.0065925326 1.4653525e-38 335 245
0.021152213 0.75400001 -0.0066100666 1.437838e-38 336 245
0.022474226 0.75400001 -0.0066100666 1.419363e-38 337 245
0.023827799 0.755 -0.0066188332 1.4376945e-38 338 245
0.025218192 0.75700003 -0.0066363667 1.4376945e-38 339 245
0.026615599 0.759 -0.0066538998 1.4375879e-38 340 245
0.028020019 0.76099998 -0.0066714329 1.4468075e-38 341 245
0.029470026 0.764 -0.006697733 1.4101112e-38 342 245
0.030809574 0.764 -0.006697733 1.4377339e-38 343 245
0.032149121 0.764 -0.006697733 1.4009672e-38 344 245
0.033620168 0.76700002 -0.006724033 1.4562844e-38 345 245
0.034964975 0.76700002 -0.006724033 1.5485213e-38 346 245
-0.0406598 0.773 -0.0081319595 1.650156e-38 290 246
-0.03920278 0.77100003 -0.0081109209 1.6316809e-38 291 246
-0.037654586 0.76700002 -0.00806884 1.585726e-38 292 246
-0.036309779 0.76700002 -0.00806884 1.5672509e-38 293 246
-0.034919381 0.76599997 -0.0080583189 1.5858708e-38 294 246
-0.033576332 0.76599997 -0.0080583189 1.5305534e-38 295 246
-0.032149121 0.764 -0.0080372803 1.272876e-38 296 246
-0.030728921 0.76200002 -0.0080162399 1.2359979e-38 297 246
-0.029392879 0.76200002 -0.0080162399 1.1627099e-38 298 246
-0.028020019 0.76099998 -0.0080057196 1.245686e-38 299 246
-0.026615599 0.759 -0.0079846792 1.4938936e-38 300 246
-0.025151566 0.755 -0.0079425992 1.5307717e-38 301 246
-0.023827799 0.755 -0.0079425992 1.438713e-38 302 246
-0.022474226 0.75400001 -0.00793208 1.4202739e-38 303 246
-0.021152213 0.75400001 -0.00793208 1.5580575e-38 304 246
-0.019830201 0.75400001 -0.00793208 1.5857161e-38 305 246
-0.018508185 0.75400001 -0.00793208 1.6591108e-38 306 246
-0.017140586 0.75199997 -0.0079110395 1.6591108e-38 307 246
-0.015822079 0.75199997 -0.0079110395 1.6959167e-38 308 246
-0.014465 0.75 -0.00789 1.7051363e-38 309 246
-0.013132467 0.74900001 -0.0078794798 1.7143916e-38 310 246
-0.01181922 0.74900001 -0.0078794798 1.7051719e-38 311 246
-0.010505973 0.74900001 -0.0078794798 1.7235381e-38 312 246
-0.0091927266 0.74900001 -0.0078794798 1.7235381e-38 313 246
-0.0078794798 0.74900001 -0.0078794798 1.7235731e-38 314 246
-0.0065662335 0.74900001 -0.0078794798 1.7235731e-38 315 246
-0.0052529867 0.74900001 -0.0078794798 1.7236087e-38 316 246
-0.0039292197 0.74699998 -0.0078584393 1.7051698e-38 317 246
-0.0026194798 0.74699998 -0.0078584393 1.7052407e-38 318 246
-0.0013097399 0.74699998 -0.0078584393 1.6959852e-38 319 246
0 0.74699998 -0.0078584393 1.7051675e-38 320 246
0.0013097399 0.74699998 -0.0078584393 1.6775447e-38 321 246
0.0026159731 0.74599999 -0.0078479191 1.6683965e-38 322 246
0.0039239596 0.74599999 -0.0078479191 1.6591769e-38 323 246
0.0052389596 0.74699998 -0.0078584393 1.6407738e-38 324 246
0.0065486995 0.74699998 -0.0078584393 1.6315542e-38 325 246
0.0078584393 0.74699998 -0.0078584393 1.622227e-38 326 246
0.0091681797 0.74699998 -0.0078584393 1.6130075e-38 327 246
0.010477919 0.74699998 -0.0078584393 1.5853135e-38 328 246
0.011787659 0.74699998 -0.0078584393 1.5760939e-38 329 246
0.013097399 0.74699998 -0.0078584393 1.5484355e-38 330 246
0.014445714 0.74900001 -0.0078794798 1.5207409e-38 331 246
0.01575896 0.74900001 -0.0078794798 1.5114498e-38 332 246
0.017095 0.75 -0.00789 1.4837551e-38 333 246
0.018409999 0.75 -0.00789 1.48372e-38 334 246
0.0197776 0.75199997 -0.0079110395 1.4560974e-38 335 246
0.021152213 0.75400001 -0.00793208 1.4560974e-38 336 246
0.022474226 0.75400001 -0.00793208 1.4468778e-38 337 246
0.023827799 0.755 -0.0079425992 1.4376595e-38 338 246
0.025218192 0.75700003 -0.0079636406 1.4376595e-38 339 246
0.026685731 0.76099998 -0.0080057196 1.4009267e-38 340 246
0.028020019 0.76099998 -0.0080057196 1.4009267e-38 341 246
0.029547172 0.76599997 -0.0080583189 1.428479e-38 342 246
0.030890226 0.76599997 -0.0080583189 1.4469183e-38 343 246
0.032233275 0.76599997 -0.0080583189 1.4377381e-38 344 246
0.033576332 0.76599997 -0.0080583189 1.5114946e-38 345 246
-0.039355319 0.77399999 -0.0094995592 1.6591957e-38 291 247
-0.037654586 0.76700002 -0.0094136465 1.604057e-38 292 247
-0.036309779 0.76700002 -0.0094136465 1.604057e-38 293 247
-0.034964975 0.76700002 -0.0094136465 1.539845e-38 294 247
-0.033576332 0.76599997 -0.0094013726 1.5121503e-38 295 247
-0.032149121 0.764 -0.0093768267 1.4013387e-38 296 247
-0.030728921 0.76200002 -0.0093522798 1.3736799e-38 297 247
-0.029392879 0.76200002 -0.0093522798 1.1716776e-38 298 247
-0.028020019 0.76099998 -0.0093400059 1.2362146e-38 299 247
-0.026615599 0.759 -0.00931546 1.374148e-38 300 247
-0.025151566 0.755 -0.0092663663 1.4479047e-38 301 247
-0.023827799 0.755 -0.0092663663 1.475737e-38 302 247
-0.022474226 0.75400001 -0.0092540924 1.4204197e-38 303 247
-0.021152213 0.75400001 -0.0092540924 1.5397281e-38 304 247
-0.0198565 0.755 -0.0092663663 1.5581312e-38 305 247
-0.018508185 0.75400001 -0.0092540924 1.6224145e-38 306 247
-0.017186172 0.75400001 -0.0092540924 1.6316341e-38 307 247
-0.015822079 0.75199997 -0.0092295464 1.6683672e-38 308 247
-0.014465 0.75 -0.0092049995 1.6683672e-38 309 247
-0.01315 0.75 -0.0092049995 1.6776574e-38 310 247
-0.011835 0.75 -0.0092049995 1.6776574e-38 311 247
-0.01052 0.75 -0.0092049995 1.6959517e-38 312 247
-0.0091927266 0.74900001 -0.0091927266 1.7051713e-38 313 247
-0.0078794798 0.74900001 -0.0091927266 1.7052069e-38 314 247
-0.0065662335 0.74900001 -0.0091927266 1.6959873e-38 315 247
-0.0052529867 0.74900001 -0.0091927266 1.7052066e-38 316 247
-0.0039397399 0.74900001 -0.0091927266 1.6867675e-38 317 247
-0.0026194798 0.74699998 -0.0091681797 1.6868378e-38 318 247
-0.0013097399 0.74699998 -0.0091681797 1.6868378e-38 319 247
0 0.74699998 -0.0091681797 1.6867647e-38 320 247
0.0013097399 0.74699998 -0.0091681797 1.6775091e-38 321 247
0.0026194798 0.74699998 -0.0091681797 1.6683967e-38 322 247
0.0039292197 0.74699998 -0.0091681797 1.6591772e-38 323 247
0.0052389596 0.74699998 -0.0091681797 1.6315542e-38 324 247
0.0065486995 0.74699998 -0.0091681797 1.6223347e-38 325 247
0.0078584393 0.74699998 -0.0091681797 1.6222275e-38 326 247
0.0091681797 0.74699998 -0.0091681797 1.6037882e-38 327 247
0.010477919 0.74699998 -0.0091681797 1.5669467e-38 328 247
0.01181922 0.74900001 -0.0091927266 1.5485075e-38 329 247
0.013132467 0.74900001 -0.0091927266 1.548292e-38 330 247
0.014445714 0.74900001 -0.0091927266 1.5206693e-38 331 247
0.01575896 0.74900001 -0.0091927266 1.4746437e-38 332 247
0.017095 0.75 -0.0092049995 1.4654241e-38 333 247
0.018459093 0.75199997 -0.0092295464 1.4560974e-38 334 247
0.0197776 0.75199997 -0.0092295464 1.4560974e-38 335 247
0.021152213 0.75400001 -0.0092540924 1.4468428e-38 336 247
0.022474226 0.75400001 -0.0092540924 1.4468428e-38 337 247
0.02389092 0.75700003 -0.0092909131 1.4375889e-38 338 247
0.025351444 0.76099998 -0.0093400059 1.4468443e-38 339 247
0.026685731 0.76099998 -0.0093400059 1.4192229e-38 340 247
0.028056841 0.76200002 -0.0093522798 1.437662e-38 341 247
0.029547172 0.76599997 -0.0094013726 1.4193326e-38 342 247
0.030890226 0.76599997 -0.0094013726 1.4469554e-38 343 247
0.032233275 0.76599997 -0.0094013726 1.4746902e-38 344 247
0.033576332 0.76599997 -0.0094013726 1.5392272e-38 345 247
-0.036309779 0.76700002 -0.010758453 1.5765063e-38 293 248
-0.034964975 0.76700002 -0.010758453 1.5029295e-38 294 248
-0.033576332 0.76599997 -0.010744425 1.4476121e-38 295 248
-0.032233275 0.76599997 -0.010744425 1.4932805e-38 296 248
-0.030728921 0.76200002 -0.01068832 1.5301228e-38 297 248
-0.029392879 0.76200002 -0.01068832 1.3004996e-38 298 248
-0.028020019 0.76099998 -0.010674292 1.2636212e-38 299 248
-0.026615599 0.759 -0.01064624 1.3003196e-38 300 248
-0.025218192 0.75700003 -0.010618187 1.3648566e-38 301 248
-0.023827799 0.755 -0.010590133 1.4113449e-38 302 248
-0.022504034 0.755 -0.010590133 1.4113449e-38 303 248
-0.021180267 0.755 -0.010590133 1.5397994e-38 304 248
-0.0198565 0.755 -0.010590133 1.5305799e-38 305 248
-0.018532733 0.755 -0.010590133 1.6315947e-38 306 248
-0.017186172 0.75400001 -0.010576107 1.6408502e-38 307 248
-0.01586416 0.75400001 -0.010576107 1.6408496e-38 308 248
-0.014503572 0.75199997 -0.010548052 1.650105e-38 309 248
-0.01315 0.75 -0.01052 1.6684726e-38 310 248
-0.011835 0.75 -0.01052 1.6684726e-38 311 248
-0.01052 0.75 -0.01052 1.6868401e-38 312 248
-0.0091927266 0.74900001 -0.010505973 1.6868401e-38 313 248
-0.0078794798 0.74900001 -0.010505973 1.677728e-38 314 248
-0.0065662335 0.74900001 -0.010505973 1.677728e-38 315 248
-0.0052529867 0.74900001 -0.010505973 1.6868754e-38 316 248
-0.0039397399 0.74900001 -0.010505973 1.6776558e-38 317 248
-0.0026194798 0.74699998 -0.010477919 1.6776909e-38 318 248
-0.0013097399 0.74699998 -0.010477919 1.6684713e-38 319 248
0 0.74699998 -0.010477919 1.6685066e-38 320 248
0.0013097399 0.74699998 -0.010477919 1.659287e-38 321 248
0.0026194798 0.74699998 -0.010477919 1.6592146e-38 322 248
0.0039292197 0.74699998 -0.010477919 1.6499949e-38 323 248
0.0052389596 0.74699998 -0.010477919 1.6407032e-38 324 248
0.0065486995 0.74699998 -0.010477919 1.622264e-38 325 248
0.0078584393 0.74699998 -0.010477919 1.6037892e-38 326 248
0.0091927266 0.74900001 -0.010505973 1.5945696e-38 327 248
0.010505973 0.74900001 -0.010505973 1.5852784e-38 328 248
0.01181922 0.74900001 -0.010505973 1.5484002e-38 329 248
0.013132467 0.74900001 -0.010505973 1.5299245e-38 330 248
0.014445714 0.74900001 -0.010505973 1.5022298e-38 331 248
0.01578 0.75 -0.01052 1.4654592e-38 332 248
0.017095 0.75 -0.01052 1.44702e-38 333 248
0.018459093 0.75199997 -0.010548052 1.4561324e-38 334 248
0.0197776 0.75199997 -0.010548052 1.4469128e-38 335 248
0.021152213 0.75400001 -0.010576107 1.4376948e-38 336 248
0.022504034 0.755 -0.010590133 1.4376948e-38 337 248
0.023954039 0.759 -0.01064624 1.4192932e-38 338 248
0.025351444 0.76099998 -0.010674292 1.4192932e-38 339 248
0.0267208 0.76200002 -0.01068832 1.4009633e-38 340 248
0.028056841 0.76200002 -0.01068832 1.4101828e-38 341 248
0.029547172 0.76599997 -0.010744425 1.4193688e-38 342 248
0.030890226 0.76599997 -0.010744425 1.4378438e-38 343 248
0.03227536 0.76700002 -0.010758453 1.5023493e-38 344 248
-0.038771462 0.81900001 -0.01292382 1.5857976e-38 293 249
-0.037335481 0.81900001 -0.01292382 1.5211874e-38 294 249
-0.035899501 0.81900001 -0.01292382 1.5027124e-38 295 249
-0.032233275 0.76599997 -0.012087479 1.5396282e-38 296 249
-0.030728921 0.76200002 -0.01202436 1.585726e-38 297 249
-0.029354304 0.76099998 -0.012008579 1.4387556e-38 298 249
-0.027946379 0.759 -0.01197702 1.411097e-38 299 249
-0.026615599 0.759 -0.01197702 1.4109891e-38 300 249
-0.025218192 0.75700003 -0.01194546 1.4571228e-38 301 249
-0.02389092 0.75700003 -0.01194546 1.5214745e-38 302 249
-0.022504034 0.755 -0.011913899 1.5029995e-38 303 249
-0.021180267 0.755 -0.011913899 1.5766044e-38 304 249
-0.0198565 0.755 -0.011913899 1.5581294e-38 305 249
-0.018532733 0.755 -0.011913899 1.6132991e-38 306 249
-0.017208965 0.755 -0.011913899 1.6317022e-38 307 249
-0.01586416 0.75400001 -0.01189812 1.6132991e-38 308 249
-0.014503572 0.75199997 -0.011866559 1.6132991e-38 309 249
-0.013185065 0.75199997 -0.011866559 1.6684009e-38 310 249
-0.011866559 0.75199997 -0.011866559 1.6684009e-38 311 249
-0.01052 0.75 -0.011835 1.6684726e-38 312 249
-0.0092049995 0.75 -0.011835 1.6684726e-38 313 249
-0.00789 0.75 -0.011835 1.6684726e-38 314 249
-0.0065662335 0.74900001 -0.01181922 1.677728e-38 315 249
-0.0052529867 0.74900001 -0.01181922 1.6685081e-38 316 249
-0.0039397399 0.74900001 -0.01181922 1.6777277e-38 317 249
-0.0026264933 0.74900001 -0.01181922 1.6685432e-38 318 249
-0.0013132467 0.74900001 -0.01181922 1.6685432e-38 319 249
0 0.74900001 -0.01181922 1.6685429e-38 320 249
0.0013132467 0.74900001 -0.01181922 1.6501398e-38 321 249
0.0026194798 0.74699998 -0.011787659 1.6409555e-38 322 249
0.0039292197 0.74699998 -0.011787659 1.6132608e-38 323 249
0.0052389596 0.74699998 -0.011787659 1.6223362e-38 324 249
0.0065662335 0.74900001 -0.01181922 1.5946777e-38 325 249
0.0078794798 0.74900001 -0.01181922 1.5945696e-38 326 249
0.0091927266 0.74900001 -0.01181922 1.5669469e-38 327 249
0.010505973 0.74900001 -0.01181922 1.5485078e-38 328 249
0.01181922 0.74900001 -0.01181922 1.5116296e-38 329 249
0.013132467 0.74900001 -0.01181922 1.4931539e-38 330 249
0.014465 0.75 -0.011835 1.4838983e-38 331 249
0.01578 0.75 -0.011835 1.4653876e-38 332 249
0.017095 0.75 -0.011835 1.4469126e-38 333 249
0.018459093 0.75199997 -0.011866559 1.4377298e-38 334 249
0.019830201 0.75400001 -0.01189812 1.4377298e-38 335 249
0.021180267 0.755 -0.011913899 1.4376595e-38 336 249
0.022563647 0.75700003 -0.01194546 1.4376595e-38 337 249
0.024017159 0.76099998 -0.012008579 1.4192576e-38 338 249
0.02538476 0.76200002 -0.01202436 1.4192576e-38 339 249
0.026790932 0.764 -0.01205592 1.4101831e-38 340 249
0.028130481 0.764 -0.01205592 1.4194027e-38 341 249
0.029547172 0.76599997 -0.012087479 1.4102942e-38 342 249
0.030890226 0.76599997 -0.012087479 1.4563921e-38 343 249
0.03227536 0.76700002 -0.01210326 1.5483766e-38 344 249
-0.032022879 0.76099998 -0.013342866 1.530479e-38 296 250
-0.030688593 0.76099998 -0.013342866 1.5765408e-38 297 250
-0.029354304 0.76099998 -0.013342866 1.5308052e-38 298 250
-0.027946379 0.759 -0.0133078 1.5584279e-38 299 250
-0.026615599 0.759 -0.0133078 1.5676479e-38 300 250
-0.025218192 0.75700003 -0.013272733 1.586087e-38 301 250
-0.02389092 0.75700003 -0.013272733 1.6134158e-38 302 250
-0.022563647 0.75700003 -0.013272733 1.5580986e-38 303 250
-0.021236373 0.75700003 -0.013272733 1.5674546e-38 304 250
-0.019909101 0.75700003 -0.013272733 1.5490155e-38 305 250
-0.018532733 0.755 -0.013237666 1.6041511e-38 306 250
-0.017208965 0.755 -0.013237666 1.6041511e-38 307 250
-0.015885198 0.755 -0.013237666 1.6132991e-38 308 250
-0.014542146 0.75400001 -0.013220133 1.6132991e-38 309 250
-0.013185065 0.75199997 -0.013185065 1.6591811e-38 310 250
-0.011866559 0.75199997 -0.013185065 1.6684007e-38 311 250
-0.01052 0.75 -0.01315 1.6501769e-38 312 250
-0.0092049995 0.75 -0.01315 1.6501769e-38 313 250
-0.00789 0.75 -0.01315 1.6501416e-38 314 250
-0.006575 0.75 -0.01315 1.6593612e-38 315 250
-0.0052529867 0.74900001 -0.013132467 1.6593612e-38 316 250
-0.0039397399 0.74900001 -0.013132467 1.6593612e-38 317 250
-0.0026264933 0.74900001 -0.013132467 1.6502488e-38 318 250
-0.0013132467 0.74900001 -0.013132467 1.6502488e-38 319 250
0 0.74900001 -0.013132467 1.6502488e-38 320 250
0.0013132467 0.74900001 -0.013132467 1.6318098e-38 321 250
0.0026264933 0.74900001 -0.013132467 1.613406e-38 322 250
0.0039397399 0.74900001 -0.013132467 1.5857113e-38 323 250
0.0052529867 0.74900001 -0.013132467 1.5947148e-38 324 250
0.0065662335 0.74900001 -0.013132467 1.5762396e-38 325 250
0.0078794798 0.74900001 -0.013132467 1.5669838e-38 326 250
0.0091927266 0.74900001 -0.013132467 1.5301057e-38 327 250
0.010505973 0.74900001 -0.013132467 1.5208857e-38 328 250
0.011835 0.75 -0.01315 1.493227e-38 329 250
0.01315 0.75 -0.01315 1.4747156e-38 330 250
0.014465 0.75 -0.01315 1.4470929e-38 331 250
0.01578 0.75 -0.01315 1.4469497e-38 332 250
0.017095 0.75 -0.01315 1.4377301e-38 333 250
0.018459093 0.75199997 -0.013185065 1.4285831e-38 334 250
0.019830201 0.75400001 -0.013220133 1.4193636e-38 335 250
0.021180267 0.755 -0.013237666 1.4192927e-38 336 250
0.02262326 0.759 -0.0133078 1.4192927e-38 337 250
0.02404872 0.76200002 -0.0133604 1.4009267e-38 338 250
0.025451386 0.764 -0.013395466 1.4101463e-38 339 250
0.026790932 0.764 -0.013395466 1.41022e-38 340 250
0.028130481 0.764 -0.013395466 1.4286592e-38 341 250
0.029547172 0.76599997 -0.013430533 1.4379549e-38 342 250
0.030890226 0.76599997 -0.013430533 1.4932723e-38 343 250
-0.032022879 0.76099998 -0.014677152 1.5302985e-38 296 251
-0.030688593 0.76099998 -0.014677152 1.5302985e-38 297 251
-0.029354304 0.76099998 -0.014677152 1.5212591e-38 298 251
-0.027946379 0.759 -0.014638579 1.5489537e-38 299 251
-0.026615599 0.759 -0.014638579 1.5489534e-38 300 251
-0.025218192 0.75700003 -0.014600007 1.5673565e-38 301 251
-0.02389092 0.75700003 -0.014600007 1.5673511e-38 302 251
-0.022563647 0.75700003 -0.014600007 1.5396925e-38 303 251
-0.021236373 0.75700003 -0.014600007 1.5766013e-38 304 251
-0.019909101 0.75700003 -0.014600007 1.5581982e-38 305 251
-0.018532733 0.755 -0.014561433 1.594896e-38 306 251
-0.017208965 0.755 -0.014561433 1.6041155e-38 307 251
-0.015885198 0.755 -0.014561433 1.6132635e-38 308 251
-0.014542146 0.75400001 -0.014542146 1.6132635e-38 309 251
-0.013220133 0.75400001 -0.014542146 1.63163e-38 310 251
-0.01189812 0.75400001 -0.014542146 1.6408496e-38 311 251
-0.010548052 0.75199997 -0.014503572 1.6408852e-38 312 251
-0.0092049995 0.75 -0.014465 1.6408852e-38 313 251
-0.00789 0.75 -0.014465 1.6500697e-38 314 251
-0.006575 0.75 -0.014465 1.6500697e-38 315 251
-0.00526 0.75 -0.014465 1.6408865e-38 316 251
-0.003945 0.75 -0.014465 1.650106e-38 317 251
-0.0026264933 0.74900001 -0.014445714 1.650106e-38 318 251
-0.0013132467 0.74900001 -0.014445714 1.650106e-38 319 251
0 0.74900001 -0.014445714 1.6225552e-38 320 251
0.0013132467 0.74900001 -0.014445714 1.6133357e-38 321 251
0.0026264933 0.74900001 -0.014445714 1.6040788e-38 322 251
0.0039397399 0.74900001 -0.014445714 1.5487616e-38 323 251
0.0052529867 0.74900001 -0.014445714 1.5393974e-38 324 251
0.0065662335 0.74900001 -0.014445714 1.5393974e-38 325 251
0.0078794798 0.74900001 -0.014445714 1.530106e-38 326 251
0.0091927266 0.74900001 -0.014445714 1.5116308e-38 327 251
0.010505973 0.74900001 -0.014445714 1.5024113e-38 328 251
0.011835 0.75 -0.014465 1.465569e-38 329 251
0.01315 0.75 -0.014465 1.4653891e-38 330 251
0.014503572 0.75199997 -0.014503572 1.4561695e-38 331 251
0.015822079 0.75199997 -0.014503572 1.4469144e-38 332 251
0.017140586 0.75199997 -0.014503572 1.4469144e-38 333 251
0.018508185 0.75400001 -0.014542146 1.4285478e-38 334 251
0.0198565 0.755 -0.014561433 1.4285478e-38 335 251
0.021236373 0.75700003 -0.014600007 1.419293e-38 336 251
0.022682872 0.76099998 -0.014677152 1.4285125e-38 337 251
0.02404872 0.76200002 -0.01469644 1.4009633e-38 338 251
0.02538476 0.76200002 -0.01469644 1.4101828e-38 339 251
0.026790932 0.764 -0.014735013 1.4102574e-38 340 251
0.028130481 0.764 -0.014735013 1.4378801e-38 341 251
-0.034007654 0.74599999 -0.015695838 1.5396632e-38 294 252
-0.032699663 0.74599999 -0.015695838 1.5212241e-38 295 252
-0.03156 0.75 -0.01578 1.5027827e-38 296 252
-0.030244999 0.75 -0.01578 1.4567208e-38 297 252
-0.029007144 0.75199997 -0.015822079 1.4751208e-38 298 252
-0.028020019 0.76099998 -0.016011439 1.5119632e-38 299 252
-0.026685731 0.76099998 -0.016011439 1.5488745e-38 300 252
-0.025284819 0.759 -0.015969358 1.5304353e-38 301 252
-0.023954039 0.759 -0.015969358 1.5396533e-38 302 252
-0.02262326 0.759 -0.015969358 1.5488728e-38 303 252
-0.02129248 0.759 -0.015969358 1.5489432e-38 304 252
-0.0199617 0.759 -0.015969358 1.5581629e-38 305 252
-0.018581826 0.75700003 -0.015927281 1.5948965e-38 306 252
-0.017254554 0.75700003 -0.015927281 1.6041161e-38 307 252
-0.015885198 0.755 -0.015885198 1.6041158e-38 308 252
-0.014561433 0.755 -0.015885198 1.6041158e-38 309 252
-0.013220133 0.75400001 -0.01586416 1.6132988e-38 310 252
-0.01189812 0.75400001 -0.01586416 1.6040791e-38 311 252
-0.010576107 0.75400001 -0.01586416 1.6315228e-38 312 252
-0.0092295464 0.75199997 -0.015822079 1.6315228e-38 313 252
-0.0079110395 0.75199997 -0.015822079 1.6132282e-38 314 252
-0.0065925326 0.75199997 -0.015822079 1.6132282e-38 315 252
-0.00526 0.75 -0.01578 1.6133001e-38 316 252
-0.003945 0.75 -0.01578 1.6133001e-38 317 252
-0.00263 0.75 -0.01578 1.6315602e-38 318 252
-0.001315 0.75 -0.01578 1.6315602e-38 319 252
0 0.75 -0.01578 1.6039736e-38 320 252
0.001315 0.75 -0.01578 1.6039736e-38 321 252
0.00263 0.75 -0.01578 1.548835e-38 322 252
0.003945 0.75 -0.01578 1.5119928e-38 323 252
0.00526 0.75 -0.01578 1.5117757e-38 324 252
0.006575 0.75 -0.01578 1.4933366e-38 325 252
0.00789 0.75 -0.01578 1.4932996e-38 326 252
0.0092049995 0.75 -0.01578 1.4748605e-38 327 252
0.01052 0.75 -0.01578 1.4931198e-38 328 252
0.011866559 0.75199997 -0.015822079 1.465461e-38 329 252
0.013185065 0.75199997 -0.015822079 1.4561692e-38 330 252
0.014503572 0.75199997 -0.015822079 1.4469497e-38 331 252
0.01586416 0.75400001 -0.01586416 1.4285829e-38 332 252
0.017186172 0.75400001 -0.01586416 1.4285829e-38 333 252
0.018532733 0.755 -0.015885198 1.4376595e-38 334 252
0.0198565 0.755 -0.015885198 1.4376595e-38 335 252
0.02129248 0.759 -0.015969358 1.4284772e-38 336 252
0.022682872 0.76099998 -0.016011439 1.4377326e-38 337 252
0.02404872 0.76200002 -0.01603248 1.391781e-38 338 252
0.02538476 0.76200002 -0.01603248 1.4194397e-38 339 252
0.0267208 0.76200002 -0.01603248 1.4102239e-38 340 252
0.028056841 0.76200002 -0.01603248 1.4655413e-38 341 252
-0.034007654 0.74599999 -0.017003827 1.5396648e-38 294 253
-0.032699663 0.74599999 -0.017003827 1.5212257e-38 295 253
-0.031391677 0.74599999 -0.017003827 1.4844881e-38 296 253
-0.030124018 0.74699998 -0.017026618 1.4199511e-38 297 253
-0.029007144 0.75199997 -0.017140586 1.5118912e-38 298 253
-0.028020019 0.76099998 -0.017345725 1.5302944e-38 299 253
-0.026685731 0.76099998 -0.017345725 1.5488748e-38 300 253
-0.025351444 0.76099998 -0.017345725 1.5396552e-38 301 253
-0.024017159 0.76099998 -0.017345725 1.5397255e-38 302 253
-0.022682872 0.76099998 -0.017345725 1.5397255e-38 303 253
-0.021348584 0.76099998 -0.017345725 1.5672747e-38 304 253
-0.020014299 0.76099998 -0.017345725 1.585714e-38 305 253
-0.01863092 0.759 -0.017300138 1.5857849e-38 306 253
-0.017300138 0.759 -0.017300138 1.5857849e-38 307 253
-0.015927281 0.75700003 -0.017254554 1.6041155e-38 308 253
-0.014600007 0.75700003 -0.017254554 1.594896e-38 309 253
-0.013237666 0.755 -0.017208965 1.6224103e-38 310 253
-0.011913899 0.755 -0.017208965 1.6131908e-38 311 253
-0.010576107 0.75400001 -0.017186172 1.6131189e-38 312 253
-0.0092540924 0.75400001 -0.017186172 1.6223384e-38 313 253
-0.0079110395 0.75199997 -0.017140586 1.613191e-38 314 253
-0.0065925326 0.75199997 -0.017140586 1.6224108e-38 315 253
-0.0052740262 0.75199997 -0.017140586 1.6131557e-38 316 253
-0.0039555198 0.75199997 -0.017140586 1.6039362e-38 317 253
-0.00263 0.75 -0.017095 1.603829e-38 318 253
-0.001315 0.75 -0.017095 1.585354e-38 319 253
0 0.75 -0.017095 1.5209608e-38 320 253
0.001315 0.75 -0.017095 1.5578032e-38 321 253
0.00263 0.75 -0.017095 1.5393636e-38 322 253
0.003945 0.75 -0.017095 1.511741e-38 323 253
0.00526 0.75 -0.017095 1.4932292e-38 324 253
0.006575 0.75 -0.017095 1.4840097e-38 325 253
0.00789 0.75 -0.017095 1.4931567e-38 326 253
0.0092049995 0.75 -0.017095 1.4931567e-38 327 253
0.01052 0.75 -0.017095 1.4838649e-38 328 253
0.011866559 0.75199997 -0.017140586 1.4746454e-38 329 253
0.013185065 0.75199997 -0.017140586 1.4378746e-38 330 253
0.014542146 0.75400001 -0.017186172 1.428655e-38 331 253
0.01586416 0.75400001 -0.017186172 1.4102163e-38 332 253
0.017208965 0.755 -0.017208965 1.4102163e-38 333 253
0.018532733 0.755 -0.017208965 1.4285128e-38 334 253
0.019909101 0.75700003 -0.017254554 1.4377324e-38 335 253
0.02129248 0.759 -0.017300138 1.410111e-38 336 253
0.02271268 0.76200002 -0.01736852 1.4285141e-38 337 253
0.024111839 0.764 -0.017414106 1.4101491e-38 338 253
0.025451386 0.764 -0.017414106 1.4193688e-38 339 253
0.0267208 0.76200002 -0.01736852 1.4011141e-38 340 253
0.028056841 0.76200002 -0.01736852 1.4563956e-38 341 253
0.031437267 0.815 -0.018576566 1.4656552e-38 342 253
-0.034053236 0.74699998 -0.018336359 1.512114e-38 294 254
-0.032699663 0.74599999 -0.018311813 1.5028944e-38 295 254
-0.031391677 0.74599999 -0.018311813 1.4661218e-38 296 254
-0.030124018 0.74699998 -0.018336359 1.4384273e-38 297 254
-0.028814279 0.74699998 -0.018336359 1.484449e-38 298 254
-0.028130481 0.764 -0.018753653 1.4936686e-38 299 254
-0.026790932 0.764 -0.018753653 1.5212884e-38 300 254
-0.025451386 0.764 -0.018753653 1.5212884e-38 301 254
-0.02404872 0.76200002 -0.01870456 1.5488377e-38 302 254
-0.022682872 0.76099998 -0.018680012 1.5488377e-38 303 254
-0.021348584 0.76099998 -0.018680012 1.5397249e-38 304 254
-0.020014299 0.76099998 -0.018680012 1.5489805e-38 305 254
-0.018680012 0.76099998 -0.018680012 1.5766019e-38 306 254
-0.017300138 0.759 -0.01863092 1.5766019e-38 307 254
-0.015969358 0.759 -0.01863092 1.5765294e-38 308 254
-0.014600007 0.75700003 -0.018581826 1.5765294e-38 309 254
-0.013237666 0.755 -0.018532733 1.5948963e-38 310 254
-0.011913899 0.755 -0.018532733 1.5856766e-38 311 254
-0.010590133 0.755 -0.018532733 1.5856047e-38 312 254
-0.0092540924 0.75400001 -0.018508185 1.5856047e-38 313 254
-0.00793208 0.75400001 -0.018508185 1.5948245e-38 314 254
-0.0066100666 0.75400001 -0.018508185 1.5855691e-38 315 254
-0.0052880533 0.75400001 -0.018508185 1.6039009e-38 316 254
-0.0039555198 0.75199997 -0.018459093 1.5854977e-38 317 254
-0.0026370131 0.75199997 -0.018459093 1.5486562e-38 318 254
-0.0013185065 0.75199997 -0.018459093 1.5394366e-38 319 254
0 0.75199997 -0.018459093 1.5026306e-38 320 254
0.0013185065 0.75199997 -0.018459093 1.5026306e-38 321 254
0.0026370131 0.75199997 -0.018459093 1.4934463e-38 322 254
0.0039555198 0.75199997 -0.018459093 1.4750072e-38 323 254
0.0052740262 0.75199997 -0.018459093 1.474862e-38 324 254
0.0066100666 0.75400001 -0.018508185 1.4564589e-38 325 254
0.0079110395 0.75199997 -0.018459093 1.4748252e-38 326 254
0.0092295464 0.75199997 -0.018459093 1.4748252e-38 327 254
0.010576107 0.75400001 -0.018508185 1.4839005e-38 328 254
0.01189812 0.75400001 -0.018508185 1.4746451e-38 329 254
0.013220133 0.75400001 -0.018508185 1.4470579e-38 330 254
0.014542146 0.75400001 -0.018508185 1.4378024e-38 331 254
0.015885198 0.755 -0.018532733 1.428655e-38 332 254
0.017254554 0.75700003 -0.018581826 1.428655e-38 333 254
0.018581826 0.75700003 -0.018581826 1.4377324e-38 334 254
0.0199617 0.759 -0.01863092 1.4377324e-38 335 254
0.021348584 0.76099998 -0.018680012 1.4377342e-38 336 254
0.02271268 0.76200002 -0.01870456 1.4377342e-38 337 254
0.024111839 0.764 -0.018753653 1.410187e-38 338 254
0.025451386 0.764 -0.018753653 1.4470652e-38 339 254
0.028368933 0.80900002 -0.019858252 1.392076e-38 340 254
0.02978738 0.80900002 -0.019858252 1.4289544e-38 341 254
-0.032743499 0.74699998 -0.019646099 1.4936749e-38 295 255
-0.031433757 0.74699998 -0.019646099 1.4569391e-38 296 255
-0.028314579 0.76899999 -0.0202247 1.4752673e-38 299 255
-0.026896132 0.76700002 -0.020172099 1.5212537e-38 300 255
-0.025518013 0.76599997 -0.020145798 1.5212537e-38 301 255
-0.024111839 0.764 -0.020093199 1.5488382e-38 302 255
-0.02271268 0.76200002 -0.0200406 1.5396185e-38 303 255
-0.02137664 0.76200002 -0.0200406 1.5396533e-38 304 255
-0.0200406 0.76200002 -0.0200406 1.5488728e-38 305 255
-0.018680012 0.76099998 -0.020014299 1.567275e-38 306 255
-0.017345725 0.76099998 -0.020014299 1.567275e-38 307 255
-0.016011439 0.76099998 -0.020014299 1.5672028e-38 308 255
-0.014677152 0.76099998 -0.020014299 1.5672028e-38 309 255
-0.0133078 0.759 -0.0199617 1.5672025e-38 310 255
-0.01194546 0.75700003 -0.019909101 1.557983e-38 311 255
-0.010618187 0.75700003 -0.019909101 1.5763498e-38 312 255
-0.0092663663 0.755 -0.0198565 1.5855694e-38 313 255
-0.0079425992 0.755 -0.0198565 1.5855694e-38 314 255
-0.0066188332 0.755 -0.0198565 1.5855694e-38 315 255
-0.0052950666 0.755 -0.0198565 1.5854975e-38 316 255
-0.00396604 0.75400001 -0.019830201 1.5670583e-38 317 255
-0.0026440267 0.75400001 -0.019830201 1.5486188e-38 318 255
-0.0013220133 0.75400001 -0.019830201 1.5393992e-38 319 255
0 0.75400001 -0.019830201 1.5027365e-38 320 255
0.0013220133 0.75400001 -0.019830201 1.4842615e-38 321 255
0.0026440267 0.75400001 -0.019830201 1.475077e-38 322 255
0.00396604 0.75400001 -0.019830201 1.4566377e-38 323 255
0.0052880533 0.75400001 -0.019830201 1.4565655e-38 324 255
0.0066100666 0.75400001 -0.019830201 1.4565655e-38 325 255
0.00793208 0.75400001 -0.019830201 1.4564939e-38 326 255
0.0092540924 0.75400001 -0.019830201 1.4564939e-38 327 255
0.010576107 0.75400001 -0.019830201 1.4654984e-38 328 255
0.01189812 0.75400001 -0.019830201 1.4562788e-38 329 255
0.013237666 0.755 -0.0198565 1.4470594e-38 330 255
0.014561433 0.755 -0.0198565 1.437804e-38 331 255
0.015927281 0.75700003 -0.019909101 1.4378043e-38 332 255
0.017300138 0.759 -0.0199617 1.4378043e-38 333 255
0.01863092 0.759 -0.0199617 1.4377692e-38 334 255
0.0199617 0.759 -0.0199617 1.4377692e-38 335 255
0.021348584 0.76099998 -0.020014299 1.4193321e-38 336 255
0.022772292 0.764 -0.020093199 1.4469907e-38 337 255
0.024111839 0.764 -0.020093199 1.4194803e-38 338 255
0.025451386 0.764 -0.020093199 1.4379196e-38 339 255
0.028579332 0.815 -0.021434501 1.3829302e-38 340 255
-0.028388219 0.77100003 -0.021629119 1.4569376e-38 299 256
-0.026966266 0.76899999 -0.021573013 1.5212549e-38 300 256
-0.025551327 0.76700002 -0.021516906 1.5120354e-38 301 256
-0.024174958 0.76599997 -0.021488851 1.5303281e-38 302 256
-0.022772292 0.764 -0.021432746 1.5303281e-38 303 256
-0.021432746 0.764 -0.021432746 1.5303987e-38 304 256
-0.0200406 0.76200002 -0.02137664 1.5303987e-38 305 256
-0.01870456 0.76200002 -0.02137664 1.530434e-38 306 256
-0.01736852 0.76200002 -0.02137664 1.530434e-38 307 256
-0.01603248 0.76200002 -0.02137664 1.5488005e-38 308 256
-0.014677152 0.76099998 -0.021348584 1.5303616e-38 309 256
-0.013342866 0.76099998 -0.021348584 1.5487281e-38 310 256
-0.01197702 0.759 -0.02129248 1.5487281e-38 311 256
-0.01064624 0.759 -0.02129248 1.5579833e-38 312 256
-0.0092909131 0.75700003 -0.021236373 1.5579833e-38 313 256
-0.0079425992 0.755 -0.021180267 1.557983e-38 314 256
-0.0066188332 0.755 -0.021180267 1.557983e-38 315 256
-0.0052950666 0.755 -0.021180267 1.5671302e-38 316 256
-0.0039712996 0.755 -0.021180267 1.5394717e-38 317 256
-0.0026475333 0.755 -0.021180267 1.5395073e-38 318 256
-0.0013237667 0.755 -0.021180267 1.5210321e-38 319 256
0 0.75400001 -0.021152213 1.4843334e-38 320 256
0.0013220133 0.75400001 -0.021152213 1.4659303e-38 321 256
0.0026440267 0.75400001 -0.021152213 1.475077e-38 322 256
0.00396604 0.75400001 -0.021152213 1.4658574e-38 323 256
0.0052880533 0.75400001 -0.021152213 1.4749326e-38 324 256
0.0066100666 0.75400001 -0.021152213 1.4749326e-38 325 256
0.0079425992 0.755 -0.021180267 1.4564942e-38 326 256
0.0092663663 0.755 -0.021180267 1.4472388e-38 327 256
0.010590133 0.755 -0.021180267 1.4654987e-38 328 256
0.011913899 0.755 -0.021180267 1.4562791e-38 329 256
0.013237666 0.755 -0.021180267 1.4470238e-38 330 256
0.014600007 0.75700003 -0.021236373 1.4378043e-38 331 256
0.015969358 0.759 -0.02129248 1.4377689e-38 332 256
0.017345725 0.76099998 -0.021348584 1.4377689e-38 333 256
0.018680012 0.76099998 -0.021348584 1.4286227e-38 334 256
0.020014299 0.76099998 -0.021348584 1.4470258e-38 335 256
0.02137664 0.76200002 -0.02137664 1.4285539e-38 336 256
0.022772292 0.764 -0.021432746 1.446993e-38 337 256
0.024174958 0.76599997 -0.021488851 1.4011152e-38 338 256
-0.028461859 0.773 -0.023040552 1.4109133e-38 299 257
-0.027036399 0.77100003 -0.02298094 1.4753023e-38 300 257
-0.025617953 0.76899999 -0.022921326 1.4753023e-38 301 257
-0.024206521 0.76700002 -0.022861714 1.5303281e-38 302 257
-0.022831906 0.76599997 -0.022831906 1.5211085e-38 303 257
-0.021488851 0.76599997 -0.022831906 1.5119237e-38 304 257
-0.020093199 0.764 -0.022772292 1.5119237e-38 305 257
-0.01870456 0.76200002 -0.02271268 1.521107e-38 306 257
-0.01736852 0.76200002 -0.02271268 1.521107e-38 307 257
-0.01603248 0.76200002 -0.02271268 1.5119227e-38 308 257
-0.01469644 0.76200002 -0.02271268 1.5119227e-38 309 257
-0.0133604 0.76200002 -0.02271268 1.5119221e-38 310 257
-0.012008579 0.76099998 -0.022682872 1.5119221e-38 311 257
-0.010674292 0.76099998 -0.022682872 1.5211773e-38 312 257
-0.00931546 0.759 -0.02262326 1.5303969e-38 313 257
-0.0079846792 0.759 -0.02262326 1.5303969e-38 314 257
-0.0066363667 0.75700003 -0.022563647 1.5303969e-38 315 257
-0.0053090933 0.75700003 -0.022563647 1.5212126e-38 316 257
-0.0039818203 0.75700003 -0.022563647 1.5119931e-38 317 257
-0.0026475333 0.755 -0.022504034 1.5394717e-38 318 257
-0.0013237667 0.755 -0.022504034 1.5210324e-38 319 257
0 0.755 -0.022504034 1.4934811e-38 320 257
0.0013237667 0.755 -0.022504034 1.4934811e-38 321 257
0.0026475333 0.755 -0.022504034 1.4750772e-38 322 257
0.0039712996 0.755 -0.022504034 1.4658577e-38 323 257
0.0052950666 0.755 -0.022504034 1.4657857e-38 324 257
0.0066188332 0.755 -0.022504034 1.4565661e-38 325 257
0.0079425992 0.755 -0.022504034 1.4747901e-38 326 257
0.0092909131 0.75700003 -0.022563647 1.4655706e-38 327 257
0.010618187 0.75700003 -0.022563647 1.4837946e-38 328 257
0.01194546 0.75700003 -0.022563647 1.474575e-38 329 257
0.0133078 0.759 -0.02262326 1.4470241e-38 330 257
0.014638579 0.759 -0.02262326 1.4470241e-38 331 257
0.016011439 0.76099998 -0.022682872 1.428622e-38 332 257
0.01736852 0.76200002 -0.02271268 1.428622e-38 333 257
0.01870456 0.76200002 -0.02271268 1.4286239e-38 334 257
0.0200406 0.76200002 -0.02271268 1.4378435e-38 335 257
0.02137664 0.76200002 -0.02271268 1.4010769e-38 336 257
-0.028461859 0.773 -0.024395877 1.4200981e-38 299 258
-0.027106533 0.773 -0.024395877 1.4385701e-38 300 258
-0.02568458 0.77100003 -0.02433276 1.4201311e-38 301 258
-0.02433276 0.77100003 -0.02433276 1.5487329e-38 302 258
-0.022921326 0.76899999 -0.024269639 1.5302577e-38 303 258
-0.021516906 0.76700002 -0.024206521 1.5119243e-38 304 258
-0.020172099 0.76700002 -0.024206521 1.5026688e-38 305 258
-0.018802745 0.76599997 -0.024174958 1.5027041e-38 306 258
-0.017459691 0.76599997 -0.024174958 1.5027041e-38 307 258
-0.016074561 0.764 -0.024111839 1.5026676e-38 308 258
-0.014735013 0.764 -0.024111839 1.4934479e-38 309 258
-0.0133604 0.76200002 -0.02404872 1.5027027e-38 310 258
-0.01202436 0.76200002 -0.02404872 1.4934832e-38 311 258
-0.010674292 0.76099998 -0.024017159 1.5302892e-38 312 258
-0.0093400059 0.76099998 -0.024017159 1.5395088e-38 313 258
-0.0079846792 0.759 -0.023954039 1.5394732e-38 314 258
-0.0066538998 0.759 -0.023954039 1.5302537e-38 315 258
-0.0053231199 0.759 -0.023954039 1.5211773e-38 316 258
-0.0039818203 0.75700003 -0.02389092 1.5119577e-38 317 258
-0.0026545466 0.75700003 -0.02389092 1.5303243e-38 318 258
-0.0013272733 0.75700003 -0.02389092 1.5026656e-38 319 258
0 0.75700003 -0.02389092 1.4935179e-38 320 258
0.0013272733 0.75700003 -0.02389092 1.4842984e-38 321 258
0.0026545466 0.75700003 -0.02389092 1.4842265e-38 322 258
0.0039818203 0.75700003 -0.02389092 1.4842265e-38 323 258
0.0053090933 0.75700003 -0.02389092 1.4750069e-38 324 258
0.0066363667 0.75700003 -0.02389092 1.4565676e-38 325 258
0.0079636406 0.75700003 -0.02389092 1.474827e-38 326 258
0.00931546 0.759 -0.023954039 1.4564239e-38 327 258
0.01064624 0.759 -0.023954039 1.4746479e-38 328 258
0.01197702 0.759 -0.023954039 1.4654283e-38 329 258
0.013342866 0.76099998 -0.024017159 1.4470255e-38 330 258
0.014677152 0.76099998 -0.024017159 1.4286222e-38 331 258
0.01603248 0.76200002 -0.02404872 1.4194041e-38 332 258
0.01736852 0.76200002 -0.02404872 1.4286236e-38 333 258
0.01870456 0.76200002 -0.02404872 1.4102236e-38 334 258
0.0200406 0.76200002 -0.02404872 1.4194432e-38 335 258
0.02137664 0.76200002 -0.02404872 1.3735291e-38 336 258
-0.028498679 0.77399999 -0.025784519 1.4383219e-38 299 259
-0.027106533 0.773 -0.025751207 1.4201682e-38 300 259
-0.025751207 0.773 -0.025751207 1.4109486e-38 301 259
-0.02433276 0.77100003 -0.02568458 1.5120001e-38 302 259
-0.02298094 0.77100003 -0.02568458 1.4843772e-38 303 259
-0.021573013 0.76899999 -0.025617953 1.5118889e-38 304 259
-0.020172099 0.76700002 -0.025551327 1.5026694e-38 305 259
-0.018802745 0.76599997 -0.025518013 1.5118518e-38 306 259
-0.017459691 0.76599997 -0.025518013 1.5118518e-38 307 259
-0.016116638 0.76599997 -0.025518013 1.4751166e-38 308 259
-0.014773586 0.76599997 -0.025518013 1.4751166e-38 309 259
-0.013395466 0.764 -0.025451386 1.4934476e-38 310 259
-0.01205592 0.764 -0.025451386 1.5026671e-38 311 259
-0.01068832 0.76200002 -0.02538476 1.5118874e-38 312 259
-0.0093522798 0.76200002 -0.02538476 1.5118874e-38 313 259
-0.0080057196 0.76099998 -0.025351444 1.5118874e-38 314 259
-0.0066714329 0.76099998 -0.025351444 1.5026678e-38 315 259
-0.0053371461 0.76099998 -0.025351444 1.5027748e-38 316 259
-0.0039923396 0.759 -0.025284819 1.4843715e-38 317 259
-0.00266156 0.759 -0.025284819 1.5027378e-38 318 259
-0.00133078 0.759 -0.025284819 1.5027378e-38 319 259
0 0.759 -0.025284819 1.521069e-38 320 259
0.00133078 0.759 -0.025284819 1.5026659e-38 321 259
0.0026545466 0.75700003 -0.025218192 1.493446e-38 322 259
0.0039818203 0.75700003 -0.025218192 1.493446e-38 323 259
0.0053090933 0.75700003 -0.025218192 1.4841902e-38 324 259
0.0066538998 0.759 -0.025284819 1.4749347e-38 325 259
0.0079846792 0.759 -0.025284819 1.4839749e-38 326 259
0.0093400059 0.76099998 -0.025351444 1.4747195e-38 327 259
0.01068832 0.76200002 -0.02538476 1.4655005e-38 328 259
0.012008579 0.76099998 -0.025351444 1.4562451e-38 329 259
0.013342866 0.76099998 -0.025351444 1.4470258e-38 330 259
0.01469644 0.76200002 -0.02538476 1.4470258e-38 331 259
0.016074561 0.764 -0.025451386 1.4102574e-38 332 259
0.017414106 0.764 -0.025451386 1.4286605e-38 333 259
0.018753653 0.764 -0.025451386 1.382747e-38 334 259
0.020093199 0.764 -0.025451386 1.4104056e-38 335 259
-0.028498679 0.77399999 -0.027141599 1.4383943e-38 299 260
-0.027141599 0.77399999 -0.027141599 1.4199909e-38 300 260
-0.025751207 0.773 -0.027106533 1.4199909e-38 301 260
-0.02433276 0.77100003 -0.027036399 1.4659418e-38 302 260
-0.02298094 0.77100003 -0.027036399 1.4751613e-38 303 260
-0.021573013 0.76899999 -0.026966266 1.5119635e-38 304 260
-0.020172099 0.76700002 -0.026896132 1.4750852e-38 305 260
-0.018827293 0.76700002 -0.026896132 1.5118889e-38 306 260
-0.017459691 0.76599997 -0.026861066 1.5026694e-38 307 260
-0.016116638 0.76599997 -0.026861066 1.4843729e-38 308 260
-0.014773586 0.76599997 -0.026861066 1.4751533e-38 309 260
-0.013395466 0.764 -0.026790932 1.5026671e-38 310 260
-0.01205592 0.764 -0.026790932 1.5026671e-38 311 260
-0.01068832 0.76200002 -0.0267208 1.5210342e-38 312 260
-0.0093522798 0.76200002 -0.0267208 1.5025952e-38 313 260
-0.0080162399 0.76200002 -0.0267208 1.4934479e-38 314 260
-0.0066801999 0.76200002 -0.0267208 1.5026676e-38 315 260
-0.0053371461 0.76099998 -0.026685731 1.5027748e-38 316 260
-0.0040028598 0.76099998 -0.026685731 1.4843715e-38 317 260
-0.0026685731 0.76099998 -0.026685731 1.5027024e-38 318 260
-0.0013342865 0.76099998 -0.026685731 1.4934829e-38 319 260
0 0.76099998 -0.026685731 1.502738e-38 320 260
0.0013342865 0.76099998 -0.026685731 1.4934826e-38 321 260
0.0026685731 0.76099998 -0.026685731 1.4934829e-38 322 260
0.0040028598 0.76099998 -0.026685731 1.4934829e-38 323 260
0.0053371461 0.76099998 -0.026685731 1.5025229e-38 324 260
0.0066714329 0.76099998 -0.026685731 1.4841198e-38 325 260
0.0080162399 0.76200002 -0.0267208 1.4839766e-38 326 260
0.0093522798 0.76200002 -0.0267208 1.474721e-38 327 260
0.010716373 0.764 -0.026790932 1.4563185e-38 328 260
0.01205592 0.764 -0.026790932 1.4470631e-38 329 260
0.013395466 0.764 -0.026790932 1.4378087e-38 330 260
0.014735013 0.764 -0.026790932 1.4470283e-38 331 260
0.016074561 0.764 -0.026790932 1.4010422e-38 332 260
0.017414106 0.764 -0.026790932 1.428665e-38 333 260
0.018753653 0.764 -0.026790932 1.3551641e-38 334 260
-0.028368933 0.80900002 -0.02978738 1.4567966e-38 300 261
-0.025751207 0.773 -0.028461859 1.4383575e-38 301 261
-0.024395877 0.773 -0.028461859 1.4384992e-38 302 261
-0.02298094 0.77100003 -0.028388219 1.420096e-38 303 261
-0.021629119 0.77100003 -0.028388219 1.4385315e-38 304 261
-0.0202247 0.76899999 -0.028314579 1.429312e-38 305 261
-0.018827293 0.76700002 -0.02824094 1.4935943e-38 306 261
-0.017482487 0.76700002 -0.02824094 1.4659716e-38 307 261
-0.016116638 0.76599997 -0.028204117 1.4935927e-38 308 261
-0.014773586 0.76599997 -0.028204117 1.4843732e-38 309 261
-0.013395466 0.764 -0.028130481 1.5026678e-38 310 261
-0.01205592 0.764 -0.028130481 1.4934481e-38 311 261
-0.010716373 0.764 -0.028130481 1.4934481e-38 312 261
-0.0093768267 0.764 -0.028130481 1.4934481e-38 313 261
-0.0080162399 0.76200002 -0.028056841 1.475081e-38 314 261
-0.0066801999 0.76200002 -0.028056841 1.4843007e-38 315 261
-0.0053441599 0.76200002 -0.028056841 1.4751882e-38 316 261
-0.0040081199 0.76200002 -0.028056841 1.4751882e-38 317 261
-0.00267208 0.76200002 -0.028056841 1.4751517e-38 318 261
-0.00133604 0.76200002 -0.028056841 1.4751517e-38 319 261
0 0.76200002 -0.028056841 1.4934829e-38 320 261
0.00133604 0.76200002 -0.028056841 1.4934829e-38 321 261
0.00267208 0.76200002 -0.028056841 1.4934829e-38 322 261
0.0040081199 0.76200002 -0.028056841 1.4934829e-38 323 261
0.0053441599 0.76200002 -0.028056841 1.5117778e-38 324 261
0.006697733 0.764 -0.028130481 1.4841193e-38 325 261
0.0080583189 0.76599997 -0.028204117 1.4932315e-38 326 261
0.0094013726 0.76599997 -0.028204117 1.4747564e-38 327 261
0.010744425 0.76599997 -0.028204117 1.4562829e-38 328 261
0.01205592 0.764 -0.028130481 1.4470633e-38 329 261
0.013395466 0.764 -0.028130481 1.4286986e-38 330 261
0.014735013 0.764 -0.028130481 1.4286986e-38 331 261
0.016074561 0.764 -0.028130481 1.3828208e-38 332 261
0.017414106 0.764 -0.028130481 1.3920404e-38 333 261
-0.025751207 0.773 -0.029817186 1.4567613e-38 301 262
-0.024395877 0.773 -0.029817186 1.4201342e-38 302 262
-0.023040552 0.773 -0.029817186 1.401731e-38 303 262
-0.021685226 0.773 -0.029817186 1.4016565e-38 304 262
-0.018827293 0.76700002 -0.029585747 1.475194e-38 306 262
-0.017482487 0.76700002 -0.029585747 1.4475713e-38 307 262
-0.01613768 0.76700002 -0.029585747 1.4752277e-38 308 262
-0.014773586 0.76599997 -0.029547172 1.4660082e-38 309 262
-0.013430533 0.76599997 -0.029547172 1.4843376e-38 310 262
-0.012087479 0.76599997 -0.029547172 1.475118e-38 311 262
-0.010744425 0.76599997 -0.029547172 1.484193e-38 312 262
-0.0093768267 0.764 -0.029470026 1.4934125e-38 313 262
-0.0080162399 0.76200002 -0.029392879 1.4934125e-38 314 262
-0.0066801999 0.76200002 -0.029392879 1.4934125e-38 315 262
-0.0053441599 0.76200002 -0.029392879 1.4751887e-38 316 262
-0.0040081199 0.76200002 -0.029392879 1.4751887e-38 317 262
-0.00267208 0.76200002 -0.029392879 1.4843359e-38 318 262
-0.00133604 0.76200002 -0.029392879 1.4751163e-38 319 262
0 0.76200002 -0.029392879 1.4934832e-38 320 262
0.00133604 0.76200002 -0.029392879 1.4934832e-38 321 262
0.00267208 0.76200002 -0.029392879 1.5026308e-38 322 262
0.0040186401 0.764 -0.029470026 1.5026308e-38 323 262
0.0053581866 0.764 -0.029470026 1.4841561e-38 324 262
0.0067152665 0.76599997 -0.029547172 1.4749366e-38 325 262
0.0080583189 0.76599997 -0.029547172 1.4656098e-38 326 262
0.0094013726 0.76599997 -0.029547172 1.4563901e-38 327 262
0.010744425 0.76599997 -0.029547172 1.4287336e-38 328 262
0.01205592 0.764 -0.029470026 1.4379532e-38 329 262
0.013395466 0.764 -0.029470026 1.4103706e-38 330 262
0.014735013 0.764 -0.029470026 1.4195902e-38 331 262
0.016074561 0.764 -0.029470026 1.3553811e-38 332 262
-0.018876385 0.76899999 -0.031011207 1.438426e-38 306 263
-0.017528072 0.76899999 -0.031011207 1.4292063e-38 307 263
-0.01613768 0.76700002 -0.030930554 1.4567906e-38 308 263
-0.014792874 0.76700002 -0.030930554 1.447571e-38 309 263
-0.013448066 0.76700002 -0.030930554 1.4659363e-38 310 263
-0.01210326 0.76700002 -0.030930554 1.4567167e-38 311 263
-0.010758453 0.76700002 -0.030930554 1.475011e-38 312 263
-0.0093522798 0.76200002 -0.030728921 1.475011e-38 313 263
-0.0080162399 0.76200002 -0.030728921 1.4750463e-38 314 263
-0.0066801999 0.76200002 -0.030728921 1.4750463e-38 315 263
-0.0053441599 0.76200002 -0.030728921 1.4843013e-38 316 263
-0.0040081199 0.76200002 -0.030728921 1.4843013e-38 317 263
-0.00267208 0.76200002 -0.030728921 1.4751531e-38 318 263
-0.0013395466 0.764 -0.030809574 1.4659334e-38 319 263
0 0.764 -0.030809574 1.4751166e-38 320 263
0.0013395466 0.764 -0.030809574 1.4751166e-38 321 263
0.0026861064 0.76599997 -0.030890226 1.4934125e-38 322 263
0.0040291594 0.76599997 -0.030890226 1.484193e-38 323 263
0.0053722127 0.76599997 -0.030890226 1.4657546e-38 324 263
0.0067152665 0.76599997 -0.030890226 1.456535e-38 325 263
0.0080583189 0.76599997 -0.030890226 1.4472451e-38 326 263
0.0094013726 0.76599997 -0.030890226 1.4287701e-38 327 263
0.010744425 0.76599997 -0.030890226 1.3920388e-38 328 263
