# .PCD v.7 - Point Cloud Data file format
FIELDS x y z rgb imX imY
SIZE 4 4 4 4 4 4
TYPE F F F F F F
COUNT 1 1 1 1 1 1
WIDTH 842
HEIGHT 1
VIEWPOINT 0 0 0 1 0 0 0
POINTS 842
DATA ascii
0.0061892662 0.70599997 -0.029708479 7.1911498e-39 325 264
0.0074271196 0.70599997 -0.029708479 7.1915086e-39 326 264
0.0086649731 0.70599997 -0.029708479 7.0993143e-39 327 264
0.0099168532 0.70700002 -0.029750559 7.2826266e-39 328 264
0.011156459 0.70700002 -0.029750559 7.2826266e-39 329 264
0.012396066 0.70700002 -0.029750559 7.3748208e-39 330 264
0.013654959 0.708 -0.02979264 7.3748208e-39 331 264
0.01489632 0.708 -0.02979264 7.6499686e-39 332 264
0.01613768 0.708 -0.02979264 7.6499686e-39 333 264
0.017428132 0.70999998 -0.029876797 7.7418041e-39 334 264
0.0186993 0.71100003 -0.029918881 7.8339983e-39 335 264
0.020002026 0.713 -0.030003037 7.8343654e-39 336 264
0.021281958 0.71399999 -0.030045118 8.0187567e-39 337 264
0.022596961 0.71600002 -0.03012928 8.0191252e-39 338 264
0.023852346 0.71600002 -0.03012928 8.2035179e-39 339 264
0.025107734 0.71600002 -0.03012928 8.4786629e-39 340 264
0.026363119 0.71600002 -0.03012928 8.662694e-39 341 264
0.027618507 0.71600002 -0.03012928 1.1883799e-38 342 264
0.028873893 0.71600002 -0.03012928 1.4834419e-38 343 264
-0.044306733 0.722 -0.031647664 1.4929896e-38 285 265
-0.043040827 0.722 -0.031647664 1.3181009e-38 286 265
-0.041659199 0.72000003 -0.03156 1.1060509e-38 287 265
-0.040396802 0.72000003 -0.03156 1.0053155e-38 288 265
-0.038971342 0.71700001 -0.031428497 9.8684048e-39 289 265
-0.037661601 0.71600002 -0.031384666 9.5914452e-39 290 265
-0.036304519 0.71399999 -0.031296998 9.3152184e-39 291 265
-0.035003547 0.713 -0.031253166 9.1318964e-39 292 265
-0.033658739 0.71100003 -0.031165501 8.9478652e-39 293 265
-0.032366529 0.70999998 -0.031121666 8.8560325e-39 294 265
-0.031034 0.708 -0.031034 8.8560325e-39 295 265
-0.029750559 0.70700002 -0.030990168 8.9475121e-39 296 265
-0.028510952 0.70700002 -0.030990168 8.8553151e-39 297 265
-0.027271347 0.70700002 -0.030990168 8.6712839e-39 298 265
-0.025994917 0.70599997 -0.030946331 8.4872528e-39 299 265
-0.024757065 0.70599997 -0.030946331 8.5776506e-39 300 265
-0.023452586 0.704 -0.030858666 8.5776506e-39 301 265
-0.022218239 0.704 -0.030858666 8.5776534e-39 302 265
-0.020983893 0.704 -0.030858666 8.669849e-39 303 265
-0.019805651 0.70599997 -0.030946331 8.6698518e-39 304 265
-0.018515198 0.704 -0.030858666 8.6698518e-39 305 265
-0.017256306 0.70300001 -0.030814834 8.6705651e-39 306 265
-0.016023712 0.70300001 -0.030814834 8.4861738e-39 307 265
-0.014791119 0.70300001 -0.030814834 8.3939796e-39 308 265
-0.013558527 0.70300001 -0.030814834 8.1177556e-39 309 265
-0.012290866 0.70099998 -0.030727165 8.2088737e-39 310 265
-0.011061779 0.70099998 -0.030727165 8.0248439e-39 311 265
-0.0098326923 0.70099998 -0.030727165 7.9330084e-39 312 265
-0.0086036054 0.70099998 -0.030727165 7.8408142e-39 313 265
-0.0073745195 0.70099998 -0.030727165 7.839738e-39 314 265
-0.0061629666 0.70300001 -0.030814834 7.7475438e-39 315 265
-0.0049303733 0.70300001 -0.030814834 8.0226915e-39 316 265
-0.0036872597 0.70099998 -0.030727165 7.9301386e-39 317 265
-0.0024581731 0.70099998 -0.030727165 7.9297799e-39 318 265
-0.0012325933 0.70300001 -0.030814834 7.9297799e-39 319 265
0 0.70300001 -0.030814834 7.8375856e-39 320 265
0.0012325933 0.70300001 -0.030814834 7.7453914e-39 321 265
0.0024686933 0.704 -0.030858666 7.5602855e-39 322 265
0.0037030398 0.704 -0.030858666 7.4680912e-39 323 265
0.0049373866 0.704 -0.030858666 7.192226e-39 324 265
0.0061892662 0.70599997 -0.030946331 7.0996731e-39 325 265
0.0074271196 0.70599997 -0.030946331 7.0993143e-39 326 265
0.0086649731 0.70599997 -0.030946331 7.0993143e-39 327 265
0.0099168532 0.70700002 -0.030990168 7.2826266e-39 328 265
0.011156459 0.70700002 -0.030990168 7.2826266e-39 329 265
0.0124136 0.708 -0.031034 7.3751796e-39 330 265
0.013654959 0.708 -0.031034 7.3751796e-39 331 265
0.01489632 0.708 -0.031034 7.4662976e-39 332 265
0.016183265 0.70999998 -0.031121666 7.4662976e-39 333 265
0.01745268 0.71100003 -0.031165501 7.7418041e-39 334 265
0.0186993 0.71100003 -0.031165501 7.8339983e-39 335 265
0.020002026 0.713 -0.031253166 8.0176777e-39 336 265
0.021281958 0.71399999 -0.031296998 8.202069e-39 337 265
0.022596961 0.71600002 -0.031384666 8.1105992e-39 338 265
0.02388566 0.71700001 -0.031428497 8.3871861e-39 339 265
0.0251428 0.71700001 -0.031428497 8.5690564e-39 340 265
0.026363119 0.71600002 -0.031384666 9.9519909e-39 341 265
0.027618507 0.71600002 -0.031384666 1.2714282e-38 342 265
0.028873893 0.71600002 -0.031384666 1.5019532e-38 343 265
-0.044368099 0.72299999 -0.032959159 1.5481991e-38 285 266
-0.043100435 0.72299999 -0.032959159 1.4285554e-38 286 266
-0.041774917 0.722 -0.032913569 1.1335295e-38 287 266
-0.040396802 0.72000003 -0.0328224 1.0511243e-38 288 266
-0.039080046 0.71899998 -0.032776814 1.0326493e-38 289 266
-0.037714198 0.71700001 -0.032685637 1.0050258e-38 290 266
-0.036406212 0.71600002 -0.032640055 9.7736728e-39 291 266
-0.035003547 0.713 -0.032503292 9.1311775e-39 292 266
-0.033658739 0.71100003 -0.032412119 9.1311775e-39 293 266
-0.032366529 0.70999998 -0.032366529 8.9485841e-39 294 266
-0.031034 0.708 -0.03227536 8.8560297e-39 295 266
-0.029750559 0.70700002 -0.032229774 8.9478652e-39 296 266
-0.028510952 0.70700002 -0.032229774 8.8553095e-39 297 266
-0.027271347 0.70700002 -0.032229774 8.94571e-39 298 266
-0.025994917 0.70599997 -0.032184184 8.8535158e-39 299 266
-0.024757065 0.70599997 -0.032184184 8.8535172e-39 300 266
-0.023519212 0.70599997 -0.032184184 8.6687686e-39 301 266
-0.022218239 0.704 -0.032093015 8.5776534e-39 302 266
-0.020983893 0.704 -0.032093015 8.669849e-39 303 266
-0.019805651 0.70599997 -0.032184184 8.6698518e-39 304 266
-0.018567799 0.70599997 -0.032184184 8.8538829e-39 305 266
-0.017280852 0.704 -0.032093015 8.7609628e-39 306 266
-0.016023712 0.70300001 -0.032047424 8.7609628e-39 307 266
-0.014791119 0.70300001 -0.032047424 8.3936209e-39 308 266
-0.013558527 0.70300001 -0.032047424 8.3014266e-39 309 266
-0.012325933 0.70300001 -0.032047424 8.0248439e-39 310 266
-0.01109334 0.70300001 -0.032047424 8.0248439e-39 311 266
-0.0098607466 0.70300001 -0.032047424 7.8408142e-39 312 266
-0.0086281532 0.70300001 -0.032047424 7.7482613e-39 313 266
-0.0073955595 0.70300001 -0.032047424 8.0230503e-39 314 266
-0.0061629666 0.70300001 -0.032047424 7.9308561e-39 315 266
-0.0049303733 0.70300001 -0.032047424 7.7471851e-39 316 266
-0.0037030398 0.704 -0.032093015 7.6546321e-39 317 266
-0.0024651866 0.70300001 -0.032047424 7.7461089e-39 318 266
-0.0012325933 0.70300001 -0.032047424 7.5620791e-39 319 266
0 0.704 -0.032093015 7.5620791e-39 320 266
0.0012343467 0.704 -0.032093015 7.5620791e-39 321 266
0.0024686933 0.704 -0.032093015 7.5606442e-39 322 266
0.0037030398 0.704 -0.032093015 7.46845e-39 323 266
0.0049373866 0.704 -0.032093015 7.2840615e-39 324 266
0.0061892662 0.70599997 -0.032184184 7.1918673e-39 325 266
0.0074376399 0.70700002 -0.032229774 7.3751796e-39 326 266
0.008677247 0.70700002 -0.032229774 7.3751796e-39 327 266
0.0099168532 0.70700002 -0.032229774 7.2826266e-39 328 266
0.01117224 0.708 -0.03227536 7.3751796e-39 329 266
0.0124136 0.708 -0.03227536 7.3741034e-39 330 266
0.013654959 0.708 -0.03227536 7.3741034e-39 331 266
0.014938398 0.70999998 -0.032366529 7.4662976e-39 332 266
0.016183265 0.70999998 -0.032366529 7.6503273e-39 333 266
0.01745268 0.71100003 -0.032412119 7.6499686e-39 334 266
0.0186993 0.71100003 -0.032412119 7.8343598e-39 335 266
0.020002026 0.713 -0.032503292 7.9265611e-39 336 266
0.021281958 0.71399999 -0.032548878 8.1109523e-39 337 266
0.022596961 0.71600002 -0.032640055 8.1109649e-39 338 266
0.02388566 0.71700001 -0.032685637 8.2957163e-39 339 266
0.0251428 0.71700001 -0.032685637 8.2035179e-39 340 266
0.02639994 0.71700001 -0.032685637 1.0231822e-38 341 266
0.027657079 0.71700001 -0.032685637 1.3543327e-38 342 266
0.028914221 0.71700001 -0.032685637 1.5295044e-38 343 266
-0.043040827 0.722 -0.034179479 1.5206441e-38 286 267
-0.041774917 0.722 -0.034179479 1.1979595e-38 287 267
-0.040396802 0.72000003 -0.034084801 1.0509092e-38 288 267
-0.039134402 0.72000003 -0.034084801 1.0416895e-38 289 267
-0.037819397 0.71899998 -0.03403746 9.9587858e-39 290 267
-0.036406212 0.71600002 -0.03389544 9.6821989e-39 291 267
-0.035052639 0.71399999 -0.033800758 9.22302e-39 292 267
-0.033753417 0.713 -0.033753417 9.1308244e-39 293 267
-0.032366529 0.70999998 -0.033611398 8.9475121e-39 294 267
-0.031034 0.708 -0.033516716 9.1315432e-39 295 267
-0.02979264 0.708 -0.033516716 8.9471562e-39 296 267
-0.028510952 0.70700002 -0.033469379 8.8549591e-39 297 267
-0.027271347 0.70700002 -0.033469379 8.9460758e-39 298 267
-0.02603174 0.70700002 -0.033469379 8.9460758e-39 299 267
-0.024792133 0.70700002 -0.033469379 8.5776506e-39 300 267
-0.023519212 0.70599997 -0.033422034 8.6698462e-39 301 267
-0.022281358 0.70599997 -0.033422034 8.5776534e-39 302 267
-0.021043506 0.70599997 -0.033422034 8.669849e-39 303 267
-0.019805651 0.70599997 -0.033422034 8.669849e-39 304 267
-0.018567799 0.70599997 -0.033422034 8.669849e-39 305 267
-0.017329946 0.70599997 -0.033422034 8.6698462e-39 306 267
-0.016046507 0.704 -0.03332736 8.4854564e-39 307 267
-0.014791119 0.70300001 -0.033280019 8.2099499e-39 308 267
-0.013558527 0.70300001 -0.033280019 8.1177556e-39 309 267
-0.012325933 0.70300001 -0.033280019 8.0248439e-39 310 267
-0.01109334 0.70300001 -0.033280019 8.0248439e-39 311 267
-0.0098607466 0.70300001 -0.033280019 7.8408142e-39 312 267
-0.0086281532 0.70300001 -0.033280019 7.7482613e-39 313 267
-0.0073955595 0.70300001 -0.033280019 7.7475438e-39 314 267
-0.0061629666 0.70300001 -0.033280019 7.7475438e-39 315 267
-0.0049373866 0.704 -0.03332736 7.7471851e-39 316 267
-0.0037030398 0.704 -0.03332736 7.6546321e-39 317 267
-0.0024686933 0.704 -0.03332736 7.6549908e-39 318 267
-0.0012343467 0.704 -0.03332736 7.5627966e-39 319 267
0 0.704 -0.03332736 7.5620791e-39 320 267
0.0012343467 0.704 -0.03332736 7.4695262e-39 321 267
0.0024686933 0.704 -0.03332736 7.3773319e-39 322 267
0.0037030398 0.704 -0.03332736 7.3773319e-39 323 267
0.0049373866 0.704 -0.03332736 7.192226e-39 324 267
0.0061980332 0.70700002 -0.033469379 7.192226e-39 325 267
0.0074376399 0.70700002 -0.033469379 7.1915086e-39 326 267
0.008689519 0.708 -0.033516716 7.2837028e-39 327 267
0.0099308798 0.708 -0.033516716 7.2837028e-39 328 267
0.011203799 0.70999998 -0.033611398 7.1915086e-39 329 267
0.012448666 0.70999998 -0.033611398 7.3744621e-39 330 267
0.013693533 0.70999998 -0.033611398 7.467015e-39 331 267
0.014959441 0.71100003 -0.033658739 7.4659389e-39 332 267
0.01620606 0.71100003 -0.033658739 7.6499686e-39 333 267
0.017501773 0.713 -0.033753417 7.6499686e-39 334 267
0.018751899 0.713 -0.033753417 7.8347158e-39 335 267
0.020030079 0.71399999 -0.033800758 8.1102265e-39 336 267
0.021341572 0.71600002 -0.03389544 8.2946177e-39 337 267
0.02262852 0.71700001 -0.033942781 8.387535e-39 338 267
0.023952285 0.71899998 -0.03403746 8.1109495e-39 339 267
0.025248 0.72000003 -0.034084801 8.8442042e-39 340 267
0.026510401 0.72000003 -0.034084801 1.2439475e-38 341 267
0.027772799 0.72000003 -0.034084801 1.4188699e-38 342 267
-0.043040827 0.722 -0.035445385 1.5668512e-38 286 268
-0.041774917 0.722 -0.035445385 1.2441665e-38 287 268
-0.040509012 0.722 -0.035445385 1.1152307e-38 288 268
-0.039134402 0.72000003 -0.035347197 1.1060111e-38 289 268
-0.037819397 0.71899998 -0.035298105 1.0326481e-38 290 268
-0.036457058 0.71700001 -0.035199918 1.0049534e-38 291 268
-0.035150826 0.71600002 -0.035150826 9.4066854e-39 292 268
-0.033800758 0.71399999 -0.035052639 9.3144897e-39 293 268
-0.032412119 0.71100003 -0.034905359 8.9471562e-39 294 268
-0.031121666 0.70999998 -0.034856264 8.9471562e-39 295 268
-0.02979264 0.708 -0.034758076 9.0386273e-39 296 268
-0.02855128 0.708 -0.034758076 9.0386273e-39 297 268
-0.027271347 0.70700002 -0.034708988 8.9467862e-39 298 268
-0.02603174 0.70700002 -0.034708988 8.854592e-39 299 268
-0.024792133 0.70700002 -0.034708988 8.6702035e-39 300 268
-0.023519212 0.70599997 -0.034659892 8.5780093e-39 301 268
-0.022281358 0.70599997 -0.034659892 8.7609628e-39 302 268
-0.021043506 0.70599997 -0.034659892 8.8535172e-39 303 268
-0.019805651 0.70599997 -0.034659892 8.5783694e-39 304 268
-0.018567799 0.70599997 -0.034659892 8.4861738e-39 305 268
-0.017329946 0.70599997 -0.034659892 8.5776534e-39 306 268
-0.016046507 0.704 -0.034561705 8.4854578e-39 307 268
-0.014812159 0.704 -0.034561705 8.3932621e-39 308 268
-0.013577812 0.704 -0.034561705 8.3010679e-39 309 268
-0.012343466 0.704 -0.034561705 8.2081562e-39 310 268
-0.011109119 0.704 -0.034561705 8.115962e-39 311 268
-0.0098607466 0.70300001 -0.034512613 7.932291e-39 312 268
-0.0086281532 0.70300001 -0.034512613 7.8400968e-39 313 268
-0.0074060797 0.704 -0.034561705 7.8400968e-39 314 268
-0.0061717331 0.704 -0.034561705 7.7479025e-39 315 268
-0.0049373866 0.704 -0.034561705 7.7479025e-39 316 268
-0.0037030398 0.704 -0.034561705 7.6557083e-39 317 268
-0.0024686933 0.704 -0.034561705 7.8383031e-39 318 268
-0.0012343467 0.704 -0.034561705 7.7461089e-39 319 268
0 0.704 -0.034561705 7.5620791e-39 320 268
0.0012343467 0.704 -0.034561705 7.5620791e-39 321 268
0.0024686933 0.704 -0.034561705 7.3773319e-39 322 268
0.0037135598 0.70599997 -0.034659892 7.3773319e-39 323 268
0.0049514128 0.70599997 -0.034659892 7.559568e-39 324 268
0.0061980332 0.70700002 -0.034708988 7.4673738e-39 325 268
0.0074481601 0.708 -0.034758076 7.650686e-39 326 268
0.008689519 0.708 -0.034758076 7.650686e-39 327 268
0.0099589331 0.70999998 -0.034856264 7.2837028e-39 328 268
0.011203799 0.70999998 -0.034856264 7.4677325e-39 329 268
0.0124662 0.71100003 -0.034905359 7.467015e-39 330 268
0.01371282 0.71100003 -0.034905359 7.467015e-39 331 268
0.014959441 0.71100003 -0.034905359 7.4659389e-39 332 268
0.01620606 0.71100003 -0.034905359 7.6499686e-39 333 268
0.017501773 0.713 -0.035003547 7.8343598e-39 334 268
0.018778199 0.71399999 -0.035052639 7.9269142e-39 335 268
0.020030079 0.71399999 -0.035052639 8.2020662e-39 336 268
0.021341572 0.71600002 -0.035150826 8.3868162e-39 337 268
0.02262852 0.71700001 -0.035199918 8.4797349e-39 338 268
0.023952285 0.71899998 -0.035298105 8.2949835e-39 339 268
0.025353199 0.72299999 -0.035494477 9.4881415e-39 340 268
0.026620859 0.72299999 -0.035494477 1.3452554e-38 341 268
0.02788852 0.72299999 -0.035494477 1.4649321e-38 342 268
-0.041774917 0.722 -0.03671129 1.3822817e-38 287 269
-0.040509012 0.722 -0.03671129 1.1798056e-38 288 269
-0.039134402 0.72000003 -0.036609601 1.0876098e-38 289 269
-0.037871998 0.72000003 -0.036609601 1.0143181e-38 290 269
-0.036558751 0.71899998 -0.036558751 9.8665929e-39 291 269
-0.035199918 0.71700001 -0.036457058 9.4988866e-39 292 269
-0.03389544 0.71600002 -0.036406212 9.3141366e-39 293 269
-0.032503292 0.713 -0.036253672 9.1308272e-39 294 269
-0.031165501 0.71100003 -0.036151983 9.1308272e-39 295 269
-0.029876797 0.70999998 -0.036101133 9.1308216e-39 296 269
-0.028631933 0.70999998 -0.036101133 9.0386245e-39 297 269
-0.027309919 0.708 -0.03599944 9.0389805e-39 298 269
-0.026068559 0.708 -0.03599944 8.854592e-39 299 269
-0.024827199 0.708 -0.03599944 8.6702035e-39 300 269
-0.023552528 0.70700002 -0.035948593 8.6702035e-39 301 269
-0.022312919 0.70700002 -0.035948593 8.7613216e-39 302 269
-0.021073313 0.70700002 -0.035948593 8.8535158e-39 303 269
-0.019833706 0.70700002 -0.035948593 8.5780093e-39 304 269
-0.018567799 0.70599997 -0.035897743 8.4854564e-39 305 269
-0.017329946 0.70599997 -0.035897743 8.4854578e-39 306 269
-0.016092092 0.70599997 -0.035897743 8.3932621e-39 307 269
-0.014854239 0.70599997 -0.035897743 8.3932621e-39 308 269
-0.013577812 0.704 -0.035796054 8.3007092e-39 309 269
-0.012343466 0.704 -0.035796054 8.2088737e-39 310 269
-0.011109119 0.704 -0.035796054 8.0244852e-39 311 269
-0.0098747732 0.704 -0.035796054 7.932291e-39 312 269
-0.0086404262 0.704 -0.035796054 7.8400968e-39 313 269
-0.0074060797 0.704 -0.035796054 8.0230503e-39 314 269
-0.0061717331 0.704 -0.035796054 7.9308561e-39 315 269
-0.0049373866 0.704 -0.035796054 7.7468263e-39 316 269
-0.0037030398 0.704 -0.035796054 7.9308561e-39 317 269
-0.0024686933 0.704 -0.035796054 7.7471851e-39 318 269
-0.0012343467 0.704 -0.035796054 7.5624379e-39 319 269
0 0.704 -0.035796054 7.5627966e-39 320 269
0.0012378532 0.70599997 -0.035897743 7.4702436e-39 321 269
0.0024757064 0.70599997 -0.035897743 7.3776907e-39 322 269
0.0037135598 0.70599997 -0.035897743 7.3776907e-39 323 269
0.0049584266 0.70700002 -0.035948593 7.6517622e-39 324 269
0.0061980332 0.70700002 -0.035948593 7.559568e-39 325 269
0.0074481601 0.708 -0.03599944 7.5592093e-39 326 269
0.008689519 0.708 -0.03599944 7.5592093e-39 327 269
0.0099589331 0.70999998 -0.036101133 7.2833441e-39 328 269
0.011203799 0.70999998 -0.036101133 7.2833441e-39 329 269
0.0124662 0.71100003 -0.036151983 7.4666563e-39 330 269
0.01371282 0.71100003 -0.036151983 7.3744621e-39 331 269
0.014959441 0.71100003 -0.036151983 7.6499686e-39 332 269
0.016251646 0.713 -0.036253672 7.7421628e-39 333 269
0.017526319 0.71399999 -0.036304519 7.8343598e-39 334 269
0.018778199 0.71399999 -0.036304519 7.9269142e-39 335 269
0.020086186 0.71600002 -0.036406212 8.2946205e-39 336 269
0.021341572 0.71600002 -0.036406212 8.3868162e-39 337 269
0.02262852 0.71700001 -0.036457058 8.5719277e-39 338 269
0.023952285 0.71899998 -0.036558751 8.387535e-39 339 269
0.025353199 0.72299999 -0.036762137 1.0501217e-38 340 269
0.026620859 0.72299999 -0.036762137 1.4189403e-38 341 269
0.02788852 0.72299999 -0.036762137 1.4925914e-38 342 269
-0.041774917 0.722 -0.0379772 1.4560032e-38 287 270
-0.040509012 0.722 -0.0379772 1.2628188e-38 288 270
-0.039134402 0.72000003 -0.037871998 1.0968306e-38 289 270
-0.037871998 0.72000003 -0.037871998 1.0143903e-38 290 270
-0.036558751 0.71899998 -0.037819397 9.9591529e-39 291 270
-0.035199918 0.71700001 -0.037714198 9.4988866e-39 292 270
-0.03389544 0.71600002 -0.037661601 9.3141366e-39 293 270
-0.032548878 0.71399999 -0.037556399 9.0382714e-39 294 270
-0.031165501 0.71100003 -0.037398599 9.0382714e-39 295 270
-0.029918881 0.71100003 -0.037398599 9.0386273e-39 296 270
-0.028631933 0.70999998 -0.037345998 8.9464317e-39 297 270
-0.027309919 0.708 -0.0372408 8.9464275e-39 298 270
-0.026068559 0.708 -0.0372408 8.8542333e-39 299 270
-0.024827199 0.708 -0.0372408 8.6702035e-39 300 270
-0.023585839 0.708 -0.0372408 8.5780093e-39 301 270
-0.022344479 0.708 -0.0372408 8.5780093e-39 302 270
-0.021103119 0.708 -0.0372408 8.5780093e-39 303 270
-0.019833706 0.70700002 -0.037188202 8.6691273e-39 304 270
-0.018594101 0.70700002 -0.037188202 8.6691273e-39 305 270
-0.017354494 0.70700002 -0.037188202 8.5765744e-39 306 270
-0.016092092 0.70599997 -0.037135597 8.5765744e-39 307 270
-0.014854239 0.70599997 -0.037135597 8.3010679e-39 308 270
-0.013616386 0.70599997 -0.037135597 8.3010679e-39 309 270
-0.012378532 0.70599997 -0.037135597 8.0248439e-39 310 270
-0.011109119 0.704 -0.037030395 8.0248439e-39 311 270
-0.0098747732 0.704 -0.037030395 8.1156032e-39 312 270
-0.0086404262 0.704 -0.037030395 8.023409e-39 313 270
-0.0074060797 0.704 -0.037030395 7.839738e-39 314 270
-0.0061717331 0.704 -0.037030395 7.7475438e-39 315 270
-0.0049373866 0.704 -0.037030395 7.7475438e-39 316 270
-0.0037135598 0.70599997 -0.037135597 7.6553496e-39 317 270
-0.0024757064 0.70599997 -0.037135597 7.7468263e-39 318 270
-0.0012378532 0.70599997 -0.037135597 7.5620791e-39 319 270
0 0.70599997 -0.037135597 7.4702436e-39 320 270
0.0012378532 0.70599997 -0.037135597 7.4702436e-39 321 270
0.0024792133 0.70700002 -0.037188202 7.2865726e-39 322 270
0.0037188199 0.70700002 -0.037188202 7.1943784e-39 323 270
0.0049654399 0.708 -0.0372408 7.6517622e-39 324 270
0.0062067998 0.708 -0.0372408 7.559568e-39 325 270
0.0074691991 0.70999998 -0.037345998 7.467015e-39 326 270
0.0087140659 0.70999998 -0.037345998 7.467015e-39 327 270
0.0099589331 0.70999998 -0.037345998 7.5588505e-39 328 270
0.01121958 0.71100003 -0.037398599 7.3744621e-39 329 270
0.0124662 0.71100003 -0.037398599 7.3744621e-39 330 270
0.01371282 0.71100003 -0.037398599 7.3744621e-39 331 270
0.015001519 0.713 -0.037503798 7.3741034e-39 332 270
0.016251646 0.713 -0.037503798 7.5588533e-39 333 270
0.017526319 0.71399999 -0.037556399 7.9265583e-39 334 270
0.0188308 0.71600002 -0.037661601 8.0187539e-39 335 270
0.020086186 0.71600002 -0.037661601 8.2942646e-39 336 270
0.021371379 0.71700001 -0.037714198 8.4790146e-39 337 270
0.022691639 0.71899998 -0.037819397 8.3871791e-39 338 270
0.024052227 0.722 -0.0379772 9.4016911e-39 339 270
0.025318133 0.722 -0.0379772 1.1698688e-38 340 270
0.026620859 0.72299999 -0.038029801 1.4556753e-38 341 270
-0.041832779 0.72299999 -0.039297458 1.5021739e-38 287 271
-0.040509012 0.722 -0.039243106 1.3640913e-38 288 271
-0.039243106 0.722 -0.039243106 1.1612609e-38 289 271
-0.037871998 0.72000003 -0.039134402 1.0419058e-38 290 271
-0.036609601 0.72000003 -0.039134402 9.9584382e-39 291 271
-0.035199918 0.71700001 -0.038971342 9.5910822e-39 292 271
-0.03389544 0.71600002 -0.038916986 9.3141366e-39 293 271
-0.032548878 0.71399999 -0.038808275 9.1308244e-39 294 271
-0.031253166 0.713 -0.038753927 9.0386273e-39 295 271
-0.030003037 0.713 -0.038753927 9.2219396e-39 296 271
-0.028672259 0.71100003 -0.038645219 9.0379085e-39 297 271
-0.027387066 0.70999998 -0.038590867 8.94571e-39 298 271
-0.026142199 0.70999998 -0.038590867 8.8535158e-39 299 271
-0.024827199 0.708 -0.038482159 8.8535158e-39 300 271
-0.023585839 0.708 -0.038482159 8.7613216e-39 301 271
-0.022344479 0.708 -0.038482159 8.7613216e-39 302 271
-0.021103119 0.708 -0.038482159 8.7613216e-39 303 271
-0.01986176 0.708 -0.038482159 8.6691273e-39 304 271
-0.018594101 0.70700002 -0.038427804 8.6691273e-39 305 271
-0.017354494 0.70700002 -0.038427804 8.3936209e-39 306 271
-0.016114887 0.70700002 -0.038427804 8.3936209e-39 307 271
-0.014854239 0.70599997 -0.038373452 8.3014266e-39 308 271
-0.013616386 0.70599997 -0.038373452 8.3014266e-39 309 271
-0.012378532 0.70599997 -0.038373452 8.2081562e-39 310 271
-0.011140679 0.70599997 -0.038373452 8.115962e-39 311 271
-0.0099028256 0.70599997 -0.038373452 8.1156032e-39 312 271
-0.0086649731 0.70599997 -0.038373452 8.023409e-39 313 271
-0.0074271196 0.70599997 -0.038373452 8.0230503e-39 314 271
-0.0061892662 0.70599997 -0.038373452 7.9308561e-39 315 271
-0.0049514128 0.70599997 -0.038373452 8.0226915e-39 316 271
-0.0037135598 0.70599997 -0.038373452 7.9301386e-39 317 271
-0.0024757064 0.70599997 -0.038373452 7.5627966e-39 318 271
-0.0012378532 0.70599997 -0.038373452 7.3787669e-39 319 271
0 0.70599997 -0.038373452 7.4698849e-39 320 271
0.0012396066 0.70700002 -0.038427804 7.4698849e-39 321 271
0.0024792133 0.70700002 -0.038427804 7.3776907e-39 322 271
0.00372408 0.708 -0.038482159 7.2854965e-39 323 271
0.0049654399 0.708 -0.038482159 7.559568e-39 324 271
0.0062243328 0.70999998 -0.038590867 7.559568e-39 325 271
0.0074691991 0.70999998 -0.038590867 7.4677325e-39 326 271
0.0087140659 0.70999998 -0.038590867 7.4677325e-39 327 271
0.0099729598 0.71100003 -0.038645219 7.4673738e-39 328 271
0.01121958 0.71100003 -0.038645219 7.2833441e-39 329 271
0.012501267 0.713 -0.038753927 7.3744621e-39 330 271
0.013751393 0.713 -0.038753927 7.3744621e-39 331 271
0.015001519 0.713 -0.038753927 7.2833441e-39 332 271
0.016274439 0.71399999 -0.038808275 7.4673738e-39 333 271
0.017575413 0.71600002 -0.038916986 7.8350787e-39 334 271
0.018857099 0.71700001 -0.038971342 7.9272743e-39 335 271
0.020114239 0.71700001 -0.038971342 8.386463e-39 336 271
0.021430992 0.71899998 -0.039080046 8.6626912e-39 337 271
0.022723202 0.72000003 -0.039134402 8.2957163e-39 338 271
0.024052227 0.722 -0.039243106 1.0139628e-38 339 271
0.025318133 0.722 -0.039243106 1.2438424e-38 340 271
0.026584039 0.722 -0.039243106 1.400575e-38 341 271
-0.041832779 0.72299999 -0.040565118 1.5390167e-38 287 272
-0.040509012 0.722 -0.040509012 1.4470694e-38 288 272
-0.039243106 0.722 -0.040509012 1.244239e-38 289 272
-0.037871998 0.72000003 -0.040396802 1.0969363e-38 290 272
-0.036609601 0.72000003 -0.040396802 1.0416191e-38 291 272
-0.035298105 0.71899998 -0.040340692 9.4084888e-39 292 272
-0.033942781 0.71700001 -0.040228479 8.9475121e-39 293 272
-0.032548878 0.71399999 -0.040060159 8.947159e-39 294 272
-0.031296998 0.71399999 -0.040060159 8.8549619e-39 295 272
-0.030003037 0.713 -0.040004052 9.1304712e-39 296 272
-0.028752912 0.713 -0.040004052 9.0382742e-39 297 272
-0.027425639 0.71100003 -0.039891839 8.9464289e-39 298 272
-0.026142199 0.70999998 -0.039835732 8.9464289e-39 299 272
-0.024897331 0.70999998 -0.039835732 8.6702035e-39 300 272
-0.023652466 0.70999998 -0.039835732 8.6702035e-39 301 272
-0.022344479 0.708 -0.039723519 8.5780093e-39 302 272
-0.021103119 0.708 -0.039723519 8.6702035e-39 303 272
-0.019917866 0.70999998 -0.039835732 8.4858151e-39 304 272
-0.0186204 0.708 -0.039723519 8.4858151e-39 305 272
-0.017379038 0.708 -0.039723519 8.2099499e-39 306 272
-0.016114887 0.70700002 -0.039667413 8.1177556e-39 307 272
-0.01487528 0.70700002 -0.039667413 8.2088737e-39 308 272
-0.013616386 0.70599997 -0.039611302 8.0248439e-39 309 272
-0.012378532 0.70599997 -0.039611302 8.2081562e-39 310 272
-0.011140679 0.70599997 -0.039611302 8.2081562e-39 311 272
-0.0099028256 0.70599997 -0.039611302 7.932291e-39 312 272
-0.0086649731 0.70599997 -0.039611302 7.932291e-39 313 272
-0.0074271196 0.70599997 -0.039611302 8.1148858e-39 314 272
-0.0061892662 0.70599997 -0.039611302 8.0226915e-39 315 272
-0.0049514128 0.70599997 -0.039611302 7.7468263e-39 316 272
-0.0037188199 0.70700002 -0.039667413 7.7468263e-39 317 272
-0.0024792133 0.70700002 -0.039667413 7.5631553e-39 318 272
-0.0012396066 0.70700002 -0.039667413 7.2869314e-39 319 272
0 0.70700002 -0.039667413 7.2865726e-39 320 272
0.00124136 0.708 -0.039723519 7.1943784e-39 321 272
0.00248272 0.708 -0.039723519 7.4691674e-39 322 272
0.00372408 0.708 -0.039723519 7.3766145e-39 323 272
0.0049794666 0.70999998 -0.039835732 7.4677325e-39 324 272
0.0062243328 0.70999998 -0.039835732 7.4677325e-39 325 272
0.0074691991 0.70999998 -0.039835732 7.2837028e-39 326 272
0.0087263398 0.71100003 -0.039891839 7.4677325e-39 327 272
0.0099729598 0.71100003 -0.039891839 7.4677325e-39 328 272
0.011251139 0.713 -0.040004052 7.2833441e-39 329 272
0.012501267 0.713 -0.040004052 7.4666563e-39 330 272
0.01377068 0.71399999 -0.040060159 7.4666563e-39 331 272
0.015022559 0.71399999 -0.040060159 7.4673738e-39 332 272
0.016320027 0.71600002 -0.040172372 7.5595708e-39 333 272
0.017575413 0.71600002 -0.040172372 7.8350815e-39 334 272
0.018857099 0.71700001 -0.040228479 8.0194728e-39 335 272
0.020170346 0.71899998 -0.040340692 8.3871791e-39 336 272
0.021460801 0.72000003 -0.040396802 8.4797349e-39 337 272
0.022786319 0.722 -0.040509012 8.8460161e-39 338 272
0.024052227 0.722 -0.040509012 1.1058351e-38 339 272
0.025318133 0.722 -0.040509012 1.2991245e-38 340 272
-0.043100435 0.72299999 -0.041832779 1.5482011e-38 286 273
-0.041832779 0.72299999 -0.041832779 1.5482011e-38 287 273
-0.040565118 0.72299999 -0.041832779 1.5022808e-38 288 273
-0.039243106 0.722 -0.041774917 1.3363645e-38 289 273
-0.0379772 0.722 -0.041774917 1.2164683e-38 290 273
-0.036609601 0.72000003 -0.041659199 1.096614e-38 291 273
-0.035298105 0.71899998 -0.041601337 1.0050256e-38 292 273
-0.033942781 0.71700001 -0.041485619 9.7740288e-39 293 273
-0.032640055 0.71600002 -0.041427758 9.2233759e-39 294 273
-0.031296998 0.71399999 -0.041312039 9.1308216e-39 295 273
-0.030045118 0.71399999 -0.041312039 9.1308244e-39 296 273
-0.028752912 0.713 -0.041254178 8.9464317e-39 297 273
-0.027425639 0.71100003 -0.041138459 9.038263e-39 298 273
-0.026179021 0.71100003 -0.041138459 8.9460688e-39 299 273
-0.024897331 0.70999998 -0.041080594 8.854592e-39 300 273
-0.023652466 0.70999998 -0.041080594 8.6705623e-39 301 273
-0.022407599 0.70999998 -0.041080594 8.6702035e-39 302 273
-0.021162732 0.70999998 -0.041080594 8.5780093e-39 303 273
-0.019917866 0.70999998 -0.041080594 8.4854564e-39 304 273
-0.0186204 0.708 -0.040964879 8.3932621e-39 305 273
-0.017379038 0.708 -0.040964879 8.3936209e-39 306 273
-0.01613768 0.708 -0.040964879 8.3014266e-39 307 273
-0.01487528 0.70700002 -0.040907022 8.3010679e-39 308 273
-0.013635674 0.70700002 -0.040907022 8.2088737e-39 309 273
-0.012396066 0.70700002 -0.040907022 8.0248439e-39 310 273
-0.011156459 0.70700002 -0.040907022 8.0248439e-39 311 273
-0.0099168532 0.70700002 -0.040907022 8.2081562e-39 312 273
-0.0086649731 0.70599997 -0.040849157 8.1156032e-39 313 273
-0.0074271196 0.70599997 -0.040849157 8.0230503e-39 314 273
-0.0061980332 0.70700002 -0.040907022 7.7468263e-39 315 273
-0.0049584266 0.70700002 -0.040907022 7.7468263e-39 316 273
-0.0037188199 0.70700002 -0.040907022 7.6546321e-39 317 273
-0.0024792133 0.70700002 -0.040907022 7.3791256e-39 318 273
-0.0012396066 0.70700002 -0.040907022 7.2869314e-39 319 273
0 0.70700002 -0.040907022 7.4691674e-39 320 273
0.00124136 0.708 -0.040964879 7.4691674e-39 321 273
0.00248272 0.708 -0.040964879 7.6524797e-39 322 273
0.0037345996 0.70999998 -0.041080594 7.5602855e-39 323 273
0.0049794666 0.70999998 -0.041080594 7.4677325e-39 324 273
0.0062330998 0.71100003 -0.041138459 7.4677325e-39 325 273
0.0074797203 0.71100003 -0.041138459 7.2837028e-39 326 273
0.0087263398 0.71100003 -0.041138459 7.4677325e-39 327 273
0.010001013 0.713 -0.041254178 7.5592093e-39 328 273
0.011251139 0.713 -0.041254178 7.5592093e-39 329 273
0.012518799 0.71399999 -0.041312039 7.467015e-39 330 273
0.01377068 0.71399999 -0.041312039 7.467015e-39 331 273
0.01506464 0.71600002 -0.041427758 7.4673738e-39 332 273
0.016342819 0.71700001 -0.041485619 7.559568e-39 333 273
0.017599959 0.71700001 -0.041485619 7.8361605e-39 334 273
0.018909698 0.71899998 -0.041601337 7.9283561e-39 335 273
0.020170346 0.71899998 -0.041601337 8.2960667e-39 336 273
0.021460801 0.72000003 -0.041659199 8.664489e-39 337 273
0.022786319 0.722 -0.041774917 9.766543e-39 338 273
0.024052227 0.722 -0.041774917 1.1426064e-38 339 273
0.025318133 0.722 -0.041774917 1.2531714e-38 340 273
-0.043100435 0.72299999 -0.043100435 1.5297615e-38 286 274
-0.041774917 0.722 -0.043040827 1.5297615e-38 287 274
-0.040509012 0.722 -0.043040827 1.474695e-38 288 274
-0.039243106 0.722 -0.043040827 1.4377807e-38 289 274
-0.0379772 0.722 -0.043040827 1.3454365e-38 290 274
-0.036609601 0.72000003 -0.042921603 1.1703007e-38 291 274
-0.035298105 0.71899998 -0.042861983 1.0141032e-38 292 274
-0.03403746 0.71899998 -0.042861983 9.9566404e-39 293 274
-0.032640055 0.71600002 -0.042683143 9.1311901e-39 294 274
-0.031384666 0.71600002 -0.042683143 8.8549619e-39 295 274
-0.030045118 0.71399999 -0.042563915 9.1308272e-39 296 274
-0.028793238 0.71399999 -0.042563915 9.0382714e-39 297 274
-0.027502786 0.713 -0.042504307 8.9464275e-39 298 274
-0.026179021 0.71100003 -0.042385083 8.8542333e-39 299 274
-0.024932399 0.71100003 -0.042385083 8.5780093e-39 300 274
-0.023652466 0.70999998 -0.042325463 8.5780093e-39 301 274
-0.022407599 0.70999998 -0.042325463 8.4854564e-39 302 274
-0.021162732 0.70999998 -0.042325463 8.4854564e-39 303 274
-0.019917866 0.70999998 -0.042325463 8.4854564e-39 304 274
-0.018672999 0.70999998 -0.042325463 8.3932621e-39 305 274
-0.017428132 0.70999998 -0.042325463 8.3010679e-39 306 274
-0.01613768 0.708 -0.042206239 8.2088737e-39 307 274
-0.01489632 0.708 -0.042206239 8.3007092e-39 308 274
-0.013654959 0.708 -0.042206239 8.3007092e-39 309 274
-0.0124136 0.708 -0.042206239 8.2085149e-39 310 274
-0.011156459 0.70700002 -0.042146627 8.2085149e-39 311 274
-0.0099168532 0.70700002 -0.042146627 8.115962e-39 312 274
-0.008677247 0.70700002 -0.042146627 8.0237677e-39 313 274
-0.0074376399 0.70700002 -0.042146627 7.9301386e-39 314 274
-0.0061980332 0.70700002 -0.042146627 7.9301386e-39 315 274
-0.0049584266 0.70700002 -0.042146627 7.6546321e-39 316 274
-0.00372408 0.708 -0.042206239 7.5620791e-39 317 274
-0.00248272 0.708 -0.042206239 7.5620791e-39 318 274
-0.00124136 0.708 -0.042206239 7.3776907e-39 319 274
0 0.708 -0.042206239 7.5602855e-39 320 274
0.0012448666 0.70999998 -0.042325463 7.5602855e-39 321 274
0.0024897333 0.70999998 -0.042325463 7.6524797e-39 322 274
0.0037398601 0.71100003 -0.042385083 7.6524797e-39 323 274
0.0049864799 0.71100003 -0.042385083 7.4677325e-39 324 274
0.0062330998 0.71100003 -0.042385083 7.2837028e-39 325 274
0.0075007593 0.713 -0.042504307 7.467015e-39 326 274
0.0087508867 0.713 -0.042504307 7.5592093e-39 327 274
0.010001013 0.713 -0.042504307 7.5592093e-39 328 274
0.011266919 0.71399999 -0.042563915 7.5592093e-39 329 274
0.012553867 0.71600002 -0.042683143 7.7421628e-39 330 274
0.013809253 0.71600002 -0.042683143 7.7421628e-39 331 274
0.015085679 0.71700001 -0.042742759 7.5584974e-39 332 274
0.016342819 0.71700001 -0.042742759 7.8350843e-39 333 274
0.017649053 0.71899998 -0.042861983 8.0191224e-39 334 274
0.018935999 0.72000003 -0.042921603 8.2035151e-39 335 274
0.020198401 0.72000003 -0.042921603 8.571227e-39 336 274
0.021460801 0.72000003 -0.042921603 9.3087921e-39 337 274
0.022723202 0.72000003 -0.042921603 1.0595956e-38 338 274
0.0239856 0.72000003 -0.042921603 1.1702304e-38 339 274
-0.043100435 0.72299999 -0.044368099 1.5297615e-38 286 275
-0.041774917 0.722 -0.044306733 1.520542e-38 287 275
-0.040509012 0.722 -0.044306733 1.4838792e-38 288 275
-0.039243106 0.722 -0.044306733 1.4838792e-38 289 275
-0.0379772 0.722 -0.044306733 1.391752e-38 290 275
-0.036609601 0.72000003 -0.044183999 1.225764e-38 291 275
-0.035298105 0.71899998 -0.044122629 1.0416193e-38 292 275
-0.03403746 0.71899998 -0.044122629 9.9552153e-39 293 275
-0.032640055 0.71600002 -0.043938532 9.3141394e-39 294 275
-0.031384666 0.71600002 -0.043938532 9.3141394e-39 295 275
-0.03012928 0.71600002 -0.043938532 9.0386245e-39 296 275
-0.028793238 0.71399999 -0.043815799 8.9464289e-39 297 275
-0.027502786 0.713 -0.043754432 8.94571e-39 298 275
-0.026252659 0.713 -0.043754432 8.8535158e-39 299 275
-0.024932399 0.71100003 -0.043631699 8.8527983e-39 300 275
-0.023685781 0.71100003 -0.043631699 8.7606041e-39 301 275
-0.022407599 0.70999998 -0.043570329 8.7613216e-39 302 275
-0.021162732 0.70999998 -0.043570329 8.6691273e-39 303 275
-0.019917866 0.70999998 -0.043570329 8.3932621e-39 304 275
-0.018672999 0.70999998 -0.043570329 8.3932621e-39 305 275
-0.017428132 0.70999998 -0.043570329 8.4836627e-39 306 275
-0.016183265 0.70999998 -0.043570329 8.4836627e-39 307 275
-0.014938398 0.70999998 -0.043570329 8.3014266e-39 308 275
-0.013693533 0.70999998 -0.043570329 8.2092324e-39 309 275
-0.012448666 0.70999998 -0.043570329 8.2081562e-39 310 275
-0.01117224 0.708 -0.043447599 8.115962e-39 311 275
-0.0099308798 0.708 -0.043447599 8.2074387e-39 312 275
-0.008689519 0.708 -0.043447599 8.0226915e-39 313 275
-0.0074481601 0.708 -0.043447599 8.0223328e-39 314 275
-0.0062067998 0.708 -0.043447599 7.9301386e-39 315 275
-0.0049654399 0.708 -0.043447599 7.8375856e-39 316 275
-0.00372408 0.708 -0.043447599 7.5613617e-39 317 275
-0.00248272 0.708 -0.043447599 7.3776907e-39 318 275
-0.00124136 0.708 -0.043447599 7.3776907e-39 319 275
0 0.70999998 -0.043570329 7.3776907e-39 320 275
0.0012448666 0.70999998 -0.043570329 7.2854965e-39 321 275
0.0024897333 0.70999998 -0.043570329 7.4691674e-39 322 275
0.0037398601 0.71100003 -0.043631699 7.3766145e-39 323 275
0.0050005065 0.713 -0.043754432 7.559568e-39 324 275
0.0062506334 0.713 -0.043754432 7.467015e-39 325 275
0.0075112795 0.71399999 -0.043815799 7.5592093e-39 326 275
0.0087631596 0.71399999 -0.043815799 7.467015e-39 327 275
0.01001504 0.71399999 -0.043815799 7.4666563e-39 328 275
0.01129848 0.71600002 -0.043938532 7.5588505e-39 329 275
0.012553867 0.71600002 -0.043938532 7.5584974e-39 330 275
0.013828539 0.71700001 -0.043999899 7.5584974e-39 331 275
0.015085679 0.71700001 -0.043999899 7.6514161e-39 332 275
0.016388407 0.71899998 -0.044122629 7.6514161e-39 333 275
0.017673599 0.72000003 -0.044183999 7.9280086e-39 334 275
0.018935999 0.72000003 -0.044183999 8.1120411e-39 335 275
0.020198401 0.72000003 -0.044183999 8.755268e-39 336 275
0.021520413 0.722 -0.044306733 9.8616155e-39 337 275
0.022723202 0.72000003 -0.044183999 1.0873266e-38 338 275
0.0239856 0.72000003 -0.044183999 1.1334244e-38 339 275
-0.041774917 0.722 -0.045572639 1.4929556e-38 287 276
-0.040509012 0.722 -0.045572639 1.465512e-38 288 276
-0.039243106 0.722 -0.045572639 1.465512e-38 289 276
-0.037871998 0.72000003 -0.045446403 1.4378513e-38 290 276
-0.036609601 0.72000003 -0.045446403 1.317997e-38 291 276
-0.035298105 0.71899998 -0.045383278 1.1060139e-38 292 276
-0.03403746 0.71899998 -0.045383278 1.0137824e-38 293 276
-0.032640055 0.71600002 -0.045193922 9.5889284e-39 294 276
-0.031384666 0.71600002 -0.045193922 9.4967314e-39 295 276
-0.03012928 0.71600002 -0.045193922 9.0386245e-39 296 276
-0.028793238 0.71399999 -0.045067675 8.9464289e-39 297 276
-0.02754136 0.71399999 -0.045067675 8.94571e-39 298 276
-0.026252659 0.713 -0.045004558 8.8535158e-39 299 276
-0.025002534 0.713 -0.045004558 8.7613216e-39 300 276
-0.023752406 0.713 -0.045004558 8.6691273e-39 301 276
-0.022439159 0.71100003 -0.044878319 8.6691273e-39 302 276
-0.021192541 0.71100003 -0.044878319 8.5769331e-39 303 276
-0.01994592 0.71100003 -0.044878319 8.3936209e-39 304 276
-0.0186993 0.71100003 -0.044878319 8.3014266e-39 305 276
-0.01745268 0.71100003 -0.044878319 8.4840214e-39 306 276
-0.016183265 0.70999998 -0.044815198 8.3918272e-39 307 276
-0.014938398 0.70999998 -0.044815198 8.3007092e-39 308 276
-0.013693533 0.70999998 -0.044815198 8.2081562e-39 309 276
-0.012448666 0.70999998 -0.044815198 8.2074387e-39 310 276
-0.011203799 0.70999998 -0.044815198 8.2074387e-39 311 276
-0.0099589331 0.70999998 -0.044815198 8.298198e-39 312 276
-0.008689519 0.708 -0.044688959 8.2060038e-39 313 276
-0.0074481601 0.708 -0.044688959 8.1138096e-39 314 276
-0.0062243328 0.70999998 -0.044815198 7.9294211e-39 315 276
-0.0049794666 0.70999998 -0.044815198 7.7453914e-39 316 276
-0.0037345996 0.70999998 -0.044815198 7.5613617e-39 317 276
-0.0024897333 0.70999998 -0.044815198 7.2862139e-39 318 276
-0.0012448666 0.70999998 -0.044815198 7.1940197e-39 319 276
0 0.70999998 -0.044815198 7.2854965e-39 320 276
0.00124662 0.71100003 -0.044878319 7.2854965e-39 321 276
0.0024932399 0.71100003 -0.044878319 7.5599267e-39 322 276
0.0037503797 0.713 -0.045004558 7.5599267e-39 323 276
0.0050005065 0.713 -0.045004558 7.6514035e-39 324 276
0.0062593995 0.71399999 -0.045067675 7.5592093e-39 325 276
0.0075112795 0.71399999 -0.045067675 7.467015e-39 326 276
0.0087631596 0.71399999 -0.045067675 7.467015e-39 327 276
0.01001504 0.71399999 -0.045067675 7.5588533e-39 328 276
0.01129848 0.71600002 -0.045193922 7.5588533e-39 329 276
0.0125714 0.71700001 -0.045257039 7.5585016e-39 330 276
0.013828539 0.71700001 -0.045257039 7.6506973e-39 331 276
0.01512776 0.71899998 -0.045383278 7.8347312e-39 332 276
0.0164112 0.72000003 -0.045446403 7.8347312e-39 333 276
0.017673599 0.72000003 -0.045446403 7.9276527e-39 334 276
0.0189886 0.722 -0.045572639 8.2042396e-39 335 276
0.020254506 0.722 -0.045572639 9.3066537e-39 336 276
0.021520413 0.722 -0.045572639 1.0413361e-38 337 276
0.022786319 0.722 -0.045572639 1.0783238e-38 338 276
0.024052227 0.722 -0.045572639 1.0875434e-38 339 276
-0.040509012 0.722 -0.046838548 1.4654401e-38 288 277
-0.039134402 0.72000003 -0.0467088 1.4654401e-38 289 277
-0.037871998 0.72000003 -0.0467088 1.4103378e-38 290 277
-0.036609601 0.72000003 -0.0467088 1.3549844e-38 291 277
-0.035298105 0.71899998 -0.046643924 1.1982478e-38 292 277
-0.03403746 0.71899998 -0.046643924 1.0599543e-38 293 277
-0.032685637 0.71700001 -0.046514176 9.5878621e-39 294 277
-0.031384666 0.71600002 -0.046449307 9.5878621e-39 295 277
-0.03012928 0.71600002 -0.046449307 8.7627663e-39 296 277
-0.028873893 0.71600002 -0.046449307 8.6705707e-39 297 277
-0.02754136 0.71399999 -0.046319555 8.6698462e-39 298 277
-0.026289478 0.71399999 -0.046319555 8.6698462e-39 299 277
-0.025002534 0.713 -0.046254687 8.7613216e-39 300 277
-0.023752406 0.713 -0.046254687 8.6691273e-39 301 277
-0.022502279 0.713 -0.046254687 8.5765744e-39 302 277
-0.021252153 0.713 -0.046254687 8.5765744e-39 303 277
-0.020002026 0.713 -0.046254687 8.3925447e-39 304 277
-0.018751899 0.713 -0.046254687 8.3003504e-39 305 277
-0.017501773 0.713 -0.046254687 8.3003504e-39 306 277
-0.01620606 0.71100003 -0.046124939 8.2081562e-39 307 277
-0.014959441 0.71100003 -0.046124939 8.2081562e-39 308 277
-0.01371282 0.71100003 -0.046124939 8.115962e-39 309 277
-0.0124662 0.71100003 -0.046124939 8.2074387e-39 310 277
-0.011203799 0.70999998 -0.046060063 8.2074387e-39 311 277
-0.0099589331 0.70999998 -0.046060063 8.1156032e-39 312 277
-0.0087140659 0.70999998 -0.046060063 8.0230503e-39 313 277
-0.0074691991 0.70999998 -0.046060063 7.9301386e-39 314 277
-0.0062243328 0.70999998 -0.046060063 7.8379444e-39 315 277
-0.0049794666 0.70999998 -0.046060063 7.5620791e-39 316 277
-0.0037398601 0.71100003 -0.046124939 7.4698849e-39 317 277
-0.0024932399 0.71100003 -0.046124939 7.1943784e-39 318 277
-0.00124662 0.71100003 -0.046124939 7.1018255e-39 319 277
0 0.71100003 -0.046124939 7.2851377e-39 320 277
0.00124662 0.71100003 -0.046124939 7.2851377e-39 321 277
0.0024932399 0.71100003 -0.046124939 7.4677325e-39 322 277
0.0037556398 0.71399999 -0.046319555 7.5599267e-39 323 277
0.0050075199 0.71399999 -0.046319555 7.5592093e-39 324 277
0.0062593995 0.71399999 -0.046319555 7.467015e-39 325 277
0.00753232 0.71600002 -0.046449307 7.4666563e-39 326 277
0.0087877065 0.71600002 -0.046449307 7.4666563e-39 327 277
0.010043093 0.71600002 -0.046449307 7.4670179e-39 328 277
0.01131426 0.71700001 -0.046514176 7.4670179e-39 329 277
0.012606465 0.71899998 -0.046643924 7.3759054e-39 330 277
0.0138864 0.72000003 -0.0467088 7.3759054e-39 331 277
0.015190879 0.722 -0.046838548 7.651063e-39 332 277
0.016456785 0.722 -0.046838548 7.651063e-39 333 277
0.017747238 0.72299999 -0.046903417 8.1098986e-39 334 277
0.019014901 0.72299999 -0.046903417 8.755268e-39 335 277
0.020282559 0.72299999 -0.046903417 9.7676444e-39 336 277
0.021550218 0.72299999 -0.046903417 1.0505209e-38 337 277
0.02281788 0.72299999 -0.046903417 1.0874002e-38 338 277
-0.039134402 0.72000003 -0.0479712 1.4286337e-38 289 278
-0.037871998 0.72000003 -0.0479712 1.4103025e-38 290 278
-0.036609601 0.72000003 -0.0479712 1.3918634e-38 291 278
-0.035298105 0.71899998 -0.04790457 1.2628946e-38 292 278
-0.03403746 0.71899998 -0.04790457 1.1614793e-38 293 278
-0.032685637 0.71700001 -0.04777132 1.0048495e-38 294 278
-0.031384666 0.71600002 -0.047704693 9.5878775e-39 295 278
-0.03012928 0.71600002 -0.047704693 9.2219424e-39 296 278
-0.028873893 0.71600002 -0.047704693 8.9453569e-39 297 278
-0.027618507 0.71600002 -0.047704693 8.6698462e-39 298 278
-0.026363119 0.71600002 -0.047704693 8.5776506e-39 299 278
-0.025037598 0.71399999 -0.047571439 8.5776506e-39 300 278
-0.02378572 0.71399999 -0.047571439 8.3932621e-39 301 278
-0.022533838 0.71399999 -0.047571439 8.3925447e-39 302 278
-0.021281958 0.71399999 -0.047571439 8.3925447e-39 303 278
-0.020086186 0.71600002 -0.047704693 8.2085149e-39 304 278
-0.018778199 0.71399999 -0.047571439 8.2085149e-39 305 278
-0.017526319 0.71399999 -0.047571439 8.0244852e-39 306 278
-0.016251646 0.713 -0.047504812 8.0244852e-39 307 278
-0.015001519 0.713 -0.047504812 8.1156032e-39 308 278
-0.013751393 0.713 -0.047504812 8.023409e-39 309 278
-0.012501267 0.713 -0.047504812 7.8400968e-39 310 278
-0.01121958 0.71100003 -0.047371563 7.8400968e-39 311 278
-0.0099729598 0.71100003 -0.047371563 7.839738e-39 312 278
-0.0087263398 0.71100003 -0.047371563 7.7475438e-39 313 278
-0.0074797203 0.71100003 -0.047371563 7.9301386e-39 314 278
-0.0062330998 0.71100003 -0.047371563 7.8379444e-39 315 278
-0.0049864799 0.71100003 -0.047371563 7.6546321e-39 316 278
-0.0037398601 0.71100003 -0.047371563 7.4702436e-39 317 278
-0.0024932399 0.71100003 -0.047371563 7.3776907e-39 318 278
-0.00124662 0.71100003 -0.047371563 7.3776907e-39 319 278
0 0.713 -0.047504812 7.3769732e-39 320 278
0.0012501266 0.713 -0.047504812 7.3769732e-39 321 278
0.0025037599 0.71399999 -0.047571439 7.4677325e-39 322 278
0.00376616 0.71600002 -0.047704693 7.4677325e-39 323 278
0.0050215465 0.71600002 -0.047704693 7.5592093e-39 324 278
0.0062769335 0.71600002 -0.047704693 7.467015e-39 325 278
0.00753232 0.71600002 -0.047704693 7.19151e-39 326 278
0.0087999795 0.71700001 -0.04777132 7.19151e-39 327 278
0.01005712 0.71700001 -0.04777132 7.1915128e-39 328 278
0.01134582 0.71899998 -0.04790457 7.2837084e-39 329 278
0.012624 0.72000003 -0.0479712 7.2840727e-39 330 278
0.013924973 0.722 -0.048104454 7.2840727e-39 331 278
0.015190879 0.722 -0.048104454 7.5585142e-39 332 278
0.01647958 0.72299999 -0.048171077 7.5585142e-39 333 278
0.017747238 0.72299999 -0.048171077 8.2024613e-39 334 278
0.019014901 0.72299999 -0.048171077 8.8478307e-39 335 278
0.020282559 0.72299999 -0.048171077 9.8602058e-39 336 278
0.021550218 0.72299999 -0.048171077 1.0321184e-38 337 278
-0.03012928 0.71600002 -0.048960082 8.9450094e-39 296 279
-0.028873893 0.71600002 -0.048960082 9.037205e-39 297 279
-0.027618507 0.71600002 -0.048960082 8.6702148e-39 298 279
-0.026363119 0.71600002 -0.048960082 8.4858235e-39 299 279
-0.0251428 0.71700001 -0.04902846 8.4861766e-39 300 279
-0.02388566 0.71700001 -0.04902846 8.3936223e-39 301 279
-0.022596961 0.71600002 -0.048960082 8.3925447e-39 302 279
-0.021341572 0.71600002 -0.048960082 8.3925447e-39 303 279
-0.020114239 0.71700001 -0.04902846 8.0244852e-39 304 279
-0.0188308 0.71600002 -0.048960082 7.932291e-39 305 279
-0.017575413 0.71600002 -0.048960082 8.1156032e-39 306 279
-0.016320027 0.71600002 -0.048960082 8.1156032e-39 307 279
-0.015022559 0.71399999 -0.048823316 8.023409e-39 308 279
-0.01377068 0.71399999 -0.048823316 7.9312148e-39 309 279
-0.012518799 0.71399999 -0.048823316 7.6553496e-39 310 279
-0.011251139 0.713 -0.048754938 7.7475438e-39 311 279
-0.010001013 0.713 -0.048754938 7.7475438e-39 312 279
-0.0087508867 0.713 -0.048754938 7.7475438e-39 313 279
-0.0075007593 0.713 -0.048754938 7.6553496e-39 314 279
-0.0062506334 0.713 -0.048754938 7.5627966e-39 315 279
-0.0050005065 0.713 -0.048754938 7.5624379e-39 316 279
-0.0037503797 0.713 -0.048754938 7.4702436e-39 317 279
-0.0025002533 0.713 -0.048754938 7.3780494e-39 318 279
-0.0012501266 0.713 -0.048754938 7.3780494e-39 319 279
0 0.71399999 -0.048823316 7.2851377e-39 320 279
0.00125188 0.71399999 -0.048823316 7.0089138e-39 321 279
0.0025142799 0.71700001 -0.04902846 7.4677325e-39 322 279
0.0037714199 0.71700001 -0.04902846 7.2833441e-39 323 279
0.0050285598 0.71700001 -0.04902846 7.4673738e-39 324 279
0.0062857 0.71700001 -0.04902846 7.2833441e-39 325 279
0.0075428397 0.71700001 -0.04902846 7.1907911e-39 326 279
0.0088245263 0.71899998 -0.049165215 7.1907911e-39 327 279
0.010085173 0.71899998 -0.049165215 7.0081977e-39 328 279
0.011361601 0.72000003 -0.0492336 7.0081977e-39 329 279
0.012659066 0.722 -0.04937036 7.2833567e-39 330 279
0.01394426 0.72299999 -0.049438741 7.3755523e-39 331 279
0.015211919 0.72299999 -0.049438741 7.6499966e-39 332 279
0.01647958 0.72299999 -0.049438741 8.018419e-39 333 279
0.017747238 0.72299999 -0.049438741 8.202111e-39 334 279
0.019014901 0.72299999 -0.049438741 8.939676e-39 335 279
0.020282559 0.72299999 -0.049438741 9.4921464e-39 336 279
-0.028914221 0.71700001 -0.0502856 9.2201641e-39 297 280
-0.027618507 0.71600002 -0.050215468 9.2205019e-39 298 280
-0.026363119 0.71600002 -0.050215468 9.0361106e-39 299 280
-0.0251428 0.71700001 -0.0502856 8.6691273e-39 300 280
-0.02388566 0.71700001 -0.0502856 8.5765744e-39 301 280
-0.02262852 0.71700001 -0.0502856 8.3010679e-39 302 280
-0.021371379 0.71700001 -0.0502856 8.2088737e-39 303 280
-0.020114239 0.71700001 -0.0502856 8.2081562e-39 304 280
-0.018857099 0.71700001 -0.0502856 8.2081562e-39 305 280
-0.017599959 0.71700001 -0.0502856 8.1156032e-39 306 280
-0.016320027 0.71600002 -0.050215468 8.1156032e-39 307 280
-0.01506464 0.71600002 -0.050215468 8.0230503e-39 308 280
-0.01377068 0.71399999 -0.050075196 7.9308561e-39 309 280
-0.012518799 0.71399999 -0.050075196 7.6549908e-39 310 280
