# .PCD v.7 - Point Cloud Data file format
FIELDS x y z rgb imX imY
SIZE 4 4 4 4 4 4
TYPE F F F F F F
COUNT 1 1 1 1 1 1
WIDTH 868
HEIGHT 1
VIEWPOINT 0 0 0 1 0 0 0
POINTS 868
DATA ascii
0.0399234 0.759 0.023954039 1.5206696e-38 350 222
0.041254178 0.759 0.023954039 1.5021945e-38 351 222
0.042697169 0.76099998 0.024017159 1.4470942e-38 352 222
0.044089317 0.76200002 0.02404872 1.4378746e-38 353 222
0.045425359 0.76200002 0.02404872 1.4379902e-38 354 222
-0.021573013 0.76899999 0.022921326 1.6686278e-38 304 223
-0.0202247 0.76899999 0.022921326 1.5763963e-38 305 223
-0.018827293 0.76700002 0.022861714 1.5301114e-38 306 223
-0.017482487 0.76700002 0.022861714 1.5669895e-38 307 223
-0.016116638 0.76599997 0.022831906 1.6040065e-38 308 223
-0.014735013 0.764 0.022772292 1.6316653e-38 309 223
-0.013395466 0.764 0.022772292 1.6869082e-38 310 223
-0.01202436 0.76200002 0.02271268 1.6592854e-38 311 223
-0.01068832 0.76200002 0.02271268 1.6866901e-38 312 223
-0.0093400059 0.76099998 0.022682872 1.6774347e-38 313 223
-0.0080057196 0.76099998 0.022682872 1.6773251e-38 314 223
-0.0066538998 0.759 0.02262326 1.6497027e-38 315 223
-0.0053231199 0.759 0.02262326 1.6404833e-38 316 223
-0.0039923396 0.759 0.02262326 1.6220445e-38 317 223
-0.0026545466 0.75700003 0.022563647 1.5851309e-38 318 223
-0.0013272733 0.75700003 0.022563647 1.5482532e-38 319 223
0 0.75700003 0.022563647 1.4746413e-38 320 223
0.0013272733 0.75700003 0.022563647 1.4561666e-38 321 223
0.0026545466 0.75700003 0.022563647 1.3917741e-38 322 223
0.0039818203 0.75700003 0.022563647 1.3272382e-38 323 223
0.0053441599 0.76200002 0.02271268 1.2350081e-38 324 223
0.0067152665 0.76599997 0.022831906 1.0321808e-38 325 223
0.0080583189 0.76599997 0.022831906 8.1123746e-39 326 223
0.0094136465 0.76700002 0.022861714 7.9279862e-39 327 223
0.010758453 0.76700002 0.022861714 7.922608e-39 328 223
0.01210326 0.76700002 0.022861714 7.3694398e-39 329 223
0.013448066 0.76700002 0.022861714 5.6256416e-39 330 223
0.014773586 0.76599997 0.022831906 6.7319808e-39 331 223
0.016116638 0.76599997 0.022831906 9.5006845e-39 332 223
0.017414106 0.764 0.022772292 1.1344238e-38 333 223
0.01870456 0.76200002 0.02271268 1.3647314e-38 334 223
0.020014299 0.76099998 0.022682872 1.4477075e-38 335 223
0.02129248 0.759 0.02262326 1.5397234e-38 336 223
0.022563647 0.75700003 0.022563647 1.5489788e-38 337 223
0.02389092 0.75700003 0.022563647 1.5672353e-38 338 223
0.025218192 0.75700003 0.022563647 1.5303929e-38 339 223
0.026475333 0.755 0.022504034 1.5946034e-38 340 223
0.027799098 0.755 0.022504034 1.5761643e-38 341 223
0.029122867 0.755 0.022504034 1.6036415e-38 342 223
0.030446632 0.755 0.022504034 1.6036415e-38 343 223
0.031770397 0.755 0.022504034 1.5944582e-38 344 223
0.033094164 0.755 0.022504034 1.5944582e-38 345 223
0.034417931 0.755 0.022504034 1.5760569e-38 346 223
0.03583638 0.75700003 0.022563647 1.5668374e-38 347 223
0.037163652 0.75700003 0.022563647 1.5575825e-38 348 223
0.038592618 0.759 0.02262326 1.5575825e-38 349 223
0.0399234 0.759 0.02262326 1.5758065e-38 350 223
0.041254178 0.759 0.02262326 1.5389643e-38 351 223
0.042697169 0.76099998 0.022682872 1.4378746e-38 352 223
0.044089317 0.76200002 0.02271268 1.4378746e-38 353 223
0.045544583 0.764 0.022772292 1.410294e-38 354 223
-0.024269639 0.76899999 0.021573013 1.7057248e-38 302 224
-0.022921326 0.76899999 0.021573013 1.7241639e-38 303 224
-0.021573013 0.76899999 0.021573013 1.6685181e-38 304 224
-0.020172099 0.76700002 0.021516906 1.5578833e-38 305 224
-0.018827293 0.76700002 0.021516906 1.5393286e-38 306 224
-0.017459691 0.76599997 0.021488851 1.5762429e-38 307 224
-0.016074561 0.764 0.021432746 1.6499596e-38 308 224
-0.01469644 0.76200002 0.02137664 1.6684347e-38 309 224
-0.0133604 0.76200002 0.02137664 1.6961275e-38 310 224
-0.01202436 0.76200002 0.02137664 1.6685048e-38 311 224
-0.010674292 0.76099998 0.021348584 1.6866896e-38 312 224
-0.0093400059 0.76099998 0.021348584 1.67747e-38 313 224
-0.0079636406 0.75700003 0.021236373 1.6682492e-38 314 224
-0.0066363667 0.75700003 0.021236373 1.6590298e-38 315 224
-0.0052950666 0.755 0.021180267 1.6498103e-38 316 224
-0.0039712996 0.755 0.021180267 1.6313715e-38 317 224
-0.0026475333 0.755 0.021180267 1.612825e-38 318 224
-0.0013237667 0.755 0.021180267 1.5759473e-38 319 224
0 0.755 0.021180267 1.5298861e-38 320 224
0.0013237667 0.755 0.021180267 1.5114472e-38 321 224
0.0026475333 0.755 0.021180267 1.4378354e-38 322 224
0.0039818203 0.75700003 0.021236373 1.3825188e-38 323 224
0.0053231199 0.759 0.02129248 1.3086558e-38 324 224
0.0066714329 0.76099998 0.021348584 1.096645e-38 325 224
0.00806884 0.76700002 0.021516906 8.7534295e-39 326 224
0.0094136465 0.76700002 0.021516906 7.2783218e-39 327 224
0.010758453 0.76700002 0.021516906 6.7237215e-39 328 224
0.01210326 0.76700002 0.021516906 6.8159157e-39 329 224
0.013448066 0.76700002 0.021516906 5.5298601e-39 330 224
0.014773586 0.76599997 0.021488851 6.2674139e-39 331 224
0.016074561 0.764 0.021432746 1.0140289e-38 332 224
0.01736852 0.76200002 0.02137664 1.1615418e-38 333 224
0.018680012 0.76099998 0.021348584 1.3830611e-38 334 224
0.0199617 0.759 0.02129248 1.4568176e-38 335 224
0.021236373 0.75700003 0.021236373 1.5488706e-38 336 224
0.022563647 0.75700003 0.021236373 1.5304675e-38 337 224
0.023827799 0.755 0.021180267 1.5578716e-38 338 224
0.025151566 0.755 0.021180267 1.548652e-38 339 224
0.026475333 0.755 0.021180267 1.5854189e-38 340 224
0.027799098 0.755 0.021180267 1.557796e-38 341 224
0.029122867 0.755 0.021180267 1.5944221e-38 342 224
0.030446632 0.755 0.021180267 1.6036415e-38 343 224
0.031770397 0.755 0.021180267 1.6036062e-38 344 224
0.033094164 0.755 0.021180267 1.6036062e-38 345 224
0.034417931 0.755 0.021180267 1.5851683e-38 346 224
0.035741698 0.755 0.021180267 1.5667652e-38 347 224
0.037065465 0.755 0.021180267 1.5576178e-38 348 224
0.038389232 0.755 0.021180267 1.5576178e-38 349 224
0.039712999 0.755 0.021180267 1.5758418e-38 350 224
0.041145474 0.75700003 0.021236373 1.5389996e-38 351 224
0.042584959 0.759 0.02129248 1.5021599e-38 352 224
0.044089317 0.76200002 0.02137664 1.5021599e-38 353 224
0.045425359 0.76200002 0.02137664 1.41022e-38 354 224
0.051363897 0.83700001 0.023480639 1.4378788e-38 355 224
-0.025617953 0.76899999 0.0202247 1.207509e-38 301 225
-0.024269639 0.76899999 0.0202247 1.254505e-38 302 225
-0.022861714 0.76700002 0.020172099 1.4296767e-38 303 225
-0.021516906 0.76700002 0.020172099 1.6038347e-38 304 225
-0.020172099 0.76700002 0.020172099 1.5485173e-38 305 225
-0.018802745 0.76599997 0.020145798 1.5577286e-38 306 225
-0.017459691 0.76599997 0.020145798 1.5761678e-38 307 225
-0.016074561 0.764 0.020093199 1.66847e-38 308 225
-0.01469644 0.76200002 0.0200406 1.733007e-38 309 225
-0.013342866 0.76099998 0.020014299 1.7330786e-38 310 225
-0.012008579 0.76099998 0.020014299 1.6777612e-38 311 225
-0.01064624 0.759 0.0199617 1.6959447e-38 312 225
-0.00931546 0.759 0.0199617 1.6775056e-38 313 225
-0.0079636406 0.75700003 0.019909101 1.6591374e-38 314 225
-0.0066188332 0.755 0.0198565 1.6591374e-38 315 225
-0.0052950666 0.755 0.0198565 1.6407344e-38 316 225
-0.0039712996 0.755 0.0198565 1.631515e-38 317 225
-0.0026475333 0.755 0.0198565 1.6312997e-38 318 225
-0.0013237667 0.755 0.0198565 1.6128609e-38 319 225
0 0.755 0.0198565 1.5759473e-38 320 225
0.0013237667 0.755 0.0198565 1.5574726e-38 321 225
0.0026475333 0.755 0.0198565 1.4838966e-38 322 225
0.0039712996 0.755 0.0198565 1.4562742e-38 323 225
0.0053090933 0.75700003 0.019909101 1.3642238e-38 324 225
0.0066538998 0.759 0.0199617 1.179835e-38 325 225
0.0080057196 0.76099998 0.020014299 9.858684e-39 326 225
0.0094136465 0.76700002 0.020172099 5.3411668e-39 327 225
0.010758453 0.76700002 0.020172099 4.694731e-39 328 225
0.01210326 0.76700002 0.020172099 5.3400906e-39 329 225
0.013448066 0.76700002 0.020172099 6.4518023e-39 330 225
0.014773586 0.76599997 0.020145798 8.5722808e-39 331 225
0.01603248 0.76200002 0.0200406 1.2168226e-38 332 225
0.017300138 0.759 0.0199617 1.3274213e-38 333 225
0.018581826 0.75700003 0.019909101 1.4750419e-38 334 225
0.019909101 0.75700003 0.019909101 1.5027365e-38 335 225
0.021180267 0.755 0.0198565 1.5395423e-38 336 225
0.022504034 0.755 0.0198565 1.5395423e-38 337 225
0.023827799 0.755 0.0198565 1.5670541e-38 338 225
0.025151566 0.755 0.0198565 1.5577987e-38 339 225
0.026440267 0.75400001 0.019830201 1.6037138e-38 340 225
0.027762281 0.75400001 0.019830201 1.6037138e-38 341 225
0.029084291 0.75400001 0.019830201 1.6036774e-38 342 225
0.030406307 0.75400001 0.019830201 1.6036774e-38 343 225
0.03172832 0.75400001 0.019830201 1.6127533e-38 344 225
0.033050332 0.75400001 0.019830201 1.6127533e-38 345 225
0.034372345 0.75400001 0.019830201 1.5852386e-38 346 225
0.035694357 0.75400001 0.019830201 1.5668355e-38 347 225
0.037065465 0.755 0.0198565 1.5576525e-38 348 225
0.038389232 0.755 0.0198565 1.548433e-38 349 225
0.039712999 0.755 0.0198565 1.5482907e-38 350 225
0.041036766 0.755 0.0198565 1.5390712e-38 351 225
0.042472746 0.75700003 0.019909101 1.4838286e-38 352 225
0.044031456 0.76099998 0.020014299 1.4838286e-38 353 225
0.045425359 0.76200002 0.0200406 1.4378045e-38 354 225
0.046761397 0.76200002 0.0200406 1.4285491e-38 355 225
0.052831437 0.83700001 0.0220131 1.5026716e-38 356 225
-0.025617953 0.76899999 0.018876385 1.0233715e-38 301 226
-0.024206521 0.76700002 0.018827293 1.1622019e-38 302 226
-0.022861714 0.76700002 0.018827293 1.3465932e-38 303 226
-0.021516906 0.76700002 0.018827293 1.5761372e-38 304 226
-0.020172099 0.76700002 0.018827293 1.5576981e-38 305 226
-0.018802745 0.76599997 0.018802745 1.5761678e-38 306 226
-0.017414106 0.764 0.018753653 1.5946429e-38 307 226
-0.01603248 0.76200002 0.01870456 1.6960571e-38 308 226
-0.01469644 0.76200002 0.01870456 1.7605941e-38 309 226
-0.013342866 0.76099998 0.018680012 1.7331855e-38 310 226
-0.01197702 0.759 0.01863092 1.6778681e-38 311 226
-0.01064624 0.759 0.01863092 1.7051993e-38 312 226
-0.0092909131 0.75700003 0.018581826 1.6775406e-38 313 226
-0.0079636406 0.75700003 0.018581826 1.6776121e-38 314 226
-0.0066188332 0.755 0.018532733 1.6683927e-38 315 226
-0.0052950666 0.755 0.018532733 1.6866522e-38 316 226
-0.0039712996 0.755 0.018532733 1.6774327e-38 317 226
-0.0026440267 0.75400001 0.018508185 1.6498462e-38 318 226
-0.0013220133 0.75400001 0.018508185 1.6406268e-38 319 226
0 0.755 0.018532733 1.6220803e-38 320 226
0.0013237667 0.755 0.018532733 1.5852026e-38 321 226
0.0026475333 0.755 0.018532733 1.5023713e-38 322 226
0.0039712996 0.755 0.018532733 1.4839325e-38 323 226
0.0052950666 0.755 0.018532733 1.410357e-38 324 226
0.0066363667 0.75700003 0.018581826 1.2904681e-38 325 226
0.0079636406 0.75700003 0.018581826 1.16093e-38 326 226
0.0092909131 0.75700003 0.018581826 7.7371406e-39 327 226
0.010744425 0.76599997 0.018802745 4.0547524e-39 328 226
0.012087479 0.76599997 0.018802745 5.9908312e-39 329 226
0.013430533 0.76599997 0.018802745 8.5733724e-39 330 226
0.01469644 0.76200002 0.01870456 1.133924e-38 331 226
0.015969358 0.759 0.01863092 1.3550469e-38 332 226
0.017254554 0.75700003 0.018581826 1.4656817e-38 333 226
0.018532733 0.755 0.018532733 1.5302167e-38 334 226
0.019830201 0.75400001 0.018508185 1.5394722e-38 335 226
0.021152213 0.75400001 0.018508185 1.5027359e-38 336 226
0.022474226 0.75400001 0.018508185 1.4935164e-38 337 226
0.02379624 0.75400001 0.018508185 1.5578696e-38 338 226
0.025118252 0.75400001 0.018508185 1.5394665e-38 339 226
0.02637013 0.75199997 0.018459093 1.603785e-38 340 226
0.027688639 0.75199997 0.018459093 1.603785e-38 341 226
0.029084291 0.75400001 0.018508185 1.6495592e-38 342 226
0.030406307 0.75400001 0.018508185 1.6495592e-38 343 226
0.03172832 0.75400001 0.018508185 1.6219727e-38 344 226
0.033050332 0.75400001 0.018508185 1.6219727e-38 345 226
0.034372345 0.75400001 0.018508185 1.6035697e-38 346 226
0.035694357 0.75400001 0.018508185 1.6035697e-38 347 226
0.037016369 0.75400001 0.018508185 1.5851668e-38 348 226
0.038389232 0.755 0.018532733 1.5851668e-38 349 226
0.039712999 0.755 0.018532733 1.5666926e-38 350 226
0.041036766 0.755 0.018532733 1.5482895e-38 351 226
0.042472746 0.75700003 0.018581826 1.5296737e-38 352 226
0.043915741 0.759 0.01863092 1.5204541e-38 353 226
0.045246519 0.759 0.01863092 1.4560986e-38 354 226
0.046700031 0.76099998 0.018680012 1.4100367e-38 355 226
0.048034318 0.76099998 0.018680012 1.4932353e-38 356 226
-0.025617953 0.76899999 0.017528072 1.0326962e-38 301 227
-0.024206521 0.76700002 0.017482487 1.2081886e-38 302 227
-0.022861714 0.76700002 0.017482487 1.3833603e-38 303 227
-0.021516906 0.76700002 0.017482487 1.5762444e-38 304 227
-0.020172099 0.76700002 0.017482487 1.5393663e-38 305 227
-0.018802745 0.76599997 0.017459691 1.5945696e-38 306 227
-0.017414106 0.764 0.017414106 1.6037892e-38 307 227
-0.01603248 0.76200002 0.01736852 1.7052401e-38 308 227
-0.014677152 0.76099998 0.017345725 1.7421184e-38 309 227
-0.0133078 0.759 0.017300138 1.7146041e-38 310 227
-0.01197702 0.759 0.017300138 1.6962009e-38 311 227
-0.010618187 0.75700003 0.017254554 1.7052025e-38 312 227
-0.0092909131 0.75700003 0.017254554 1.6775797e-38 313 227
-0.0079425992 0.755 0.017208965 1.69598e-38 314 227
-0.0066188332 0.755 0.017208965 1.6867246e-38 315 227
-0.0052950666 0.755 0.017208965 1.659245e-38 316 227
-0.0039712996 0.755 0.017208965 1.6500256e-38 317 227
-0.0026440267 0.75400001 0.017186172 1.6590656e-38 318 227
-0.0013220133 0.75400001 0.017186172 1.6406268e-38 319 227
0 0.75400001 0.017186172 1.6312997e-38 320 227
0.0013220133 0.75400001 0.017186172 1.6036056e-38 321 227
0.0026440267 0.75400001 0.017186172 1.520846e-38 322 227
0.00396604 0.75400001 0.017186172 1.4839683e-38 323 227
0.0052880533 0.75400001 0.017186172 1.4287594e-38 324 227
0.0066188332 0.755 0.017208965 1.4010653e-38 325 227
0.0079425992 0.755 0.017208965 1.3547171e-38 326 227
0.0092663663 0.755 0.017208965 1.2717781e-38 327 227
0.010618187 0.75700003 0.017254554 1.1711579e-38 328 227
0.01202436 0.76200002 0.01736852 1.3002318e-38 329 227
0.0133604 0.76200002 0.01736852 1.3924312e-38 330 227
0.014600007 0.75700003 0.017254554 1.4569681e-38 331 227
0.015885198 0.755 0.017208965 1.5486215e-38 332 227
0.017186172 0.75400001 0.017186172 1.5209268e-38 333 227
0.018508185 0.75400001 0.017186172 1.5301425e-38 334 227
0.0197776 0.75199997 0.017140586 1.520923e-38 335 227
0.021096105 0.75199997 0.017140586 1.5210283e-38 336 227
0.022355 0.75 0.017095 1.5210283e-38 337 227
0.023669999 0.75 0.017095 1.5762346e-38 338 227
0.024984999 0.75 0.017095 1.5577955e-38 339 227
0.02637013 0.75199997 0.017140586 1.6405909e-38 340 227
0.027688639 0.75199997 0.017140586 1.6313715e-38 341 227
0.029007144 0.75199997 0.017140586 1.6405192e-38 342 227
0.030325651 0.75199997 0.017140586 1.6312997e-38 343 227
0.03172832 0.75400001 0.017186172 1.5944938e-38 344 227
0.033050332 0.75400001 0.017186172 1.5852744e-38 345 227
0.034372345 0.75400001 0.017186172 1.5944579e-38 346 227
0.035694357 0.75400001 0.017186172 1.5852385e-38 347 227
0.037016369 0.75400001 0.017186172 1.5852744e-38 348 227
0.038338386 0.75400001 0.017186172 1.5668355e-38 349 227
0.039660402 0.75400001 0.017186172 1.5575453e-38 350 227
0.041036766 0.755 0.017208965 1.5391062e-38 351 227
0.042360533 0.755 0.017208965 1.5022301e-38 352 227
0.043800019 0.75700003 0.017254554 1.4930105e-38 353 227
0.045127295 0.75700003 0.017254554 1.4560267e-38 354 227
0.046577301 0.759 0.017300138 1.4375876e-38 355 227
-0.025617953 0.76899999 0.016179759 1.4287762e-38 301 228
-0.024206521 0.76700002 0.01613768 1.4380999e-38 302 228
-0.022861714 0.76700002 0.01613768 1.5302597e-38 303 228
-0.021516906 0.76700002 0.01613768 1.5854268e-38 304 228
-0.020172099 0.76700002 0.01613768 1.5577682e-38 305 228
-0.018802745 0.76599997 0.016116638 1.6037892e-38 306 228
-0.017414106 0.764 0.016074561 1.6130448e-38 307 228
-0.01603248 0.76200002 0.01603248 1.6775817e-38 308 228
-0.014677152 0.76099998 0.016011439 1.7236435e-38 309 228
-0.0133078 0.759 0.015969358 1.723859e-38 310 228
-0.01194546 0.75700003 0.015927281 1.6869808e-38 311 228
-0.010618187 0.75700003 0.015927281 1.7144211e-38 312 228
-0.0092663663 0.755 0.015885198 1.7144211e-38 313 228
-0.0079425992 0.755 0.015885198 1.7052346e-38 314 228
-0.0066188332 0.755 0.015885198 1.7052346e-38 315 228
-0.0052880533 0.75400001 0.01586416 1.714418e-38 316 228
-0.00396604 0.75400001 0.01586416 1.7051627e-38 317 228
-0.0026440267 0.75400001 0.01586416 1.6776121e-38 318 228
-0.0013220133 0.75400001 0.01586416 1.6591733e-38 319 228
0 0.75400001 0.01586416 1.6405909e-38 320 228
0.0013220133 0.75400001 0.01586416 1.6037132e-38 321 228
0.0026440267 0.75400001 0.01586416 1.5667638e-38 322 228
0.00396604 0.75400001 0.01586416 1.529922e-38 323 228
0.0052880533 0.75400001 0.01586416 1.4747848e-38 324 228
0.0066100666 0.75400001 0.01586416 1.4471265e-38 325 228
0.00793208 0.75400001 0.01586416 1.3919547e-38 326 228
0.0092663663 0.755 0.015885198 1.3642961e-38 327 228
0.010590133 0.755 0.015885198 1.3276371e-38 328 228
0.011913899 0.755 0.015885198 1.4290163e-38 329 228
0.013220133 0.75400001 0.01586416 1.5209605e-38 330 228
0.014542146 0.75400001 0.01586416 1.5393636e-38 331 228
0.01586416 0.75400001 0.01586416 1.5302132e-38 332 228
0.017186172 0.75400001 0.01586416 1.4933349e-38 333 228
0.018459093 0.75199997 0.015822079 1.5209916e-38 334 228
0.019724999 0.75 0.01578 1.5302113e-38 335 228
0.02104 0.75 0.01578 1.548613e-38 336 228
0.022355 0.75 0.01578 1.548613e-38 337 228
0.023669999 0.75 0.01578 1.5486837e-38 338 228
0.024984999 0.75 0.01578 1.5671584e-38 339 228
0.0263 0.75 0.01578 1.6130403e-38 340 228
0.027615 0.75 0.01578 1.6130403e-38 341 228
0.028929999 0.75 0.01578 1.6588863e-38 342 228
0.030325651 0.75199997 0.015822079 1.6496668e-38 343 228
0.031644158 0.75199997 0.015822079 1.631228e-38 344 228
0.033050332 0.75400001 0.01586416 1.6220086e-38 345 228
0.034372345 0.75400001 0.01586416 1.612825e-38 346 228
0.035694357 0.75400001 0.01586416 1.612825e-38 347 228
0.037016369 0.75400001 0.01586416 1.6035697e-38 348 228
0.038338386 0.75400001 0.01586416 1.6035697e-38 349 228
0.039660402 0.75400001 0.01586416 1.5758756e-38 350 228
0.040982414 0.75400001 0.01586416 1.5666562e-38 351 228
0.042360533 0.755 0.015885198 1.5297446e-38 352 228
0.043684296 0.755 0.015885198 1.5112696e-38 353 228
0.045008067 0.755 0.015885198 1.4652466e-38 354 228
0.046454567 0.75700003 0.015927281 1.4468075e-38 355 228
-0.025617953 0.76899999 0.014831445 1.7329516e-38 301 229
-0.024206521 0.76700002 0.014792874 1.6960323e-38 302 229
-0.022861714 0.76700002 0.014792874 1.576178e-38 303 229
-0.021516906 0.76700002 0.014792874 1.5763498e-38 304 229
-0.020172099 0.76700002 0.014792874 1.5394717e-38 305 229
-0.018802745 0.76599997 0.014773586 1.6129371e-38 306 229
-0.017414106 0.764 0.014735013 1.6221568e-38 307 229
-0.01603248 0.76200002 0.01469644 1.6591421e-38 308 229
-0.014677152 0.76099998 0.014677152 1.7052401e-38 309 229
-0.0133078 0.759 0.014638579 1.6962712e-38 310 229
-0.01194546 0.75700003 0.014600007 1.6870158e-38 311 229
-0.010590133 0.755 0.014561433 1.714493e-38 312 229
-0.0092663663 0.755 0.014561433 1.714493e-38 313 229
-0.0079425992 0.755 0.014561433 1.7145631e-38 314 229
-0.0066188332 0.755 0.014561433 1.7145631e-38 315 229
-0.0052880533 0.75400001 0.014542146 1.7053431e-38 316 229
-0.00396604 0.75400001 0.014542146 1.6777204e-38 317 229
-0.0026440267 0.75400001 0.014542146 1.677648e-38 318 229
-0.0013220133 0.75400001 0.014542146 1.659245e-38 319 229
0 0.75400001 0.014542146 1.6774327e-38 320 229
0.0013185065 0.75199997 0.014503572 1.640555e-38 321 229
0.0026370131 0.75199997 0.014503572 1.6127533e-38 322 229
0.00396604 0.75400001 0.014542146 1.585095e-38 323 229
0.0052880533 0.75400001 0.014542146 1.4840401e-38 324 229
0.0066100666 0.75400001 0.014542146 1.4656012e-38 325 229
0.00793208 0.75400001 0.014542146 1.4379447e-38 326 229
0.0092540924 0.75400001 0.014542146 1.4748589e-38 327 229
0.010548052 0.75199997 0.014503572 1.4749326e-38 328 229
0.011866559 0.75199997 0.014503572 1.5025915e-38 329 229
0.013185065 0.75199997 0.014503572 1.5485078e-38 330 229
0.014503572 0.75199997 0.014503572 1.5392522e-38 331 229
0.01578 0.75 0.014465 1.5393932e-38 332 229
0.017095 0.75 0.014465 1.5301736e-38 333 229
0.018385453 0.74900001 0.014445714 1.5577237e-38 334 229
0.0196987 0.74900001 0.014445714 1.5669432e-38 335 229
0.021011947 0.74900001 0.014445714 1.566979e-38 336 229
0.022325192 0.74900001 0.014445714 1.5854537e-38 337 229
0.02363844 0.74900001 0.014445714 1.5855614e-38 338 229
0.024951685 0.74900001 0.014445714 1.5947808e-38 339 229
0.026264934 0.74900001 0.014445714 1.6222597e-38 340 229
0.027578179 0.74900001 0.014445714 1.6222597e-38 341 229
0.028891427 0.74900001 0.014445714 1.6313715e-38 342 229
0.030204674 0.74900001 0.014445714 1.6313715e-38 343 229
0.031644158 0.75199997 0.014503572 1.6220803e-38 344 229
0.032962665 0.75199997 0.014503572 1.6128609e-38 345 229
0.034281172 0.75199997 0.014503572 1.612825e-38 346 229
0.035599679 0.75199997 0.014503572 1.612825e-38 347 229
0.036918186 0.75199997 0.014503572 1.6127892e-38 348 229
0.038338386 0.75400001 0.014542146 1.6127892e-38 349 229
0.039660402 0.75400001 0.014542146 1.585132e-38 350 229
0.040982414 0.75400001 0.014542146 1.566657e-38 351 229
0.042360533 0.755 0.014561433 1.5297446e-38 352 229
0.043684296 0.755 0.014561433 1.5204891e-38 353 229
0.045008067 0.755 0.014561433 1.4652466e-38 354 229
0.046454567 0.75700003 0.014600007 1.4652466e-38 355 229
0.047908079 0.759 0.014638579 1.5206063e-38 356 229
-0.025617953 0.76899999 0.013483133 1.7423154e-38 301 230
-0.024206521 0.76700002 0.013448066 1.6685528e-38 302 230
-0.022861714 0.76700002 0.013448066 1.539479e-38 303 230
-0.021516906 0.76700002 0.013448066 1.5762776e-38 304 230
-0.020172099 0.76700002 0.013448066 1.5486188e-38 305 230
-0.018802745 0.76599997 0.013430533 1.6037892e-38 306 230
-0.01736852 0.76200002 0.0133604 1.6130448e-38 307 230
-0.016011439 0.76099998 0.013342866 1.640846e-38 308 230
-0.014638579 0.759 0.0133078 1.6592851e-38 309 230
-0.013272733 0.75700003 0.013272733 1.6869785e-38 310 230
-0.011913899 0.755 0.013237666 1.6961981e-38 311 230
-0.010590133 0.755 0.013237666 1.7054164e-38 312 230
-0.0092663663 0.755 0.013237666 1.7054164e-38 313 230
-0.00793208 0.75400001 0.013220133 1.7054511e-38 314 230
-0.0066100666 0.75400001 0.013220133 1.6962316e-38 315 230
-0.0052880533 0.75400001 0.013220133 1.7421495e-38 316 230
-0.0039555198 0.75199997 0.013185065 1.7144908e-38 317 230
-0.0026370131 0.75199997 0.013185065 1.7052346e-38 318 230
-0.0013185065 0.75199997 0.013185065 1.6867957e-38 319 230
0 0.75199997 0.013185065 1.6683568e-38 320 230
0.0013185065 0.75199997 0.013185065 1.6407344e-38 321 230
0.00263 0.75 0.01315 1.6129685e-38 322 230
0.003945 0.75 0.01315 1.5668355e-38 323 230
0.00526 0.75 0.01315 1.5023354e-38 324 230
0.006575 0.75 0.01315 1.5207384e-38 325 230
0.00789 0.75 0.01315 1.4840761e-38 326 230
0.0092049995 0.75 0.01315 1.5117349e-38 327 230
0.01052 0.75 0.01315 1.5392507e-38 328 230
0.011835 0.75 0.01315 1.5485061e-38 329 230
0.01315 0.75 0.01315 1.5486128e-38 330 230
0.014445714 0.74900001 0.013132467 1.5578325e-38 331 230
0.01575896 0.74900001 0.013132467 1.5578314e-38 332 230
0.017072206 0.74900001 0.013132467 1.5486119e-38 333 230
0.018385453 0.74900001 0.013132467 1.5944579e-38 334 230
0.0196987 0.74900001 0.013132467 1.6037132e-38 335 230
0.021011947 0.74900001 0.013132467 1.6130044e-38 336 230
0.022325192 0.74900001 0.013132467 1.6222597e-38 337 230
0.02363844 0.74900001 0.013132467 1.6040002e-38 338 230
0.024951685 0.74900001 0.013132467 1.6040002e-38 339 230
0.026264934 0.74900001 0.013132467 1.6222956e-38 340 230
0.027578179 0.74900001 0.013132467 1.6222956e-38 341 230
0.028891427 0.74900001 0.013132467 1.6222597e-38 342 230
0.030204674 0.74900001 0.013132467 1.6130403e-38 343 230
0.03156 0.75 0.01315 1.6129685e-38 344 230
0.032962665 0.75199997 0.013185065 1.6037491e-38 345 230
0.034281172 0.75199997 0.013185065 1.5944938e-38 346 230
0.035599679 0.75199997 0.013185065 1.5944938e-38 347 230
0.036918186 0.75199997 0.013185065 1.5944221e-38 348 230
0.038338386 0.75400001 0.013220133 1.5944221e-38 349 230
0.039660402 0.75400001 0.013220133 1.5850598e-38 350 230
0.040982414 0.75400001 0.013220133 1.5758403e-38 351 230
0.042360533 0.755 0.013237666 1.5389643e-38 352 230
0.043684296 0.755 0.013237666 1.5204891e-38 353 230
0.045008067 0.755 0.013237666 1.4653185e-38 354 230
0.046577301 0.759 0.0133078 1.4653185e-38 355 230
0.047908079 0.759 0.0133078 1.4838356e-38 356 230
0.049238857 0.759 0.0133078 1.6221291e-38 357 230
-0.025617953 0.76899999 0.012134819 1.6961813e-38 301 231
-0.024206521 0.76700002 0.01210326 1.6041947e-38 302 231
-0.022861714 0.76700002 0.01210326 1.4935239e-38 303 231
-0.021516906 0.76700002 0.01210326 1.5670931e-38 304 231
-0.020172099 0.76700002 0.01210326 1.5486538e-38 305 231
-0.018753653 0.764 0.01205592 1.5854933e-38 306 231
-0.01736852 0.76200002 0.01202436 1.6039325e-38 307 231
-0.016011439 0.76099998 0.012008579 1.6225144e-38 308 231
-0.014638579 0.759 0.01197702 1.6501371e-38 309 231
-0.013272733 0.75700003 0.01194546 1.6869429e-38 310 231
-0.011913899 0.755 0.011913899 1.6961984e-38 311 231
-0.010590133 0.755 0.011913899 1.6962331e-38 312 231
-0.0092540924 0.75400001 0.01189812 1.6962331e-38 313 231
-0.00793208 0.75400001 0.01189812 1.7054511e-38 314 231
-0.0066100666 0.75400001 0.01189812 1.7054511e-38 315 231
-0.0052740262 0.75199997 0.011866559 1.7421842e-38 316 231
-0.0039555198 0.75199997 0.011866559 1.7145615e-38 317 231
-0.0026370131 0.75199997 0.011866559 1.7053062e-38 318 231
-0.0013185065 0.75199997 0.011866559 1.6868315e-38 319 231
0 0.75199997 0.011866559 1.6776121e-38 320 231
0.0013185065 0.75199997 0.011866559 1.6591733e-38 321 231
0.00263 0.75 0.011835 1.6406268e-38 322 231
0.003945 0.75 0.011835 1.5945297e-38 323 231
0.00526 0.75 0.011835 1.539249e-38 324 231
0.006575 0.75 0.011835 1.539249e-38 325 231
0.00789 0.75 0.011835 1.5301013e-38 326 231
0.0092049995 0.75 0.011835 1.5577237e-38 327 231
0.01052 0.75 0.011835 1.5852744e-38 328 231
0.011835 0.75 0.011835 1.5945297e-38 329 231
0.013132467 0.74900001 0.01181922 1.6130044e-38 330 231
0.014445714 0.74900001 0.01181922 1.6130044e-38 331 231
0.01575896 0.74900001 0.01181922 1.6130044e-38 332 231
0.017072206 0.74900001 0.01181922 1.6130044e-38 333 231
0.018385453 0.74900001 0.01181922 1.6313715e-38 334 231
0.0196987 0.74900001 0.01181922 1.6498103e-38 335 231
0.021011947 0.74900001 0.01181922 1.6498462e-38 336 231
0.022325192 0.74900001 0.01181922 1.6590656e-38 337 231
0.02363844 0.74900001 0.01181922 1.640842e-38 338 231
0.024951685 0.74900001 0.01181922 1.6223673e-38 339 231
0.026194798 0.74699998 0.011787659 1.631515e-38 340 231
0.027504537 0.74699998 0.011787659 1.6222956e-38 341 231
0.028891427 0.74900001 0.01181922 1.6406268e-38 342 231
0.030204674 0.74900001 0.01181922 1.6129685e-38 343 231
0.031517919 0.74900001 0.01181922 1.6220803e-38 344 231
0.032962665 0.75199997 0.011866559 1.6220803e-38 345 231
0.034281172 0.75199997 0.011866559 1.6220445e-38 346 231
0.035599679 0.75199997 0.011866559 1.612825e-38 347 231
0.036918186 0.75199997 0.011866559 1.6036418e-38 348 231
0.038338386 0.75400001 0.01189812 1.5943863e-38 349 231
0.039660402 0.75400001 0.01189812 1.5850601e-38 350 231
0.040982414 0.75400001 0.01189812 1.5758406e-38 351 231
0.042360533 0.755 0.011913899 1.538964e-38 352 231
0.043684296 0.755 0.011913899 1.5205247e-38 353 231
0.045008067 0.755 0.011913899 1.4653541e-38 354 231
0.046577301 0.759 0.01197702 1.4560986e-38 355 231
0.047908079 0.759 0.01197702 1.4746161e-38 356 231
0.049238857 0.759 0.01197702 1.6036898e-38 357 231
-0.025551327 0.76700002 0.010758453 1.6867815e-38 301 232
-0.024206521 0.76700002 0.010758453 1.5949021e-38 302 232
-0.022831906 0.76599997 0.010744425 1.4658284e-38 303 232
-0.021488851 0.76599997 0.010744425 1.5762402e-38 304 232
-0.020145798 0.76599997 0.010744425 1.5762402e-38 305 232
-0.018753653 0.764 0.010716373 1.585493e-38 306 232
-0.017345725 0.76099998 0.010674292 1.6223712e-38 307 232
-0.015969358 0.759 0.01064624 1.6408807e-38 308 232
-0.014600007 0.75700003 0.010618187 1.6593198e-38 309 232
-0.013237666 0.755 0.010590133 1.668647e-38 310 232
-0.011913899 0.755 0.010590133 1.6778666e-38 311 232
-0.010590133 0.755 0.010590133 1.7054527e-38 312 232
-0.0092540924 0.75400001 0.010576107 1.7054527e-38 313 232
-0.00793208 0.75400001 0.010576107 1.7238548e-38 314 232
-0.0066100666 0.75400001 0.010576107 1.7238548e-38 315 232
-0.0052740262 0.75199997 0.010548052 1.7330375e-38 316 232
-0.0039555198 0.75199997 0.010548052 1.7145984e-38 317 232
-0.0026370131 0.75199997 0.010548052 1.7053421e-38 318 232
-0.001315 0.75 0.01052 1.677648e-38 319 232
0 0.75 0.01052 1.6868674e-38 320 232
0.001315 0.75 0.01052 1.6776121e-38 321 232
0.00263 0.75 0.01052 1.6866522e-38 322 232
0.003945 0.75 0.01052 1.6498103e-38 323 232
0.00526 0.75 0.01052 1.6037491e-38 324 232
0.006575 0.75 0.01052 1.5945297e-38 325 232
0.00789 0.75 0.01052 1.5761626e-38 326 232
0.0092049995 0.75 0.01052 1.6222598e-38 327 232
0.010505973 0.74900001 0.010505973 1.6130405e-38 328 232
0.01181922 0.74900001 0.010505973 1.6314797e-38 329 232
0.013132467 0.74900001 0.010505973 1.6959813e-38 330 232
0.014445714 0.74900001 0.010505973 1.7144206e-38 331 232
0.01575896 0.74900001 0.010505973 1.7326803e-38 332 232
0.017072206 0.74900001 0.010505973 1.7142053e-38 333 232
0.018385453 0.74900001 0.010505973 1.7050561e-38 334 232
0.0196987 0.74900001 0.010505973 1.6958365e-38 335 232
0.021011947 0.74900001 0.010505973 1.6682853e-38 336 232
0.022265578 0.74699998 0.010477919 1.677505e-38 337 232
0.023575317 0.74699998 0.010477919 1.6500264e-38 338 232
0.024885058 0.74699998 0.010477919 1.640771e-38 339 232
0.026194798 0.74699998 0.010477919 1.6406627e-38 340 232
0.027504537 0.74699998 0.010477919 1.6314432e-38 341 232
0.028814279 0.74699998 0.010477919 1.6404833e-38 342 232
0.030204674 0.74900001 0.010505973 1.6404833e-38 343 232
0.031517919 0.74900001 0.010505973 1.6128968e-38 344 232
0.032831166 0.74900001 0.010505973 1.6128968e-38 345 232
0.034189999 0.75 0.01052 1.6128259e-38 346 232
0.035505001 0.75 0.01052 1.6036062e-38 347 232
0.036918186 0.75199997 0.010548052 1.6219024e-38 348 232
0.038236689 0.75199997 0.010548052 1.6219024e-38 349 232
0.039660402 0.75400001 0.010576107 1.5758769e-38 350 232
0.040982414 0.75400001 0.010576107 1.5666573e-38 351 232
0.042360533 0.755 0.010590133 1.5298166e-38 352 232
0.043684296 0.755 0.010590133 1.520561e-38 353 232
0.045127295 0.75700003 0.010618187 1.446987e-38 354 232
0.046700031 0.76099998 0.010674292 1.4377674e-38 355 232
0.048034318 0.76099998 0.010674292 1.4470652e-38 356 232
-0.025551327 0.76700002 0.0094136465 1.6591225e-38 301 233
-0.024206521 0.76700002 0.0094136465 1.5580237e-38 302 233
-0.022831906 0.76599997 0.0094013726 1.465828e-38 303 233
-0.021488851 0.76599997 0.0094013726 1.5395772e-38 304 233
-0.020145798 0.76599997 0.0094013726 1.5395772e-38 305 233
-0.018753653 0.764 0.0093768267 1.5948204e-38 306 233
-0.017345725 0.76099998 0.0093400059 1.60404e-38 307 233
-0.015969358 0.759 0.00931546 1.631769e-38 308 233
-0.014600007 0.75700003 0.0092909131 1.6593919e-38 309 233
-0.013237666 0.755 0.0092663663 1.6687186e-38 310 233
-0.011913899 0.755 0.0092663663 1.6779741e-38 311 233
-0.010590133 0.755 0.0092663663 1.687157e-38 312 233
-0.0092540924 0.75400001 0.0092540924 1.687157e-38 313 233
-0.00793208 0.75400001 0.0092540924 1.7330744e-38 314 233
-0.0065925326 0.75199997 0.0092295464 1.7238548e-38 315 233
-0.0052740262 0.75199997 0.0092295464 1.7421845e-38 316 233
-0.0039555198 0.75199997 0.0092295464 1.7145617e-38 317 233
-0.00263 0.75 0.0092049995 1.7237092e-38 318 233
-0.001315 0.75 0.0092049995 1.6868674e-38 319 233
0 0.75 0.0092049995 1.7051986e-38 320 233
0.001315 0.75 0.0092049995 1.7051986e-38 321 233
0.00263 0.75 0.0092049995 1.6959792e-38 322 233
0.003945 0.75 0.0092049995 1.6775404e-38 323 233
0.0052529867 0.74900001 0.0091927266 1.6498462e-38 324 233
0.0065662335 0.74900001 0.0091927266 1.6498462e-38 325 233
0.0078794798 0.74900001 0.0091927266 1.6590298e-38 326 233
0.0091927266 0.74900001 0.0091927266 1.6774686e-38 327 233
0.010505973 0.74900001 0.0091927266 1.6958363e-38 328 233
0.01181922 0.74900001 0.0091927266 1.7050917e-38 329 233
0.013132467 0.74900001 0.0091927266 1.7052346e-38 330 233
0.014445714 0.74900001 0.0091927266 1.7236377e-38 331 233
0.01575896 0.74900001 0.0091927266 1.7236016e-38 332 233
0.017072206 0.74900001 0.0091927266 1.732821e-38 333 233
0.018336359 0.74699998 0.0091681797 1.7143463e-38 334 233
0.019646099 0.74699998 0.0091681797 1.7051269e-38 335 233
0.020955838 0.74699998 0.0091681797 1.7051269e-38 336 233
0.022265578 0.74699998 0.0091681797 1.7051269e-38 337 233
0.023575317 0.74699998 0.0091681797 1.6959075e-38 338 233
0.024885058 0.74699998 0.0091681797 1.6775045e-38 339 233
0.026194798 0.74699998 0.0091681797 1.6773251e-38 340 233
0.027504537 0.74699998 0.0091681797 1.6681057e-38 341 233
0.028814279 0.74699998 0.0091681797 1.6221532e-38 342 233
0.030204674 0.74900001 0.0091927266 1.6128978e-38 343 233
0.031517919 0.74900001 0.0091927266 1.6036432e-38 344 233
0.032831166 0.74900001 0.0091927266 1.5944235e-38 345 233
0.034189999 0.75 0.0092049995 1.6035714e-38 346 233
0.035505001 0.75 0.0092049995 1.6035714e-38 347 233
0.036918186 0.75199997 0.0092295464 1.5943886e-38 348 233
0.038236689 0.75199997 0.0092295464 1.5851689e-38 349 233
0.039660402 0.75400001 0.0092540924 1.557475e-38 350 233
0.040982414 0.75400001 0.0092540924 1.5390359e-38 351 233
0.042360533 0.755 0.0092663663 1.5296737e-38 352 233
0.043684296 0.755 0.0092663663 1.5112345e-38 353 233
0.045127295 0.75700003 0.0092909131 1.4652832e-38 354 233
0.046577301 0.759 0.00931546 1.4560636e-38 355 233
0.047908079 0.759 0.00931546 1.4378097e-38 356 233
-0.025551327 0.76700002 0.00806884 1.6224601e-38 301 234
-0.024206521 0.76700002 0.00806884 1.5763903e-38 302 234
-0.022831906 0.76599997 0.0080583189 1.4842307e-38 303 234
-0.021488851 0.76599997 0.0080583189 1.5671281e-38 304 234
-0.020093199 0.764 0.0080372803 1.5763836e-38 305 234
-0.01870456 0.76200002 0.0080162399 1.6040047e-38 306 234
-0.017345725 0.76099998 0.0080057196 1.6224438e-38 307 234
-0.015969358 0.759 0.0079846792 1.6501727e-38 308 234
-0.014600007 0.75700003 0.0079636406 1.668612e-38 309 234
-0.013237666 0.755 0.0079425992 1.6595719e-38 310 234
-0.011913899 0.755 0.0079425992 1.6780469e-38 311 234
-0.010576107 0.75400001 0.00793208 1.7056697e-38 312 234
-0.0092540924 0.75400001 0.00793208 1.6964502e-38 313 234
-0.0079110395 0.75199997 0.0079110395 1.7331121e-38 314 234
-0.0065925326 0.75199997 0.0079110395 1.7331121e-38 315 234
-0.0052740262 0.75199997 0.0079110395 1.7239271e-38 316 234
-0.003945 0.75 0.00789 1.705488e-38 317 234
-0.00263 0.75 0.00789 1.6870116e-38 318 234
-0.001315 0.75 0.00789 1.6593529e-38 319 234
0 0.75 0.00789 1.6961227e-38 320 234
0.0013132467 0.74900001 0.0078794798 1.6776838e-38 321 234
0.0026264933 0.74900001 0.0078794798 1.6868674e-38 322 234
0.0039397399 0.74900001 0.0078794798 1.7053062e-38 323 234
0.0052529867 0.74900001 0.0078794798 1.7052346e-38 324 234
0.0065662335 0.74900001 0.0078794798 1.7236377e-38 325 234
0.0078794798 0.74900001 0.0078794798 1.7328226e-38 326 234
0.0091927266 0.74900001 0.0078794798 1.7328226e-38 327 234
0.010505973 0.74900001 0.0078794798 1.7051993e-38 328 234
0.01181922 0.74900001 0.0078794798 1.7051993e-38 329 234
0.013132467 0.74900001 0.0078794798 1.6960514e-38 330 234
0.014407139 0.74699998 0.0078584393 1.6960514e-38 331 234
0.015716879 0.74699998 0.0078584393 1.7235311e-38 332 234
0.017026618 0.74699998 0.0078584393 1.7235311e-38 333 234
0.018336359 0.74699998 0.0078584393 1.7051643e-38 334 234
0.019646099 0.74699998 0.0078584393 1.7051643e-38 335 234
0.020955838 0.74699998 0.0078584393 1.705164e-38 336 234
0.022265578 0.74699998 0.0078584393 1.705164e-38 337 234
0.023575317 0.74699998 0.0078584393 1.7052362e-38 338 234
0.024885058 0.74699998 0.0078584393 1.6775775e-38 339 234
0.026194798 0.74699998 0.0078584393 1.6406276e-38 340 234
0.027504537 0.74699998 0.0078584393 1.6313722e-38 341 234
0.028814279 0.74699998 0.0078584393 1.6037138e-38 342 234
0.030124018 0.74699998 0.0078584393 1.5852386e-38 343 234
0.031433757 0.74699998 0.0078584393 1.6034983e-38 344 234
0.032831166 0.74900001 0.0078794798 1.6127178e-38 345 234
0.034144413 0.74900001 0.0078794798 1.603463e-38 346 234
0.03545766 0.74900001 0.0078794798 1.603463e-38 347 234
0.036819998 0.75 0.00789 1.5758415e-38 348 234
0.038236689 0.75199997 0.0079110395 1.566622e-38 349 234
0.039660402 0.75400001 0.00793208 1.5299245e-38 350 234
0.040982414 0.75400001 0.00793208 1.5207049e-38 351 234
0.042304426 0.75400001 0.00793208 1.5021226e-38 352 234
0.043684296 0.755 0.0079425992 1.492903e-38 353 234
0.045127295 0.75700003 0.0079636406 1.4560989e-38 354 234
0.046454567 0.75700003 0.0079636406 1.4560989e-38 355 234
0.04778184 0.75700003 0.0079636406 1.4469933e-38 356 234
0.049109112 0.75700003 0.0079636406 1.5760671e-38 357 234
-0.024206521 0.76700002 0.006724033 1.5580228e-38 302 235
-0.022831906 0.76599997 0.0067152665 1.5026694e-38 303 235
-0.021432746 0.764 0.006697733 1.5672356e-38 304 235
-0.0200406 0.76200002 0.0066801999 1.5672356e-38 305 235
-0.01870456 0.76200002 0.0066801999 1.58571e-38 306 235
-0.017345725 0.76099998 0.0066714329 1.6041492e-38 307 235
-0.015969358 0.759 0.0066538998 1.6318429e-38 308 235
-0.014600007 0.75700003 0.0066363667 1.650282e-38 309 235
-0.013237666 0.755 0.0066188332 1.6687567e-38 310 235
-0.011913899 0.755 0.0066188332 1.6963796e-38 311 235
-0.010576107 0.75400001 0.0066100666 1.7056347e-38 312 235
-0.0092295464 0.75199997 0.0065925326 1.7148543e-38 313 235
-0.0079110395 0.75199997 0.0065925326 1.7056697e-38 314 235
-0.006575 0.75 0.006575 1.7056697e-38 315 235
-0.00526 0.75 0.006575 1.723999e-38 316 235
-0.003945 0.75 0.006575 1.6963763e-38 317 235
-0.00263 0.75 0.006575 1.7054862e-38 318 235
-0.001315 0.75 0.006575 1.6778273e-38 319 235
0 0.75 0.006575 1.6961227e-38 320 235
0.0013132467 0.74900001 0.0065662335 1.6961227e-38 321 235
0.0026264933 0.74900001 0.0065662335 1.6960509e-38 322 235
0.0039397399 0.74900001 0.0065662335 1.7053062e-38 323 235
0.0052529867 0.74900001 0.0065662335 1.6960509e-38 324 235
0.0065662335 0.74900001 0.0065662335 1.7052704e-38 325 235
0.0078794798 0.74900001 0.0065662335 1.6961227e-38 326 235
0.0091927266 0.74900001 0.0065662335 1.6961227e-38 327 235
0.010477919 0.74699998 0.0065486995 1.7236733e-38 328 235
0.011787659 0.74699998 0.0065486995 1.7236733e-38 329 235
0.013097399 0.74699998 0.0065486995 1.732786e-38 330 235
0.014407139 0.74699998 0.0065486995 1.7235305e-38 331 235
0.015716879 0.74699998 0.0065486995 1.7051646e-38 332 235
0.017026618 0.74699998 0.0065486995 1.7235677e-38 333 235
0.018336359 0.74699998 0.0065486995 1.695981e-38 334 235
0.019646099 0.74699998 0.0065486995 1.695981e-38 335 235
0.020955838 0.74699998 0.0065486995 1.7051993e-38 336 235
0.022265578 0.74699998 0.0065486995 1.7051993e-38 337 235
0.023575317 0.74699998 0.0065486995 1.714311e-38 338 235
0.024885058 0.74699998 0.0065486995 1.6774686e-38 339 235
0.026194798 0.74699998 0.0065486995 1.6132198e-38 340 235
0.027504537 0.74699998 0.0065486995 1.5671584e-38 341 235
0.028814279 0.74699998 0.0065486995 1.6037491e-38 342 235
0.030124018 0.74699998 0.0065486995 1.5669073e-38 343 235
0.031433757 0.74699998 0.0065486995 1.5576161e-38 344 235
0.032831166 0.74900001 0.0065662335 1.5852386e-38 345 235
0.034144413 0.74900001 0.0065662335 1.5850598e-38 346 235
0.03545766 0.74900001 0.0065662335 1.603463e-38 347 235
0.036819998 0.75 0.006575 1.5575456e-38 348 235
0.038236689 0.75199997 0.0065925326 1.5575456e-38 349 235
0.039660402 0.75400001 0.0066100666 1.5390712e-38 350 235
0.040982414 0.75400001 0.0066100666 1.5206319e-38 351 235
0.042304426 0.75400001 0.0066100666 1.5112698e-38 352 235
0.043684296 0.755 0.0066188332 1.5020503e-38 353 235
0.045127295 0.75700003 0.0066363667 1.4285491e-38 354 235
0.046454567 0.75700003 0.0066363667 1.4378045e-38 355 235
0.04778184 0.75700003 0.0066363667 1.446958e-38 356 235
0.049109112 0.75700003 0.0066363667 1.5575927e-38 357 235
-0.024206521 0.76700002 0.0053792265 1.5764259e-38 302 236
-0.022831906 0.76599997 0.0053722127 1.5211085e-38 303 236
-0.021432746 0.764 0.0053581866 1.5580886e-38 304 236
-0.0200406 0.76200002 0.0053441599 1.5580886e-38 305 236
-0.01870456 0.76200002 0.0053441599 1.6040415e-38 306 236
-0.017345725 0.76099998 0.0053371461 1.6317004e-38 307 236
-0.015969358 0.759 0.0053231199 1.6410274e-38 308 236
-0.014600007 0.75700003 0.0053090933 1.6686861e-38 309 236
-0.013237666 0.755 0.0052950666 1.6963095e-38 310 236
-0.011913899 0.755 0.0052950666 1.705529e-38 311 236
-0.010576107 0.75400001 0.0052880533 1.6964537e-38 312 236
-0.0092295464 0.75199997 0.0052740262 1.7057091e-38 313 236
-0.0079110395 0.75199997 0.0052740262 1.7149288e-38 314 236
-0.006575 0.75 0.00526 1.7149288e-38 315 236
-0.00526 0.75 0.00526 1.7332954e-38 316 236
-0.003945 0.75 0.00526 1.7056367e-38 317 236
-0.00263 0.75 0.00526 1.7055625e-38 318 236
-0.001315 0.75 0.00526 1.6779037e-38 319 236
0 0.75 0.00526 1.7053431e-38 320 236
0.0013132467 0.74900001 0.0052529867 1.68694e-38 321 236
0.0026264933 0.74900001 0.0052529867 1.7052704e-38 322 236
0.0039397399 0.74900001 0.0052529867 1.7052704e-38 323 236
0.0052529867 0.74900001 0.0052529867 1.7052349e-38 324 236
0.0065662335 0.74900001 0.0052529867 1.7052349e-38 325 236
0.0078584393 0.74699998 0.0052389596 1.6869397e-38 326 236
0.0091681797 0.74699998 0.0052389596 1.6869397e-38 327 236
0.010477919 0.74699998 0.0052389596 1.7144908e-38 328 236
0.011787659 0.74699998 0.0052389596 1.7144908e-38 329 236
0.013097399 0.74699998 0.0052389596 1.732786e-38 330 236
0.014407139 0.74699998 0.0052389596 1.7235305e-38 331 236
0.015716879 0.74699998 0.0052389596 1.705164e-38 332 236
0.017026618 0.74699998 0.0052389596 1.723603e-38 333 236
0.018336359 0.74699998 0.0052389596 1.7052365e-38 334 236
0.019646099 0.74699998 0.0052389596 1.7052365e-38 335 236
0.020955838 0.74699998 0.0052389596 1.6960163e-38 336 236
0.022265578 0.74699998 0.0052389596 1.6867968e-38 337 236
0.023575317 0.74699998 0.0052389596 1.6959091e-38 338 236
0.024885058 0.74699998 0.0052389596 1.6682504e-38 339 236
0.026194798 0.74699998 0.0052389596 1.5947103e-38 340 236
0.027504537 0.74699998 0.0052389596 1.5763072e-38 341 236
0.028891427 0.74900001 0.0052529867 1.5945297e-38 342 236
0.030204674 0.74900001 0.0052529867 1.5852744e-38 343 236
0.031517919 0.74900001 0.0052529867 1.5668714e-38 344 236
0.032831166 0.74900001 0.0052529867 1.5668714e-38 345 236
0.034144413 0.74900001 0.0052529867 1.5852026e-38 346 236
0.03545766 0.74900001 0.0052529867 1.5759832e-38 347 236
0.036819998 0.75 0.00526 1.5575807e-38 348 236
0.038236689 0.75199997 0.0052740262 1.5391415e-38 349 236
0.039660402 0.75400001 0.0052880533 1.5390345e-38 350 236
0.040982414 0.75400001 0.0052880533 1.5205595e-38 351 236
0.042304426 0.75400001 0.0052880533 1.4836466e-38 352 236
0.043684296 0.755 0.0052950666 1.474427e-38 353 236
0.045127295 0.75700003 0.0053090933 1.4285125e-38 354 236
0.046577301 0.759 0.0053231199 1.4469875e-38 355 236
0.047908079 0.759 0.0053231199 1.43781e-38 356 236
0.049238857 0.759 0.0053231199 1.5392612e-38 357 236
-0.021432746 0.764 0.0040186401 1.5581608e-38 304 237
-0.0200406 0.76200002 0.0040081199 1.5673804e-38 305 237
-0.01870456 0.76200002 0.0040081199 1.5949299e-38 306 237
-0.017345725 0.76099998 0.0040028598 1.6133692e-38 307 237
-0.015969358 0.759 0.0039923396 1.6501754e-38 308 237
-0.014638579 0.759 0.0039923396 1.6777981e-38 309 237
-0.013237666 0.755 0.0039712996 1.6962739e-38 310 237
-0.011913899 0.755 0.0039712996 1.7055293e-38 311 237
-0.010576107 0.75400001 0.00396604 1.696454e-38 312 237
-0.0092295464 0.75199997 0.0039555198 1.7241487e-38 313 237
-0.0079110395 0.75199997 0.0039555198 1.7242221e-38 314 237
-0.0065925326 0.75199997 0.0039555198 1.7334417e-38 315 237
-0.00526 0.75 0.003945 1.7700685e-38 316 237
-0.003945 0.75 0.003945 1.742374e-38 317 237
-0.00263 0.75 0.003945 1.7056723e-38 318 237
-0.001315 0.75 0.003945 1.6872331e-38 319 237
0 0.75 0.003945 1.7053811e-38 320 237
0.0013132467 0.74900001 0.0039397399 1.6961615e-38 321 237
0.0026264933 0.74900001 0.0039397399 1.7145631e-38 322 237
0.0039397399 0.74900001 0.0039397399 1.6869403e-38 323 237
0.0052529867 0.74900001 0.0039397399 1.6776848e-38 324 237
0.0065662335 0.74900001 0.0039397399 1.6776848e-38 325 237
0.0078584393 0.74699998 0.0039292197 1.7053431e-38 326 237
0.0091681797 0.74699998 0.0039292197 1.68694e-38 327 237
0.010477919 0.74699998 0.0039292197 1.7144908e-38 328 237
0.011787659 0.74699998 0.0039292197 1.7144908e-38 329 237
0.013097399 0.74699998 0.0039292197 1.7144913e-38 330 237
0.014407139 0.74699998 0.0039292197 1.7052359e-38 331 237
0.015716879 0.74699998 0.0039292197 1.6868694e-38 332 237
0.017026618 0.74699998 0.0039292197 1.6868694e-38 333 237
0.018336359 0.74699998 0.0039292197 1.7052729e-38 334 237
0.019646099 0.74699998 0.0039292197 1.6868696e-38 335 237
0.020955838 0.74699998 0.0039292197 1.6776498e-38 336 237
0.022265578 0.74699998 0.0039292197 1.6684302e-38 337 237
0.023575317 0.74699998 0.0039292197 1.6591038e-38 338 237
0.024885058 0.74699998 0.0039292197 1.631409e-38 339 237
0.026194798 0.74699998 0.0039292197 1.5946031e-38 340 237
0.027504537 0.74699998 0.0039292197 1.5946031e-38 341 237
0.028814279 0.74699998 0.0039292197 1.5853467e-38 342 237
0.030204674 0.74900001 0.0039397399 1.576127e-38 343 237
0.031517919 0.74900001 0.0039397399 1.5669074e-38 344 237
0.032831166 0.74900001 0.0039397399 1.5669074e-38 345 237
0.034144413 0.74900001 0.0039397399 1.5851317e-38 346 237
0.035505001 0.75 0.003945 1.5759122e-38 347 237
0.036819998 0.75 0.003945 1.5482905e-38 348 237
0.038236689 0.75199997 0.0039555198 1.5298513e-38 349 237
0.039660402 0.75400001 0.00396604 1.5205244e-38 350 237
0.040982414 0.75400001 0.00396604 1.5113049e-38 351 237
0.042360533 0.755 0.0039712996 1.4744992e-38 352 237
0.043684296 0.755 0.0039712996 1.4744992e-38 353 237
0.045127295 0.75700003 0.0039818203 1.4285125e-38 354 237
0.046454567 0.75700003 0.0039818203 1.4469875e-38 355 237
0.047908079 0.759 0.0039923396 1.4562493e-38 356 237
0.049238857 0.759 0.0039923396 1.5484808e-38 357 237
-0.021432746 0.764 0.0026790933 1.5674157e-38 304 238
-0.0200406 0.76200002 0.00267208 1.5674157e-38 305 238
-0.01870456 0.76200002 0.00267208 1.5950015e-38 306 238
-0.017345725 0.76099998 0.0026685731 1.6134408e-38 307 238
-0.015969358 0.759 0.00266156 1.6409921e-38 308 238
-0.014638579 0.759 0.00266156 1.6594312e-38 309 238
-0.013237666 0.755 0.0026475333 1.6779076e-38 310 238
-0.011913899 0.755 0.0026475333 1.6963468e-38 311 238
-0.010576107 0.75400001 0.0026440267 1.6873443e-38 312 238
-0.0092540924 0.75400001 0.0026440267 1.7241865e-38 313 238
-0.0079110395 0.75199997 0.0026370131 1.7610667e-38 314 238
-0.0065925326 0.75199997 0.0026370131 1.797981e-38 315 238
-0.0052740262 0.75199997 0.0026370131 1.8162406e-38 316 238
-0.003945 0.75 0.00263 1.7793263e-38 317 238
-0.00263 0.75 0.00263 1.742589e-38 318 238
-0.001315 0.75 0.00263 1.7149304e-38 319 238
0 0.75 0.00263 1.7147091e-38 320 238
0.0013132467 0.74900001 0.0026264933 1.6778669e-38 321 238
0.0026264933 0.74900001 0.0026264933 1.723818e-38 322 238
0.0039397399 0.74900001 0.0026264933 1.7053787e-38 323 238
0.0052529867 0.74900001 0.0026264933 1.6960516e-38 324 238
0.0065662335 0.74900001 0.0026264933 1.7052712e-38 325 238
0.0078584393 0.74699998 0.0026194798 1.7053434e-38 326 238
0.0091681797 0.74699998 0.0026194798 1.7053434e-38 327 238
0.010477919 0.74699998 0.0026194798 1.7053082e-38 328 238
0.011787659 0.74699998 0.0026194798 1.7053082e-38 329 238
0.013097399 0.74699998 0.0026194798 1.7144562e-38 330 238
0.014407139 0.74699998 0.0026194798 1.7144562e-38 331 238
0.015716879 0.74699998 0.0026194798 1.7053085e-38 332 238
0.017026618 0.74699998 0.0026194798 1.7053085e-38 333 238
0.018336359 0.74699998 0.0026194798 1.6869419e-38 334 238
