# .PCD v.7 - Point Cloud Data file format
FIELDS x y z rgb imX imY
SIZE 4 4 4 4 4 4
TYPE F F F F F F
COUNT 1 1 1 1 1 1
WIDTH 850
HEIGHT 1
VIEWPOINT 0 0 0 1 0 0 0
POINTS 850
DATA ascii
0.030406307 0.75400001 -0.010576107 8.8535326e-39 343 248
0.031770397 0.755 -0.010590133 8.5780219e-39 344 248
0.033094164 0.755 -0.010590133 8.4854676e-39 345 248
0.034417931 0.755 -0.010590133 8.2099499e-39 346 248
0.03583638 0.75700003 -0.010618187 8.0255614e-39 347 248
0.03726184 0.759 -0.01064624 7.8422491e-39 348 248
0.038694311 0.76099998 -0.010674292 8.0262789e-39 349 248
0.040028598 0.76099998 -0.010674292 8.0270132e-39 350 248
0.041362885 0.76099998 -0.010674292 8.5801869e-39 351 248
0.042753279 0.76200002 -0.01068832 9.1312307e-39 352 248
0.044089317 0.76200002 -0.01068832 1.0606721e-38 353 248
0.045663811 0.76599997 -0.010744425 1.318212e-38 354 248
-0.028498679 0.77399999 -0.01221372 1.5671092e-38 299 249
-0.027106533 0.773 -0.012197939 1.4661221e-38 300 249
-0.025751207 0.773 -0.012197939 1.2816948e-38 301 249
-0.024395877 0.773 -0.012197939 1.2172965e-38 302 249
-0.023040552 0.773 -0.012197939 1.1804541e-38 303 249
-0.021629119 0.77100003 -0.01216638 1.1713752e-38 304 249
-0.0202247 0.76899999 -0.012134819 1.1529002e-38 305 249
-0.018876385 0.76899999 -0.012134819 1.1161998e-38 306 249
-0.017459691 0.76599997 -0.012087479 1.1069802e-38 307 249
-0.016074561 0.764 -0.01205592 1.0794655e-38 308 249
-0.01469644 0.76200002 -0.01202436 1.0702459e-38 309 249
-0.013342866 0.76099998 -0.012008579 1.1068749e-38 310 249
-0.01197702 0.759 -0.01197702 1.1253141e-38 311 249
-0.010618187 0.75700003 -0.01194546 1.1346454e-38 312 249
-0.0092909131 0.75700003 -0.01194546 1.1438649e-38 313 249
-0.0079425992 0.755 -0.011913899 1.088656e-38 314 249
-0.0066188332 0.755 -0.011913899 1.0518138e-38 315 249
-0.0052950666 0.755 -0.011913899 1.0702895e-38 316 249
-0.0039712996 0.755 -0.011913899 1.1071677e-38 317 249
-0.0026440267 0.75400001 -0.01189812 1.1439028e-38 318 249
-0.0013220133 0.75400001 -0.01189812 1.1439028e-38 319 249
0 0.75400001 -0.01189812 1.1345371e-38 320 249
0.0013220133 0.75400001 -0.01189812 1.1069144e-38 321 249
0.0026370131 0.75199997 -0.011866559 1.0883301e-38 322 249
0.0039555198 0.75199997 -0.011866559 1.0606715e-38 323 249
0.0052740262 0.75199997 -0.011866559 1.0237929e-38 324 249
0.0065925326 0.75199997 -0.011866559 1.0053897e-38 325 249
0.0079110395 0.75199997 -0.011866559 1.0053169e-38 326 249
0.0092049995 0.75 -0.011835 1.0053169e-38 327 249
0.01052 0.75 -0.011835 9.9606032e-39 328 249
0.011866559 0.75199997 -0.011866559 9.776212e-39 329 249
0.013185065 0.75199997 -0.011866559 9.8666027e-39 330 249
0.014465 0.75 -0.011835 9.4981804e-39 331 249
0.01578 0.75 -0.011835 9.4974643e-39 332 249
0.017095 0.75 -0.011835 9.2205173e-39 333 249
0.018409999 0.75 -0.011835 9.0368519e-39 334 249
0.019724999 0.75 -0.011835 9.0368519e-39 335 249
0.021096105 0.75199997 -0.011866559 9.2194453e-39 336 249
0.022414612 0.75199997 -0.011866559 9.1272496e-39 337 249
0.023733119 0.75199997 -0.011866559 9.0357729e-39 338 249
0.025118252 0.75400001 -0.01189812 9.0357729e-39 339 249
0.026440267 0.75400001 -0.01189812 8.9450094e-39 340 249
0.027762281 0.75400001 -0.01189812 8.8528138e-39 341 249
0.029084291 0.75400001 -0.01189812 8.577666e-39 342 249
0.030446632 0.755 -0.011913899 8.4854704e-39 343 249
0.031770397 0.755 -0.011913899 8.2099625e-39 344 249
0.033094164 0.755 -0.011913899 8.1177668e-39 345 249
0.034417931 0.755 -0.011913899 7.8426079e-39 346 249
0.03583638 0.75700003 -0.01194546 7.6578607e-39 347 249
0.03726184 0.759 -0.01197702 7.8418904e-39 348 249
0.038694311 0.76099998 -0.012008579 8.1184731e-39 349 249
0.040028598 0.76099998 -0.012008579 8.1192144e-39 350 249
0.041362885 0.76099998 -0.012008579 8.6720294e-39 351 249
0.042753279 0.76200002 -0.01202436 9.4063897e-39 352 249
0.04420504 0.764 -0.01205592 1.1527248e-38 353 249
0.045663811 0.76599997 -0.012087479 1.373422e-38 354 249
-0.028498679 0.77399999 -0.013570799 1.5578894e-38 299 250
-0.027106533 0.773 -0.013553266 1.4936024e-38 300 250
-0.025751207 0.773 -0.013553266 1.3553088e-38 301 250
-0.024395877 0.773 -0.013553266 1.2633593e-38 302 250
-0.023040552 0.773 -0.013553266 1.1804191e-38 303 250
-0.021629119 0.77100003 -0.013518199 1.162227e-38 304 250
-0.020277301 0.77100003 -0.013518199 1.1346043e-38 305 250
-0.018876385 0.76899999 -0.013483133 1.1161995e-38 306 250
-0.017482487 0.76700002 -0.013448066 1.10698e-38 307 250
-0.016074561 0.764 -0.013395466 1.0885408e-38 308 250
-0.01469644 0.76200002 -0.0133604 1.0701377e-38 309 250
-0.013342866 0.76099998 -0.013342866 1.0883986e-38 310 250
-0.012008579 0.76099998 -0.013342866 1.0976182e-38 311 250
-0.010618187 0.75700003 -0.013272733 1.0976553e-38 312 250
-0.0092909131 0.75700003 -0.013272733 1.1068749e-38 313 250
-0.0079636406 0.75700003 -0.013272733 1.0791435e-38 314 250
-0.0066188332 0.755 -0.013237666 9.9616724e-39 315 250
-0.0052950666 0.755 -0.013237666 9.2277073e-39 316 250
-0.0039712996 0.755 -0.013237666 9.5042956e-39 317 250
-0.0026475333 0.755 -0.013237666 9.8720202e-39 318 250
-0.0013237667 0.755 -0.013237666 1.0148967e-38 319 250
0 0.75400001 -0.013220133 1.0883298e-38 320 250
0.0013220133 0.75400001 -0.013220133 1.0699267e-38 321 250
0.0026440267 0.75400001 -0.013220133 1.0605635e-38 322 250
0.00396604 0.75400001 -0.013220133 1.0421604e-38 323 250
0.0052740262 0.75199997 -0.013185065 1.0236138e-38 324 250
0.0065925326 0.75199997 -0.013185065 1.0143942e-38 325 250
0.0079110395 0.75199997 -0.013185065 1.0052095e-38 326 250
0.0092295464 0.75199997 -0.013185065 1.0144292e-38 327 250
0.010548052 0.75199997 -0.013185065 9.7769379e-39 328 250
0.011866559 0.75199997 -0.013185065 9.5925466e-39 329 250
0.013185065 0.75199997 -0.013185065 9.4074323e-39 330 250
0.014465 0.75 -0.01315 9.2226823e-39 331 250
0.01578 0.75 -0.01315 9.1297678e-39 332 250
0.017095 0.75 -0.01315 8.8531795e-39 333 250
0.018409999 0.75 -0.01315 8.8528236e-39 334 250
0.0197776 0.75199997 -0.013185065 8.6687924e-39 335 250
0.021096105 0.75199997 -0.013185065 8.6691456e-39 336 250
0.022474226 0.75400001 -0.013220133 8.8531767e-39 337 250
0.02379624 0.75400001 -0.013220133 8.6702148e-39 338 250
0.025118252 0.75400001 -0.013220133 8.5780191e-39 339 250
0.026440267 0.75400001 -0.013220133 8.5780163e-39 340 250
0.027799098 0.755 -0.013237666 8.5780163e-39 341 250
0.029122867 0.755 -0.013237666 8.4854676e-39 342 250
0.030446632 0.755 -0.013237666 8.2092408e-39 343 250
0.031770397 0.755 -0.013237666 7.8422548e-39 344 250
0.033094164 0.755 -0.013237666 7.7497004e-39 345 250
0.034509107 0.75700003 -0.013272733 7.8418904e-39 346 250
0.035931058 0.759 -0.0133078 7.8418904e-39 347 250
0.03726184 0.759 -0.0133078 8.1184731e-39 348 250
0.038694311 0.76099998 -0.013342866 8.3028616e-39 349 250
0.040081199 0.76200002 -0.0133604 8.5794681e-39 350 250
0.041417241 0.76200002 -0.0133604 8.9478905e-39 351 250
0.042753279 0.76200002 -0.0133604 9.8662945e-39 352 250
0.044320758 0.76599997 -0.013430533 1.2355576e-38 353 250
0.045663811 0.76599997 -0.013430533 1.4194495e-38 354 250
-0.027106533 0.773 -0.014908593 1.4568685e-38 300 251
-0.025751207 0.773 -0.014908593 1.383112e-38 301 251
-0.024395877 0.773 -0.014908593 1.2634321e-38 302 251
-0.023040552 0.773 -0.014908593 1.1712006e-38 303 251
-0.021629119 0.77100003 -0.01487002 1.15308e-38 304 251
-0.020277301 0.77100003 -0.01487002 1.1254213e-38 305 251
-0.018876385 0.76899999 -0.014831445 1.1162718e-38 306 251
-0.017482487 0.76700002 -0.014792874 1.088649e-38 307 251
-0.016116638 0.76599997 -0.014773586 1.0885411e-38 308 251
-0.01469644 0.76200002 -0.01469644 1.0701021e-38 309 251
-0.0133604 0.76200002 -0.01469644 1.0608826e-38 310 251
-0.012008579 0.76099998 -0.014677152 1.0608826e-38 311 251
-0.01064624 0.759 -0.014638579 1.0791418e-38 312 251
-0.00931546 0.759 -0.014638579 1.0699222e-38 313 251
-0.0079636406 0.75700003 -0.014600007 1.0514834e-38 314 251
-0.0066363667 0.75700003 -0.014600007 1.0146051e-38 315 251
-0.0052950666 0.755 -0.014561433 9.595401e-39 316 251
-0.0039712996 0.755 -0.014561433 9.8716292e-39 317 251
-0.0026475333 0.755 -0.014561433 9.9631242e-39 318 251
-0.0013237667 0.755 -0.014561433 1.0147515e-38 319 251
0 0.755 -0.014561433 1.0605991e-38 320 251
0.0013220133 0.75400001 -0.014542146 1.0605991e-38 321 251
0.0026440267 0.75400001 -0.014542146 1.0421607e-38 322 251
0.00396604 0.75400001 -0.014542146 1.0236857e-38 323 251
0.0052740262 0.75199997 -0.014503572 1.0143945e-38 324 251
0.0065925326 0.75199997 -0.014503572 1.0051748e-38 325 251
0.0079110395 0.75199997 -0.014503572 9.7762344e-39 326 251
0.0092295464 0.75199997 -0.014503572 9.7762344e-39 327 251
0.010548052 0.75199997 -0.014503572 9.6843891e-39 328 251
0.011866559 0.75199997 -0.014503572 9.4999978e-39 329 251
0.013185065 0.75199997 -0.014503572 9.4070763e-39 330 251
0.014503572 0.75199997 -0.014503572 9.1304894e-39 331 251
0.01578 0.75 -0.014465 9.0372078e-39 332 251
0.017095 0.75 -0.014465 8.9446535e-39 333 251
0.018459093 0.75199997 -0.014503572 8.4854704e-39 334 251
0.0197776 0.75199997 -0.014503572 8.577666e-39 335 251
0.021096105 0.75199997 -0.014503572 8.5780219e-39 336 251
0.022474226 0.75400001 -0.014542146 8.6702176e-39 337 251
0.02379624 0.75400001 -0.014542146 8.4872556e-39 338 251
0.025118252 0.75400001 -0.014542146 8.4872556e-39 339 251
0.026475333 0.755 -0.014561433 8.3950572e-39 340 251
0.027799098 0.755 -0.014561433 8.3028616e-39 341 251
0.029122867 0.755 -0.014561433 8.1181144e-39 342 251
0.030446632 0.755 -0.014561433 7.8418904e-39 343 251
0.031770397 0.755 -0.014561433 7.6578607e-39 344 251
0.033181835 0.75700003 -0.014600007 7.7504137e-39 345 251
0.034509107 0.75700003 -0.014600007 7.5667427e-39 346 251
0.035931058 0.759 -0.014638579 7.8433253e-39 347 251
0.037360024 0.76099998 -0.014677152 8.1191962e-39 348 251
0.038745161 0.76200002 -0.01469644 8.5801729e-39 349 251
0.040081199 0.76200002 -0.01469644 8.7642279e-39 350 251
0.041417241 0.76200002 -0.01469644 9.4095973e-39 351 251
0.042977702 0.76599997 -0.014773586 9.8680993e-39 352 251
0.044320758 0.76599997 -0.014773586 1.2541773e-38 353 251
-0.025751207 0.773 -0.016263919 1.4107708e-38 301 252
-0.024395877 0.773 -0.016263919 1.3095312e-38 302 252
-0.023040552 0.773 -0.016263919 1.1804573e-38 303 252
-0.021685226 0.773 -0.016263919 1.1621922e-38 304 252
-0.0203299 0.773 -0.016263919 1.1345337e-38 305 252
-0.018925481 0.77100003 -0.016221842 1.1161998e-38 306 252
-0.017482487 0.76700002 -0.01613768 1.1161998e-38 307 252
-0.016116638 0.76599997 -0.016116638 1.0977957e-38 308 252
-0.014735013 0.764 -0.016074561 1.0885762e-38 309 252
-0.0133604 0.76200002 -0.01603248 1.0884676e-38 310 252
-0.012008579 0.76099998 -0.016011439 1.0699926e-38 311 252
-0.010674292 0.76099998 -0.016011439 1.0423714e-38 312 252
-0.00931546 0.759 -0.015969358 1.0239323e-38 313 252
-0.0079846792 0.759 -0.015969358 1.0146421e-38 314 252
-0.0066363667 0.75700003 -0.015927281 9.9620284e-39 315 252
-0.0052950666 0.755 -0.015885198 9.778007e-39 316 252
-0.0039712996 0.755 -0.015885198 9.778007e-39 317 252
-0.0026475333 0.755 -0.015885198 9.8698692e-39 318 252
-0.0013237667 0.755 -0.015885198 9.9620648e-39 319 252
0 0.755 -0.015885198 1.0329058e-38 320 252
0.0013237667 0.755 -0.015885198 1.0329058e-38 321 252
0.0026440267 0.75400001 -0.01586416 1.0329058e-38 322 252
0.00396604 0.75400001 -0.01586416 1.0236862e-38 323 252
0.0052880533 0.75400001 -0.01586416 1.0052468e-38 324 252
0.0066100666 0.75400001 -0.01586416 9.7758813e-39 325 252
0.00793208 0.75400001 -0.01586416 9.7762372e-39 326 252
0.0092295464 0.75199997 -0.015822079 9.6840416e-39 327 252
0.010548052 0.75199997 -0.015822079 9.5914774e-39 328 252
0.011866559 0.75199997 -0.015822079 9.498923e-39 329 252
0.013185065 0.75199997 -0.015822079 9.2226851e-39 330 252
0.014503572 0.75199997 -0.015822079 8.9464583e-39 331 252
0.015822079 0.75199997 -0.015822079 8.6698616e-39 332 252
0.017140586 0.75199997 -0.015822079 8.577666e-39 333 252
0.018459093 0.75199997 -0.015822079 8.3021553e-39 334 252
0.0197776 0.75199997 -0.015822079 8.3021553e-39 335 252
0.021152213 0.75400001 -0.01586416 8.3021553e-39 336 252
0.022474226 0.75400001 -0.01586416 8.4869053e-39 337 252
0.02379624 0.75400001 -0.01586416 8.2121079e-39 338 252
0.025118252 0.75400001 -0.01586416 8.1199122e-39 339 252
0.026475333 0.755 -0.015885198 8.5787268e-39 340 252
0.027799098 0.755 -0.015885198 8.3939796e-39 341 252
0.029122867 0.755 -0.015885198 8.0255614e-39 342 252
0.030446632 0.755 -0.015885198 8.0255614e-39 343 252
0.031770397 0.755 -0.015885198 7.8422491e-39 344 252
0.033181835 0.75700003 -0.015927281 7.8422491e-39 345 252
0.034509107 0.75700003 -0.015927281 8.2106673e-39 346 252
0.036025736 0.76099998 -0.016011439 8.3950572e-39 347 252
0.037360024 0.76099998 -0.016011439 8.5794653e-39 348 252
0.038745161 0.76200002 -0.01603248 8.7642153e-39 349 252
0.040081199 0.76200002 -0.01603248 9.1326545e-39 350 252
0.041634649 0.76599997 -0.016116638 9.5939913e-39 351 252
0.042977702 0.76599997 -0.016116638 1.0696062e-38 352 252
0.044320758 0.76599997 -0.016116638 1.3461931e-38 353 252
-0.02442744 0.77399999 -0.01764204 1.3371551e-38 302 253
-0.02307036 0.77399999 -0.01764204 1.2265205e-38 303 253
-0.021713279 0.77399999 -0.01764204 1.1804889e-38 304 253
-0.0203299 0.773 -0.017619247 1.1528302e-38 305 253
-0.018925481 0.77100003 -0.01757366 1.1071249e-38 306 253
-0.017528072 0.76899999 -0.017528072 1.0886856e-38 307 253
-0.01613768 0.76700002 -0.017482487 1.0794292e-38 308 253
-0.014773586 0.76599997 -0.017459691 1.0702096e-38 309 253
-0.013395466 0.764 -0.017414106 1.0609175e-38 310 253
-0.01202436 0.76200002 -0.01736852 1.0424783e-38 311 253
-0.010674292 0.76099998 -0.017345725 1.0331516e-38 312 253
-0.0093400059 0.76099998 -0.017345725 1.0147124e-38 313 253
-0.0079846792 0.759 -0.017300138 9.9616598e-39 314 253
-0.0066363667 0.75700003 -0.017254554 9.9616598e-39 315 253
-0.0053090933 0.75700003 -0.017254554 9.6854429e-39 316 253
-0.0039712996 0.755 -0.017208965 9.7776385e-39 317 253
-0.0026475333 0.755 -0.017208965 9.9602529e-39 318 253
-0.0013237667 0.755 -0.017208965 1.0236841e-38 319 253
0 0.755 -0.017208965 1.0236138e-38 320 253
0.0013237667 0.755 -0.017208965 1.0512723e-38 321 253
0.0026475333 0.755 -0.017208965 1.0053191e-38 322 253
0.0039712996 0.755 -0.017208965 1.0053191e-38 323 253
0.0052880533 0.75400001 -0.017186172 1.0144311e-38 324 253
0.0066100666 0.75400001 -0.017186172 9.9599194e-39 325 253
0.00793208 0.75400001 -0.017186172 9.7748051e-39 326 253
0.0092540924 0.75400001 -0.017186172 9.7748051e-39 327 253
0.010548052 0.75199997 -0.017140586 9.4989258e-39 328 253
0.011866559 0.75199997 -0.017140586 9.4067288e-39 329 253
0.013185065 0.75199997 -0.017140586 9.1304894e-39 330 253
0.014542146 0.75400001 -0.017186172 8.7617069e-39 331 253
0.015822079 0.75199997 -0.017140586 8.4869025e-39 332 253
0.017140586 0.75199997 -0.017140586 8.2103156e-39 333 253
0.018508185 0.75400001 -0.017186172 8.1195493e-39 334 253
0.019830201 0.75400001 -0.017186172 8.0269963e-39 335 253
0.021152213 0.75400001 -0.017186172 8.1195493e-39 336 253
0.022474226 0.75400001 -0.017186172 8.3035804e-39 337 253
0.02379624 0.75400001 -0.017186172 8.303579e-39 338 253
0.025118252 0.75400001 -0.017186172 8.3957733e-39 339 253
0.026475333 0.755 -0.017208965 8.2106673e-39 340 253
0.027799098 0.755 -0.017208965 8.1184731e-39 341 253
0.029122867 0.755 -0.017208965 7.8418904e-39 342 253
0.030446632 0.755 -0.017208965 8.0259201e-39 343 253
0.031770397 0.755 -0.017208965 7.8422491e-39 344 253
0.033181835 0.75700003 -0.017254554 8.0270005e-39 345 253
0.034600276 0.759 -0.017300138 8.1184899e-39 346 253
0.036025736 0.76099998 -0.017345725 8.5794681e-39 347 253
0.037409119 0.76200002 -0.01736852 8.6716819e-39 348 253
0.038846854 0.764 -0.017414106 8.9482688e-39 349 253
0.040186398 0.764 -0.017414106 9.6836856e-39 350 253
0.041634649 0.76599997 -0.017459691 1.0236859e-38 351 253
0.042977702 0.76599997 -0.017459691 1.1433274e-38 352 253
0.044320758 0.76599997 -0.017459691 1.4291337e-38 353 253
-0.024490559 0.77600002 -0.019048214 1.3370845e-38 302 254
-0.023129974 0.77600002 -0.019048214 1.263328e-38 303 254
-0.021713279 0.77399999 -0.018999118 1.1988924e-38 304 254
-0.020356199 0.77399999 -0.018999118 1.16205e-38 305 254
-0.018974574 0.773 -0.018974574 1.1346747e-38 306 254
-0.017528072 0.76899999 -0.018876385 1.1161995e-38 307 254
-0.01613768 0.76700002 -0.018827293 1.0886841e-38 308 254
-0.014773586 0.76599997 -0.018802745 1.0702449e-38 309 254
-0.013395466 0.764 -0.018753653 1.079284e-38 310 254
-0.01202436 0.76200002 -0.01870456 1.0608449e-38 311 254
-0.01068832 0.76200002 -0.01870456 1.0514465e-38 312 254
-0.0093400059 0.76099998 -0.018680012 1.0237518e-38 313 254
-0.0080057196 0.76099998 -0.018680012 9.9623759e-39 314 254
-0.0066538998 0.759 -0.01863092 9.7783448e-39 315 254
-0.0053090933 0.75700003 -0.018581826 9.6854429e-39 316 254
-0.0039818203 0.75700003 -0.018581826 9.6854429e-39 317 254
-0.0026475333 0.755 -0.018532733 9.7765875e-39 318 254
-0.0013237667 0.755 -0.018532733 9.9606187e-39 319 254
0 0.755 -0.018532733 1.0052115e-38 320 254
0.0013237667 0.755 -0.018532733 1.0144311e-38 321 254
0.0026475333 0.755 -0.018532733 9.8688028e-39 322 254
0.0039712996 0.755 -0.018532733 9.9609984e-39 323 254
0.0052950666 0.755 -0.018532733 9.7766029e-39 324 254
0.0066188332 0.755 -0.018532733 9.5922117e-39 325 254
0.00793208 0.75400001 -0.018508185 9.8670007e-39 326 254
0.0092540924 0.75400001 -0.018508185 9.4982196e-39 327 254
0.010576107 0.75400001 -0.018508185 9.4063729e-39 328 254
0.01189812 0.75400001 -0.018508185 9.2219816e-39 329 254
0.013220133 0.75400001 -0.018508185 8.8542599e-39 330 254
0.014542146 0.75400001 -0.018508185 8.6698672e-39 331 254
0.015822079 0.75199997 -0.018459093 8.4858207e-39 332 254
0.017140586 0.75199997 -0.018459093 8.3936251e-39 333 254
0.018508185 0.75400001 -0.018508185 8.3939796e-39 334 254
0.019830201 0.75400001 -0.018508185 8.3939796e-39 335 254
0.021152213 0.75400001 -0.018508185 8.0277138e-39 336 254
0.022474226 0.75400001 -0.018508185 8.1202682e-39 337 254
0.023827799 0.755 -0.018532733 8.1202668e-39 338 254
0.025151566 0.755 -0.018532733 8.0280725e-39 339 254
0.026475333 0.755 -0.018532733 8.4858151e-39 340 254
0.027799098 0.755 -0.018532733 8.3014266e-39 341 254
0.029122867 0.755 -0.018532733 8.0259201e-39 342 254
0.030527288 0.75700003 -0.018581826 8.0259201e-39 343 254
0.031854562 0.75700003 -0.018581826 8.2103128e-39 344 254
0.033181835 0.75700003 -0.018581826 8.3947041e-39 345 254
0.034600276 0.759 -0.01863092 8.7631363e-39 346 254
0.036073081 0.76200002 -0.01870456 8.9475275e-39 347 254
0.037409119 0.76200002 -0.01870456 9.1315811e-39 348 254
0.038846854 0.764 -0.018753653 9.4085281e-39 349 254
0.040291596 0.76599997 -0.018802745 9.592939e-39 350 254
0.041634649 0.76599997 -0.018802745 1.0699285e-38 351 254
0.042977702 0.76599997 -0.018802745 1.2721863e-38 352 254
-0.024490559 0.77600002 -0.0204088 1.3462695e-38 302 255
-0.023129974 0.77600002 -0.0204088 1.2817325e-38 303 255
-0.021713279 0.77399999 -0.020356199 1.2173331e-38 304 255
-0.020356199 0.77399999 -0.020356199 1.1804908e-38 305 255
-0.018974574 0.773 -0.0203299 1.1438955e-38 306 255
-0.01757366 0.77100003 -0.020277301 1.1162368e-38 307 255
-0.016179759 0.76899999 -0.0202247 1.097833e-38 308 255
-0.014792874 0.76700002 -0.020172099 1.0886134e-38 309 255
-0.013430533 0.76599997 -0.020145798 1.0701377e-38 310 255
-0.01205592 0.764 -0.020093199 1.0516626e-38 311 255
-0.01068832 0.76200002 -0.0200406 1.023932e-38 312 255
-0.0093522798 0.76200002 -0.0200406 1.0147124e-38 313 255
-0.0080057196 0.76099998 -0.020014299 9.7786979e-39 314 255
-0.0066714329 0.76099998 -0.020014299 9.7786979e-39 315 255
-0.0053231199 0.759 -0.0199617 9.685796e-39 316 255
-0.0039923396 0.759 -0.0199617 9.5936004e-39 317 255
-0.0026545466 0.75700003 -0.019909101 9.8669825e-39 318 255
-0.0013272733 0.75700003 -0.019909101 9.8669825e-39 319 255
0 0.75700003 -0.019909101 1.014179e-38 320 255
0.0013272733 0.75700003 -0.019909101 1.0233985e-38 321 255
0.0026475333 0.755 -0.0198565 9.6833353e-39 322 255
0.0039712996 0.755 -0.0198565 9.775531e-39 323 255
0.0052950666 0.755 -0.0198565 9.5918586e-39 324 255
0.0066188332 0.755 -0.0198565 9.4078274e-39 325 255
0.0079425992 0.755 -0.0198565 9.4982196e-39 326 255
0.0092540924 0.75400001 -0.019830201 9.406024e-39 327 255
0.010576107 0.75400001 -0.019830201 9.1297832e-39 328 255
0.01189812 0.75400001 -0.019830201 8.9457521e-39 329 255
0.013220133 0.75400001 -0.019830201 8.76243e-39 330 255
0.014542146 0.75400001 -0.019830201 8.670233e-39 331 255
0.01586416 0.75400001 -0.019830201 8.4865522e-39 332 255
0.017186172 0.75400001 -0.019830201 8.3021609e-39 333 255
0.018508185 0.75400001 -0.019830201 8.2103128e-39 334 255
0.019830201 0.75400001 -0.019830201 8.2103128e-39 335 255
0.021152213 0.75400001 -0.019830201 8.0277138e-39 336 255
0.022474226 0.75400001 -0.019830201 8.0277138e-39 337 255
0.023827799 0.755 -0.0198565 8.1195493e-39 338 255
0.025151566 0.755 -0.0198565 8.1195493e-39 339 255
0.026475333 0.755 -0.0198565 8.1184731e-39 340 255
0.027799098 0.755 -0.0198565 8.0262789e-39 341 255
0.029200014 0.75700003 -0.019909101 7.6589369e-39 342 255
0.030527288 0.75700003 -0.019909101 7.842968e-39 343 255
0.031854562 0.75700003 -0.019909101 8.1184899e-39 344 255
0.033269498 0.759 -0.0199617 8.487271e-39 345 255
0.034691449 0.76099998 -0.020014299 8.8546284e-39 346 255
0.036073081 0.76200002 -0.0200406 9.3152464e-39 347 255
0.037507307 0.764 -0.020093199 9.2245026e-39 348 255
0.038948543 0.76599997 -0.020145798 9.3166982e-39 349 255
0.040344197 0.76700002 -0.020172099 9.6826291e-39 350 255
0.041689005 0.76700002 -0.020172099 1.1711292e-38 351 255
-0.023129974 0.77600002 -0.021769386 1.2909889e-38 303 256
-0.021713279 0.77399999 -0.021713279 1.2450296e-38 304 256
-0.020356199 0.77399999 -0.021713279 1.1897122e-38 305 256
-0.018999118 0.77399999 -0.021713279 1.1529724e-38 306 256
-0.017619247 0.773 -0.021685226 1.1529724e-38 307 256
-0.016221842 0.77100003 -0.021629119 1.1254561e-38 308 256
-0.014831445 0.76899999 -0.021573013 1.0886137e-38 309 256
-0.013448066 0.76700002 -0.021516906 1.0885411e-38 310 256
-0.012087479 0.76599997 -0.021488851 1.0608826e-38 311 256
-0.010716373 0.764 -0.021432746 1.0423717e-38 312 256
-0.0093522798 0.76200002 -0.02137664 1.0238967e-38 313 256
-0.0080162399 0.76200002 -0.02137664 9.9623731e-39 314 256
-0.0066714329 0.76099998 -0.021348584 9.9623731e-39 315 256
-0.0053371461 0.76099998 -0.021348584 1.0144975e-38 316 256
-0.0039923396 0.759 -0.02129248 9.8683894e-39 317 256
-0.00266156 0.759 -0.02129248 9.8659063e-39 318 256
-0.00133078 0.759 -0.02129248 9.5893194e-39 319 256
0 0.759 -0.02129248 9.7719338e-39 320 256
0.0013272733 0.75700003 -0.021236373 9.7719338e-39 321 256
0.0026545466 0.75700003 -0.021236373 9.3134766e-39 322 256
0.0039818203 0.75700003 -0.021236373 9.4056736e-39 323 256
0.0052950666 0.755 -0.021180267 9.4063925e-39 324 256
0.0066188332 0.755 -0.021180267 9.3141969e-39 325 256
0.0079425992 0.755 -0.021180267 9.0379631e-39 326 256
0.0092663663 0.755 -0.021180267 8.9457675e-39 327 256
0.010590133 0.755 -0.021180267 8.8535592e-39 328 256
0.011913899 0.755 -0.021180267 8.7610035e-39 329 256
0.013237666 0.755 -0.021180267 8.3943691e-39 330 256
0.014561433 0.755 -0.021180267 8.3021735e-39 331 256
0.015885198 0.755 -0.021180267 8.3940006e-39 332 256
0.017208965 0.755 -0.021180267 8.301805e-39 333 256
0.018532733 0.755 -0.021180267 8.1188402e-39 334 256
0.0198565 0.755 -0.021180267 8.0266446e-39 335 256
0.021180267 0.755 -0.021180267 7.9355238e-39 336 256
0.022504034 0.755 -0.021180267 8.0277194e-39 337 256
0.023827799 0.755 -0.021180267 8.0277194e-39 338 256
0.025151566 0.755 -0.021180267 7.9355238e-39 339 256
0.026475333 0.755 -0.021180267 8.0270005e-39 340 256
0.027872739 0.75700003 -0.021236373 7.8422491e-39 341 256
0.029200014 0.75700003 -0.021236373 7.9344518e-39 342 256
0.030607941 0.759 -0.02129248 8.118843e-39 343 256
0.031938717 0.759 -0.02129248 8.3947223e-39 344 256
0.033357166 0.76099998 -0.021348584 8.6713106e-39 345 256
0.034737039 0.76200002 -0.02137664 9.0393854e-39 346 256
0.036167759 0.764 -0.021432746 9.1315811e-39 347 256
0.037605491 0.76599997 -0.021488851 9.4078218e-39 348 256
0.038999394 0.76700002 -0.021516906 9.6844073e-39 349 256
0.040344197 0.76700002 -0.021516906 1.051096e-38 350 256
0.041689005 0.76700002 -0.021516906 1.2816211e-38 351 256
-0.021713279 0.77399999 -0.02307036 1.2451037e-38 304 257
-0.020356199 0.77399999 -0.02307036 1.1897865e-38 305 257
-0.018999118 0.77399999 -0.02307036 1.1805612e-38 306 257
-0.017619247 0.773 -0.023040552 1.1621219e-38 307 257
-0.016221842 0.77100003 -0.02298094 1.1254561e-38 308 257
-0.014831445 0.76899999 -0.022921326 1.0978333e-38 309 257
-0.013448066 0.76700002 -0.022861714 1.0793585e-38 310 257
-0.012087479 0.76599997 -0.022831906 1.0609194e-38 311 257
-0.010744425 0.76599997 -0.022831906 1.0424083e-38 312 257
-0.0093768267 0.764 -0.022772292 1.0239333e-38 313 257
-0.0080162399 0.76200002 -0.02271268 1.0238604e-38 314 257
-0.0066801999 0.76200002 -0.02271268 1.0146048e-38 315 257
-0.0053371461 0.76099998 -0.022682872 1.0237171e-38 316 257
-0.0040028598 0.76099998 -0.022682872 9.7761938e-39 317 257
-0.00266156 0.759 -0.02262326 9.7726219e-39 318 257
-0.00133078 0.759 -0.02262326 9.5878719e-39 319 257
0 0.759 -0.02262326 9.5864524e-39 320 257
0.00133078 0.759 -0.02262326 9.5864524e-39 321 257
0.0026545466 0.75700003 -0.022563647 9.2194775e-39 322 257
0.0039818203 0.75700003 -0.022563647 9.3120319e-39 323 257
0.0053090933 0.75700003 -0.022563647 9.2205593e-39 324 257
0.0066363667 0.75700003 -0.022563647 9.1283637e-39 325 257
0.0079636406 0.75700003 -0.022563647 9.0365184e-39 326 257
0.0092909131 0.75700003 -0.022563647 8.8521257e-39 327 257
0.010590133 0.755 -0.022504034 8.5769653e-39 328 257
0.011913899 0.755 -0.022504034 8.5769653e-39 329 257
0.013237666 0.755 -0.022504034 8.3936503e-39 330 257
0.014600007 0.75700003 -0.022563647 8.3936503e-39 331 257
0.015927281 0.75700003 -0.022563647 8.3936475e-39 332 257
0.017254554 0.75700003 -0.022563647 8.3014519e-39 333 257
0.018532733 0.755 -0.022504034 8.0266502e-39 334 257
0.0198565 0.755 -0.022504034 8.0266502e-39 335 257
0.021180267 0.755 -0.022504034 8.0273635e-39 336 257
0.022504034 0.755 -0.022504034 8.0273635e-39 337 257
0.02389092 0.75700003 -0.022563647 8.0273635e-39 338 257
0.025218192 0.75700003 -0.022563647 8.0273635e-39 339 257
0.026545467 0.75700003 -0.022563647 8.0266446e-39 340 257
0.027872739 0.75700003 -0.022563647 8.0266446e-39 341 257
0.029277159 0.759 -0.02262326 8.1184899e-39 342 257
0.030688593 0.76099998 -0.022682872 8.3950754e-39 343 257
0.032064959 0.76200002 -0.02271268 8.76243e-39 344 257
0.033401001 0.76200002 -0.02271268 8.9468213e-39 345 257
0.034919381 0.76599997 -0.022831906 9.1315839e-39 346 257
0.036262438 0.76599997 -0.022831906 9.3159765e-39 347 257
0.037654586 0.76700002 -0.022861714 9.5911369e-39 348 257
0.039101087 0.76899999 -0.022921326 1.0420898e-38 349 257
0.0404494 0.76899999 -0.022921326 1.2076494e-38 350 257
-0.020461399 0.778 -0.024553679 1.2265586e-38 305 258
-0.019048214 0.77600002 -0.024490559 1.1989305e-38 306 258
-0.017619247 0.773 -0.024395877 1.1804555e-38 307 258
-0.016221842 0.77100003 -0.02433276 1.1346775e-38 308 258
-0.014831445 0.76899999 -0.024269639 1.0978352e-38 309 258
-0.013448066 0.76700002 -0.024206521 1.0793235e-38 310 258
-0.01210326 0.76700002 -0.024206521 1.0608844e-38 311 258
-0.010744425 0.76599997 -0.024174958 1.0515572e-38 312 258
-0.0093768267 0.764 -0.024111839 1.0423376e-38 313 258
-0.0080162399 0.76200002 -0.02404872 1.0330459e-38 314 258
-0.0066801999 0.76200002 -0.02404872 1.0146068e-38 315 258
-0.0053441599 0.76200002 -0.02404872 1.0053149e-38 316 258
-0.0040028598 0.76099998 -0.024017159 9.7765623e-39 317 258
-0.0026685731 0.76099998 -0.024017159 9.8666097e-39 318 258
-0.0013342865 0.76099998 -0.024017159 9.4978272e-39 319 258
0 0.76099998 -0.024017159 9.222332e-39 320 258
0.0013342865 0.76099998 -0.024017159 8.8539096e-39 321 258
0.00266156 0.759 -0.023954039 9.0368687e-39 322 258
0.0039923396 0.759 -0.023954039 9.0368687e-39 323 258
0.0053231199 0.759 -0.023954039 9.0368687e-39 324 258
0.0066538998 0.759 -0.023954039 8.9446717e-39 325 258
0.0079636406 0.75700003 -0.02389092 8.8524732e-39 326 258
0.0092909131 0.75700003 -0.02389092 8.8524732e-39 327 258
0.010618187 0.75700003 -0.02389092 8.4851228e-39 328 258
0.011913899 0.755 -0.023827799 8.3925685e-39 329 258
0.013237666 0.755 -0.023827799 8.1181396e-39 330 258
0.014600007 0.75700003 -0.02389092 8.1181396e-39 331 258
0.015969358 0.759 -0.023954039 8.1181396e-39 332 258
0.017300138 0.759 -0.023954039 8.1181396e-39 333 258
0.018581826 0.75700003 -0.02389092 8.0270132e-39 334 258
0.019909101 0.75700003 -0.02389092 8.0270132e-39 335 258
0.021236373 0.75700003 -0.02389092 7.9362468e-39 336 258
0.022563647 0.75700003 -0.02389092 7.9362468e-39 337 258
0.02389092 0.75700003 -0.02389092 7.9362468e-39 338 258
0.025218192 0.75700003 -0.02389092 7.9362468e-39 339 258
0.026615599 0.759 -0.023954039 8.1202836e-39 340 258
0.028020019 0.76099998 -0.024017159 8.1202836e-39 341 258
0.029392879 0.76200002 -0.02404872 8.3947195e-39 342 258
0.030728921 0.76200002 -0.02404872 8.5794709e-39 343 258
0.032149121 0.764 -0.024111839 8.7631559e-39 344 258
0.033488665 0.764 -0.024111839 9.0397414e-39 345 258
0.034964975 0.76700002 -0.024206521 9.2234278e-39 346 258
0.036309779 0.76700002 -0.024206521 9.6844045e-39 347 258
0.03775277 0.76899999 -0.024269639 9.6833479e-39 348 258
0.03920278 0.77100003 -0.02433276 1.1066284e-38 349 258
0.040554602 0.77100003 -0.02433276 1.3182132e-38 350 258
-0.019097306 0.778 -0.025917772 1.2174066e-38 306 259
-0.017687626 0.77600002 -0.025851147 1.1804924e-38 307 259
-0.016284959 0.77399999 -0.025784519 1.1529724e-38 308 259
-0.01487002 0.77100003 -0.02568458 1.1253139e-38 309 259
-0.013483133 0.76899999 -0.025617953 1.1069099e-38 310 259
-0.01210326 0.76700002 -0.025551327 1.0884708e-38 311 259
-0.010744425 0.76599997 -0.025518013 1.0700321e-38 312 259
-0.0093768267 0.764 -0.025451386 1.0423732e-38 313 259
-0.0080372803 0.764 -0.025451386 1.0423014e-38 314 259
-0.0066801999 0.76200002 -0.02538476 1.0146068e-38 315 259
-0.0053441599 0.76200002 -0.02538476 9.9616724e-39 316 259
-0.0040081199 0.76200002 -0.02538476 9.6854457e-39 317 259
-0.0026685731 0.76099998 -0.025351444 9.5932444e-39 318 259
-0.0013342865 0.76099998 -0.025351444 9.5932444e-39 319 259
0 0.76099998 -0.025351444 9.4081329e-39 320 259
0.0013342865 0.76099998 -0.025351444 9.131546e-39 321 259
0.0026685731 0.76099998 -0.025351444 9.2212375e-39 322 259
0.0040028598 0.76099998 -0.025351444 9.3134332e-39 323 259
0.0053231199 0.759 -0.025284819 9.1297678e-39 324 259
0.0066538998 0.759 -0.025284819 8.9453751e-39 325 259
0.0079846792 0.759 -0.025284819 8.9453751e-39 326 259
0.00931546 0.759 -0.025284819 8.6691484e-39 327 259
0.01064624 0.759 -0.025284819 8.4854704e-39 328 259
0.01194546 0.75700003 -0.025218192 8.577666e-39 329 259
0.013272733 0.75700003 -0.025218192 8.3943537e-39 330 259
0.014638579 0.759 -0.025284819 8.3943537e-39 331 259
0.015969358 0.759 -0.025284819 8.3943565e-39 332 259
0.017300138 0.759 -0.025284819 8.3943565e-39 333 259
0.01863092 0.759 -0.025284819 8.3954257e-39 334 259
0.0199617 0.759 -0.025284819 8.3954257e-39 335 259
0.02129248 0.759 -0.025284819 8.3046566e-39 336 259
0.022682872 0.76099998 -0.025351444 8.3046566e-39 337 259
0.023954039 0.759 -0.025284819 8.3053783e-39 338 259
0.025284819 0.759 -0.025284819 8.3975753e-39 339 259
0.026685731 0.76099998 -0.025351444 8.5798212e-39 340 259
0.028020019 0.76099998 -0.025351444 8.6720168e-39 341 259
0.029392879 0.76200002 -0.02538476 8.9464555e-39 342 259
0.030890226 0.76599997 -0.025518013 9.1304866e-39 343 259
0.032233275 0.76599997 -0.025518013 9.1312153e-39 344 259
0.033576332 0.76599997 -0.025518013 9.4078022e-39 345 259
0.034964975 0.76700002 -0.025551327 9.6836856e-39 346 259
0.036404461 0.76899999 -0.025617953 9.7758813e-39 347 259
0.037850961 0.77100003 -0.02568458 1.0880106e-38 348 259
0.039355319 0.77399999 -0.025784519 1.1986095e-38 349 259
-0.017687626 0.77600002 -0.027211733 1.1805316e-38 307 260
-0.016284959 0.77399999 -0.027141599 1.1439003e-38 308 260
-0.014908593 0.773 -0.027106533 1.1162056e-38 309 260
-0.013518199 0.77100003 -0.027036399 1.0794684e-38 310 260
-0.012134819 0.76899999 -0.026966266 1.0518096e-38 311 260
-0.010758453 0.76700002 -0.026896132 1.0425176e-38 312 260
-0.0094013726 0.76599997 -0.026861066 1.033298e-38 313 260
-0.0080372803 0.764 -0.026790932 1.0055673e-38 314 260
-0.006697733 0.764 -0.026790932 9.9631186e-39 315 260
-0.0053441599 0.76200002 -0.0267208 9.8702097e-39 316 260
-0.0040081199 0.76200002 -0.0267208 9.6854583e-39 317 260
-0.00267208 0.76200002 -0.0267208 9.6858114e-39 318 260
-0.00133604 0.76200002 -0.0267208 9.5936158e-39 319 260
0 0.76200002 -0.0267208 9.3170331e-39 320 260
0.00133604 0.76200002 -0.0267208 8.7638593e-39 321 260
0.00267208 0.76200002 -0.0267208 9.1304923e-39 322 260
0.0040028598 0.76099998 -0.026685731 8.9461024e-39 323 260
0.0053371461 0.76099998 -0.026685731 8.8549816e-39 324 260
0.0066714329 0.76099998 -0.026685731 8.8549816e-39 325 260
0.0080057196 0.76099998 -0.026685731 8.7617069e-39 326 260
0.0093400059 0.76099998 -0.026685731 8.6695113e-39 327 260
0.01064624 0.759 -0.026615599 8.3039588e-39 328 260
0.01197702 0.759 -0.026615599 8.3039588e-39 329 260
0.0133078 0.759 -0.026615599 8.2124764e-39 330 260
0.014677152 0.76099998 -0.026685731 8.2124764e-39 331 260
0.016011439 0.76099998 -0.026685731 8.2124792e-39 332 260
0.017345725 0.76099998 -0.026685731 8.3046762e-39 333 260
0.01863092 0.759 -0.026615599 8.3046734e-39 334 260
0.0199617 0.759 -0.026615599 8.3046734e-39 335 260
0.021348584 0.76099998 -0.026685731 8.2139127e-39 336 260
0.022682872 0.76099998 -0.026685731 8.2139127e-39 337 260
0.024017159 0.76099998 -0.026685731 8.3975907e-39 338 260
0.025351444 0.76099998 -0.026685731 8.4897864e-39 339 260
0.026685731 0.76099998 -0.026685731 8.8567794e-39 340 260
0.028056841 0.76200002 -0.0267208 8.8567794e-39 341 260
0.029470026 0.764 -0.026790932 8.8564263e-39 342 260
0.030890226 0.76599997 -0.026861066 9.1326545e-39 343 260
0.03227536 0.76700002 -0.026896132 9.3159793e-39 344 260
0.033707831 0.76899999 -0.026966266 9.5922061e-39 345 260
0.035056144 0.76899999 -0.026966266 9.6833507e-39 346 260
0.036499143 0.77100003 -0.027036399 1.0605308e-38 347 260
0.037998237 0.77399999 -0.027141599 1.2078309e-38 348 260
-0.013553266 0.773 -0.028461859 1.1528649e-38 310 261
-0.01216638 0.77100003 -0.028388219 1.1344257e-38 311 261
-0.010758453 0.76700002 -0.02824094 1.0884352e-38 312 261
-0.0094013726 0.76599997 -0.028204117 1.0608125e-38 313 261
-0.0080372803 0.764 -0.028130481 1.0331181e-38 314 261
-0.006697733 0.764 -0.028130481 9.9623997e-39 315 261
-0.0053581866 0.764 -0.028130481 9.7780099e-39 316 261
-0.0040186401 0.764 -0.028130481 9.6858142e-39 317 261
-0.00267208 0.76200002 -0.028056841 9.5024992e-39 318 261
-0.00133604 0.76200002 -0.028056841 9.3177492e-39 319 261
0 0.76200002 -0.028056841 9.4084987e-39 320 261
0.00133604 0.76200002 -0.028056841 8.9478806e-39 321 261
0.00267208 0.76200002 -0.028056841 9.4981804e-39 322 261
0.0040081199 0.76200002 -0.028056841 9.590376e-39 323 261
0.0053441599 0.76200002 -0.028056841 9.314515e-39 324 261
0.0066801999 0.76200002 -0.028056841 9.1301237e-39 325 261
0.0080162399 0.76200002 -0.028056841 9.1301237e-39 326 261
0.0093400059 0.76099998 -0.028020019 9.1301237e-39 327 261
0.010674292 0.76099998 -0.028020019 8.8556822e-39 328 261
0.01197702 0.759 -0.027946379 8.9478778e-39 329 261
0.0133078 0.759 -0.027946379 8.4901269e-39 330 261
0.014677152 0.76099998 -0.028020019 8.4901269e-39 331 261
0.016011439 0.76099998 -0.028020019 8.5812435e-39 332 261
0.017345725 0.76099998 -0.028020019 8.5812435e-39 333 261
0.018680012 0.76099998 -0.028020019 8.5808904e-39 334 261
0.020014299 0.76099998 -0.028020019 8.673086e-39 335 261
0.021348584 0.76099998 -0.028020019 8.4894206e-39 336 261
0.022682872 0.76099998 -0.028020019 8.5816163e-39 337 261
0.02404872 0.76200002 -0.028056841 8.8567738e-39 338 261
0.02538476 0.76200002 -0.028056841 9.1333607e-39 339 261
0.0267208 0.76200002 -0.028056841 9.4996293e-39 340 261
0.028130481 0.764 -0.028130481 9.4996293e-39 341 261
0.029547172 0.76599997 -0.028204117 9.5914718e-39 342 261
0.030930554 0.76700002 -0.02824094 9.7755029e-39 343 261
0.03227536 0.76700002 -0.02824094 9.9599194e-39 344 261
0.033707831 0.76899999 -0.028314579 1.0236506e-38 345 261
0.03514732 0.77100003 -0.028388219 1.0513131e-38 346 261
0.036593821 0.773 -0.028461859 1.1250696e-38 347 261
-0.013605867 0.77600002 -0.029932907 1.1528317e-38 310 262
-0.012197939 0.773 -0.029817186 1.125209e-38 311 262
-0.01081456 0.77100003 -0.029740039 1.0792532e-38 312 262
-0.0094136465 0.76700002 -0.029585747 1.0515945e-38 313 262
-0.0080583189 0.76599997 -0.029547172 1.0330831e-38 314 262
-0.0067152665 0.76599997 -0.029547172 1.0054245e-38 315 262
-0.0053581866 0.764 -0.029470026 9.6872576e-39 316 262
-0.0040186401 0.764 -0.029470026 9.5028649e-39 317 262
-0.0026790933 0.764 -0.029470026 9.503218e-39 318 262
-0.0013395466 0.764 -0.029470026 9.4110224e-39 319 262
0 0.764 -0.029470026 9.5939689e-39 320 262
0.0013395466 0.764 -0.029470026 9.4095791e-39 321 262
0.0026790933 0.764 -0.029470026 9.4095847e-39 322 262
0.0040081199 0.76200002 -0.029392879 9.317389e-39 323 262
0.0053441599 0.76200002 -0.029392879 9.5907473e-39 324 262
0.0066801999 0.76200002 -0.029392879 9.498193e-39 325 262
0.0080162399 0.76200002 -0.029392879 9.3152366e-39 326 262
0.0093522798 0.76200002 -0.029392879 9.3152366e-39 327 262
0.010674292 0.76099998 -0.029354304 8.9493226e-39 328 262
0.012008579 0.76099998 -0.029354304 8.9493226e-39 329 262
0.013342866 0.76099998 -0.029354304 8.5834071e-39 330 262
0.014677152 0.76099998 -0.029354304 8.399376e-39 331 262
0.016011439 0.76099998 -0.029354304 8.5819722e-39 332 262
0.017345725 0.76099998 -0.029354304 8.5819722e-39 333 262
0.018680012 0.76099998 -0.029354304 8.5816163e-39 334 262
0.020014299 0.76099998 -0.029354304 8.7656474e-39 335 262
0.021348584 0.76099998 -0.029354304 8.581982e-39 336 262
0.02271268 0.76200002 -0.029392879 8.7667334e-39 337 262
0.02404872 0.76200002 -0.029392879 9.2252032e-39 338 262
0.02538476 0.76200002 -0.029392879 9.3173988e-39 339 262
0.026790932 0.764 -0.029470026 9.4088784e-39 340 262
0.028204117 0.76599997 -0.029547172 9.5929095e-39 341 262
0.029585747 0.76700002 -0.029585747 9.6847548e-39 342 262
0.031011207 0.76899999 -0.02966289 9.7769505e-39 343 262
0.032359518 0.76899999 -0.02966289 9.9610138e-39 344 262
0.033707831 0.76899999 -0.02966289 1.0514188e-38 345 262
-0.013640933 0.778 -0.031374145 1.1804558e-38 310 263
-0.01221372 0.77399999 -0.031212838 1.1619806e-38 311 263
-0.01085664 0.77399999 -0.031212838 1.1160595e-38 312 263
-0.0094381925 0.76899999 -0.031011207 1.0515226e-38 313 263
-0.00806884 0.76700002 -0.030930554 1.0331908e-38 314 263
-0.006724033 0.76700002 -0.030930554 1.0147515e-38 315 263
-0.0053722127 0.76599997 -0.030890226 9.7801721e-39 316 263
-0.0040291594 0.76599997 -0.030890226 9.5039453e-39 317 263
-0.0026861064 0.76599997 -0.030890226 9.3206246e-39 318 263
-0.0013430532 0.76599997 -0.030890226 9.3206246e-39 319 263
0 0.764 -0.030809574 9.5032152e-39 320 263
0.0013395466 0.764 -0.030809574 9.4110196e-39 321 263
0.0026790933 0.764 -0.030809574 9.777291e-39 322 263
0.0040186401 0.764 -0.030809574 9.6850954e-39 323 263
0.0053581866 0.764 -0.030809574 9.7758589e-39 324 263
0.006697733 0.764 -0.030809574 9.5918277e-39 325 263
0.0080162399 0.76200002 -0.030728921 9.5007013e-39 326 263
0.0093522798 0.76200002 -0.030728921 9.5007013e-39 327 263
0.01068832 0.76200002 -0.030728921 9.2259039e-39 328 263
0.012008579 0.76099998 -0.030688593 9.2259039e-39 329 263
0.013342866 0.76099998 -0.030688593 8.7677998e-39 330 263
0.014677152 0.76099998 -0.030688593 8.6756027e-39 331 263
0.01603248 0.76200002 -0.030728921 8.8581989e-39 332 263
0.01736852 0.76200002 -0.030728921 8.8581989e-39 333 263
0.01870456 0.76200002 -0.030728921 8.9496785e-39 334 263
0.0200406 0.76200002 -0.030728921 8.9496785e-39 335 263
0.02137664 0.76200002 -0.030728921 8.9496925e-39 336 263
0.022772292 0.764 -0.030809574 9.1344425e-39 337 263
0.024111839 0.764 -0.030809574 9.2262822e-39 338 263
0.025518013 0.76599997 -0.030890226 9.4103133e-39 339 263
0.026896132 0.76700002 -0.030930554 9.5017957e-39 340 263
0.02824094 0.76700002 -0.030930554 9.5939913e-39 341 263
0.02966289 0.76899999 -0.031011207 9.6854877e-39 342 263
0.031011207 0.76899999 -0.031011207 1.005391e-38 343 263
0.032359518 0.76899999 -0.031011207 1.0423086e-38 344 263
-0.01224528 0.77600002 -0.032654081 1.1437596e-38 311 264
-0.01085664 0.77399999 -0.032569919 1.1161693e-38 312 264
-0.0094995592 0.77399999 -0.032569919 1.0516323e-38 313 264
-0.00806884 0.76700002 -0.03227536 1.0515942e-38 314 264
-0.006724033 0.76700002 -0.03227536 1.0239714e-38 315 264
-0.0053792265 0.76700002 -0.03227536 1.0056036e-38 316 264
-0.00403442 0.76700002 -0.03227536 9.7798091e-39 317 264
-0.0026896133 0.76700002 -0.03227536 9.6883296e-39 318 264
-0.0013430532 0.76599997 -0.032233275 9.5042984e-39 319 264
0 0.76599997 -0.032233275 9.6876107e-39 320 264
0.0013430532 0.76599997 -0.032233275 9.5954137e-39 321 264
0.0026861064 0.76599997 -0.032233275 9.6865387e-39 322 264
0.0040291594 0.76599997 -0.032233275 9.5943417e-39 323 264
0.0053581866 0.764 -0.032149121 9.6858142e-39 324 264
0.006697733 0.764 -0.032149121 9.5932599e-39 325 264
0.0080372803 0.764 -0.032149121 9.5939689e-39 326 264
0.0093768267 0.764 -0.032149121 9.5939689e-39 327 264
0.01068832 0.76200002 -0.032064959 9.4106511e-39 328 264
0.01202436 0.76200002 -0.032064959 9.4106511e-39 329 264
0.0133604 0.76200002 -0.032064959 9.1347872e-39 330 264
0.01469644 0.76200002 -0.032064959 9.0425916e-39 331 264
0.01603248 0.76200002 -0.032064959 9.0425916e-39 332 264
0.01736852 0.76200002 -0.032064959 9.0425916e-39 333 264
0.01870456 0.76200002 -0.032064959 8.9500414e-39 334 264
0.0200406 0.76200002 -0.032064959 9.0425972e-39 335 264
0.021432746 0.764 -0.032149121 9.3173988e-39 336 264
0.022772292 0.764 -0.032149121 9.4095945e-39 337 264
0.024174958 0.76599997 -0.032233275 9.4103161e-39 338 264
0.025551327 0.76700002 -0.03227536 9.5025118e-39 339 264
0.026966266 0.76899999 -0.032359518 9.5014454e-39 340 264
0.028314579 0.76899999 -0.032359518 9.593641e-39 341 264
0.029740039 0.77100003 -0.032443684 9.7780645e-39 342 264
0.031091858 0.77100003 -0.032443684 1.0423434e-38 343 264
-0.01085664 0.77399999 -0.033927001 1.107024e-38 312 265
-0.0094995592 0.77399999 -0.033927001 1.0701097e-38 313 265
-0.0081319595 0.773 -0.033883166 1.0792184e-38 314 265
-0.0067766332 0.773 -0.033883166 1.0515239e-38 315 265
-0.0053932532 0.76899999 -0.033707831 1.0148967e-38 316 265
-0.0040449398 0.76899999 -0.033707831 9.8720202e-39 317 265
-0.0026896133 0.76700002 -0.033620168 9.7801777e-39 318 265
-0.0013448066 0.76700002 -0.033620168 9.687982e-39 319 265
0 0.76700002 -0.033620168 9.6879792e-39 320 265
0.0013448066 0.76700002 -0.033620168 9.5039481e-39 321 265
0.0026896133 0.76700002 -0.033620168 9.5035922e-39 322 265
0.00403442 0.76700002 -0.033620168 9.5035922e-39 323 265
0.0053722127 0.76599997 -0.033576332 9.8705754e-39 324 265
0.0067152665 0.76599997 -0.033576332 9.6865443e-39 325 265
0.0080583189 0.76599997 -0.033576332 9.6868904e-39 326 265
0.0094013726 0.76599997 -0.033576332 9.5946948e-39 327 265
0.010716373 0.764 -0.033488665 9.5957668e-39 328 265
0.01205592 0.764 -0.033488665 9.5035712e-39 329 265
0.013395466 0.764 -0.033488665 9.2273514e-39 330 265
0.014735013 0.764 -0.033488665 9.1351558e-39 331 265
0.016074561 0.764 -0.033488665 9.1351586e-39 332 265
0.017414106 0.764 -0.033488665 9.1351586e-39 333 265
0.018753653 0.764 -0.033488665 9.1348054e-39 334 265
0.020145798 0.76599997 -0.033576332 9.1348054e-39 335 265
0.021516906 0.76700002 -0.033620168 9.409963e-39 336 265
0.022921326 0.76899999 -0.033707831 9.409963e-39 337 265
0.024269639 0.76899999 -0.033707831 9.3184933e-39 338 265
0.025617953 0.76899999 -0.033707831 9.411049e-39 339 265
0.027036399 0.77100003 -0.033795502 9.5036286e-39 340 265
0.028388219 0.77100003 -0.033795502 9.8724125e-39 341 265
0.029817186 0.773 -0.033883166 1.060822e-38 342 265
-0.0067853997 0.77399999 -0.03528408 1.0792197e-38 315 266
-0.0053932532 0.76899999 -0.035056144 1.0975847e-38 316 266
-0.0040449398 0.76899999 -0.035056144 1.069962e-38 317 266
-0.0026896133 0.76700002 -0.034964975 1.0516295e-38 318 266
-0.0013448066 0.76700002 -0.034964975 1.0240067e-38 319 266
0 0.76700002 -0.034964975 1.0147866e-38 320 266
0.0013448066 0.76700002 -0.034964975 1.005567e-38 321 266
0.0026896133 0.76700002 -0.034964975 1.005532e-38 322 266
0.00403442 0.76700002 -0.034964975 1.0147515e-38 323 266
0.0053792265 0.76700002 -0.034964975 1.0238632e-38 324 266
0.006724033 0.76700002 -0.034964975 1.0238632e-38 325 266
0.00806884 0.76700002 -0.034964975 1.0054951e-38 326 266
0.0094136465 0.76700002 -0.034964975 1.0054951e-38 327 266
0.010744425 0.76599997 -0.034919381 1.0055302e-38 328 266
0.012087479 0.76599997 -0.034919381 9.963106e-39 329 266
0.013430533 0.76599997 -0.034919381 9.7783602e-39 330 266
0.014773586 0.76599997 -0.034919381 9.6861645e-39 331 266
0.01613768 0.76700002 -0.034964975 9.5024992e-39 332 266
0.017482487 0.76700002 -0.034964975 9.5024992e-39 333 266
0.018827293 0.76700002 -0.034964975 9.7776539e-39 334 266
0.0202247 0.76899999 -0.035056144 9.7776539e-39 335 266
0.021573013 0.76899999 -0.035056144 1.0053172e-38 336 266
0.02298094 0.77100003 -0.03514732 1.0053172e-38 337 266
0.02433276 0.77100003 -0.03514732 9.5940054e-39 338 266
0.02568458 0.77100003 -0.03514732 1.0147178e-38 339 266
0.027036399 0.77100003 -0.03514732 9.6894814e-39 340 266
0.028388219 0.77100003 -0.03514732 1.0334851e-38 341 266
-0.0054283198 0.77399999 -0.036641158 1.0976605e-38 316 267
-0.0040449398 0.76899999 -0.036404461 1.0700378e-38 317 267
-0.0026896133 0.76700002 -0.036309779 1.0241894e-38 318 267
-0.0013448066 0.76700002 -0.036309779 9.9656675e-39 319 267
0 0.76700002 -0.036309779 9.8734691e-39 320 267
0.0013448066 0.76700002 -0.036309779 9.6890764e-39 321 267
0.0026896133 0.76700002 -0.036309779 9.9645857e-39 322 267
0.00403442 0.76700002 -0.036309779 9.9645857e-39 323 267
0.0053792265 0.76700002 -0.036309779 9.9638655e-39 324 267
0.006724033 0.76700002 -0.036309779 9.9638655e-39 325 267
0.0080898795 0.76899999 -0.036404461 9.9642158e-39 326 267
0.0094381925 0.76899999 -0.036404461 9.9642158e-39 327 267
0.010786506 0.76899999 -0.036404461 9.7801777e-39 328 267
0.012134819 0.76899999 -0.036404461 9.7801777e-39 329 267
0.013518199 0.77100003 -0.036499143 9.68691e-39 330 267
0.01487002 0.77100003 -0.036499143 9.68691e-39 331 267
0.016263919 0.773 -0.036593821 9.6865597e-39 332 267
0.01757366 0.77100003 -0.036499143 9.7787553e-39 333 267
0.018925481 0.77100003 -0.036499143 9.778405e-39 334 267
0.0203299 0.773 -0.036593821 1.0054632e-38 335 267
0.021685226 0.773 -0.036593821 9.96246e-39 336 267
0.023040552 0.773 -0.036593821 1.0331241e-38 337 267
0.024395877 0.773 -0.036593821 1.0148684e-38 338 267
-0.0040449398 0.76899999 -0.03775277 1.0976983e-38 317 268
-0.0026896133 0.76700002 -0.037654586 1.0610684e-38 318 268
-0.0013448066 0.76700002 -0.037654586 1.0426293e-38 319 268
0 0.76899999 -0.03775277 1.0424844e-38 320 268
0.0013483133 0.76899999 -0.03775277 1.0424844e-38 321 268
0.0026896133 0.76700002 -0.037654586 1.0332292e-38 322 268
0.00403442 0.76700002 -0.037654586 1.0332292e-38 323 268
0.0053792265 0.76700002 -0.037654586 1.0423769e-38 324 268
0.006724033 0.76700002 -0.037654586 1.0331573e-38 325 268
0.00806884 0.76700002 -0.037654586 1.0056418e-38 326 268
0.0094136465 0.76700002 -0.037654586 1.0148614e-38 327 268
0.010786506 0.76899999 -0.03775277 1.0147531e-38 328 268
0.012134819 0.76899999 -0.03775277 1.0055335e-38 329 268
0.013483133 0.76899999 -0.03775277 1.0054619e-38 330 268
0.014831445 0.76899999 -0.03775277 1.0054619e-38 331 268
