# .PCD v.7 - Point Cloud Data file format
FIELDS x y z rgb imX imY
SIZE 4 4 4 4 4 4
TYPE F F F F F F
COUNT 1 1 1 1 1 1
WIDTH 837
HEIGHT 1
VIEWPOINT 0 0 0 1 0 0 0
POINTS 837
DATA ascii
-0.015978126 0.70099998 -0.03318534 8.8549507e-39 307 267
-0.014749039 0.70099998 -0.03318534 8.6705623e-39 308 267
-0.013519952 0.70099998 -0.03318534 8.578368e-39 309 267
-0.012290866 0.70099998 -0.03318534 8.3936209e-39 310 267
-0.011061779 0.70099998 -0.03318534 8.3014266e-39 311 267
-0.0098326923 0.70099998 -0.03318534 8.2088737e-39 312 267
-0.0086036054 0.70099998 -0.03318534 8.0248439e-39 313 267
-0.0073745195 0.70099998 -0.03318534 8.0230503e-39 314 267
-0.0061454331 0.70099998 -0.03318534 7.9308561e-39 315 267
-0.0049163462 0.70099998 -0.03318534 8.1138096e-39 316 267
-0.0036872597 0.70099998 -0.03318534 8.1138096e-39 317 267
-0.0024581731 0.70099998 -0.03318534 7.8383031e-39 318 267
-0.0012290865 0.70099998 -0.03318534 7.7461089e-39 319 267
0 0.70300001 -0.033280019 7.5627966e-39 320 267
0.0012325933 0.70300001 -0.033280019 7.4706024e-39 321 267
0.0024651866 0.70300001 -0.033280019 7.5620791e-39 322 267
0.0037030398 0.704 -0.03332736 7.4698849e-39 323 267
0.0049373866 0.704 -0.03332736 7.7453914e-39 324 267
0.0061717331 0.704 -0.03332736 7.6531972e-39 325 267
0.0074060797 0.704 -0.03332736 7.6528384e-39 326 267
0.0086649731 0.70599997 -0.033422034 7.5606442e-39 327 267
0.0099028256 0.70599997 -0.033422034 7.4680912e-39 328 267
0.011156459 0.70700002 -0.033469379 7.2840615e-39 329 267
0.012396066 0.70700002 -0.033469379 7.3748208e-39 330 267
0.013635674 0.70700002 -0.033469379 7.2826266e-39 331 267
0.01489632 0.708 -0.033516716 7.2822679e-39 332 267
0.016183265 0.70999998 -0.033611398 7.2822679e-39 333 267
0.01745268 0.71100003 -0.033658739 7.0985969e-39 334 267
0.0186993 0.71100003 -0.033658739 7.1907911e-39 335 267
0.01994592 0.71100003 -0.033658739 7.4663018e-39 336 267
0.021281958 0.71399999 -0.033800758 7.6506944e-39 337 267
0.022533838 0.71399999 -0.033800758 7.9269268e-39 338 267
0.02388566 0.71700001 -0.033942781 8.0191224e-39 339 267
0.025212931 0.71899998 -0.03403746 8.8474412e-39 340 267
0.02647358 0.71899998 -0.03403746 9.0318324e-39 341 267
0.027734226 0.71899998 -0.03403746 1.1793405e-38 342 267
-0.044306733 0.722 -0.035445385 1.6403241e-38 285 268
-0.043040827 0.722 -0.035445385 1.6222055e-38 286 268
-0.041774917 0.722 -0.035445385 1.3548381e-38 287 268
-0.040396802 0.72000003 -0.035347197 1.2164683e-38 288 268
-0.039134402 0.72000003 -0.035347197 1.1058336e-38 289 268
-0.037871998 0.72000003 -0.035347197 1.0051707e-38 290 268
-0.036558751 0.71899998 -0.035298105 9.9591529e-39 291 268
-0.035150826 0.71600002 -0.035150826 9.6832751e-39 292 268
-0.033800758 0.71399999 -0.035052639 9.5910794e-39 293 268
-0.032412119 0.71100003 -0.034905359 9.3159345e-39 294 268
-0.031121666 0.70999998 -0.034856264 9.2237389e-39 295 268
-0.02979264 0.708 -0.034758076 9.2237389e-39 296 268
-0.02855128 0.708 -0.034758076 9.2237389e-39 297 268
-0.027271347 0.70700002 -0.034708988 9.224092e-39 298 268
-0.02603174 0.70700002 -0.034708988 9.224092e-39 299 268
-0.024792133 0.70700002 -0.034708988 9.1322509e-39 300 268
-0.023519212 0.70599997 -0.034659892 9.1322509e-39 301 268
-0.022281358 0.70599997 -0.034659892 9.1322509e-39 302 268
-0.021043506 0.70599997 -0.034659892 8.9482212e-39 303 268
-0.019805651 0.70599997 -0.034659892 9.0386217e-39 304 268
-0.018567799 0.70599997 -0.034659892 9.0386217e-39 305 268
-0.017280852 0.704 -0.034561705 8.6712797e-39 306 268
-0.016046507 0.704 -0.034561705 8.6712797e-39 307 268
-0.014791119 0.70300001 -0.034512613 8.578368e-39 308 268
-0.013558527 0.70300001 -0.034512613 8.4861738e-39 309 268
-0.012325933 0.70300001 -0.034512613 8.5769331e-39 310 268
-0.01109334 0.70300001 -0.034512613 8.3929034e-39 311 268
-0.0098326923 0.70099998 -0.034414422 8.3003504e-39 312 268
-0.0086036054 0.70099998 -0.034414422 8.2081562e-39 313 268
-0.0073745195 0.70099998 -0.034414422 8.2074387e-39 314 268
-0.0061629666 0.70300001 -0.034512613 8.0226915e-39 315 268
-0.0049303733 0.70300001 -0.034512613 7.9312148e-39 316 268
-0.0036977797 0.70300001 -0.034512613 7.7471851e-39 317 268
-0.0024651866 0.70300001 -0.034512613 7.9308561e-39 318 268
-0.0012325933 0.70300001 -0.034512613 7.8386618e-39 319 268
0 0.70300001 -0.034512613 7.5627966e-39 320 268
0.0012325933 0.70300001 -0.034512613 7.5627966e-39 321 268
0.0024686933 0.704 -0.034561705 7.7453914e-39 322 268
0.0037030398 0.704 -0.034561705 7.7453914e-39 323 268
0.0049373866 0.704 -0.034561705 7.9279862e-39 324 268
0.0061892662 0.70599997 -0.034659892 7.9279862e-39 325 268
0.0074271196 0.70599997 -0.034659892 7.652121e-39 326 268
0.0086649731 0.70599997 -0.034659892 7.652121e-39 327 268
0.0099168532 0.70700002 -0.034708988 7.4680912e-39 328 268
0.011156459 0.70700002 -0.034708988 7.2840615e-39 329 268
0.0124136 0.708 -0.034758076 7.3748208e-39 330 268
0.013654959 0.708 -0.034758076 7.3748208e-39 331 268
0.014938398 0.70999998 -0.034856264 7.2822679e-39 332 268
0.016183265 0.70999998 -0.034856264 7.3744621e-39 333 268
0.01745268 0.71100003 -0.034905359 7.3744621e-39 334 268
0.018751899 0.713 -0.035003547 7.4666563e-39 335 268
0.020002026 0.713 -0.035003547 7.5585016e-39 336 268
0.021281958 0.71399999 -0.035052639 7.8347284e-39 337 268
0.022596961 0.71600002 -0.035150826 7.8354571e-39 338 268
0.023852346 0.71600002 -0.035150826 8.1116852e-39 339 268
0.0251428 0.71700001 -0.035199918 8.2957135e-39 340 268
0.02647358 0.71899998 -0.035298105 9.4942553e-39 341 268
0.027734226 0.71899998 -0.035298105 1.2989074e-38 342 268
-0.043040827 0.722 -0.03671129 1.6313181e-38 286 269
-0.041774917 0.722 -0.03671129 1.4377073e-38 287 269
-0.040509012 0.722 -0.03671129 1.2718583e-38 288 269
-0.039243106 0.722 -0.03671129 1.0598082e-38 289 269
-0.037871998 0.72000003 -0.036609601 9.9591529e-39 290 269
-0.036558751 0.71899998 -0.036558751 9.9591529e-39 291 269
-0.035199918 0.71700001 -0.036457058 9.8673062e-39 292 269
-0.03389544 0.71600002 -0.036406212 9.5910794e-39 293 269
-0.032503292 0.713 -0.036253672 9.224092e-39 294 269
-0.031165501 0.71100003 -0.036151983 9.224092e-39 295 269
-0.029876797 0.70999998 -0.036101133 9.3155715e-39 296 269
-0.028631933 0.70999998 -0.036101133 9.2233759e-39 297 269
-0.027309919 0.708 -0.03599944 9.2233731e-39 298 269
-0.026068559 0.708 -0.03599944 9.3155687e-39 299 269
-0.024827199 0.708 -0.03599944 9.0411329e-39 300 269
-0.023552528 0.70700002 -0.035948593 9.0411329e-39 301 269
-0.022312919 0.70700002 -0.035948593 9.2240864e-39 302 269
-0.021073313 0.70700002 -0.035948593 9.1315334e-39 303 269
-0.019833706 0.70700002 -0.035948593 9.0393392e-39 304 269
-0.018567799 0.70599997 -0.035897743 8.8549507e-39 305 269
-0.017329946 0.70599997 -0.035897743 8.6712797e-39 306 269
-0.016046507 0.704 -0.035796054 8.6712797e-39 307 269
-0.014812159 0.704 -0.035796054 8.5780093e-39 308 269
-0.013577812 0.704 -0.035796054 8.4858151e-39 309 269
-0.012343466 0.704 -0.035796054 8.5769331e-39 310 269
-0.011109119 0.704 -0.035796054 8.3929034e-39 311 269
-0.0098607466 0.70300001 -0.035745207 8.3003504e-39 312 269
-0.0086281532 0.70300001 -0.035745207 8.2081562e-39 313 269
-0.0073955595 0.70300001 -0.035745207 8.20708e-39 314 269
-0.0061629666 0.70300001 -0.035745207 8.1148858e-39 315 269
-0.0049303733 0.70300001 -0.035745207 8.0226915e-39 316 269
-0.0036977797 0.70300001 -0.035745207 7.9304973e-39 317 269
-0.0024651866 0.70300001 -0.035745207 7.9312148e-39 318 269
-0.0012343467 0.704 -0.035796054 7.7471851e-39 319 269
0 0.704 -0.035796054 7.5635141e-39 320 269
0.0012343467 0.704 -0.035796054 7.5635141e-39 321 269
0.0024686933 0.704 -0.035796054 7.5620791e-39 322 269
0.0037030398 0.704 -0.035796054 7.4695262e-39 323 269
0.0049514128 0.70599997 -0.035897743 7.8361507e-39 324 269
0.0061892662 0.70599997 -0.035897743 7.8361507e-39 325 269
0.0074271196 0.70599997 -0.035897743 7.5602855e-39 326 269
0.0086649731 0.70599997 -0.035897743 7.5602855e-39 327 269
0.0099308798 0.708 -0.03599944 7.2837028e-39 328 269
0.01117224 0.708 -0.03599944 7.2837028e-39 329 269
0.012448666 0.70999998 -0.036101133 7.1915086e-39 330 269
0.013693533 0.70999998 -0.036101133 7.0993143e-39 331 269
0.014938398 0.70999998 -0.036101133 7.0989556e-39 332 269
0.01620606 0.71100003 -0.036151983 7.1911498e-39 333 269
0.01745268 0.71100003 -0.036151983 7.4663018e-39 334 269
0.018751899 0.713 -0.036253672 7.5584974e-39 335 269
0.020002026 0.713 -0.036253672 7.8340123e-39 336 269
0.021281958 0.71399999 -0.036304519 7.9262079e-39 337 269
0.022596961 0.71600002 -0.036406212 8.1109649e-39 338 269
0.023852346 0.71600002 -0.036406212 8.2957163e-39 339 269
0.0251428 0.71700001 -0.036457058 8.1116852e-39 340 269
0.02647358 0.71899998 -0.036558751 1.0324739e-38 341 269
0.027734226 0.71899998 -0.036558751 1.3634093e-38 342 269
-0.043219667 0.72500002 -0.038135 1.6403224e-38 286 270
-0.041774917 0.722 -0.0379772 1.5481268e-38 287 270
-0.040509012 0.722 -0.0379772 1.3363599e-38 288 270
-0.039243106 0.722 -0.0379772 1.0689926e-38 289 270
-0.037871998 0.72000003 -0.037871998 1.0143184e-38 290 270
-0.036609601 0.72000003 -0.037871998 1.0327215e-38 291 270
-0.035298105 0.71899998 -0.037819397 9.8673062e-39 292 270
-0.033942781 0.71700001 -0.037714198 9.5910794e-39 293 270
-0.032548878 0.71399999 -0.037556399 9.3166407e-39 294 270
-0.031165501 0.71100003 -0.037398599 9.3166407e-39 295 270
-0.029876797 0.70999998 -0.037345998 9.3159247e-39 296 270
-0.028631933 0.70999998 -0.037345998 9.3159247e-39 297 270
-0.027309919 0.708 -0.0372408 9.2233731e-39 298 270
-0.026068559 0.708 -0.0372408 9.2233731e-39 299 270
-0.024827199 0.708 -0.0372408 9.1318936e-39 300 270
-0.023552528 0.70700002 -0.037188202 8.9478624e-39 301 270
-0.022312919 0.70700002 -0.037188202 9.1315334e-39 302 270
-0.021073313 0.70700002 -0.037188202 9.0389805e-39 303 270
-0.019833706 0.70700002 -0.037188202 8.763474e-39 304 270
-0.018567799 0.70599997 -0.037135597 8.6712797e-39 305 270
-0.017329946 0.70599997 -0.037135597 8.6712797e-39 306 270
-0.016092092 0.70599997 -0.037135597 8.5790855e-39 307 270
-0.014812159 0.704 -0.037030395 8.5780093e-39 308 270
-0.013577812 0.704 -0.037030395 8.4858151e-39 309 270
-0.012343466 0.704 -0.037030395 8.3932621e-39 310 270
-0.011109119 0.704 -0.037030395 8.3010679e-39 311 270
-0.0098747732 0.704 -0.037030395 8.3003504e-39 312 270
-0.0086404262 0.704 -0.037030395 8.3003504e-39 313 270
-0.0074060797 0.704 -0.037030395 8.1156032e-39 314 270
-0.0061717331 0.704 -0.037030395 8.1156032e-39 315 270
-0.0049373866 0.704 -0.037030395 8.023409e-39 316 270
-0.0037030398 0.704 -0.037030395 8.023409e-39 317 270
-0.0024686933 0.704 -0.037030395 7.9312148e-39 318 270
-0.0012343467 0.704 -0.037030395 7.9312148e-39 319 270
0 0.704 -0.037030395 7.7471851e-39 320 270
0.0012343467 0.704 -0.037030395 7.6549908e-39 321 270
0.0024686933 0.704 -0.037030395 7.8375856e-39 322 270
0.0037030398 0.704 -0.037030395 7.8375856e-39 323 270
0.0049514128 0.70599997 -0.037135597 8.0198217e-39 324 270
0.0061892662 0.70599997 -0.037135597 7.9276275e-39 325 270
0.0074376399 0.70700002 -0.037188202 7.6517622e-39 326 270
0.008677247 0.70700002 -0.037188202 7.6517622e-39 327 270
0.0099308798 0.708 -0.0372408 7.467015e-39 328 270
0.011203799 0.70999998 -0.037345998 7.3748208e-39 329 270
0.012448666 0.70999998 -0.037345998 7.1915086e-39 330 270
0.013693533 0.70999998 -0.037345998 7.1915086e-39 331 270
0.014959441 0.71100003 -0.037398599 7.1911498e-39 332 270
0.01620606 0.71100003 -0.037398599 7.1911498e-39 333 270
0.017501773 0.713 -0.037503798 7.4663018e-39 334 270
0.018751899 0.713 -0.037503798 7.6506944e-39 335 270
0.020030079 0.71399999 -0.037556399 7.9262079e-39 336 270
0.021341572 0.71600002 -0.037661601 8.1105992e-39 337 270
0.022596961 0.71600002 -0.037661601 8.386833e-39 338 270
0.02388566 0.71700001 -0.037714198 8.386833e-39 339 270
0.025212931 0.71899998 -0.037819397 8.2960821e-39 340 270
0.026510401 0.72000003 -0.037871998 1.1338536e-38 341 270
0.02788852 0.72299999 -0.038029801 1.400288e-38 342 270
-0.043219667 0.72500002 -0.039406165 1.6035168e-38 286 271
-0.041832779 0.72299999 -0.039297458 1.5758222e-38 287 271
-0.040509012 0.722 -0.039243106 1.4101889e-38 288 271
-0.039243106 0.722 -0.039243106 1.1335661e-38 289 271
-0.037871998 0.72000003 -0.039134402 1.0509809e-38 290 271
-0.036609601 0.72000003 -0.039134402 1.0602004e-38 291 271
-0.035298105 0.71899998 -0.039080046 9.9598592e-39 292 271
-0.033942781 0.71700001 -0.038971342 9.683631e-39 293 271
-0.032548878 0.71399999 -0.038808275 9.4999516e-39 294 271
-0.031253166 0.713 -0.038753927 9.3159219e-39 295 271
-0.029918881 0.71100003 -0.038645219 9.3159247e-39 296 271
-0.028672259 0.71100003 -0.038645219 9.2233703e-39 297 271
-0.027387066 0.70999998 -0.038590867 9.1315404e-39 298 271
-0.026142199 0.70999998 -0.038590867 9.1315404e-39 299 271
-0.024827199 0.708 -0.038482159 8.9478652e-39 300 271
-0.023585839 0.708 -0.038482159 8.9478652e-39 301 271
-0.022344479 0.708 -0.038482159 9.1315334e-39 302 271
-0.021103119 0.708 -0.038482159 9.0389805e-39 303 271
-0.01986176 0.708 -0.038482159 8.8549507e-39 304 271
-0.018594101 0.70700002 -0.038427804 8.8549507e-39 305 271
-0.017354494 0.70700002 -0.038427804 8.6712797e-39 306 271
-0.016092092 0.70599997 -0.038373452 8.5790855e-39 307 271
-0.014854239 0.70599997 -0.038373452 8.5780093e-39 308 271
-0.013616386 0.70599997 -0.038373452 8.4854564e-39 309 271
-0.012378532 0.70599997 -0.038373452 8.3007092e-39 310 271
-0.011109119 0.704 -0.038264744 8.3007092e-39 311 271
-0.0098747732 0.704 -0.038264744 8.2999917e-39 312 271
-0.0086404262 0.704 -0.038264744 8.2077975e-39 313 271
-0.0074060797 0.704 -0.038264744 8.20708e-39 314 271
-0.0061717331 0.704 -0.038264744 8.1148858e-39 315 271
-0.0049373866 0.704 -0.038264744 8.0230503e-39 316 271
-0.0037030398 0.704 -0.038264744 7.9308561e-39 317 271
-0.0024686933 0.704 -0.038264744 8.0226915e-39 318 271
-0.0012378532 0.70599997 -0.038373452 8.0226915e-39 319 271
0 0.70599997 -0.038373452 7.7471851e-39 320 271
0.0012378532 0.70599997 -0.038373452 7.6546321e-39 321 271
0.0024757064 0.70599997 -0.038373452 7.7450327e-39 322 271
0.0037135598 0.70599997 -0.038373452 7.7450327e-39 323 271
0.0049584266 0.70700002 -0.038427804 7.835792e-39 324 271
0.0061980332 0.70700002 -0.038427804 7.6517622e-39 325 271
0.0074376399 0.70700002 -0.038427804 7.6514035e-39 326 271
0.008689519 0.708 -0.038482159 7.5592093e-39 327 271
0.0099589331 0.70999998 -0.038590867 7.559568e-39 328 271
0.011203799 0.70999998 -0.038590867 7.467015e-39 329 271
0.012448666 0.70999998 -0.038590867 7.2837028e-39 330 271
0.01371282 0.71100003 -0.038645219 7.2837028e-39 331 271
0.014959441 0.71100003 -0.038645219 7.4666563e-39 332 271
0.016251646 0.713 -0.038753927 7.4666563e-39 333 271
0.017501773 0.713 -0.038753927 7.4670207e-39 334 271
0.018778199 0.71399999 -0.038808275 7.6514133e-39 335 271
0.020086186 0.71600002 -0.038916986 7.7436146e-39 336 271
0.021341572 0.71600002 -0.038916986 7.9280058e-39 337 271
0.02262852 0.71700001 -0.038971342 8.2964198e-39 338 271
0.023952285 0.71899998 -0.039080046 8.1116684e-39 339 271
0.025248 0.72000003 -0.039134402 9.399187e-39 340 271
0.026510401 0.72000003 -0.039134402 1.2626034e-38 341 271
0.02788852 0.72299999 -0.039297458 1.4187993e-38 342 271
-0.043398503 0.72799999 -0.040845651 1.5574562e-38 286 272
-0.041832779 0.72299999 -0.040565118 1.5850789e-38 287 272
-0.040509012 0.722 -0.040509012 1.4839117e-38 288 272
-0.039243106 0.722 -0.040509012 1.2626781e-38 289 272
-0.0379772 0.722 -0.040509012 1.1336701e-38 290 272
-0.03671129 0.722 -0.040509012 1.0691333e-38 291 272
-0.035347197 0.72000003 -0.040396802 9.9598592e-39 292 272
-0.03403746 0.71899998 -0.040340692 9.683631e-39 293 272
-0.032640055 0.71600002 -0.040172372 9.5917955e-39 294 272
-0.031296998 0.71399999 -0.040060159 9.3155687e-39 295 272
-0.030003037 0.713 -0.040004052 9.2240948e-39 296 272
-0.028672259 0.71100003 -0.039891839 8.9475093e-39 297 272
-0.027387066 0.70999998 -0.039835732 9.0389805e-39 298 272
-0.026142199 0.70999998 -0.039835732 9.0389805e-39 299 272
-0.024897331 0.70999998 -0.039835732 9.1311747e-39 300 272
-0.023585839 0.708 -0.039723519 9.1311747e-39 301 272
-0.022344479 0.708 -0.039723519 8.9475093e-39 302 272
-0.021103119 0.708 -0.039723519 8.8553123e-39 303 272
-0.01986176 0.708 -0.039723519 8.9464275e-39 304 272
-0.018594101 0.70700002 -0.039667413 8.8542333e-39 305 272
-0.017354494 0.70700002 -0.039667413 8.670921e-39 306 272
-0.016114887 0.70700002 -0.039667413 8.5787268e-39 307 272
-0.014854239 0.70599997 -0.039611302 8.4854564e-39 308 272
-0.013616386 0.70599997 -0.039611302 8.3932621e-39 309 272
-0.012378532 0.70599997 -0.039611302 8.3010679e-39 310 272
-0.011140679 0.70599997 -0.039611302 8.2088737e-39 311 272
-0.0099028256 0.70599997 -0.039611302 8.2999917e-39 312 272
-0.0086649731 0.70599997 -0.039611302 8.2077975e-39 313 272
-0.0074271196 0.70599997 -0.039611302 8.20708e-39 314 272
-0.0061892662 0.70599997 -0.039611302 8.1148858e-39 315 272
-0.0049514128 0.70599997 -0.039611302 7.9308561e-39 316 272
-0.0037135598 0.70599997 -0.039611302 7.9308561e-39 317 272
-0.0024757064 0.70599997 -0.039611302 7.9312148e-39 318 272
-0.0012378532 0.70599997 -0.039611302 7.9312148e-39 319 272
0 0.70599997 -0.039611302 7.9312148e-39 320 272
0.0012378532 0.70599997 -0.039611302 7.5624379e-39 321 272
0.0024757064 0.70599997 -0.039611302 7.8368682e-39 322 272
0.0037188199 0.70700002 -0.039667413 7.7446739e-39 323 272
0.0049584266 0.70700002 -0.039667413 7.7443152e-39 324 272
0.0062067998 0.708 -0.039723519 7.7443152e-39 325 272
0.0074481601 0.708 -0.039723519 7.5599267e-39 326 272
0.008689519 0.708 -0.039723519 7.5599267e-39 327 272
0.0099589331 0.70999998 -0.039835732 7.4677325e-39 328 272
0.011203799 0.70999998 -0.039835732 7.4677325e-39 329 272
0.0124662 0.71100003 -0.039891839 7.2833441e-39 330 272
0.01371282 0.71100003 -0.039891839 7.2833441e-39 331 272
0.014959441 0.71100003 -0.039891839 7.2829895e-39 332 272
0.016251646 0.713 -0.040004052 7.4670207e-39 333 272
0.017526319 0.71399999 -0.040060159 7.4666689e-39 334 272
0.018778199 0.71399999 -0.040060159 7.6514189e-39 335 272
0.020086186 0.71600002 -0.040172372 7.7436117e-39 336 272
0.021371379 0.71700001 -0.040228479 7.928003e-39 337 272
0.022691639 0.71899998 -0.040340692 8.7552427e-39 338 272
0.0239856 0.72000003 -0.040396802 9.124384e-39 339 272
0.025248 0.72000003 -0.040396802 1.0962568e-38 340 272
0.026510401 0.72000003 -0.040396802 1.3544046e-38 341 272
-0.043398503 0.72799999 -0.042122077 1.5575281e-38 286 273
-0.042064216 0.727 -0.042064216 1.5482727e-38 287 273
-0.040565118 0.72299999 -0.041832779 1.5299751e-38 288 273
-0.039243106 0.722 -0.041774917 1.3916816e-38 289 273
-0.0379772 0.722 -0.041774917 1.2257232e-38 290 273
-0.03671129 0.722 -0.041774917 1.0598069e-38 291 273
-0.035347197 0.72000003 -0.041659199 9.959492e-39 292 273
-0.03403746 0.71899998 -0.041601337 9.959492e-39 293 273
-0.032685637 0.71700001 -0.041485619 9.4995999e-39 294 273
-0.031384666 0.71600002 -0.041427758 9.3155687e-39 295 273
-0.030045118 0.71399999 -0.041312039 9.2233731e-39 296 273
-0.028752912 0.713 -0.041254178 9.1311775e-39 297 273
-0.027425639 0.71100003 -0.041138459 8.8556682e-39 298 273
-0.026179021 0.71100003 -0.041138459 8.8556682e-39 299 273
-0.024897331 0.70999998 -0.041080594 8.9478624e-39 300 273
-0.023652466 0.70999998 -0.041080594 8.9478624e-39 301 273
-0.022344479 0.708 -0.040964879 9.3144925e-39 302 273
-0.021103119 0.708 -0.040964879 9.2219368e-39 303 273
-0.01986176 0.708 -0.040964879 8.8542361e-39 304 273
-0.0186204 0.708 -0.040964879 8.6698462e-39 305 273
-0.017379038 0.708 -0.040964879 8.6698462e-39 306 273
-0.016114887 0.70700002 -0.040907022 8.6698462e-39 307 273
-0.01487528 0.70700002 -0.040907022 8.4854564e-39 308 273
-0.013616386 0.70599997 -0.040849157 8.3932621e-39 309 273
-0.012378532 0.70599997 -0.040849157 8.3010679e-39 310 273
-0.011140679 0.70599997 -0.040849157 8.2088737e-39 311 273
-0.0099028256 0.70599997 -0.040849157 8.3003504e-39 312 273
-0.0086649731 0.70599997 -0.040849157 8.115962e-39 313 273
-0.0074271196 0.70599997 -0.040849157 8.390751e-39 314 273
-0.0061892662 0.70599997 -0.040849157 8.2985568e-39 315 273
-0.0049514128 0.70599997 -0.040849157 7.9312148e-39 316 273
-0.0037135598 0.70599997 -0.040849157 7.9312148e-39 317 273
-0.0024757064 0.70599997 -0.040849157 7.9312148e-39 318 273
-0.0012378532 0.70599997 -0.040849157 7.9312148e-39 319 273
0 0.70599997 -0.040849157 7.9304973e-39 320 273
0.0012396066 0.70700002 -0.040907022 7.8383031e-39 321 273
0.0024792133 0.70700002 -0.040907022 7.7446739e-39 322 273
0.0037188199 0.70700002 -0.040907022 7.7446739e-39 323 273
0.0049584266 0.70700002 -0.040907022 7.8354332e-39 324 273
0.0062067998 0.708 -0.040964879 7.8354332e-39 325 273
0.0074481601 0.708 -0.040964879 7.5599267e-39 326 273
0.0087140659 0.70999998 -0.041080594 7.5599267e-39 327 273
0.0099589331 0.70999998 -0.041080594 7.4677325e-39 328 273
0.011203799 0.70999998 -0.041080594 7.2837028e-39 329 273
0.0124662 0.71100003 -0.041138459 7.6499686e-39 330 273
0.01371282 0.71100003 -0.041138459 7.4659389e-39 331 273
0.015001519 0.713 -0.041254178 7.7418097e-39 332 273
0.016274439 0.71399999 -0.041312039 7.7418097e-39 333 273
0.017526319 0.71399999 -0.041312039 7.5588646e-39 334 273
0.0188308 0.71600002 -0.041427758 7.6514189e-39 335 273
0.020114239 0.71700001 -0.041485619 7.7432614e-39 336 273
0.021371379 0.71700001 -0.041485619 8.1116852e-39 337 273
0.022691639 0.71899998 -0.041601337 8.2960821e-39 338 273
0.0239856 0.72000003 -0.041659199 9.4024296e-39 339 273
0.025248 0.72000003 -0.041659199 1.1240247e-38 340 273
0.026510401 0.72000003 -0.041659199 1.2530985e-38 341 273
-0.044797666 0.73000002 -0.043517731 1.5575278e-38 285 274
-0.043517731 0.73000002 -0.043517731 1.5206501e-38 286 274
-0.042064216 0.727 -0.043338891 1.5206501e-38 287 274
-0.040565118 0.72299999 -0.043100435 1.5023179e-38 288 274
-0.039243106 0.722 -0.043040827 1.4746594e-38 289 274
-0.0379772 0.722 -0.043040827 1.3363602e-38 290 274
-0.03671129 0.722 -0.043040827 1.1335298e-38 291 274
-0.035347197 0.72000003 -0.042921603 9.866237e-39 292 274
-0.034084801 0.72000003 -0.042921603 9.9584326e-39 293 274
-0.032685637 0.71700001 -0.042742759 9.3159345e-39 294 274
-0.031384666 0.71600002 -0.042683143 9.1315432e-39 295 274
-0.030045118 0.71399999 -0.042563915 9.1311747e-39 296 274
-0.028793238 0.71399999 -0.042563915 9.1311747e-39 297 274
-0.027502786 0.713 -0.042504307 9.0393392e-39 298 274
-0.026179021 0.71100003 -0.042385083 8.947145e-39 299 274
-0.024897331 0.70999998 -0.042325463 9.2226514e-39 300 274
-0.023652466 0.70999998 -0.042325463 9.2226514e-39 301 274
-0.022407599 0.70999998 -0.042325463 9.2222927e-39 302 274
-0.021162732 0.70999998 -0.042325463 9.038263e-39 303 274
-0.019917866 0.70999998 -0.042325463 8.8542333e-39 304 274
-0.018672999 0.70999998 -0.042325463 8.5780093e-39 305 274
-0.017379038 0.708 -0.042206239 8.7613216e-39 306 274
-0.01613768 0.708 -0.042206239 8.6691273e-39 307 274
-0.01487528 0.70700002 -0.042146627 8.3932621e-39 308 274
-0.013635674 0.70700002 -0.042146627 8.2088737e-39 309 274
-0.012396066 0.70700002 -0.042146627 8.3914685e-39 310 274
-0.011156459 0.70700002 -0.042146627 8.3914685e-39 311 274
-0.0099168532 0.70700002 -0.042146627 8.3911097e-39 312 274
-0.008677247 0.70700002 -0.042146627 8.3911097e-39 313 274
-0.0074376399 0.70700002 -0.042146627 8.1148858e-39 314 274
-0.0061980332 0.70700002 -0.042146627 8.1148858e-39 315 274
-0.0049584266 0.70700002 -0.042146627 8.0230503e-39 316 274
-0.0037188199 0.70700002 -0.042146627 8.0230503e-39 317 274
-0.0024757064 0.70599997 -0.042087011 8.0226915e-39 318 274
-0.0012378532 0.70599997 -0.042087011 8.0226915e-39 319 274
0 0.70599997 -0.042087011 7.9301386e-39 320 274
0.0012396066 0.70700002 -0.042146627 7.7457501e-39 321 274
0.0024792133 0.70700002 -0.042146627 7.5613617e-39 322 274
0.00372408 0.708 -0.042206239 7.4691674e-39 323 274
0.0049654399 0.708 -0.042206239 7.835792e-39 324 274
0.0062243328 0.70999998 -0.042325463 7.835792e-39 325 274
0.0074691991 0.70999998 -0.042325463 7.5599267e-39 326 274
0.0087140659 0.70999998 -0.042325463 7.5599267e-39 327 274
0.0099729598 0.71100003 -0.042385083 7.5588505e-39 328 274
0.01121958 0.71100003 -0.042385083 7.4666563e-39 329 274
0.0124662 0.71100003 -0.042385083 7.5584974e-39 330 274
0.013751393 0.713 -0.042504307 7.5584974e-39 331 274
0.015022559 0.71399999 -0.042563915 7.5585016e-39 332 274
0.016274439 0.71399999 -0.042563915 7.6506973e-39 333 274
0.017575413 0.71600002 -0.042683143 7.6507001e-39 334 274
0.018857099 0.71700001 -0.042742759 7.9269268e-39 335 274
0.020114239 0.71700001 -0.042742759 7.8358102e-39 336 274
0.021430992 0.71899998 -0.042861983 7.9280058e-39 337 274
0.022691639 0.71899998 -0.042861983 8.9392837e-39 338 274
0.023952285 0.71899998 -0.042861983 9.7690443e-39 339 274
0.025248 0.72000003 -0.042921603 1.1425358e-38 340 274
-0.043517731 0.73000002 -0.044797666 1.5206501e-38 286 275
-0.042064216 0.727 -0.044613566 1.5021751e-38 287 275
-0.040789545 0.727 -0.044613566 1.4839514e-38 288 275
-0.039243106 0.722 -0.044306733 1.4839514e-38 289 275
-0.0379772 0.722 -0.044306733 1.4378139e-38 290 275
-0.03671129 0.722 -0.044306733 1.2534585e-38 291 275
-0.035347197 0.72000003 -0.044183999 1.0968644e-38 292 275
-0.03403746 0.71899998 -0.044122629 1.0323275e-38 293 275
-0.032685637 0.71700001 -0.043999899 9.5918011e-39 294 275
-0.031384666 0.71600002 -0.043938532 9.22302e-39 295 275
-0.03012928 0.71600002 -0.043938532 9.1311747e-39 296 275
-0.028793238 0.71399999 -0.043815799 9.0389805e-39 297 275
-0.02754136 0.71399999 -0.043815799 9.3137695e-39 298 275
-0.026252659 0.713 -0.043754432 9.2215753e-39 299 275
-0.024932399 0.71100003 -0.043631699 9.2222927e-39 300 275
-0.023685781 0.71100003 -0.043631699 9.038263e-39 301 275
-0.022407599 0.70999998 -0.043570329 8.9467862e-39 302 275
-0.021162732 0.70999998 -0.043570329 8.854592e-39 303 275
-0.01994592 0.71100003 -0.043631699 9.0371868e-39 304 275
-0.018672999 0.70999998 -0.043570329 8.7606041e-39 305 275
-0.017428132 0.70999998 -0.043570329 8.5765744e-39 306 275
-0.016183265 0.70999998 -0.043570329 8.5765744e-39 307 275
-0.01489632 0.708 -0.043447599 8.3925447e-39 308 275
-0.013654959 0.708 -0.043447599 8.2081562e-39 309 275
-0.0124136 0.708 -0.043447599 8.2074387e-39 310 275
-0.01117224 0.708 -0.043447599 8.3914685e-39 311 275
-0.0099168532 0.70700002 -0.043386232 8.2081562e-39 312 275
-0.008677247 0.70700002 -0.043386232 8.1156032e-39 313 275
-0.0074376399 0.70700002 -0.043386232 8.1152445e-39 314 275
-0.0061980332 0.70700002 -0.043386232 8.1152445e-39 315 275
-0.0049584266 0.70700002 -0.043386232 8.1148858e-39 316 275
-0.0037188199 0.70700002 -0.043386232 7.9304973e-39 317 275
-0.0024792133 0.70700002 -0.043386232 8.0226915e-39 318 275
-0.0012396066 0.70700002 -0.043386232 7.9304973e-39 319 275
0 0.70700002 -0.043386232 8.1130921e-39 320 275
0.00124136 0.708 -0.043447599 8.1130921e-39 321 275
0.00248272 0.708 -0.043447599 7.5613617e-39 322 275
0.0037345996 0.70999998 -0.043570329 7.4691674e-39 323 275
0.0049794666 0.70999998 -0.043570329 7.4691674e-39 324 275
0.0062243328 0.70999998 -0.043570329 7.3766145e-39 325 275
0.0074797203 0.71100003 -0.043631699 7.5599267e-39 326 275
0.0087263398 0.71100003 -0.043631699 7.4677325e-39 327 275
0.0099729598 0.71100003 -0.043631699 7.5588505e-39 328 275
0.01121958 0.71100003 -0.043631699 7.5588505e-39 329 275
0.012501267 0.713 -0.043754432 7.4670207e-39 330 275
0.013751393 0.713 -0.043754432 7.4670207e-39 331 275
0.015022559 0.71399999 -0.043815799 7.5585016e-39 332 275
0.016274439 0.71399999 -0.043815799 7.6506973e-39 333 275
0.017575413 0.71600002 -0.043938532 7.6503441e-39 334 275
0.018857099 0.71700001 -0.043999899 7.9269296e-39 335 275
0.020114239 0.71700001 -0.043999899 8.0187693e-39 336 275
0.021430992 0.71899998 -0.044122629 8.5719431e-39 337 275
0.022691639 0.71899998 -0.044122629 9.6743474e-39 338 275
0.023952285 0.71899998 -0.044122629 1.0965086e-38 339 275
-0.042064216 0.727 -0.045888241 1.5114306e-38 287 276
-0.040565118 0.72299999 -0.04563576 1.4838439e-38 288 276
-0.039243106 0.722 -0.045572639 1.4838439e-38 289 276
-0.037871998 0.72000003 -0.045446403 1.4839499e-38 290 276
-0.036609601 0.72000003 -0.045446403 1.3917182e-38 291 276
-0.035347197 0.72000003 -0.045446403 1.2073216e-38 292 276
-0.03403746 0.71899998 -0.045383278 1.0782477e-38 293 276
-0.032685637 0.71700001 -0.045257039 9.4081357e-39 294 276
-0.031384666 0.71600002 -0.045193922 9.2233857e-39 295 276
-0.03012928 0.71600002 -0.045193922 9.3141366e-39 296 276
-0.028793238 0.71399999 -0.045067675 9.2219396e-39 297 276
-0.02754136 0.71399999 -0.045067675 9.2215753e-39 298 276
-0.026289478 0.71399999 -0.045067675 9.2215753e-39 299 276
-0.025002534 0.713 -0.045004558 9.2212179e-39 300 276
-0.023752406 0.713 -0.045004558 9.2212179e-39 301 276
-0.022439159 0.71100003 -0.044878319 9.038263e-39 302 276
-0.021192541 0.71100003 -0.044878319 8.8535158e-39 303 276
-0.01994592 0.71100003 -0.044878319 8.6691273e-39 304 276
-0.0186993 0.71100003 -0.044878319 8.5769331e-39 305 276
-0.017428132 0.70999998 -0.044815198 8.5769331e-39 306 276
-0.016183265 0.70999998 -0.044815198 8.3929034e-39 307 276
-0.014938398 0.70999998 -0.044815198 8.3007092e-39 308 276
-0.013693533 0.70999998 -0.044815198 8.3007092e-39 309 276
-0.012448666 0.70999998 -0.044815198 8.2077975e-39 310 276
-0.01117224 0.708 -0.044688959 8.2077975e-39 311 276
-0.0099308798 0.708 -0.044688959 8.115962e-39 312 276
-0.008689519 0.708 -0.044688959 8.115962e-39 313 276
-0.0074481601 0.708 -0.044688959 8.1148858e-39 314 276
-0.0062067998 0.708 -0.044688959 8.1148858e-39 315 276
-0.0049654399 0.708 -0.044688959 7.9308561e-39 316 276
-0.00372408 0.708 -0.044688959 7.7468263e-39 317 276
-0.00248272 0.708 -0.044688959 7.9301386e-39 318 276
-0.00124136 0.708 -0.044688959 7.9301386e-39 319 276
0 0.708 -0.044688959 8.1138096e-39 320 276
0.0012448666 0.70999998 -0.044815198 7.9294211e-39 321 276
0.0024897333 0.70999998 -0.044815198 7.7457501e-39 322 276
0.0037398601 0.71100003 -0.044878319 7.5613617e-39 323 276
0.0049864799 0.71100003 -0.044878319 7.6524797e-39 324 276
0.0062330998 0.71100003 -0.044878319 7.5602855e-39 325 276
0.0074797203 0.71100003 -0.044878319 7.5599267e-39 326 276
0.0087508867 0.713 -0.045004558 7.4677325e-39 327 276
0.010001013 0.713 -0.045004558 7.5588505e-39 328 276
0.011251139 0.713 -0.045004558 7.5588505e-39 329 276
0.012501267 0.713 -0.045004558 7.4670249e-39 330 276
0.01377068 0.71399999 -0.045067675 7.4670249e-39 331 276
0.01506464 0.71600002 -0.045193922 7.4666689e-39 332 276
0.016320027 0.71600002 -0.045193922 7.5588646e-39 333 276
0.017575413 0.71600002 -0.045193922 7.8343753e-39 334 276
0.018857099 0.71700001 -0.045257039 8.0191252e-39 335 276
0.020170346 0.71899998 -0.045383278 8.1113349e-39 336 276
0.021460801 0.72000003 -0.045446403 8.8488999e-39 337 276
0.022723202 0.72000003 -0.045446403 1.0504123e-38 338 276
0.0239856 0.72000003 -0.045446403 1.1242049e-38 339 276
-0.040565118 0.72299999 -0.046903417 1.4654764e-38 288 277
-0.039243106 0.722 -0.046838548 1.4654764e-38 289 277
-0.037871998 0.72000003 -0.0467088 1.4838789e-38 290 277
-0.036609601 0.72000003 -0.0467088 1.4654398e-38 291 277
-0.035347197 0.72000003 -0.0467088 1.2995914e-38 292 277
-0.03403746 0.71899998 -0.046643924 1.1520424e-38 293 277
-0.032685637 0.71700001 -0.046514176 9.5900257e-39 294 277
-0.031384666 0.71600002 -0.046449307 9.5900257e-39 295 277
-0.03012928 0.71600002 -0.046449307 9.2226697e-39 296 277
-0.028873893 0.71600002 -0.046449307 8.9460814e-39 297 277
-0.02754136 0.71399999 -0.046319555 9.2212235e-39 298 277
-0.026289478 0.71399999 -0.046319555 9.2212235e-39 299 277
-0.025002534 0.713 -0.046254687 9.0364735e-39 300 277
-0.023752406 0.713 -0.046254687 9.0364735e-39 301 277
-0.022502279 0.713 -0.046254687 8.6698462e-39 302 277
-0.021252153 0.713 -0.046254687 8.5776506e-39 303 277
-0.020002026 0.713 -0.046254687 8.7616803e-39 304 277
-0.0186993 0.71100003 -0.046124939 8.5769331e-39 305 277
-0.01745268 0.71100003 -0.046124939 8.5772918e-39 306 277
-0.01620606 0.71100003 -0.046124939 8.3932621e-39 307 277
-0.014938398 0.70999998 -0.046060063 8.3010679e-39 308 277
-0.013693533 0.70999998 -0.046060063 8.3010679e-39 309 277
-0.012448666 0.70999998 -0.046060063 8.3918272e-39 310 277
-0.011203799 0.70999998 -0.046060063 8.2077975e-39 311 277
-0.0099589331 0.70999998 -0.046060063 8.1156032e-39 312 277
-0.0087140659 0.70999998 -0.046060063 8.1156032e-39 313 277
-0.0074691991 0.70999998 -0.046060063 8.1156032e-39 314 277
-0.0062243328 0.70999998 -0.046060063 8.023409e-39 315 277
-0.0049794666 0.70999998 -0.046060063 7.9308561e-39 316 277
-0.0037345996 0.70999998 -0.046060063 7.7468263e-39 317 277
-0.0024897333 0.70999998 -0.046060063 7.9301386e-39 318 277
-0.0012448666 0.70999998 -0.046060063 7.8379444e-39 319 277
0 0.70999998 -0.046060063 7.8379444e-39 320 277
0.00124662 0.71100003 -0.046124939 7.8379444e-39 321 277
0.0024932399 0.71100003 -0.046124939 7.5620791e-39 322 277
0.0037503797 0.713 -0.046254687 7.4698849e-39 323 277
0.0050005065 0.713 -0.046254687 7.4691674e-39 324 277
0.0062506334 0.713 -0.046254687 7.3766145e-39 325 277
0.0075007593 0.713 -0.046254687 7.4677325e-39 326 277
0.0087508867 0.713 -0.046254687 7.4677325e-39 327 277
0.010001013 0.713 -0.046254687 7.4673738e-39 328 277
0.011266919 0.71399999 -0.046319555 7.4673738e-39 329 277
0.012518799 0.71399999 -0.046319555 7.7418097e-39 330 277
0.013809253 0.71600002 -0.046449307 7.8343654e-39 331 277
0.015085679 0.71700001 -0.046514176 7.3755523e-39 332 277
0.016342819 0.71700001 -0.046514176 7.3755523e-39 333 277
0.017599959 0.71700001 -0.046514176 7.6507099e-39 334 277
0.018909698 0.71899998 -0.046643924 7.8354599e-39 335 277
0.020198401 0.72000003 -0.0467088 8.5708865e-39 336 277
0.021460801 0.72000003 -0.0467088 9.4932029e-39 337 277
0.022723202 0.72000003 -0.0467088 1.0505572e-38 338 277
-0.031384666 0.71600002 -0.047704693 9.6797228e-39 295 278
-0.03012928 0.71600002 -0.047704693 9.5889312e-39 296 278
-0.028873893 0.71600002 -0.047704693 9.5889312e-39 297 278
-0.027618507 0.71600002 -0.047704693 9.0379113e-39 298 278
-0.026363119 0.71600002 -0.047704693 8.9453569e-39 299 278
-0.025037598 0.71399999 -0.047571439 8.8531613e-39 300 278
-0.02378572 0.71399999 -0.047571439 8.7609656e-39 301 278
-0.022533838 0.71399999 -0.047571439 8.6702035e-39 302 278
-0.021281958 0.71399999 -0.047571439 8.5780093e-39 303 278
-0.020030079 0.71399999 -0.047571439 8.6694861e-39 304 278
-0.018778199 0.71399999 -0.047571439 8.5772918e-39 305 278
-0.017501773 0.713 -0.047504812 8.3932621e-39 306 278
-0.016251646 0.713 -0.047504812 8.3010679e-39 307 278
-0.014959441 0.71100003 -0.047371563 8.4843802e-39 308 278
-0.01371282 0.71100003 -0.047371563 8.4843802e-39 309 278
-0.0124662 0.71100003 -0.047371563 8.2085149e-39 310 278
-0.01121958 0.71100003 -0.047371563 8.1163207e-39 311 278
-0.0099589331 0.70999998 -0.047304932 8.115962e-39 312 278
-0.0087140659 0.70999998 -0.047304932 8.0237677e-39 313 278
-0.0074691991 0.70999998 -0.047304932 8.115962e-39 314 278
-0.0062243328 0.70999998 -0.047304932 8.0237677e-39 315 278
-0.0049864799 0.71100003 -0.047371563 7.9312148e-39 316 278
-0.0037398601 0.71100003 -0.047371563 7.7471851e-39 317 278
-0.0024897333 0.70999998 -0.047304932 7.7468263e-39 318 278
-0.0012448666 0.70999998 -0.047304932 7.7468263e-39 319 278
0 0.71100003 -0.047371563 7.8379444e-39 320 278
0.00124662 0.71100003 -0.047371563 7.8379444e-39 321 278
0.0025002533 0.713 -0.047504812 7.7453914e-39 322 278
0.0037503797 0.713 -0.047504812 7.5613617e-39 323 278
0.0050005065 0.713 -0.047504812 7.4691674e-39 324 278
0.0062506334 0.713 -0.047504812 7.2844203e-39 325 278
0.0075112795 0.71399999 -0.047571439 7.2840615e-39 326 278
0.0087631596 0.71399999 -0.047571439 7.2840615e-39 327 278
0.01001504 0.71399999 -0.047571439 7.1918673e-39 328 278
0.011266919 0.71399999 -0.047571439 7.1918673e-39 329 278
0.012553867 0.71600002 -0.047704693 7.4670207e-39 330 278
0.013809253 0.71600002 -0.047704693 7.5592177e-39 331 278
0.015085679 0.71700001 -0.04777132 7.2840783e-39 332 278
0.016342819 0.71700001 -0.04777132 7.2840783e-39 333 278
0.017599959 0.71700001 -0.04777132 7.6507155e-39 334 278
0.018909698 0.71899998 -0.04790457 7.9273024e-39 335 278
0.020198401 0.72000003 -0.0479712 8.8471273e-39 336 278
0.021460801 0.72000003 -0.0479712 9.8612778e-39 337 278
-0.03012928 0.71600002 -0.048960082 9.2212403e-39 296 279
-0.028873893 0.71600002 -0.048960082 9.2212403e-39 297 279
-0.027657079 0.71700001 -0.04902846 9.0375581e-39 298 279
-0.02639994 0.71700001 -0.04902846 8.9453625e-39 299 279
-0.025107734 0.71600002 -0.048960082 8.7609656e-39 300 279
-0.023852346 0.71600002 -0.048960082 8.7609656e-39 301 279
-0.022596961 0.71600002 -0.048960082 8.6691273e-39 302 279
-0.021341572 0.71600002 -0.048960082 8.6691273e-39 303 279
-0.020086186 0.71600002 -0.048960082 8.6694861e-39 304 279
-0.0188308 0.71600002 -0.048960082 8.3929034e-39 305 279
-0.017526319 0.71399999 -0.048823316 8.3929034e-39 306 279
-0.016274439 0.71399999 -0.048823316 8.3007092e-39 307 279
-0.015001519 0.713 -0.048754938 8.4840214e-39 308 279
-0.013751393 0.713 -0.048754938 8.3918272e-39 309 279
-0.0124662 0.71100003 -0.048618179 8.115962e-39 310 279
-0.01121958 0.71100003 -0.048618179 8.115962e-39 311 279
-0.0099729598 0.71100003 -0.048618179 8.1148858e-39 312 279
-0.0087263398 0.71100003 -0.048618179 8.1148858e-39 313 279
-0.0074797203 0.71100003 -0.048618179 8.1148858e-39 314 279
-0.0062330998 0.71100003 -0.048618179 8.1148858e-39 315 279
-0.0049864799 0.71100003 -0.048618179 7.9312148e-39 316 279
-0.0037398601 0.71100003 -0.048618179 7.7471851e-39 317 279
-0.0024932399 0.71100003 -0.048618179 7.7468263e-39 318 279
-0.00124662 0.71100003 -0.048618179 7.6546321e-39 319 279
0 0.713 -0.048754938 7.9301386e-39 320 279
0.00125188 0.71399999 -0.048823316 7.7453914e-39 321 279
0.0025107733 0.71600002 -0.048960082 7.7453914e-39 322 279
0.0037556398 0.71399999 -0.048823316 7.5613617e-39 323 279
0.0050075199 0.71399999 -0.048823316 7.3773319e-39 324 279
0.0062593995 0.71399999 -0.048823316 7.2851377e-39 325 279
0.00753232 0.71600002 -0.048960082 7.2840615e-39 326 279
0.0087877065 0.71600002 -0.048960082 7.2840615e-39 327 279
0.010043093 0.71600002 -0.048960082 7.008555e-39 328 279
0.01129848 0.71600002 -0.048960082 7.008555e-39 329 279
0.0125714 0.71700001 -0.04902846 7.4670179e-39 330 279
0.013867113 0.71899998 -0.049165215 7.4670179e-39 331 279
0.01512776 0.71899998 -0.049165215 7.2830035e-39 332 279
0.016388407 0.71899998 -0.049165215 7.3751992e-39 333 279
0.017649053 0.71899998 -0.049165215 7.8326026e-39 334 279
0.0189886 0.722 -0.04937036 8.477972e-39 335 279
-0.027657079 0.71700001 -0.0502856 9.0375581e-39 298 280
-0.02639994 0.71700001 -0.0502856 8.8528081e-39 299 280
-0.0251428 0.71700001 -0.0502856 9.0364735e-39 300 280
-0.02388566 0.71700001 -0.0502856 8.7602468e-39 301 280
-0.02262852 0.71700001 -0.0502856 8.6687686e-39 302 280
-0.021371379 0.71700001 -0.0502856 8.6687686e-39 303 280
-0.020114239 0.71700001 -0.0502856 8.3932621e-39 304 280
-0.0188308 0.71600002 -0.050215468 8.3010679e-39 305 280
-0.017575413 0.71600002 -0.050215468 8.5762157e-39 306 280
-0.016320027 0.71600002 -0.050215468 8.4840214e-39 307 280
-0.015022559 0.71399999 -0.050075196 8.3918272e-39 308 280
-0.013751393 0.713 -0.050005067 8.3918272e-39 309 280
-0.012501267 0.713 -0.050005067 8.1156032e-39 310 280
-0.011251139 0.713 -0.050005067 8.023409e-39 311 280
-0.0099729598 0.71100003 -0.049864799 8.023409e-39 312 280
-0.0087263398 0.71100003 -0.049864799 8.023409e-39 313 280
-0.0075007593 0.713 -0.050005067 8.023409e-39 314 280
-0.0062506334 0.713 -0.050005067 7.9312148e-39 315 280
-0.0050005065 0.713 -0.050005067 8.0226915e-39 316 280
-0.0037503797 0.713 -0.050005067 7.9301386e-39 317 280
-0.0025002533 0.713 -0.050005067 7.6546321e-39 318 280
-0.00125188 0.71399999 -0.050075196 7.6546321e-39 319 280
0 0.71600002 -0.050215468 7.3784081e-39 320 280
0.0012553866 0.71600002 -0.050215468 7.3784081e-39 321 280
0.0025107733 0.71600002 -0.050215468 7.5610029e-39 322 280
0.00376616 0.71600002 -0.050215468 7.5610029e-39 323 280
0.0050215465 0.71600002 -0.050215468 7.4688087e-39 324 280
0.0062769335 0.71600002 -0.050215468 7.3766145e-39 325 280
0.00753232 0.71600002 -0.050215468 7.2840615e-39 326 280
0.0087877065 0.71600002 -0.050215468 7.1915086e-39 327 280
0.010043093 0.71600002 -0.050215468 7.0081977e-39 328 280
0.01131426 0.71700001 -0.0502856 6.9160021e-39 329 280
0.012606465 0.71899998 -0.050425861 7.0078418e-39 330 280
0.013924973 0.722 -0.050636265 7.1003961e-39 331 280
0.0151488 0.72000003 -0.050496001 7.2826532e-39 332 280
0.0164112 0.72000003 -0.050496001 7.1904562e-39 333 280
-0.02647358 0.71899998 -0.05168651 8.8528264e-39 299 281
-0.0251428 0.71700001 -0.051542737 9.1283188e-39 300 281
-0.02388566 0.71700001 -0.051542737 9.0361232e-39 301 281
-0.02262852 0.71700001 -0.051542737 8.4851018e-39 302 281
-0.021371379 0.71700001 -0.051542737 8.3929048e-39 303 281
-0.020170346 0.71899998 -0.05168651 8.3007092e-39 304 281
-0.018857099 0.71700001 -0.051542737 8.3007092e-39 305 281
-0.017599959 0.71700001 -0.051542737 8.3003504e-39 306 281
-0.016320027 0.71600002 -0.051470853 8.3003504e-39 307 281
-0.01506464 0.71600002 -0.051470853 8.2999917e-39 308 281
-0.013809253 0.71600002 -0.051470853 8.2077975e-39 309 281
-0.012518799 0.71399999 -0.05132708 8.1156032e-39 310 281
-0.011266919 0.71399999 -0.05132708 8.0230503e-39 311 281
-0.01001504 0.71399999 -0.05132708 7.9308561e-39 312 281
-0.0087631596 0.71399999 -0.05132708 7.9308561e-39 313 281
-0.0075112795 0.71399999 -0.05132708 7.7468263e-39 314 281
-0.0062593995 0.71399999 -0.05132708 7.7468263e-39 315 281
-0.0050075199 0.71399999 -0.05132708 7.7464676e-39 316 281
-0.0037556398 0.71399999 -0.05132708 7.6542734e-39 317 281
-0.0025037599 0.71399999 -0.05132708 7.6542734e-39 318 281
-0.0012553866 0.71600002 -0.051470853 7.6542734e-39 319 281
0 0.71600002 -0.051470853 7.5617204e-39 320 281
0.0012553866 0.71600002 -0.051470853 7.4695262e-39 321 281
0.0025107733 0.71600002 -0.051470853 7.4695262e-39 322 281
0.00376616 0.71600002 -0.051470853 7.3773319e-39 323 281
0.0050215465 0.71600002 -0.051470853 7.3762586e-39 324 281
0.0062769335 0.71600002 -0.051470853 7.2840615e-39 325 281
0.0075428397 0.71700001 -0.051542737 7.190438e-39 326 281
0.0087877065 0.71600002 -0.051470853 7.2826336e-39 327 281
0.010043093 0.71600002 -0.051470853 6.9156517e-39 328 281
0.01131426 0.71700001 -0.051542737 6.9156517e-39 329 281
0.012624 0.72000003 -0.051758397 6.9152986e-39 330 281
0.01394426 0.72299999 -0.051974058 6.823103e-39 331 281
0.015211919 0.72299999 -0.051974058 7.0975543e-39 332 281
-0.025212931 0.71899998 -0.05294716 9.496758e-39 300 282
-0.023952285 0.71899998 -0.05294716 8.8513886e-39 301 282
-0.022691639 0.71899998 -0.05294716 8.4847543e-39 302 282
-0.021430992 0.71899998 -0.05294716 8.3925587e-39 303 282
-0.020198401 0.72000003 -0.053020801 8.0244922e-39 304 282
-0.018909698 0.71899998 -0.05294716 8.0244922e-39 305 282
-0.017649053 0.71899998 -0.05294716 8.2081576e-39 306 282
-0.016342819 0.71700001 -0.052799881 8.2081576e-39 307 282
-0.015085679 0.71700001 -0.052799881 8.2074415e-39 308 282
-0.013809253 0.71600002 -0.052726239 8.1152459e-39 309 282
-0.012553867 0.71600002 -0.052726239 7.839738e-39 310 282
-0.01129848 0.71600002 -0.052726239 7.7471851e-39 311 282
-0.010043093 0.71600002 -0.052726239 7.5638728e-39 312 282
-0.0087877065 0.71600002 -0.052726239 7.4716786e-39 313 282
-0.00753232 0.71600002 -0.052726239 7.5624379e-39 314 282
-0.0062769335 0.71600002 -0.052726239 7.5624379e-39 315 282
-0.0050215465 0.71600002 -0.052726239 7.5620847e-39 316 282
-0.00376616 0.71600002 -0.052726239 7.5620847e-39 317 282
-0.0025107733 0.71600002 -0.052726239 7.5624407e-39 318 282
-0.0012553866 0.71600002 -0.052726239 7.3784095e-39 319 282
0 0.71600002 -0.052726239 7.4695262e-39 320 282
0.00125714 0.71700001 -0.052799881 7.3773319e-39 321 282
0.0025142799 0.71700001 -0.052799881 7.1936624e-39 322 282
0.00376616 0.71600002 -0.052726239 7.1014667e-39 323 282
0.0050215465 0.71600002 -0.052726239 7.2837056e-39 324 282
0.0062769335 0.71600002 -0.052726239 7.19151e-39 325 282
0.00753232 0.71600002 -0.052726239 7.098964e-39 326 282
0.0087877065 0.71600002 -0.052726239 7.098964e-39 327 282
0.010043093 0.71600002 -0.052726239 6.6394348e-39 328 282
-0.0239856 0.72000003 -0.054283202 8.7613762e-39 301 283
-0.022723202 0.72000003 -0.054283202 8.8521103e-39 302 283
-0.021460801 0.72000003 -0.054283202 8.5751647e-39 303 283
-0.020198401 0.72000003 -0.054283202 8.2078101e-39 304 283
-0.018935999 0.72000003 -0.054283202 8.023779e-39 305 283
-0.017673599 0.72000003 -0.054283202 8.0237733e-39 306 283
-0.016388407 0.71899998 -0.054207806 8.0237733e-39 307 283
-0.01512776 0.71899998 -0.054207806 7.8393849e-39 308 283
-0.013828539 0.71700001 -0.054057021 7.8393849e-39 309 283
-0.0125714 0.71700001 -0.054057021 7.471324e-39 310 283
-0.01131426 0.71700001 -0.054057021 7.471324e-39 311 283
-0.01005712 0.71700001 -0.054057021 7.1954574e-39 312 283
-0.0087999795 0.71700001 -0.054057021 7.1954574e-39 313 283
-0.0075428397 0.71700001 -0.054057021 7.3787753e-39 314 283
-0.0062857 0.71700001 -0.054057021 7.2865797e-39 315 283
-0.0050285598 0.71700001 -0.054057021 7.2862265e-39 316 283
-0.0037714199 0.71700001 -0.054057021 7.1940309e-39 317 283
-0.0025142799 0.71700001 -0.054057021 7.2858608e-39 318 283
-0.00125714 0.71700001 -0.054057021 7.2858608e-39 319 283
0 0.71700001 -0.054057021 7.3766215e-39 320 283
0.00125714 0.71700001 -0.054057021 7.2844259e-39 321 283
0.0025142799 0.71700001 -0.054057021 7.1003961e-39 322 283
0.00376616 0.71600002 -0.053981625 7.1003961e-39 323 283
0.0050215465 0.71600002 -0.053981625 7.0078446e-39 324 283
0.0062769335 0.71600002 -0.053981625 6.9156489e-39 325 283
0.00753232 0.71600002 -0.053981625 6.8231002e-39 326 283
0.0087877065 0.71600002 -0.053981625 6.7309046e-39 327 283
-0.0239856 0.72000003 -0.055545598 9.9581566e-39 301 284
-0.022723202 0.72000003 -0.055545598 9.3134794e-39 302 284
-0.021460801 0.72000003 -0.055545598 8.760307e-39 303 284
-0.020254506 0.722 -0.055699892 8.1152851e-39 304 284
-0.018935999 0.72000003 -0.055545598 8.0230881e-39 305 284
-0.017673599 0.72000003 -0.055545598 7.5649812e-39 306 284
-0.016388407 0.71899998 -0.055468451 7.2883943e-39 307 284
-0.01512776 0.71899998 -0.055468451 7.4709849e-39 308 284
-0.013867113 0.71899998 -0.055468451 7.3787893e-39 309 284
-0.0125714 0.71700001 -0.055314157 7.1029143e-39 310 284
-0.01131426 0.71700001 -0.055314157 7.1951099e-39 311 284
-0.01005712 0.71700001 -0.055314157 7.1025583e-39 312 284
-0.0087999795 0.71700001 -0.055314157 7.0103627e-39 313 284
-0.0075428397 0.71700001 -0.055314157 6.9181699e-39 314 284
-0.0062857 0.71700001 -0.055314157 6.9181699e-39 315 284
-0.0050425865 0.71899998 -0.055468451 6.9181699e-39 316 284
-0.0037714199 0.71700001 -0.055314157 6.8256155e-39 317 284
-0.0025142799 0.71700001 -0.055314157 6.9174482e-39 318 284
-0.0012606466 0.71899998 -0.055468451 6.9174482e-39 319 284
0 0.71899998 -0.055468451 7.1000416e-39 320 284
0.0012606466 0.71899998 -0.055468451 7.0078446e-39 321 284
0.0025142799 0.71700001 -0.055314157 6.9156517e-39 322 284
0.00376616 0.71600002 -0.055237014 6.9156517e-39 323 284
0.0050215465 0.71600002 -0.055237014 6.6397879e-39 324 284
0.0062769335 0.71600002 -0.055237014 6.5475923e-39 325 284
-0.022786319 0.722 -0.056965802 9.9592538e-39 302 285
-0.021520413 0.722 -0.056965802 9.2216888e-39 303 285
-0.020254506 0.722 -0.056965802 8.6684996e-39 304 285
-0.0189886 0.722 -0.056965802 8.3919127e-39 305 285
-0.017722692 0.722 -0.056965802 8.3911616e-39 306 285
-0.0164112 0.72000003 -0.056808002 7.9305422e-39 307 285
-0.01512776 0.71899998 -0.056729097 7.4706178e-39 308 285
-0.013867113 0.71899998 -0.056729097 7.3784222e-39 309 285
-0.0125714 0.71700001 -0.056571297 7.2862293e-39 310 285
-0.01131426 0.71700001 -0.056571297 7.2862293e-39 311 285
-0.010085173 0.71899998 -0.056729097 6.9185328e-39 312 285
-0.0088245263 0.71899998 -0.056729097 6.7345017e-39 313 285
