# .PCD v.7 - Point Cloud Data file format
FIELDS x y z rgb imX imY
SIZE 4 4 4 4 4 4
TYPE F F F F F F
COUNT 1 1 1 1 1 1
WIDTH 840
HEIGHT 1
VIEWPOINT 0 0 0 1 0 0 0
POINTS 840
DATA ascii
-0.0063295332 0.722 -0.026584039 8.756354e-39 315 261
-0.0050636264 0.722 -0.026584039 8.0205686e-39 316 261
-0.0037977197 0.722 -0.026584039 7.3751992e-39 317 261
-0.0025353199 0.72299999 -0.026620859 7.1911596e-39 318 261
-0.0012676599 0.72299999 -0.026620859 6.8223785e-39 319 261
0 0.72299999 -0.026620859 6.9134909e-39 320 261
0.0012676599 0.72299999 -0.026620859 6.820938e-39 321 261
0.0025353199 0.72299999 -0.026620859 6.8223729e-39 322 261
0.0038135003 0.72500002 -0.026694499 6.9145671e-39 323 261
0.0050846669 0.72500002 -0.026694499 7.0971619e-39 324 261
0.0063558333 0.72500002 -0.026694499 6.8205793e-39 325 261
0.0076270006 0.72500002 -0.026694499 6.5454315e-39 326 261
0.0089227129 0.727 -0.026768139 6.4532373e-39 327 261
0.010197386 0.727 -0.026768139 6.4532373e-39 328 261
0.01148784 0.72799999 -0.026804959 6.4532373e-39 329 261
0.012764266 0.72799999 -0.026804959 6.2684901e-39 330 261
0.014021406 0.727 -0.026768139 6.2684901e-39 331 261
0.015296079 0.727 -0.026768139 6.0851778e-39 332 261
0.016570752 0.727 -0.026768139 6.0851778e-39 333 261
0.017796334 0.72500002 -0.026694499 5.9029418e-39 334 261
0.019014901 0.72299999 -0.026620859 6.2720788e-39 335 261
0.020282559 0.72299999 -0.026620859 6.640504e-39 336 261
0.021520413 0.722 -0.026584039 6.8248967e-39 337 261
0.022723202 0.72000003 -0.026510401 7.1003961e-39 338 261
0.02388566 0.71700001 -0.02639994 7.1003961e-39 339 261
0.025107734 0.71600002 -0.026363119 7.0993143e-39 340 261
0.026289478 0.71399999 -0.026289478 6.7308962e-39 341 261
0.02754136 0.71399999 -0.026289478 6.8223729e-39 342 261
0.028793238 0.71399999 -0.026289478 6.9145671e-39 343 261
0.030045118 0.71399999 -0.026289478 7.4655801e-39 344 261
0.031296998 0.71399999 -0.026289478 7.6499686e-39 345 261
0.032548878 0.71399999 -0.026289478 8.018028e-39 346 261
0.033800758 0.71399999 -0.026289478 8.018028e-39 347 261
0.035052639 0.71399999 -0.026289478 8.1084286e-39 348 261
0.036406212 0.71600002 -0.026363119 8.1084286e-39 349 261
0.037661601 0.71600002 -0.026363119 7.8318459e-39 350 261
0.038808275 0.71399999 -0.026289478 7.9240401e-39 351 261
0.040060159 0.71399999 -0.026289478 8.1070049e-39 352 261
0.041427758 0.71600002 -0.026363119 8.1070049e-39 353 261
0.042683143 0.71600002 -0.026363119 7.9226332e-39 354 261
0.043938532 0.71600002 -0.026363119 7.9226332e-39 355 261
0.045193922 0.71600002 -0.026363119 7.5542235e-39 356 261
0.046514176 0.71700001 -0.02639994 7.0928852e-39 357 261
0.04777132 0.71700001 -0.02639994 8.0184638e-39 358 261
-0.010127253 0.722 -0.027849946 1.2071456e-38 312 262
-0.0088613462 0.722 -0.027849946 9.9509567e-39 313 262
-0.0075743999 0.72000003 -0.027772799 8.204234e-39 314 262
-0.0063120001 0.72000003 -0.027772799 7.7436146e-39 315 262
-0.0050496003 0.72000003 -0.027772799 7.7425215e-39 316 262
-0.0037872 0.72000003 -0.027772799 7.3741034e-39 317 262
-0.0025318132 0.722 -0.027849946 7.1904324e-39 318 262
-0.0012659066 0.722 -0.027849946 6.9138497e-39 319 262
0 0.722 -0.027849946 6.820938e-39 320 262
0.0012659066 0.722 -0.027849946 6.7287438e-39 321 262
0.0025353199 0.72299999 -0.02788852 6.7294612e-39 322 262
0.0038029798 0.72299999 -0.02788852 6.8216554e-39 323 262
0.0050706398 0.72299999 -0.02788852 7.0049677e-39 324 262
0.0063558333 0.72500002 -0.027965667 6.728385e-39 325 262
0.0076270006 0.72500002 -0.027965667 6.6358321e-39 326 262
0.0089227129 0.727 -0.028042812 6.4510849e-39 327 262
0.010197386 0.727 -0.028042812 6.2674139e-39 328 262
0.01147206 0.727 -0.028042812 6.2674139e-39 329 262
0.012746733 0.727 -0.028042812 6.1752197e-39 330 262
0.014021406 0.727 -0.028042812 6.2674139e-39 331 262
0.015296079 0.727 -0.028042812 5.9926249e-39 332 262
0.016525166 0.72500002 -0.027965667 6.177372e-39 333 262
0.017796334 0.72500002 -0.027965667 5.9944185e-39 334 262
0.019014901 0.72299999 -0.02788852 6.3628423e-39 335 262
0.020254506 0.722 -0.027849946 6.6379999e-39 336 262
0.021520413 0.722 -0.027849946 6.8227499e-39 337 262
0.022691639 0.71899998 -0.027734226 6.9156644e-39 338 262
0.02378572 0.71399999 -0.02754136 6.9156644e-39 339 262
0.025002534 0.713 -0.027502786 6.9156489e-39 340 262
0.026252659 0.713 -0.027502786 6.6387033e-39 341 262
0.027502786 0.713 -0.027502786 6.8212967e-39 342 262
0.028752912 0.713 -0.027502786 6.9134909e-39 343 262
0.030003037 0.713 -0.027502786 7.7403691e-39 344 262
0.031253166 0.713 -0.027502786 8.2013403e-39 345 262
0.032503292 0.713 -0.027502786 8.110581e-39 346 262
0.033753417 0.713 -0.027502786 8.110581e-39 347 262
0.035003547 0.713 -0.027502786 8.1084286e-39 348 262
0.036253672 0.713 -0.027502786 8.0158756e-39 349 262
0.037556399 0.71399999 -0.02754136 8.0144407e-39 350 262
0.038808275 0.71399999 -0.02754136 8.0144407e-39 351 262
0.040060159 0.71399999 -0.02754136 7.9222549e-39 352 262
0.041312039 0.71399999 -0.02754136 8.0144505e-39 353 262
0.042563915 0.71399999 -0.02754136 8.0144561e-39 354 262
0.043938532 0.71600002 -0.027618507 7.9222605e-39 355 262
0.045193922 0.71600002 -0.027618507 7.9208382e-39 356 262
0.046449307 0.71600002 -0.027618507 7.5520556e-39 357 262
0.047704693 0.71600002 -0.027618507 6.2653021e-39 358 262
0.04902846 0.71700001 -0.027657079 8.293606e-39 359 262
-0.010099201 0.72000003 -0.029035201 1.0230065e-38 312 263
-0.0088367993 0.72000003 -0.029035201 9.5846951e-39 313 263
-0.0075743999 0.72000003 -0.029035201 9.6765012e-39 314 263
-0.0063032326 0.71899998 -0.028994869 9.6765012e-39 315 263
-0.0050425865 0.71899998 -0.028994869 9.6725145e-39 316 263
-0.0037872 0.72000003 -0.029035201 8.5661711e-39 317 263
-0.0025212932 0.71899998 -0.028994869 6.9145671e-39 318 263
-0.0012606466 0.71899998 -0.028994869 6.546149e-39 319 263
0 0.72000003 -0.029035201 6.5439966e-39 320 263
0.0012624001 0.72000003 -0.029035201 6.5439966e-39 321 263
0.0025248001 0.72000003 -0.029035201 6.3606843e-39 322 263
0.0037977197 0.722 -0.029115854 6.6369083e-39 323 263
0.0050706398 0.72299999 -0.029156178 6.6369083e-39 324 263
0.0063382997 0.72299999 -0.029156178 6.3606843e-39 325 263
0.0076059597 0.72299999 -0.029156178 6.3588906e-39 326 263
0.0088981669 0.72500002 -0.029236834 6.1748609e-39 327 263
0.010169334 0.72500002 -0.029236834 6.0826667e-39 328 263
0.01147206 0.727 -0.029317487 6.0826667e-39 329 263
0.012746733 0.727 -0.029317487 6.0826667e-39 330 263
0.014021406 0.727 -0.029317487 6.0826667e-39 331 263
0.015296079 0.727 -0.029317487 5.9000719e-39 332 263
0.016525166 0.72500002 -0.029236834 6.0844604e-39 333 263
0.017796334 0.72500002 -0.029236834 6.0851792e-39 334 263
0.019014901 0.72299999 -0.029156178 6.2699292e-39 335 263
0.020254506 0.722 -0.029115854 6.3617717e-39 336 263
0.021460801 0.72000003 -0.029035201 6.6379999e-39 337 263
0.022596961 0.71600002 -0.028873893 6.6394376e-39 338 263
0.023752406 0.713 -0.028752912 6.6394376e-39 339 263
0.025002534 0.713 -0.028752912 6.7301829e-39 340 263
0.026179021 0.71100003 -0.028672259 6.453596e-39 341 263
0.027425639 0.71100003 -0.028672259 6.6369083e-39 342 263
0.028672259 0.71100003 -0.028672259 6.8212967e-39 343 263
0.029918881 0.71100003 -0.028672259 7.8325634e-39 344 263
0.031165501 0.71100003 -0.028672259 8.477923e-39 345 263
0.032412119 0.71100003 -0.028672259 8.3860875e-39 346 263
0.033658739 0.71100003 -0.028672259 8.201699e-39 347 263
0.034905359 0.71100003 -0.028672259 8.1999054e-39 348 263
0.036253672 0.713 -0.028752912 8.0151582e-39 349 263
0.037503798 0.713 -0.028752912 7.9222465e-39 350 263
0.038753927 0.713 -0.028752912 7.9222465e-39 351 263
0.040004052 0.713 -0.028752912 7.9226108e-39 352 263
0.041254178 0.713 -0.028752912 7.9226108e-39 353 263
0.042563915 0.71399999 -0.028793238 7.9222605e-39 354 263
0.043815799 0.71399999 -0.028793238 7.7378706e-39 355 263
0.045193922 0.71600002 -0.028873893 7.7371672e-39 356 263
0.046449307 0.71600002 -0.028873893 7.4605789e-39 357 263
0.047704693 0.71600002 -0.028873893 6.9067059e-39 358 263
0.04902846 0.71700001 -0.028914221 7.3673239e-39 359 263
0.0502856 0.71700001 -0.028914221 1.0597786e-38 360 263
-0.012624 0.72000003 -0.0302976 1.2532078e-38 310 264
-0.011361601 0.72000003 -0.0302976 1.0688525e-38 311 264
-0.010099201 0.72000003 -0.0302976 9.1247918e-39 312 264
-0.0088367993 0.72000003 -0.0302976 9.8623582e-39 313 264
-0.0075743999 0.72000003 -0.0302976 1.0874355e-38 314 264
-0.0063032326 0.71899998 -0.030255521 1.1150942e-38 315 264
-0.0050425865 0.71899998 -0.030255521 1.0962568e-38 316 264
-0.0037819401 0.71899998 -0.030255521 8.9342642e-39 317 264
-0.0025212932 0.71899998 -0.030255521 6.7308962e-39 318 264
-0.0012606466 0.71899998 -0.030255521 6.4539547e-39 319 264
0 0.71899998 -0.030255521 6.2684901e-39 320 264
0.0012606466 0.71899998 -0.030255521 6.2684901e-39 321 264
0.0025248001 0.72000003 -0.0302976 6.1766546e-39 322 264
0.0037977197 0.722 -0.030381758 6.2688488e-39 323 264
0.0050636264 0.722 -0.030381758 6.2688488e-39 324 264
0.0063295332 0.722 -0.030381758 6.1762958e-39 325 264
0.0076059597 0.72299999 -0.030423839 6.0830254e-39 326 264
0.0088736191 0.72299999 -0.030423839 5.9908312e-39 327 264
0.010169334 0.72500002 -0.030508002 5.8071602e-39 328 264
0.01147206 0.727 -0.030592158 5.8071602e-39 329 264
0.012746733 0.727 -0.030592158 6.0826667e-39 330 264
0.014021406 0.727 -0.030592158 6.0826667e-39 331 264
0.015296079 0.727 -0.030592158 5.8989957e-39 332 264
0.016525166 0.72500002 -0.030508002 6.1755826e-39 333 264
0.017796334 0.72500002 -0.030508002 6.1777336e-39 334 264
0.019014901 0.72299999 -0.030423839 6.2699292e-39 335 264
0.020254506 0.722 -0.030381758 6.8209464e-39 336 264
0.021460801 0.72000003 -0.0302976 6.9135008e-39 337 264
0.022596961 0.71600002 -0.03012928 6.6379999e-39 338 264
0.023652466 0.70999998 -0.029876797 6.6379999e-39 339 264
0.024897331 0.70999998 -0.029876797 6.5450728e-39 340 264
0.026142199 0.70999998 -0.029876797 6.5450728e-39 341 264
0.027387066 0.70999998 -0.029876797 6.912056e-39 342 264
0.028631933 0.70999998 -0.029876797 7.3730272e-39 343 264
0.029876797 0.70999998 -0.029876797 8.292817e-39 344 264
0.031165501 0.71100003 -0.029918881 8.7537882e-39 345 264
0.032412119 0.71100003 -0.029918881 8.5686823e-39 346 264
0.033658739 0.71100003 -0.029918881 8.3842938e-39 347 264
0.034905359 0.71100003 -0.029918881 8.0158756e-39 348 264
0.036151983 0.71100003 -0.029918881 7.7396517e-39 349 264
0.037398599 0.71100003 -0.029918881 7.64674e-39 350 264
0.038645219 0.71100003 -0.029918881 7.7389342e-39 351 264
0.039891839 0.71100003 -0.029918881 7.6467442e-39 352 264
0.041138459 0.71100003 -0.029918881 7.7392986e-39 353 264
0.042385083 0.71100003 -0.029918881 7.4630788e-39 354 264
0.043754432 0.713 -0.030003037 7.5556332e-39 355 264
0.045067675 0.71399999 -0.030045118 7.6453247e-39 356 264
0.046449307 0.71600002 -0.03012928 7.460932e-39 357 264
0.047704693 0.71600002 -0.03012928 7.0903684e-39 358 264
0.048960082 0.71600002 -0.03012928 6.8141403e-39 359 264
0.0502856 0.71700001 -0.030171359 8.9389782e-39 360 264
0.051542737 0.71700001 -0.030171359 1.1335706e-38 361 264
-0.0138864 0.72000003 -0.03156 1.2623208e-38 309 265
-0.012624 0.72000003 -0.03156 1.0322263e-38 310 265
-0.011361601 0.72000003 -0.03156 1.0137872e-38 311 265
-0.010099201 0.72000003 -0.03156 9.7701612e-39 312 265
-0.0088245263 0.71899998 -0.031516165 1.0138585e-38 313 265
-0.0075638802 0.71899998 -0.031516165 1.0781083e-38 314 265
-0.0063032326 0.71899998 -0.031516165 1.105803e-38 315 265
-0.0050285598 0.71700001 -0.031428497 1.0596676e-38 316 265
-0.0037714199 0.71700001 -0.031428497 8.8449595e-39 317 265
-0.0025142799 0.71700001 -0.031428497 6.2720788e-39 318 265
-0.0012553866 0.71600002 -0.031384666 5.9029418e-39 319 265
0 0.71600002 -0.031384666 6.0866127e-39 320 265
0.0012553866 0.71600002 -0.031384666 5.8100301e-39 321 265
0.0025142799 0.71700001 -0.031428497 6.1762958e-39 322 265
0.0037714199 0.71700001 -0.031428497 6.2688488e-39 323 265
0.0050496003 0.72000003 -0.03156 6.1759371e-39 324 265
0.0063120001 0.72000003 -0.03156 5.8997132e-39 325 265
0.0075954394 0.722 -0.031647664 5.9893963e-39 326 265
0.0088736191 0.72299999 -0.031691495 5.897202e-39 327 265
0.01014128 0.72299999 -0.031691495 5.8979195e-39 328 265
0.0114405 0.72500002 -0.031779166 5.8979195e-39 329 265
0.012746733 0.727 -0.03186683 6.0815947e-39 330 265
0.014021406 0.727 -0.03186683 6.1737903e-39 331 265
0.015296079 0.727 -0.03186683 5.9919172e-39 332 265
0.016570752 0.727 -0.03186683 6.3603396e-39 333 265
0.017845426 0.727 -0.03186683 6.3628451e-39 334 265
0.019014901 0.72299999 -0.031691495 6.5472364e-39 335 265
0.019749546 0.704 -0.030858666 6.7301857e-39 336 265
0.020983893 0.704 -0.030858666 6.7301857e-39 337 265
0.022218239 0.704 -0.030858666 6.6372698e-39 338 265
0.023519212 0.70599997 -0.030946331 6.4525198e-39 339 265
0.024757065 0.70599997 -0.030946331 6.728385e-39 340 265
0.025994917 0.70599997 -0.030946331 7.004609e-39 341 265
0.027271347 0.70700002 -0.030990168 7.7421628e-39 342 265
0.02855128 0.708 -0.031034 8.2953282e-39 343 265
0.02979264 0.708 -0.031034 8.8466999e-39 344 265
0.031034 0.708 -0.031034 8.4782817e-39 345 265
0.03227536 0.708 -0.031034 8.5679648e-39 346 265
0.033516716 0.708 -0.031034 8.2913821e-39 347 265
0.034758076 0.708 -0.031034 7.8307697e-39 348 265
0.035948593 0.70700002 -0.030990168 7.7385755e-39 349 265
0.037188202 0.70700002 -0.030990168 7.5545458e-39 350 265
0.038427804 0.70700002 -0.030990168 7.5545458e-39 351 265
0.039723519 0.708 -0.031034 7.6470987e-39 352 265
0.040964879 0.708 -0.031034 7.6470987e-39 353 265
0.042325463 0.70999998 -0.031121666 7.5556304e-39 354 265
0.043631699 0.71100003 -0.031165501 7.4634347e-39 355 265
0.045004558 0.713 -0.031253166 7.5538451e-39 356 265
0.046319555 0.71399999 -0.031296998 7.1854213e-39 357 265
0.047571439 0.71399999 -0.031296998 7.2751128e-39 358 265
0.048960082 0.71600002 -0.031384666 6.7219391e-39 359 265
0.050215468 0.71600002 -0.031384666 6.6340804e-39 360 265
0.051542737 0.71700001 -0.031428497 9.6765376e-39 361 265
0.052799881 0.71700001 -0.031428497 1.2809042e-38 362 265
-0.015085679 0.71700001 -0.032685637 1.3269649e-38 308 266
-0.0138864 0.72000003 -0.0328224 1.179416e-38 309 266
-0.012624 0.72000003 -0.0328224 9.4924995e-39 310 266
-0.01134582 0.71899998 -0.032776814 9.8609219e-39 311 266
-0.010085173 0.71899998 -0.032776814 1.0045686e-38 312 266
-0.0088245263 0.71899998 -0.032776814 9.5847077e-39 313 266
-0.0075428397 0.71700001 -0.032685637 9.770178e-39 314 266
-0.0062857 0.71700001 -0.032685637 9.9545693e-39 315 266
-0.0050285598 0.71700001 -0.032685637 9.8616309e-39 316 266
-0.00376616 0.71600002 -0.032640055 8.7552848e-39 317 266
-0.0025107733 0.71600002 -0.032640055 6.2745983e-39 318 266
-0.00125188 0.71399999 -0.032548878 5.9054571e-39 319 266
0 0.71399999 -0.032548878 5.9944185e-39 320 266
0.00125188 0.71399999 -0.032548878 5.9944185e-39 321 266
0.0025107733 0.71600002 -0.032640055 6.2688488e-39 322 266
0.00376616 0.71600002 -0.032640055 6.3614018e-39 323 266
0.0050075199 0.71399999 -0.032548878 6.3599668e-39 324 266
0.0062593995 0.71399999 -0.032548878 6.2677726e-39 325 266
0.0075428397 0.71700001 -0.032685637 6.4503674e-39 326 266
0.0088613462 0.722 -0.032913569 6.3581732e-39 327 266
0.01014128 0.72299999 -0.032959159 6.3581732e-39 328 266
0.0114405 0.72500002 -0.033050332 6.5425616e-39 329 266
0.012746733 0.727 -0.033141505 6.8180681e-39 330 266
0.014021406 0.727 -0.033141505 7.0942921e-39 331 266
0.01531712 0.72799999 -0.033187091 7.0042502e-39 332 266
0.016023712 0.70300001 -0.032047424 7.2811917e-39 333 266
0.017256306 0.70300001 -0.032047424 7.4677325e-39 334 266
0.018488899 0.70300001 -0.032047424 7.2833441e-39 335 266
0.019721493 0.70300001 -0.032047424 7.6496098e-39 336 266
0.020954086 0.70300001 -0.032047424 7.4648627e-39 337 266
0.022218239 0.704 -0.032093015 7.371951e-39 338 266
0.023452586 0.704 -0.032093015 7.371951e-39 339 266
0.024686933 0.704 -0.032093015 7.4648627e-39 340 266
0.02592128 0.704 -0.032093015 8.018028e-39 341 266
0.027232772 0.70599997 -0.032184184 8.9367417e-39 342 266
0.028470624 0.70599997 -0.032184184 9.0289359e-39 343 266
0.029708479 0.70599997 -0.032184184 8.9367417e-39 344 266
0.030990168 0.70700002 -0.032229774 8.5683235e-39 345 266
0.032229774 0.70700002 -0.032229774 8.2910234e-39 346 266
0.033469379 0.70700002 -0.032229774 8.1988292e-39 347 266
0.034708988 0.70700002 -0.032229774 7.7382167e-39 348 266
0.035897743 0.70599997 -0.032184184 7.7382167e-39 349 266
0.037135597 0.70599997 -0.032184184 7.279398e-39 350 266
0.038427804 0.70700002 -0.032229774 7.3715922e-39 351 266
0.039667413 0.70700002 -0.032229774 7.3712363e-39 352 266
0.040907022 0.70700002 -0.032229774 7.4634319e-39 353 266
0.042206239 0.708 -0.03227536 7.4630788e-39 354 266
0.043570329 0.70999998 -0.032366529 7.4630788e-39 355 266
0.044878319 0.71100003 -0.032412119 7.5534808e-39 356 266
0.046254687 0.713 -0.032503292 7.3687308e-39 357 266
0.047571439 0.71399999 -0.032548878 7.0917978e-39 358 266
0.048960082 0.71600002 -0.032640055 6.7230138e-39 359 266
0.050215468 0.71600002 -0.032640055 5.6188369e-39 360 266
0.051542737 0.71700001 -0.032685637 7.6471408e-39 361 266
0.052799881 0.71700001 -0.032685637 1.1979273e-38 362 266
0.054057021 0.71700001 -0.032685637 1.290159e-38 363 266
-0.015085679 0.71700001 -0.033942781 1.197856e-38 308 267
-0.013828539 0.71700001 -0.033942781 1.0687821e-38 309 267
-0.0125714 0.71700001 -0.033942781 9.6754642e-39 310 267
-0.01131426 0.71700001 -0.033942781 9.9520511e-39 311 267
-0.01005712 0.71700001 -0.033942781 9.675837e-39 312 267
-0.0087999795 0.71700001 -0.033942781 9.2144987e-39 313 267
-0.0075428397 0.71700001 -0.033942781 9.4914457e-39 314 267
-0.0062769335 0.71600002 -0.03389544 1.0229011e-38 315 267
-0.0050215465 0.71600002 -0.03389544 9.7705255e-39 316 267
-0.0037556398 0.71399999 -0.033800758 8.4797867e-39 317 267
-0.0025037599 0.71399999 -0.033800758 5.907255e-39 318 267
-0.0012501266 0.713 -0.033753417 5.2618869e-39 319 267
0 0.713 -0.033753417 6.0866127e-39 320 267
0.0012501266 0.713 -0.033753417 6.0866127e-39 321 267
0.0025002533 0.713 -0.033753417 6.3621192e-39 322 267
0.0037398601 0.71100003 -0.033658739 6.5465077e-39 323 267
0.0049864799 0.71100003 -0.033658739 6.3631954e-39 324 267
0.0062330998 0.71100003 -0.033658739 6.4553911e-39 325 267
0.0074797203 0.71100003 -0.033658739 6.6379845e-39 326 267
0.0087140659 0.70999998 -0.033611398 6.6379845e-39 327 267
0.0099589331 0.70999998 -0.033611398 6.7316136e-39 328 267
0.01147206 0.727 -0.03441618 6.8238078e-39 329 267
0.012378532 0.70599997 -0.033422034 7.1000318e-39 330 267
0.013616386 0.70599997 -0.033422034 7.192226e-39 331 267
0.014812159 0.704 -0.03332736 7.2851377e-39 332 267
0.016023712 0.70300001 -0.033280019 7.3773319e-39 333 267
0.017256306 0.70300001 -0.033280019 7.7446739e-39 334 267
0.018488899 0.70300001 -0.033280019 7.6524797e-39 335 267
0.019721493 0.70300001 -0.033280019 8.0187455e-39 336 267
0.020954086 0.70300001 -0.033280019 7.7425215e-39 337 267
0.02218668 0.70300001 -0.033280019 7.743239e-39 338 267
0.023419274 0.70300001 -0.033280019 7.8354332e-39 339 267
0.024651866 0.70300001 -0.033280019 8.6637464e-39 340 267
0.025884461 0.70300001 -0.033280019 9.216553e-39 341 267
0.027155625 0.704 -0.03332736 9.124e-39 342 267
0.028389972 0.704 -0.03332736 8.4786404e-39 343 267
0.029624319 0.704 -0.03332736 8.9349481e-39 344 267
0.030946331 0.70599997 -0.033422034 8.6583654e-39 345 267
0.032184184 0.70599997 -0.033422034 8.381424e-39 346 267
0.033422034 0.70599997 -0.033422034 8.2892297e-39 347 267
0.034659892 0.70599997 -0.033422034 7.3715922e-39 348 267
0.035897743 0.70599997 -0.033422034 7.279398e-39 349 267
0.037135597 0.70599997 -0.033422034 7.3712335e-39 350 267
0.038373452 0.70599997 -0.033422034 7.5552632e-39 351 267
0.039611302 0.70599997 -0.033422034 7.5549045e-39 352 267
0.040849157 0.70599997 -0.033422034 7.5549045e-39 353 267
0.042146627 0.70700002 -0.033469379 7.6460253e-39 354 267
0.043447599 0.708 -0.033516716 7.6460253e-39 355 267
0.044815198 0.70999998 -0.033611398 7.3701657e-39 356 267
0.046124939 0.71100003 -0.033658739 7.2779701e-39 357 267
0.047504812 0.713 -0.033753417 7.0925166e-39 358 267
0.048823316 0.71399999 -0.033800758 6.6318972e-39 359 267
0.050215468 0.71600002 -0.03389544 5.7092347e-39 360 267
0.051470853 0.71600002 -0.03389544 6.9999735e-39 361 267
0.052799881 0.71700001 -0.033942781 1.0228279e-38 362 267
0.054057021 0.71700001 -0.033942781 1.1980355e-38 363 267
-0.01506464 0.71600002 -0.035150826 1.1148441e-38 308 268
-0.013809253 0.71600002 -0.035150826 1.0410874e-38 309 268
-0.0125714 0.71700001 -0.035199918 9.6761929e-39 310 268
-0.01131426 0.71700001 -0.035199918 9.6761929e-39 311 268
-0.01005712 0.71700001 -0.035199918 9.3985438e-39 312 268
-0.0087877065 0.71600002 -0.035150826 9.03012e-39 313 268
-0.00753232 0.71600002 -0.035150826 9.1259058e-39 314 268
-0.0062593995 0.71399999 -0.035052639 1.0139699e-38 315 268
-0.0050075199 0.71399999 -0.035052639 9.4957337e-39 316 268
-0.0037503797 0.713 -0.035003547 7.9287667e-39 317 268
-0.0025002533 0.713 -0.035003547 5.9994534e-39 318 268
-0.00124662 0.71100003 -0.034905359 5.354084e-39 319 268
0 0.71100003 -0.034905359 6.178807e-39 320 268
0.00124662 0.71100003 -0.034905359 6.2710012e-39 321 268
0.0024932399 0.71100003 -0.034905359 6.7291025e-39 322 268
0.0037345996 0.70999998 -0.034856264 7.0060439e-39 323 268
0.0049794666 0.70999998 -0.034856264 7.0989556e-39 324 268
0.0062067998 0.708 -0.034758076 7.1911498e-39 325 268
0.0074481601 0.708 -0.034758076 7.3748208e-39 326 268
0.008689519 0.708 -0.034758076 7.559568e-39 327 268
0.0099028256 0.70599997 -0.034659892 7.8361507e-39 328 268
0.011140679 0.70599997 -0.034659892 7.8361507e-39 329 268
0.012343466 0.704 -0.034561705 8.0201804e-39 330 268
0.013577812 0.704 -0.034561705 8.1123746e-39 331 268
0.014791119 0.70300001 -0.034512613 8.4793579e-39 332 268
0.016023712 0.70300001 -0.034512613 8.5715521e-39 333 268
0.017256306 0.70300001 -0.034512613 8.9396116e-39 334 268
0.018436298 0.70099998 -0.034414422 8.8474174e-39 335 268
0.019665385 0.70099998 -0.034414422 9.0310883e-39 336 268
0.020894472 0.70099998 -0.034414422 9.1236413e-39 337 268
0.022123558 0.70099998 -0.034414422 9.3995065e-39 338 268
0.023352645 0.70099998 -0.034414422 9.4917008e-39 339 268
0.024581732 0.70099998 -0.034414422 9.8590427e-39 340 268
0.025810819 0.70099998 -0.034414422 9.5824601e-39 341 268
0.027039904 0.70099998 -0.034414422 9.3040837e-39 342 268
0.028268991 0.70099998 -0.034414422 9.027501e-39 343 268
0.029498078 0.70099998 -0.034414422 8.5668886e-39 344 268
0.030858666 0.704 -0.034561705 8.3828589e-39 345 268
0.032093015 0.704 -0.034561705 8.1988292e-39 346 268
0.03332736 0.704 -0.034561705 8.1066349e-39 347 268
0.034561705 0.704 -0.034561705 7.6474574e-39 348 268
0.035897743 0.70599997 -0.034659892 7.6474574e-39 349 268
0.037135597 0.70599997 -0.034659892 7.371951e-39 350 268
0.038373452 0.70599997 -0.034659892 7.2797567e-39 351 268
0.039611302 0.70599997 -0.034659892 7.370516e-39 352 268
0.040849157 0.70599997 -0.034659892 7.370516e-39 353 268
0.042087011 0.70599997 -0.034659892 7.370516e-39 354 268
0.043386232 0.70700002 -0.034708988 7.370516e-39 355 268
0.044688959 0.708 -0.034758076 7.2786861e-39 356 268
0.046060063 0.70999998 -0.034856264 7.0942949e-39 357 268
0.047371563 0.71100003 -0.034905359 7.275466e-39 358 268
0.048754938 0.713 -0.035003547 7.0910747e-39 359 268
0.050075196 0.71399999 -0.035052639 6.4460808e-39 360 268
0.051470853 0.71600002 -0.035150826 6.630112e-39 361 268
0.052726239 0.71600002 -0.035150826 9.1204856e-39 362 268
0.054057021 0.71700001 -0.035199918 1.1701963e-38 363 268
0.055314157 0.71700001 -0.035199918 1.3267494e-38 364 268
-0.016342819 0.71700001 -0.036457058 1.2991989e-38 307 269
-0.01506464 0.71600002 -0.036406212 1.0319759e-38 308 269
-0.013809253 0.71600002 -0.036406212 9.9509749e-39 309 269
-0.0125714 0.71700001 -0.036457058 9.5836413e-39 310 269
-0.01129848 0.71600002 -0.036406212 9.5836413e-39 311 269
-0.010043093 0.71600002 -0.036406212 9.0315564e-39 312 269
-0.0087877065 0.71600002 -0.036406212 8.8475238e-39 313 269
-0.0075112795 0.71399999 -0.036304519 9.4014109e-39 314 269
-0.0062506334 0.713 -0.036253672 1.0231532e-38 315 269
-0.0050005065 0.713 -0.036253672 9.312776e-39 316 269
-0.0037398601 0.71100003 -0.036151983 7.5610604e-39 317 269
-0.0024932399 0.71100003 -0.036151983 5.9998065e-39 318 269
-0.00124662 0.71100003 -0.036151983 5.4466341e-39 319 269
0 0.71100003 -0.036151983 6.3631954e-39 320 269
0.00124662 0.71100003 -0.036151983 6.4557484e-39 321 269
0.0024897333 0.70999998 -0.036101133 7.2819091e-39 322 269
0.00372408 0.708 -0.03599944 7.3744621e-39 323 269
0.0049654399 0.708 -0.03599944 7.559568e-39 324 269
0.0061980332 0.70700002 -0.035948593 7.6517622e-39 325 269
0.0074376399 0.70700002 -0.035948593 7.8361507e-39 326 269
0.008677247 0.70700002 -0.035948593 8.0205392e-39 327 269
0.0099028256 0.70599997 -0.035897743 8.1123746e-39 328 269
0.011109119 0.704 -0.035796054 8.1123746e-39 329 269
0.012343466 0.704 -0.035796054 8.5715521e-39 330 269
0.013558527 0.70300001 -0.035745207 8.6637464e-39 331 269
0.014749039 0.70099998 -0.035643511 8.8474174e-39 332 269
0.015978126 0.70099998 -0.035643511 9.0321645e-39 333 269
0.017207211 0.70099998 -0.035643511 9.216553e-39 334 269
0.018436298 0.70099998 -0.035643511 9.216553e-39 335 269
0.019637333 0.69999999 -0.035592664 9.5846124e-39 336 269
0.020864666 0.69999999 -0.035592664 1.0137419e-38 337 269
0.022123558 0.70099998 -0.035643511 1.0414363e-38 338 269
0.023352645 0.70099998 -0.035643511 1.0137419e-38 339 269
0.024581732 0.70099998 -0.035643511 9.8594015e-39 340 269
0.025810819 0.70099998 -0.035643511 9.2140419e-39 341 269
0.027001332 0.69999999 -0.035592664 9.1196952e-39 342 269
0.028228667 0.69999999 -0.035592664 8.9349481e-39 343 269
0.029455997 0.69999999 -0.035592664 8.3842938e-39 344 269
0.030683333 0.69999999 -0.035592664 8.2002641e-39 345 269
0.032047424 0.70300001 -0.035745207 8.1077111e-39 346 269
0.033280019 0.70300001 -0.035745207 8.1077111e-39 347 269
0.034512613 0.70300001 -0.035745207 7.7403691e-39 348 269
0.035796054 0.704 -0.035796054 7.6481749e-39 349 269
0.037030395 0.704 -0.035796054 7.371951e-39 350 269
0.038264744 0.704 -0.035796054 7.371951e-39 351 269
0.039499093 0.704 -0.035796054 7.279398e-39 352 269
0.040849157 0.70599997 -0.035897743 7.279398e-39 353 269
0.042087011 0.70599997 -0.035897743 7.2783218e-39 354 269
0.043386232 0.70700002 -0.035948593 7.1861276e-39 355 269
0.044625837 0.70700002 -0.035948593 7.2779701e-39 356 269
0.045930319 0.708 -0.03599944 7.1857744e-39 357 269
0.047304932 0.70999998 -0.036101133 7.0921537e-39 358 269
0.048618179 0.71100003 -0.036151983 6.9077624e-39 359 269
0.050005067 0.713 -0.036253672 6.8141403e-39 360 269
0.05132708 0.71399999 -0.036304519 6.6293903e-39 361 269
0.052726239 0.71600002 -0.036406212 7.55352e-39 362 269
0.053981625 0.71600002 -0.036406212 1.0595976e-38 363 269
0.055237014 0.71600002 -0.036406212 1.2899069e-38 364 269
-0.016342819 0.71700001 -0.037714198 1.2529932e-38 307 270
-0.015085679 0.71700001 -0.037714198 1.0411957e-38 308 270
-0.013828539 0.71700001 -0.037714198 1.0227565e-38 309 270
-0.012553867 0.71600002 -0.037661601 9.7691186e-39 310 270
-0.01129848 0.71600002 -0.037661601 9.9538686e-39 311 270
-0.01001504 0.71399999 -0.037556399 9.4943324e-39 312 270
-0.0087631596 0.71399999 -0.037556399 9.2177455e-39 313 270
-0.0075007593 0.713 -0.037503798 9.6761929e-39 314 270
-0.0062330998 0.71100003 -0.037398599 1.0229008e-38 315 270
-0.0049864799 0.71100003 -0.037398599 9.2198559e-39 316 270
-0.0037345996 0.70999998 -0.037345998 7.8369214e-39 317 270
-0.0024897333 0.70999998 -0.037345998 6.3671415e-39 318 270
-0.0012448666 0.70999998 -0.037345998 6.0905588e-39 319 270
0 0.70999998 -0.037345998 6.6401369e-39 320 270
0.00124136 0.708 -0.0372408 6.9167195e-39 321 270
0.00248272 0.708 -0.0372408 7.8347158e-39 322 270
0.0037188199 0.70700002 -0.037188202 8.0191042e-39 323 270
0.0049584266 0.70700002 -0.037188202 8.1127334e-39 324 270
0.0061892662 0.70599997 -0.037135597 8.3889573e-39 325 270
0.0074271196 0.70599997 -0.037135597 8.4815103e-39 326 270
0.0086649731 0.70599997 -0.037135597 8.5737045e-39 327 270
0.0098747732 0.704 -0.037030395 8.9399703e-39 328 270
0.01109334 0.70300001 -0.036977798 8.9399703e-39 329 270
0.012290866 0.70099998 -0.036872596 9.0321645e-39 330 270
0.013519952 0.70099998 -0.036872596 9.1243588e-39 331 270
0.014749039 0.70099998 -0.036872596 9.2169117e-39 332 270
0.015955333 0.69999999 -0.036819998 9.4931357e-39 333 270
0.017182667 0.69999999 -0.036819998 9.6771654e-39 334 270
0.018409999 0.69999999 -0.036819998 9.7693596e-39 335 270
0.019637333 0.69999999 -0.036819998 1.0045225e-38 336 270
0.020864666 0.69999999 -0.036819998 1.0045225e-38 337 270
0.022091998 0.69999999 -0.036819998 9.8604777e-39 338 270
0.023319334 0.69999999 -0.036819998 9.4917008e-39 339 270
0.024546666 0.69999999 -0.036819998 9.4902658e-39 340 270
0.025773998 0.69999999 -0.036819998 9.0296534e-39 341 270
0.027001332 0.69999999 -0.036819998 8.6612352e-39 342 270
0.028228667 0.69999999 -0.036819998 8.569041e-39 343 270
0.029455997 0.69999999 -0.036819998 8.2931758e-39 344 270
0.030683333 0.69999999 -0.036819998 8.2931758e-39 345 270
0.031956252 0.70099998 -0.036872596 8.1084286e-39 346 270
0.03318534 0.70099998 -0.036872596 8.1084286e-39 347 270
0.034414422 0.70099998 -0.036872596 7.8336396e-39 348 270
0.035745207 0.70300001 -0.036977798 7.6492511e-39 349 270
0.037030395 0.704 -0.037030395 7.4645039e-39 350 270
0.038264744 0.704 -0.037030395 7.2797567e-39 351 270
0.039499093 0.704 -0.037030395 7.3708748e-39 352 270
0.040733438 0.704 -0.037030395 7.2786805e-39 353 270
0.042087011 0.70599997 -0.037135597 7.1857688e-39 354 270
0.043324865 0.70599997 -0.037135597 7.1857688e-39 355 270
0.044625837 0.70700002 -0.037188202 7.093939e-39 356 270
0.045930319 0.708 -0.0372408 7.093939e-39 357 270
0.047304932 0.70999998 -0.037345998 7.2761848e-39 358 270
0.048618179 0.71100003 -0.037398599 6.9077624e-39 359 270
0.049864799 0.71100003 -0.037398599 6.9063359e-39 360 270
0.051255193 0.713 -0.037503798 6.7219447e-39 361 270
0.052578956 0.71399999 -0.037556399 6.7233936e-39 362 270
0.053981625 0.71600002 -0.037661601 9.581098e-39 363 270
-0.017599959 0.71700001 -0.038971342 1.2622127e-38 306 271
-0.016342819 0.71700001 -0.038971342 1.1976758e-38 307 271
-0.015085679 0.71700001 -0.038971342 1.0688187e-38 308 271
-0.013809253 0.71600002 -0.038916986 1.0780382e-38 309 271
-0.012553867 0.71600002 -0.038916986 1.0232976e-38 310 271
-0.01129848 0.71600002 -0.038916986 1.0693955e-38 311 271
-0.01001504 0.71399999 -0.038808275 1.0783276e-38 312 271
-0.0087508867 0.713 -0.038753927 9.6769286e-39 313 271
-0.0074797203 0.71100003 -0.038645219 9.6743922e-39 314 271
-0.0062330998 0.71100003 -0.038645219 1.0042815e-38 315 271
-0.0049794666 0.70999998 -0.038590867 9.218044e-39 316 271
-0.0037345996 0.70999998 -0.038590867 8.4804789e-39 317 271
-0.0024897333 0.70999998 -0.038590867 7.2862139e-39 318 271
-0.00124136 0.708 -0.038482159 7.0092725e-39 319 271
0 0.708 -0.038482159 7.5599267e-39 320 271
0.00124136 0.708 -0.038482159 7.8361507e-39 321 271
0.0024792133 0.70700002 -0.038427804 8.2960456e-39 322 271
0.0037135598 0.70599997 -0.038373452 8.4804341e-39 323 271
0.0049514128 0.70599997 -0.038373452 8.7570168e-39 324 271
0.0061892662 0.70599997 -0.038373452 8.8495697e-39 325 271
0.0074060797 0.704 -0.038264744 9.1250762e-39 326 271
0.0086404262 0.704 -0.038264744 9.2172705e-39 327 271
0.0098607466 0.70300001 -0.038210396 9.309106e-39 328 271
0.01109334 0.70300001 -0.038210396 9.309106e-39 329 271
0.012290866 0.70099998 -0.038101684 9.6757305e-39 330 271
0.013500666 0.69999999 -0.038047329 9.7682834e-39 331 271
0.014727999 0.69999999 -0.038047329 9.9530306e-39 332 271
0.015955333 0.69999999 -0.038047329 1.0045225e-38 333 271
0.017182667 0.69999999 -0.038047329 1.0413284e-38 334 271
0.018409999 0.69999999 -0.038047329 1.0413284e-38 335 271
0.019637333 0.69999999 -0.038047329 1.0504044e-38 336 271
0.020864666 0.69999999 -0.038047329 1.022782e-38 337 271
0.022091998 0.69999999 -0.038047329 9.767566e-39 338 271
0.023319334 0.69999999 -0.038047329 9.3984303e-39 339 271
0.024546666 0.69999999 -0.038047329 9.1222064e-39 340 271
0.025700359 0.69800001 -0.037938625 8.7537882e-39 341 271
0.026924185 0.69800001 -0.037938625 8.6619527e-39 342 271
0.028148014 0.69800001 -0.037938625 8.5697585e-39 343 271
0.029455997 0.69999999 -0.038047329 8.3857287e-39 344 271
0.030683333 0.69999999 -0.038047329 8.3857287e-39 345 271
0.031910665 0.69999999 -0.038047329 8.2931758e-39 346 271
0.033137999 0.69999999 -0.038047329 8.2931758e-39 347 271
0.034365334 0.69999999 -0.038047329 8.2006228e-39 348 271
0.035745207 0.70300001 -0.038210396 8.0162344e-39 349 271
0.036977798 0.70300001 -0.038210396 7.9226052e-39 350 271
0.038264744 0.704 -0.038264744 7.830411e-39 351 271
0.039499093 0.704 -0.038264744 7.3708748e-39 352 271
0.040733438 0.704 -0.038264744 7.1864863e-39 353 271
0.041967787 0.704 -0.038264744 7.1857716e-39 354 271
0.043324865 0.70599997 -0.038373452 7.093576e-39 355 271
0.044625837 0.70700002 -0.038427804 6.9095547e-39 356 271
0.045865446 0.70700002 -0.038427804 6.9095547e-39 357 271
0.047171678 0.708 -0.038482159 7.0921537e-39 358 271
0.048549797 0.70999998 -0.038590867 6.9077624e-39 359 271
0.049864799 0.71100003 -0.038645219 6.7226635e-39 360 271
0.051111419 0.71100003 -0.038645219 6.6301092e-39 361 271
0.052505318 0.713 -0.038753927 6.2616896e-39 362 271
0.053755447 0.713 -0.038753927 8.6584158e-39 363 271
-0.018857099 0.71700001 -0.040228479 1.3912866e-38 305 272
-0.017599959 0.71700001 -0.040228479 1.2161516e-38 306 272
-0.016320027 0.71600002 -0.040172372 1.1423951e-38 307 272
-0.01506464 0.71600002 -0.040172372 1.0411973e-38 308 272
-0.013809253 0.71600002 -0.040172372 1.1241733e-38 309 272
-0.012553867 0.71600002 -0.040172372 1.1616281e-38 310 272
-0.011266919 0.71399999 -0.040060159 1.1616281e-38 311 272
-0.010001013 0.713 -0.040004052 1.1889624e-38 312 272
-0.0087508867 0.713 -0.040004052 8.570581e-39 313 272
-0.0074797203 0.71100003 -0.039891839 8.9371929e-39 314 272
-0.0062330998 0.71100003 -0.039891839 9.8591492e-39 315 272
-0.0049794666 0.70999998 -0.039835732 9.1258582e-39 316 272
-0.0037345996 0.70999998 -0.039835732 8.0198707e-39 317 272
-0.00248272 0.708 -0.039723519 7.5617204e-39 318 272
-0.00124136 0.708 -0.039723519 7.5617204e-39 319 272
0 0.708 -0.039723519 8.0212566e-39 320 272
0.0012396066 0.70700002 -0.039667413 8.2978393e-39 321 272
0.0024757064 0.70599997 -0.039611302 8.5737045e-39 322 272
0.0037135598 0.70599997 -0.039611302 8.7584517e-39 323 272
0.0049373866 0.704 -0.039499093 9.2176292e-39 324 272
0.0061717331 0.704 -0.039499093 9.2176292e-39 325 272
0.0073955595 0.70300001 -0.039442986 9.4934944e-39 326 272
0.0086281532 0.70300001 -0.039442986 9.4934944e-39 327 272
0.0098326923 0.70099998 -0.039330769 9.6771654e-39 328 272
0.011045999 0.69999999 -0.039274666 9.6771654e-39 329 272
0.012273333 0.69999999 -0.039274666 9.7693596e-39 330 272
0.013500666 0.69999999 -0.039274666 9.9537481e-39 331 272
0.014727999 0.69999999 -0.039274666 1.0230331e-38 332 272
0.015955333 0.69999999 -0.039274666 1.0599108e-38 333 272
0.017182667 0.69999999 -0.039274666 1.0873179e-38 334 272
0.018409999 0.69999999 -0.039274666 1.0596597e-38 335 272
0.019581227 0.69800001 -0.039162453 1.0595879e-38 336 272
0.020805053 0.69800001 -0.039162453 1.0318938e-38 337 272
0.02202888 0.69800001 -0.039162453 9.4917008e-39 338 272
0.023252707 0.69800001 -0.039162453 9.2147593e-39 339 272
0.024476532 0.69800001 -0.039162453 8.8466999e-39 340 272
0.025700359 0.69800001 -0.039162453 8.7545057e-39 341 272
0.026924185 0.69800001 -0.039162453 8.6612352e-39 342 272
0.028148014 0.69800001 -0.039162453 8.6612352e-39 343 272
0.029455997 0.69999999 -0.039274666 8.3860875e-39 344 272
0.030683333 0.69999999 -0.039274666 8.2938932e-39 345 272
0.031910665 0.69999999 -0.039274666 8.3860875e-39 346 272
0.033137999 0.69999999 -0.039274666 8.2938932e-39 347 272
0.034365334 0.69999999 -0.039274666 8.292817e-39 348 272
0.035643511 0.70099998 -0.039330769 8.1084286e-39 349 272
0.036872596 0.70099998 -0.039330769 8.0158756e-39 350 272
0.038210396 0.70300001 -0.039442986 7.7392929e-39 351 272
0.039442986 0.70300001 -0.039442986 7.3708748e-39 352 272
0.040733438 0.704 -0.039499093 7.2786805e-39 353 272
0.041967787 0.704 -0.039499093 7.2768883e-39 354 272
0.043324865 0.70599997 -0.039611302 7.0928571e-39 355 272
0.044562716 0.70599997 -0.039611302 7.0010273e-39 356 272
0.045865446 0.70700002 -0.039667413 7.0010273e-39 357 272
0.047105055 0.70700002 -0.039667413 7.0006741e-39 358 272
0.048549797 0.70999998 -0.039835732 6.724446e-39 359 272
0.049794663 0.70999998 -0.039835732 6.5393457e-39 360 272
0.051111419 0.71100003 -0.039891839 6.2627588e-39 361 272
0.052358042 0.71100003 -0.039891839 6.5364758e-39 362 272
0.053604662 0.71100003 -0.039891839 8.7491695e-39 363 272
-0.018857099 0.71700001 -0.041485619 1.3912866e-38 305 273
-0.017599959 0.71700001 -0.041485619 1.1332481e-38 306 273
-0.016320027 0.71600002 -0.041427758 1.0134297e-38 307 273
-0.01506464 0.71600002 -0.041427758 9.8562976e-39 308 273
-0.013809253 0.71600002 -0.041427758 1.0593863e-38 309 273
-0.012553867 0.71600002 -0.041427758 1.1061323e-38 310 273
-0.011266919 0.71399999 -0.041312039 1.1706693e-38 311 273
-0.010001013 0.713 -0.041254178 1.0697917e-38 312 273
-0.0087508867 0.713 -0.041254178 6.7335054e-39 313 273
-0.0074797203 0.71100003 -0.041138459 8.4783798e-39 314 273
-0.0062330998 0.71100003 -0.041138459 1.0046064e-38 315 273
-0.0049794666 0.70999998 -0.041080594 9.1280134e-39 316 273
-0.0037345996 0.70999998 -0.041080594 7.8372745e-39 317 273
-0.00248272 0.708 -0.040964879 8.3885986e-39 318 273
-0.0012396066 0.70700002 -0.040907022 8.3885986e-39 319 273
0 0.70700002 -0.040907022 9.216553e-39 320 273
0.0012378532 0.70599997 -0.040849157 9.3087472e-39 321 273
0.0024686933 0.704 -0.040733438 9.5846124e-39 322 273
0.0037030398 0.704 -0.040733438 9.6771654e-39 323 273
0.0049373866 0.704 -0.040733438 9.8604777e-39 324 273
0.0061717331 0.704 -0.040733438 9.9526719e-39 325 273
0.0073955595 0.70300001 -0.040675577 1.0045225e-38 326 273
0.0086281532 0.70300001 -0.040675577 1.0045225e-38 327 273
0.0098326923 0.70099998 -0.040559858 1.0228537e-38 328 273
0.011045999 0.69999999 -0.040502001 1.032109e-38 329 273
0.012273333 0.69999999 -0.040502001 1.0137419e-38 330 273
0.013500666 0.69999999 -0.040502001 1.0321808e-38 331 273
0.014727999 0.69999999 -0.040502001 1.0321808e-38 332 273
0.015909746 0.69800001 -0.040386278 1.0321808e-38 333 273
0.017133573 0.69800001 -0.040386278 1.0504044e-38 334 273
0.0183574 0.69800001 -0.040386278 1.0320014e-38 335 273
0.019581227 0.69800001 -0.040386278 1.0503326e-38 336 273
0.020805053 0.69800001 -0.040386278 1.0411132e-38 337 273
0.02202888 0.69800001 -0.040386278 1.0043072e-38 338 273
0.023252707 0.69800001 -0.040386278 9.5821013e-39 339 273
0.024476532 0.69800001 -0.040386278 9.4895484e-39 340 273
0.025700359 0.69800001 -0.040386278 9.2126069e-39 341 273
0.026924185 0.69800001 -0.040386278 8.8456237e-39 342 273
0.028148014 0.69800001 -0.040386278 8.7534295e-39 343 273
0.029371841 0.69800001 -0.040386278 8.7534295e-39 344 273
0.030595668 0.69800001 -0.040386278 8.6612352e-39 345 273
0.031910665 0.69999999 -0.040502001 8.5697585e-39 346 273
0.033137999 0.69999999 -0.040502001 8.3857287e-39 347 273
0.034365334 0.69999999 -0.040502001 8.476488e-39 348 273
0.035592664 0.69999999 -0.040502001 8.3842938e-39 349 273
0.036819998 0.69999999 -0.040502001 8.2906647e-39 350 273
0.038101684 0.70099998 -0.040559858 8.1062762e-39 351 273
0.039442986 0.70300001 -0.040675577 7.737858e-39 352 273
0.040733438 0.704 -0.040733438 7.4616341e-39 353 273
0.041967787 0.704 -0.040733438 7.1857688e-39 354 273
0.043324865 0.70599997 -0.040849157 7.0013804e-39 355 273
0.044562716 0.70599997 -0.040849157 6.8173619e-39 356 273
0.045865446 0.70700002 -0.040907022 6.8173619e-39 357 273
0.047105055 0.70700002 -0.040907022 6.7248103e-39 358 273
0.048413038 0.708 -0.040964879 6.6326147e-39 359 273
0.049794663 0.70999998 -0.041080594 6.6304651e-39 360 273
0.051111419 0.71100003 -0.041138459 6.6304651e-39 361 273
0.052358042 0.71100003 -0.041138459 6.3546041e-39 362 273
0.053604662 0.71100003 -0.041138459 8.0141268e-39 363 273
-0.018857099 0.71700001 -0.042742759 1.3268577e-38 305 274
-0.017599959 0.71700001 -0.042742759 9.9502687e-39 306 274
-0.016342819 0.71700001 -0.042742759 9.0286725e-39 307 274
-0.015085679 0.71700001 -0.042742759 1.0225436e-38 308 274
-0.013809253 0.71600002 -0.042683143 1.0501664e-38 309 274
-0.012553867 0.71600002 -0.042683143 8.5745495e-39 310 274
-0.011266919 0.71399999 -0.042563915 8.9429733e-39 311 274
-0.010001013 0.713 -0.042504307 9.1284365e-39 312 274
-0.0087508867 0.713 -0.042504307 7.4692753e-39 313 274
-0.0074797203 0.71100003 -0.042385083 9.400692e-39 314 274
-0.0062243328 0.70999998 -0.042325463 1.0138616e-38 315 274
-0.0049794666 0.70999998 -0.042325463 9.220209e-39 316 274
-0.00372408 0.708 -0.042206239 7.9294702e-39 317 274
-0.0024792133 0.70700002 -0.042146627 8.3903923e-39 318 274
-0.0012396066 0.70700002 -0.042146627 8.4825865e-39 319 274
0 0.70599997 -0.042087011 9.1261524e-39 320 274
0.0012378532 0.70599997 -0.042087011 9.5871236e-39 321 274
0.0024686933 0.704 -0.041967787 9.6778829e-39 322 274
0.0037030398 0.704 -0.041967787 9.8622713e-39 323 274
0.0049303733 0.70300001 -0.041908171 1.0045942e-38 324 274
0.0061629666 0.70300001 -0.041908171 1.0045942e-38 325 274
0.0073745195 0.70099998 -0.041788943 1.0137419e-38 326 274
0.0086036054 0.70099998 -0.041788943 1.0137419e-38 327 274
0.0098186666 0.69999999 -0.041729331 1.0137419e-38 328 274
0.011045999 0.69999999 -0.041729331 1.0137419e-38 329 274
0.012238266 0.69800001 -0.041610107 1.0137419e-38 330 274
0.013462093 0.69800001 -0.041610107 9.9530306e-39 331 274
0.01468592 0.69800001 -0.041610107 1.0135984e-38 332 274
0.015909746 0.69800001 -0.041610107 1.004379e-38 333 274
0.017133573 0.69800001 -0.041610107 1.031822e-38 334 274
0.0183574 0.69800001 -0.041610107 1.0410414e-38 335 274
0.019581227 0.69800001 -0.041610107 1.0320731e-38 336 274
0.020805053 0.69800001 -0.041610107 1.0320731e-38 337 274
0.02199732 0.69700003 -0.041550495 9.7672072e-39 338 274
0.023219392 0.69700003 -0.041550495 9.675013e-39 339 274
0.024441468 0.69700003 -0.041550495 9.1222064e-39 340 274
0.025663542 0.69700003 -0.041550495 9.0300121e-39 341 274
0.026924185 0.69800001 -0.041610107 8.7541469e-39 342 274
0.028148014 0.69800001 -0.041610107 8.7541469e-39 343 274
0.029371841 0.69800001 -0.041610107 8.4782817e-39 344 274
0.030595668 0.69800001 -0.041610107 8.4782817e-39 345 274
0.031819493 0.69800001 -0.041610107 8.3860875e-39 346 274
0.033043321 0.69800001 -0.041610107 8.3860875e-39 347 274
0.034267146 0.69800001 -0.041610107 8.3850113e-39 348 274
0.035592664 0.69999999 -0.041729331 8.292817e-39 349 274
0.036819998 0.69999999 -0.041729331 7.9247576e-39 350 274
0.038047329 0.69999999 -0.041729331 7.7400104e-39 351 274
0.039330769 0.70099998 -0.041788943 7.5549045e-39 352 274
0.040675577 0.70300001 -0.041908171 7.1864863e-39 353 274
0.041967787 0.704 -0.041967787 6.8180681e-39 354 274
0.043324865 0.70599997 -0.042087011 6.8180681e-39 355 274
0.044562716 0.70599997 -0.042087011 6.817715e-39 356 274
0.045865446 0.70700002 -0.042146627 6.7251606e-39 357 274
0.047105055 0.70700002 -0.042146627 6.9084785e-39 358 274
0.048413038 0.708 -0.042206239 6.539696e-39 359 274
0.049794663 0.70999998 -0.042325463 6.6304623e-39 360 274
0.051111419 0.71100003 -0.042385083 6.3542355e-39 361 274
0.052358042 0.71100003 -0.042385083 6.4460808e-39 362 274
0.053604662 0.71100003 -0.042385083 8.0130464e-39 363 274
0.054851279 0.71100003 -0.042385083 1.0225746e-38 364 274
-0.020114239 0.71700001 -0.043999899 1.3268577e-38 304 275
-0.018857099 0.71700001 -0.043999899 1.2899434e-38 305 275
-0.017599959 0.71700001 -0.043999899 9.8566353e-39 306 275
-0.016342819 0.71700001 -0.043999899 9.5796883e-39 307 275
-0.015085679 0.71700001 -0.043999899 1.0229026e-38 308 275
-0.013809253 0.71600002 -0.043938532 9.7680494e-39 309 275
-0.012553867 0.71600002 -0.043938532 8.2043194e-39 310 275
-0.011266919 0.71399999 -0.043815799 8.7574932e-39 311 275
-0.010001013 0.713 -0.043754432 9.0348004e-39 312 275
-0.0087263398 0.71100003 -0.043631699 8.7582121e-39 313 275
-0.0074797203 0.71100003 -0.043631699 9.3102943e-39 314 275
-0.0062243328 0.70999998 -0.043570329 9.9556637e-39 315 275
-0.0049654399 0.708 -0.043447599 9.0350933e-39 316 275
-0.00372408 0.708 -0.043447599 8.2053312e-39 317 275
-0.0024792133 0.70700002 -0.043386232 8.7577342e-39 318 275
-0.0012378532 0.70599997 -0.043324865 8.66554e-39 319 275
0 0.70599997 -0.043324865 9.2172705e-39 320 275
0.0012343467 0.704 -0.043202132 9.4020177e-39 321 275
0.0024686933 0.704 -0.043202132 9.7693596e-39 322 275
0.0036977797 0.70300001 -0.043140765 9.9533894e-39 323 275
0.0049303733 0.70300001 -0.043140765 9.7700771e-39 324 275
0.0061454331 0.70099998 -0.043018032 9.6778829e-39 325 275
0.0073745195 0.70099998 -0.043018032 9.4942119e-39 326 275
0.0085913334 0.69999999 -0.042956665 9.4020177e-39 327 275
0.0098186666 0.69999999 -0.042956665 9.5853299e-39 328 275
0.011045999 0.69999999 -0.042956665 9.5853299e-39 329 275
0.012238266 0.69800001 -0.042833932 9.4931357e-39 330 275
0.013462093 0.69800001 -0.042833932 9.309106e-39 331 275
0.01468592 0.69800001 -0.042833932 9.3998653e-39 332 275
0.015909746 0.69800001 -0.042833932 9.4920595e-39 333 275
0.017133573 0.69800001 -0.042833932 9.3998653e-39 334 275
0.0183574 0.69800001 -0.042833932 9.5846124e-39 335 275
0.019553173 0.69700003 -0.042772565 1.0135984e-38 336 275
0.020775247 0.69700003 -0.042772565 1.0135984e-38 337 275
0.02199732 0.69700003 -0.042772565 9.9505195e-39 338 275
0.023219392 0.69700003 -0.042772565 9.5817426e-39 339 275
0.024441468 0.69700003 -0.042772565 9.2147593e-39 340 275
0.025663542 0.69700003 -0.042772565 9.1222064e-39 341 275
0.026924185 0.69800001 -0.042833932 8.5715521e-39 342 275
0.028148014 0.69800001 -0.042833932 8.4793579e-39 343 275
0.029371841 0.69800001 -0.042833932 8.2949694e-39 344 275
0.030595668 0.69800001 -0.042833932 8.2949694e-39 345 275
0.031819493 0.69800001 -0.042833932 8.4782817e-39 346 275
0.033043321 0.69800001 -0.042833932 8.2938932e-39 347 275
0.034267146 0.69800001 -0.042833932 8.2938932e-39 348 275
0.035592664 0.69999999 -0.042956665 8.2013403e-39 349 275
0.036819998 0.69999999 -0.042956665 8.1080699e-39 350 275
0.038047329 0.69999999 -0.042956665 7.7392929e-39 351 275
0.039274666 0.69999999 -0.042956665 7.737858e-39 352 275
0.040559858 0.70099998 -0.043018032 7.4612753e-39 353 275
0.041908171 0.70300001 -0.043140765 7.2768869e-39 354 275
0.043202132 0.704 -0.043202132 7.0006629e-39 355 275
0.044562716 0.70599997 -0.043324865 6.817715e-39 356 275
0.04580057 0.70599997 -0.043324865 6.6329636e-39 357 275
0.047105055 0.70700002 -0.043386232 6.7244432e-39 358 275
0.048413038 0.708 -0.043447599 6.5400519e-39 359 275
0.049794663 0.70999998 -0.043570329 6.262756e-39 360 275
0.051039528 0.70999998 -0.043570329 6.262756e-39 361 275
0.052358042 0.71100003 -0.043631699 6.3546041e-39 362 275
0.053604662 0.71100003 -0.043631699 7.6453429e-39 363 275
0.054851279 0.71100003 -0.043631699 1.0040634e-38 364 275
-0.021520413 0.722 -0.045572639 1.3727756e-38 303 276
-0.020198401 0.72000003 -0.045446403 1.3267494e-38 304 276
-0.018909698 0.71899998 -0.045383278 1.2714321e-38 305 276
-0.017599959 0.71700001 -0.045257039 9.7644229e-39 306 276
-0.016342819 0.71700001 -0.045257039 9.5796729e-39 307 276
-0.015085679 0.71700001 -0.045257039 9.7691074e-39 308 276
-0.013809253 0.71600002 -0.045193922 1.0137531e-38 309 276
-0.012518799 0.71399999 -0.045067675 8.9429565e-39 310 276
-0.011251139 0.713 -0.045004558 8.9429565e-39 311 276
-0.0099729598 0.71100003 -0.044878319 8.850042e-39 312 276
-0.0087263398 0.71100003 -0.044878319 8.7578464e-39 313 276
-0.0074691991 0.70999998 -0.044815198 9.0347639e-39 314 276
