# .PCD v.7 - Point Cloud Data file format
FIELDS x y z rgb imX imY
SIZE 4 4 4 4 4 4
TYPE F F F F F F
COUNT 1 1 1 1 1 1
WIDTH 860
HEIGHT 1
VIEWPOINT 0 0 0 1 0 0 0
POINTS 860
DATA ascii
-0.00266156 0.759 0.023954039 1.5485761e-38 318 222
-0.00133078 0.759 0.023954039 1.5301372e-38 319 222
0 0.76099998 0.024017159 1.4933313e-38 320 222
0.0013342865 0.76099998 0.024017159 1.484076e-38 321 222
0.0026685731 0.76099998 0.024017159 1.4748212e-38 322 222
0.0040028598 0.76099998 0.024017159 1.4748212e-38 323 222
0.0053371461 0.76099998 0.024017159 1.4564194e-38 324 222
0.0066714329 0.76099998 0.024017159 1.4564194e-38 325 222
0.0080057196 0.76099998 0.024017159 1.4015018e-38 326 222
0.0093400059 0.76099998 0.024017159 8.5758569e-39 327 222
0.010674292 0.76099998 0.024017159 9.8568903e-39 328 222
0.012008579 0.76099998 0.024017159 1.3729083e-38 329 222
0.013342866 0.76099998 0.024017159 1.3918118e-38 330 222
0.014677152 0.76099998 0.024017159 1.4010674e-38 331 222
0.01603248 0.76200002 0.02404872 1.4562399e-38 332 222
0.01736852 0.76200002 0.02404872 1.4838986e-38 333 222
0.018753653 0.764 0.024111839 1.4838986e-38 334 222
0.020145798 0.76599997 0.024174958 1.5115214e-38 335 222
0.021488851 0.76599997 0.024174958 1.5023046e-38 336 222
0.022831906 0.76599997 0.024174958 1.4930851e-38 337 222
0.024174958 0.76599997 0.024174958 1.4195138e-38 338 222
-0.025351444 0.76099998 0.022682872 1.4937802e-38 301 223
-0.024017159 0.76099998 0.022682872 1.6039051e-38 302 223
-0.022682872 0.76099998 0.022682872 1.6039051e-38 303 223
-0.021348584 0.76099998 0.022682872 1.6407793e-38 304 223
-0.020014299 0.76099998 0.022682872 1.6500347e-38 305 223
-0.018680012 0.76099998 0.022682872 1.6683994e-38 306 223
-0.017345725 0.76099998 0.022682872 1.6499601e-38 307 223
-0.016011439 0.76099998 0.022682872 1.6591406e-38 308 223
-0.014600007 0.75700003 0.022563647 1.6222624e-38 309 223
-0.013272733 0.75700003 0.022563647 1.6314078e-38 310 223
-0.01194546 0.75700003 0.022563647 1.6129687e-38 311 223
-0.010618187 0.75700003 0.022563647 1.5947449e-38 312 223
-0.0092909131 0.75700003 0.022563647 1.6039643e-38 313 223
-0.0079636406 0.75700003 0.022563647 1.594709e-38 314 223
-0.0066363667 0.75700003 0.022563647 1.5854896e-38 315 223
-0.0053090933 0.75700003 0.022563647 1.5944938e-38 316 223
-0.0039818203 0.75700003 0.022563647 1.5668714e-38 317 223
-0.00266156 0.759 0.02262326 1.5301372e-38 318 223
-0.00133078 0.759 0.02262326 1.5116625e-38 319 223
0 0.76099998 0.022682872 1.474821e-38 320 223
0.0013342865 0.76099998 0.022682872 1.4656014e-38 321 223
0.0026685731 0.76099998 0.022682872 1.4379803e-38 322 223
0.0040028598 0.76099998 0.022682872 1.4379803e-38 323 223
0.0053371461 0.76099998 0.022682872 1.4472367e-38 324 223
0.0066714329 0.76099998 0.022682872 1.4287977e-38 325 223
0.0080057196 0.76099998 0.022682872 1.3278888e-38 326 223
0.0093400059 0.76099998 0.022682872 8.4843802e-39 327 223
0.010674292 0.76099998 0.022682872 1.0686638e-38 328 223
0.012008579 0.76099998 0.022682872 1.409786e-38 329 223
0.013342866 0.76099998 0.022682872 1.382556e-38 330 223
0.014677152 0.76099998 0.022682872 1.3733364e-38 331 223
0.01603248 0.76200002 0.02271268 1.4196487e-38 332 223
0.01736852 0.76200002 0.02271268 1.4564911e-38 333 223
0.018753653 0.764 0.022772292 1.5023001e-38 334 223
0.020093199 0.764 0.022772292 1.5115197e-38 335 223
0.021432746 0.764 0.022772292 1.5114498e-38 336 223
0.022772292 0.764 0.022772292 1.5114498e-38 337 223
0.024111839 0.764 0.022772292 1.474575e-38 338 223
0.025451386 0.764 0.022772292 1.474575e-38 339 223
0.026790932 0.764 0.022772292 1.4473542e-38 340 223
-0.026685731 0.76099998 0.021348584 1.631927e-38 300 224
-0.025351444 0.76099998 0.021348584 1.4751943e-38 301 224
-0.023954039 0.759 0.02129248 1.6039383e-38 302 224
-0.02262326 0.759 0.02129248 1.6131937e-38 303 224
-0.02129248 0.759 0.02129248 1.6499615e-38 304 224
-0.0199617 0.759 0.02129248 1.6499615e-38 305 224
-0.01863092 0.759 0.02129248 1.668397e-38 306 224
-0.017300138 0.759 0.02129248 1.6407385e-38 307 224
-0.015969358 0.759 0.02129248 1.6499192e-38 308 224
-0.014600007 0.75700003 0.021236373 1.6222245e-38 309 224
-0.013272733 0.75700003 0.021236373 1.6129685e-38 310 224
-0.01194546 0.75700003 0.021236373 1.5945297e-38 311 224
-0.010618187 0.75700003 0.021236373 1.5762346e-38 312 224
-0.0092909131 0.75700003 0.021236373 1.5577955e-38 313 224
-0.0079636406 0.75700003 0.021236373 1.5486128e-38 314 224
-0.0066363667 0.75700003 0.021236373 1.5393932e-38 315 224
-0.0053090933 0.75700003 0.021236373 1.5393213e-38 316 224
-0.0039818203 0.75700003 0.021236373 1.5116268e-38 317 224
-0.00266156 0.759 0.02129248 1.4932958e-38 318 224
-0.00133078 0.759 0.02129248 1.4840761e-38 319 224
0 0.759 0.02129248 1.43798e-38 320 224
0.0013342865 0.76099998 0.021348584 1.4103573e-38 321 224
0.0026685731 0.76099998 0.021348584 1.3736248e-38 322 224
0.0040028598 0.76099998 0.021348584 1.3736248e-38 323 224
0.0053371461 0.76099998 0.021348584 1.3736273e-38 324 224
0.0066714329 0.76099998 0.021348584 1.3920304e-38 325 224
0.0080057196 0.76099998 0.021348584 1.2725012e-38 326 224
0.0093400059 0.76099998 0.021348584 8.8527983e-39 327 224
0.010674292 0.76099998 0.021348584 1.1243032e-38 328 224
0.012008579 0.76099998 0.021348584 1.3731951e-38 329 224
0.013342866 0.76099998 0.021348584 1.3734083e-38 330 224
0.014677152 0.76099998 0.021348584 1.3641528e-38 331 224
0.016011439 0.76099998 0.021348584 1.4472346e-38 332 224
0.01736852 0.76200002 0.02137664 1.45649e-38 333 224
0.01870456 0.76200002 0.02137664 1.5116266e-38 334 224
0.0200406 0.76200002 0.02137664 1.4931519e-38 335 224
0.021432746 0.764 0.021432746 1.5206308e-38 336 224
0.02271268 0.76200002 0.02137664 1.5206308e-38 337 224
0.02404872 0.76200002 0.02137664 1.5021599e-38 338 224
0.02538476 0.76200002 0.02137664 1.5021599e-38 339 224
0.0267208 0.76200002 0.02137664 1.4102224e-38 340 224
0.028056841 0.76200002 0.02137664 1.4839789e-38 341 224
-0.026615599 0.759 0.0199617 1.5948303e-38 300 225
-0.025284819 0.759 0.0199617 1.5395129e-38 301 225
-0.02389092 0.75700003 0.019909101 1.6315231e-38 302 225
-0.022563647 0.75700003 0.019909101 1.6315231e-38 303 225
-0.021236373 0.75700003 0.019909101 1.6499596e-38 304 225
-0.0199617 0.759 0.0199617 1.6499596e-38 305 225
-0.018581826 0.75700003 0.019909101 1.6683952e-38 306 225
-0.017254554 0.75700003 0.019909101 1.6407006e-38 307 225
-0.015927281 0.75700003 0.019909101 1.6499545e-38 308 225
-0.014561433 0.755 0.0198565 1.6222598e-38 309 225
-0.013237666 0.755 0.0198565 1.6037491e-38 310 225
-0.011913899 0.755 0.0198565 1.5852744e-38 311 225
-0.010590133 0.755 0.0198565 1.5483967e-38 312 225
-0.0092663663 0.755 0.0198565 1.5391773e-38 313 225
-0.0079425992 0.755 0.0198565 1.5116268e-38 314 225
-0.0066188332 0.755 0.0198565 1.5208822e-38 315 225
-0.0053090933 0.75700003 0.019909101 1.4932241e-38 316 225
-0.0039818203 0.75700003 0.019909101 1.4655295e-38 317 225
-0.0026545466 0.75700003 0.019909101 1.4103923e-38 318 225
-0.0013272733 0.75700003 0.019909101 1.3919535e-38 319 225
0 0.759 0.0199617 1.4009941e-38 320 225
0.0013342865 0.76099998 0.020014299 1.4009941e-38 321 225
0.0026685731 0.76099998 0.020014299 1.355078e-38 322 225
0.0040028598 0.76099998 0.020014299 1.3458585e-38 323 225
0.0053371461 0.76099998 0.020014299 1.3366414e-38 324 225
0.0066714329 0.76099998 0.020014299 1.3458611e-38 325 225
0.0080057196 0.76099998 0.020014299 1.1988166e-38 326 225
0.0093400059 0.76099998 0.020014299 9.6832751e-39 327 225
0.010674292 0.76099998 0.020014299 1.2255019e-38 328 225
0.012008579 0.76099998 0.020014299 1.3822705e-38 329 225
0.013342866 0.76099998 0.020014299 1.3457497e-38 330 225
0.014677152 0.76099998 0.020014299 1.3918474e-38 331 225
0.016011439 0.76099998 0.020014299 1.4933324e-38 332 225
0.017345725 0.76099998 0.020014299 1.4657096e-38 333 225
0.01870456 0.76200002 0.0200406 1.5116266e-38 334 225
0.0200406 0.76200002 0.0200406 1.5023713e-38 335 225
0.02137664 0.76200002 0.0200406 1.5022996e-38 336 225
0.02271268 0.76200002 0.0200406 1.5022996e-38 337 225
0.02404872 0.76200002 0.0200406 1.4837904e-38 338 225
0.02538476 0.76200002 0.0200406 1.4837904e-38 339 225
0.026685731 0.76099998 0.020014299 1.4102181e-38 340 225
0.028020019 0.76099998 0.020014299 1.4102181e-38 341 225
0.029354304 0.76099998 0.020014299 1.4381362e-38 342 225
-0.027946379 0.759 0.01863092 1.5578849e-38 299 226
-0.026545467 0.75700003 0.018581826 1.585501e-38 300 226
-0.025218192 0.75700003 0.018581826 1.5947205e-38 301 226
-0.023827799 0.755 0.018532733 1.6223382e-38 302 226
-0.022504034 0.755 0.018532733 1.6315936e-38 303 226
-0.021180267 0.755 0.018532733 1.67758e-38 304 226
-0.019909101 0.75700003 0.018581826 1.6683246e-38 305 226
-0.018532733 0.755 0.018532733 1.6867602e-38 306 226
-0.017208965 0.755 0.018532733 1.6775406e-38 307 226
-0.015885198 0.755 0.018532733 1.6591374e-38 308 226
-0.014561433 0.755 0.018532733 1.6314791e-38 309 226
-0.013237666 0.755 0.018532733 1.6220086e-38 310 226
-0.01189812 0.75400001 0.018508185 1.6035697e-38 311 226
-0.010576107 0.75400001 0.018508185 1.5667279e-38 312 226
-0.0092540924 0.75400001 0.018508185 1.5390696e-38 313 226
-0.00793208 0.75400001 0.018508185 1.4931539e-38 314 226
-0.0066100666 0.75400001 0.018508185 1.4746787e-38 315 226
-0.0052950666 0.755 0.018532733 1.4379797e-38 316 226
-0.0039712996 0.755 0.018532733 1.4011375e-38 317 226
-0.0026545466 0.75700003 0.018581826 1.3827699e-38 318 226
-0.0013272733 0.75700003 0.018581826 1.3458922e-38 319 226
0 0.759 0.01863092 1.3457129e-38 320 226
0.00133078 0.759 0.01863092 1.3457129e-38 321 226
0.0026685731 0.76099998 0.018680012 1.299796e-38 322 226
0.0039923396 0.759 0.01863092 1.2905764e-38 323 226
0.0053231199 0.759 0.01863092 1.2904707e-38 324 226
0.0066714329 0.76099998 0.018680012 1.2628481e-38 325 226
0.0080057196 0.76099998 0.018680012 1.161722e-38 326 226
0.0093400059 0.76099998 0.018680012 1.0326481e-38 327 226
0.01064624 0.759 0.01863092 1.1704721e-38 328 226
0.01197702 0.759 0.01863092 1.2995456e-38 329 226
0.013342866 0.76099998 0.018680012 1.3182708e-38 330 226
0.014677152 0.76099998 0.018680012 1.41965e-38 331 226
0.016011439 0.76099998 0.018680012 1.4564917e-38 332 226
0.017345725 0.76099998 0.018680012 1.4657113e-38 333 226
0.018680012 0.76099998 0.018680012 1.4840042e-38 334 226
0.020014299 0.76099998 0.018680012 1.4840042e-38 335 226
0.021348584 0.76099998 0.018680012 1.4840401e-38 336 226
0.02262326 0.759 0.01863092 1.4656012e-38 337 226
0.023954039 0.759 0.01863092 1.4654942e-38 338 226
0.025284819 0.759 0.01863092 1.4562746e-38 339 226
0.026615599 0.759 0.01863092 1.4284383e-38 340 226
0.028020019 0.76099998 0.018680012 1.4192187e-38 341 226
0.029354304 0.76099998 0.018680012 1.3919625e-38 342 226
0.030688593 0.76099998 0.018680012 1.5210363e-38 343 226
-0.029277159 0.759 0.017300138 1.5671738e-38 298 227
-0.027946379 0.759 0.017300138 1.5394792e-38 299 227
-0.026545467 0.75700003 0.017254554 1.6223051e-38 300 227
-0.025218192 0.75700003 0.017254554 1.6315247e-38 301 227
-0.02379624 0.75400001 0.017186172 1.6316286e-38 302 227
-0.022474226 0.75400001 0.017186172 1.6500319e-38 303 227
-0.021152213 0.75400001 0.017186172 1.6869066e-38 304 227
-0.0198565 0.755 0.017208965 1.6869066e-38 305 227
-0.018532733 0.755 0.017208965 1.6777923e-38 306 227
-0.017186172 0.75400001 0.017186172 1.6409142e-38 307 227
-0.01586416 0.75400001 0.017186172 1.6775762e-38 308 227
-0.014542146 0.75400001 0.017186172 1.6314791e-38 309 227
-0.013220133 0.75400001 0.017186172 1.603785e-38 310 227
-0.01189812 0.75400001 0.017186172 1.5853461e-38 311 227
-0.010576107 0.75400001 0.017186172 1.5300296e-38 312 227
-0.0092540924 0.75400001 0.017186172 1.5208102e-38 313 227
-0.00793208 0.75400001 0.017186172 1.474714e-38 314 227
-0.0066100666 0.75400001 0.017186172 1.4562749e-38 315 227
-0.0052880533 0.75400001 0.017186172 1.3825907e-38 316 227
-0.0039712996 0.755 0.017208965 1.3457129e-38 317 227
-0.0026545466 0.75700003 0.017254554 1.3086558e-38 318 227
-0.0013272733 0.75700003 0.017254554 1.2717781e-38 319 227
0 0.759 0.017300138 1.2073139e-38 320 227
0.00133078 0.759 0.017300138 1.1980945e-38 321 227
0.00266156 0.759 0.017300138 1.1705797e-38 322 227
0.0039923396 0.759 0.017300138 1.1705797e-38 323 227
0.0053231199 0.759 0.017300138 1.1612168e-38 324 227
0.0066714329 0.76099998 0.017345725 1.1612168e-38 325 227
0.0080057196 0.76099998 0.017345725 1.0415795e-38 326 227
0.0093400059 0.76099998 0.017345725 9.3098234e-39 327 227
0.01064624 0.759 0.017300138 1.0784938e-38 328 227
0.01197702 0.759 0.017300138 1.2536654e-38 329 227
0.013342866 0.76099998 0.017345725 1.3090901e-38 330 227
0.014677152 0.76099998 0.017345725 1.373627e-38 331 227
0.016011439 0.76099998 0.017345725 1.4286903e-38 332 227
0.017345725 0.76099998 0.017345725 1.456349e-38 333 227
0.018680012 0.76099998 0.017345725 1.5023354e-38 334 227
0.0199617 0.759 0.017300138 1.5023354e-38 335 227
0.02129248 0.759 0.017300138 1.4931878e-38 336 227
0.02262326 0.759 0.017300138 1.4839683e-38 337 227
0.023954039 0.759 0.017300138 1.456346e-38 338 227
0.025284819 0.759 0.017300138 1.4471265e-38 339 227
0.026615599 0.759 0.017300138 1.4378355e-38 340 227
0.028020019 0.76099998 0.017345725 1.4194324e-38 341 227
0.029354304 0.76099998 0.017345725 1.364228e-38 342 227
0.030688593 0.76099998 0.017345725 1.4195093e-38 343 227
0.032022879 0.76099998 0.017345725 1.5486635e-38 344 227
-0.029277159 0.759 0.015969358 1.5855032e-38 298 228
-0.027946379 0.759 0.015969358 1.5485889e-38 299 228
-0.026545467 0.75700003 0.015927281 1.6315947e-38 300 228
-0.025218192 0.75700003 0.015927281 1.6223752e-38 301 228
-0.02379624 0.75400001 0.01586416 1.6500669e-38 302 228
-0.022474226 0.75400001 0.01586416 1.6592865e-38 303 228
-0.021152213 0.75400001 0.01586416 1.6961615e-38 304 228
-0.0198565 0.755 0.015885198 1.6776864e-38 305 228
-0.018508185 0.75400001 0.01586416 1.723638e-38 306 228
-0.017186172 0.75400001 0.01586416 1.6775404e-38 307 228
-0.01586416 0.75400001 0.01586416 1.6958357e-38 308 228
-0.014542146 0.75400001 0.01586416 1.6681774e-38 309 228
-0.013220133 0.75400001 0.01586416 1.6405192e-38 310 228
-0.011866559 0.75199997 0.015822079 1.6128609e-38 311 228
-0.01052 0.75 0.01578 1.5667279e-38 312 228
-0.0092049995 0.75 0.01578 1.5391055e-38 313 228
-0.0079110395 0.75199997 0.015822079 1.4656741e-38 314 228
-0.0065925326 0.75199997 0.015822079 1.4103926e-38 315 228
-0.0052740262 0.75199997 0.015822079 1.4193613e-38 316 228
-0.00396604 0.75400001 0.01586416 1.3732635e-38 317 228
-0.0026475333 0.755 0.015885198 1.2719582e-38 318 228
-0.0013237667 0.755 0.015885198 1.2535189e-38 319 228
0 0.759 0.015969358 1.1243391e-38 320 228
0.00133078 0.759 0.015969358 1.1059003e-38 321 228
0.00266156 0.759 0.015969358 1.1059003e-38 322 228
0.0039923396 0.759 0.015969358 1.1059003e-38 323 228
0.0053231199 0.759 0.015969358 1.0691302e-38 324 228
0.0066714329 0.76099998 0.016011439 1.0599108e-38 325 228
0.0080057196 0.76099998 0.016011439 9.8612021e-39 326 228
0.0093400059 0.76099998 0.016011439 9.9533978e-39 327 228
0.010674292 0.76099998 0.016011439 1.0782801e-38 328 228
0.01197702 0.759 0.015969358 1.2257933e-38 329 228
0.0133078 0.759 0.015969358 1.2814677e-38 330 228
0.014638579 0.759 0.015969358 1.318382e-38 331 228
0.015969358 0.759 0.015969358 1.3827018e-38 332 228
0.017300138 0.759 0.015969358 1.4195799e-38 333 228
0.018581826 0.75700003 0.015927281 1.4471277e-38 334 228
0.019909101 0.75700003 0.015927281 1.4655308e-38 335 228
0.02129248 0.759 0.015969358 1.4472341e-38 336 228
0.022563647 0.75700003 0.015927281 1.4380147e-38 337 228
0.02389092 0.75700003 0.015927281 1.456346e-38 338 228
0.025218192 0.75700003 0.015927281 1.4379071e-38 339 228
0.026615599 0.759 0.015969358 1.4653501e-38 340 228
0.027946379 0.759 0.015969358 1.4561307e-38 341 228
0.029277159 0.759 0.015969358 1.3824481e-38 342 228
0.030688593 0.76099998 0.016011439 1.3916676e-38 343 228
0.032022879 0.76099998 0.016011439 1.4289857e-38 344 228
0.033357166 0.76099998 0.016011439 1.6041216e-38 345 228
-0.030688593 0.76099998 0.014677152 1.6317863e-38 297 229
-0.029277159 0.759 0.014638579 1.6039051e-38 298 229
-0.027946379 0.759 0.014638579 1.5854659e-38 299 229
-0.026545467 0.75700003 0.014600007 1.6499618e-38 300 229
-0.025218192 0.75700003 0.014600007 1.6499618e-38 301 229
-0.02379624 0.75400001 0.014542146 1.6685066e-38 302 229
-0.022474226 0.75400001 0.014542146 1.6685066e-38 303 229
-0.021152213 0.75400001 0.014542146 1.7236775e-38 304 229
-0.019830201 0.75400001 0.014542146 1.7052025e-38 305 229
-0.018508185 0.75400001 0.014542146 1.7235321e-38 306 229
-0.017140586 0.75199997 0.014503572 1.6866899e-38 307 229
-0.015822079 0.75199997 0.014503572 1.677433e-38 308 229
-0.014503572 0.75199997 0.014503572 1.6497745e-38 309 229
-0.013185065 0.75199997 0.014503572 1.6404833e-38 310 229
-0.011835 0.75 0.014465 1.6220445e-38 311 229
-0.01052 0.75 0.014465 1.5576161e-38 312 229
-0.0091927266 0.74900001 0.014445714 1.5391773e-38 313 229
-0.0078794798 0.74900001 0.014445714 1.4839336e-38 314 229
-0.006575 0.75 0.014465 1.4654945e-38 315 229
-0.00526 0.75 0.014465 1.4193983e-38 316 229
-0.00396604 0.75400001 0.014542146 1.4009591e-38 317 229
-0.0026475333 0.755 0.014561433 1.290361e-38 318 229
-0.0013237667 0.755 0.014561433 1.2350798e-38 319 229
0 0.76099998 0.014677152 1.0413284e-38 320 229
0.0013342865 0.76099998 0.014677152 9.8601189e-39 321 229
0.00266156 0.759 0.014638579 9.7672072e-39 322 229
0.0039923396 0.759 0.014638579 9.5828188e-39 323 229
0.0053371461 0.76099998 0.014677152 9.0314471e-39 324 229
0.0066714329 0.76099998 0.014677152 9.2161943e-39 325 229
0.0080057196 0.76099998 0.014677152 9.3098234e-39 326 229
0.0093400059 0.76099998 0.014677152 9.4942147e-39 327 229
0.01064624 0.759 0.014638579 1.0414361e-38 328 229
0.01197702 0.759 0.014638579 1.1520707e-38 329 229
0.0133078 0.759 0.014638579 1.2168573e-38 330 229
0.014638579 0.759 0.014638579 1.2998332e-38 331 229
0.015927281 0.75700003 0.014600007 1.3919194e-38 332 229
0.017254554 0.75700003 0.014600007 1.4195781e-38 333 229
0.018532733 0.755 0.014561433 1.4655308e-38 334 229
0.0198565 0.755 0.014561433 1.4655308e-38 335 229
0.021236373 0.75700003 0.014600007 1.4655654e-38 336 229
0.022504034 0.755 0.014561433 1.456346e-38 337 229
0.023827799 0.755 0.014561433 1.4471265e-38 338 229
0.025218192 0.75700003 0.014600007 1.4471265e-38 339 229
0.026545467 0.75700003 0.014600007 1.4470189e-38 340 229
0.027872739 0.75700003 0.014600007 1.4470189e-38 341 229
0.029200014 0.75700003 0.014600007 1.4009577e-38 342 229
0.030607941 0.759 0.014638579 1.3825188e-38 343 229
0.032022879 0.76099998 0.014677152 1.3736308e-38 344 229
0.033357166 0.76099998 0.014677152 1.5303634e-38 345 229
0.034691449 0.76099998 0.014677152 1.6683771e-38 346 229
-0.030688593 0.76099998 0.013342866 1.6041623e-38 297 230
-0.029354304 0.76099998 0.013342866 1.6130881e-38 298 230
-0.027946379 0.759 0.0133078 1.6314912e-38 299 230
-0.026545467 0.75700003 0.013272733 1.6315947e-38 300 230
-0.025218192 0.75700003 0.013272733 1.6500697e-38 301 230
-0.02379624 0.75400001 0.013220133 1.6960571e-38 302 230
-0.022474226 0.75400001 0.013220133 1.7053125e-38 303 230
-0.021152213 0.75400001 0.013220133 1.7053107e-38 304 230
-0.019830201 0.75400001 0.013220133 1.6960912e-38 305 230
-0.018508185 0.75400001 0.013220133 1.7052011e-38 306 230
-0.017140586 0.75199997 0.013185065 1.6775066e-38 307 230
-0.01578 0.75 0.01315 1.6774334e-38 308 230
-0.014465 0.75 0.01315 1.6589942e-38 309 230
-0.01315 0.75 0.01315 1.6404833e-38 310 230
-0.011835 0.75 0.01315 1.6220445e-38 311 230
-0.010505973 0.74900001 0.013132467 1.5759832e-38 312 230
-0.0091927266 0.74900001 0.013132467 1.5667279e-38 313 230
-0.0078794798 0.74900001 0.013132467 1.4930806e-38 314 230
-0.0065662335 0.74900001 0.013132467 1.483861e-38 315 230
-0.0052529867 0.74900001 0.013132467 1.4286532e-38 316 230
-0.003945 0.75 0.01315 1.4286532e-38 317 230
-0.0026370131 0.75199997 0.013185065 1.3548617e-38 318 230
-0.0013220133 0.75400001 0.013220133 1.2903247e-38 319 230
0 0.76099998 0.013342866 1.0597673e-38 320 230
0.0013342865 0.76099998 0.013342866 9.3987891e-39 321 230
0.00266156 0.759 0.0133078 7.6478162e-39 322 230
0.0039923396 0.759 0.0133078 7.7400104e-39 323 230
0.0053371461 0.76099998 0.013342866 8.1077111e-39 324 230
0.0066714329 0.76099998 0.013342866 8.3842966e-39 325 230
0.0080057196 0.76099998 0.013342866 8.2946149e-39 326 230
0.00931546 0.759 0.0133078 7.7418041e-39 327 230
0.01064624 0.759 0.0133078 8.5737045e-39 328 230
0.01197702 0.759 0.0133078 1.03254e-38 329 230
0.013272733 0.75700003 0.013272733 1.2258604e-38 330 230
0.014600007 0.75700003 0.013272733 1.3273105e-38 331 230
0.015927281 0.75700003 0.013272733 1.4011024e-38 332 230
0.017208965 0.755 0.013237666 1.4471642e-38 333 230
0.018532733 0.755 0.013237666 1.4471645e-38 334 230
0.0198565 0.755 0.013237666 1.4471645e-38 335 230
0.021180267 0.755 0.013237666 1.4656017e-38 336 230
0.022504034 0.755 0.013237666 1.4379431e-38 337 230
0.023827799 0.755 0.013237666 1.4563101e-38 338 230
0.025151566 0.755 0.013237666 1.4470907e-38 339 230
0.026475333 0.755 0.013237666 1.4287594e-38 340 230
0.027872739 0.75700003 0.013272733 1.4102847e-38 341 230
0.029200014 0.75700003 0.013272733 1.4009938e-38 342 230
0.030607941 0.759 0.0133078 1.3733711e-38 343 230
0.032022879 0.76099998 0.013342866 1.327388e-38 344 230
0.033357166 0.76099998 0.013342866 1.4656814e-38 345 230
0.034691449 0.76099998 0.013342866 1.6223499e-38 346 230
-0.032022879 0.76099998 0.012008579 1.6686626e-38 296 231
-0.030688593 0.76099998 0.012008579 1.5949061e-38 297 231
-0.029354304 0.76099998 0.012008579 1.6407814e-38 298 231
-0.027946379 0.759 0.01197702 1.6407814e-38 299 231
-0.026475333 0.755 0.011913899 1.6408496e-38 300 231
-0.025151566 0.755 0.011913899 1.6685081e-38 301 231
-0.023733119 0.75199997 0.011866559 1.6778334e-38 302 231
-0.022414612 0.75199997 0.011866559 1.6962726e-38 303 231
-0.021096105 0.75199997 0.011866559 1.7329684e-38 304 231
-0.0197776 0.75199997 0.011866559 1.6961262e-38 305 231
-0.018459093 0.75199997 0.011866559 1.7052359e-38 306 231
-0.017095 0.75 0.011835 1.6775772e-38 307 231
-0.01575896 0.74900001 0.01181922 1.6682492e-38 308 231
-0.014445714 0.74900001 0.01181922 1.6498103e-38 309 231
-0.013132467 0.74900001 0.01181922 1.6312639e-38 310 231
-0.01181922 0.74900001 0.01181922 1.612825e-38 311 231
-0.010505973 0.74900001 0.01181922 1.5851668e-38 312 231
-0.0091681797 0.74699998 0.011787659 1.5667279e-38 313 231
-0.0078584393 0.74699998 0.011787659 1.5115549e-38 314 231
-0.0065486995 0.74699998 0.011787659 1.5023354e-38 315 231
-0.0052389596 0.74699998 0.011787659 1.4654592e-38 316 231
-0.0039397399 0.74900001 0.01181922 1.4654592e-38 317 231
-0.0026264933 0.74900001 0.01181922 1.4193266e-38 318 231
-0.001315 0.75 0.011835 1.3824125e-38 319 231
0 0.759 0.01197702 1.1795122e-38 320 231
0.0013342865 0.76099998 0.012008579 9.4902658e-39 321 231
0.0026685731 0.76099998 0.012008579 6.4485737e-39 322 231
0.0039923396 0.759 0.01197702 6.6326035e-39 323 231
0.0053231199 0.759 0.01197702 7.276182e-39 324 231
0.0066714329 0.76099998 0.012008579 7.460932e-39 325 231
0.0080057196 0.76099998 0.012008579 7.2786833e-39 326 231
0.00931546 0.759 0.01197702 6.9102624e-39 327 231
0.010618187 0.75700003 0.01194546 7.834357e-39 328 231
0.01194546 0.75700003 0.01194546 1.0600189e-38 329 231
0.013237666 0.755 0.011913899 1.2719216e-38 330 231
0.014561433 0.755 0.011913899 1.3548967e-38 331 231
0.015885198 0.755 0.011913899 1.4287604e-38 332 231
0.017208965 0.755 0.011913899 1.4656747e-38 333 231
0.018532733 0.755 0.011913899 1.4747506e-38 334 231
0.0198565 0.755 0.011913899 1.4747506e-38 335 231
0.021180267 0.755 0.011913899 1.4747493e-38 336 231
0.022504034 0.755 0.011913899 1.4562743e-38 337 231
0.023827799 0.755 0.011913899 1.4562383e-38 338 231
0.025151566 0.755 0.011913899 1.4562383e-38 339 231
0.026475333 0.755 0.011913899 1.4287238e-38 340 231
0.027799098 0.755 0.011913899 1.4102488e-38 341 231
0.029122867 0.755 0.011913899 1.4101421e-38 342 231
0.030527288 0.75700003 0.01194546 1.4101421e-38 343 231
0.031938717 0.759 0.01197702 1.3181304e-38 344 231
0.033357166 0.76099998 0.012008579 1.3826674e-38 345 231
0.034691449 0.76099998 0.012008579 1.5302241e-38 346 231
-0.032022879 0.76099998 0.010674292 1.6501866e-38 296 232
-0.030688593 0.76099998 0.010674292 1.5856496e-38 297 232
-0.029354304 0.76099998 0.010674292 1.6407445e-38 298 232
-0.027946379 0.759 0.01064624 1.6407445e-38 299 232
-0.026475333 0.755 0.010590133 1.6501045e-38 300 232
-0.025118252 0.75400001 0.010576107 1.6685435e-38 301 232
-0.023733119 0.75199997 0.010548052 1.6779061e-38 302 232
-0.022414612 0.75199997 0.010548052 1.7055288e-38 303 232
-0.021096105 0.75199997 0.010548052 1.7330786e-38 304 232
-0.019724999 0.75 0.01052 1.6869808e-38 305 232
-0.018409999 0.75 0.01052 1.6961262e-38 306 232
-0.017095 0.75 0.01052 1.6592119e-38 307 232
-0.01575896 0.74900001 0.010505973 1.6500261e-38 308 232
-0.014407139 0.74699998 0.010477919 1.6039285e-38 309 232
-0.013097399 0.74699998 0.010477919 1.6313356e-38 310 232
-0.011787659 0.74699998 0.010477919 1.6037132e-38 311 232
-0.010477919 0.74699998 0.010477919 1.5852026e-38 312 232
-0.0091681797 0.74699998 0.010477919 1.5667638e-38 313 232
-0.0078584393 0.74699998 0.010477919 1.5116266e-38 314 232
-0.0065486995 0.74699998 0.010477919 1.5023713e-38 315 232
-0.0052389596 0.74699998 0.010477919 1.4748212e-38 316 232
-0.0039292197 0.74699998 0.010477919 1.4656017e-38 317 232
-0.0026194798 0.74699998 0.010477919 1.4379449e-38 318 232
-0.0013132467 0.74900001 0.010505973 1.4010668e-38 319 232
0 0.759 0.01064624 1.3270601e-38 320 232
0.00133078 0.759 0.01064624 1.068915e-38 321 232
0.00266156 0.759 0.01064624 6.264544e-39 322 232
0.0039923396 0.759 0.01064624 5.6191844e-39 323 232
0.0053231199 0.759 0.01064624 5.9840153e-39 324 232
0.0066538998 0.759 0.01064624 5.6152384e-39 325 232
0.0079846792 0.759 0.01064624 4.700112e-39 326 232
0.00931546 0.759 0.01064624 6.7283864e-39 327 232
0.010618187 0.75700003 0.010618187 1.0043431e-38 328 232
0.011913899 0.755 0.010590133 1.2533061e-38 329 232
0.013237666 0.755 0.010590133 1.345642e-38 330 232
0.014561433 0.755 0.010590133 1.4193986e-38 331 232
0.01586416 0.75400001 0.010576107 1.4472361e-38 332 232
0.017186172 0.75400001 0.010576107 1.4564917e-38 333 232
0.018508185 0.75400001 0.010576107 1.4565267e-38 334 232
0.019830201 0.75400001 0.010576107 1.447307e-38 335 232
0.021152213 0.75400001 0.010576107 1.4748212e-38 336 232
0.022474226 0.75400001 0.010576107 1.4656017e-38 337 232
0.02379624 0.75400001 0.010576107 1.4471632e-38 338 232
0.025118252 0.75400001 0.010576107 1.4471632e-38 339 232
0.026440267 0.75400001 0.010576107 1.4287607e-38 340 232
0.027799098 0.755 0.010590133 1.4103217e-38 341 232
0.029122867 0.755 0.010590133 1.3918471e-38 342 232
0.030446632 0.755 0.010590133 1.3826276e-38 343 232
0.031770397 0.755 0.010590133 1.3640112e-38 344 232
0.033094164 0.755 0.010590133 1.3732307e-38 345 232
0.034691449 0.76099998 0.010674292 1.456394e-38 346 232
-0.032064959 0.76200002 0.0093522798 1.650077e-38 296 233
-0.030688593 0.76099998 0.0093400059 1.6131989e-38 297 233
-0.029354304 0.76099998 0.0093400059 1.6499991e-38 298 233
-0.027946379 0.759 0.00931546 1.6407795e-38 299 233
-0.026475333 0.755 0.0092663663 1.6501048e-38 300 233
-0.025118252 0.75400001 0.0092540924 1.686947e-38 301 233
-0.023733119 0.75199997 0.0092295464 1.6779429e-38 302 233
-0.022414612 0.75199997 0.0092295464 1.6963821e-38 303 233
-0.021096105 0.75199997 0.0092295464 1.723859e-38 304 233
-0.0196987 0.74900001 0.0091927266 1.6962003e-38 305 233
-0.018385453 0.74900001 0.0091927266 1.723711e-38 306 233
-0.017072206 0.74900001 0.0091927266 1.6867968e-38 307 233
-0.015716879 0.74699998 0.0091681797 1.6683927e-38 308 233
-0.014407139 0.74699998 0.0091681797 1.6407703e-38 309 233
-0.013097399 0.74699998 0.0091681797 1.6313715e-38 310 233
-0.011787659 0.74699998 0.0091681797 1.6037491e-38 311 233
-0.010477919 0.74699998 0.0091681797 1.5944938e-38 312 233
-0.0091559067 0.74599999 0.0091559067 1.576055e-38 313 233
-0.0078479191 0.74599999 0.0091559067 1.5667279e-38 314 233
-0.0065399334 0.74599999 0.0091559067 1.5482891e-38 315 233
-0.0052319462 0.74599999 0.0091559067 1.5390696e-38 316 233
-0.0039239596 0.74599999 0.0091559067 1.5482892e-38 317 233
-0.0026194798 0.74699998 0.0091681797 1.4746787e-38 318 233
-0.0013097399 0.74699998 0.0091681797 1.4746787e-38 319 233
0 0.74900001 0.0091927266 1.4192537e-38 320 233
0.0013132467 0.74900001 0.0091927266 1.2717781e-38 321 233
0.0026440267 0.75400001 0.0092540924 9.6725019e-39 322 233
0.0039923396 0.759 0.00931546 7.3672874e-39 323 233
0.0053231199 0.759 0.00931546 6.0787206e-39 324 233
0.0066538998 0.759 0.00931546 5.5255553e-39 325 233
0.0079846792 0.759 0.00931546 4.9774121e-39 326 233
0.0092909131 0.75700003 0.0092909131 8.8495866e-39 327 233
0.010590133 0.755 0.0092663663 1.1978793e-38 328 233
0.01189812 0.75400001 0.0092540924 1.3822702e-38 329 233
0.013185065 0.75199997 0.0092295464 1.4193983e-38 330 233
0.014503572 0.75199997 0.0092295464 1.4839353e-38 331 233
0.015822079 0.75199997 0.0092295464 1.4839703e-38 332 233
0.017140586 0.75199997 0.0092295464 1.4839703e-38 333 233
0.018409999 0.75 0.0092049995 1.4840761e-38 334 233
0.019724999 0.75 0.0092049995 1.4748565e-38 335 233
0.021096105 0.75199997 0.0092295464 1.4840042e-38 336 233
0.022414612 0.75199997 0.0092295464 1.4747848e-38 337 233
0.02379624 0.75400001 0.0092540924 1.483861e-38 338 233
0.025118252 0.75400001 0.0092540924 1.483861e-38 339 233
0.026440267 0.75400001 0.0092540924 1.4562027e-38 340 233
0.027762281 0.75400001 0.0092540924 1.4562027e-38 341 233
0.029122867 0.755 0.0092663663 1.4193967e-38 342 233
0.030446632 0.755 0.0092663663 1.4101771e-38 343 233
0.031770397 0.755 0.0092663663 1.364226e-38 344 233
0.033094164 0.755 0.0092663663 1.3457869e-38 345 233
0.034600276 0.759 0.00931546 1.4010041e-38 346 233
0.036073081 0.76200002 0.0093522798 1.5577725e-38 347 233
-0.034737039 0.76200002 0.0080162399 1.7516056e-38 294 234
-0.033401001 0.76200002 0.0080162399 1.6686295e-38 295 234
-0.032022879 0.76099998 0.0080057196 1.6315654e-38 296 234
-0.030688593 0.76099998 0.0080057196 1.6223459e-38 297 234
-0.029277159 0.759 0.0079846792 1.6591458e-38 298 234
-0.027872739 0.75700003 0.0079636406 1.6684012e-38 299 234
-0.026475333 0.755 0.0079425992 1.6685429e-38 300 234
-0.025118252 0.75400001 0.00793208 1.6777625e-38 301 234
-0.023733119 0.75199997 0.0079110395 1.705494e-38 302 234
-0.022355 0.75 0.00789 1.7147136e-38 303 234
-0.02104 0.75 0.00789 1.7147133e-38 304 234
-0.0196987 0.74900001 0.0078794798 1.6962742e-38 305 234
-0.018385453 0.74900001 0.0078794798 1.7146378e-38 306 234
-0.017072206 0.74900001 0.0078794798 1.6593204e-38 307 234
-0.015716879 0.74699998 0.0078584393 1.6685003e-38 308 234
-0.014407139 0.74699998 0.0078584393 1.6224391e-38 309 234
-0.013097399 0.74699998 0.0078584393 1.613112e-38 310 234
-0.011771879 0.74599999 0.0078479191 1.613112e-38 311 234
-0.010463892 0.74599999 0.0078479191 1.5761984e-38 312 234
-0.0091313599 0.74400002 0.0078268806 1.5761984e-38 313 234
-0.0078268806 0.74400002 0.0078268806 1.5576879e-38 314 234
-0.0065223998 0.74400002 0.0078268806 1.5576879e-38 315 234
-0.0052179201 0.74400002 0.0078268806 1.557652e-38 316 234
-0.0039134403 0.74400002 0.0078268806 1.5391773e-38 317 234
-0.00260896 0.74400002 0.0078268806 1.5116266e-38 318 234
-0.00130448 0.74400002 0.0078268806 1.4931519e-38 319 234
0 0.74400002 0.0078268806 1.4930806e-38 320 234
0.0013079866 0.74599999 0.0078479191 1.4377636e-38 321 234
0.0026159731 0.74599999 0.0078479191 1.3545736e-38 322 234
0.0039923396 0.759 0.0079846792 1.253124e-38 323 234
0.0053231199 0.759 0.0079846792 1.1058285e-38 324 234
0.0066538998 0.759 0.0079846792 1.1427062e-38 325 234
0.0079846792 0.759 0.0079846792 1.1706913e-38 326 234
0.0092663663 0.755 0.0079425992 1.2997651e-38 327 234
0.010576107 0.75400001 0.00793208 1.4009986e-38 328 234
0.011866559 0.75199997 0.0079110395 1.456316e-38 329 234
0.01315 0.75 0.00789 1.5115945e-38 330 234
0.014465 0.75 0.00789 1.5115945e-38 331 234
0.01578 0.75 0.00789 1.4748942e-38 332 234
0.017095 0.75 0.00789 1.4932974e-38 333 234
0.018385453 0.74900001 0.0078794798 1.5024803e-38 334 234
0.0196987 0.74900001 0.0078794798 1.4840412e-38 335 234
0.021011947 0.74900001 0.0078794798 1.4840059e-38 336 234
0.022355 0.75 0.00789 1.4747862e-38 337 234
0.023669999 0.75 0.00789 1.4746434e-38 338 234
0.025051624 0.75199997 0.0079110395 1.4746434e-38 339 234
0.026440267 0.75400001 0.00793208 1.4378731e-38 340 234
0.027762281 0.75400001 0.00793208 1.4286535e-38 341 234
0.029084291 0.75400001 0.00793208 1.4102137e-38 342 234
0.030446632 0.755 0.0079425992 1.4009941e-38 343 234
0.031770397 0.755 0.0079425992 1.3641181e-38 344 234
0.033094164 0.755 0.0079425992 1.3825572e-38 345 234
0.034417931 0.755 0.0079425992 1.3824914e-38 346 234
0.03583638 0.75700003 0.0079636406 1.474651e-38 347 234
0.037163652 0.75700003 0.0079636406 1.4194477e-38 348 234
-0.036167759 0.764 0.006697733 1.7515355e-38 293 235
-0.034737039 0.76200002 0.0066801999 1.7331659e-38 294 235
-0.033357166 0.76099998 0.0066714329 1.6410061e-38 295 235
-0.032022879 0.76099998 0.0066714329 1.6591518e-38 296 235
-0.030607941 0.759 0.0066538998 1.631529e-38 297 235
-0.029277159 0.759 0.0066538998 1.6683656e-38 298 235
-0.027799098 0.755 0.0066188332 1.6683656e-38 299 235
-0.026440267 0.75400001 0.0066100666 1.6501766e-38 300 235
-0.025051624 0.75199997 0.0065925326 1.6686158e-38 301 235
-0.023669999 0.75 0.006575 1.6871275e-38 302 235
-0.022355 0.75 0.006575 1.696347e-38 303 235
-0.021011947 0.74900001 0.0065662335 1.7147486e-38 304 235
-0.0196987 0.74900001 0.0065662335 1.6963095e-38 305 235
-0.018336359 0.74699998 0.0065486995 1.7329675e-38 306 235
-0.017026618 0.74699998 0.0065486995 1.6868696e-38 307 235
-0.015695838 0.74599999 0.0065399334 1.6869033e-38 308 235
-0.014387853 0.74599999 0.0065399334 1.6776838e-38 309 235
-0.0130448 0.74400002 0.0065223998 1.6591374e-38 310 235
-0.011740319 0.74400002 0.0065223998 1.6591374e-38 311 235
-0.01043584 0.74400002 0.0065223998 1.6590298e-38 312 235
-0.0091313599 0.74400002 0.0065223998 1.6498103e-38 313 235
-0.0078268806 0.74400002 0.0065223998 1.6497745e-38 314 235
-0.0065223998 0.74400002 0.0065223998 1.6313356e-38 315 235
-0.0052038929 0.74199998 0.0065048663 1.6311921e-38 316 235
-0.0039029196 0.74199998 0.0065048663 1.6127533e-38 317 235
-0.00260896 0.74400002 0.0065223998 1.5759473e-38 318 235
-0.00130448 0.74400002 0.0065223998 1.5575085e-38 319 235
0 0.74400002 0.0065223998 1.5206308e-38 320 235
0.00130448 0.74400002 0.0065223998 1.5298502e-38 321 235
0.0026019465 0.74199998 0.0065048663 1.4746434e-38 322 235
0.0039029196 0.74199998 0.0065048663 1.4193619e-38 323 235
0.0052179201 0.74400002 0.0065223998 1.3273124e-38 324 235
0.0065223998 0.74400002 0.0065223998 1.336532e-38 325 235
0.0078268806 0.74400002 0.0065223998 1.3182373e-38 326 235
0.009106813 0.74199998 0.0065048663 1.3642993e-38 327 235
0.010407786 0.74199998 0.0065048663 1.4654604e-38 328 235
0.01181922 0.74900001 0.0065662335 1.4839356e-38 329 235
0.013132467 0.74900001 0.0065662335 1.4931536e-38 330 235
0.014445714 0.74900001 0.0065662335 1.5115567e-38 331 235
0.01575896 0.74900001 0.0065662335 1.5208469e-38 332 235
0.017072206 0.74900001 0.0065662335 1.5116273e-38 333 235
0.018385453 0.74900001 0.0065662335 1.5116273e-38 334 235
0.0196987 0.74900001 0.0065662335 1.4932241e-38 335 235
0.021011947 0.74900001 0.0065662335 1.5115923e-38 336 235
0.022325192 0.74900001 0.0065662335 1.4839336e-38 337 235
0.023669999 0.75 0.006575 1.474679e-38 338 235
0.024984999 0.75 0.006575 1.4654594e-38 339 235
0.02637013 0.75199997 0.0065925326 1.4562396e-38 340 235
0.027762281 0.75400001 0.0066100666 1.4378005e-38 341 235
0.029084291 0.75400001 0.0066100666 1.4102493e-38 342 235
0.030446632 0.755 0.0066188332 1.4009938e-38 343 235
0.031770397 0.755 0.0066188332 1.3733374e-38 344 235
0.033094164 0.755 0.0066188332 1.3918125e-38 345 235
0.034417931 0.755 0.0066188332 1.4191525e-38 346 235
0.035741698 0.755 0.0066188332 1.4744699e-38 347 235
0.037065465 0.755 0.0066188332 1.3914273e-38 348 235
-0.036025736 0.76099998 0.0053371461 1.7514633e-38 293 236
-0.034691449 0.76099998 0.0053371461 1.7055784e-38 294 236
-0.033357166 0.76099998 0.0053371461 1.6133469e-38 295 236
-0.032022879 0.76099998 0.0053371461 1.6499673e-38 296 236
-0.030607941 0.759 0.0053231199 1.6499673e-38 297 236
-0.029200014 0.75700003 0.0053090933 1.6591458e-38 298 236
-0.027799098 0.755 0.0052950666 1.6591458e-38 299 236
-0.026440267 0.75400001 0.0052880533 1.6501048e-38 300 236
-0.025051624 0.75199997 0.0052740262 1.686947e-38 301 236
-0.023669999 0.75 0.00526 1.6779795e-38 302 236
-0.022325192 0.74900001 0.0052529867 1.6964186e-38 303 236
-0.021011947 0.74900001 0.0052529867 1.705529e-38 304 236
-0.019646099 0.74699998 0.0052389596 1.6963095e-38 305 236
-0.018336359 0.74699998 0.0052389596 1.7329687e-38 306 236
-0.017003827 0.74599999 0.0052319462 1.686871e-38 307 236
-0.015695838 0.74599999 0.0052319462 1.677792e-38 308 236
-0.014387853 0.74599999 0.0052319462 1.6593529e-38 309 236
-0.0130448 0.74400002 0.0052179201 1.6868321e-38 310 236
-0.011740319 0.74400002 0.0052179201 1.6960516e-38 311 236
-0.01043584 0.74400002 0.0052179201 1.7143113e-38 312 236
-0.009106813 0.74199998 0.0052038929 1.7050917e-38 313 236
-0.0078058392 0.74199998 0.0052038929 1.7050551e-38 314 236
-0.0065048663 0.74199998 0.0052038929 1.6958357e-38 315 236
-0.0052038929 0.74199998 0.0052038929 1.695764e-38 316 236
-0.0039029196 0.74199998 0.0052038929 1.6588504e-38 317 236
-0.0026019465 0.74199998 0.0052038929 1.612825e-38 318 236
-0.0013009732 0.74199998 0.0052038929 1.5852026e-38 319 236
0 0.74199998 0.0052038929 1.5574726e-38 320 236
0.0013009732 0.74199998 0.0052038929 1.566692e-38 321 236
0.0026019465 0.74199998 0.0052038929 1.5483273e-38 322 236
0.0039029196 0.74199998 0.0052038929 1.576022e-38 323 236
0.0052038929 0.74199998 0.0052038929 1.5116681e-38 324 236
0.0065048663 0.74199998 0.0052038929 1.4932648e-38 325 236
0.0078058392 0.74199998 0.0052038929 1.4656056e-38 326 236
0.009106813 0.74199998 0.0052038929 1.456386e-38 327 236
0.010407786 0.74199998 0.0052038929 1.5207765e-38 328 236
0.011787659 0.74699998 0.0052389596 1.511557e-38 329 236
0.013097399 0.74699998 0.0052389596 1.4931889e-38 330 236
0.014407139 0.74699998 0.0052389596 1.511592e-38 331 236
0.015716879 0.74699998 0.0052389596 1.5207394e-38 332 236
0.017026618 0.74699998 0.0052389596 1.5207394e-38 333 236
0.018336359 0.74699998 0.0052389596 1.520775e-38 334 236
0.019646099 0.74699998 0.0052389596 1.520775e-38 335 236
0.021011947 0.74900001 0.0052529867 1.4931533e-38 336 236
0.022325192 0.74900001 0.0052529867 1.4931533e-38 337 236
0.02363844 0.74900001 0.0052529867 1.4838986e-38 338 236
0.024951685 0.74900001 0.0052529867 1.474679e-38 339 236
0.0263 0.75 0.00526 1.4562399e-38 340 236
0.027688639 0.75199997 0.0052740262 1.4469844e-38 341 236
0.029084291 0.75400001 0.0052880533 1.3918471e-38 342 236
0.030406307 0.75400001 0.0052880533 1.3826276e-38 343 236
0.03172832 0.75400001 0.0052880533 1.3825572e-38 344 236
0.033050332 0.75400001 0.0052880533 1.3825572e-38 345 236
0.034417931 0.755 0.0052950666 1.4191879e-38 346 236
0.035741698 0.755 0.0052950666 1.437627e-38 347 236
0.037065465 0.755 0.0052950666 1.3822056e-38 348 236
-0.036025736 0.76099998 0.0040028598 1.7514633e-38 293 237
-0.034691449 0.76099998 0.0040028598 1.7054339e-38 294 237
-0.033357166 0.76099998 0.0040028598 1.6224218e-38 295 237
-0.031938717 0.759 0.0039923396 1.6589701e-38 296 237
-0.030607941 0.759 0.0039923396 1.6682255e-38 297 237
-0.029200014 0.75700003 0.0039818203 1.6591458e-38 298 237
-0.027799098 0.755 0.0039712996 1.6499262e-38 299 237
-0.026440267 0.75400001 0.00396604 1.6408852e-38 300 237
-0.025051624 0.75199997 0.0039555198 1.6777274e-38 301 237
-0.023669999 0.75 0.003945 1.6779429e-38 302 237
-0.022325192 0.74900001 0.0039397399 1.6779429e-38 303 237
-0.021011947 0.74900001 0.0039397399 1.7146041e-38 304 237
-0.019646099 0.74699998 0.0039292197 1.6869454e-38 305 237
-0.018336359 0.74699998 0.0039292197 1.7237494e-38 306 237
-0.017003827 0.74599999 0.0039239596 1.6960909e-38 307 237
-0.015653761 0.74400002 0.0039134403 1.6869766e-38 308 237
-0.01434928 0.74400002 0.0039134403 1.677757e-38 309 237
-0.013009733 0.74199998 0.0039029196 1.7420425e-38 310 237
-0.01170876 0.74199998 0.0039029196 1.7604817e-38 311 237
-0.010407786 0.74199998 0.0039029196 1.7695931e-38 312 237
-0.009106813 0.74199998 0.0039029196 1.7695931e-38 313 237
-0.0078058392 0.74199998 0.0039029196 1.7785953e-38 314 237
-0.0065048663 0.74199998 0.0039029196 1.7601564e-38 315 237
-0.0052038929 0.74199998 0.0039029196 1.7326417e-38 316 237
-0.0039029196 0.74199998 0.0039029196 1.6865445e-38 317 237
-0.0026019465 0.74199998 0.0039029196 1.6405909e-38 318 237
-0.0013009732 0.74199998 0.0039029196 1.6037132e-38 319 237
0 0.74199998 0.0039029196 1.603498e-38 320 237
0.0013009732 0.74199998 0.0039029196 1.603498e-38 321 237
0.0026019465 0.74199998 0.0039029196 1.548433e-38 322 237
0.0039029196 0.74199998 0.0039029196 1.548433e-38 323 237
0.0052038929 0.74199998 0.0039029196 1.5299239e-38 324 237
0.0065048663 0.74199998 0.0039029196 1.5299239e-38 325 237
0.0078058392 0.74199998 0.0039029196 1.4932257e-38 326 237
0.009106813 0.74199998 0.0039029196 1.4932257e-38 327 237
0.01043584 0.74400002 0.0039134403 1.511592e-38 328 237
0.011740319 0.74400002 0.0039134403 1.511592e-38 329 237
0.013079867 0.74599999 0.0039239596 1.5115917e-38 330 237
0.014387853 0.74599999 0.0039239596 1.4931885e-38 331 237
0.015695838 0.74599999 0.0039239596 1.5115549e-38 332 237
0.017026618 0.74699998 0.0039292197 1.5208103e-38 333 237
0.018336359 0.74699998 0.0039292197 1.5391773e-38 334 237
0.019646099 0.74699998 0.0039292197 1.5299578e-38 335 237
0.020955838 0.74699998 0.0039292197 1.529922e-38 336 237
0.022265578 0.74699998 0.0039292197 1.5391415e-38 337 237
0.023575317 0.74699998 0.0039292197 1.5115204e-38 338 237
0.024951685 0.74900001 0.0039397399 1.5022648e-38 339 237
0.026264934 0.74900001 0.0039397399 1.4654594e-38 340 237
0.027615 0.75 0.003945 1.4469844e-38 341 237
0.028929999 0.75 0.003945 1.4101789e-38 342 237
0.030325651 0.75199997 0.0039555198 1.4101789e-38 343 237
0.03172832 0.75400001 0.00396604 1.4008884e-38 344 237
0.033050332 0.75400001 0.00396604 1.4008884e-38 345 237
0.034372345 0.75400001 0.00396604 1.409968e-38 346 237
0.035741698 0.755 0.0039712996 1.4652854e-38 347 237
0.037065465 0.755 0.0039712996 1.4744737e-38 348 237
-0.036025736 0.76099998 0.0026685731 1.7514633e-38 293 238
-0.034691449 0.76099998 0.0026685731 1.6869941e-38 294 238
-0.033357166 0.76099998 0.0026685731 1.6316767e-38 295 238
-0.031938717 0.759 0.00266156 1.6682605e-38 296 238
-0.030607941 0.759 0.00266156 1.6682605e-38 297 238
-0.029200014 0.75700003 0.0026545466 1.6499618e-38 298 238
-0.027799098 0.755 0.0026475333 1.6499618e-38 299 238
-0.026440267 0.75400001 0.0026440267 1.6132985e-38 300 238
-0.025051624 0.75199997 0.0026370131 1.6501766e-38 301 238
-0.023669999 0.75 0.00263 1.6686511e-38 302 238
-0.022325192 0.74900001 0.0026264933 1.6594315e-38 303 238
-0.020955838 0.74699998 0.0026194798 1.6869454e-38 304 238
-0.019646099 0.74699998 0.0026194798 1.6777259e-38 305 238
-0.018311813 0.74599999 0.0026159731 1.7053107e-38 306 238
-0.016958239 0.74400002 0.00260896 1.6960912e-38 307 238
-0.015653761 0.74400002 0.00260896 1.6961612e-38 308 238
-0.01434928 0.74400002 0.00260896 1.6961612e-38 309 238
-0.013009733 0.74199998 0.0026019465 1.7237108e-38 310 238
-0.01170876 0.74199998 0.0026019465 1.7513334e-38 311 238
-0.010407786 0.74199998 0.0026019465 1.7696634e-38 312 238
-0.009106813 0.74199998 0.0026019465 1.7881384e-38 313 238
-0.0078058392 0.74199998 0.0026019465 1.7971417e-38 314 238
-0.0065048663 0.74199998 0.0026019465 1.7787029e-38 315 238
-0.0051968796 0.741 0.0025984398 1.760264e-38 316 238
-0.0038976599 0.741 0.0025984398 1.7326058e-38 317 238
-0.0026019465 0.74199998 0.0026019465 1.6865445e-38 318 238
-0.0013009732 0.74199998 0.0026019465 1.6588863e-38 319 238
0 0.74199998 0.0026019465 1.6403398e-38 320 238
0.0012992199 0.741 0.0025984398 1.6403398e-38 321 238
0.0025984398 0.741 0.0025984398 1.6035697e-38 322 238
0.0039029196 0.74199998 0.0026019465 1.5851668e-38 323 238
0.0052038929 0.74199998 0.0026019465 1.5759832e-38 324 238
0.0065048663 0.74199998 0.0026019465 1.5667279e-38 325 238
0.0078058392 0.74199998 0.0026019465 1.5391062e-38 326 238
0.009106813 0.74199998 0.0026019465 1.5391062e-38 327 238
0.01043584 0.74400002 0.00260896 1.5483614e-38 328 238
0.011740319 0.74400002 0.00260896 1.5391059e-38 329 238
0.0130448 0.74400002 0.00260896 1.5299578e-38 330 238
0.01434928 0.74400002 0.00260896 1.5299578e-38 331 238
0.015653761 0.74400002 0.00260896 1.520846e-38 332 238
0.017003827 0.74599999 0.0026159731 1.5116266e-38 333 238
0.018311813 0.74599999 0.0026159731 1.5299937e-38 334 238
0.019619798 0.74599999 0.0026159731 1.5299937e-38 335 238
0.020927785 0.74599999 0.0026159731 1.5391055e-38 336 238
0.022265578 0.74699998 0.0026194798 1.5391055e-38 337 238
0.023575317 0.74699998 0.0026194798 1.520667e-38 338 238
0.024885058 0.74699998 0.0026194798 1.5022638e-38 339 238
0.026264934 0.74900001 0.0026264933 1.4929381e-38 340 238
0.027578179 0.74900001 0.0026264933 1.4744989e-38 341 238
0.028929999 0.75 0.00263 1.4376578e-38 342 238
0.030325651 0.75199997 0.0026370131 1.4284383e-38 343 238
0.031644158 0.75199997 0.0026370131 1.3824853e-38 344 238
0.033050332 0.75400001 0.0026440267 1.4008884e-38 345 238
0.034372345 0.75400001 0.0026440267 1.4098605e-38 346 238
0.035741698 0.755 0.0026475333 1.4928725e-38 347 238
0.037065465 0.755 0.0026475333 1.5482675e-38 348 238
-0.036025736 0.76099998 0.0013342865 1.751355e-38 293 239
-0.034691449 0.76099998 0.0013342865 1.6685907e-38 294 239
-0.033269498 0.759 0.00133078 1.6224569e-38 295 239
-0.031938717 0.759 0.00133078 1.6499653e-38 296 239
-0.030607941 0.759 0.00133078 1.6315262e-38 297 239
-0.029200014 0.75700003 0.0013272733 1.6315228e-38 298 239
-0.027799098 0.755 0.0013237667 1.6315228e-38 299 239
-0.026440267 0.75400001 0.0013220133 1.6317725e-38 300 239
-0.025051624 0.75199997 0.0013185065 1.6409921e-38 301 239
-0.023669999 0.75 0.001315 1.6778331e-38 302 239
-0.022265578 0.74699998 0.0013097399 1.6778331e-38 303 239
-0.020955838 0.74699998 0.0013097399 1.7053473e-38 304 239
-0.019619798 0.74599999 0.0013079866 1.7053473e-38 305 239
-0.018311813 0.74599999 0.0013079866 1.6870514e-38 306 239
-0.016958239 0.74400002 0.00130448 1.6870514e-38 307 239
-0.015611678 0.74199998 0.0013009732 1.6870864e-38 308 239
-0.014310705 0.74199998 0.0013009732 1.6778669e-38 309 239
-0.013009733 0.74199998 0.0013009732 1.7237473e-38 310 239
-0.01170876 0.74199998 0.0013009732 1.7329669e-38 311 239
-0.010393759 0.741 0.0012992199 1.7605167e-38 312 239
-0.0090945391 0.741 0.0012992199 1.7697363e-38 313 239
-0.0077953199 0.741 0.0012992199 1.7788116e-38 314 239
-0.0064960998 0.741 0.0012992199 1.7788116e-38 315 239
-0.0051968796 0.741 0.0012992199 1.7602999e-38 316 239
-0.0038976599 0.741 0.0012992199 1.7326417e-38 317 239
-0.0025984398 0.741 0.0012992199 1.7234581e-38 318 239
-0.0013009732 0.74199998 0.0013009732 1.6865804e-38 319 239
0 0.74199998 0.0013009732 1.6222956e-38 320 239
0.0012992199 0.741 0.0012992199 1.6038567e-38 321 239
0.0025984398 0.741 0.0012992199 1.6220803e-38 322 239
0.0038976599 0.741 0.0012992199 1.6128609e-38 323 239
0.0051968796 0.741 0.0012992199 1.6127174e-38 324 239
0.0065048663 0.74199998 0.0013009732 1.603498e-38 325 239
0.0078058392 0.74199998 0.0013009732 1.5666923e-38 326 239
0.009106813 0.74199998 0.0013009732 1.5666923e-38 327 239
0.010407786 0.74199998 0.0013009732 1.5484684e-38 328 239
0.01170876 0.74199998 0.0013009732 1.5484684e-38 329 239
0.013009733 0.74199998 0.0013009732 1.5301013e-38 330 239
0.014310705 0.74199998 0.0013009732 1.5208819e-38 331 239
0.015653761 0.74400002 0.00130448 1.520846e-38 332 239
0.016958239 0.74400002 0.00130448 1.520846e-38 333 239
