# .PCD v.7 - Point Cloud Data file format
FIELDS x y z rgb imX imY
SIZE 4 4 4 4 4 4
TYPE F F F F F F
COUNT 1 1 1 1 1 1
WIDTH 855
HEIGHT 1
VIEWPOINT 0 0 0 1 0 0 0
POINTS 855
DATA ascii
0.020356199 0.77399999 0.03528408 9.9637926e-39 335 214
0.021713279 0.77399999 0.03528408 1.0422618e-38 336 214
0.02307036 0.77399999 0.03528408 1.0514815e-38 337 214
0.02442744 0.77399999 0.03528408 1.0789272e-38 338 214
0.025784519 0.77399999 0.03528408 1.0697077e-38 339 214
0.027141599 0.77399999 0.03528408 1.0788219e-38 340 214
0.028498679 0.77399999 0.03528408 1.0603469e-38 341 214
0.029855758 0.77399999 0.03528408 1.0418734e-38 342 214
0.031212838 0.77399999 0.03528408 1.0418734e-38 343 214
0.032569919 0.77399999 0.03528408 9.5922383e-39 344 214
-0.019220039 0.78299999 0.034321502 1.5029295e-38 306 215
-0.017801592 0.78100002 0.034233831 1.364636e-38 307 215
-0.016432239 0.78100002 0.034233831 1.1347917e-38 308 215
-0.01510146 0.78299999 0.034321502 1.1255362e-38 309 215
-0.013693534 0.78100002 0.034233831 1.1255675e-38 310 215
-0.01232418 0.78100002 0.034233831 1.0334077e-38 311 215
-0.010954826 0.78100002 0.034233831 1.0149275e-38 312 215
-0.0095854728 0.78100002 0.034233831 9.4117104e-39 313 215
-0.0082161194 0.78100002 0.034233831 9.9623577e-39 314 215
-0.0068467669 0.78100002 0.034233831 1.023894e-38 315 215
-0.0054774131 0.78100002 0.034233831 1.0425481e-38 316 215
-0.0041027996 0.77999997 0.034189999 1.0701705e-38 317 215
-0.0027351999 0.77999997 0.034189999 1.0516599e-38 318 215
-0.0013675999 0.77999997 0.034189999 1.0055628e-38 319 215
0 0.77999997 0.034189999 1.0331135e-38 320 215
0.0013675999 0.77999997 0.034189999 1.0607717e-38 321 215
0.0027351999 0.77999997 0.034189999 1.0240021e-38 322 215
0.0041027996 0.77999997 0.034189999 1.0147824e-38 323 215
0.0054703997 0.77999997 0.034189999 9.8723158e-39 324 215
0.0068379994 0.77999997 0.034189999 9.8723158e-39 325 215
0.0081845606 0.778 0.034102332 9.2287499e-39 326 215
0.0095486529 0.778 0.034102332 9.1365557e-39 327 215
0.010912746 0.778 0.034102332 9.0443614e-39 328 215
0.012276839 0.778 0.034102332 8.9521672e-39 329 215
0.013640933 0.778 0.034102332 8.7692137e-39 330 215
0.015005025 0.778 0.034102332 8.7692137e-39 331 215
0.01632704 0.77600002 0.034014668 8.9525259e-39 332 215
0.017687626 0.77600002 0.034014668 9.0450789e-39 333 215
0.018999118 0.77399999 0.033927001 9.9634339e-39 334 215
0.020356199 0.77399999 0.033927001 9.9634339e-39 335 215
0.021713279 0.77399999 0.033927001 1.0330417e-38 336 215
0.02307036 0.77399999 0.033927001 1.0606641e-38 337 215
0.02442744 0.77399999 0.033927001 1.0421899e-38 338 215
0.025784519 0.77399999 0.033927001 1.0329704e-38 339 215
0.027141599 0.77399999 0.033927001 1.0328294e-38 340 215
0.028498679 0.77399999 0.033927001 1.0236099e-38 341 215
0.029855758 0.77399999 0.033927001 1.041836e-38 342 215
0.031212838 0.77399999 0.033927001 1.041836e-38 343 215
0.032569919 0.77399999 0.033927001 9.6811815e-39 344 215
0.033927001 0.77399999 0.033927001 9.4967889e-39 345 215
-0.021909652 0.78100002 0.032864477 1.714729e-38 304 216
-0.020540299 0.78100002 0.032864477 1.6317528e-38 305 216
-0.019220039 0.78299999 0.032948639 1.3188606e-38 306 216
-0.017801592 0.78100002 0.032864477 1.226629e-38 307 216
-0.016432239 0.78100002 0.032864477 1.1441166e-38 308 216
-0.015062887 0.78100002 0.032864477 1.1072025e-38 309 216
-0.013693534 0.78100002 0.032864477 1.0979421e-38 310 216
-0.01232418 0.78100002 0.032864477 9.9652696e-39 311 216
-0.010954826 0.78100002 0.032864477 1.0055628e-38 312 216
-0.0095854728 0.78100002 0.032864477 9.7794041e-39 313 216
-0.0082055992 0.77999997 0.032822397 1.0055987e-38 314 216
-0.0068379994 0.77999997 0.032822397 1.0425122e-38 315 216
-0.0054703997 0.77999997 0.032822397 1.0609511e-38 316 216
-0.0041027996 0.77999997 0.032822397 1.014854e-38 317 216
-0.0027351999 0.77999997 0.032822397 1.0330058e-38 318 216
-0.0013675999 0.77999997 0.032822397 1.0237864e-38 319 216
0 0.77999997 0.032822397 1.0237868e-38 320 216
0.0013675999 0.77999997 0.032822397 1.0514815e-38 321 216
0.0027351999 0.77999997 0.032822397 1.0146752e-38 322 216
0.0041027996 0.77999997 0.032822397 1.0054556e-38 323 216
0.0054703997 0.77999997 0.032822397 9.1369186e-39 324 216
0.0068379994 0.77999997 0.032822397 9.1369186e-39 325 216
0.0081845606 0.778 0.032738242 9.0447202e-39 326 216
0.0095486529 0.778 0.032738242 9.0447202e-39 327 216
0.010912746 0.778 0.032738242 8.7695724e-39 328 216
0.012276839 0.778 0.032738242 8.8621254e-39 329 216
0.013605867 0.77600002 0.032654081 9.1379906e-39 330 216
0.014966453 0.77600002 0.032654081 9.1379906e-39 331 216
0.01632704 0.77600002 0.032654081 9.1379906e-39 332 216
0.01764204 0.77399999 0.032569919 9.1379906e-39 333 216
0.018999118 0.77399999 0.032569919 9.7801216e-39 334 216
0.020356199 0.77399999 0.032569919 9.7801216e-39 335 216
0.021713279 0.77399999 0.032569919 1.0330417e-38 336 216
0.02307036 0.77399999 0.032569919 1.0330417e-38 337 216
0.02442744 0.77399999 0.032569919 1.0330417e-38 338 216
0.025784519 0.77399999 0.032569919 1.0146029e-38 339 216
0.027106533 0.773 0.032527838 1.0236452e-38 340 216
0.028461859 0.773 0.032527838 1.0144256e-38 341 216
0.029855758 0.77399999 0.032569919 1.014213e-38 342 216
0.031212838 0.77399999 0.032569919 1.014213e-38 343 216
0.032569919 0.77399999 0.032569919 1.0048875e-38 344 216
0.034014668 0.77600002 0.032654081 9.4035058e-39 345 216
-0.024648361 0.78100002 0.031495128 1.7607914e-38 302 217
-0.023279008 0.78100002 0.031495128 1.7792665e-38 303 217
-0.021909652 0.78100002 0.031495128 1.567503e-38 304 217
-0.020540299 0.78100002 0.031495128 1.4015869e-38 305 217
-0.019170946 0.78100002 0.031495128 1.1899284e-38 306 217
-0.017801592 0.78100002 0.031495128 1.153086e-38 307 217
-0.016432239 0.78100002 0.031495128 1.1348226e-38 308 217
-0.015062887 0.78100002 0.031495128 1.0979444e-38 309 217
-0.013675999 0.77999997 0.031454798 1.0702096e-38 310 217
-0.012308398 0.77999997 0.031454798 1.0056727e-38 311 217
-0.010940799 0.77999997 0.031454798 1.0147822e-38 312 217
-0.0095731998 0.77999997 0.031454798 1.0147822e-38 313 217
-0.0082055992 0.77999997 0.031454798 1.0241093e-38 314 217
-0.0068379994 0.77999997 0.031454798 1.0609511e-38 315 217
-0.0054703997 0.77999997 0.031454798 1.0608076e-38 316 217
-0.0041027996 0.77999997 0.031454798 1.023894e-38 317 217
-0.0027351999 0.77999997 0.031454798 9.869446e-39 318 217
-0.0013675999 0.77999997 0.031454798 9.869446e-39 319 217
0 0.77999997 0.031454798 9.8701648e-39 320 217
0.0013675999 0.77999997 0.031454798 1.0146752e-38 321 217
0.0027351999 0.77999997 0.031454798 9.6872099e-39 322 217
0.0041027996 0.77999997 0.031454798 9.6872099e-39 323 217
0.0054703997 0.77999997 0.031454798 8.6777369e-39 324 217
0.0068379994 0.77999997 0.031454798 8.5855427e-39 325 217
0.0081845606 0.778 0.031374145 8.4940659e-39 326 217
0.0095486529 0.778 0.031374145 8.586263e-39 327 217
0.010912746 0.778 0.031374145 8.6784544e-39 328 217
0.012276839 0.778 0.031374145 8.8624841e-39 329 217
0.013605867 0.77600002 0.031293493 9.3223791e-39 330 217
0.014966453 0.77600002 0.031293493 9.414932e-39 331 217
0.016284959 0.77399999 0.031212838 9.50605e-39 332 217
0.01764204 0.77399999 0.031212838 9.5982443e-39 333 217
0.018974574 0.773 0.03117251 1.0056704e-38 334 217
0.0203299 0.773 0.03117251 1.0056704e-38 335 217
0.021685226 0.773 0.03117251 1.0330776e-38 336 217
0.023040552 0.773 0.03117251 1.042297e-38 337 217
0.024395877 0.773 0.03117251 1.0513729e-38 338 217
0.02568458 0.77100003 0.031091858 1.0329341e-38 339 217
0.027036399 0.77100003 0.031091858 1.0510512e-38 340 217
0.028388219 0.77100003 0.031091858 1.0326481e-38 341 217
0.029817186 0.773 0.03117251 1.0232522e-38 342 217
0.03117251 0.773 0.03117251 1.0140325e-38 343 217
0.032569919 0.77399999 0.031212838 1.0139978e-38 344 217
0.033927001 0.77399999 0.031212838 9.6790011e-39 345 217
0.03528408 0.77399999 0.031212838 7.7457922e-39 346 217
-0.026150968 0.78500003 0.030280067 1.7791593e-38 301 218
-0.024648361 0.78100002 0.030125774 1.7332406e-38 302 218
-0.023279008 0.78100002 0.030125774 1.6687036e-38 303 218
-0.021909652 0.78100002 0.030125774 1.3372995e-38 304 218
-0.020540299 0.78100002 0.030125774 1.1805668e-38 305 218
-0.019170946 0.78100002 0.030125774 1.1531561e-38 306 218
-0.017778799 0.77999997 0.030087199 1.1531561e-38 307 218
-0.016411198 0.77999997 0.030087199 1.1255661e-38 308 218
-0.015062887 0.78100002 0.030125774 1.0610291e-38 309 218
-0.013675999 0.77999997 0.030087199 1.0147471e-38 310 218
-0.012276839 0.778 0.03001005 9.9630793e-39 311 218
-0.010912746 0.778 0.03001005 1.0055628e-38 312 218
-0.0095486529 0.778 0.03001005 1.0148181e-38 313 218
-0.0081845606 0.778 0.03001005 1.0609152e-38 314 218
-0.0068204664 0.778 0.03001005 1.0516599e-38 315 218
-0.0054563731 0.778 0.03001005 1.0606282e-38 316 218
-0.0040922803 0.778 0.03001005 1.0145311e-38 317 218
-0.0027281865 0.778 0.03001005 9.5017453e-39 318 218
-0.0013675999 0.77999997 0.030087199 9.3169981e-39 319 218
0 0.77999997 0.030087199 8.7656264e-39 320 218
0.0013675999 0.77999997 0.030087199 8.9500148e-39 321 218
0.0027351999 0.77999997 0.030087199 8.8585381e-39 322 218
0.0041027996 0.77999997 0.030087199 9.227315e-39 323 218
0.0054703997 0.77999997 0.030087199 8.5851938e-39 324 218
0.0068379994 0.77999997 0.030087199 8.5851938e-39 325 218
0.0082055992 0.77999997 0.030087199 8.4025976e-39 326 218
0.0095731998 0.77999997 0.030087199 8.4025976e-39 327 218
0.010912746 0.778 0.03001005 8.771729e-39 328 218
0.012276839 0.778 0.03001005 9.0483173e-39 329 218
0.013605867 0.77600002 0.029932907 9.6915161e-39 330 218
0.014966453 0.77600002 0.029932907 9.5993205e-39 331 218
0.016284959 0.77399999 0.029855758 9.7826327e-39 332 218
0.017619247 0.773 0.029817186 9.6904385e-39 333 218
0.018974574 0.773 0.029817186 1.0148899e-38 334 218
0.020277301 0.77100003 0.029740039 1.0148899e-38 335 218
0.021629119 0.77100003 0.029740039 1.0148181e-38 336 218
0.02298094 0.77100003 0.029740039 1.0424405e-38 337 218
0.02433276 0.77100003 0.029740039 1.0699194e-38 338 218
0.025617953 0.76899999 0.02966289 1.0330776e-38 339 218
0.026966266 0.76899999 0.02966289 1.0603414e-38 340 218
0.028388219 0.77100003 0.029740039 1.0511218e-38 341 218
0.029740039 0.77100003 0.029740039 1.014175e-38 342 218
0.031091858 0.77100003 0.029740039 1.0049555e-38 343 218
0.032527838 0.773 0.029817186 9.8648203e-39 344 218
0.033883166 0.773 0.029817186 9.6800703e-39 345 218
0.03528408 0.77399999 0.029855758 9.1269119e-39 346 218
0.036641158 0.77399999 0.029855758 8.7584895e-39 347 218
-0.027597465 0.787 0.02897734 1.7607919e-38 300 219
-0.026150968 0.78500003 0.0289037 1.7792312e-38 301 219
-0.024648361 0.78100002 0.028756421 1.64144e-38 302 219
-0.023279008 0.78100002 0.028756421 1.4662683e-38 303 219
-0.021909652 0.78100002 0.028756421 1.245139e-38 304 219
-0.020540299 0.78100002 0.028756421 1.1160651e-38 305 219
-0.019170946 0.78100002 0.028756421 1.2082583e-38 306 219
-0.017778799 0.77999997 0.028719598 1.2912703e-38 307 219
-0.016411198 0.77999997 0.028719598 1.3186744e-38 308 219
-0.0150436 0.77999997 0.028719598 1.2080757e-38 309 219
-0.013640933 0.778 0.028645959 1.023895e-38 310 219
-0.012276839 0.778 0.028645959 9.5935808e-39 311 219
-0.010912746 0.778 0.028645959 9.6875686e-39 312 219
-0.0095486529 0.778 0.028645959 1.0240734e-38 313 219
-0.0081845606 0.778 0.028645959 1.0424046e-38 314 219
-0.0068204664 0.778 0.028645959 1.0055628e-38 315 219
-0.0054563731 0.778 0.028645959 9.8705222e-39 316 219
-0.0040922803 0.778 0.028645959 9.409551e-39 317 219
-0.0027281865 0.778 0.028645959 8.7656264e-39 318 219
-0.0013675999 0.77999997 0.028719598 8.6730734e-39 319 219
0 0.77999997 0.028719598 8.1202808e-39 320 219
0.0013675999 0.77999997 0.028719598 8.2124764e-39 321 219
0.0027351999 0.77999997 0.028719598 7.9387804e-39 322 219
0.0041027996 0.77999997 0.028719598 8.1235304e-39 323 219
0.0054703997 0.77999997 0.028719598 7.8498078e-39 324 219
0.0068379994 0.77999997 0.028719598 8.0342004e-39 325 219
0.0082055992 0.77999997 0.028719598 8.0345535e-39 326 219
0.009524107 0.77600002 0.028572321 8.2189448e-39 327 219
0.010884693 0.77600002 0.028572321 8.9550651e-39 328 219
0.01224528 0.77600002 0.028572321 9.4160418e-39 329 219
0.013570799 0.77399999 0.028498679 9.4170984e-39 330 219
0.014927879 0.77399999 0.028498679 9.1405129e-39 331 219
0.016263919 0.773 0.028461859 9.7826327e-39 332 219
0.01757366 0.77100003 0.028388219 9.6904385e-39 333 219
0.018925481 0.77100003 0.028388219 1.0240375e-38 334 219
0.020277301 0.77100003 0.028388219 1.0240375e-38 335 219
0.021573013 0.76899999 0.028314579 1.0240375e-38 336 219
0.022921326 0.76899999 0.028314579 1.0609152e-38 337 219
0.024269639 0.76899999 0.028314579 1.1619343e-38 338 219
0.025617953 0.76899999 0.028314579 1.0881789e-38 339 219
0.026966266 0.76899999 0.028314579 1.0513016e-38 340 219
0.028314579 0.76899999 0.028314579 1.0144235e-38 341 219
0.02966289 0.76899999 0.028314579 1.0050986e-38 342 219
0.031091858 0.77100003 0.028388219 9.9587886e-39 343 219
0.032443684 0.77100003 0.028388219 9.7736939e-39 344 219
0.033883166 0.773 0.028461859 9.6811395e-39 345 219
0.035238493 0.773 0.028461859 9.5878775e-39 346 219
0.036641158 0.77399999 0.028498679 9.219095e-39 347 219
0.037998237 0.77399999 0.028498679 7.6550469e-39 348 219
-0.02905098 0.78899997 0.027667599 1.7423885e-38 299 220
-0.027597465 0.787 0.027597465 1.7332408e-38 300 220
-0.026017714 0.78100002 0.027387068 1.6963627e-38 301 220
-0.024648361 0.78100002 0.027387068 1.4847067e-38 302 220
-0.023249198 0.77999997 0.027351998 1.2542178e-38 303 220
-0.021881599 0.77999997 0.027351998 1.2455007e-38 304 220
-0.020540299 0.78100002 0.027387068 1.3100376e-38 305 220
-0.0191464 0.77999997 0.027351998 1.438537e-38 306 220
-0.017778799 0.77999997 0.027351998 1.4661957e-38 307 220
-0.016369121 0.778 0.027281865 1.5855443e-38 308 220
-0.015005025 0.778 0.027281865 1.4564704e-38 309 220
-0.013605867 0.77600002 0.027211733 1.09762e-38 310 220
-0.01224528 0.77600002 0.027211733 8.9478961e-39 311 220
-0.010884693 0.77600002 0.027211733 9.5942982e-39 312 220
-0.009524107 0.77600002 0.027211733 1.0147464e-38 313 220
-0.0081635201 0.77600002 0.027211733 1.0055628e-38 314 220
-0.0068204664 0.778 0.027281865 9.594657e-39 315 220
-0.0054563731 0.778 0.027281865 9.5928633e-39 316 220
-0.0040922803 0.778 0.027281865 9.1318921e-39 317 220
-0.0027281865 0.778 0.027281865 8.6712797e-39 318 220
-0.0013675999 0.77999997 0.027351998 8.3943383e-39 319 220
0 0.77999997 0.027351998 8.2106673e-39 320 220
0.0013675999 0.77999997 0.027351998 8.2106673e-39 321 220
0.0027351999 0.77999997 0.027351998 8.1202682e-39 322 220
0.0041027996 0.77999997 0.027351998 8.4886905e-39 323 220
0.0054703997 0.77999997 0.027351998 7.8487231e-39 324 220
0.0068467669 0.78100002 0.027387068 8.2171455e-39 325 220
0.0082055992 0.77999997 0.027351998 8.2174959e-39 326 220
0.009524107 0.77600002 0.027211733 8.3100516e-39 327 220
0.010884693 0.77600002 0.027211733 8.953619e-39 328 220
0.01224528 0.77600002 0.027211733 9.1380102e-39 329 220
0.013553266 0.773 0.027106533 9.5067899e-39 330 220
0.014908593 0.773 0.027106533 9.5067899e-39 331 220
0.016221842 0.77100003 0.027036399 1.005778e-38 332 220
0.01757366 0.77100003 0.027036399 9.873392e-39 333 220
0.018876385 0.76899999 0.026966266 1.0240375e-38 334 220
0.0202247 0.76899999 0.026966266 1.0240375e-38 335 220
0.021573013 0.76899999 0.026966266 1.0515882e-38 336 220
0.022921326 0.76899999 0.026966266 1.0976853e-38 337 220
0.024269639 0.76899999 0.026966266 1.1343836e-38 338 220
0.025617953 0.76899999 0.026966266 1.0606282e-38 339 220
0.026966266 0.76899999 0.026966266 1.0695965e-38 340 220
0.028314579 0.76899999 0.026966266 1.0603771e-38 341 220
0.02966289 0.76899999 0.026966266 9.959862e-39 342 220
0.031091858 0.77100003 0.027036399 9.8673062e-39 343 220
0.032443684 0.77100003 0.027036399 9.5903788e-39 344 220
0.033883166 0.773 0.027106533 9.4056288e-39 345 220
0.035238493 0.773 0.027106533 9.5878775e-39 346 220
0.036641158 0.77399999 0.027141599 9.4031261e-39 347 220
0.037998237 0.77399999 0.027141599 8.8489027e-39 348 220
0.039355319 0.77399999 0.027141599 9.6786634e-39 349 220
-0.02905098 0.78899997 0.026284218 1.7423885e-38 299 221
-0.027597465 0.787 0.026217593 1.7239854e-38 300 221
-0.026017714 0.78100002 0.026017714 1.6133865e-38 301 221
-0.024648361 0.78100002 0.026017714 1.392619e-38 302 221
-0.023249198 0.77999997 0.025984399 1.226667e-38 303 221
-0.021881599 0.77999997 0.025984399 1.2914559e-38 304 221
-0.020540299 0.78100002 0.026017714 1.3744321e-38 305 221
-0.0191464 0.77999997 0.025984399 1.4292118e-38 306 221
-0.017733213 0.778 0.025917772 1.46609e-38 307 221
-0.01632704 0.77600002 0.025851147 1.5673595e-38 308 221
-0.014966453 0.77600002 0.025851147 1.4382856e-38 309 221
-0.013605867 0.77600002 0.025851147 9.9681857e-39 310 221
-0.01224528 0.77600002 0.025851147 7.6629348e-39 311 221
-0.010884693 0.77600002 0.025851147 9.227315e-39 312 221
-0.009524107 0.77600002 0.025851147 9.5964548e-39 313 221
-0.0081635201 0.77600002 0.025851147 9.7772517e-39 314 221
-0.0068029333 0.77600002 0.025851147 9.1318921e-39 315 221
-0.0054423464 0.77600002 0.025851147 8.8553123e-39 316 221
-0.0040922803 0.778 0.025917772 8.5787268e-39 317 221
-0.0027281865 0.778 0.025917772 7.842968e-39 318 221
-0.0013693533 0.78100002 0.026017714 7.5667427e-39 319 221
0 0.78100002 0.026017714 7.2908802e-39 320 221
0.0013693533 0.78100002 0.026017714 7.567107e-39 321 221
0.0027387065 0.78100002 0.026017714 7.4756442e-39 322 221
0.0041080597 0.78100002 0.026017714 7.751871e-39 323 221
0.0054774131 0.78100002 0.026017714 8.0291782e-39 324 221
0.0068467669 0.78100002 0.026017714 8.3061238e-39 325 221
0.0082055992 0.77999997 0.025984399 7.6643417e-39 326 221
0.0095486529 0.778 0.025917772 7.8490917e-39 327 221
0.010884693 0.77600002 0.025851147 8.0338473e-39 328 221
0.01221372 0.77399999 0.025784519 8.2185973e-39 329 221
0.013518199 0.77100003 0.02568458 8.5866511e-39 330 221
0.01487002 0.77100003 0.02568458 8.6792055e-39 331 221
0.016179759 0.76899999 0.025617953 9.3223791e-39 332 221
0.017528072 0.76899999 0.025617953 9.3223791e-39 333 221
0.018876385 0.76899999 0.025617953 9.9655863e-39 334 221
0.0202247 0.76899999 0.025617953 1.005778e-38 335 221
0.021573013 0.76899999 0.025617953 1.0792106e-38 336 221
0.022921326 0.76899999 0.025617953 1.1068688e-38 337 221
0.024269639 0.76899999 0.025617953 1.1527507e-38 338 221
0.025617953 0.76899999 0.025617953 1.0789953e-38 339 221
0.026966266 0.76899999 0.025617953 1.0603771e-38 340 221
0.028314579 0.76899999 0.025617953 1.0603771e-38 341 221
0.02966289 0.76899999 0.025617953 1.0051689e-38 342 221
0.031011207 0.76899999 0.025617953 9.959492e-39 343 221
0.032359518 0.76899999 0.025617953 9.7740414e-39 344 221
0.033707831 0.76899999 0.025617953 9.6818457e-39 345 221
0.035238493 0.773 0.025751207 9.4045596e-39 346 221
0.036593821 0.773 0.025751207 9.312364e-39 347 221
0.037949149 0.773 0.025751207 8.6666569e-39 348 221
0.039355319 0.77399999 0.025784519 8.7592112e-39 349 221
-0.02905098 0.78899997 0.024900839 1.7700116e-38 299 222
-0.027527334 0.78500003 0.0247746 1.7148014e-38 300 222
-0.026017714 0.78100002 0.024648361 1.4935321e-38 301 222
-0.024616797 0.77999997 0.024616797 1.3557058e-38 302 222
-0.023249198 0.77999997 0.024616797 1.3187916e-38 303 222
-0.021881599 0.77999997 0.024616797 1.3005698e-38 304 222
-0.020513998 0.77999997 0.024616797 1.2636915e-38 305 222
-0.0191464 0.77999997 0.024616797 1.2445338e-38 306 222
-0.017733213 0.778 0.024553679 1.3367293e-38 307 222
-0.01632704 0.77600002 0.024490559 1.4294974e-38 308 222
-0.014966453 0.77600002 0.024490559 1.3188266e-38 309 222
-0.013570799 0.77399999 0.02442744 9.2342094e-39 310 222
-0.01221372 0.77399999 0.02442744 7.1137113e-39 311 222
-0.01085664 0.77399999 0.02442744 9.227315e-39 312 222
-0.0094995592 0.77399999 0.02442744 9.5042592e-39 313 222
-0.0081424797 0.77399999 0.02442744 9.6846988e-39 314 222
-0.0067853997 0.77399999 0.02442744 8.947145e-39 315 222
-0.0054283198 0.77399999 0.02442744 8.8538745e-39 316 222
-0.0040817601 0.77600002 0.024490559 8.5772918e-39 317 222
-0.0027211732 0.77600002 0.024490559 7.7493375e-39 318 222
-0.0013693533 0.78100002 0.024648361 7.564949e-39 319 222
0 0.78100002 0.024648361 7.2890838e-39 320 222
0.0013693533 0.78100002 0.024648361 7.2890838e-39 321 222
0.0027387065 0.78100002 0.024648361 7.5642427e-39 322 222
0.0041080597 0.78100002 0.024648361 7.6564384e-39 323 222
0.0054774131 0.78100002 0.024648361 7.6578859e-39 324 222
0.0068467669 0.78100002 0.024648361 7.9341141e-39 325 222
0.0082055992 0.77999997 0.024616797 7.7529528e-39 326 222
0.009524107 0.77600002 0.024490559 8.029181e-39 327 222
0.01085664 0.77399999 0.02442744 8.1238835e-39 328 222
0.012197939 0.773 0.024395877 8.4923073e-39 329 222
0.013483133 0.76899999 0.024269639 8.7699536e-39 330 222
0.014831445 0.76899999 0.024269639 8.8621492e-39 331 222
0.016179759 0.76899999 0.024269639 9.2301848e-39 332 222
0.017528072 0.76899999 0.024269639 9.2301848e-39 333 222
0.018827293 0.76700002 0.024206521 9.873392e-39 334 222
0.020172099 0.76700002 0.024206521 1.005778e-38 335 222
0.021516906 0.76700002 0.024206521 1.1252001e-38 336 222
0.022861714 0.76700002 0.024206521 1.1436748e-38 337 222
0.024206521 0.76700002 0.024206521 1.1527507e-38 338 222
0.025551327 0.76700002 0.024206521 1.0789953e-38 339 222
0.026896132 0.76700002 0.024206521 1.0971113e-38 340 222
0.02824094 0.76700002 0.024206521 1.0878919e-38 341 222
0.02966289 0.76899999 0.024269639 1.0052041e-38 342 222
0.031011207 0.76899999 0.024269639 1.0052041e-38 343 222
0.032359518 0.76899999 0.024269639 9.8658713e-39 344 222
0.033707831 0.76899999 0.024269639 9.68148e-39 345 222
0.03514732 0.77100003 0.02433276 9.6804234e-39 346 222
0.036593821 0.773 0.024395877 9.4960322e-39 347 222
0.037949149 0.773 0.024395877 9.2187418e-39 348 222
0.039355319 0.77399999 0.02442744 8.9421549e-39 349 222
0.040712398 0.77399999 0.02442744 8.2089437e-39 350 222
-0.02897734 0.787 0.023457846 1.7331334e-38 299 223
-0.027387068 0.78100002 0.023279008 1.6136737e-38 300 223
-0.025984399 0.77999997 0.023249198 1.373965e-38 301 223
-0.024616797 0.77999997 0.023249198 1.3097521e-38 302 223
-0.023249198 0.77999997 0.023249198 1.2820935e-38 303 223
-0.021881599 0.77999997 0.023249198 1.2358543e-38 304 223
-0.020513998 0.77999997 0.023249198 1.1897925e-38 305 223
-0.019097306 0.778 0.023189586 1.180249e-38 306 223
-0.017687626 0.77600002 0.023129974 1.2540055e-38 307 223
-0.01632704 0.77600002 0.023129974 1.4570835e-38 308 223
-0.014927879 0.77399999 0.02307036 1.31879e-38 309 223
-0.013570799 0.77399999 0.02307036 9.5104347e-39 310 223
-0.01221372 0.77399999 0.02307036 7.9427489e-39 311 223
-0.01085664 0.77399999 0.02307036 9.3195092e-39 312 223
-0.0094995592 0.77399999 0.02307036 9.4117048e-39 313 223
-0.0081424797 0.77399999 0.02307036 9.593222e-39 314 223
-0.0067853997 0.77399999 0.02307036 9.0400567e-39 315 223
-0.0054283198 0.77399999 0.02307036 8.3943383e-39 316 223
-0.0040817601 0.77600002 0.023129974 8.0259201e-39 317 223
-0.0027211732 0.77600002 0.023129974 7.2887264e-39 318 223
-0.0013675999 0.77999997 0.023249198 7.1043366e-39 319 223
0 0.78100002 0.023279008 6.8281224e-39 320 223
0.0013693533 0.78100002 0.023279008 6.7359268e-39 321 223
0.0027387065 0.78100002 0.023279008 7.2840755e-39 322 223
0.0041080597 0.78100002 0.023279008 7.2840755e-39 323 223
0.0054774131 0.78100002 0.023279008 7.0100124e-39 324 223
0.0068467669 0.78100002 0.023279008 7.102208e-39 325 223
0.0082055992 0.77999997 0.023249198 7.1972777e-39 326 223
0.009524107 0.77600002 0.023129974 7.7504515e-39 327 223
0.010842613 0.773 0.023040552 7.7554709e-39 328 223
0.012134819 0.76899999 0.022921326 8.3086447e-39 329 223
0.013483133 0.76899999 0.022921326 8.4948086e-39 330 223
0.014792874 0.76700002 0.022861714 8.4948086e-39 331 223
0.01613768 0.76700002 0.022861714 9.0461551e-39 332 223
0.017482487 0.76700002 0.022861714 8.9539609e-39 333 223
0.018827293 0.76700002 0.022861714 9.7801216e-39 334 223
0.020172099 0.76700002 0.022861714 1.0333287e-38 335 223
0.021516906 0.76700002 0.022861714 1.2079955e-38 336 223
0.022861714 0.76700002 0.022861714 1.1987761e-38 337 223
0.024206521 0.76700002 0.022861714 1.1617549e-38 338 223
0.025551327 0.76700002 0.022861714 1.1249131e-38 339 223
0.026896132 0.76700002 0.022861714 1.0971831e-38 340 223
0.02824094 0.76700002 0.022861714 1.0695248e-38 341 223
0.029585747 0.76700002 0.022861714 1.0235353e-38 342 223
0.031011207 0.76899999 0.022921326 1.0143159e-38 343 223
0.032359518 0.76899999 0.022921326 9.8669433e-39 344 223
0.033707831 0.76899999 0.022921326 9.682552e-39 345 223
0.03514732 0.77100003 0.02298094 9.6797018e-39 346 223
0.036593821 0.773 0.023040552 9.5875061e-39 347 223
0.037949149 0.773 0.023040552 9.4949616e-39 348 223
0.039355319 0.77399999 0.02307036 8.9417892e-39 349 223
0.040712398 0.77399999 0.02307036 8.756354e-39 350 223
0.042069476 0.77399999 0.02307036 1.2352342e-38 351 223
-0.0289037 0.78500003 0.022021867 1.6778513e-38 299 224
-0.027387068 0.78100002 0.021909652 1.5399166e-38 300 224
-0.025984399 0.77999997 0.021881599 1.4293177e-38 301 224
-0.024553679 0.778 0.021825492 1.3374828e-38 302 224
-0.023189586 0.778 0.021825492 1.2453232e-38 303 224
-0.021825492 0.778 0.021825492 1.2265984e-38 304 224
-0.0204088 0.77600002 0.021769386 1.1897202e-38 305 224
-0.019048214 0.77600002 0.021769386 1.2171618e-38 306 224
-0.017687626 0.77600002 0.021769386 1.3001379e-38 307 224
-0.016284959 0.77399999 0.021713279 1.4663752e-38 308 224
-0.014927879 0.77399999 0.021713279 1.2912036e-38 309 224
-0.013570799 0.77399999 0.021713279 9.2356583e-39 310 224
-0.012197939 0.773 0.021685226 7.8523651e-39 311 224
-0.010842613 0.773 0.021685226 9.043651e-39 312 224
-0.0094995592 0.77399999 0.021713279 9.043651e-39 313 224
-0.0081319595 0.773 0.021685226 9.3177155e-39 314 224
-0.0067766332 0.773 0.021685226 8.8567444e-39 315 224
-0.0054283198 0.77399999 0.021713279 8.4868913e-39 316 224
-0.0040712398 0.77399999 0.021713279 7.7493375e-39 317 224
-0.0027211732 0.77600002 0.021769386 7.1968895e-39 318 224
-0.0013675999 0.77999997 0.021881599 7.1046953e-39 319 224
0 0.77999997 0.021881599 7.1021842e-39 320 224
0.0013693533 0.78100002 0.021909652 6.733766e-39 321 224
0.0027387065 0.78100002 0.021909652 6.9134909e-39 322 224
0.0041080597 0.78100002 0.021909652 6.9134909e-39 323 224
0.0054774131 0.78100002 0.021909652 6.362478e-39 324 224
0.0068467669 0.78100002 0.021909652 6.8234533e-39 325 224
0.0082055992 0.77999997 0.021881599 6.8277665e-39 326 224
0.0094627403 0.77100003 0.021629119 7.6578859e-39 327 224
0.01081456 0.77100003 0.021629119 7.8465848e-39 328 224
0.012134819 0.76899999 0.021573013 8.5841498e-39 329 224
0.013448066 0.76700002 0.021516906 8.4940926e-39 330 224
0.014792874 0.76700002 0.021516906 8.4018969e-39 331 224
0.01613768 0.76700002 0.021516906 9.044367e-39 332 224
0.017482487 0.76700002 0.021516906 8.8603359e-39 333 224
0.018827293 0.76700002 0.021516906 9.6875686e-39 334 224
0.020172099 0.76700002 0.021516906 1.0332935e-38 335 224
0.021516906 0.76700002 0.021516906 1.2264362e-38 336 224
0.022861714 0.76700002 0.021516906 1.1711188e-38 337 224
0.024206521 0.76700002 0.021516906 1.1523923e-38 338 224
0.025551327 0.76700002 0.021516906 1.1155502e-38 339 224
0.026896132 0.76700002 0.021516906 1.0694891e-38 340 224
0.02824094 0.76700002 0.021516906 1.0602695e-38 341 224
0.029585747 0.76700002 0.021516906 1.0142801e-38 342 224
0.030930554 0.76700002 0.021516906 1.0050606e-38 343 224
0.03227536 0.76700002 0.021516906 9.7743945e-39 344 224
0.033707831 0.76899999 0.021573013 9.4981677e-39 345 224
0.035056144 0.76899999 0.021573013 9.5875089e-39 346 224
0.036499143 0.77100003 0.021629119 9.4953119e-39 347 224
0.037949149 0.773 0.021685226 9.5857223e-39 348 224
0.039304473 0.773 0.021685226 9.2172999e-39 349 224
0.040712398 0.77399999 0.021713279 8.8485496e-39 350 224
0.042069476 0.77399999 0.021713279 1.1614777e-38 351 224
0.043426558 0.77399999 0.021713279 1.3460171e-38 352 224
-0.0289037 0.78500003 0.020645501 1.6868911e-38 299 225
-0.027387068 0.78100002 0.020540299 1.5766875e-38 300 225
-0.025984399 0.77999997 0.020513998 1.5766875e-38 301 225
-0.024553679 0.778 0.020461399 1.438539e-38 302 225
-0.023129974 0.77600002 0.0204088 1.3555627e-38 303 225
-0.021769386 0.77600002 0.0204088 1.3190815e-38 304 225
-0.0204088 0.77600002 0.0204088 1.3006065e-38 305 225
-0.018999118 0.77399999 0.020356199 1.2909539e-38 306 225
-0.01764204 0.77399999 0.020356199 1.3647104e-38 307 225
-0.016263919 0.773 0.0203299 1.3561348e-38 308 225
-0.014908593 0.773 0.0203299 1.1349013e-38 309 225
-0.013553266 0.773 0.0203299 6.9368632e-39 310 225
-0.012197939 0.773 0.0203299 6.1067424e-39 311 225
-0.010842613 0.773 0.0203299 8.676302e-39 312 225
-0.0094872871 0.773 0.0203299 8.7684962e-39 313 225
-0.0081109209 0.77100003 0.020277301 9.2251626e-39 314 225
-0.0067590997 0.77100003 0.020277301 8.8567444e-39 315 225
-0.0054072798 0.77100003 0.020277301 8.396132e-39 316 225
-0.0040554604 0.77100003 0.020277301 7.9355196e-39 317 225
-0.0027036399 0.77100003 0.020277301 7.6589397e-39 318 225
-0.0013570799 0.77399999 0.020356199 7.3819955e-39 319 225
0 0.77999997 0.020513998 6.6448046e-39 320 225
0.0013675999 0.77999997 0.020513998 6.1838292e-39 321 225
0.0027351999 0.77999997 0.020513998 6.1802419e-39 322 225
0.0041080597 0.78100002 0.020540299 6.0880477e-39 323 225
0.0054703997 0.77999997 0.020513998 5.9061703e-39 324 225
0.0068379994 0.77999997 0.020513998 6.6437256e-39 325 225
0.0081319595 0.773 0.0203299 6.9242585e-39 326 225
0.0094136465 0.76700002 0.020172099 7.3855968e-39 327 225
0.010758453 0.76700002 0.020172099 7.8487175e-39 328 225
0.01210326 0.76700002 0.020172099 8.125303e-39 329 225
0.013448066 0.76700002 0.020172099 8.6755901e-39 330 225
0.014773586 0.76599997 0.020145798 8.6755901e-39 331 225
0.016116638 0.76599997 0.020145798 9.1344033e-39 332 225
0.017459691 0.76599997 0.020145798 9.2265975e-39 333 225
0.018802745 0.76599997 0.020145798 9.7794041e-39 334 225
0.020145798 0.76599997 0.020145798 1.088539e-38 335 225
0.021488851 0.76599997 0.020145798 1.2264727e-38 336 225
0.022831906 0.76599997 0.020145798 1.1619358e-38 337 225
0.024174958 0.76599997 0.020145798 1.1523207e-38 338 225
0.025518013 0.76599997 0.020145798 1.124662e-38 339 225
0.026896132 0.76700002 0.020172099 1.0693459e-38 340 225
0.02824094 0.76700002 0.020172099 1.0509426e-38 341 225
0.029585747 0.76700002 0.020172099 1.0050258e-38 342 225
0.030930554 0.76700002 0.020172099 9.8658685e-39 343 225
0.03227536 0.76700002 0.020172099 9.7729694e-39 344 225
0.033707831 0.76899999 0.0202247 9.5885781e-39 345 225
0.035056144 0.76899999 0.0202247 9.5871558e-39 346 225
0.036499143 0.77100003 0.020277301 9.4949588e-39 347 225
0.037949149 0.773 0.0203299 9.401694e-39 348 225
0.039304473 0.773 0.0203299 9.216944e-39 349 225
0.0406598 0.773 0.0203299 8.8489027e-39 350 225
0.042069476 0.77399999 0.020356199 1.0785011e-38 351 225
0.043426558 0.77399999 0.020356199 1.2630045e-38 352 225
-0.028830061 0.78299999 0.019220039 1.6684517e-38 299 226
-0.027387068 0.78100002 0.019170946 1.5950553e-38 300 226
-0.025984399 0.77999997 0.0191464 1.5857999e-38 301 226
-0.024490559 0.77600002 0.019048214 1.447616e-38 302 226
-0.023129974 0.77600002 0.019048214 1.4107376e-38 303 226
-0.021769386 0.77600002 0.019048214 1.3836903e-38 304 226
-0.020356199 0.77399999 0.018999118 1.3744707e-38 305 226
-0.018999118 0.77399999 0.018999118 1.3924764e-38 306 226
-0.01764204 0.77399999 0.018999118 1.401696e-38 307 226
-0.016263919 0.773 0.018974574 1.2918115e-38 308 226
-0.014908593 0.773 0.018974574 1.0152245e-38 309 226
-0.013518199 0.77100003 0.018925481 6.0152376e-39 310 226
-0.01216638 0.77100003 0.018925481 6.1996289e-39 311 226
-0.01081456 0.77100003 0.018925481 8.7695724e-39 312 226
-0.0094627403 0.77100003 0.018925481 8.6773782e-39 313 226
-0.0080898795 0.76899999 0.018876385 9.4102685e-39 314 226
-0.0067415666 0.76899999 0.018876385 9.2255213e-39 315 226
-0.0053932532 0.76899999 0.018876385 9.1329683e-39 316 226
-0.0040449398 0.76899999 0.018876385 8.8567444e-39 317 226
-0.0026966266 0.76899999 0.018876385 8.2135372e-39 318 226
-0.0013483133 0.76899999 0.018876385 7.752566e-39 319 226
0 0.76599997 0.018802745 7.567107e-39 320 226
0.0013430532 0.76599997 0.018802745 7.2908802e-39 321 226
0.0026861064 0.76599997 0.018802745 7.1972525e-39 322 226
0.0041080597 0.78100002 0.019170946 7.1972525e-39 323 226
0.0054703997 0.77999997 0.0191464 7.0153878e-39 324 226
0.0068379994 0.77999997 0.0191464 7.5682028e-39 325 226
0.0080583189 0.76599997 0.018802745 8.122436e-39 326 226
0.0094013726 0.76599997 0.018802745 8.122436e-39 327 226
0.010744425 0.76599997 0.018802745 8.3078936e-39 328 226
0.012087479 0.76599997 0.018802745 8.3078936e-39 329 226
0.013430533 0.76599997 0.018802745 8.5823225e-39 330 226
0.014773586 0.76599997 0.018802745 8.7663536e-39 331 226
0.016116638 0.76599997 0.018802745 9.1344033e-39 332 226
0.017459691 0.76599997 0.018802745 9.1344033e-39 333 226
0.018753653 0.764 0.018753653 1.02393e-38 334 226
0.020093199 0.764 0.018753653 1.0792474e-38 335 226
0.021488851 0.76599997 0.018802745 1.1528244e-38 336 226
0.02271268 0.76200002 0.01870456 1.0790679e-38 337 226
0.02404872 0.76200002 0.01870456 1.0788171e-38 338 226
0.02538476 0.76200002 0.01870456 1.0419748e-38 339 226
0.026861066 0.76599997 0.018802745 1.050944e-38 340 226
0.028204117 0.76599997 0.018802745 1.0325047e-38 341 226
0.029547172 0.76599997 0.018802745 1.0049905e-38 342 226
0.030930554 0.76700002 0.018827293 9.8658741e-39 343 226
0.03227536 0.76700002 0.018827293 9.4974587e-39 344 226
0.033620168 0.76700002 0.018827293 9.4974587e-39 345 226
0.035056144 0.76899999 0.018876385 9.4034792e-39 346 226
0.036499143 0.77100003 0.018925481 9.2194481e-39 347 226
0.037949149 0.773 0.018974574 9.2176628e-39 348 226
0.039304473 0.773 0.018974574 8.9414361e-39 349 226
0.0406598 0.773 0.018974574 8.7570602e-39 350 226
0.042069476 0.77399999 0.018999118 9.7712122e-39 351 226
0.043426558 0.77399999 0.018999118 1.1341094e-38 352 226
0.044783637 0.77399999 0.018999118 1.5305506e-38 353 226
-0.030087199 0.77999997 0.017778799 1.7055097e-38 298 227
-0.028719598 0.77999997 0.017778799 1.4473619e-38 299 227
-0.027351998 0.77999997 0.017778799 1.2998132e-38 300 227
-0.025917772 0.778 0.017733213 1.2721905e-38 301 227
-0.024490559 0.77600002 0.017687626 1.2446776e-38 302 227
-0.02307036 0.77399999 0.01764204 1.2908114e-38 303 227
-0.021713279 0.77399999 0.01764204 1.3191181e-38 304 227
-0.020356199 0.77399999 0.01764204 1.3375573e-38 305 227
-0.018974574 0.773 0.017619247 1.3834379e-38 306 227
-0.017619247 0.773 0.017619247 1.3834379e-38 307 227
-0.016221842 0.77100003 0.01757366 1.2183433e-38 308 227
-0.01487002 0.77100003 0.01757366 9.1409782e-39 309 227
-0.013518199 0.77100003 0.01757366 6.1063542e-39 310 227
-0.01216638 0.77100003 0.01757366 6.5676911e-39 311 227
-0.01081456 0.77100003 0.01757366 9.1376319e-39 312 227
-0.0094627403 0.77100003 0.01757366 9.1376319e-39 313 227
-0.0080898795 0.76899999 0.017528072 9.4120622e-39 314 227
-0.0067415666 0.76899999 0.017528072 9.3198679e-39 315 227
-0.0053932532 0.76899999 0.017528072 8.9525259e-39 316 227
-0.00403442 0.76700002 0.017482487 9.0447202e-39 317 227
-0.0026896133 0.76700002 0.017482487 8.8614177e-39 318 227
-0.0013448066 0.76700002 0.017482487 9.0461677e-39 319 227
0 0.76599997 0.017459691 9.1373068e-39 320 227
0.00133604 0.76200002 0.01736852 9.3220582e-39 321 227
0.00267208 0.76200002 0.01736852 9.6883296e-39 322 227
0.0040081199 0.76200002 0.01736852 9.7805252e-39 323 227
0.0053441599 0.76200002 0.01736852 1.0056023e-38 324 227
0.006697733 0.764 0.017414106 9.6872407e-39 325 227
0.0080372803 0.764 0.017414106 9.043651e-39 326 227
0.0093768267 0.764 0.017414106 8.766704e-39 327 227
0.010716373 0.764 0.017414106 8.7667026e-39 328 227
0.01205592 0.764 0.017414106 8.6745083e-39 329 227
0.013395466 0.764 0.017414106 8.6745083e-39 330 227
0.014735013 0.764 0.017414106 8.8592555e-39 331 227
0.016074561 0.764 0.017414106 9.410986e-39 332 227
0.017414106 0.764 0.017414106 9.7797629e-39 333 227
0.01870456 0.76200002 0.01736852 1.0424046e-38 334 227
0.0200406 0.76200002 0.01736852 1.0700988e-38 335 227
0.02137664 0.76200002 0.01736852 1.124949e-38 336 227
0.02271268 0.76200002 0.01736852 1.0788877e-38 337 227
0.02404872 0.76200002 0.01736852 1.0327906e-38 338 227
0.02538476 0.76200002 0.01736852 1.0235712e-38 339 227
0.026790932 0.764 0.017414106 1.0234284e-38 340 227
0.028130481 0.764 0.017414106 1.0142088e-38 341 227
0.029547172 0.76599997 0.017459691 9.7743917e-39 342 227
0.030890226 0.76599997 0.017459691 9.7743917e-39 343 227
0.03227536 0.76700002 0.017482487 9.4985335e-39 344 227
0.033620168 0.76700002 0.017482487 9.3137835e-39 345 227
0.035056144 0.76899999 0.017528072 9.312364e-39 346 227
0.036404461 0.76899999 0.017528072 8.8513858e-39 347 227
0.037850961 0.77100003 0.01757366 9.2169468e-39 348 227
0.03920278 0.77100003 0.01757366 9.1247511e-39 349 227
0.0406598 0.773 0.017619247 8.8488901e-39 350 227
0.042015124 0.773 0.017619247 9.0332814e-39 351 227
0.043370452 0.773 0.017619247 9.8673959e-39 352 227
0.044725779 0.773 0.017619247 1.4477177e-38 353 227
-0.030087199 0.77999997 0.016411198 1.6594838e-38 298 228
-0.028719598 0.77999997 0.016411198 1.401336e-38 299 228
-0.027351998 0.77999997 0.016411198 1.2449632e-38 300 228
-0.025851147 0.77600002 0.01632704 1.3095001e-38 301 228
-0.024490559 0.77600002 0.01632704 1.2541492e-38 302 228
-0.02307036 0.77399999 0.016284959 1.217307e-38 303 228
-0.021713279 0.77399999 0.016284959 1.1992284e-38 304 228
-0.020356199 0.77399999 0.016284959 1.2822405e-38 305 228
-0.018974574 0.773 0.016263919 1.3559239e-38 306 228
-0.01757366 0.77100003 0.016221842 1.3559239e-38 307 228
-0.016221842 0.77100003 0.016221842 1.1906124e-38 308 228
-0.01487002 0.77100003 0.016221842 9.5090376e-39 309 228
-0.013483133 0.76899999 0.016179759 7.4845999e-39 310 228
-0.012134819 0.76899999 0.016179759 7.9455781e-39 311 228
-0.010786506 0.76899999 0.016179759 9.873392e-39 312 228
-0.0094381925 0.76899999 0.016179759 1.005778e-38 313 228
-0.00806884 0.76700002 0.01613768 1.0424764e-38 314 228
-0.006724033 0.76700002 0.01613768 1.0148181e-38 315 228
-0.0053792265 0.76700002 0.01613768 1.0055987e-38 316 228
-0.0040291594 0.76599997 0.016116638 1.0055987e-38 317 228
-0.0026790933 0.764 0.016074561 9.873392e-39 318 228
-0.0013395466 0.764 0.016074561 9.9655863e-39 319 228
0 0.764 0.016074561 1.0057422e-38 320 228
0.00133604 0.76200002 0.01603248 1.0334004e-38 321 228
0.00267208 0.76200002 0.01603248 1.0516599e-38 322 228
0.0040081199 0.76200002 0.01603248 1.0700988e-38 323 228
0.0053441599 0.76200002 0.01603248 1.0884659e-38 324 228
0.0066801999 0.76200002 0.01603248 1.0423688e-38 325 228
0.0080162399 0.76200002 0.01603248 1.023894e-38 326 228
0.0093522798 0.76200002 0.01603248 9.685775e-39 327 228
0.01068832 0.76200002 0.01603248 9.042209e-39 328 228
0.01202436 0.76200002 0.01603248 9.318433e-39 329 228
0.0133604 0.76200002 0.01603248 9.5953744e-39 330 228
0.014735013 0.764 0.016074561 9.7797629e-39 331 228
0.016074561 0.764 0.016074561 1.0331135e-38 332 228
0.01736852 0.76200002 0.01603248 1.023894e-38 333 228
0.01870456 0.76200002 0.01603248 1.0606641e-38 334 228
0.0200406 0.76200002 0.01603248 1.0606641e-38 335 228
0.02137664 0.76200002 0.01603248 1.0605209e-38 336 228
0.02271268 0.76200002 0.01603248 1.0420818e-38 337 228
0.02404872 0.76200002 0.01603248 1.0327547e-38 338 228
0.02538476 0.76200002 0.01603248 1.0143159e-38 339 228
0.0267208 0.76200002 0.01603248 9.8680153e-39 340 228
0.028056841 0.76200002 0.01603248 9.6836254e-39 341 228
0.029470026 0.764 0.016074561 9.6832751e-39 342 228
0.030809574 0.764 0.016074561 9.5910794e-39 343 228
0.032233275 0.76599997 0.016116638 9.4974587e-39 344 228
0.033620168 0.76700002 0.01613768 9.313066e-39 345 228
0.034964975 0.76700002 0.01613768 9.2194481e-39 346 228
0.036404461 0.76899999 0.016179759 8.9425025e-39 347 228
0.037850961 0.77100003 0.016221842 8.8488873e-39 348 228
0.03920278 0.77100003 0.016221842 8.7566903e-39 349 228
0.040554602 0.77100003 0.016221842 8.9396494e-39 350 228
0.04190642 0.77100003 0.016221842 9.2165964e-39 351 228
0.043370452 0.773 0.016263919 9.7726765e-39 352 228
0.044725779 0.773 0.016263919 1.4567208e-38 353 228
-0.030087199 0.77999997 0.0150436 1.5858705e-38 298 229
-0.028719598 0.77999997 0.0150436 1.4014792e-38 299 229
-0.027281865 0.778 0.015005025 1.3650326e-38 300 229
-0.025851147 0.77600002 0.014966453 1.3926913e-38 301 229
-0.02442744 0.77399999 0.014927879 1.2636915e-38 302 229
-0.02307036 0.77399999 0.014927879 1.1622763e-38 303 229
-0.021713279 0.77399999 0.014927879 1.1071757e-38 304 229
-0.0203299 0.773 0.014908593 1.2362496e-38 305 229
-0.018974574 0.773 0.014908593 1.3376278e-38 306 229
-0.01757366 0.77100003 0.01487002 1.3099332e-38 307 229
-0.016221842 0.77100003 0.01487002 1.1261108e-38 308 229
-0.01487002 0.77100003 0.01487002 9.6015864e-39 309 229
-0.013483133 0.76899999 0.014831445 9.1394325e-39 310 229
-0.012134819 0.76899999 0.014831445 9.5085752e-39 311 229
-0.010786506 0.76899999 0.014831445 1.0794617e-38 312 229
-0.0094136465 0.76700002 0.014792874 1.0702423e-38 313 229
-0.00806884 0.76700002 0.014792874 1.0702423e-38 314 229
-0.006724033 0.76700002 0.014792874 1.0610228e-38 315 229
-0.0053792265 0.76700002 0.014792874 1.0793899e-38 316 229
-0.0040291594 0.76599997 0.014773586 1.0793899e-38 317 229
-0.0026790933 0.764 0.014735013 1.0426916e-38 318 229
-0.0013395466 0.764 0.014735013 1.0426916e-38 319 229
0 0.764 0.014735013 1.0610228e-38 320 229
0.0013395466 0.764 0.014735013 1.0702423e-38 321 229
0.00267208 0.76200002 0.01469644 1.0977212e-38 322 229
0.0040081199 0.76200002 0.01469644 1.1069406e-38 323 229
0.0053441599 0.76200002 0.01469644 1.1252718e-38 324 229
0.0066801999 0.76200002 0.01469644 1.0976494e-38 325 229
0.0080162399 0.76200002 0.01469644 1.0608435e-38 326 229
0.0093522798 0.76200002 0.01469644 1.0424046e-38 327 229
0.01068832 0.76200002 0.01469644 1.0147105e-38 328 229
0.01202436 0.76200002 0.01469644 1.0147105e-38 329 229
0.0133604 0.76200002 0.01469644 1.0424046e-38 330 229
0.01469644 0.76200002 0.01469644 1.1069411e-38 331 229
0.01603248 0.76200002 0.01469644 1.0791747e-38 332 229
0.01736852 0.76200002 0.01469644 1.0331135e-38 333 229
0.01870456 0.76200002 0.01469644 1.0789595e-38 334 229
0.0200406 0.76200002 0.01469644 1.06974e-38 335 229
0.02137664 0.76200002 0.01469644 1.0513012e-38 336 229
0.02271268 0.76200002 0.01469644 1.0328265e-38 337 229
0.02404872 0.76200002 0.01469644 1.00524e-38 338 229
0.02538476 0.76200002 0.01469644 9.868011e-39 339 229
0.0267208 0.76200002 0.01469644 9.5925046e-39 340 229
0.028056841 0.76200002 0.01469644 9.5003103e-39 341 229
0.029392879 0.76200002 0.01469644 9.5914326e-39 342 229
0.030809574 0.764 0.014735013 9.4992369e-39 343 229
0.032233275 0.76599997 0.014773586 9.4978146e-39 344 229
0.033620168 0.76700002 0.014792874 9.405619e-39 345 229
0.034964975 0.76700002 0.014792874 9.2194453e-39 346 229
0.036404461 0.76899999 0.014831445 8.8506628e-39 347 229
0.037850961 0.77100003 0.01487002 8.9396368e-39 348 229
0.03920278 0.77100003 0.01487002 8.8474412e-39 349 229
0.040554602 0.77100003 0.01487002 8.75634e-39 350 229
0.04190642 0.77100003 0.01487002 9.309155e-39 351 229
0.043258239 0.77100003 0.01487002 9.4957337e-39 352 229
0.044610061 0.77100003 0.01487002 1.419807e-38 353 229
-0.031454798 0.77999997 0.013675999 1.6593766e-38 297 230
-0.030087199 0.77999997 0.013675999 1.4939616e-38 298 230
-0.028719598 0.77999997 0.013675999 1.2265942e-38 299 230
-0.027281865 0.778 0.013640933 1.190472e-38 300 230
-0.025851147 0.77600002 0.013605867 1.2826676e-38 301 230
-0.02442744 0.77399999 0.013570799 1.2087341e-38 302 230
-0.02307036 0.77399999 0.013570799 1.1441972e-38 303 230
-0.021713279 0.77399999 0.013570799 1.1900439e-38 304 230
-0.0203299 0.773 0.013553266 1.3191178e-38 305 230
-0.018925481 0.77100003 0.013518199 1.5125468e-38 306 230
-0.01757366 0.77100003 0.013518199 1.3835088e-38 307 230
-0.016179759 0.76899999 0.013483133 1.015618e-38 308 230
-0.014831445 0.76899999 0.013483133 9.0501908e-39 309 230
-0.013483133 0.76899999 0.013483133 1.015213e-38 310 230
-0.012134819 0.76899999 0.013483133 1.0520554e-38 311 230
-0.010758453 0.76700002 0.013448066 1.1439976e-38 312 230
-0.0094136465 0.76700002 0.013448066 1.1439976e-38 313 230
-0.00806884 0.76700002 0.013448066 1.1623289e-38 314 230
-0.0067152665 0.76599997 0.013430533 1.1715483e-38 315 230
-0.0053722127 0.76599997 0.013430533 1.2173943e-38 316 230
-0.0040186401 0.764 0.013395466 1.208139e-38 317 230
-0.00267208 0.76200002 0.0133604 1.1439976e-38 318 230
-0.00133604 0.76200002 0.0133604 1.1347423e-38 319 230
0 0.764 0.013395466 1.1622571e-38 320 230
0.00133604 0.76200002 0.0133604 1.1530377e-38 321 230
0.00267208 0.76200002 0.0133604 1.1713689e-38 322 230
0.0040028598 0.76099998 0.013342866 1.1898078e-38 323 230
0.0053371461 0.76099998 0.013342866 1.208139e-38 324 230
0.0066801999 0.76200002 0.0133604 1.189736e-38 325 230
0.0080162399 0.76200002 0.0133604 1.198812e-38 326 230
0.0093522798 0.76200002 0.0133604 1.1803731e-38 327 230
0.01068832 0.76200002 0.0133604 1.1159448e-38 328 230
0.01202436 0.76200002 0.0133604 1.1067253e-38 329 230
0.0133604 0.76200002 0.0133604 1.0608435e-38 330 230
0.01469644 0.76200002 0.0133604 1.0792464e-38 331 230
0.01603248 0.76200002 0.0133604 1.0881789e-38 332 230
0.01736852 0.76200002 0.0133604 1.0513371e-38 333 230
0.01870456 0.76200002 0.0133604 1.0513371e-38 334 230
0.0200406 0.76200002 0.0133604 1.0420818e-38 335 230
0.02137664 0.76200002 0.0133604 1.0328982e-38 336 230
0.02271268 0.76200002 0.0133604 1.0052758e-38 337 230
0.02404872 0.76200002 0.0133604 9.6843401e-39 338 230
0.02538476 0.76200002 0.0133604 9.6843401e-39 339 230
0.0267208 0.76200002 0.0133604 9.5917871e-39 340 230
0.028056841 0.76200002 0.0133604 9.4995929e-39 341 230
0.029392879 0.76200002 0.0133604 9.4070413e-39 342 230
0.030728921 0.76200002 0.0133604 9.4070413e-39 343 230
0.032149121 0.764 0.013395466 9.4056134e-39 344 230
0.033576332 0.76599997 0.013430533 9.3134164e-39 345 230
0.034964975 0.76700002 0.013448066 9.1276056e-39 346 230
0.036404461 0.76899999 0.013483133 8.7584629e-39 347 230
0.037850961 0.77100003 0.013518199 8.7552455e-39 348 230
0.03920278 0.77100003 0.013518199 8.6626912e-39 349 230
0.040554602 0.77100003 0.013518199 8.5726718e-39 350 230
0.04190642 0.77100003 0.013518199 8.8488999e-39 351 230
0.043258239 0.77100003 0.013518199 8.8514461e-39 352 230
0.044610061 0.77100003 0.013518199 1.3461228e-38 353 230
-0.031454798 0.77999997 0.012308398 1.6593769e-38 297 231
-0.030087199 0.77999997 0.012308398 1.4663383e-38 298 231
-0.028719598 0.77999997 0.012308398 1.0606776e-38 299 231
-0.027281865 0.778 0.012276839 9.9707627e-39 300 231
-0.025851147 0.77600002 0.01224528 1.2091264e-38 301 231
-0.02442744 0.77399999 0.01221372 1.2455059e-38 302 231
-0.02307036 0.77399999 0.01221372 1.1994439e-38 303 231
-0.021713279 0.77399999 0.01221372 1.2453262e-38 304 231
-0.0203299 0.773 0.012197939 1.3928392e-38 305 231
-0.018925481 0.77100003 0.01216638 1.6047059e-38 306 231
-0.017528072 0.76899999 0.012134819 1.4203146e-38 307 231
-0.016179759 0.76899999 0.012134819 9.7862929e-39 308 231
-0.014831445 0.76899999 0.012134819 9.2331191e-39 309 231
-0.013483133 0.76899999 0.012134819 1.13485e-38 310 231
-0.012134819 0.76899999 0.012134819 1.1717282e-38 311 231
-0.010758453 0.76700002 0.01210326 1.2267931e-38 312 231
-0.0094136465 0.76700002 0.01210326 1.2267931e-38 313 231
-0.00806884 0.76700002 0.01210326 1.2543796e-38 314 231
-0.0067152665 0.76599997 0.012087479 1.263599e-38 315 231
-0.0053722127 0.76599997 0.012087479 1.2819661e-38 316 231
-0.0040186401 0.764 0.01205592 1.2727467e-38 317 231
-0.00267208 0.76200002 0.01202436 1.2451602e-38 318 231
-0.00133604 0.76200002 0.01202436 1.2359408e-38 319 231
0 0.764 0.01205592 1.235869e-38 320 231
0.00133604 0.76200002 0.01202436 1.235869e-38 321 231
0.00267208 0.76200002 0.01202436 1.2542002e-38 322 231
0.0040028598 0.76099998 0.012008579 1.2726391e-38 323 231
