# .PCD v.7 - Point Cloud Data file format
FIELDS x y z rgb imX imY
SIZE 4 4 4 4 4 4
TYPE F F F F F F
COUNT 1 1 1 1 1 1
WIDTH 844
HEIGHT 1
VIEWPOINT 0 0 0 1 0 0 0
POINTS 844
DATA ascii
0.041525945 0.764 -0.0040186401 8.7617125e-39 351 243
0.042865492 0.764 -0.0040186401 8.9464709e-39 352 243
0.044320758 0.76599997 -0.0040291594 9.4074491e-39 353 243
0.045842651 0.76899999 -0.0040449398 1.0602062e-38 354 243
0.047190964 0.76899999 -0.0040449398 1.2907311e-38 355 243
-0.02307036 0.77399999 -0.0054283198 1.1436144e-38 303 244
-0.021713279 0.77399999 -0.0054283198 1.116346e-38 304 244
-0.0203299 0.773 -0.0054213065 1.0795037e-38 305 244
-0.018925481 0.77100003 -0.0054072798 1.0702812e-38 306 244
-0.017528072 0.76899999 -0.0053932532 1.0334388e-38 307 244
-0.01613768 0.76700002 -0.0053792265 1.0424781e-38 308 244
-0.014773586 0.76599997 -0.0053722127 1.0056358e-38 309 244
-0.013430533 0.76599997 -0.0053722127 1.0148925e-38 310 244
-0.01205592 0.764 -0.0053581866 1.0333316e-38 311 244
-0.01068832 0.76200002 -0.0053441599 9.9663682e-39 312 244
-0.0093522798 0.76200002 -0.0053441599 1.1441138e-38 313 244
-0.0080162399 0.76200002 -0.0053441599 1.2090515e-38 314 244
-0.0066714329 0.76099998 -0.0053371461 1.3196863e-38 315 244
-0.0053371461 0.76099998 -0.0053371461 1.4393279e-38 316 244
-0.0040028598 0.76099998 -0.0053371461 1.5499626e-38 317 244
-0.00266156 0.759 -0.0053231199 1.6052101e-38 318 244
-0.0013272733 0.75700003 -0.0053090933 1.6973697e-38 319 244
0 0.75700003 -0.0053090933 1.6049911e-38 320 244
0.0013272733 0.75700003 -0.0053090933 1.374502e-38 321 244
0.0026545466 0.75700003 -0.0053090933 1.3004507e-38 322 244
0.0039818203 0.75700003 -0.0053090933 1.2359137e-38 323 244
0.0052950666 0.755 -0.0052950666 1.1990311e-38 324 244
0.0066188332 0.755 -0.0052950666 1.1713724e-38 325 244
0.0079425992 0.755 -0.0052950666 1.1528244e-38 326 244
0.0092663663 0.755 -0.0052950666 1.1067266e-38 327 244
0.010590133 0.755 -0.0052950666 1.0515178e-38 328 244
0.011913899 0.755 -0.0052950666 1.023895e-38 329 244
0.013220133 0.75400001 -0.0052880533 9.962013e-39 330 244
0.014542146 0.75400001 -0.0052880533 9.5932318e-39 331 244
0.01586416 0.75400001 -0.0052880533 9.5921514e-39 332 244
0.017186172 0.75400001 -0.0052880533 9.5921514e-39 333 244
0.018532733 0.755 -0.0052950666 9.4091923e-39 334 244
0.0198565 0.755 -0.0052950666 9.5013865e-39 335 244
0.021180267 0.755 -0.0052950666 9.4088336e-39 336 244
0.022504034 0.755 -0.0052950666 9.1322509e-39 337 244
0.023827799 0.755 -0.0052950666 9.2212179e-39 338 244
0.025151566 0.755 -0.0052950666 9.0368281e-39 339 244
0.026545467 0.75700003 -0.0053090933 9.0354043e-39 340 244
0.027872739 0.75700003 -0.0053090933 8.9432087e-39 341 244
0.029200014 0.75700003 -0.0053090933 8.8506628e-39 342 244
0.030527288 0.75700003 -0.0053090933 8.8506628e-39 343 244
0.031938717 0.759 -0.0053231199 8.7581098e-39 344 244
0.033269498 0.759 -0.0053231199 8.5740787e-39 345 244
0.034691449 0.76099998 -0.0053371461 8.2063695e-39 346 244
0.036025736 0.76099998 -0.0053371461 8.1141739e-39 347 244
0.037360024 0.76099998 -0.0053371461 7.8393849e-39 348 244
0.038745161 0.76200002 -0.0053441599 8.2078073e-39 349 244
0.040081199 0.76200002 -0.0053441599 8.4847669e-39 350 244
0.041634649 0.76599997 -0.0053722127 8.7617125e-39 351 244
0.042977702 0.76599997 -0.0053722127 8.5805653e-39 352 244
0.04437862 0.76700002 -0.0053792265 8.9489891e-39 353 244
0.045842651 0.76899999 -0.0053932532 1.0879007e-38 354 244
0.047190964 0.76899999 -0.0053932532 1.3460485e-38 355 244
0.051821519 0.82099998 -0.0057579465 1.4932776e-38 356 244
-0.02307036 0.77399999 -0.0067853997 1.1711653e-38 303 245
-0.021713279 0.77399999 -0.0067853997 1.1347128e-38 304 245
-0.0203299 0.773 -0.0067766332 1.0978347e-38 305 245
-0.018925481 0.77100003 -0.0067590997 1.0703163e-38 306 245
-0.017528072 0.76899999 -0.0067415666 1.0426936e-38 307 245
-0.01613768 0.76700002 -0.006724033 1.0700632e-38 308 245
-0.014773586 0.76599997 -0.0067152665 1.0608436e-38 309 245
-0.013395466 0.764 -0.006697733 1.042443e-38 310 245
-0.01205592 0.764 -0.006697733 1.0609182e-38 311 245
-0.010716373 0.764 -0.006697733 1.0425895e-38 312 245
-0.0093522798 0.76200002 -0.0066801999 1.070284e-38 313 245
-0.0080162399 0.76200002 -0.0066801999 1.080047e-38 314 245
-0.0066714329 0.76099998 -0.0066714329 1.2367436e-38 315 245
-0.0053371461 0.76099998 -0.0066714329 1.4115603e-38 316 245
-0.0039923396 0.759 -0.0066538998 1.568257e-38 317 245
-0.00266156 0.759 -0.0066538998 1.6696725e-38 318 245
-0.00133078 0.759 -0.0066538998 1.7342094e-38 319 245
0 0.75700003 -0.0066363667 1.5681832e-38 320 245
0.0013237667 0.755 -0.0066188332 1.3653528e-38 321 245
0.0026475333 0.755 -0.0066188332 1.254534e-38 322 245
0.0039712996 0.755 -0.0066188332 1.1899971e-38 323 245
0.0052950666 0.755 -0.0066188332 1.1531151e-38 324 245
0.0066188332 0.755 -0.0066188332 1.1254564e-38 325 245
0.0079425992 0.755 -0.0066188332 1.1711206e-38 326 245
0.0092663663 0.755 -0.0066188332 1.1250228e-38 327 245
0.010590133 0.755 -0.0066188332 1.0790689e-38 328 245
0.011913899 0.755 -0.0066188332 1.033007e-38 329 245
0.013237666 0.755 -0.0066188332 9.9609382e-39 330 245
0.014561433 0.755 -0.0066188332 9.6843499e-39 331 245
0.015885198 0.755 -0.0066188332 9.3166435e-39 332 245
0.017208965 0.755 -0.0066188332 9.3166435e-39 333 245
0.018532733 0.755 -0.0066188332 9.1333285e-39 334 245
0.0198565 0.755 -0.0066188332 9.1333285e-39 335 245
0.021180267 0.755 -0.0066188332 9.2233759e-39 336 245
0.022504034 0.755 -0.0066188332 8.9464289e-39 337 245
0.023827799 0.755 -0.0066188332 9.1276e-39 338 245
0.025151566 0.755 -0.0066188332 8.9432087e-39 339 245
0.026545467 0.75700003 -0.0066363667 8.8503068e-39 340 245
0.027872739 0.75700003 -0.0066363667 8.7581098e-39 341 245
0.029200014 0.75700003 -0.0066363667 8.5737255e-39 342 245
0.030607941 0.759 -0.0066538998 8.5737255e-39 343 245
0.031938717 0.759 -0.0066538998 8.4815271e-39 344 245
0.033269498 0.759 -0.0066538998 8.3893315e-39 345 245
0.034691449 0.76099998 -0.0066714329 8.1141739e-39 346 245
0.036025736 0.76099998 -0.0066714329 8.0219783e-39 347 245
0.037360024 0.76099998 -0.0066714329 7.9315833e-39 348 245
0.038745161 0.76200002 -0.0066801999 8.3000057e-39 349 245
0.040291596 0.76599997 -0.0067152665 8.3011015e-39 350 245
0.041634649 0.76599997 -0.0067152665 8.7620797e-39 351 245
0.043033812 0.76700002 -0.006724033 8.5809282e-39 352 245
0.04437862 0.76700002 -0.006724033 9.0419064e-39 353 245
0.045842651 0.76899999 -0.0067415666 1.1246718e-38 354 245
0.047190964 0.76899999 -0.0067415666 1.4012587e-38 355 245
0.051821519 0.82099998 -0.0071974332 1.529977e-38 356 245
-0.023129974 0.77600002 -0.0081635201 1.2079718e-38 303 246
-0.021769386 0.77600002 -0.0081635201 1.1256028e-38 304 246
-0.0203299 0.773 -0.0081319595 1.0887245e-38 305 246
-0.018974574 0.773 -0.0081319595 1.0703908e-38 306 246
-0.017528072 0.76899999 -0.0080898795 1.0335484e-38 307 246
-0.01613768 0.76700002 -0.00806884 1.0426583e-38 308 246
-0.014773586 0.76599997 -0.0080583189 1.024219e-38 309 246
-0.013395466 0.764 -0.0080372803 1.0242187e-38 310 246
-0.01205592 0.764 -0.0080372803 1.0242187e-38 311 246
-0.010716373 0.764 -0.0080372803 1.0426232e-38 312 246
-0.0093522798 0.76200002 -0.0080162399 1.0702459e-38 313 246
-0.0080162399 0.76200002 -0.0080162399 1.0612807e-38 314 246
-0.0066714329 0.76099998 -0.0080057196 1.1165981e-38 315 246
-0.0053371461 0.76099998 -0.0080057196 1.1809596e-38 316 246
-0.0039923396 0.759 -0.0079846792 1.2454965e-38 317 246
-0.00266156 0.759 -0.0079846792 1.255079e-38 318 246
-0.00133078 0.759 -0.0079846792 1.2735181e-38 319 246
0 0.75700003 -0.0079636406 1.3189304e-38 320 246
0.0013237667 0.755 -0.0079425992 1.2636489e-38 321 246
0.0026475333 0.755 -0.0079425992 1.1902479e-38 322 246
0.0039712996 0.755 -0.0079425992 1.125711e-38 323 246
0.0052950666 0.755 -0.0079425992 1.1529721e-38 324 246
0.0066188332 0.755 -0.0079425992 1.1529721e-38 325 246
0.0079425992 0.755 -0.0079425992 1.1344244e-38 326 246
0.0092663663 0.755 -0.0079425992 1.1067298e-38 327 246
0.010590133 0.755 -0.0079425992 1.0331887e-38 328 246
0.011913899 0.755 -0.0079425992 9.963106e-39 329 246
0.013237666 0.755 -0.0079425992 9.5939535e-39 330 246
0.014561433 0.755 -0.0079425992 9.1329754e-39 331 246
0.015885198 0.755 -0.0079425992 9.2237276e-39 332 246
0.017208965 0.755 -0.0079425992 9.2237276e-39 333 246
0.018532733 0.755 -0.0079425992 9.2237276e-39 334 246
0.0198565 0.755 -0.0079425992 9.1315334e-39 335 246
0.021180267 0.755 -0.0079425992 9.0379057e-39 336 246
0.022563647 0.75700003 -0.0079636406 8.8535158e-39 337 246
0.02389092 0.75700003 -0.0079636406 9.0346883e-39 338 246
0.025218192 0.75700003 -0.0079636406 8.9424926e-39 339 246
0.026545467 0.75700003 -0.0079636406 8.481883e-39 340 246
0.027946379 0.759 -0.0079846792 8.3896874e-39 341 246
0.029277159 0.759 -0.0079846792 8.4800824e-39 342 246
0.030607941 0.759 -0.0079846792 8.4800824e-39 343 246
0.031938717 0.759 -0.0079846792 8.572278e-39 344 246
0.033357166 0.76099998 -0.0080057196 8.572278e-39 345 246
0.034691449 0.76099998 -0.0080057196 8.2052933e-39 346 246
0.036073081 0.76200002 -0.0080162399 8.3896846e-39 347 246
0.037409119 0.76200002 -0.0080162399 8.0237888e-39 348 246
0.038745161 0.76200002 -0.0080162399 8.2085402e-39 349 246
0.040291596 0.76599997 -0.0080583189 8.5769653e-39 350 246
0.041689005 0.76700002 -0.00806884 8.8535536e-39 351 246
0.043033812 0.76700002 -0.00806884 9.3152521e-39 352 246
0.04437862 0.76700002 -0.00806884 1.0145014e-38 353 246
0.045961879 0.77100003 -0.0081109209 1.1524391e-38 354 246
0.050382029 0.82099998 -0.0086369189 1.4290618e-38 355 246
0.051821519 0.82099998 -0.0086369189 1.5392329e-38 356 246
-0.023129974 0.77600002 -0.009524107 1.2448152e-38 303 247
-0.021769386 0.77600002 -0.009524107 1.1622297e-38 304 247
-0.020356199 0.77399999 -0.0094995592 1.1345708e-38 305 247
-0.018974574 0.773 -0.0094872871 1.1163797e-38 306 247
-0.01757366 0.77100003 -0.0094627403 1.0887209e-38 307 247
-0.016179759 0.76899999 -0.0094381925 1.0977942e-38 308 247
-0.014792874 0.76700002 -0.0094136465 1.0885746e-38 309 247
-0.013430533 0.76599997 -0.0094013726 1.0518048e-38 310 247
-0.012087479 0.76599997 -0.0094013726 1.0518048e-38 311 247
-0.010716373 0.764 -0.0093768267 1.03344e-38 312 247
-0.0093522798 0.76200002 -0.0093522798 1.0611345e-38 313 247
-0.0080162399 0.76200002 -0.0093522798 1.0979419e-38 314 247
-0.0066801999 0.76200002 -0.0093522798 1.0979419e-38 315 247
-0.0053371461 0.76099998 -0.0093400059 1.0888317e-38 316 247
-0.0039923396 0.759 -0.00931546 1.0888317e-38 317 247
-0.00266156 0.759 -0.00931546 1.0981965e-38 318 247
-0.00133078 0.759 -0.00931546 1.1442943e-38 319 247
0 0.759 -0.00931546 1.1991791e-38 320 247
0.0013272733 0.75700003 -0.0092909131 1.2360934e-38 321 247
0.0026475333 0.755 -0.0092663663 1.1902102e-38 322 247
0.0039712996 0.755 -0.0092663663 1.1533321e-38 323 247
0.0052950666 0.755 -0.0092663663 1.1531156e-38 324 247
0.0066188332 0.755 -0.0092663663 1.1254211e-38 325 247
0.0079425992 0.755 -0.0092663663 1.1344241e-38 326 247
0.0092663663 0.755 -0.0092663663 1.0883264e-38 327 247
0.010590133 0.755 -0.0092663663 1.0423717e-38 328 247
0.011913899 0.755 -0.0092663663 9.9623787e-39 329 247
0.013237666 0.755 -0.0092663663 9.5010348e-39 330 247
0.014561433 0.755 -0.0092663663 9.2240892e-39 331 247
0.015885198 0.755 -0.0092663663 8.9478652e-39 332 247
0.017208965 0.755 -0.0092663663 8.9478652e-39 333 247
0.018532733 0.755 -0.0092663663 9.0382714e-39 334 247
0.0198565 0.755 -0.0092663663 8.9460758e-39 335 247
0.021236373 0.75700003 -0.0092909131 9.2201515e-39 336 247
0.022563647 0.75700003 -0.0092909131 9.0357603e-39 337 247
0.02389092 0.75700003 -0.0092909131 9.0346883e-39 338 247
0.025218192 0.75700003 -0.0092909131 8.7577413e-39 339 247
0.026615599 0.759 -0.00931546 8.6644764e-39 340 247
0.027946379 0.759 -0.00931546 8.4800852e-39 341 247
0.029277159 0.759 -0.00931546 8.3878881e-39 342 247
0.030688593 0.76099998 -0.0093400059 8.3878881e-39 343 247
0.032022879 0.76099998 -0.0093400059 8.296417e-39 344 247
0.033357166 0.76099998 -0.0093400059 8.296417e-39 345 247
0.034691449 0.76099998 -0.0093400059 8.0219909e-39 346 247
0.036073081 0.76200002 -0.0093522798 8.0219909e-39 347 247
0.037507307 0.764 -0.0093768267 8.0237944e-39 348 247
0.038846854 0.764 -0.0093768267 8.3922182e-39 349 247
0.040291596 0.76599997 -0.0094013726 8.1195801e-39 350 247
0.041689005 0.76700002 -0.0094136465 8.5809184e-39 351 247
0.043033812 0.76700002 -0.0094136465 9.8677014e-39 352 247
0.044494338 0.76899999 -0.0094381925 1.0882213e-38 353 247
0.045961879 0.77100003 -0.0094627403 1.2537466e-38 354 247
0.0502593 0.81900001 -0.01005186 1.475052e-38 355 247
0.051821519 0.82099998 -0.010076405 1.5576723e-38 356 247
-0.023129974 0.77600002 -0.010884693 1.2908425e-38 303 248
-0.021769386 0.77600002 -0.010884693 1.1437917e-38 304 248
-0.020356199 0.77399999 -0.01085664 1.116169e-38 305 248
-0.018999118 0.77399999 -0.01085664 1.1071617e-38 306 248
-0.01757366 0.77100003 -0.01081456 1.0979421e-38 307 248
-0.016179759 0.76899999 -0.010786506 1.0887209e-38 308 248
-0.014792874 0.76700002 -0.010758453 1.0702459e-38 309 248
-0.013430533 0.76599997 -0.010744425 1.0335109e-38 310 248
-0.012087479 0.76599997 -0.010744425 1.0150717e-38 311 248
-0.010716373 0.764 -0.010716373 1.0609175e-38 312 248
-0.0093522798 0.76200002 -0.01068832 1.070173e-38 313 248
-0.0080162399 0.76200002 -0.01068832 1.0886485e-38 314 248
-0.0066801999 0.76200002 -0.01068832 1.116307e-38 315 248
-0.0053371461 0.76099998 -0.010674292 1.0796825e-38 316 248
-0.0040028598 0.76099998 -0.010674292 1.1073771e-38 317 248
-0.00266156 0.759 -0.01064624 1.1532618e-38 318 248
-0.00133078 0.759 -0.01064624 1.1624813e-38 319 248
0 0.759 -0.01064624 1.1716286e-38 320 248
0.0013272733 0.75700003 -0.010618187 1.1808482e-38 321 248
0.0026545466 0.75700003 -0.010618187 1.1808113e-38 322 248
0.0039712996 0.755 -0.010590133 1.1715917e-38 323 248
0.0052950666 0.755 -0.010590133 1.143897e-38 324 248
0.0066188332 0.755 -0.010590133 1.1162744e-38 325 248
0.0079425992 0.755 -0.010590133 1.1068393e-38 326 248
0.0092663663 0.755 -0.010590133 1.0607775e-38 327 248
0.010590133 0.755 -0.010590133 1.0054598e-38 328 248
0.011913899 0.755 -0.010590133 9.6858142e-39 329 248
0.013237666 0.755 -0.010590133 9.4084888e-39 330 248
0.014561433 0.755 -0.010590133 8.9475121e-39 331 248
0.015885198 0.755 -0.010590133 9.038263e-39 332 248
0.017208965 0.755 -0.010590133 9.038263e-39 333 248
0.018581826 0.75700003 -0.010618187 9.0379113e-39 334 248
0.019909101 0.75700003 -0.010618187 8.9453569e-39 335 248
0.021236373 0.75700003 -0.010618187 9.1276028e-39 336 248
0.022563647 0.75700003 -0.010618187 8.8510159e-39 337 248
0.02389092 0.75700003 -0.010618187 8.8499397e-39 338 248
0.025284819 0.759 -0.01064624 8.7577441e-39 339 248
0.026615599 0.759 -0.01064624 8.572278e-39 340 248
0.027946379 0.759 -0.01064624 8.4800824e-39 341 248
0.029354304 0.76099998 -0.010674292 8.2956869e-39 342 248
0.030688593 0.76099998 -0.010674292 8.2956869e-39 343 248
0.032022879 0.76099998 -0.010674292 8.1123775e-39 344 248
0.033357166 0.76099998 -0.010674292 8.2967701e-39 345 248
0.034737039 0.76200002 -0.01068832 7.9297953e-39 346 248
0.036167759 0.764 -0.010716373 8.2067409e-39 347 248
0.037507307 0.764 -0.010716373 8.2081898e-39 348 248
0.038948543 0.76599997 -0.010744425 8.5766122e-39 349 248
0.040291596 0.76599997 -0.010744425 8.6716819e-39 350 248
0.041689005 0.76700002 -0.010758453 9.1323013e-39 351 248
0.043033812 0.76700002 -0.010758453 1.0144664e-38 352 248
0.044494338 0.76899999 -0.010786506 1.1343207e-38 353 248
0.048823319 0.81900001 -0.01148784 1.3273962e-38 354 248
0.0502593 0.81900001 -0.01148784 1.5117875e-38 355 248
-0.021713279 0.77399999 -0.01221372 1.1897104e-38 304 249
-0.020356199 0.77399999 -0.01221372 1.1527961e-38 305 249
-0.018999118 0.77399999 -0.01221372 1.1347481e-38 306 249
-0.01757366 0.77100003 -0.01216638 1.1070895e-38 307 249
-0.016179759 0.76899999 -0.012134819 1.1162718e-38 308 249
-0.014792874 0.76700002 -0.01210326 1.0978686e-38 309 249
-0.013448066 0.76700002 -0.01210326 1.0702459e-38 310 249
-0.012087479 0.76599997 -0.012087479 1.0518428e-38 311 249
-0.010716373 0.764 -0.01205592 1.0518781e-38 312 249
-0.0093768267 0.764 -0.01205592 1.0518781e-38 313 249
-0.0080162399 0.76200002 -0.01202436 1.0703168e-38 314 249
-0.0066801999 0.76200002 -0.01202436 1.0887559e-38 315 249
-0.0053441599 0.76200002 -0.01202436 1.0796094e-38 316 249
-0.0040028598 0.76099998 -0.012008579 1.1072321e-38 317 249
-0.0026685731 0.76099998 -0.012008579 1.1255661e-38 318 249
-0.0013342865 0.76099998 -0.012008579 1.1624085e-38 319 249
0 0.76099998 -0.012008579 1.1623732e-38 320 249
0.00133078 0.759 -0.01197702 1.1623732e-38 321 249
0.0026545466 0.75700003 -0.01194546 1.1624085e-38 322 249
0.0039818203 0.75700003 -0.01194546 1.1347856e-38 323 249
0.0053090933 0.75700003 -0.01194546 1.1346422e-38 324 249
0.0066363667 0.75700003 -0.01194546 1.1070195e-38 325 249
0.0079636406 0.75700003 -0.01194546 1.1159872e-38 326 249
0.0092663663 0.755 -0.011913899 1.0698535e-38 327 249
0.010590133 0.755 -0.011913899 1.0237192e-38 328 249
0.01194546 0.75700003 -0.01194546 9.776212e-39 329 249
0.013272733 0.75700003 -0.01194546 9.3162904e-39 330 249
0.014600007 0.75700003 -0.01194546 8.9475093e-39 331 249
0.015927281 0.75700003 -0.01194546 9.038263e-39 332 249
0.017254554 0.75700003 -0.01194546 9.038263e-39 333 249
0.018581826 0.75700003 -0.01194546 8.9453569e-39 334 249
0.019909101 0.75700003 -0.01194546 8.8531613e-39 335 249
0.02129248 0.759 -0.01197702 9.0346883e-39 336 249
0.02262326 0.759 -0.01197702 8.9424926e-39 337 249
0.023954039 0.759 -0.01197702 8.9410591e-39 338 249
0.025284819 0.759 -0.01197702 8.757028e-39 339 249
0.026685731 0.76099998 -0.012008579 8.4800824e-39 340 249
0.028020019 0.76099998 -0.012008579 8.3878853e-39 341 249
0.029354304 0.76099998 -0.012008579 8.0198259e-39 342 249
0.030688593 0.76099998 -0.012008579 8.0198259e-39 343 249
0.032022879 0.76099998 -0.012008579 7.8361605e-39 344 249
0.033401001 0.76200002 -0.01202436 8.1123873e-39 345 249
0.034737039 0.76200002 -0.01202436 8.0219937e-39 346 249
0.036167759 0.764 -0.01205592 8.391135e-39 347 249
0.037507307 0.764 -0.01205592 8.3011015e-39 348 249
0.038948543 0.76599997 -0.012087479 8.7620797e-39 349 249
0.040291596 0.76599997 -0.012087479 8.856076e-39 350 249
0.041689005 0.76700002 -0.01210326 9.685838e-39 351 249
0.043033812 0.76700002 -0.01210326 1.060458e-38 352 249
0.044494338 0.76899999 -0.012134819 1.2172264e-38 353 249
0.048942544 0.82099998 -0.01295538 1.4010101e-38 354 249
-0.021713279 0.77399999 -0.013570799 1.2174062e-38 304 250
-0.020356199 0.77399999 -0.013570799 1.162089e-38 305 250
-0.018999118 0.77399999 -0.013570799 1.1530803e-38 306 250
-0.017619247 0.773 -0.013553266 1.1346412e-38 307 250
-0.016221842 0.77100003 -0.013518199 1.1071251e-38 308 250
-0.014831445 0.76899999 -0.013483133 1.0979056e-38 309 250
-0.013483133 0.76899999 -0.013483133 1.0886853e-38 310 250
-0.01210326 0.76700002 -0.013448066 1.0794657e-38 311 250
-0.010744425 0.76599997 -0.013430533 1.0795008e-38 312 250
-0.0093768267 0.764 -0.013395466 1.0795008e-38 313 250
-0.0080162399 0.76200002 -0.0133604 1.051985e-38 314 250
-0.0066801999 0.76200002 -0.0133604 1.0612046e-38 315 250
-0.0053441599 0.76200002 -0.0133604 1.0703891e-38 316 250
-0.0040028598 0.76099998 -0.013342866 1.0980478e-38 317 250
-0.0026685731 0.76099998 -0.013342866 1.1163813e-38 318 250
-0.0013342865 0.76099998 -0.013342866 1.1256008e-38 319 250
0 0.76099998 -0.013342866 1.1255658e-38 320 250
0.00133078 0.759 -0.0133078 1.1347854e-38 321 250
0.00266156 0.759 -0.0133078 1.1347859e-38 322 250
0.0039818203 0.75700003 -0.013272733 1.1255305e-38 323 250
0.0053090933 0.75700003 -0.013272733 1.143862e-38 324 250
0.0066363667 0.75700003 -0.013272733 1.1070198e-38 325 250
0.0079636406 0.75700003 -0.013272733 1.1159872e-38 326 250
0.0092909131 0.75700003 -0.013272733 1.0606338e-38 327 250
0.010618187 0.75700003 -0.013272733 1.0237192e-38 328 250
0.01194546 0.75700003 -0.013272733 9.776212e-39 329 250
0.013272733 0.75700003 -0.013272733 9.1326222e-39 330 250
0.014600007 0.75700003 -0.013272733 8.948231e-39 331 250
0.015927281 0.75700003 -0.013272733 8.9464289e-39 332 250
0.017254554 0.75700003 -0.013272733 8.8542333e-39 333 250
0.018581826 0.75700003 -0.013272733 8.853527e-39 334 250
0.0199617 0.759 -0.0133078 8.5773003e-39 335 250
0.02129248 0.759 -0.0133078 8.8506628e-39 336 250
0.02262326 0.759 -0.0133078 8.5740759e-39 337 250
0.024017159 0.76099998 -0.013342866 8.7573937e-39 338 250
0.025351444 0.76099998 -0.013342866 8.4804481e-39 339 250
0.026685731 0.76099998 -0.013342866 8.479732e-39 340 250
0.028020019 0.76099998 -0.013342866 8.2953394e-39 341 250
0.029354304 0.76099998 -0.013342866 8.0198287e-39 342 250
0.030688593 0.76099998 -0.013342866 8.0198287e-39 343 250
0.032064959 0.76200002 -0.0133604 7.9287121e-39 344 250
0.033401001 0.76200002 -0.0133604 8.1127432e-39 345 250
0.034828212 0.764 -0.013395466 8.3900531e-39 346 250
0.036167759 0.764 -0.013395466 8.7591958e-39 347 250
0.037605491 0.76599997 -0.013430533 8.669161e-39 348 250
0.038999394 0.76700002 -0.013448066 9.2223348e-39 349 250
0.040344197 0.76700002 -0.013448066 9.6836885e-39 350 250
0.041689005 0.76700002 -0.013448066 1.0605285e-38 351 250
0.043146025 0.76899999 -0.013483133 1.1248881e-38 352 250
0.044610061 0.77100003 -0.013518199 1.3092794e-38 353 250
-0.020356199 0.77399999 -0.014927879 1.1713457e-38 305 251
-0.018999118 0.77399999 -0.014927879 1.1345703e-38 306 251
-0.017619247 0.773 -0.014908593 1.1345703e-38 307 251
-0.016221842 0.77100003 -0.01487002 1.116345e-38 308 251
-0.014831445 0.76899999 -0.014831445 1.1070895e-38 309 251
-0.013483133 0.76899999 -0.014831445 1.097905e-38 310 251
-0.01210326 0.76700002 -0.014792874 1.0886853e-38 311 251
-0.010744425 0.76599997 -0.014773586 1.0703538e-38 312 251
-0.0094013726 0.76599997 -0.014773586 1.0611342e-38 313 251
-0.0080372803 0.764 -0.014735013 1.0520219e-38 314 251
-0.0066801999 0.76200002 -0.01469644 1.0520219e-38 315 251
-0.0053441599 0.76200002 -0.01469644 1.0520219e-38 316 251
-0.0040081199 0.76200002 -0.01469644 1.070461e-38 317 251
-0.0026685731 0.76099998 -0.014677152 1.0979772e-38 318 251
-0.0013342865 0.76099998 -0.014677152 1.1071967e-38 319 251
0 0.76099998 -0.014677152 1.1163097e-38 320 251
0.0013342865 0.76099998 -0.014677152 1.1439323e-38 321 251
0.00266156 0.759 -0.014638579 1.1255661e-38 322 251
0.0039923396 0.759 -0.014638579 1.1163465e-38 323 251
0.0053231199 0.759 -0.014638579 1.1070914e-38 324 251
0.0066538998 0.759 -0.014638579 1.1070914e-38 325 251
0.0079846792 0.759 -0.014638579 1.0884001e-38 326 251
0.0092909131 0.75700003 -0.014600007 1.0330828e-38 327 251
0.010618187 0.75700003 -0.014600007 1.0236464e-38 328 251
0.01194546 0.75700003 -0.014600007 9.7754875e-39 329 251
0.013272733 0.75700003 -0.014600007 9.2237389e-39 330 251
0.014600007 0.75700003 -0.014600007 8.8553151e-39 331 251
0.015969358 0.759 -0.014638579 8.8538801e-39 332 251
0.017300138 0.759 -0.014638579 8.669849e-39 333 251
0.01863092 0.759 -0.014638579 8.8528109e-39 334 251
0.0199617 0.759 -0.014638579 8.5762241e-39 335 251
0.021348584 0.76099998 -0.014677152 8.7581098e-39 336 251
0.022682872 0.76099998 -0.014677152 8.481883e-39 337 251
0.024017159 0.76099998 -0.014677152 8.3893343e-39 338 251
0.025351444 0.76099998 -0.014677152 8.204943e-39 339 251
0.026685731 0.76099998 -0.014677152 8.1123901e-39 340 251
0.028056841 0.76200002 -0.01469644 7.9283589e-39 341 251
0.029392879 0.76200002 -0.01469644 7.7446837e-39 342 251
0.030728921 0.76200002 -0.01469644 7.7446837e-39 343 251
0.032064959 0.76200002 -0.01469644 7.9287093e-39 344 251
0.033488665 0.764 -0.014735013 8.2974918e-39 345 251
0.034828212 0.764 -0.014735013 8.2989337e-39 346 251
0.036262438 0.76599997 -0.014773586 8.8521075e-39 347 251
0.037605491 0.76599997 -0.014773586 8.8542753e-39 348 251
0.038999394 0.76700002 -0.014792874 9.3152521e-39 349 251
0.040344197 0.76700002 -0.014792874 9.6840542e-39 350 251
0.041689005 0.76700002 -0.014792874 1.0882597e-38 351 251
0.043258239 0.77100003 -0.01487002 1.1802429e-38 352 251
0.044610061 0.77100003 -0.01487002 1.3646341e-38 353 251
-0.018999118 0.77399999 -0.016284959 1.1437901e-38 306 252
-0.01764204 0.77399999 -0.016284959 1.125351e-38 307 252
-0.016263919 0.773 -0.016263919 1.1070895e-38 308 252
-0.01487002 0.77100003 -0.016221842 1.09787e-38 309 252
-0.013518199 0.77100003 -0.016221842 1.0886856e-38 310 252
-0.012134819 0.76899999 -0.016179759 1.0886856e-38 311 252
-0.010758453 0.76700002 -0.01613768 1.0794657e-38 312 252
-0.0094013726 0.76599997 -0.016116638 1.0886853e-38 313 252
-0.0080583189 0.76599997 -0.016116638 1.0611342e-38 314 252
-0.006697733 0.764 -0.016074561 1.0519147e-38 315 252
-0.0053441599 0.76200002 -0.01603248 1.0335837e-38 316 252
-0.0040081199 0.76200002 -0.01603248 1.0519868e-38 317 252
-0.00267208 0.76200002 -0.01603248 1.0703193e-38 318 252
-0.00133604 0.76200002 -0.01603248 1.0703193e-38 319 252
0 0.76099998 -0.016011439 1.0794684e-38 320 252
0.0013342865 0.76099998 -0.016011439 1.0978715e-38 321 252
0.0026685731 0.76099998 -0.016011439 1.0795772e-38 322 252
0.0039923396 0.759 -0.015969358 1.061174e-38 323 252
0.0053231199 0.759 -0.015969358 1.0519539e-38 324 252
0.0066538998 0.759 -0.015969358 1.0335147e-38 325 252
0.0079846792 0.759 -0.015969358 1.033226e-38 326 252
0.00931546 0.759 -0.015969358 9.8709229e-39 327 252
0.01064624 0.759 -0.015969358 9.8691111e-39 328 252
0.01197702 0.759 -0.015969358 9.4081329e-39 329 252
0.0133078 0.759 -0.015969358 9.4066882e-39 330 252
0.014638579 0.759 -0.015969358 9.0379057e-39 331 252
0.015969358 0.759 -0.015969358 8.8535172e-39 332 252
0.017300138 0.759 -0.015969358 8.8535172e-39 333 252
0.01863092 0.759 -0.015969358 8.8510159e-39 334 252
0.0199617 0.759 -0.015969358 8.7584601e-39 335 252
0.021348584 0.76099998 -0.016011439 8.6648422e-39 336 252
0.022682872 0.76099998 -0.016011439 8.4804509e-39 337 252
0.024017159 0.76099998 -0.016011439 8.2045871e-39 338 252
0.025351444 0.76099998 -0.016011439 8.1123901e-39 339 252
0.0267208 0.76200002 -0.01603248 8.1116684e-39 340 252
0.028056841 0.76200002 -0.01603248 8.0194728e-39 341 252
0.029392879 0.76200002 -0.01603248 8.0198287e-39 342 252
0.030728921 0.76200002 -0.01603248 8.1120243e-39 343 252
0.032064959 0.76200002 -0.01603248 8.2967701e-39 344 252
0.033488665 0.764 -0.016074561 8.7577469e-39 345 252
0.034919381 0.76599997 -0.016116638 8.6677134e-39 346 252
0.036309779 0.76700002 -0.01613768 9.2208872e-39 347 252
0.037654586 0.76700002 -0.01613768 9.0393854e-39 348 252
0.038999394 0.76700002 -0.01613768 9.4085281e-39 349 252
0.040344197 0.76700002 -0.01613768 1.0235434e-38 350 252
0.041797712 0.76899999 -0.016179759 1.1710563e-38 351 252
0.043258239 0.77100003 -0.016221842 1.2355253e-38 352 252
-0.019048214 0.77600002 -0.017687626 1.1805274e-38 306 253
-0.01764204 0.77399999 -0.01764204 1.1344655e-38 307 253
-0.016284959 0.77399999 -0.01764204 1.0978715e-38 308 253
-0.014908593 0.773 -0.017619247 1.0794684e-38 309 253
-0.013553266 0.773 -0.017619247 1.0886503e-38 310 253
-0.012134819 0.76899999 -0.017528072 1.0886503e-38 311 253
-0.010758453 0.76700002 -0.017482487 1.0611348e-38 312 253
-0.0094013726 0.76599997 -0.017459691 1.0703544e-38 313 253
-0.0080583189 0.76599997 -0.017459691 1.0611348e-38 314 253
-0.006697733 0.764 -0.017414106 1.0611348e-38 315 253
-0.0053581866 0.764 -0.017414106 1.0518794e-38 316 253
-0.0040081199 0.76200002 -0.01736852 1.0518794e-38 317 253
-0.00267208 0.76200002 -0.01736852 1.051915e-38 318 253
-0.00133604 0.76200002 -0.01736852 1.051915e-38 319 253
0 0.76200002 -0.01736852 1.0885784e-38 320 253
0.00133604 0.76200002 -0.01736852 1.0885784e-38 321 253
0.0026685731 0.76099998 -0.017345725 1.0885436e-38 322 253
0.0040028598 0.76099998 -0.017345725 1.0792882e-38 323 253
0.0053371461 0.76099998 -0.017345725 1.0517021e-38 324 253
0.0066714329 0.76099998 -0.017345725 1.0240434e-38 325 253
0.0079846792 0.759 -0.017300138 9.9631214e-39 326 253
0.00931546 0.759 -0.017300138 9.6868946e-39 327 253
0.01064624 0.759 -0.017300138 9.5925284e-39 328 253
0.01197702 0.759 -0.017300138 9.3159401e-39 329 253
0.0133078 0.759 -0.017300138 9.1308216e-39 330 253
0.014638579 0.759 -0.017300138 9.0386245e-39 331 253
0.016011439 0.76099998 -0.017345725 8.670921e-39 332 253
0.017345725 0.76099998 -0.017345725 8.3939796e-39 333 253
0.018680012 0.76099998 -0.017345725 8.8502956e-39 334 253
0.020014299 0.76099998 -0.017345725 8.6655456e-39 335 253
0.021348584 0.76099998 -0.017345725 8.5715746e-39 336 253
0.022682872 0.76099998 -0.017345725 8.3871819e-39 337 253
0.024017159 0.76099998 -0.017345725 8.2035151e-39 338 253
0.025351444 0.76099998 -0.017345725 8.2035151e-39 339 253
0.0267208 0.76200002 -0.01736852 8.1123901e-39 340 253
0.028056841 0.76200002 -0.01736852 8.1123901e-39 341 253
0.029392879 0.76200002 -0.01736852 8.1123873e-39 342 253
0.030728921 0.76200002 -0.01736852 8.2971387e-39 343 253
0.032149121 0.764 -0.017414106 8.4822516e-39 344 253
0.033488665 0.764 -0.017414106 9.0350666e-39 345 253
0.034919381 0.76599997 -0.017459691 9.1297832e-39 346 253
0.036309779 0.76700002 -0.017482487 9.2219788e-39 347 253
0.03775277 0.76899999 -0.017528072 9.1315979e-39 348 253
0.039101087 0.76899999 -0.017528072 9.8695216e-39 349 253
0.0404494 0.76899999 -0.017528072 1.1248165e-38 350 253
0.041797712 0.76899999 -0.017528072 1.26311e-38 351 253
-0.019048214 0.77600002 -0.019048214 1.217336e-38 306 254
-0.017687626 0.77600002 -0.019048214 1.1620186e-38 307 254
-0.016284959 0.77399999 -0.018999118 1.1345706e-38 308 254
-0.014927879 0.77399999 -0.018999118 1.125351e-38 309 254
-0.013553266 0.773 -0.018974574 1.0886506e-38 310 254
-0.01216638 0.77100003 -0.018925481 1.0886506e-38 311 254
-0.010786506 0.76899999 -0.018876385 1.0703193e-38 312 254
-0.0094136465 0.76700002 -0.018827293 1.0703193e-38 313 254
-0.00806884 0.76700002 -0.018827293 1.0610639e-38 314 254
-0.0067152665 0.76599997 -0.018802745 1.0610639e-38 315 254
-0.0053581866 0.764 -0.018753653 1.0702109e-38 316 254
-0.0040186401 0.764 -0.018753653 1.0702109e-38 317 254
-0.0026790933 0.764 -0.018753653 1.0335481e-38 318 254
-0.00133604 0.76200002 -0.01870456 1.0335481e-38 319 254
0 0.76200002 -0.01870456 1.0426248e-38 320 254
0.00133604 0.76200002 -0.01870456 1.0426248e-38 321 254
0.00267208 0.76200002 -0.01870456 1.0424823e-38 322 254
0.0040028598 0.76099998 -0.018680012 1.0332627e-38 323 254
0.0053371461 0.76099998 -0.018680012 1.0057115e-38 324 254
0.0066714329 0.76099998 -0.018680012 9.8727236e-39 325 254
0.0080057196 0.76099998 -0.018680012 9.9638248e-39 326 254
0.0093400059 0.76099998 -0.018680012 9.5028467e-39 327 254
0.010674292 0.76099998 -0.018680012 9.5017551e-39 328 254
0.012008579 0.76099998 -0.018680012 9.0407769e-39 329 254
0.013342866 0.76099998 -0.018680012 8.9482212e-39 330 254
0.014677152 0.76099998 -0.018680012 8.7638327e-39 331 254
0.016011439 0.76099998 -0.018680012 9.0375455e-39 332 254
0.017345725 0.76099998 -0.018680012 8.7613216e-39 333 254
0.018680012 0.76099998 -0.018680012 9.125435e-39 334 254
0.020014299 0.76099998 -0.018680012 8.9410465e-39 335 254
0.021348584 0.76099998 -0.018680012 8.7566749e-39 336 254
0.022682872 0.76099998 -0.018680012 8.5719249e-39 337 254
0.024017159 0.76099998 -0.018680012 8.5719249e-39 338 254
0.02538476 0.76200002 -0.01870456 8.5719249e-39 339 254
0.0267208 0.76200002 -0.01870456 8.297489e-39 340 254
0.028056841 0.76200002 -0.01870456 8.297489e-39 341 254
0.029392879 0.76200002 -0.01870456 8.6651925e-39 342 254
0.030728921 0.76200002 -0.01870456 8.8499425e-39 343 254
0.032149121 0.764 -0.018753653 8.6684393e-39 344 254
0.033576332 0.76599997 -0.018802745 9.0372218e-39 345 254
0.034919381 0.76599997 -0.018802745 9.0386694e-39 346 254
0.036309779 0.76700002 -0.018827293 9.4996475e-39 347 254
0.03775277 0.76899999 -0.018876385 9.9595663e-39 348 254
0.039101087 0.76899999 -0.018876385 1.0697131e-38 349 254
0.0404494 0.76899999 -0.018876385 1.2076144e-38 350 254
-0.019048214 0.77600002 -0.0204088 1.2358123e-38 306 255
-0.017687626 0.77600002 -0.0204088 1.1804949e-38 307 255
-0.01632704 0.77600002 -0.0204088 1.1620866e-38 308 255
-0.014927879 0.77399999 -0.020356199 1.1344639e-38 309 255
-0.013570799 0.77399999 -0.020356199 1.097835e-38 310 255
-0.012197939 0.773 -0.0203299 1.0793957e-38 311 255
-0.010842613 0.773 -0.0203299 1.0885434e-38 312 255
-0.0094381925 0.76899999 -0.0202247 1.0793238e-38 313 255
-0.0080898795 0.76899999 -0.0202247 1.0701758e-38 314 255
-0.006724033 0.76700002 -0.020172099 1.0701758e-38 315 255
-0.0053792265 0.76700002 -0.020172099 1.051808e-38 316 255
-0.0040291594 0.76599997 -0.020145798 1.0702112e-38 317 255
-0.0026861064 0.76599997 -0.020145798 1.0426598e-38 318 255
-0.0013395466 0.764 -0.020093199 1.0426598e-38 319 255
0 0.764 -0.020093199 1.0426235e-38 320 255
0.00133604 0.76200002 -0.0200406 1.0333681e-38 321 255
0.00267208 0.76200002 -0.0200406 1.0332963e-38 322 255
0.0040081199 0.76200002 -0.0200406 1.0240768e-38 323 255
0.0053441599 0.76200002 -0.0200406 1.0057095e-38 324 255
0.0066801999 0.76200002 -0.0200406 9.7805098e-39 325 255
0.0080162399 0.76200002 -0.0200406 9.6875911e-39 326 255
0.0093522798 0.76200002 -0.0200406 9.5031998e-39 327 255
0.010674292 0.76099998 -0.020014299 9.5013991e-39 328 255
0.012008579 0.76099998 -0.020014299 9.1329754e-39 329 255
0.013342866 0.76099998 -0.020014299 8.9482212e-39 330 255
0.014677152 0.76099998 -0.020014299 8.8560269e-39 331 255
0.016011439 0.76099998 -0.020014299 9.038263e-39 332 255
0.017345725 0.76099998 -0.020014299 8.7616803e-39 333 255
0.018680012 0.76099998 -0.020014299 8.943559e-39 334 255
0.020014299 0.76099998 -0.020014299 8.8513634e-39 335 255
0.021348584 0.76099998 -0.020014299 8.8510159e-39 336 255
0.022682872 0.76099998 -0.020014299 8.4822334e-39 337 255
0.02404872 0.76200002 -0.0200406 8.5729997e-39 338 255
0.02538476 0.76200002 -0.0200406 8.6651953e-39 339 255
0.0267208 0.76200002 -0.0200406 8.482246e-39 340 255
0.028056841 0.76200002 -0.0200406 8.5748003e-39 341 255
0.029470026 0.764 -0.020093199 8.8503124e-39 342 255
0.030809574 0.764 -0.020093199 9.0347037e-39 343 255
0.032233275 0.76599997 -0.020145798 8.8535536e-39 344 255
0.033620168 0.76700002 -0.020172099 9.2223348e-39 345 255
0.034964975 0.76700002 -0.020172099 9.2237837e-39 346 255
0.036404461 0.76899999 -0.0202247 9.6844017e-39 347 255
0.03775277 0.76899999 -0.0202247 1.0328001e-38 348 255
0.039101087 0.76899999 -0.0202247 1.1526544e-38 349 255
0.0404494 0.76899999 -0.0202247 1.2538215e-38 350 255
-0.019048214 0.77600002 -0.021769386 1.2450332e-38 306 256
-0.01764204 0.77399999 -0.021713279 1.1989713e-38 307 256
-0.016284959 0.77399999 -0.021713279 1.1804911e-38 308 256
-0.014966453 0.77600002 -0.021769386 1.162016e-38 309 256
-0.013570799 0.77399999 -0.021713279 1.1253144e-38 310 256
-0.01221372 0.77399999 -0.021713279 1.1068393e-38 311 256
-0.010842613 0.773 -0.021685226 1.0976197e-38 312 256
-0.0094872871 0.773 -0.021685226 1.0884001e-38 313 256
-0.0080898795 0.76899999 -0.021573013 1.0517374e-38 314 256
-0.0067415666 0.76899999 -0.021573013 1.0517374e-38 315 256
-0.0053792265 0.76700002 -0.021516906 1.0517727e-38 316 256
-0.00403442 0.76700002 -0.021516906 1.0517727e-38 317 256
-0.0026896133 0.76700002 -0.021516906 1.0334405e-38 318 256
-0.0013430532 0.76599997 -0.021488851 1.0426601e-38 319 256
0 0.76599997 -0.021488851 1.0425879e-38 320 256
0.0013430532 0.76599997 -0.021488851 1.0333684e-38 321 256
0.0026790933 0.764 -0.021432746 1.0149291e-38 322 256
0.0040186401 0.764 -0.021432746 1.0057095e-38 323 256
0.0053441599 0.76200002 -0.02137664 1.0056374e-38 324 256
0.0066801999 0.76200002 -0.02137664 9.964178e-39 325 256
0.0080162399 0.76200002 -0.02137664 9.8712593e-39 326 256
0.0093522798 0.76200002 -0.02137664 9.5946724e-39 327 256
0.01068832 0.76200002 -0.02137664 9.5017523e-39 328 256
0.01202436 0.76200002 -0.02137664 9.1333285e-39 329 256
0.0133604 0.76200002 -0.02137664 9.2244451e-39 330 256
0.01469644 0.76200002 -0.02137664 9.1322509e-39 331 256
0.01603248 0.76200002 -0.02137664 9.2222927e-39 332 256
0.017345725 0.76099998 -0.021348584 8.9460688e-39 333 256
0.018680012 0.76099998 -0.021348584 9.1283048e-39 334 256
0.020014299 0.76099998 -0.021348584 9.1283048e-39 335 256
0.021348584 0.76099998 -0.021348584 9.0364791e-39 336 256
0.02271268 0.76200002 -0.02137664 8.667698e-39 337 256
0.02404872 0.76200002 -0.02137664 8.6651925e-39 338 256
0.02538476 0.76200002 -0.02137664 8.9421395e-39 339 256
0.026790932 0.764 -0.021432746 8.6669974e-39 340 256
0.028130481 0.764 -0.021432746 8.759193e-39 341 256
0.029547172 0.76599997 -0.021488851 9.1269021e-39 342 256
0.030890226 0.76599997 -0.021488851 9.4953259e-39 343 256
0.032233275 0.76599997 -0.021488851 9.2219816e-39 344 256
0.033707831 0.76899999 -0.021573013 9.5911243e-39 345 256
0.035056144 0.76899999 -0.021573013 9.9599194e-39 346 256
0.036404461 0.76899999 -0.021573013 1.0236506e-38 347 256
0.03775277 0.76899999 -0.021573013 1.1340725e-38 348 256
0.039101087 0.76899999 -0.021573013 1.207829e-38 349 256
-0.01764204 0.77399999 -0.02307036 1.2174475e-38 307 257
-0.016284959 0.77399999 -0.02307036 1.1806005e-38 308 257
-0.014927879 0.77399999 -0.02307036 1.152906e-38 309 257
-0.013570799 0.77399999 -0.02307036 1.1344987e-38 310 257
-0.01221372 0.77399999 -0.02307036 1.1160595e-38 311 257
-0.01085664 0.77399999 -0.02307036 1.0976197e-38 312 257
-0.0094872871 0.773 -0.023040552 1.069997e-38 313 257
-0.0081109209 0.77100003 -0.02298094 1.0608138e-38 314 257
-0.0067590997 0.77100003 -0.02298094 1.0608138e-38 315 257
-0.0053932532 0.76899999 -0.022921326 1.0333702e-38 316 257
-0.0040449398 0.76899999 -0.022921326 1.0333702e-38 317 257
-0.0026966266 0.76899999 -0.022921326 1.0058541e-38 318 257
-0.0013448066 0.76700002 -0.022861714 1.0058541e-38 319 257
0 0.76700002 -0.022861714 1.0150368e-38 320 257
0.0013448066 0.76700002 -0.022861714 1.0058171e-38 321 257
0.0026861064 0.76599997 -0.022831906 1.0149644e-38 322 257
0.0040291594 0.76599997 -0.022831906 1.005709e-38 323 257
0.0053581866 0.764 -0.022772292 1.0056371e-38 324 257
0.006697733 0.764 -0.022772292 9.9641752e-39 325 257
0.0080372803 0.764 -0.022772292 9.8712565e-39 326 257
0.0093768267 0.764 -0.022772292 9.6868652e-39 327 257
0.01068832 0.76200002 -0.02271268 9.4106356e-39 328 257
0.01202436 0.76200002 -0.02271268 9.226243e-39 329 257
0.0133604 0.76200002 -0.02271268 9.3173596e-39 330 257
0.014735013 0.764 -0.022772292 9.0411329e-39 331 257
0.016074561 0.764 -0.022772292 9.1311775e-39 332 257
0.017414106 0.764 -0.022772292 9.0389805e-39 333 257
0.018753653 0.764 -0.022772292 9.0379113e-39 334 257
0.0200406 0.76200002 -0.02271268 9.2219424e-39 335 257
0.02137664 0.76200002 -0.02271268 9.0379281e-39 336 257
0.022772292 0.764 -0.022772292 8.8531767e-39 337 257
0.024111839 0.764 -0.022772292 8.8517418e-39 338 257
0.025451386 0.764 -0.022772292 9.0357729e-39 339 257
0.026790932 0.764 -0.022772292 9.1279685e-39 340 257
0.028204117 0.76599997 -0.022831906 9.1279685e-39 341 257
0.029585747 0.76700002 -0.022861714 9.3130856e-39 342 257
0.030930554 0.76700002 -0.022861714 9.5896725e-39 343 257
0.03227536 0.76700002 -0.022861714 9.7748051e-39 344 257
0.033707831 0.76899999 -0.022921326 1.0236143e-38 345 257
0.035056144 0.76899999 -0.022921326 1.042092e-38 346 257
0.036499143 0.77100003 -0.02298094 1.0974092e-38 347 257
0.037949149 0.773 -0.023040552 1.1802445e-38 348 257
-0.016284959 0.77399999 -0.02442744 1.1990063e-38 308 258
-0.014927879 0.77399999 -0.02442744 1.1620921e-38 309 258
-0.013570799 0.77399999 -0.02442744 1.1620162e-38 310 258
-0.01221372 0.77399999 -0.02442744 1.1343936e-38 311 258
-0.01085664 0.77399999 -0.02442744 1.0884024e-38 312 258
-0.0094995592 0.77399999 -0.02442744 1.0699633e-38 313 258
-0.0081319595 0.773 -0.024395877 1.0516671e-38 314 258
-0.0067766332 0.773 -0.024395877 1.0516671e-38 315 258
-0.0054072798 0.77100003 -0.02433276 1.0150034e-38 316 258
-0.0040449398 0.76899999 -0.024269639 1.0150034e-38 317 258
-0.0026966266 0.76899999 -0.024269639 1.0334052e-38 318 258
-0.0013483133 0.76899999 -0.024269639 1.0150021e-38 319 258
0 0.76899999 -0.024269639 1.0150371e-38 320 258
0.0013448066 0.76700002 -0.024206521 9.9659786e-39 321 258
0.0026896133 0.76700002 -0.024206521 1.0149291e-38 322 258
0.0040291594 0.76599997 -0.024174958 1.0057095e-38 323 258
0.0053722127 0.76599997 -0.024174958 9.8727082e-39 324 258
0.0067152665 0.76599997 -0.024174958 9.7805126e-39 325 258
0.0080583189 0.76599997 -0.024174958 9.8709061e-39 326 258
0.0094013726 0.76599997 -0.024174958 9.7787105e-39 327 258
0.010744425 0.76599997 -0.024174958 9.411007e-39 328 258
0.012087479 0.76599997 -0.024174958 9.3184526e-39 329 258
0.013430533 0.76599997 -0.024174958 9.226257e-39 330 258
0.014773586 0.76599997 -0.024174958 8.9500288e-39 331 258
0.016116638 0.76599997 -0.024174958 9.3152184e-39 332 258
0.017459691 0.76599997 -0.024174958 9.1308272e-39 333 258
0.018802745 0.76599997 -0.024174958 9.0379225e-39 334 258
0.020093199 0.764 -0.024111839 9.0379225e-39 335 258
0.021432746 0.764 -0.024111839 9.1297706e-39 336 258
0.022831906 0.76599997 -0.024174958 9.037575e-39 337 258
0.024174958 0.76599997 -0.024174958 9.037219e-39 338 258
0.025518013 0.76599997 -0.024174958 9.037219e-39 339 258
0.026861066 0.76599997 -0.024174958 9.2219662e-39 340 258
0.028314579 0.76899999 -0.024269639 9.3141618e-39 341 258
0.02966289 0.76899999 -0.024269639 9.499279e-39 342 258
0.031091858 0.77100003 -0.02433276 9.8677014e-39 343 258
0.032359518 0.76899999 -0.024269639 9.8691657e-39 344 258
0.033707831 0.76899999 -0.024269639 1.0330504e-38 345 258
0.035056144 0.76899999 -0.024269639 1.0974469e-38 346 258
0.036499143 0.77100003 -0.02433276 1.1619839e-38 347 258
-0.014966453 0.77600002 -0.025851147 1.189753e-38 309 259
-0.013570799 0.77399999 -0.025784519 1.180457e-38 310 259
-0.01221372 0.77399999 -0.025784519 1.1436147e-38 311 259
-0.010884693 0.77600002 -0.025851147 1.1252441e-38 312 259
-0.009524107 0.77600002 -0.025851147 1.1067689e-38 313 259
-0.0081424797 0.77399999 -0.025784519 1.0792535e-38 314 259
-0.0067853997 0.77399999 -0.025784519 1.0700339e-38 315 259
-0.0054213065 0.773 -0.025751207 1.0424825e-38 316 259
-0.0040554604 0.77100003 -0.02568458 1.0424825e-38 317 259
-0.0027036399 0.77100003 -0.02568458 1.033298e-38 318 259
-0.0013483133 0.76899999 -0.025617953 1.0240783e-38 319 259
0 0.76899999 -0.025617953 1.0241133e-38 320 259
0.0013448066 0.76700002 -0.025551327 1.0148938e-38 321 259
0.0026896133 0.76700002 -0.025551327 1.0149291e-38 322 259
0.00403442 0.76700002 -0.025551327 1.0149291e-38 323 259
0.0053792265 0.76700002 -0.025551327 1.0148569e-38 324 259
0.006724033 0.76700002 -0.025551327 9.964178e-39 325 259
0.00806884 0.76700002 -0.025551327 9.9634563e-39 326 259
0.0094136465 0.76700002 -0.025551327 9.7790636e-39 327 259
0.010758453 0.76700002 -0.025551327 9.7783448e-39 328 259
0.01210326 0.76700002 -0.025551327 9.6861491e-39 329 259
0.013448066 0.76700002 -0.025551327 9.4102853e-39 330 259
0.014792874 0.76700002 -0.025551327 9.3180897e-39 331 259
0.01613768 0.76700002 -0.025551327 9.4996027e-39 332 259
0.017482487 0.76700002 -0.025551327 9.2233759e-39 333 259
0.018827293 0.76700002 -0.025551327 9.2226669e-39 334 259
0.020172099 0.76700002 -0.025551327 9.2226669e-39 335 259
0.021516906 0.76700002 -0.025551327 9.314515e-39 336 259
0.022861714 0.76700002 -0.025551327 9.314515e-39 337 259
0.024206521 0.76700002 -0.025551327 9.3145178e-39 338 259
0.025551327 0.76700002 -0.025551327 9.4985489e-39 339 259
0.026966266 0.76899999 -0.025617953 9.5907473e-39 340 259
0.028388219 0.77100003 -0.02568458 9.77514e-39 341 259
0.029740039 0.77100003 -0.02568458 9.7762344e-39 342 259
0.031091858 0.77100003 -0.02568458 1.0145017e-38 343 259
0.032443684 0.77100003 -0.02568458 1.0237605e-38 344 259
0.033795502 0.77100003 -0.02568458 1.0790777e-38 345 259
0.03514732 0.77100003 -0.02568458 1.152694e-38 346 259
-0.01224528 0.77600002 -0.027211733 1.1069917e-38 311 260
-0.010884693 0.77600002 -0.027211733 1.1161352e-38 312 260
-0.009524107 0.77600002 -0.027211733 1.0700375e-38 313 260
-0.0081635201 0.77600002 -0.027211733 1.08851e-38 314 260
-0.0067853997 0.77399999 -0.027141599 1.0700349e-38 315 260
-0.0054283198 0.77399999 -0.027141599 1.0700339e-38 316 260
-0.0040659797 0.773 -0.027106533 1.0515589e-38 317 260
-0.0027106532 0.773 -0.027106533 1.033298e-38 318 260
-0.00135182 0.77100003 -0.027036399 1.0240783e-38 319 260
0 0.77100003 -0.027036399 1.0241133e-38 320 260
0.0013483133 0.76899999 -0.026966266 1.0241133e-38 321 260
0.0026966266 0.76899999 -0.026966266 1.0058174e-38 322 260
0.0040449398 0.76899999 -0.026966266 1.0058174e-38 323 260
0.0053932532 0.76899999 -0.026966266 9.9659786e-39 324 260
0.0067415666 0.76899999 -0.026966266 9.8734243e-39 325 260
0.0080898795 0.76899999 -0.026966266 9.9638276e-39 326 260
0.0094136465 0.76700002 -0.026896132 9.8712733e-39 327 260
0.010758453 0.76700002 -0.026896132 9.5957668e-39 328 260
0.01210326 0.76700002 -0.026896132 9.5035712e-39 329 260
0.013483133 0.76899999 -0.026966266 9.4106665e-39 330 260
0.014831445 0.76899999 -0.026966266 9.1344397e-39 331 260
0.016179759 0.76899999 -0.026966266 9.2252032e-39 332 260
0.017528072 0.76899999 -0.026966266 8.9489751e-39 333 260
0.018876385 0.76899999 -0.026966266 8.9486191e-39 334 260
0.0202247 0.76899999 -0.026966266 8.8564235e-39 335 260
0.021573013 0.76899999 -0.026966266 9.1315713e-39 336 260
0.022921326 0.76899999 -0.026966266 9.3156024e-39 337 260
0.024269639 0.76899999 -0.026966266 9.4078022e-39 338 260
0.025617953 0.76899999 -0.026966266 9.6843891e-39 339 260
0.027036399 0.77100003 -0.027036399 9.6847576e-39 340 260
0.028388219 0.77100003 -0.027036399 9.7769533e-39 341 260
0.029817186 0.773 -0.027106533 9.8688126e-39 342 260
0.03117251 0.773 -0.027106533 1.0053563e-38 343 260
0.032527838 0.773 -0.027106533 1.0699327e-38 344 260
-0.0095486529 0.778 -0.028645959 1.0977704e-38 313 261
-0.0081635201 0.77600002 -0.028572321 1.1345005e-38 314 261
-0.0068029333 0.77600002 -0.028572321 1.0976224e-38 315 261
-0.0054423464 0.77600002 -0.028572321 1.1068396e-38 316 261
-0.0040712398 0.77399999 -0.028498679 1.09762e-38 317 261
-0.0027106532 0.773 -0.028461859 1.0425176e-38 318 261
-0.0013553266 0.773 -0.028461859 1.033298e-38 319 261
0 0.773 -0.028461859 1.024078e-38 320 261
0.00135182 0.77100003 -0.028388219 1.024078e-38 321 261
0.0027036399 0.77100003 -0.028388219 1.0241133e-38 322 261
0.0040554604 0.77100003 -0.028388219 1.0241133e-38 323 261
0.0054072798 0.77100003 -0.028388219 1.024077e-38 324 261
0.0067415666 0.76899999 -0.028314579 1.0148216e-38 325 261
0.0080898795 0.76899999 -0.028314579 1.0239333e-38 326 261
0.0094381925 0.76899999 -0.028314579 1.0055302e-38 327 261
0.010786506 0.76899999 -0.028314579 1.0055304e-38 328 261
0.012134819 0.76899999 -0.028314579 9.9631088e-39 329 261
0.013483133 0.76899999 -0.028314579 9.5032152e-39 330 261
0.014831445 0.76899999 -0.028314579 9.4110196e-39 331 261
0.016179759 0.76899999 -0.028314579 9.3177492e-39 332 261
0.017528072 0.76899999 -0.028314579 9.3177492e-39 333 261
0.018876385 0.76899999 -0.028314579 9.592541e-39 334 261
0.0202247 0.76899999 -0.028314579 9.5003454e-39 335 261
0.021573013 0.76899999 -0.028314579 9.5925438e-39 336 261
0.022921326 0.76899999 -0.028314579 9.6847394e-39 337 261
0.024269639 0.76899999 -0.028314579 9.5017929e-39 338 261
0.02568458 0.77100003 -0.028388219 9.8705754e-39 339 261
0.027036399 0.77100003 -0.028388219 9.9609956e-39 340 261
0.028461859 0.773 -0.028461859 1.0329777e-38 341 261
0.029817186 0.773 -0.028461859 9.8699126e-39 342 261
0.031212838 0.77399999 -0.028498679 1.0423086e-38 343 261
-0.0081845606 0.778 -0.03001005 1.1253565e-38 314 262
-0.0068029333 0.77600002 -0.029932907 1.0885141e-38 315 262
-0.0054423464 0.77600002 -0.029932907 1.0977299e-38 316 262
-0.0040712398 0.77399999 -0.029855758 1.0792547e-38 317 262
-0.0027106532 0.773 -0.029817186 1.0425547e-38 318 262
-0.0013553266 0.773 -0.029817186 1.0333351e-38 319 262
0 0.773 -0.029817186 1.0333346e-38 320 262
0.00135182 0.77100003 -0.029740039 1.0149315e-38 321 262
