# .PCD v.7 - Point Cloud Data file format
FIELDS x y z rgb imX imY
SIZE 4 4 4 4 4 4
TYPE F F F F F F
COUNT 1 1 1 1 1 1
WIDTH 840
HEIGHT 1
VIEWPOINT 0 0 0 1 0 0 0
POINTS 840
DATA ascii
0.03318534 0.70099998 -0.050392549 5.8089539e-39 347 281
0.034512613 0.70300001 -0.050536323 5.9000719e-39 348 281
0.035745207 0.70300001 -0.050536323 5.9000719e-39 349 281
0.036977798 0.70300001 -0.050536323 5.8993544e-39 350 281
0.038210396 0.70300001 -0.050536323 5.8993544e-39 351 281
0.039499093 0.704 -0.050608214 5.9904725e-39 352 281
0.040733438 0.704 -0.050608214 5.9904725e-39 353 281
0.042087011 0.70599997 -0.050751984 5.8982782e-39 354 281
0.043386232 0.70700002 -0.050823875 5.8982782e-39 355 281
0.044688959 0.708 -0.050895758 5.4391008e-39 356 281
0.046060063 0.70999998 -0.051039528 5.531295e-39 357 281
0.047371563 0.71100003 -0.051111419 5.7153261e-39 358 281
0.048618179 0.71100003 -0.051111419 5.8997174e-39 359 281
0.049864799 0.71100003 -0.051111419 6.1752267e-39 360 281
0.051255193 0.713 -0.051255193 6.3599767e-39 361 281
0.052578956 0.71399999 -0.05132708 6.8205989e-39 362 281
0.054057021 0.71700001 -0.051542737 7.1897401e-39 363 281
0.055545598 0.72000003 -0.051758397 8.936432e-39 364 281
0.056808002 0.72000003 -0.051758397 1.1425714e-38 365 281
-0.016388407 0.71899998 -0.05294716 9.9509539e-39 307 282
-0.01512776 0.71899998 -0.05294716 9.1225987e-39 308 282
-0.013867113 0.71899998 -0.05294716 8.661622e-39 309 282
-0.0125714 0.71700001 -0.052799881 8.0169574e-39 310 282
-0.01129848 0.71600002 -0.052726239 7.6481763e-39 311 282
-0.01001504 0.71399999 -0.052578956 7.2811917e-39 312 282
-0.0087508867 0.713 -0.052505318 7.2811917e-39 313 282
-0.0074797203 0.71100003 -0.052358042 6.6401383e-39 314 282
-0.0062243328 0.70999998 -0.052284397 6.6401383e-39 315 282
-0.0049654399 0.708 -0.052137118 6.7330556e-39 316 282
-0.0037188199 0.70700002 -0.05206348 6.9174482e-39 317 282
-0.0024792133 0.70700002 -0.05206348 7.0100124e-39 318 282
-0.0012378532 0.70599997 -0.051989835 7.102208e-39 319 282
0 0.70599997 -0.051989835 7.0114641e-39 320 282
0.0012343467 0.704 -0.051842559 7.2876909e-39 321 282
0.0024651866 0.70300001 -0.051768921 7.3798865e-39 322 282
0.0036977797 0.70300001 -0.051768921 7.5642778e-39 323 282
0.0049163462 0.70099998 -0.051621638 8.2989533e-39 324 282
0.0061454331 0.70099998 -0.051621638 7.6535839e-39 325 282
0.0073639993 0.69999999 -0.051547997 7.0100152e-39 326 282
0.0085913334 0.69999999 -0.051547997 7.0100152e-39 327 282
0.0098186666 0.69999999 -0.051547997 7.0100124e-39 328 282
0.011045999 0.69999999 -0.051547997 7.102208e-39 329 282
0.012273333 0.69999999 -0.051547997 7.0110844e-39 330 282
0.013500666 0.69999999 -0.051547997 6.9188887e-39 331 282
0.01468592 0.69800001 -0.051400717 6.9181671e-39 332 282
0.015909746 0.69800001 -0.051400717 6.7337758e-39 333 282
0.017133573 0.69800001 -0.051400717 6.5486615e-39 334 282
0.0183574 0.69800001 -0.051400717 6.0876889e-39 335 282
0.019581227 0.69800001 -0.051400717 6.0873302e-39 336 282
0.020805053 0.69800001 -0.051400717 6.0873302e-39 337 282
0.02202888 0.69800001 -0.051400717 6.0873302e-39 338 282
0.023252707 0.69800001 -0.051400717 5.902583e-39 339 282
0.024476532 0.69800001 -0.051400717 6.177372e-39 340 282
0.025700359 0.69800001 -0.051400717 5.9926249e-39 341 282
0.027001332 0.69999999 -0.051547997 5.7171184e-39 342 282
0.028228667 0.69999999 -0.051547997 5.7171184e-39 343 282
0.029455997 0.69999999 -0.051547997 5.6252829e-39 344 282
0.030683333 0.69999999 -0.051547997 5.5330886e-39 345 282
0.031956252 0.70099998 -0.051621638 5.5327299e-39 346 282
0.03318534 0.70099998 -0.051621638 5.5327299e-39 347 282
0.034512613 0.70300001 -0.051768921 5.6242067e-39 348 282
0.035745207 0.70300001 -0.051768921 5.5320124e-39 349 282
0.036977798 0.70300001 -0.051768921 5.7153247e-39 350 282
0.038210396 0.70300001 -0.051768921 5.7153247e-39 351 282
0.039499093 0.704 -0.051842559 5.989755e-39 352 282
0.040733438 0.704 -0.051842559 5.989755e-39 353 282
0.042087011 0.70599997 -0.051989835 5.7138898e-39 354 282
0.043386232 0.70700002 -0.05206348 5.7138898e-39 355 282
0.044688959 0.708 -0.052137118 5.3469065e-39 356 282
0.046060063 0.70999998 -0.052284397 5.531295e-39 357 282
0.047371563 0.71100003 -0.052358042 5.8068029e-39 358 282
0.048618179 0.71100003 -0.052358042 5.8989985e-39 359 282
0.050005067 0.713 -0.052505318 6.2674251e-39 360 282
0.05132708 0.71399999 -0.052578956 6.4518164e-39 361 282
0.052726239 0.71600002 -0.052726239 6.729485e-39 362 282
0.054057021 0.71700001 -0.052799881 7.2823001e-39 363 282
0.055545598 0.72000003 -0.053020801 9.396334e-39 364 282
0.057044696 0.72299999 -0.053241719 1.1516835e-38 365 282
-0.01512776 0.71899998 -0.054207806 9.2147916e-39 308 283
-0.013867113 0.71899998 -0.054207806 8.8463692e-39 309 283
-0.0125714 0.71700001 -0.054057021 8.4775769e-39 310 283
-0.01129848 0.71600002 -0.053981625 8.0169574e-39 311 283
-0.01001504 0.71399999 -0.053830836 7.64997e-39 312 283
-0.0087508867 0.713 -0.053755447 7.4655801e-39 313 283
-0.0074797203 0.71100003 -0.053604662 6.9167195e-39 314 283
-0.0062243328 0.70999998 -0.053529263 6.7326898e-39 315 283
-0.0049654399 0.708 -0.053378478 6.9167195e-39 316 283
-0.0037188199 0.70700002 -0.053303085 7.0089138e-39 317 283
-0.0024792133 0.70700002 -0.053303085 7.1014793e-39 318 283
-0.0012378532 0.70599997 -0.053227689 7.193675e-39 319 283
0 0.70599997 -0.053227689 7.1025639e-39 320 283
0.0012343467 0.704 -0.053076904 7.1025639e-39 321 283
0.0024651866 0.70300001 -0.053001512 7.1944036e-39 322 283
0.0036977797 0.70300001 -0.053001512 7.1944036e-39 323 283
0.0049163462 0.70099998 -0.052850723 7.3780746e-39 324 283
0.0061454331 0.70099998 -0.052850723 7.101129e-39 325 283
0.0073639993 0.69999999 -0.052775331 7.1011262e-39 326 283
0.0085913334 0.69999999 -0.052775331 7.1011262e-39 327 283
0.0098186666 0.69999999 -0.052775331 6.9181671e-39 328 283
0.011045999 0.69999999 -0.052775331 7.0103627e-39 329 283
0.012273333 0.69999999 -0.052775331 7.0103627e-39 330 283
0.013500666 0.69999999 -0.052775331 6.9181671e-39 331 283
0.014727999 0.69999999 -0.052775331 6.8259714e-39 332 283
0.015955333 0.69999999 -0.052775331 6.4571889e-39 333 283
0.017133573 0.69800001 -0.052624546 6.1809594e-39 334 283
0.0183574 0.69800001 -0.052624546 5.8121825e-39 335 283
0.019581227 0.69800001 -0.052624546 5.995136e-39 336 283
0.020805053 0.69800001 -0.052624546 5.995136e-39 337 283
0.02202888 0.69800001 -0.052624546 5.9947773e-39 338 283
0.023252707 0.69800001 -0.052624546 5.902583e-39 339 283
0.024476532 0.69800001 -0.052624546 5.9933423e-39 340 283
0.025700359 0.69800001 -0.052624546 5.8093126e-39 341 283
0.026924185 0.69800001 -0.052624546 5.8082364e-39 342 283
0.028228667 0.69999999 -0.052775331 5.8082364e-39 343 283
0.029455997 0.69999999 -0.052775331 5.6245654e-39 344 283
0.030683333 0.69999999 -0.052775331 5.5323712e-39 345 283
0.031956252 0.70099998 -0.052850723 5.5320124e-39 346 283
0.03318534 0.70099998 -0.052850723 5.5320124e-39 347 283
0.034512613 0.70300001 -0.053001512 5.531295e-39 348 283
0.035745207 0.70300001 -0.053001512 5.531295e-39 349 283
0.036977798 0.70300001 -0.053001512 5.714966e-39 350 283
0.038210396 0.70300001 -0.053001512 5.714966e-39 351 283
0.039499093 0.704 -0.053076904 5.8975608e-39 352 283
0.040733438 0.704 -0.053076904 5.8975608e-39 353 283
0.042087011 0.70599997 -0.053227689 5.6216955e-39 354 283
0.043386232 0.70700002 -0.053303085 5.7138898e-39 355 283
0.044815198 0.70999998 -0.053529263 5.531295e-39 356 283
0.046060063 0.70999998 -0.053529263 5.7153247e-39 357 283
0.047371563 0.71100003 -0.053604662 6.1748623e-39 358 283
0.048618179 0.71100003 -0.053604662 6.2670594e-39 359 283
0.050005067 0.713 -0.053755447 6.5432889e-39 360 283
0.05132708 0.71399999 -0.053830836 6.7276802e-39 361 283
0.052726239 0.71600002 -0.053981625 7.0049901e-39 362 283
0.054057021 0.71700001 -0.054057021 7.5581639e-39 363 283
0.055699892 0.722 -0.054433983 9.4885296e-39 364 283
0.057044696 0.72299999 -0.054509375 1.1516835e-38 365 283
0.058312356 0.72299999 -0.054509375 1.2804702e-38 366 283
-0.017673599 0.72000003 -0.055545598 1.1886342e-38 306 284
-0.0164112 0.72000003 -0.055545598 1.0503407e-38 307 284
-0.01512776 0.71899998 -0.055468451 9.3077103e-39 308 284
-0.013867113 0.71899998 -0.055468451 8.9392865e-39 309 284
-0.0125714 0.71700001 -0.055314157 8.4786587e-39 310 284
-0.01129848 0.71600002 -0.055237014 8.2020718e-39 311 284
-0.01001504 0.71399999 -0.05508272 7.6514133e-39 312 284
-0.0087508867 0.713 -0.055005573 7.5592177e-39 313 284
-0.0074797203 0.71100003 -0.054851279 7.1003905e-39 314 284
-0.0062243328 0.70999998 -0.054774132 7.0081963e-39 315 284
-0.0049654399 0.708 -0.054619838 6.9167209e-39 316 284
-0.0037188199 0.70700002 -0.054542694 7.0089166e-39 317 284
-0.0024757064 0.70599997 -0.054465543 7.1011164e-39 318 284
-0.0012378532 0.70599997 -0.054465543 7.193312e-39 319 284
0 0.70599997 -0.054465543 6.9181699e-39 320 284
0.0012343467 0.704 -0.054311249 7.0103655e-39 321 284
0.0024651866 0.70300001 -0.054234106 6.7348548e-39 322 284
0.0036977797 0.70300001 -0.054234106 6.7348548e-39 323 284
0.0049163462 0.70099998 -0.054079808 7.1011164e-39 324 284
0.0061454331 0.70099998 -0.054079808 7.0085606e-39 325 284
0.0073639993 0.69999999 -0.054002665 7.0085606e-39 326 284
0.0085913334 0.69999999 -0.054002665 7.0085606e-39 327 284
0.0098186666 0.69999999 -0.054002665 6.9181643e-39 328 284
0.011045999 0.69999999 -0.054002665 6.9181643e-39 329 284
0.012273333 0.69999999 -0.054002665 7.1014793e-39 330 284
0.013500666 0.69999999 -0.054002665 6.9174482e-39 331 284
0.014727999 0.69999999 -0.054002665 6.5497433e-39 332 284
0.015955333 0.69999999 -0.054002665 6.2727977e-39 333 284
0.017182667 0.69999999 -0.054002665 6.0880477e-39 334 284
0.0183574 0.69800001 -0.053848371 5.9033005e-39 335 284
0.019581227 0.69800001 -0.053848371 5.8111063e-39 336 284
0.020805053 0.69800001 -0.053848371 5.6270765e-39 337 284
0.02202888 0.69800001 -0.053848371 5.8103888e-39 338 284
0.023252707 0.69800001 -0.053848371 5.7181946e-39 339 284
0.024476532 0.69800001 -0.053848371 5.6256416e-39 340 284
0.025700359 0.69800001 -0.053848371 5.6256416e-39 341 284
0.026924185 0.69800001 -0.053848371 5.5330886e-39 342 284
0.028228667 0.69999999 -0.054002665 5.5330886e-39 343 284
0.029455997 0.69999999 -0.054002665 5.5323712e-39 344 284
0.030683333 0.69999999 -0.054002665 5.4398182e-39 345 284
0.031956252 0.70099998 -0.054079808 5.4398182e-39 346 284
0.03318534 0.70099998 -0.054079808 5.347624e-39 347 284
0.034512613 0.70300001 -0.054234106 5.4391008e-39 348 284
0.035745207 0.70300001 -0.054234106 5.4391008e-39 349 284
0.036977798 0.70300001 -0.054234106 5.6220543e-39 350 284
0.038264744 0.704 -0.054311249 5.7142485e-39 351 284
0.039499093 0.704 -0.054311249 5.7142485e-39 352 284
0.040849157 0.70599997 -0.054465543 5.6220543e-39 353 284
0.042146627 0.70700002 -0.054542694 5.6227717e-39 354 284
0.043447599 0.708 -0.054619838 5.714966e-39 355 284
0.044815198 0.70999998 -0.054774132 5.7156834e-39 356 284
0.046124939 0.71100003 -0.054851279 5.9004306e-39 357 284
0.047371563 0.71100003 -0.054851279 6.1752197e-39 358 284
0.048754938 0.713 -0.055005573 6.3596081e-39 359 284
0.050075196 0.71399999 -0.05508272 6.5432861e-39 360 284
0.051470853 0.71600002 -0.055237014 6.8202317e-39 361 284
0.052799881 0.71700001 -0.055314157 7.188308e-39 362 284
0.054057021 0.71700001 -0.055314157 7.4648949e-39 363 284
0.055699892 0.722 -0.055699892 8.8431644e-39 364 284
0.057044696 0.72299999 -0.055777039 1.105586e-38 365 284
-0.017673599 0.72000003 -0.056808002 1.2162573e-38 306 285
-0.0164112 0.72000003 -0.056808002 1.096403e-38 307 285
-0.01512776 0.71899998 -0.056729097 9.2162405e-39 308 285
-0.013867113 0.71899998 -0.056729097 9.0318492e-39 309 285
-0.0125714 0.71700001 -0.056571297 8.7552427e-39 310 285
-0.01129848 0.71600002 -0.056492399 8.3864602e-39 311 285
-0.01001504 0.71399999 -0.0563346 8.0198259e-39 312 285
-0.0087508867 0.713 -0.056255698 7.9276303e-39 313 285
-0.0074797203 0.71100003 -0.056097899 7.3762558e-39 314 285
-0.0062243328 0.70999998 -0.056018997 7.2840615e-39 315 285
-0.0049654399 0.708 -0.055861197 7.1003905e-39 316 285
-0.0037188199 0.70700002 -0.055782299 7.1003905e-39 317 285
-0.0024757064 0.70599997 -0.055703394 6.9174454e-39 318 285
-0.0012378532 0.70599997 -0.055703394 7.1018353e-39 319 285
0 0.70599997 -0.055703394 6.6433781e-39 320 285
0.0012343467 0.704 -0.055545598 6.6433781e-39 321 285
0.0024651866 0.70300001 -0.0554667 6.8259686e-39 322 285
0.0036977797 0.70300001 -0.0554667 6.7337716e-39 323 285
0.0049163462 0.70099998 -0.055308893 6.9167209e-39 324 285
0.0061454331 0.70099998 -0.055308893 6.9167209e-39 325 285
0.0073745195 0.70099998 -0.055308893 6.7330556e-39 326 285
0.0085913334 0.69999999 -0.055229999 6.7330556e-39 327 285
0.0098186666 0.69999999 -0.055229999 6.7334199e-39 328 285
0.011045999 0.69999999 -0.055229999 6.7334199e-39 329 285
0.012273333 0.69999999 -0.055229999 6.9160147e-39 330 285
0.013500666 0.69999999 -0.055229999 6.7319836e-39 331 285
0.014727999 0.69999999 -0.055229999 6.4557568e-39 332 285
0.015955333 0.69999999 -0.055229999 6.17953e-39 333 285
0.017182667 0.69999999 -0.055229999 6.0876889e-39 334 285
0.018409999 0.69999999 -0.055229999 5.9033005e-39 335 285
0.019581227 0.69800001 -0.0550722 5.9029418e-39 336 285
0.020805053 0.69800001 -0.0550722 5.8103888e-39 337 285
0.02202888 0.69800001 -0.0550722 5.7178358e-39 338 285
0.023252707 0.69800001 -0.0550722 5.6256416e-39 339 285
0.024476532 0.69800001 -0.0550722 5.6256416e-39 340 285
0.025700359 0.69800001 -0.0550722 5.5334474e-39 341 285
0.026924185 0.69800001 -0.0550722 5.3494177e-39 342 285
0.028228667 0.69999999 -0.055229999 5.3494177e-39 343 285
0.029455997 0.69999999 -0.055229999 5.5323712e-39 344 285
0.030683333 0.69999999 -0.055229999 5.4398182e-39 345 285
0.031956252 0.70099998 -0.055308893 5.4391008e-39 346 285
0.03318534 0.70099998 -0.055308893 5.3469065e-39 347 285
0.034512613 0.70300001 -0.0554667 5.2547123e-39 348 285
0.035745207 0.70300001 -0.0554667 5.2547123e-39 349 285
0.036977798 0.70300001 -0.0554667 5.5298601e-39 350 285
0.038264744 0.704 -0.055545598 5.5298601e-39 351 285
0.039499093 0.704 -0.055545598 5.8053665e-39 352 285
0.040849157 0.70599997 -0.055703394 5.8975608e-39 353 285
0.042146627 0.70700002 -0.055782299 5.6227717e-39 354 285
0.043447599 0.708 -0.055861197 5.714966e-39 355 285
0.044815198 0.70999998 -0.056018997 5.7156834e-39 356 285
0.046124939 0.71100003 -0.056097899 5.9004306e-39 357 285
0.047371563 0.71100003 -0.056097899 6.2674139e-39 358 285
0.048754938 0.713 -0.056255698 6.3596081e-39 359 285
0.050075196 0.71399999 -0.0563346 6.8191569e-39 360 285
0.051470853 0.71600002 -0.056492399 7.0957438e-39 361 285
0.052799881 0.71700001 -0.056571297 7.6474939e-39 362 285
0.054207806 0.71899998 -0.056729097 7.8318865e-39 363 285
-0.0164112 0.72000003 -0.058070403 1.1240972e-38 307 286
-0.01512776 0.71899998 -0.057989739 9.2162433e-39 308 286
-0.013828539 0.71700001 -0.057828441 9.1240477e-39 309 286
-0.0125714 0.71700001 -0.057828441 8.4818957e-39 310 286
-0.01129848 0.71600002 -0.057747785 8.2056689e-39 311 286
-0.010043093 0.71600002 -0.057747785 7.9297953e-39 312 286
-0.0087631596 0.71399999 -0.057586476 7.7457627e-39 313 286
-0.0074797203 0.71100003 -0.057344519 7.1940281e-39 314 286
-0.0062243328 0.70999998 -0.057263866 7.1018325e-39 315 286
-0.0049654399 0.708 -0.057102561 6.9178013e-39 316 286
-0.00372408 0.708 -0.057102561 6.9178013e-39 317 286
-0.0024792133 0.70700002 -0.057021905 6.8263218e-39 318 286
-0.0012378532 0.70599997 -0.056941248 6.8263218e-39 319 286
0 0.70599997 -0.056941248 6.7352051e-39 320 286
0.0012343467 0.704 -0.056779943 6.6430095e-39 321 286
0.0024686933 0.704 -0.056779943 6.7337688e-39 322 286
0.0036977797 0.70300001 -0.056699295 6.5497377e-39 323 286
0.0049303733 0.70300001 -0.056699295 6.6401369e-39 324 286
0.0061454331 0.70099998 -0.056537982 6.6401369e-39 325 286
0.0073745195 0.70099998 -0.056537982 6.6401369e-39 326 286
0.0086036054 0.70099998 -0.056537982 6.6401369e-39 327 286
0.0098186666 0.69999999 -0.056457333 6.6397851e-39 328 286
0.011045999 0.69999999 -0.056457333 6.6397851e-39 329 286
0.012273333 0.69999999 -0.056457333 6.7309046e-39 330 286
0.013500666 0.69999999 -0.056457333 6.6387089e-39 331 286
0.014727999 0.69999999 -0.056457333 6.454675e-39 332 286
0.015955333 0.69999999 -0.056457333 6.362478e-39 333 286
0.017182667 0.69999999 -0.056457333 5.9043767e-39 334 286
0.018409999 0.69999999 -0.056457333 5.8121825e-39 335 286
0.019637333 0.69999999 -0.056457333 5.8111063e-39 336 286
0.020805053 0.69800001 -0.056296028 5.6267178e-39 337 286
0.02202888 0.69800001 -0.056296028 5.5345236e-39 338 286
0.023252707 0.69800001 -0.056296028 5.4419706e-39 339 286
0.024546666 0.69999999 -0.056457333 5.3490589e-39 340 286
0.025773998 0.69999999 -0.056457333 5.3490589e-39 341 286
0.027001332 0.69999999 -0.056457333 5.1664641e-39 342 286
0.028228667 0.69999999 -0.056457333 5.1664641e-39 343 286
0.029455997 0.69999999 -0.056457333 5.5323712e-39 344 286
0.030727165 0.70099998 -0.056537982 5.347624e-39 345 286
0.031956252 0.70099998 -0.056537982 5.4394595e-39 346 286
0.033280019 0.70300001 -0.056699295 5.255071e-39 347 286
0.034512613 0.70300001 -0.056699295 5.255071e-39 348 286
0.035796054 0.704 -0.056779943 5.255071e-39 349 286
0.037030395 0.704 -0.056779943 5.622413e-39 350 286
0.038264744 0.704 -0.056779943 5.622413e-39 351 286
0.039611302 0.70599997 -0.056941248 5.6220543e-39 352 286
0.040849157 0.70599997 -0.056941248 5.7142485e-39 353 286
0.042146627 0.70700002 -0.057021905 5.714966e-39 354 286
0.043570329 0.70999998 -0.057263866 5.8071602e-39 355 286
0.044878319 0.71100003 -0.057344519 5.8997132e-39 356 286
0.046124939 0.71100003 -0.057344519 5.9919074e-39 357 286
0.047504812 0.713 -0.057505824 6.4507261e-39 358 286
0.048823316 0.71399999 -0.057586476 6.7273116e-39 359 286
0.050215468 0.71600002 -0.057747785 6.9106295e-39 360 286
0.051470853 0.71600002 -0.057747785 7.3712489e-39 361 286
0.052799881 0.71700001 -0.057828441 7.8304404e-39 362 286
0.054057021 0.71700001 -0.057828441 9.1211792e-39 363 286
-0.015085679 0.71700001 -0.059085581 9.7683423e-39 308 287
-0.013828539 0.71700001 -0.059085581 9.491754e-39 309 287
-0.0125714 0.71700001 -0.059085581 9.0325485e-39 310 287
-0.01129848 0.71600002 -0.059003171 8.7563217e-39 311 287
-0.010043093 0.71600002 -0.059003171 8.2049402e-39 312 287
-0.0087631596 0.71399999 -0.058838356 8.1127432e-39 313 287
-0.0074797203 0.71100003 -0.058591139 7.5613715e-39 314 287
-0.0062243328 0.70999998 -0.058508728 7.4691759e-39 315 287
-0.0049654399 0.708 -0.058343921 7.1933092e-39 316 287
-0.00372408 0.708 -0.058343921 7.1011136e-39 317 287
-0.0024792133 0.70700002 -0.05826151 6.8263218e-39 318 287
-0.0012378532 0.70599997 -0.058179103 6.9185174e-39 319 287
0 0.70599997 -0.058179103 6.8263246e-39 320 287
0.0012378532 0.70599997 -0.058179103 6.8263246e-39 321 287
0.0024686933 0.704 -0.058014292 6.8252484e-39 322 287
0.0036977797 0.70300001 -0.057931885 6.7330527e-39 323 287
0.0049303733 0.70300001 -0.057931885 6.6401369e-39 324 287
0.0061454331 0.70099998 -0.057767071 6.6401369e-39 325 287
0.0073745195 0.70099998 -0.057767071 6.4561099e-39 326 287
0.0086036054 0.70099998 -0.057767071 6.2720788e-39 327 287
0.0098186666 0.69999999 -0.05768466 6.2717285e-39 328 287
0.011045999 0.69999999 -0.05768466 6.2717285e-39 329 287
0.012273333 0.69999999 -0.05768466 6.4543191e-39 330 287
0.013500666 0.69999999 -0.05768466 6.4543191e-39 331 287
0.014727999 0.69999999 -0.05768466 5.904018e-39 332 287
0.015955333 0.69999999 -0.05768466 5.904018e-39 333 287
0.017182667 0.69999999 -0.05768466 6.0876889e-39 334 287
0.018409999 0.69999999 -0.05768466 5.9033005e-39 335 287
0.019637333 0.69999999 -0.05768466 5.902583e-39 336 287
0.020864666 0.69999999 -0.05768466 5.8103888e-39 337 287
0.022091998 0.69999999 -0.05768466 5.8093126e-39 338 287
0.023319334 0.69999999 -0.05768466 5.6249241e-39 339 287
0.024546666 0.69999999 -0.05768466 5.3497764e-39 340 287
0.025773998 0.69999999 -0.05768466 5.3497764e-39 341 287
0.027001332 0.69999999 -0.05768466 5.3497764e-39 342 287
0.028228667 0.69999999 -0.05768466 5.3497764e-39 343 287
0.029498078 0.70099998 -0.057767071 5.440177e-39 344 287
0.030727165 0.70099998 -0.057767071 5.440177e-39 345 287
0.031956252 0.70099998 -0.057767071 5.3472653e-39 346 287
0.033280019 0.70300001 -0.057931885 5.255071e-39 347 287
0.034512613 0.70300001 -0.057931885 5.255071e-39 348 287
0.035796054 0.704 -0.058014292 5.255071e-39 349 287
0.037030395 0.704 -0.058014292 5.5305775e-39 350 287
0.038264744 0.704 -0.058014292 5.6227717e-39 351 287
0.039611302 0.70599997 -0.058179103 5.6227717e-39 352 287
0.040849157 0.70599997 -0.058179103 5.714966e-39 353 287
0.042206239 0.708 -0.058343921 5.7153247e-39 354 287
0.043570329 0.70999998 -0.058508728 5.8075189e-39 355 287
0.044878319 0.71100003 -0.058591139 5.8997132e-39 356 287
0.046124939 0.71100003 -0.058591139 5.9919074e-39 357 287
0.047571439 0.71399999 -0.058838356 6.3592522e-39 358 287
0.048960082 0.71600002 -0.059003171 6.6358377e-39 359 287
0.050215468 0.71600002 -0.059003171 7.0031909e-39 360 287
0.051542737 0.71700001 -0.059085581 7.2801379e-39 361 287
0.052799881 0.71700001 -0.059085581 7.924801e-39 362 287
0.054057021 0.71700001 -0.059085581 9.3999311e-39 363 287
-0.015085679 0.71700001 -0.060342718 1.0412281e-38 308 288
-0.013828539 0.71700001 -0.060342718 9.8591072e-39 309 288
-0.0125714 0.71700001 -0.060342718 8.849609e-39 310 288
-0.01129848 0.71600002 -0.06025856 8.4808265e-39 311 288
-0.010043093 0.71600002 -0.06025856 8.1131173e-39 312 288
-0.0087631596 0.71399999 -0.060090236 8.0209217e-39 313 288
-0.0074797203 0.71100003 -0.059837762 7.378069e-39 314 288
-0.0062330998 0.71100003 -0.059837762 7.2858734e-39 315 288
-0.0049864799 0.71100003 -0.059837762 7.0107186e-39 316 288
-0.0037345996 0.70999998 -0.059753593 6.9181643e-39 317 288
-0.0024792133 0.70700002 -0.059501119 6.9185202e-39 318 288
-0.0012396066 0.70700002 -0.059501119 6.9185202e-39 319 288
0 0.70700002 -0.059501119 6.9185202e-39 320 288
0.0012378532 0.70599997 -0.059416957 6.8263246e-39 321 288
0.0024757064 0.70599997 -0.059416957 6.8256015e-39 322 288
0.0037030398 0.704 -0.059248637 6.7334073e-39 323 288
0.0049373866 0.704 -0.059248637 6.7326898e-39 324 288
0.0061717331 0.704 -0.059248637 6.5479426e-39 325 288
0.0074060797 0.704 -0.059248637 6.3631954e-39 326 288
0.0086036054 0.70099998 -0.058996156 6.3631954e-39 327 288
0.0098326923 0.70099998 -0.058996156 6.4550309e-39 328 288
0.011061779 0.70099998 -0.058996156 6.3628367e-39 329 288
0.012290866 0.70099998 -0.058996156 6.3628367e-39 330 288
0.013519952 0.70099998 -0.058996156 6.3628367e-39 331 288
0.014727999 0.69999999 -0.058911994 6.0876889e-39 332 288
0.015955333 0.69999999 -0.058911994 6.0876889e-39 333 288
0.017182667 0.69999999 -0.058911994 5.9043767e-39 334 288
0.018409999 0.69999999 -0.058911994 5.8118237e-39 335 288
0.019637333 0.69999999 -0.058911994 5.9947773e-39 336 288
0.020864666 0.69999999 -0.058911994 5.8100301e-39 337 288
0.022091998 0.69999999 -0.058911994 5.8093126e-39 338 288
0.023319334 0.69999999 -0.058911994 5.7171184e-39 339 288
0.024546666 0.69999999 -0.058911994 5.5330886e-39 340 288
0.025773998 0.69999999 -0.058911994 5.3490589e-39 341 288
0.027001332 0.69999999 -0.058911994 5.3494177e-39 342 288
0.028228667 0.69999999 -0.058911994 5.3494177e-39 343 288
0.029498078 0.70099998 -0.058996156 5.5323712e-39 344 288
0.030727165 0.70099998 -0.058996156 5.440177e-39 345 288
0.032047424 0.70300001 -0.059164476 5.3479827e-39 346 288
0.033280019 0.70300001 -0.059164476 5.0717588e-39 347 288
0.034561705 0.704 -0.059248637 5.255071e-39 348 288
0.035796054 0.704 -0.059248637 5.255071e-39 349 288
0.037135597 0.70599997 -0.059416957 5.6227717e-39 350 288
0.038373452 0.70599997 -0.059416957 5.6227717e-39 351 288
0.039611302 0.70599997 -0.059416957 5.714966e-39 352 288
0.040849157 0.70599997 -0.059416957 5.8071602e-39 353 288
0.042206239 0.708 -0.059585281 5.8997132e-39 354 288
0.043570329 0.70999998 -0.059753593 5.9919074e-39 355 288
0.044878319 0.71100003 -0.059837762 5.9919074e-39 356 288
0.046124939 0.71100003 -0.059837762 6.1759371e-39 357 288
0.047571439 0.71399999 -0.060090236 6.543642e-39 358 288
0.048960082 0.71600002 -0.06025856 6.8202289e-39 359 288
0.050215468 0.71600002 -0.06025856 7.1875835e-39 360 288
0.051542737 0.71700001 -0.060342718 7.6485603e-39 361 288
0.05294716 0.71899998 -0.060511041 8.6598451e-39 362 288
-0.013828539 0.71700001 -0.061599858 9.951307e-39 309 289
-0.0125714 0.71700001 -0.061599858 9.3080662e-39 310 289
-0.01131426 0.71700001 -0.061599858 9.0314793e-39 311 289
-0.010043093 0.71600002 -0.061513945 8.2056689e-39 312 289
-0.0087631596 0.71399999 -0.061342116 8.0212776e-39 313 289
-0.0075007593 0.713 -0.061256204 7.6539328e-39 314 289
-0.0062330998 0.71100003 -0.061084379 7.5617372e-39 315 289
-0.0049864799 0.71100003 -0.061084379 7.2862237e-39 316 289
-0.0037345996 0.70999998 -0.060998458 7.2862237e-39 317 289
-0.0024792133 0.70700002 -0.060740728 7.0107158e-39 318 289
-0.0012396066 0.70700002 -0.060740728 7.1029115e-39 319 289
0 0.70700002 -0.060740728 7.1940281e-39 320 289
0.0012378532 0.70599997 -0.060654808 7.1018325e-39 321 289
0.0024757064 0.70599997 -0.060654808 7.1014667e-39 322 289
0.0037135598 0.70599997 -0.060654808 6.9167195e-39 323 289
0.0049373866 0.704 -0.060482983 6.7326898e-39 324 289
0.0061717331 0.704 -0.060482983 6.5483014e-39 325 289
0.0074060797 0.704 -0.060482983 6.1806006e-39 326 289
0.0086281532 0.70300001 -0.06039707 5.9043767e-39 327 289
0.0098607466 0.70300001 -0.06039707 6.0876889e-39 328 289
0.011061779 0.70099998 -0.060225245 6.0876889e-39 329 289
0.012290866 0.70099998 -0.060225245 6.0876889e-39 330 289
0.013519952 0.70099998 -0.060225245 6.0876889e-39 331 289
0.014749039 0.70099998 -0.060225245 6.0876889e-39 332 289
0.015955333 0.69999999 -0.060139328 6.0876889e-39 333 289
0.017182667 0.69999999 -0.060139328 6.0876889e-39 334 289
0.018409999 0.69999999 -0.060139328 5.9954947e-39 335 289
0.019637333 0.69999999 -0.060139328 6.0869715e-39 336 289
0.020864666 0.69999999 -0.060139328 5.9022243e-39 337 289
0.022091998 0.69999999 -0.060139328 5.9933423e-39 338 289
0.023319334 0.69999999 -0.060139328 5.7171184e-39 339 289
0.024546666 0.69999999 -0.060139328 5.6249241e-39 340 289
0.025773998 0.69999999 -0.060139328 5.6249241e-39 341 289
0.027001332 0.69999999 -0.060139328 5.5330886e-39 342 289
0.028228667 0.69999999 -0.060139328 5.3490589e-39 343 289
0.029498078 0.70099998 -0.060225245 5.5323712e-39 344 289
0.030727165 0.70099998 -0.060225245 5.440177e-39 345 289
0.032047424 0.70300001 -0.06039707 5.3472653e-39 346 289
0.033280019 0.70300001 -0.06039707 5.3472653e-39 347 289
0.034561705 0.704 -0.060482983 5.0714e-39 348 289
0.035796054 0.704 -0.060482983 5.0714e-39 349 289
0.037135597 0.70599997 -0.060654808 5.6227717e-39 350 289
0.038373452 0.70599997 -0.060654808 5.714966e-39 351 289
0.039611302 0.70599997 -0.060654808 5.8071602e-39 352 289
0.040907022 0.70700002 -0.060740728 5.8997132e-39 353 289
0.042206239 0.708 -0.060826641 5.8997132e-39 354 289
0.043570329 0.70999998 -0.060998458 6.1759371e-39 355 289
0.044878319 0.71100003 -0.061084379 6.3596081e-39 356 289
0.046254687 0.713 -0.061256204 6.3596081e-39 357 289
0.047571439 0.71399999 -0.061342116 6.5432889e-39 358 289
0.048960082 0.71600002 -0.061513945 6.8198758e-39 359 289
0.050215468 0.71600002 -0.061513945 7.279782e-39 360 289
0.051542737 0.71700001 -0.061599858 7.9251514e-39 361 289
0.052799881 0.71700001 -0.061599858 9.6739999e-39 362 289
-0.016570752 0.727 -0.06373366 1.2164023e-38 307 290
-0.015296079 0.727 -0.06373366 1.1057297e-38 308 290
-0.013867113 0.71899998 -0.063032329 1.0135701e-38 309 290
-0.0125714 0.71700001 -0.062856995 9.3999059e-39 310 290
-0.01131426 0.71700001 -0.062856995 9.1236791e-39 311 290
-0.010043093 0.71600002 -0.062769331 8.3897e-39 312 290
-0.0087631596 0.71399999 -0.062593997 8.0212776e-39 313 290
-0.0075112795 0.71399999 -0.062593997 7.7454138e-39 314 290
-0.0062330998 0.71100003 -0.062331002 7.6532168e-39 315 290
-0.0049864799 0.71100003 -0.062331002 7.3773502e-39 316 290
-0.0037345996 0.70999998 -0.062243331 7.3773502e-39 317 290
-0.00248272 0.708 -0.062068 7.2858734e-39 318 290
-0.00124136 0.708 -0.062068 7.378069e-39 319 290
0 0.708 -0.062068 7.1951127e-39 320 290
0.0012396066 0.70700002 -0.061980337 7.0103627e-39 321 290
0.0024792133 0.70700002 -0.061980337 7.1936652e-39 322 290
0.0037135598 0.70599997 -0.061892662 7.0089138e-39 323 290
0.0049514128 0.70599997 -0.061892662 6.7323339e-39 324 290
0.0061892662 0.70599997 -0.061892662 6.5479426e-39 325 290
0.0074060797 0.704 -0.061717331 6.2720788e-39 326 290
0.0086404262 0.704 -0.061717331 6.1798832e-39 327 290
0.0098607466 0.70300001 -0.061629668 6.1798832e-39 328 290
0.01109334 0.70300001 -0.061629668 6.1798832e-39 329 290
0.012325933 0.70300001 -0.061629668 6.0873302e-39 330 290
0.013519952 0.70099998 -0.06145433 6.0873302e-39 331 290
0.014749039 0.70099998 -0.06145433 6.0873302e-39 332 290
0.015978126 0.70099998 -0.06145433 6.0873302e-39 333 290
0.017207211 0.70099998 -0.06145433 6.087333e-39 334 290
0.018436298 0.70099998 -0.06145433 6.087333e-39 335 290
0.019665385 0.70099998 -0.06145433 5.9029418e-39 336 290
0.020894472 0.70099998 -0.06145433 5.8103888e-39 337 290
0.022123558 0.70099998 -0.06145433 5.8100301e-39 338 290
0.023352645 0.70099998 -0.06145433 5.7178358e-39 339 290
0.024581732 0.70099998 -0.06145433 5.6249241e-39 340 290
0.025810819 0.70099998 -0.06145433 5.6249241e-39 341 290
0.027039904 0.70099998 -0.06145433 5.5323712e-39 342 290
0.028268991 0.70099998 -0.06145433 5.5323712e-39 343 290
0.029582238 0.70300001 -0.061629668 5.5323712e-39 344 290
0.030814834 0.70300001 -0.061629668 5.440177e-39 345 290
0.032093015 0.704 -0.061717331 5.347624e-39 346 290
0.03332736 0.704 -0.061717331 5.1635943e-39 347 290
0.034561705 0.704 -0.061717331 5.3461891e-39 348 290
0.035897743 0.70599997 -0.061892662 5.5302188e-39 349 290
0.037135597 0.70599997 -0.061892662 5.6227717e-39 350 290
0.038373452 0.70599997 -0.061892662 5.714966e-39 351 290
0.039667413 0.70700002 -0.061980337 5.9908312e-39 352 290
0.040964879 0.708 -0.062068 6.1752197e-39 353 290
0.042325463 0.70999998 -0.062243331 6.1752197e-39 354 290
0.043631699 0.71100003 -0.062331002 6.3596081e-39 355 290
0.045004558 0.713 -0.062506333 6.3592522e-39 356 290
0.046254687 0.713 -0.062506333 6.543642e-39 357 290
0.047571439 0.71399999 -0.062593997 6.7276802e-39 358 290
0.048960082 0.71600002 -0.062769331 7.0046272e-39 359 290
0.050215468 0.71600002 -0.062769331 7.5556458e-39 360 290
0.051542737 0.71700001 -0.062856995 8.2932108e-39 361 290
-0.016570752 0.727 -0.065008335 1.2164023e-38 307 291
-0.015211919 0.72299999 -0.064650662 1.115237e-38 308 291
-0.013924973 0.722 -0.064561233 1.0046022e-38 309 291
-0.0125714 0.71700001 -0.064114138 9.5843e-39 310 291
-0.01131426 0.71700001 -0.064114138 9.3077131e-39 311 291
-0.010043093 0.71600002 -0.064024724 8.5733752e-39 312 291
-0.0087631596 0.71399999 -0.063845873 8.2967883e-39 313 291
-0.0075112795 0.71399999 -0.063845873 7.6528609e-39 314 291
-0.0062506334 0.713 -0.063756458 7.4684696e-39 315 291
-0.0049864799 0.71100003 -0.063577622 7.376274e-39 316 291
-0.0037345996 0.70999998 -0.063488193 7.4684696e-39 317 291
-0.0024897333 0.70999998 -0.063488193 7.1025639e-39 318 291
-0.0012448666 0.70999998 -0.063488193 7.1947596e-39 319 291
0 0.70999998 -0.063488193 7.1025583e-39 320 291
0.00124136 0.708 -0.063309364 7.0103627e-39 321 291
0.0024792133 0.70700002 -0.063219935 6.9174454e-39 322 291
0.0037188199 0.70700002 -0.063219935 6.8252484e-39 323 291
0.0049514128 0.70599997 -0.063130513 6.7330556e-39 324 291
0.0061892662 0.70599997 -0.063130513 6.5483056e-39 325 291
0.0074271196 0.70599997 -0.063130513 6.4553939e-39 326 291
0.0086404262 0.704 -0.062951677 6.3631982e-39 327 291
0.0098747732 0.704 -0.062951677 6.180602e-39 328 291
0.01109334 0.70300001 -0.062862262 6.180602e-39 329 291
0.012325933 0.70300001 -0.062862262 5.9043767e-39 330 291
0.013558527 0.70300001 -0.062862262 5.8118237e-39 331 291
0.014791119 0.70300001 -0.062862262 6.0873302e-39 332 291
0.015978126 0.70099998 -0.062683418 5.995136e-39 333 291
0.017207211 0.70099998 -0.062683418 5.995136e-39 334 291
0.018436298 0.70099998 -0.062683418 5.9029418e-39 335 291
0.019721493 0.70300001 -0.062862262 5.9944185e-39 336 291
0.020954086 0.70300001 -0.062862262 5.9022243e-39 337 291
0.02218668 0.70300001 -0.062862262 5.8100301e-39 338 291
0.023419274 0.70300001 -0.062862262 5.7178358e-39 339 291
0.024651866 0.70300001 -0.062862262 5.7171184e-39 340 291
0.025884461 0.70300001 -0.062862262 5.6249241e-39 341 291
0.027117053 0.70300001 -0.062862262 5.5323712e-39 342 291
0.028349647 0.70300001 -0.062862262 5.5323712e-39 343 291
0.029582238 0.70300001 -0.062862262 5.5323712e-39 344 291
0.030814834 0.70300001 -0.062862262 5.5323712e-39 345 291
0.032093015 0.704 -0.062951677 5.347624e-39 346 291
0.03332736 0.704 -0.062951677 5.347624e-39 347 291
0.034659892 0.70599997 -0.063130513 5.3469065e-39 348 291
0.035897743 0.70599997 -0.063130513 5.4391008e-39 349 291
0.037188202 0.70700002 -0.063219935 5.9904725e-39 350 291
0.038427804 0.70700002 -0.063219935 5.9904725e-39 351 291
0.039723519 0.708 -0.063309364 6.1741435e-39 352 291
0.040964879 0.708 -0.063309364 6.3581732e-39 353 291
0.042325463 0.70999998 -0.063488193 6.1755798e-39 354 291
0.043631699 0.71100003 -0.063577622 6.359971e-39 355 291
0.045004558 0.713 -0.063756458 6.4525254e-39 356 291
0.046254687 0.713 -0.063756458 6.544721e-39 357 291
0.047571439 0.71399999 -0.063845873 6.6365635e-39 358 291
0.048960082 0.71600002 -0.064024724 7.0053461e-39 359 291
0.050215468 0.71600002 -0.064024724 7.9233521e-39 360 291
0.051470853 0.71600002 -0.064024724 8.8456685e-39 361 291
-0.015190879 0.722 -0.065827139 1.170375e-38 308 292
-0.013924973 0.722 -0.065827139 1.0873988e-38 309 292
-0.0125714 0.71700001 -0.065371275 9.4935533e-39 310 292
-0.01131426 0.71700001 -0.065371275 9.0325751e-39 311 292
-0.01005712 0.71700001 -0.065371275 9.0325541e-39 312 292
-0.0087877065 0.71600002 -0.06528011 8.5715774e-39 313 292
-0.00753232 0.71600002 -0.06528011 8.1120383e-39 314 292
-0.0062593995 0.71399999 -0.065097757 7.8358102e-39 315 292
-0.0050075199 0.71399999 -0.065097757 7.5606652e-39 316 292
-0.0037398601 0.71100003 -0.064824238 7.4684696e-39 317 292
-0.0024932399 0.71100003 -0.064824238 7.1022108e-39 318 292
-0.00124662 0.71100003 -0.064824238 7.0100152e-39 319 292
0 0.70999998 -0.064733058 7.0100096e-39 320 292
0.00124136 0.708 -0.06455072 7.0100096e-39 321 292
0.00248272 0.708 -0.06455072 6.9181643e-39 322 292
0.0037188199 0.70700002 -0.064459547 6.8259686e-39 323 292
0.0049514128 0.70599997 -0.064368367 6.7330527e-39 324 292
0.0061892662 0.70599997 -0.064368367 6.5486615e-39 325 292
0.0074271196 0.70599997 -0.064368367 6.7309018e-39 326 292
0.0086404262 0.704 -0.064186029 6.6387061e-39 327 292
0.0098747732 0.704 -0.064186029 6.4553911e-39 328 292
0.01109334 0.70300001 -0.064094849 6.3631954e-39 329 292
0.012325933 0.70300001 -0.064094849 6.2710012e-39 330 292
0.013558527 0.70300001 -0.064094849 6.0869715e-39 331 292
0.014791119 0.70300001 -0.064094849 5.9029418e-39 332 292
0.015978126 0.70099998 -0.063912503 5.995136e-39 333 292
0.017207211 0.70099998 -0.063912503 5.7192736e-39 334 292
0.018488899 0.70300001 -0.064094849 5.6270779e-39 335 292
0.019721493 0.70300001 -0.064094849 5.8103902e-39 336 292
0.020954086 0.70300001 -0.064094849 5.6263591e-39 337 292
0.02218668 0.70300001 -0.064094849 5.6267178e-39 338 292
0.023419274 0.70300001 -0.064094849 5.6267178e-39 339 292
0.024651866 0.70300001 -0.064094849 5.8093126e-39 340 292
0.025884461 0.70300001 -0.064094849 5.6249241e-39 341 292
0.027117053 0.70300001 -0.064094849 5.6245654e-39 342 292
0.028389972 0.704 -0.064186029 5.5323712e-39 343 292
0.029624319 0.704 -0.064186029 5.256506e-39 344 292
0.030858666 0.704 -0.064186029 5.256506e-39 345 292
0.032093015 0.704 -0.064186029 5.7156834e-39 346 292
0.033422034 0.70599997 -0.064368367 5.5316537e-39 347 292
0.034659892 0.70599997 -0.064368367 5.714966e-39 348 292
0.035948593 0.70700002 -0.064459547 5.714966e-39 349 292
0.037188202 0.70700002 -0.064459547 5.8071602e-39 350 292
0.038482159 0.708 -0.06455072 5.8993544e-39 351 292
0.039723519 0.708 -0.06455072 6.1748623e-39 352 292
0.041080594 0.70999998 -0.064733058 6.2670594e-39 353 292
0.042325463 0.70999998 -0.064733058 6.359255e-39 354 292
0.043631699 0.71100003 -0.064824238 6.359255e-39 355 292
0.045004558 0.713 -0.065006584 6.6354845e-39 356 292
0.046254687 0.713 -0.065006584 6.9120728e-39 357 292
0.047571439 0.71399999 -0.065097757 7.1883052e-39 358 292
0.048960082 0.71600002 -0.06528011 7.2805008e-39 359 292
0.050215468 0.71600002 -0.06528011 8.2003117e-39 360 292
-0.015190879 0.722 -0.067093052 1.1612646e-38 308 293
-0.013924973 0.722 -0.067093052 1.0967276e-38 309 293
-0.012606465 0.71899998 -0.066814266 9.9531049e-39 310 293
-0.01131426 0.71700001 -0.066628419 9.676518e-39 311 293
-0.01005712 0.71700001 -0.066628419 8.7567043e-39 312 293
-0.0087877065 0.71600002 -0.066535495 8.4804761e-39 313 293
-0.00753232 0.71600002 -0.066535495 7.7450607e-39 314 293
-0.0062769335 0.71600002 -0.066535495 7.6528637e-39 315 293
-0.0050075199 0.71399999 -0.066349633 7.377353e-39 316 293
-0.0037503797 0.713 -0.066256717 7.1929617e-39 317 293
-0.0024932399 0.71100003 -0.066070862 7.1929589e-39 318 293
-0.00124662 0.71100003 -0.066070862 7.2851545e-39 319 293
0 0.70999998 -0.065977924 7.1936778e-39 320 293
0.0012448666 0.70999998 -0.065977924 7.1014821e-39 321 293
0.00248272 0.708 -0.065792084 6.9181671e-39 322 293
0.00372408 0.708 -0.065792084 6.8259714e-39 323 293
0.0049584266 0.70700002 -0.065699153 6.8252484e-39 324 293
0.0061980332 0.70700002 -0.065699153 6.6408571e-39 325 293
0.0074271196 0.70599997 -0.065606222 6.5475867e-39 326 293
0.0086649731 0.70599997 -0.065606222 6.5475867e-39 327 293
0.0098747732 0.704 -0.065420374 6.6387061e-39 328 293
0.011109119 0.704 -0.065420374 6.6387061e-39 329 293
0.012343466 0.704 -0.065420374 6.2706453e-39 330 293
0.013577812 0.704 -0.065420374 6.0866141e-39 331 293
0.014791119 0.70300001 -0.065327443 5.9029418e-39 332 293
0.016023712 0.70300001 -0.065327443 5.8103888e-39 333 293
0.017256306 0.70300001 -0.065327443 5.8103902e-39 334 293
0.018488899 0.70300001 -0.065327443 5.8103902e-39 335 293
0.019721493 0.70300001 -0.065327443 5.8096713e-39 336 293
0.020954086 0.70300001 -0.065327443 5.7174771e-39 337 293
0.02218668 0.70300001 -0.065327443 5.6263591e-39 338 293
0.023452586 0.704 -0.065420374 5.5341648e-39 339 293
0.024686933 0.704 -0.065420374 5.6249241e-39 340 293
0.02592128 0.704 -0.065420374 5.5327299e-39 341 293
0.027155625 0.704 -0.065420374 5.5320124e-39 342 293
0.028389972 0.704 -0.065420374 5.4398182e-39 343 293
0.029624319 0.704 -0.065420374 5.4398182e-39 344 293
0.030858666 0.704 -0.065420374 5.4398182e-39 345 293
0.032184184 0.70599997 -0.065606222 5.5316537e-39 346 293
0.033422034 0.70599997 -0.065606222 5.5316537e-39 347 293
0.034708988 0.70700002 -0.065699153 5.7146072e-39 348 293
0.03599944 0.708 -0.065792084 5.8071602e-39 349 293
0.0372408 0.708 -0.065792084 5.8989957e-39 350 293
0.038482159 0.708 -0.065792084 5.9915501e-39 351 293
0.039835732 0.70999998 -0.065977924 6.4503744e-39 352 293
0.041080594 0.70999998 -0.065977924 6.4503744e-39 353 293
0.042385083 0.71100003 -0.066070862 6.3592578e-39 354 293
0.043631699 0.71100003 -0.066070862 6.5432889e-39 355 293
0.045004558 0.713 -0.066256717 6.6354873e-39 356 293
0.046254687 0.713 -0.066256717 6.9120756e-39 357 293
0.047571439 0.71399999 -0.066349633 7.2805036e-39 358 293
0.048960082 0.71600002 -0.066535495 7.6492875e-39 359 293
0.0502856 0.71700001 -0.066628419 8.5680223e-39 360 293
-0.013924973 0.722 -0.068358958 1.1334986e-38 309 294
-0.012606465 0.71899998 -0.068074919 1.0689238e-38 310 294
-0.01131426 0.71700001 -0.067885563 9.7676416e-39 311 294
-0.01005712 0.71700001 -0.067885563 9.3991926e-39 312 294
-0.0087877065 0.71600002 -0.067790881 9.1222456e-39 313 294
-0.00753232 0.71600002 -0.067790881 8.204234e-39 314 294
-0.0062769335 0.71600002 -0.067790881 7.9280058e-39 315 294
-0.0050075199 0.71399999 -0.067601517 7.7443334e-39 316 294
-0.0037503797 0.713 -0.067506835 7.5603023e-39 317 294
-0.0024932399 0.71100003 -0.067317478 7.1011262e-39 318 294
-0.00124662 0.71100003 -0.067317478 7.1011262e-39 319 294
0 0.71100003 -0.067317478 6.8256183e-39 320 294
0.0012448666 0.70999998 -0.067222796 6.8256183e-39 321 294
0.0024897333 0.70999998 -0.067222796 6.7337758e-39 322 294
0.00372408 0.708 -0.067033432 6.7337758e-39 323 294
0.0049654399 0.708 -0.067033432 6.916365e-39 324 294
0.0061980332 0.70700002 -0.066938758 6.7323339e-39 325 294
0.0074271196 0.70599997 -0.066844068 6.8234533e-39 326 294
0.0086649731 0.70599997 -0.066844068 6.7312577e-39 327 294
0.0099028256 0.70599997 -0.066844068 6.4553939e-39 328 294
0.011109119 0.704 -0.066654719 6.3631982e-39 329 294
0.012343466 0.704 -0.066654719 5.904018e-39 330 294
0.013577812 0.704 -0.066654719 5.8118237e-39 331 294
0.014812159 0.704 -0.066654719 5.9029418e-39 332 294
0.016023712 0.70300001 -0.066560037 5.9029418e-39 333 294
0.017256306 0.70300001 -0.066560037 5.9022243e-39 334 294
0.018515198 0.704 -0.066654719 5.8096713e-39 335 294
0.019749546 0.704 -0.066654719 5.8089539e-39 336 294
0.020983893 0.704 -0.066654719 5.9929836e-39 337 294
0.022218239 0.704 -0.066654719 5.7174771e-39 338 294
0.023452586 0.704 -0.066654719 5.6252829e-39 339 294
0.024686933 0.704 -0.066654719 5.7167596e-39 340 294
0.02592128 0.704 -0.066654719 5.5320124e-39 341 294
0.027155625 0.704 -0.066654719 5.531295e-39 342 294
0.028389972 0.704 -0.066654719 5.531295e-39 343 294
0.029708479 0.70599997 -0.066844068 5.5316537e-39 344 294
0.030946331 0.70599997 -0.066844068 5.5316537e-39 345 294
0.032184184 0.70599997 -0.066844068 5.5316537e-39 346 294
0.033469379 0.70700002 -0.066938758 5.5316537e-39 347 294
0.034758076 0.708 -0.067033432 5.7146072e-39 348 294
0.03599944 0.708 -0.067033432 5.8071602e-39 349 294
0.037345998 0.70999998 -0.067222796 5.8989957e-39 350 294
0.038590867 0.70999998 -0.067222796 5.9915501e-39 351 294
0.039835732 0.70999998 -0.067222796 6.2670622e-39 352 294
0.041080594 0.70999998 -0.067222796 6.3592578e-39 353 294
0.042385083 0.71100003 -0.067317478 6.2674223e-39 354 294
0.043631699 0.71100003 -0.067317478 6.4521723e-39 355 294
0.045004558 0.713 -0.067506835 6.6365663e-39 356 294
0.046254687 0.713 -0.067506835 6.9127945e-39 357 294
0.047571439 0.71399999 -0.067601517 7.6482071e-39 358 294
0.049165215 0.71899998 -0.068074919 8.0173498e-39 359 294
-0.01131426 0.71700001 -0.069142699 1.0043518e-38 311 295
-0.01005712 0.71700001 -0.069142699 9.4914009e-39 312 295
-0.0087999795 0.71700001 -0.069142699 9.1229785e-39 313 295
-0.0075428397 0.71700001 -0.069142699 8.2960793e-39 314 295
-0.0062857 0.71700001 -0.069142699 8.111688e-39 315 295
-0.0050215465 0.71600002 -0.069046266 7.5603023e-39 316 295
-0.0037556398 0.71399999 -0.068853401 7.4677479e-39 317 295
-0.0025002533 0.713 -0.068756968 7.1007633e-39 318 295
-0.0012501266 0.713 -0.068756968 7.1007633e-39 319 295
0 0.71100003 -0.068564095 6.8248967e-39 320 295
0.00124662 0.71100003 -0.068564095 6.7326996e-39 321 295
0.0024897333 0.70999998 -0.068467662 6.9163706e-39 322 295
0.0037345996 0.70999998 -0.068467662 6.9163706e-39 323 295
0.0049654399 0.708 -0.068274796 6.7319808e-39 324 295
0.0062067998 0.708 -0.068274796 6.7319808e-39 325 295
0.0074376399 0.70700002 -0.068178371 6.6397851e-39 326 295
0.0086649731 0.70599997 -0.06808193 6.5475895e-39 327 295
0.0099028256 0.70599997 -0.06808193 6.2720816e-39 328 295
0.011140679 0.70599997 -0.06808193 6.179886e-39 329 295
0.012343466 0.704 -0.067889065 5.904018e-39 330 295
0.013577812 0.704 -0.067889065 5.8118237e-39 331 295
0.014812159 0.704 -0.067889065 5.9029418e-39 332 295
0.016046507 0.704 -0.067889065 5.8103888e-39 333 295
0.017280852 0.704 -0.067889065 5.8103888e-39 334 295
0.018515198 0.704 -0.067889065 5.6263591e-39 335 295
0.019749546 0.704 -0.067889065 5.6263591e-39 336 295
0.020983893 0.704 -0.067889065 5.5341648e-39 337 295
0.022218239 0.704 -0.067889065 5.6263619e-39 338 295
0.023519212 0.70599997 -0.06808193 5.6263619e-39 339 295
0.024757065 0.70599997 -0.06808193 5.6249255e-39 340 295
0.025994917 0.70599997 -0.06808193 5.6249255e-39 341 295
0.027232772 0.70599997 -0.06808193 5.5320124e-39 342 295
0.028470624 0.70599997 -0.06808193 5.4398182e-39 343 295
0.029708479 0.70599997 -0.06808193 5.5316537e-39 344 295
0.030946331 0.70599997 -0.06808193 5.7156834e-39 345 295
0.032229774 0.70700002 -0.068178371 5.5320124e-39 346 295
0.033516716 0.708 -0.068274796 5.4398182e-39 347 295
0.034758076 0.708 -0.068274796 5.7146072e-39 348 295
0.036101133 0.70999998 -0.068467662 5.8068015e-39 349 295
0.037345998 0.70999998 -0.068467662 5.9915487e-39 350 295
0.038645219 0.71100003 -0.068564095 5.9915487e-39 351 295
0.039891839 0.71100003 -0.068564095 6.1755826e-39 352 295
0.041138459 0.71100003 -0.068564095 6.2677782e-39 353 295
0.042504307 0.713 -0.068756968 6.3603424e-39 354 295
0.043754432 0.713 -0.068756968 6.452538e-39 355 295
0.045067675 0.71399999 -0.068853401 6.8206017e-39 356 295
0.046319555 0.71399999 -0.068853401 7.0971886e-39 357 295
0.047704693 0.71600002 -0.069046266 8.0159177e-39 358 295
-0.0087999795 0.71700001 -0.070399836 9.0311486e-39 313 296
-0.0075428397 0.71700001 -0.070399836 8.5719431e-39 314 296
-0.0062857 0.71700001 -0.070399836 8.2035207e-39 315 296
-0.0050285598 0.71700001 -0.070399836 7.7439775e-39 316 296
-0.00376616 0.71600002 -0.070301652 7.4677507e-39 317 296
-0.0025037599 0.71399999 -0.070105277 7.1007633e-39 318 296
-0.00125188 0.71399999 -0.070105277 7.1007633e-39 319 296
0 0.713 -0.070007093 6.9163706e-39 320 296
0.00124662 0.71100003 -0.069810718 6.9163706e-39 321 296
0.0024932399 0.71100003 -0.069810718 6.7319836e-39 322 296
0.0037345996 0.70999998 -0.069712527 6.7319836e-39 323 296
0.0049654399 0.708 -0.069516152 6.9152958e-39 324 296
0.0062067998 0.708 -0.069516152 6.8231002e-39 325 296
0.0074376399 0.70700002 -0.069417976 6.8230974e-39 326 296
0.008677247 0.70700002 -0.069417976 6.7309018e-39 327 296
0.0099028256 0.70599997 -0.069319785 6.4553911e-39 328 296
0.011140679 0.70599997 -0.069319785 6.3631954e-39 329 296
0.012378532 0.70599997 -0.069319785 6.0876889e-39 330 296
0.013616386 0.70599997 -0.069319785 5.9954947e-39 331 296
0.014812159 0.704 -0.06912341 5.9029418e-39 332 296
0.016046507 0.704 -0.06912341 5.9029418e-39 333 296
0.017329946 0.70599997 -0.069319785 5.8103888e-39 334 296
0.018567799 0.70599997 -0.069319785 5.8103888e-39 335 296
0.019805651 0.70599997 -0.069319785 5.8096713e-39 336 296
0.021043506 0.70599997 -0.069319785 5.8096713e-39 337 296
0.022281358 0.70599997 -0.069319785 5.6263591e-39 338 296
0.023519212 0.70599997 -0.069319785 5.5341648e-39 339 296
0.024757065 0.70599997 -0.069319785 5.6249241e-39 340 296
0.025994917 0.70599997 -0.069319785 5.5327299e-39 341 296
0.027232772 0.70599997 -0.069319785 5.5327299e-39 342 296
0.028470624 0.70599997 -0.069319785 5.3487002e-39 343 296
0.029708479 0.70599997 -0.069319785 5.5323712e-39 344 296
0.030990168 0.70700002 -0.069417976 5.5323712e-39 345 296
0.032229774 0.70700002 -0.069417976 5.7153247e-39 346 296
0.033516716 0.708 -0.069516152 5.8078777e-39 347 296
0.034856264 0.70999998 -0.069712527 5.8993544e-39 348 296
0.036151983 0.71100003 -0.069810718 5.8993544e-39 349 296
0.037398599 0.71100003 -0.069810718 6.1748609e-39 350 296
0.038645219 0.71100003 -0.069810718 6.2670565e-39 351 296
0.039891839 0.71100003 -0.069810718 6.3592578e-39 352 296
0.041254178 0.713 -0.070007093 6.3592578e-39 353 296
0.042563915 0.71399999 -0.070105277 6.452538e-39 354 296
0.043815799 0.71399999 -0.070105277 6.5447336e-39 355 296
0.045067675 0.71399999 -0.070105277 7.1879521e-39 356 296
0.046319555 0.71399999 -0.070105277 7.4648991e-39 357 296
-0.0088245263 0.71899998 -0.071856856 8.6645339e-39 313 297
-0.0075428397 0.71700001 -0.07165698 8.6641415e-39 314 297
-0.0062857 0.71700001 -0.07165698 8.2953604e-39 315 297
