# .PCD v.7 - Point Cloud Data file format
FIELDS x y z rgb imX imY
SIZE 4 4 4 4 4 4
TYPE F F F F F F
COUNT 1 1 1 1 1 1
WIDTH 857
HEIGHT 1
VIEWPOINT 0 0 0 1 0 0 0
POINTS 857
DATA ascii
0.0013483133 0.76899999 0.039101087 1.1300076e-38 321 211
0.0026966266 0.76899999 0.039101087 1.139085e-38 322 211
0.0040449398 0.76899999 0.039101087 1.15756e-38 323 211
0.0053932532 0.76899999 0.039101087 1.1300822e-38 324 211
0.0067415666 0.76899999 0.039101087 1.1485572e-38 325 211
0.00806884 0.76700002 0.038999394 1.1119676e-38 326 211
0.0094136465 0.76700002 0.038999394 1.1580654e-38 327 211
0.010758453 0.76700002 0.038999394 1.0756304e-38 328 211
0.012134819 0.76899999 0.039101087 1.0664108e-38 329 211
0.013483133 0.76899999 0.039101087 9.4734951e-39 330 211
-0.039101087 0.76899999 0.03775277 1.7883412e-38 291 212
-0.037605491 0.76599997 0.037605491 1.5576004e-38 292 212
-0.036262438 0.76599997 0.037605491 1.271794e-38 293 212
-0.034919381 0.76599997 0.037605491 1.1507537e-38 294 212
-0.033576332 0.76599997 0.037605491 1.0769972e-38 295 212
-0.032233275 0.76599997 0.037605491 9.5721507e-39 296 212
-0.030890226 0.76599997 0.037605491 9.2037283e-39 297 212
-0.029585747 0.76700002 0.037654586 8.8346095e-39 298 212
-0.02824094 0.76700002 0.037654586 8.5580212e-39 299 212
-0.026896132 0.76700002 0.037654586 8.7406174e-39 300 212
-0.025617953 0.76899999 0.03775277 8.832813e-39 301 212
-0.024269639 0.76899999 0.03775277 9.0157441e-39 302 212
-0.02298094 0.77100003 0.037850961 8.9235485e-39 303 212
-0.021629119 0.77100003 0.037850961 9.6567681e-39 304 212
-0.0203299 0.773 0.037949149 9.3805414e-39 305 212
-0.018974574 0.773 0.037949149 9.8382727e-39 306 212
-0.01764204 0.77399999 0.037998237 9.7460771e-39 307 212
-0.016284959 0.77399999 0.037998237 1.0387133e-38 308 212
-0.014927879 0.77399999 0.037998237 1.0479329e-38 309 212
-0.013570799 0.77399999 0.037998237 1.0572598e-38 310 212
-0.01221372 0.77399999 0.037998237 1.0756989e-38 311 212
-0.01085664 0.77399999 0.037998237 1.1125768e-38 312 212
-0.0094995592 0.77399999 0.037998237 1.149491e-38 313 212
-0.0081319595 0.773 0.037949149 1.1680372e-38 314 212
-0.0067766332 0.773 0.037949149 1.2049153e-38 315 212
-0.0054072798 0.77100003 0.037850961 1.2416841e-38 316 212
-0.0040554604 0.77100003 0.037850961 1.2416841e-38 317 212
-0.0027036399 0.77100003 0.037850961 1.2779134e-38 318 212
-0.0013483133 0.76899999 0.03775277 1.1857541e-38 319 212
0 0.76899999 0.03775277 1.1852877e-38 320 212
0.0013483133 0.76899999 0.03775277 1.1668489e-38 321 212
0.0026966266 0.76899999 0.03775277 1.1574149e-38 322 212
0.00403442 0.76700002 0.037654586 1.1758899e-38 323 212
0.0053792265 0.76700002 0.037654586 1.1483404e-38 324 212
0.006724033 0.76700002 0.037654586 1.1759631e-38 325 212
0.00806884 0.76700002 0.037654586 1.1393742e-38 326 212
0.0094136465 0.76700002 0.037654586 1.1670329e-38 327 212
0.010758453 0.76700002 0.037654586 1.1396636e-38 328 212
0.012134819 0.76899999 0.03775277 1.1581027e-38 329 212
0.013483133 0.76899999 0.03775277 1.0664108e-38 330 212
0.014831445 0.76899999 0.03775277 1.0664108e-38 331 212
0.016179759 0.76899999 0.03775277 1.003206e-38 332 212
-0.040291596 0.76599997 0.036262438 1.6132793e-38 290 213
-0.038948543 0.76599997 0.036262438 1.3089979e-38 291 213
-0.037507307 0.764 0.036167759 1.0960124e-38 292 213
-0.036167759 0.764 0.036167759 9.8537767e-39 293 213
-0.034828212 0.764 0.036167759 1.0399395e-38 294 213
-0.033576332 0.76599997 0.036262438 9.2008514e-39 295 213
-0.032233275 0.76599997 0.036262438 8.3718124e-39 296 213
-0.030890226 0.76599997 0.036262438 8.095227e-39 297 213
-0.029547172 0.76599997 0.036262438 8.4611382e-39 298 213
-0.028204117 0.76599997 0.036262438 8.3689412e-39 299 213
-0.026896132 0.76700002 0.036309779 8.5508185e-39 300 213
-0.025551327 0.76700002 0.036309779 8.8270453e-39 301 213
-0.024269639 0.76899999 0.036404461 9.1043426e-39 302 213
-0.022921326 0.76899999 0.036404461 9.1965383e-39 303 213
-0.021629119 0.77100003 0.036499143 9.655343e-39 304 213
-0.020277301 0.77100003 0.036499143 9.5631474e-39 305 213
-0.018974574 0.773 0.036593821 1.0021589e-38 306 213
-0.01764204 0.77399999 0.036641158 9.8371965e-39 307 213
-0.016284959 0.77399999 0.036641158 1.0388202e-38 308 213
-0.014927879 0.77399999 0.036641158 1.0480398e-38 309 213
-0.013570799 0.77399999 0.036641158 1.075734e-38 310 213
-0.01221372 0.77399999 0.036641158 1.1033925e-38 311 213
-0.01085664 0.77399999 0.036641158 1.1036438e-38 312 213
-0.0094995592 0.77399999 0.036641158 1.1221188e-38 313 213
-0.0081319595 0.773 0.036593821 1.1775435e-38 314 213
-0.0067766332 0.773 0.036593821 1.2052022e-38 315 213
-0.0054072798 0.77100003 0.036499143 1.2695223e-38 316 213
-0.0040554604 0.77100003 0.036499143 1.2510832e-38 317 213
-0.0026966266 0.76899999 0.036404461 1.2964975e-38 318 213
-0.0013483133 0.76899999 0.036404461 1.2227408e-38 319 213
0 0.76899999 0.036404461 1.1949749e-38 320 213
0.0013448066 0.76700002 0.036309779 1.1027793e-38 321 213
0.0026896133 0.76700002 0.036309779 1.139371e-38 322 213
0.00403442 0.76700002 0.036309779 1.1116764e-38 323 213
0.0053792265 0.76700002 0.036309779 1.1483754e-38 324 213
0.006724033 0.76700002 0.036309779 1.157595e-38 325 213
0.00806884 0.76700002 0.036309779 1.1761783e-38 326 213
0.0094136465 0.76700002 0.036309779 1.1946175e-38 327 213
0.010758453 0.76700002 0.036309779 1.1580283e-38 328 213
0.01210326 0.76700002 0.036309779 1.1949064e-38 329 213
0.013483133 0.76899999 0.036404461 1.158497e-38 330 213
0.014831445 0.76899999 0.036404461 1.204559e-38 331 213
0.016179759 0.76899999 0.036404461 1.1220879e-38 332 213
0.017528072 0.76899999 0.036404461 1.205064e-38 333 213
0.018876385 0.76899999 0.036404461 1.1146683e-38 334 213
0.0202247 0.76899999 0.036404461 1.5203291e-38 335 213
-0.041634649 0.76599997 0.034919381 1.714587e-38 289 214
-0.040291596 0.76599997 0.034919381 1.3183625e-38 290 214
-0.038846854 0.764 0.034828212 9.8645821e-39 291 214
-0.037507307 0.764 0.034828212 1.0217897e-38 292 214
-0.036167759 0.764 0.034828212 1.0494483e-38 293 214
-0.034737039 0.76200002 0.034737039 9.8451447e-39 294 214
-0.033401001 0.76200002 0.034737039 8.8309927e-39 295 214
-0.032064959 0.76200002 0.034737039 8.3700188e-39 296 214
-0.030809574 0.764 0.034828212 7.9090392e-39 297 214
-0.029470026 0.764 0.034828212 7.5399064e-39 298 214
-0.028130481 0.764 0.034828212 7.2629608e-39 299 214
-0.026861066 0.76599997 0.034919381 7.9976475e-39 300 214
-0.025551327 0.76700002 0.034964975 8.2738757e-39 301 214
-0.024206521 0.76700002 0.034964975 8.8266795e-39 302 214
-0.022861714 0.76700002 0.034964975 9.1032678e-39 303 214
-0.021573013 0.76899999 0.035056144 9.3798351e-39 304 214
-0.0202247 0.76899999 0.035056144 9.3798351e-39 305 214
-0.018925481 0.77100003 0.03514732 9.6546031e-39 306 214
-0.017619247 0.773 0.035238493 9.6546031e-39 307 214
-0.016263919 0.773 0.035238493 9.8386258e-39 308 214
-0.014927879 0.77399999 0.03528408 1.0114854e-38 309 214
-0.013570799 0.77399999 0.03528408 9.841144e-39 310 214
-0.01221372 0.77399999 0.03528408 1.0209926e-38 311 214
-0.01085664 0.77399999 0.03528408 1.0487588e-38 312 214
-0.0094995592 0.77399999 0.03528408 1.0948208e-38 313 214
-0.0081319595 0.773 0.035238493 1.1318419e-38 314 214
-0.0067766332 0.773 0.035238493 1.1687561e-38 315 214
-0.0054072798 0.77100003 0.03514732 1.2238561e-38 316 214
-0.0040449398 0.76899999 0.035056144 1.1869779e-38 317 214
-0.0026966266 0.76899999 0.035056144 1.2049838e-38 318 214
-0.0013483133 0.76899999 0.035056144 1.1496665e-38 319 214
0 0.76700002 0.034964975 1.1858976e-38 320 214
0.0013448066 0.76700002 0.034964975 1.1305811e-38 321 214
0.0026896133 0.76700002 0.034964975 1.139406e-38 322 214
0.00403442 0.76700002 0.034964975 1.1209312e-38 323 214
0.0053792265 0.76700002 0.034964975 1.1483754e-38 324 214
0.006724033 0.76700002 0.034964975 1.1759981e-38 325 214
0.0080583189 0.76599997 0.034919381 1.1669232e-38 326 214
0.0094013726 0.76599997 0.034919381 1.1946177e-38 327 214
0.010744425 0.76599997 0.034919381 1.1855077e-38 328 214
0.01210326 0.76700002 0.034964975 1.22235e-38 329 214
0.013448066 0.76700002 0.034964975 1.1766848e-38 330 214
0.014792874 0.76700002 0.034964975 1.2596248e-38 331 214
0.016179759 0.76899999 0.035056144 1.1956274e-38 332 214
0.017528072 0.76899999 0.035056144 1.1771882e-38 333 214
0.018876385 0.76899999 0.035056144 1.0121732e-38 334 214
0.0202247 0.76899999 0.035056144 1.3071992e-38 335 214
0.021629119 0.77100003 0.03514732 1.4284932e-38 336 214
-0.041634649 0.76599997 0.033576332 1.345912e-38 289 215
-0.040186398 0.764 0.033488665 1.0593144e-38 290 215
-0.038846854 0.764 0.033488665 8.1956973e-39 291 215
-0.037507307 0.764 0.033488665 1.0212485e-38 292 215
-0.036167759 0.764 0.033488665 9.6593115e-39 293 215
-0.034737039 0.76200002 0.033401001 8.5497199e-39 294 215
-0.033401001 0.76200002 0.033401001 7.9043519e-39 295 215
-0.032064959 0.76200002 0.033401001 7.6288426e-39 296 215
-0.030728921 0.76200002 0.033401001 7.6288426e-39 297 215
-0.029470026 0.764 0.033488665 7.7196033e-39 298 215
-0.028130481 0.764 0.033488665 7.4433765e-39 299 215
-0.026790932 0.764 0.033488665 8.3620888e-39 300 215
-0.025518013 0.76599997 0.033576332 8.7305126e-39 301 215
-0.024174958 0.76599997 0.033576332 8.8248621e-39 302 215
-0.022831906 0.76599997 0.033576332 9.2858402e-39 303 215
-0.021516906 0.76700002 0.033620168 9.2872667e-39 304 215
-0.020172099 0.76700002 0.033620168 9.2872667e-39 305 215
-0.018827293 0.76700002 0.033620168 9.4712852e-39 306 215
-0.017528072 0.76899999 0.033707831 9.3790896e-39 307 215
-0.016263919 0.773 0.033883166 9.7464274e-39 308 215
-0.014908593 0.773 0.033883166 9.8389817e-39 309 215
-0.013570799 0.77399999 0.033927001 9.657103e-39 310 215
-0.01221372 0.77399999 0.033927001 9.7492986e-39 311 215
-0.01085664 0.77399999 0.033927001 1.011916e-38 312 215
-0.0094872871 0.773 0.033883166 1.0580137e-38 313 215
-0.0081319595 0.773 0.033883166 1.1227671e-38 314 215
-0.0067590997 0.77100003 0.033795502 1.1780845e-38 315 215
-0.0054072798 0.77100003 0.033795502 1.1872319e-38 316 215
-0.0040449398 0.76899999 0.033707831 1.1134754e-38 317 215
-0.0026966266 0.76899999 0.033707831 1.1498851e-38 318 215
-0.0013483133 0.76899999 0.033707831 1.0760927e-38 319 215
0 0.76700002 0.033620168 1.1491658e-38 320 215
0.0013448066 0.76700002 0.033620168 1.1031038e-38 321 215
0.0026896133 0.76700002 0.033620168 1.1395146e-38 322 215
0.00403442 0.76700002 0.033620168 1.1026364e-38 323 215
0.0053722127 0.76599997 0.033576332 1.1574868e-38 324 215
0.0067152665 0.76599997 0.033576332 1.1574868e-38 325 215
0.0080583189 0.76599997 0.033576332 1.1668866e-38 326 215
0.0094013726 0.76599997 0.033576332 1.2037647e-38 327 215
0.010744425 0.76599997 0.033576332 1.1855781e-38 328 215
0.012087479 0.76599997 0.033576332 1.1855781e-38 329 215
0.013430533 0.76599997 0.033576332 1.1855796e-38 330 215
0.014792874 0.76700002 0.033620168 1.240897e-38 331 215
0.01613768 0.76700002 0.033620168 1.20438e-38 332 215
0.017482487 0.76700002 0.033620168 1.2320387e-38 333 215
0.018827293 0.76700002 0.033620168 1.0296046e-38 334 215
0.020172099 0.76700002 0.033620168 1.1125807e-38 335 215
0.021573013 0.76899999 0.033707831 1.0226159e-38 336 215
0.022921326 0.76899999 0.033707831 1.4928136e-38 337 215
-0.042977702 0.76599997 0.032233275 1.447112e-38 288 216
-0.041525945 0.764 0.032149121 8.6627949e-39 289 216
-0.040186398 0.764 0.032149121 8.558003e-39 290 216
-0.038846854 0.764 0.032149121 8.3736117e-39 291 216
-0.037507307 0.764 0.032149121 9.6560619e-39 292 216
-0.036073081 0.76200002 0.032064959 9.1032468e-39 293 216
-0.034737039 0.76200002 0.032064959 8.2706093e-39 294 216
-0.033401001 0.76200002 0.032064959 7.7174355e-39 295 216
-0.032022879 0.76099998 0.032022879 7.5341274e-39 296 216
-0.030688593 0.76099998 0.032022879 7.6263231e-39 297 216
-0.029392879 0.76200002 0.032064959 7.7185159e-39 298 216
-0.028056841 0.76200002 0.032064959 7.7185159e-39 299 216
-0.0267208 0.76200002 0.032064959 8.2702435e-39 300 216
-0.025451386 0.764 0.032149121 8.7312217e-39 301 216
-0.024111839 0.764 0.032149121 8.9163346e-39 302 216
-0.022772292 0.764 0.032149121 9.2851185e-39 303 216
-0.021488851 0.76599997 0.032233275 9.2861905e-39 304 216
-0.020172099 0.76700002 0.03227536 9.3783862e-39 305 216
-0.018827293 0.76700002 0.03227536 9.3783707e-39 306 216
-0.017528072 0.76899999 0.032359518 9.3783707e-39 307 216
-0.016179759 0.76899999 0.032359518 9.3797959e-39 308 216
-0.014908593 0.773 0.032527838 9.3797959e-39 309 216
-0.013570799 0.77399999 0.032569919 9.0142531e-39 310 216
-0.01221372 0.77399999 0.032569919 9.0142531e-39 311 216
-0.01085664 0.77399999 0.032569919 8.7398355e-39 312 216
-0.0094872871 0.773 0.032527838 9.6617904e-39 313 216
-0.0081109209 0.77100003 0.032443684 1.0216056e-38 314 216
-0.0067590997 0.77100003 0.032443684 1.076923e-38 315 216
-0.0053932532 0.76899999 0.032359518 1.0585552e-38 316 216
-0.0040449398 0.76899999 0.032359518 9.7554321e-39 317 216
-0.0026966266 0.76899999 0.032359518 1.0209926e-38 318 216
-0.0013448066 0.76700002 0.03227536 9.6567527e-39 319 216
0 0.76700002 0.03227536 1.0848456e-38 320 216
0.0013430532 0.76599997 0.032233275 1.0848456e-38 321 216
0.0026861064 0.76599997 0.032233275 1.1396941e-38 322 216
0.00403442 0.76700002 0.03227536 1.0936323e-38 323 216
0.0053722127 0.76599997 0.032233275 1.1482673e-38 324 216
0.0067152665 0.76599997 0.032233275 1.1298641e-38 325 216
0.0080583189 0.76599997 0.032233275 1.1483398e-38 326 216
0.0093768267 0.764 0.032149121 1.2128768e-38 327 216
0.010716373 0.764 0.032149121 1.1946896e-38 328 216
0.012087479 0.76599997 0.032233275 1.1670311e-38 329 216
0.013430533 0.76599997 0.032233275 1.1946194e-38 330 216
0.014773586 0.76599997 0.032233275 1.2222781e-38 331 216
0.01613768 0.76700002 0.03227536 1.2042355e-38 332 216
0.017482487 0.76700002 0.03227536 1.2226747e-38 333 216
0.018827293 0.76700002 0.03227536 1.1490256e-38 334 216
0.020172099 0.76700002 0.03227536 1.0199518e-38 335 216
0.021573013 0.76899999 0.032359518 7.7264402e-39 336 216
0.022921326 0.76899999 0.032359518 1.3442929e-38 337 216
0.024269639 0.76899999 0.032359518 1.539271e-38 338 216
-0.042977702 0.76599997 0.030890226 1.0320518e-38 288 217
-0.041525945 0.764 0.030809574 3.7746286e-39 289 217
-0.040186398 0.764 0.030809574 6.9863599e-39 290 217
-0.038846854 0.764 0.030809574 8.0927088e-39 291 217
-0.037409119 0.76200002 0.030728921 9.100007e-39 292 217
-0.036025736 0.76099998 0.030688593 8.8230614e-39 293 217
-0.034691449 0.76099998 0.030688593 8.2684429e-39 294 217
-0.033357166 0.76099998 0.030688593 8.1762458e-39 295 217
-0.032022879 0.76099998 0.030688593 7.6252273e-39 296 217
-0.030688593 0.76099998 0.030688593 8.0858467e-39 297 217
-0.029354304 0.76099998 0.030688593 8.270947e-39 298 217
-0.028020019 0.76099998 0.030688593 8.3631426e-39 299 217
-0.026685731 0.76099998 0.030688593 8.7312063e-39 300 217
-0.025351444 0.76099998 0.030688593 8.8234019e-39 301 217
-0.02404872 0.76200002 0.030728921 9.0081617e-39 302 217
-0.022772292 0.764 0.030809574 9.3765855e-39 303 217
-0.021488851 0.76599997 0.030890226 9.2858248e-39 304 217
-0.020145798 0.76599997 0.030890226 9.2858248e-39 305 217
-0.018827293 0.76700002 0.030930554 9.1943326e-39 306 217
-0.017482487 0.76700002 0.030930554 9.2865282e-39 307 217
-0.016179759 0.76899999 0.031011207 9.0128056e-39 308 217
-0.014908593 0.773 0.03117251 9.0128056e-39 309 217
-0.013570799 0.77399999 0.031212838 8.5543456e-39 310 217
-0.01221372 0.77399999 0.031212838 8.5543456e-39 311 217
-0.01085664 0.77399999 0.031212838 8.2799349e-39 312 217
-0.0094872871 0.773 0.03117251 9.0175e-39 313 217
-0.0081109209 0.77100003 0.031091858 8.6526901e-39 314 217
-0.0067590997 0.77100003 0.031091858 9.0218328e-39 315 217
-0.0053932532 0.76899999 0.031011207 8.7445256e-39 316 217
-0.0040449398 0.76899999 0.031011207 8.1913518e-39 317 217
-0.0026896133 0.76700002 0.030930554 8.9209981e-39 318 217
-0.0013448066 0.76700002 0.030930554 8.9209981e-39 319 217
0 0.76599997 0.030890226 1.0482913e-38 320 217
0.0013430532 0.76599997 0.030890226 1.0667663e-38 321 217
0.0026861064 0.76599997 0.030890226 1.1307264e-38 322 217
0.0040291594 0.76599997 0.030890226 1.0754449e-38 323 217
0.0053722127 0.76599997 0.030890226 1.1574149e-38 324 217
0.006697733 0.764 0.030809574 1.1297561e-38 325 217
0.0080372803 0.764 0.030809574 1.1483401e-38 326 217
0.0093768267 0.764 0.030809574 1.1944379e-38 327 217
0.010716373 0.764 0.030809574 1.1761427e-38 328 217
0.012087479 0.76599997 0.030890226 1.1853982e-38 329 217
0.013430533 0.76599997 0.030890226 1.1854347e-38 330 217
0.014773586 0.76599997 0.030890226 1.2223131e-38 331 217
0.016116638 0.76599997 0.030890226 1.1950143e-38 332 217
0.017482487 0.76700002 0.030930554 1.2134176e-38 333 217
0.018827293 0.76700002 0.030930554 1.1766468e-38 334 217
0.020172099 0.76700002 0.030930554 1.0383533e-38 335 217
0.021573013 0.76899999 0.031011207 6.9795117e-39 336 217
0.022921326 0.76899999 0.031011207 1.1588217e-38 337 217
0.02442744 0.77399999 0.031212838 1.3087461e-38 338 217
-0.044320758 0.76599997 0.029547172 7.2849009e-39 287 218
-0.042977702 0.76599997 0.029547172 5.5205919e-39 288 218
-0.041525945 0.764 0.029470026 3.5844836e-39 289 218
-0.040081199 0.76200002 0.029392879 8.1809444e-39 290 218
-0.038745161 0.76200002 0.029392879 8.8263138e-39 291 218
-0.037360024 0.76099998 0.029354304 8.9174122e-39 292 218
-0.036025736 0.76099998 0.029354304 8.0876501e-39 293 218
-0.034691449 0.76099998 0.029354304 8.176599e-39 294 218
-0.033269498 0.759 0.029277159 7.9003722e-39 295 218
-0.031938717 0.759 0.029277159 7.9932839e-39 296 218
-0.030607941 0.759 0.029277159 8.454262e-39 297 218
-0.029354304 0.76099998 0.029354304 8.6408029e-39 298 218
-0.028020019 0.76099998 0.029354304 8.7329985e-39 299 218
-0.026685731 0.76099998 0.029354304 9.0996287e-39 300 218
-0.025351444 0.76099998 0.029354304 9.0996287e-39 301 218
-0.024017159 0.76099998 0.029354304 9.1003545e-39 302 218
-0.02271268 0.76200002 0.029392879 9.3769414e-39 303 218
-0.021432746 0.764 0.029470026 9.2861779e-39 304 218
-0.020093199 0.764 0.029470026 9.2861779e-39 305 218
-0.018753653 0.764 0.029470026 9.0110175e-39 306 218
-0.017459691 0.76599997 0.029547172 9.1950487e-39 307 218
-0.01613768 0.76700002 0.029585747 8.6461755e-39 308 218
-0.01487002 0.77100003 0.029740039 8.5539798e-39 309 218
-0.013570799 0.77399999 0.029855758 8.0958786e-39 310 218
-0.01221372 0.77399999 0.029855758 8.0958786e-39 311 218
-0.01085664 0.77399999 0.029855758 7.912932e-39 312 218
-0.0094872871 0.773 0.029817186 8.2813544e-39 313 218
-0.0081109209 0.77100003 0.029740039 7.6388787e-39 314 218
-0.0067590997 0.77100003 0.029740039 7.9154656e-39 315 218
-0.0053932532 0.76899999 0.02966289 8.1888323e-39 316 218
-0.0040449398 0.76899999 0.02966289 7.8196896e-39 317 218
-0.0026896133 0.76700002 0.029585747 8.462178e-39 318 218
-0.0013448066 0.76700002 0.029585747 9.199743e-39 319 218
0 0.76599997 0.029547172 1.0026977e-38 320 218
0.0013430532 0.76599997 0.029547172 1.0211368e-38 321 218
0.0026861064 0.76599997 0.029547172 1.1217241e-38 322 218
0.0040291594 0.76599997 0.029547172 1.0756263e-38 323 218
0.0053581866 0.764 0.029470026 1.1393004e-38 324 218
0.006697733 0.764 0.029470026 1.1116058e-38 325 218
0.0080372803 0.764 0.029470026 1.1481606e-38 326 218
0.0093768267 0.764 0.029470026 1.1758193e-38 327 218
0.010716373 0.764 0.029470026 1.1576319e-38 328 218
0.01205592 0.764 0.029470026 1.1760711e-38 329 218
0.013395466 0.764 0.029470026 1.1854347e-38 330 218
0.014735013 0.764 0.029470026 1.2130936e-38 331 218
0.016116638 0.76599997 0.029547172 1.1949058e-38 332 218
0.017459691 0.76599997 0.029547172 1.1949058e-38 333 218
0.018827293 0.76700002 0.029585747 1.1857219e-38 334 218
0.020172099 0.76700002 0.029585747 1.1304045e-38 335 218
0.021573013 0.76899999 0.02966289 8.8180265e-39 336 218
0.022921326 0.76899999 0.02966289 9.4633959e-39 337 218
0.02442744 0.77399999 0.029855758 9.950647e-39 338 218
0.025784519 0.77399999 0.029855758 1.5666417e-38 339 218
-0.045663811 0.76599997 0.028204117 1.3464547e-38 286 219
-0.044320758 0.76599997 0.028204117 1.2021683e-39 287 219
-0.042865492 0.764 0.028130481 3.3061129e-39 288 219
-0.041417241 0.76200002 0.028056841 6.4378945e-39 289 219
-0.040081199 0.76200002 0.028056841 8.4607711e-39 290 219
-0.038694311 0.76099998 0.028020019 8.1838255e-39 291 219
-0.037360024 0.76099998 0.028020019 8.9152444e-39 292 219
-0.035931058 0.759 0.027946379 8.269875e-39 293 219
-0.034600276 0.759 0.027946379 8.1755116e-39 294 219
-0.033269498 0.759 0.027946379 8.1755116e-39 295 219
-0.031938717 0.759 0.027946379 8.0854809e-39 296 219
-0.030607941 0.759 0.027946379 8.7308503e-39 297 219
-0.029277159 0.759 0.027946379 9.0996259e-39 298 219
-0.027946379 0.759 0.027946379 9.3765715e-39 299 219
-0.026615599 0.759 0.027946379 9.5588117e-39 300 219
-0.025284819 0.759 0.027946379 9.3744205e-39 301 219
-0.023954039 0.759 0.027946379 9.1003601e-39 302 219
-0.022682872 0.76099998 0.028020019 9.3765883e-39 303 219
-0.02137664 0.76200002 0.028056841 9.285822e-39 304 219
-0.0200406 0.76200002 0.028056841 9.285822e-39 305 219
-0.018753653 0.764 0.028130481 9.1954018e-39 306 219
-0.017414106 0.764 0.028130481 9.2875974e-39 307 219
-0.01613768 0.76700002 0.02824094 8.5550504e-39 308 219
-0.01487002 0.77100003 0.028388219 8.4628562e-39 309 219
-0.013570799 0.77399999 0.028498679 7.7296072e-39 310 219
-0.01221372 0.77399999 0.028498679 7.5455774e-39 311 219
-0.01085664 0.77399999 0.028498679 7.3619233e-39 312 219
-0.0094995592 0.77399999 0.028498679 7.2697276e-39 313 219
-0.0081319595 0.773 0.028461859 7.1768412e-39 314 219
-0.0067590997 0.77100003 0.028388219 7.1768412e-39 315 219
-0.0053932532 0.76899999 0.028314579 6.9928227e-39 316 219
-0.0040449398 0.76899999 0.028314579 7.085377e-39 317 219
-0.0026896133 0.76700002 0.02824094 7.7310939e-39 318 219
-0.0013448066 0.76700002 0.02824094 8.3764634e-39 319 219
0 0.76599997 0.028204117 9.8440306e-39 320 219
0.0013395466 0.764 0.028130481 9.8440306e-39 321 219
0.0026790933 0.764 0.028130481 1.1128286e-38 322 219
0.0040081199 0.76200002 0.028056841 1.0575112e-38 323 219
0.0053441599 0.76200002 0.028056841 1.1488789e-38 324 219
0.0066714329 0.76099998 0.028020019 1.084342e-38 325 219
0.0080057196 0.76099998 0.028020019 1.1207903e-38 326 219
0.0093400059 0.76099998 0.028020019 1.1115708e-38 327 219
0.01068832 0.76200002 0.028056841 1.1208628e-38 328 219
0.01202436 0.76200002 0.028056841 1.1485216e-38 329 219
0.0133604 0.76200002 0.028056841 1.1671035e-38 330 219
0.014735013 0.764 0.028130481 1.1855428e-38 331 219
0.016074561 0.764 0.028130481 1.1672834e-38 332 219
0.017459691 0.76599997 0.028204117 1.1856866e-38 333 219
0.018802745 0.76599997 0.028204117 1.1580639e-38 334 219
0.020172099 0.76700002 0.02824094 1.1303692e-38 335 219
0.021516906 0.76700002 0.02824094 9.7392597e-39 336 219
0.022921326 0.76899999 0.028314579 8.6329122e-39 337 219
0.02442744 0.77399999 0.028498679 6.9027934e-39 338 219
0.025851147 0.77600002 0.028572321 1.4739422e-38 339 219
-0.047006864 0.76599997 0.026861066 1.4012306e-38 285 220
-0.045663811 0.76599997 0.026861066 9.0377123e-39 286 220
-0.04420504 0.764 0.026790932 5.6051939e-45 287 220
-0.042753279 0.76200002 0.0267208 4.6897676e-39 288 220
-0.041362885 0.76099998 0.026685731 7.5481923e-39 289 220
-0.040028598 0.76099998 0.026685731 9.1057846e-39 290 220
-0.038694311 0.76099998 0.026685731 8.2760239e-39 291 220
-0.03726184 0.759 0.026615599 8.9156129e-39 292 220
-0.035931058 0.759 0.026615599 8.0858523e-39 293 220
-0.034600276 0.759 0.026615599 7.9922147e-39 294 220
-0.033269498 0.759 0.026615599 7.8078234e-39 295 220
-0.031938717 0.759 0.026615599 8.451388e-39 296 220
-0.030607941 0.759 0.026615599 8.8205306e-39 297 220
-0.029277159 0.759 0.026615599 9.3772945e-39 298 220
-0.027946379 0.759 0.026615599 9.3772945e-39 299 220
-0.026615599 0.759 0.026615599 9.559532e-39 300 220
-0.025284819 0.759 0.026615599 9.3754995e-39 301 220
-0.023954039 0.759 0.026615599 9.1907551e-39 302 220
-0.022682872 0.76099998 0.026685731 9.5595376e-39 303 220
-0.02137664 0.76200002 0.0267208 9.3769386e-39 304 220
-0.0200406 0.76200002 0.0267208 9.5613299e-39 305 220
-0.01870456 0.76200002 0.0267208 9.1046509e-39 306 220
-0.017414106 0.764 0.026790932 9.1968465e-39 307 220
-0.01613768 0.76700002 0.026896132 8.4643009e-39 308 220
-0.01487002 0.77100003 0.027036399 8.3721053e-39 309 220
-0.013553266 0.773 0.027106533 7.5462949e-39 310 220
-0.01221372 0.77399999 0.027141599 7.3619065e-39 311 220
-0.01085664 0.77399999 0.027141599 7.2675598e-39 312 220
-0.0094995592 0.77399999 0.027141599 7.1753656e-39 313 220
-0.0081319595 0.773 0.027106533 6.807323e-39 314 220
-0.0067766332 0.773 0.027106533 6.807323e-39 315 220
-0.0054072798 0.77100003 0.027036399 6.7162189e-39 316 220
-0.0040449398 0.76899999 0.026966266 7.2693927e-39 317 220
-0.0026966266 0.76899999 0.026966266 8.006955e-39 318 220
-0.0013448066 0.76700002 0.026896132 8.283902e-39 319 220
0 0.76599997 0.026861066 9.9333592e-39 320 220
0.0013395466 0.764 0.026790932 9.9333592e-39 321 220
0.00267208 0.76200002 0.0267208 1.0942116e-38 322 220
0.0040081199 0.76200002 0.0267208 1.1034312e-38 323 220
0.0053441599 0.76200002 0.0267208 1.0939951e-38 324 220
0.0066714329 0.76099998 0.026685731 1.0571529e-38 325 220
0.0080057196 0.76099998 0.026685731 1.1026382e-38 326 220
0.0093400059 0.76099998 0.026685731 1.1026382e-38 327 220
0.010674292 0.76099998 0.026685731 1.1301527e-38 328 220
0.012008579 0.76099998 0.026685731 1.1485919e-38 329 220
0.013342866 0.76099998 0.026685731 1.1854345e-38 330 220
0.01469644 0.76200002 0.0267208 1.194654e-38 331 220
0.01603248 0.76200002 0.0267208 1.1763948e-38 332 220
0.017414106 0.764 0.026790932 1.1856144e-38 333 220
0.018753653 0.764 0.026790932 1.1580636e-38 334 220
0.020145798 0.76599997 0.026861066 1.1396243e-38 335 220
0.021516906 0.76700002 0.026896132 1.0384626e-38 336 220
0.022861714 0.76700002 0.026896132 8.9094949e-39 337 220
0.024395877 0.773 0.027106533 6.0654798e-39 338 220
0.025784519 0.77399999 0.027141599 1.3994304e-38 339 220
0.027141599 0.77399999 0.027141599 1.566857e-38 340 220
-0.048349917 0.76599997 0.025518013 1.6964739e-38 284 221
-0.047006864 0.76599997 0.025518013 1.0695434e-38 285 221
-0.045544583 0.764 0.025451386 5.8069178e-39 286 221
-0.04420504 0.764 0.025451386 2.5223372e-44 287 221
-0.042697169 0.76099998 0.025351444 5.5166612e-39 288 221
-0.041362885 0.76099998 0.025351444 8.0981389e-39 289 221
-0.0399234 0.759 0.025284819 8.8284914e-39 290 221
-0.038592618 0.759 0.025284819 7.9987307e-39 291 221
-0.03726184 0.759 0.025284819 8.5468318e-39 292 221
-0.035931058 0.759 0.025284819 8.1780479e-39 293 221
-0.034600276 0.759 0.025284819 8.2680729e-39 294 221
-0.033181835 0.75700003 0.025218192 8.1758773e-39 295 221
-0.031854562 0.75700003 0.025218192 8.1762458e-39 296 221
-0.030527288 0.75700003 0.025218192 8.5453885e-39 297 221
-0.029200014 0.75700003 0.025218192 8.8237676e-39 298 221
-0.027872739 0.75700003 0.025218192 9.1929103e-39 299 221
-0.026545467 0.75700003 0.025218192 9.3769414e-39 300 221
-0.025218192 0.75700003 0.025218192 8.8237676e-39 301 221
-0.023954039 0.759 0.025284819 9.2815214e-39 302 221
-0.02262326 0.759 0.025284819 9.373717e-39 303 221
-0.021348584 0.76099998 0.025351444 9.0085274e-39 304 221
-0.020014299 0.76099998 0.025351444 9.1929201e-39 305 221
-0.01870456 0.76200002 0.02538476 9.1035789e-39 306 221
-0.01736852 0.76200002 0.02538476 9.2879702e-39 307 221
-0.016074561 0.764 0.025451386 8.7394459e-39 308 221
-0.014831445 0.76899999 0.025617953 8.5546959e-39 309 221
-0.013553266 0.773 0.025751207 7.6363381e-39 310 221
-0.01221372 0.77399999 0.025784519 7.1753656e-39 311 221
-0.01085664 0.77399999 0.025784519 6.7144043e-39 312 221
-0.0094995592 0.77399999 0.025784519 6.5296543e-39 313 221
-0.0081319595 0.773 0.025751207 5.8871842e-39 314 221
-0.0067766332 0.773 0.025751207 5.8871842e-39 315 221
-0.0054072798 0.77100003 0.02568458 6.1634165e-39 316 221
-0.0040449398 0.76899999 0.025617953 6.8084272e-39 317 221
-0.0026966266 0.76899999 0.025617953 7.7278696e-39 318 221
-0.0013448066 0.76700002 0.025551327 7.9122594e-39 319 221
0 0.76599997 0.025518013 9.5631502e-39 320 221
0.00133604 0.76200002 0.02538476 9.839737e-39 321 221
0.00267208 0.76200002 0.02538476 1.0391466e-38 322 221
0.0040081199 0.76200002 0.02538476 1.0391466e-38 323 221
0.0053371461 0.76099998 0.025351444 1.0939235e-38 324 221
0.0066714329 0.76099998 0.025351444 1.0662288e-38 325 221
0.0080057196 0.76099998 0.025351444 1.0844516e-38 326 221
0.0093400059 0.76099998 0.025351444 1.0660124e-38 327 221
0.010674292 0.76099998 0.025351444 1.1028181e-38 328 221
0.012008579 0.76099998 0.025351444 1.1120377e-38 329 221
0.013342866 0.76099998 0.025351444 1.1763228e-38 330 221
0.014677152 0.76099998 0.025351444 1.1763228e-38 331 221
0.016011439 0.76099998 0.025351444 1.1672832e-38 332 221
0.01736852 0.76200002 0.02538476 1.1580636e-38 333 221
0.018753653 0.764 0.025451386 1.1304771e-38 334 221
0.020093199 0.764 0.025451386 1.1028184e-38 335 221
0.021488851 0.76599997 0.025518013 1.0659769e-38 336 221
0.022831906 0.76599997 0.025518013 9.461584e-39 337 221
0.024206521 0.76700002 0.025551327 6.7039982e-39 338 221
0.025617953 0.76899999 0.025617953 1.4353007e-38 339 221
0.026966266 0.76899999 0.025617953 1.4746612e-38 340 221
-0.049757849 0.76700002 0.024206521 1.7331702e-38 283 222
-0.048349917 0.76599997 0.024174958 1.5674721e-38 284 222
-0.047006864 0.76599997 0.024174958 6.823941e-39 285 222
-0.045544583 0.764 0.024111839 3.8636069e-39 286 222
-0.044089317 0.76200002 0.02404872 2.7568992e-39 287 222
-0.042697169 0.76099998 0.024017159 5.6988777e-39 288 222
-0.041362885 0.76099998 0.024017159 6.8974209e-39 289 222
-0.0399234 0.759 0.023954039 7.9050932e-39 290 222
-0.038592618 0.759 0.023954039 7.7207019e-39 291 222
-0.03726184 0.759 0.023954039 8.362086e-39 292 222
-0.03583638 0.75700003 0.02389092 8.2698904e-39 293 222
-0.034509107 0.75700003 0.02389092 8.0858467e-39 294 222
-0.033181835 0.75700003 0.02389092 7.8096185e-39 295 222
-0.031770397 0.755 0.023827799 8.175527e-39 296 222
-0.030406307 0.75400001 0.02379624 8.2677226e-39 297 222
-0.029084291 0.75400001 0.02379624 8.9141682e-39 298 222
-0.027799098 0.755 0.023827799 9.3751464e-39 299 222
-0.026475333 0.755 0.023827799 9.2865408e-39 300 222
-0.025151566 0.755 0.023827799 8.7333671e-39 301 222
-0.02389092 0.75700003 0.02389092 9.005289e-39 302 222
-0.02262326 0.759 0.023954039 9.0978434e-39 303 222
-0.021348584 0.76099998 0.024017159 9.098928e-39 304 222
-0.020014299 0.76099998 0.024017159 9.3755163e-39 305 222
-0.018680012 0.76099998 0.024017159 9.3783735e-39 306 222
-0.017345725 0.76099998 0.024017159 9.5624047e-39 307 222
-0.01603248 0.76200002 0.02404872 8.8298563e-39 308 222
-0.014735013 0.764 0.024111839 8.6458252e-39 309 222
-0.013518199 0.77100003 0.02433276 7.6352634e-39 310 222
-0.01221372 0.77399999 0.02442744 7.2664836e-39 311 222
-0.01085664 0.77399999 0.02442744 6.5292913e-39 312 222
-0.0094995592 0.77399999 0.02442744 6.3449001e-39 313 222
-0.0081319595 0.773 0.024395877 5.9768546e-39 314 222
-0.0067766332 0.773 0.024395877 5.9768546e-39 315 222
-0.0054213065 0.773 0.024395877 6.7108282e-39 316 222
-0.0040659797 0.773 0.024395877 7.4483932e-39 317 222
-0.0026475333 0.755 0.023827799 8.5493514e-39 318 222
-0.0013272733 0.75700003 0.02389092 9.0103295e-39 319 222
0 0.75700003 0.02389092 9.5609852e-39 320 222
0.0013237667 0.755 0.023827799 1.0021605e-38 321 222
0.0026475333 0.755 0.023827799 1.0389667e-38 322 222
0.0039712996 0.755 0.023827799 1.0113081e-38 323 222
0.0052950666 0.755 0.023827799 1.0569023e-38 324 222
0.0066188332 0.755 0.023827799 1.0476828e-38 325 222
0.0079636406 0.75700003 0.02389092 1.0752323e-38 326 222
0.00931546 0.759 0.023954039 1.0844518e-38 327 222
0.01064624 0.759 0.023954039 1.1396241e-38 328 222
0.01197702 0.759 0.023954039 1.1488436e-38 329 222
0.013342866 0.76099998 0.024017159 1.1673185e-38 330 222
0.014677152 0.76099998 0.024017159 1.1857216e-38 331 222
0.016011439 0.76099998 0.024017159 1.167355e-38 332 222
0.017345725 0.76099998 0.024017159 1.167355e-38 333 222
0.01870456 0.76200002 0.02404872 1.1306213e-38 334 222
0.0200406 0.76200002 0.02404872 1.0753039e-38 335 222
0.021432746 0.764 0.024111839 1.0016919e-38 336 222
0.022772292 0.764 0.024111839 9.3715492e-39 337 222
0.024174958 0.76599997 0.024174958 7.4397738e-39 338 222
0.025551327 0.76700002 0.024206521 1.2602729e-38 339 222
0.026896132 0.76700002 0.024206521 1.391433e-38 340 222
-0.049757849 0.76700002 0.022861714 1.6686336e-38 283 223
-0.048349917 0.76599997 0.022831906 1.3740414e-38 284 223
-0.047006864 0.76599997 0.022831906 4.4282965e-39 285 223
-0.045544583 0.764 0.022772292 3.3071863e-39 286 223
-0.044089317 0.76200002 0.02271268 4.229144e-39 287 223
-0.042697169 0.76099998 0.022682872 6.1573223e-39 288 223
-0.041362885 0.76099998 0.022682872 6.8026917e-39 289 223
-0.0399234 0.759 0.02262326 7.3526257e-39 290 223
-0.038592618 0.759 0.02262326 7.5366568e-39 291 223
-0.03726184 0.759 0.02262326 8.0876501e-39 292 223
-0.03583638 0.75700003 0.022563647 8.0876501e-39 293 223
-0.034417931 0.755 0.022504034 8.0872788e-39 294 223
-0.033094164 0.755 0.022504034 7.9950832e-39 295 223
-0.03172832 0.75400001 0.022474226 8.1783982e-39 296 223
-0.030406307 0.75400001 0.022474226 8.1783982e-39 297 223
-0.029084291 0.75400001 0.022474226 8.2702309e-39 298 223
-0.027799098 0.755 0.022504034 9.2840227e-39 299 223
-0.026475333 0.755 0.022504034 9.2886918e-39 300 223
-0.025151566 0.755 0.022504034 8.5511268e-39 301 223
-0.023827799 0.755 0.022504034 8.7312189e-39 302 223
-0.022504034 0.755 0.022504034 8.7312189e-39 303 223
-0.021236373 0.75700003 0.022563647 8.8234173e-39 304 223
-0.0199617 0.759 0.02262326 9.1000042e-39 305 223
-0.018680012 0.76099998 0.022682872 9.285822e-39 306 223
-0.017345725 0.76099998 0.022682872 9.5620487e-39 307 223
-0.016011439 0.76099998 0.022682872 9.1968437e-39 308 223
-0.01469644 0.76200002 0.02271268 9.1046481e-39 309 223
-0.013395466 0.764 0.022772292 7.9114943e-39 310 223
-0.01205592 0.764 0.022772292 7.2661249e-39 311 223
-0.01085664 0.77399999 0.02307036 6.1612319e-39 312 223
-0.0094995592 0.77399999 0.02307036 5.9768406e-39 313 223
-0.0081319595 0.773 0.023040552 6.5264327e-39 314 223
-0.0067766332 0.773 0.023040552 6.8033797e-39 315 223
-0.0054213065 0.773 0.023040552 8.182717e-39 316 223
-0.0039712996 0.755 0.022504034 8.7358908e-39 317 223
-0.0026475333 0.755 0.022504034 9.1939949e-39 318 223
-0.0013237667 0.755 0.022504034 9.0099638e-39 319 223
0 0.755 0.022504034 9.1929257e-39 320 223
0.0013220133 0.75400001 0.022474226 9.1003713e-39 321 223
0.0026440267 0.75400001 0.022474226 1.0016218e-38 322 223
0.00396604 0.75400001 0.022474226 9.8318267e-39 323 223
0.0052950666 0.755 0.022504034 1.0381758e-38 324 223
0.0066188332 0.755 0.022504034 1.0566149e-38 325 223
0.0079425992 0.755 0.022504034 1.0476812e-38 326 223
0.0092909131 0.75700003 0.022563647 1.0753039e-38 327 223
0.010618187 0.75700003 0.022563647 1.1212928e-38 328 223
0.01194546 0.75700003 0.022563647 1.1489156e-38 329 223
0.0133078 0.759 0.02262326 1.1857216e-38 330 223
0.014638579 0.759 0.02262326 1.1949412e-38 331 223
0.016011439 0.76099998 0.022682872 1.1490235e-38 332 223
0.017345725 0.76099998 0.022682872 1.1490235e-38 333 223
0.01870456 0.76200002 0.02271268 1.1030702e-38 334 223
0.0200406 0.76200002 0.02271268 1.0477528e-38 335 223
0.021432746 0.764 0.022772292 9.6492151e-39 336 223
0.022772292 0.764 0.022772292 9.4644651e-39 337 223
0.024174958 0.76599997 0.022831906 7.5337715e-39 338 223
0.025551327 0.76700002 0.022861714 1.0945369e-38 339 223
0.026896132 0.76700002 0.022861714 1.243956e-38 340 223
-0.049757849 0.76700002 0.021516906 1.5948415e-38 283 224
-0.048413042 0.76700002 0.021516906 1.1528439e-38 284 224
-0.047006864 0.76599997 0.021488851 2.7698542e-39 285 224
-0.045544583 0.764 0.021432746 3.3068332e-39 286 224
-0.044089317 0.76200002 0.02137664 4.874519e-39 287 224
-0.042697169 0.76099998 0.021348584 6.3417149e-39 288 224
-0.041362885 0.76099998 0.021348584 6.3417149e-39 289 224
-0.0399234 0.759 0.02129248 7.2607832e-39 290 224
-0.038592618 0.759 0.02129248 7.5370099e-39 291 224
-0.037163652 0.75700003 0.021236373 7.6291901e-39 292 224
-0.03583638 0.75700003 0.021236373 7.6291901e-39 293 224
-0.034417931 0.755 0.021180267 8.1801933e-39 294 224
-0.033094164 0.755 0.021180267 8.1801933e-39 295 224
-0.03172832 0.75400001 0.021152213 8.4564102e-39 296 224
-0.030406307 0.75400001 0.021152213 8.272019e-39 297 224
-0.029084291 0.75400001 0.021152213 8.545736e-39 298 224
-0.027762281 0.75400001 0.021152213 9.1911054e-39 299 224
-0.026440267 0.75400001 0.021152213 9.2861723e-39 300 224
-0.025118252 0.75400001 0.021152213 9.2861723e-39 301 224
-0.023827799 0.755 0.021180267 9.1914585e-39 302 224
-0.022504034 0.755 0.021180267 9.0070673e-39 303 224
-0.021180267 0.755 0.021180267 8.8230516e-39 304 224
-0.0198565 0.755 0.021180267 9.191474e-39 305 224
-0.018581826 0.75700003 0.021236373 9.4684182e-39 306 224
-0.017254554 0.75700003 0.021236373 9.7446449e-39 307 224
-0.015969358 0.759 0.02129248 9.6545877e-39 308 224
-0.014677152 0.76099998 0.021348584 9.6545877e-39 309 224
-0.0133604 0.76200002 0.02137664 8.7365732e-39 310 224
-0.01202436 0.76200002 0.02137664 8.3677921e-39 311 224
-0.010716373 0.764 0.021432746 6.8955543e-39 312 224
-0.0094872871 0.773 0.021685226 6.9877486e-39 313 224
-0.0081319595 0.773 0.021685226 7.7206627e-39 314 224
-0.0066188332 0.755 0.021180267 8.5504234e-39 315 224
-0.0052950666 0.755 0.021180267 9.65425e-39 316 224
-0.00396604 0.75400001 0.021152213 9.746447e-39 317 224
-0.0026440267 0.75400001 0.021152213 9.4691398e-39 318 224
-0.0013220133 0.75400001 0.021152213 8.9159661e-39 319 224
0 0.75400001 0.021152213 9.097856e-39 320 224
0.0013220133 0.75400001 0.021152213 8.5446822e-39 321 224
0.0026440267 0.75400001 0.021152213 9.5527231e-39 322 224
0.00396604 0.75400001 0.021152213 9.7367542e-39 323 224
0.0052880533 0.75400001 0.021152213 1.0289194e-38 324 224
0.0066100666 0.75400001 0.021152213 1.0657975e-38 325 224
0.0079425992 0.755 0.021180267 1.0843434e-38 326 224
0.0092663663 0.755 0.021180267 1.112038e-38 327 224
0.010590133 0.755 0.021180267 1.1213644e-38 328 224
0.01194546 0.75700003 0.021236373 1.1398396e-38 329 224
0.013272733 0.75700003 0.021236373 1.1949767e-38 330 224
0.014600007 0.75700003 0.021236373 1.1949767e-38 331 224
0.015969358 0.759 0.02129248 1.1581352e-38 332 224
0.017345725 0.76099998 0.021348584 1.1489156e-38 333 224
0.01870456 0.76200002 0.02137664 1.0845235e-38 334 224
0.0200406 0.76200002 0.02137664 1.0384258e-38 335 224
0.021432746 0.764 0.021432746 9.6485061e-39 336 224
0.022772292 0.764 0.021432746 9.5563104e-39 337 224
0.024174958 0.76599997 0.021488851 7.7192502e-39 338 224
0.025518013 0.76599997 0.021488851 9.8401098e-39 339 224
0.026896132 0.76700002 0.021516906 1.1332137e-38 340 224
-0.049757849 0.76700002 0.020172099 1.4934623e-38 283 225
-0.048413042 0.76700002 0.020172099 8.764368e-39 284 225
-0.047006864 0.76599997 0.020145798 1.296522e-39 285 225
-0.045544583 0.764 0.020093199 4.1329981e-39 286 225
-0.044031456 0.76099998 0.020014299 5.5159325e-39 287 225
-0.042697169 0.76099998 0.020014299 6.5232307e-39 288 225
-0.041254178 0.759 0.0199617 6.6154264e-39 289 225
-0.0399234 0.759 0.0199617 7.0763891e-39 290 225
-0.038592618 0.759 0.0199617 7.352976e-39 291 225
-0.037163652 0.75700003 0.019909101 7.5366414e-39 292 225
-0.03583638 0.75700003 0.019909101 7.628837e-39 293 225
-0.034417931 0.755 0.0198565 8.4557082e-39 294 225
-0.033050332 0.75400001 0.019830201 8.6400994e-39 295 225
-0.03172832 0.75400001 0.019830201 8.7330013e-39 296 225
-0.030406307 0.75400001 0.019830201 8.7330013e-39 297 225
-0.029084291 0.75400001 0.019830201 8.9145157e-39 298 225
-0.027762281 0.75400001 0.019830201 9.098907e-39 299 225
-0.026440267 0.75400001 0.019830201 9.8375468e-39 300 225
-0.025118252 0.75400001 0.019830201 1.0021938e-38 301 225
-0.02379624 0.75400001 0.019830201 1.0662994e-38 302 225
-0.022474226 0.75400001 0.019830201 9.6488438e-39 303 225
-0.021180267 0.755 0.0198565 8.8237676e-39 304 225
-0.0198565 0.755 0.0198565 8.9159633e-39 305 225
-0.018532733 0.755 0.0198565 9.6510144e-39 306 225
-0.017208965 0.755 0.0198565 1.0019437e-38 307 225
-0.015927281 0.75700003 0.019909101 1.0021225e-38 308 225
-0.014638579 0.759 0.0199617 1.0021225e-38 309 225
-0.013342866 0.76099998 0.020014299 9.4716356e-39 310 225
-0.01194546 0.75700003 0.019909101 9.1950487e-39 311 225
-0.010618187 0.75700003 0.019909101 9.0106672e-39 312 225
-0.0092909131 0.75700003 0.019909101 9.1946983e-39 313 225
-0.0079425992 0.755 0.0198565 9.7446505e-39 314 225
-0.0066100666 0.75400001 0.019830201 1.0113434e-38 315 225
-0.0052880533 0.75400001 0.019830201 9.7457295e-39 316 225
-0.00396604 0.75400001 0.019830201 9.1925572e-39 317 225
-0.0026440267 0.75400001 0.019830201 9.5559447e-39 318 225
-0.0013220133 0.75400001 0.019830201 9.2793564e-39 319 225
0 0.75400001 0.019830201 9.0931715e-39 320 225
0.0013185065 0.75199997 0.0197776 9.4615939e-39 321 225
0.0026370131 0.75199997 0.0197776 9.3711863e-39 322 225
0.0039555198 0.75199997 0.0197776 9.9240013e-39 323 225
0.0052880533 0.75400001 0.019830201 1.038461e-38 324 225
0.0066100666 0.75400001 0.019830201 1.0661196e-38 325 225
0.00793208 0.75400001 0.019830201 1.1030335e-38 326 225
0.0092540924 0.75400001 0.019830201 1.1122532e-38 327 225
0.010590133 0.755 0.0198565 1.1400191e-38 328 225
0.011913899 0.755 0.0198565 1.1584222e-38 329 225
0.013272733 0.75700003 0.019909101 1.1766815e-38 330 225
0.014600007 0.75700003 0.019909101 1.1582784e-38 331 225
0.015969358 0.759 0.0199617 1.167355e-38 332 225
0.017345725 0.76099998 0.020014299 1.1212572e-38 333 225
0.018680012 0.76099998 0.020014299 1.0753042e-38 334 225
0.0200406 0.76200002 0.0200406 1.0292064e-38 335 225
0.02137664 0.76200002 0.0200406 9.3733541e-39 336 225
0.02271268 0.76200002 0.0200406 9.3733541e-39 337 225
0.024111839 0.764 0.020093199 7.3526257e-39 338 225
0.025518013 0.76599997 0.020145798 8.2742232e-39 339 225
0.026896132 0.76700002 0.020172099 1.0226156e-38 340 225
-0.051235907 0.76899999 0.018876385 1.7516463e-38 282 226
-0.049757849 0.76700002 0.018827293 1.3828997e-38 283 226
-0.048413042 0.76700002 0.018827293 7.6511807e-39 284 226
-0.047006864 0.76599997 0.018802745 2.1198016e-39 285 226
-0.045544583 0.764 0.018753653 4.9616658e-39 286 226
-0.044031456 0.76099998 0.018680012 5.6070352e-39 287 226
-0.042697169 0.76099998 0.018680012 6.3406345e-39 288 226
-0.041254178 0.759 0.01863092 6.3406345e-39 289 226
-0.0399234 0.759 0.01863092 6.9849193e-39 290 226
-0.038490929 0.75700003 0.018581826 7.1689505e-39 291 226
-0.037163652 0.75700003 0.018581826 7.5362882e-39 292 226
-0.035741698 0.755 0.018532733 7.5362882e-39 293 226
-0.034417931 0.755 0.018532733 8.5468318e-39 294 226
-0.033050332 0.75400001 0.018508185 8.9156129e-39 295 226
-0.03172832 0.75400001 0.018508185 9.284373e-39 296 226
-0.030325651 0.75199997 0.018459093 9.4691244e-39 297 226
-0.029007144 0.75199997 0.018459093 1.0295635e-38 298 226
-0.027688639 0.75199997 0.018459093 1.0480027e-38 299 226
-0.02637013 0.75199997 0.018459093 1.0666566e-38 300 226
-0.025051624 0.75199997 0.018459093 1.0943153e-38 301 226
-0.023733119 0.75199997 0.018459093 1.1309064e-38 302 226
-0.022414612 0.75199997 0.018459093 1.0295273e-38 303 226
-0.021180267 0.755 0.018532733 9.8328777e-39 304 226
-0.0198565 0.755 0.018532733 9.5566509e-39 305 226
-0.018532733 0.755 0.018532733 1.0384261e-38 306 226
-0.017208965 0.755 0.018532733 1.0753042e-38 307 226
-0.015885198 0.755 0.018532733 1.1029979e-38 308 226
-0.014600007 0.75700003 0.018581826 1.1029979e-38 309 226
-0.013272733 0.75700003 0.018581826 1.0938853e-38 310 226
-0.01194546 0.75700003 0.018581826 1.0754821e-38 311 226
-0.010618187 0.75700003 0.018581826 1.0387837e-38 312 226
-0.0092663663 0.755 0.018532733 1.0387837e-38 313 226
-0.0079425992 0.755 0.018532733 1.0387128e-38 314 226
-0.0066100666 0.75400001 0.018508185 1.0387128e-38 315 226
-0.0052880533 0.75400001 0.018508185 9.924723e-39 316 226
-0.00396604 0.75400001 0.018508185 9.3715492e-39 317 226
-0.0026370131 0.75199997 0.018459093 9.0935372e-39 318 226
-0.0013185065 0.75199997 0.018459093 8.7251134e-39 319 226
0 0.75199997 0.018459093 9.0931715e-39 320 226
0.0013185065 0.75199997 0.018459093 9.6463438e-39 321 226
0.0026370131 0.75199997 0.018459093 9.7424771e-39 322 226
0.0039555198 0.75199997 0.018459093 9.9272285e-39 323 226
0.0052740262 0.75199997 0.018459093 1.0295285e-38 324 226
0.0066100666 0.75400001 0.018508185 1.0571872e-38 325 226
0.00793208 0.75400001 0.018508185 1.0757693e-38 326 226
0.0092540924 0.75400001 0.018508185 1.1218671e-38 327 226
0.010576107 0.75400001 0.018508185 1.1587081e-38 328 226
0.011913899 0.755 0.018532733 1.1587081e-38 329 226
0.013237666 0.755 0.018532733 1.1952636e-38 330 226
0.014561433 0.755 0.018532733 1.1676408e-38 331 226
0.015927281 0.75700003 0.018581826 1.1580989e-38 332 226
0.017300138 0.759 0.01863092 1.1396238e-38 333 226
0.018680012 0.76099998 0.018680012 1.0660124e-38 334 226
0.020014299 0.76099998 0.018680012 1.0383177e-38 335 226
0.02137664 0.76200002 0.01870456 9.373001e-39 336 226
0.02271268 0.76200002 0.01870456 9.4651966e-39 337 226
0.024111839 0.764 0.018753653 7.3551466e-39 338 226
0.025518013 0.76599997 0.018802745 7.6313733e-39 339 226
0.026861066 0.76599997 0.018802745 9.8555759e-39 340 226
-0.051235907 0.76899999 0.017528072 1.7239879e-38 282 227
-0.049757849 0.76700002 0.017482487 1.2353511e-38 283 227
-0.048413042 0.76700002 0.017482487 6.6330687e-39 284 227
-0.047006864 0.76599997 0.017459691 3.314026e-39 285 227
-0.045425359 0.76200002 0.01736852 5.7910635e-39 286 227
-0.044031456 0.76099998 0.017345725 5.7910635e-39 287 227
-0.042697169 0.76099998 0.017345725 6.3395499e-39 288 227
-0.041254178 0.759 0.017300138 6.6157767e-39 289 227
-0.0399234 0.759 0.017300138 6.9841935e-39 290 227
-0.038490929 0.75700003 0.017254554 7.2607803e-39 291 227
-0.037065465 0.755 0.017208965 7.6288398e-39 292 227
-0.035741698 0.755 0.017208965 7.6288398e-39 293 227
-0.034372345 0.75400001 0.017186172 8.5468318e-39 294 227
-0.033050332 0.75400001 0.017186172 8.8234173e-39 295 227
-0.031644158 0.75199997 0.017140586 9.6513605e-39 296 227
-0.030325651 0.75199997 0.017140586 1.0665512e-38 297 227
-0.029007144 0.75199997 0.017140586 1.1132233e-38 298 227
-0.027688639 0.75199997 0.017140586 1.1408819e-38 299 227
-0.02637013 0.75199997 0.017140586 1.1313736e-38 300 227
-0.025051624 0.75199997 0.017140586 1.1221182e-38 301 227
-0.023733119 0.75199997 0.017140586 1.1493457e-38 302 227
-0.022414612 0.75199997 0.017140586 1.1309064e-38 303 227
-0.021152213 0.75400001 0.017186172 1.1399112e-38 304 227
-0.019830201 0.75400001 0.017186172 1.0938134e-38 305 227
-0.018508185 0.75400001 0.017186172 1.1305124e-38 306 227
-0.017186172 0.75400001 0.017186172 1.1489156e-38 307 227
-0.015885198 0.755 0.017208965 1.1398043e-38 308 227
-0.014561433 0.755 0.017208965 1.1490238e-38 309 227
-0.013237666 0.755 0.017208965 1.1122176e-38 310 227
-0.011913899 0.755 0.017208965 1.0937783e-38 311 227
-0.010590133 0.755 0.017208965 1.0845235e-38 312 227
-0.0092663663 0.755 0.017208965 1.0753039e-38 313 227
-0.0079425992 0.755 0.017208965 1.0660487e-38 314 227
-0.0066100666 0.75400001 0.017186172 1.0292064e-38 315 227
-0.0052880533 0.75400001 0.017186172 1.001368e-38 316 227
-0.00396604 0.75400001 0.017186172 9.1839182e-39 317 227
-0.0026370131 0.75199997 0.017140586 8.9998912e-39 318 227
-0.0013185065 0.75199997 0.017140586 8.9080543e-39 319 227
0 0.75 0.017095 8.9087732e-39 320 227
0.001315 0.75 0.017095 1.0199512e-38 321 227
0.00263 0.75 0.017095 1.0019424e-38 322 227
0.0039555198 0.75199997 0.017140586 1.011162e-38 323 227
0.0052740262 0.75199997 0.017140586 1.0570796e-38 324 227
0.0065925326 0.75199997 0.017140586 1.0662991e-38 325 227
0.00793208 0.75400001 0.017186172 1.0942806e-38 326 227
0.0092540924 0.75400001 0.017186172 1.1403784e-38 327 227
0.010576107 0.75400001 0.017186172 1.1773993e-38 328 227
0.011913899 0.755 0.017208965 1.1497046e-38 329 227
0.013237666 0.755 0.017208965 1.1771121e-38 330 227
