# .PCD v.7 - Point Cloud Data file format
FIELDS x y z rgb imX imY
SIZE 4 4 4 4 4 4
TYPE F F F F F F
COUNT 1 1 1 1 1 1
WIDTH 845
HEIGHT 1
VIEWPOINT 0 0 0 1 0 0 0
POINTS 845
DATA ascii
0.024085538 0.72299999 -0.012676599 8.4528369e-39 339 250
0.025353199 0.72299999 -0.012676599 8.8208782e-39 340 250
0.026620859 0.72299999 -0.012676599 8.8208782e-39 341 250
0.02788852 0.72299999 -0.012676599 9.0041834e-39 342 250
0.029156178 0.72299999 -0.012676599 9.0041834e-39 343 250
0.030381758 0.722 -0.012659066 8.3624111e-39 344 250
0.031647664 0.722 -0.012659066 8.1776639e-39 345 250
0.032913569 0.722 -0.012659066 7.4436974e-39 346 250
0.034179479 0.722 -0.012659066 7.259309e-39 347 250
0.035445385 0.722 -0.012659066 6.8905321e-39 348 250
0.03671129 0.722 -0.012659066 6.4295609e-39 349 250
0.037871998 0.72000003 -0.012624 6.0611427e-39 350 250
0.039134402 0.72000003 -0.012624 5.8774718e-39 351 250
0.040396802 0.72000003 -0.012624 5.9693073e-39 352 250
0.041601337 0.71899998 -0.012606465 6.0611427e-39 353 250
0.042861983 0.71899998 -0.012606465 5.6019653e-39 354 250
0.044183999 0.72000003 -0.012624 5.9693073e-39 355 250
0.045446403 0.72000003 -0.012624 5.9703919e-39 356 250
0.0467088 0.72000003 -0.012624 6.43137e-39 357 250
0.0479712 0.72000003 -0.012624 5.9732785e-39 358 250
0.0492336 0.72000003 -0.012624 6.0654742e-39 359 250
0.050496001 0.72000003 -0.012624 5.2389603e-39 360 250
0.051758397 0.72000003 -0.012624 5.1467647e-39 361 250
0.053168077 0.722 -0.012659066 4.6893794e-39 362 250
0.054283202 0.72000003 -0.012624 5.7035314e-39 363 250
0.055545598 0.72000003 -0.012624 6.8167159e-39 364 250
0.056808002 0.72000003 -0.012624 1.0135759e-38 365 250
0.057828441 0.71700001 -0.0125714 1.2532475e-38 366 250
0.0075112795 0.71399999 -0.01377068 1.0127079e-38 326 251
0.0087508867 0.713 -0.013751393 8.5601133e-39 327 251
0.010001013 0.713 -0.013751393 7.9136663e-39 328 251
0.011251139 0.713 -0.013751393 7.0839071e-39 329 251
0.012501267 0.713 -0.013751393 6.989566e-39 330 251
0.013751393 0.713 -0.013751393 7.1739573e-39 331 251
0.015001519 0.713 -0.013751393 6.9009802e-39 332 251
0.016274439 0.71399999 -0.01377068 7.4541525e-39 333 251
0.017526319 0.71399999 -0.01377068 8.2792483e-39 334 251
0.019120099 0.727 -0.014021406 8.1870512e-39 335 251
0.020338668 0.72500002 -0.013982833 8.2749253e-39 336 251
0.021609833 0.72500002 -0.013982833 7.9065029e-39 337 251
0.02281788 0.72299999 -0.01394426 8.5461017e-39 338 251
0.024085538 0.72299999 -0.01394426 8.5461017e-39 339 251
0.025318133 0.722 -0.013924973 9.0978168e-39 340 251
0.026584039 0.722 -0.013924973 9.0978168e-39 341 251
0.027849946 0.722 -0.013924973 9.2807661e-39 342 251
0.029115854 0.722 -0.013924973 9.3729603e-39 343 251
0.030381758 0.722 -0.013924973 8.8223061e-39 344 251
0.031647664 0.722 -0.013924973 8.6379176e-39 345 251
0.032913569 0.722 -0.013924973 8.1790989e-39 346 251
0.034084801 0.72000003 -0.0138864 7.9943517e-39 347 251
0.035347197 0.72000003 -0.0138864 7.9021575e-39 348 251
0.036609601 0.72000003 -0.0138864 7.8096045e-39 349 251
0.037871998 0.72000003 -0.0138864 7.8989289e-39 350 251
0.039080046 0.71899998 -0.013867113 7.7141817e-39 351 251
0.040340692 0.71899998 -0.013867113 6.8876622e-39 352 251
0.041601337 0.71899998 -0.013867113 6.7958267e-39 353 251
0.042861983 0.71899998 -0.013867113 6.2448137e-39 354 251
0.044122629 0.71899998 -0.013867113 6.3366492e-39 355 251
0.045383278 0.71899998 -0.013867113 6.2473277e-39 356 251
0.046643924 0.71899998 -0.013867113 6.8926971e-39 357 251
0.04790457 0.71899998 -0.013867113 6.2509276e-39 358 251
0.049165215 0.71899998 -0.013867113 5.973982e-39 359 251
0.050425861 0.71899998 -0.013867113 5.5144556e-39 360 251
0.05168651 0.71899998 -0.013867113 5.5144556e-39 361 251
0.05294716 0.71899998 -0.013867113 5.6070169e-39 362 251
0.054207806 0.71899998 -0.013867113 5.6070169e-39 363 251
0.055314157 0.71700001 -0.013828539 5.1517995e-39 364 251
0.056571297 0.71700001 -0.013828539 6.4425384e-39 365 251
0.057828441 0.71700001 -0.013828539 8.2968836e-39 366 251
0.059085581 0.71700001 -0.013828539 1.1615928e-38 367 251
0.0037503797 0.713 -0.015001519 1.2531365e-38 323 252
0.0050005065 0.713 -0.015001519 1.1236659e-38 324 252
0.0062593995 0.71399999 -0.015022559 9.0236054e-39 325 252
0.0075112795 0.71399999 -0.015022559 7.7264094e-39 326 252
0.0087508867 0.713 -0.015001519 6.8966473e-39 327 252
0.0099729598 0.71100003 -0.014959441 6.7090289e-39 328 252
0.01121958 0.71100003 -0.014959441 6.0636595e-39 329 252
0.0124662 0.71100003 -0.014959441 5.7860006e-39 330 252
0.01371282 0.71100003 -0.014959441 5.7860006e-39 331 252
0.014959441 0.71100003 -0.014959441 5.972222e-39 332 252
0.016251646 0.713 -0.015001519 6.8023414e-39 333 252
0.017501773 0.713 -0.015001519 7.1725686e-39 334 252
0.018751899 0.713 -0.015001519 7.1725686e-39 335 252
0.020086186 0.71600002 -0.01506464 7.8164681e-39 336 252
0.021460801 0.72000003 -0.0151488 7.6320768e-39 337 252
0.022786319 0.722 -0.015190879 7.8142918e-39 338 252
0.024052227 0.722 -0.015190879 7.6295404e-39 339 252
0.025318133 0.722 -0.015190879 8.5464549e-39 340 252
0.026584039 0.722 -0.015190879 8.5464549e-39 341 252
0.027849946 0.722 -0.015190879 9.005268e-39 342 252
0.029115854 0.722 -0.015190879 9.0974636e-39 343 252
0.030381758 0.722 -0.015190879 9.0056183e-39 344 252
0.031647664 0.722 -0.015190879 8.7290357e-39 345 252
0.0328224 0.72000003 -0.0151488 8.3613349e-39 346 252
0.034084801 0.72000003 -0.0151488 8.3613349e-39 347 252
0.035347197 0.72000003 -0.0151488 8.1776639e-39 348 252
0.036558751 0.71899998 -0.01512776 8.1776639e-39 349 252
0.037819397 0.71899998 -0.01512776 8.1769465e-39 350 252
0.038971342 0.71700001 -0.015085679 8.0847523e-39 351 252
0.040228479 0.71700001 -0.015085679 7.808887e-39 352 252
0.041485619 0.71700001 -0.015085679 7.5323043e-39 353 252
0.042742759 0.71700001 -0.015085679 7.2553629e-39 354 252
0.043999899 0.71700001 -0.015085679 7.5315869e-39 355 252
0.045257039 0.71700001 -0.015085679 6.8916083e-39 356 252
0.046514176 0.71700001 -0.015085679 7.0759967e-39 357 252
0.04777132 0.71700001 -0.015085679 6.8923257e-39 358 252
0.04902846 0.71700001 -0.015085679 6.8001315e-39 359 252
0.0502856 0.71700001 -0.015085679 5.6973979e-39 360 252
0.051542737 0.71700001 -0.015085679 5.6973979e-39 361 252
0.052799881 0.71700001 -0.015085679 5.5144738e-39 362 252
0.054057021 0.71700001 -0.015085679 5.6988651e-39 363 252
0.055237014 0.71600002 -0.01506464 5.424076e-39 364 252
0.056492399 0.71600002 -0.01506464 5.1471304e-39 365 252
0.057747785 0.71600002 -0.01506464 4.9735221e-39 366 252
0.059003171 0.71600002 -0.01506464 1.0136477e-38 367 252
0.06025856 0.71600002 -0.01506464 1.2717589e-38 368 252
0.0025002533 0.713 -0.016251646 1.0497316e-38 322 253
0.0037503797 0.713 -0.016251646 7.8236427e-39 323 253
0.0050005065 0.713 -0.016251646 6.710454e-39 324 253
0.0062506334 0.713 -0.016251646 6.157283e-39 325 253
0.0075007593 0.713 -0.016251646 6.9820102e-39 326 253
0.0087263398 0.71100003 -0.01620606 6.7972616e-39 327 253
0.0099729598 0.71100003 -0.01620606 7.0738654e-39 328 253
0.01121958 0.71100003 -0.01620606 6.9816697e-39 329 253
0.0124662 0.71100003 -0.01620606 6.7969281e-39 330 253
0.013693533 0.70999998 -0.016183265 6.8891238e-39 331 253
0.014938398 0.70999998 -0.016183265 6.6154137e-39 332 253
0.01620606 0.71100003 -0.01620606 6.7076094e-39 333 253
0.017501773 0.713 -0.016251646 7.1685875e-39 334 253
0.018751899 0.713 -0.016251646 7.5370099e-39 335 253
0.020030079 0.71399999 -0.016274439 7.5384434e-39 336 253
0.021341572 0.71600002 -0.016320027 7.4462464e-39 337 253
0.02262852 0.71700001 -0.016342819 7.7195879e-39 338 253
0.023952285 0.71899998 -0.016388407 7.6273923e-39 339 253
0.025248 0.72000003 -0.0164112 8.1776766e-39 340 253
0.026510401 0.72000003 -0.0164112 8.0854809e-39 341 253
0.027772799 0.72000003 -0.0164112 8.7290385e-39 342 253
0.029035201 0.72000003 -0.0164112 9.0052652e-39 343 253
0.0302976 0.72000003 -0.0164112 8.821953e-39 344 253
0.03156 0.72000003 -0.0164112 8.637203e-39 345 253
0.0328224 0.72000003 -0.0164112 8.4538963e-39 346 253
0.03403746 0.71899998 -0.016388407 8.1769493e-39 347 253
0.035298105 0.71899998 -0.016388407 8.2691463e-39 348 253
0.036558751 0.71899998 -0.016388407 8.1769493e-39 349 253
0.037714198 0.71700001 -0.016342819 8.1783828e-39 350 253
0.038971342 0.71700001 -0.016342819 8.0861872e-39 351 253
0.040228479 0.71700001 -0.016342819 7.8106807e-39 352 253
0.041485619 0.71700001 -0.016342819 7.8106807e-39 353 253
0.042742759 0.71700001 -0.016342819 7.626651e-39 354 253
0.043999899 0.71700001 -0.016342819 7.626651e-39 355 253
0.045257039 0.71700001 -0.016342819 7.4440562e-39 356 253
0.046514176 0.71700001 -0.016342819 7.628446e-39 357 253
0.04777132 0.71700001 -0.016342819 7.0770729e-39 358 253
0.04902846 0.71700001 -0.016342819 6.7079373e-39 359 253
0.050215468 0.71600002 -0.016320027 5.7906697e-39 360 253
0.051470853 0.71600002 -0.016320027 5.5137227e-39 361 253
0.052726239 0.71600002 -0.016320027 5.6055722e-39 362 253
0.053981625 0.71600002 -0.016320027 5.7899635e-39 363 253
0.05508272 0.71399999 -0.016274439 5.9747107e-39 364 253
0.0563346 0.71399999 -0.016274439 5.9747107e-39 365 253
0.057586476 0.71399999 -0.016274439 5.3340272e-39 366 253
0.058838356 0.71399999 -0.016274439 7.270134e-39 367 253
0.06025856 0.71600002 -0.016320027 9.7705718e-39 368 253
0.061513945 0.71600002 -0.016320027 1.2444245e-38 369 253
0.00125188 0.71399999 -0.017526319 1.0593473e-38 321 254
0.0025002533 0.713 -0.017501773 8.2831957e-39 322 254
0.0037503797 0.713 -0.017501773 6.5311186e-39 323 254
0.0050005065 0.713 -0.017501773 6.5257306e-39 324 254
0.0062506334 0.713 -0.017501773 6.618285e-39 325 254
0.0074797203 0.71100003 -0.01745268 7.5341274e-39 326 254
0.0087263398 0.71100003 -0.01745268 7.2571804e-39 327 254
0.0099729598 0.71100003 -0.01745268 7.2568175e-39 328 254
0.01121958 0.71100003 -0.01745268 7.1646218e-39 329 254
0.012448666 0.70999998 -0.017428132 7.2568119e-39 330 254
0.013693533 0.70999998 -0.017428132 7.625593e-39 331 254
0.014938398 0.70999998 -0.017428132 7.3497292e-39 332 254
0.016183265 0.70999998 -0.017428132 7.4419248e-39 333 254
0.01745268 0.71100003 -0.01745268 6.9838375e-39 334 254
0.0186993 0.71100003 -0.01745268 7.2607832e-39 335 254
0.020002026 0.713 -0.017501773 7.0789058e-39 336 254
0.021281958 0.71399999 -0.017526319 6.8026791e-39 337 254
0.022596961 0.71600002 -0.017575413 7.1696511e-39 338 254
0.02388566 0.71700001 -0.017599959 6.8934244e-39 339 254
0.025212931 0.71899998 -0.017649053 7.3522319e-39 340 254
0.02647358 0.71899998 -0.017649053 7.4444275e-39 341 254
0.027734226 0.71899998 -0.017649053 7.8128401e-39 342 254
0.029035201 0.72000003 -0.017673599 7.9050357e-39 343 254
0.0302976 0.72000003 -0.017673599 8.2720162e-39 344 254
0.03156 0.72000003 -0.017673599 8.2720162e-39 345 254
0.0328224 0.72000003 -0.017673599 8.1790989e-39 346 254
0.03403746 0.71899998 -0.017649053 8.0869046e-39 347 254
0.035298105 0.71899998 -0.017649053 7.9957866e-39 348 254
0.036457058 0.71700001 -0.017599959 7.9957866e-39 349 254
0.037714198 0.71700001 -0.017599959 7.814268e-39 350 254
0.038971342 0.71700001 -0.017599959 7.7220738e-39 351 254
0.040228479 0.71700001 -0.017599959 8.0872634e-39 352 254
0.041427758 0.71600002 -0.017575413 8.0872634e-39 353 254
0.042683143 0.71600002 -0.017575413 8.0872634e-39 354 254
0.043938532 0.71600002 -0.017575413 8.0872634e-39 355 254
0.045193922 0.71600002 -0.017575413 8.0872634e-39 356 254
0.046449307 0.71600002 -0.017575413 8.0872634e-39 357 254
0.047704693 0.71600002 -0.017575413 7.7192039e-39 358 254
0.048960082 0.71600002 -0.017575413 7.350427e-39 359 254
0.050215468 0.71600002 -0.017575413 6.0640126e-39 360 254
0.051470853 0.71600002 -0.017575413 6.0640126e-39 361 254
0.052726239 0.71600002 -0.017575413 5.4222599e-39 362 254
0.053981625 0.71600002 -0.017575413 5.4222599e-39 363 254
0.05508272 0.71399999 -0.017526319 5.5141053e-39 364 254
0.0563346 0.71399999 -0.017526319 5.8825276e-39 365 254
0.057586476 0.71399999 -0.017526319 6.1576726e-39 366 254
0.058838356 0.71399999 -0.017526319 5.9732813e-39 367 254
0.06025856 0.71600002 -0.017575413 6.6344756e-39 368 254
0.061513945 0.71600002 -0.017575413 1.1336453e-38 369 254
0.062769331 0.71600002 -0.017575413 1.3268958e-38 370 254
0 0.71100003 -0.0186993 9.0236334e-39 320 255
0.00125188 0.71399999 -0.018778199 6.5339913e-39 321 255
0.0025037599 0.71399999 -0.018778199 5.7913914e-39 322 255
0.0037503797 0.713 -0.018751899 5.7913914e-39 323 255
0.0050005065 0.713 -0.018751899 7.2614838e-39 324 255
0.0062330998 0.71100003 -0.0186993 7.3536794e-39 325 255
0.0074691991 0.70999998 -0.018672999 7.7195725e-39 326 255
0.0087140659 0.70999998 -0.018672999 7.6273768e-39 327 255
0.0099589331 0.70999998 -0.018672999 7.4422653e-39 328 255
0.011203799 0.70999998 -0.018672999 7.3500697e-39 329 255
0.012448666 0.70999998 -0.018672999 7.6255748e-39 330 255
0.013654959 0.708 -0.0186204 8.2709442e-39 331 255
0.01489632 0.708 -0.0186204 7.6280929e-39 332 255
0.01613768 0.708 -0.0186204 7.2596691e-39 333 255
0.017428132 0.70999998 -0.018672999 6.9848927e-39 334 255
0.018672999 0.70999998 -0.018672999 7.0770897e-39 335 255
0.01994592 0.71100003 -0.0186993 6.98562e-39 336 255
0.021252153 0.713 -0.018751899 6.98562e-39 337 255
0.022533838 0.71399999 -0.018778199 7.0767366e-39 338 255
0.02388566 0.71700001 -0.018857099 6.892344e-39 339 255
0.0251428 0.71700001 -0.018857099 7.2600377e-39 340 255
0.02639994 0.71700001 -0.018857099 7.3522347e-39 341 255
0.027734226 0.71899998 -0.018909698 7.5369763e-39 342 255
0.029035201 0.72000003 -0.018935999 7.7213661e-39 343 255
0.0302976 0.72000003 -0.018935999 7.813559e-39 344 255
0.03156 0.72000003 -0.018935999 7.9057546e-39 345 255
0.032776814 0.71899998 -0.018909698 7.9061077e-39 346 255
0.033942781 0.71700001 -0.018857099 7.9061077e-39 347 255
0.035199918 0.71700001 -0.018857099 7.7235115e-39 348 255
0.036457058 0.71700001 -0.018857099 7.8157086e-39 349 255
0.037714198 0.71700001 -0.018857099 7.8157086e-39 350 255
0.038971342 0.71700001 -0.018857099 7.7235115e-39 351 255
0.040172372 0.71600002 -0.0188308 8.089057e-39 352 255
0.041427758 0.71600002 -0.0188308 7.9043099e-39 353 255
0.042683143 0.71600002 -0.0188308 7.9961453e-39 354 255
0.043938532 0.71600002 -0.0188308 7.9035924e-39 355 255
0.045193922 0.71600002 -0.0188308 7.9035924e-39 356 255
0.046449307 0.71600002 -0.0188308 7.8113982e-39 357 255
0.047571439 0.71399999 -0.018778199 7.44298e-39 358 255
0.048823316 0.71399999 -0.018778199 7.0745618e-39 359 255
0.050075196 0.71399999 -0.018778199 6.2473277e-39 360 255
0.05132708 0.71399999 -0.018778199 6.2473277e-39 361 255
0.052578956 0.71399999 -0.018778199 5.6059239e-39 362 255
0.053830836 0.71399999 -0.018778199 5.6059239e-39 363 255
0.05508272 0.71399999 -0.018778199 5.6974049e-39 364 255
0.0563346 0.71399999 -0.018778199 6.0658273e-39 365 255
0.057586476 0.71399999 -0.018778199 6.1587474e-39 366 255
0.058838356 0.71399999 -0.018778199 5.1445969e-39 367 255
0.060090236 0.71399999 -0.018778199 5.2457944e-39 368 255
0.061342116 0.71399999 -0.018778199 9.7633789e-39 369 255
0.062593997 0.71399999 -0.018778199 1.1980021e-38 370 255
0 0.71100003 -0.01994592 6.5329193e-39 320 256
0.00124662 0.71100003 -0.01994592 5.8875499e-39 321 256
0.0024932399 0.71100003 -0.01994592 6.8012301e-39 322 256
0.0037503797 0.713 -0.020002026 7.1696539e-39 323 256
0.0049864799 0.71100003 -0.01994592 7.9979572e-39 324 256
0.0062243328 0.70999998 -0.019917866 7.9054015e-39 325 256
0.0074691991 0.70999998 -0.019917866 8.5460863e-39 326 256
0.0087140659 0.70999998 -0.019917866 8.2694994e-39 327 256
0.0099589331 0.70999998 -0.019917866 8.0836789e-39 328 256
0.011203799 0.70999998 -0.019917866 7.9914832e-39 329 256
0.0124136 0.708 -0.01986176 7.9014414e-39 330 256
0.013635674 0.70700002 -0.019833706 8.1780297e-39 331 256
0.01487528 0.70700002 -0.019833706 8.2695022e-39 332 256
0.016114887 0.70700002 -0.019833706 8.1769465e-39 333 256
0.017379038 0.708 -0.01986176 7.5348267e-39 334 256
0.0186204 0.708 -0.01986176 7.5348267e-39 335 256
0.01986176 0.708 -0.01986176 7.0770925e-39 336 256
0.021162732 0.70999998 -0.019917866 7.0770925e-39 337 256
0.022407599 0.70999998 -0.019917866 6.8012273e-39 338 256
0.02378572 0.71399999 -0.020030079 6.7090317e-39 339 256
0.025107734 0.71600002 -0.020086186 7.0752905e-39 340 256
0.026363119 0.71600002 -0.020086186 7.1674861e-39 341 256
0.027657079 0.71700001 -0.020114239 6.8026538e-39 342 256
0.028914221 0.71700001 -0.020114239 7.0792407e-39 343 256
0.030255521 0.71899998 -0.020170346 7.1725112e-39 344 256
0.031516165 0.71899998 -0.020170346 7.1725112e-39 345 256
0.032776814 0.71899998 -0.020170346 7.4483666e-39 346 256
0.033942781 0.71700001 -0.020114239 7.5409223e-39 347 256
0.035199918 0.71700001 -0.020114239 7.3583233e-39 348 256
0.036457058 0.71700001 -0.020114239 7.450519e-39 349 256
0.037661601 0.71600002 -0.020086186 7.7253108e-39 350 256
0.038916986 0.71600002 -0.020086186 7.5409195e-39 351 256
0.040172372 0.71600002 -0.020086186 7.9061077e-39 352 256
0.041427758 0.71600002 -0.020086186 7.7217165e-39 353 256
0.042563915 0.71399999 -0.020030079 7.6280859e-39 354 256
0.043815799 0.71399999 -0.020030079 7.6280859e-39 355 256
0.045067675 0.71399999 -0.020030079 7.7192039e-39 356 256
0.046319555 0.71399999 -0.020030079 7.4426212e-39 357 256
0.047504812 0.713 -0.020002026 7.625216e-39 358 256
0.048754938 0.713 -0.020002026 7.4404689e-39 359 256
0.050005067 0.713 -0.020002026 6.5224726e-39 360 256
0.051255193 0.713 -0.020002026 6.4299197e-39 361 256
0.052505318 0.713 -0.020002026 5.8799941e-39 362 256
0.053755447 0.713 -0.020002026 5.8799941e-39 363 256
0.055005573 0.713 -0.020002026 5.6048491e-39 364 256
0.056255698 0.713 -0.020002026 5.9736317e-39 365 256
0.057505824 0.713 -0.020002026 6.3409849e-39 366 256
0.058755953 0.713 -0.020002026 6.3409849e-39 367 256
0.060090236 0.71399999 -0.020030079 5.7914138e-39 368 256
0.061342116 0.71399999 -0.020030079 8.0959458e-39 369 256
0.062593997 0.71399999 -0.020030079 1.050597e-38 370 256
-0.0024932399 0.71100003 -0.021192541 9.9477505e-39 318 257
-0.00124662 0.71100003 -0.021192541 6.2599267e-39 319 257
0 0.71100003 -0.021192541 5.6080889e-39 320 257
0.00124662 0.71100003 -0.021192541 5.885036e-39 321 257
0.0024932399 0.71100003 -0.021192541 7.5369945e-39 322 257
0.0037398601 0.71100003 -0.021192541 7.8139415e-39 323 257
0.0049864799 0.71100003 -0.021192541 8.3656481e-39 324 257
0.0062243328 0.70999998 -0.021162732 8.2734511e-39 325 257
0.0074481601 0.708 -0.021103119 8.7297531e-39 326 257
0.008689519 0.708 -0.021103119 8.3613349e-39 327 257
0.0099308798 0.708 -0.021103119 8.3588238e-39 328 257
0.011156459 0.70700002 -0.021073313 8.2666296e-39 329 257
0.012396066 0.70700002 -0.021073313 8.268426e-39 330 257
0.013635674 0.70700002 -0.021073313 8.4531774e-39 331 257
0.014854239 0.70599997 -0.021043506 8.2691463e-39 332 257
0.016092092 0.70599997 -0.021043506 8.1769493e-39 333 257
0.017354494 0.70700002 -0.021073313 7.6259433e-39 334 257
0.0186204 0.708 -0.021103119 7.6259433e-39 335 257
0.01986176 0.708 -0.021103119 7.2596817e-39 336 257
0.021162732 0.70999998 -0.021162732 7.2596817e-39 337 257
0.022407599 0.70999998 -0.021162732 6.9841738e-39 338 257
0.023685781 0.71100003 -0.021192541 6.7997826e-39 339 257
0.024932399 0.71100003 -0.021192541 6.7997826e-39 340 257
0.026179021 0.71100003 -0.021192541 6.8919782e-39 341 257
0.027657079 0.71700001 -0.021371379 6.3434764e-39 342 257
0.028914221 0.71700001 -0.021371379 6.7119001e-39 343 257
0.030255521 0.71899998 -0.021430992 6.4385433e-39 344 257
0.031516165 0.71899998 -0.021430992 6.6225744e-39 345 257
0.032776814 0.71899998 -0.021430992 6.899513e-39 346 257
0.033942781 0.71700001 -0.021371379 6.9920674e-39 347 257
0.035199918 0.71700001 -0.021371379 7.084263e-39 348 257
0.036457058 0.71700001 -0.021371379 7.084263e-39 349 257
0.037661601 0.71600002 -0.021341572 7.4501686e-39 350 257
0.038916986 0.71600002 -0.021341572 7.357973e-39 351 257
0.040172372 0.71600002 -0.021341572 7.7235143e-39 352 257
0.041312039 0.71399999 -0.021281958 7.3547332e-39 353 257
0.042563915 0.71399999 -0.021281958 7.4440562e-39 354 257
0.043815799 0.71399999 -0.021281958 7.2600265e-39 355 257
0.045004558 0.713 -0.021252153 7.4426212e-39 356 257
0.046254687 0.713 -0.021252153 7.2578741e-39 357 257
0.047504812 0.713 -0.021252153 7.4404689e-39 358 257
0.048754938 0.713 -0.021252153 7.3482746e-39 359 257
0.050005067 0.713 -0.021252153 6.7979791e-39 360 257
0.051111419 0.71100003 -0.021192541 6.6139494e-39 361 257
0.052358042 0.71100003 -0.021192541 6.0636595e-39 362 257
0.053604662 0.71100003 -0.021192541 6.0636595e-39 363 257
0.054851279 0.71100003 -0.021192541 5.880713e-39 364 257
0.056097899 0.71100003 -0.021192541 5.97291e-39 365 257
0.057505824 0.713 -0.021252153 6.4338867e-39 366 257
0.058755953 0.713 -0.021252153 6.7108338e-39 367 257
0.060090236 0.71399999 -0.021281958 6.5260824e-39 368 257
0.061342116 0.71399999 -0.021281958 6.3416911e-39 369 257
0.062593997 0.71399999 -0.021281958 9.0293914e-39 370 257
0.063845873 0.71399999 -0.021281958 1.2993803e-38 371 257
-0.0037345996 0.70999998 -0.022407599 1.2530309e-38 317 258
-0.0024897333 0.70999998 -0.022407599 6.7180336e-39 318 258
-0.0012448666 0.70999998 -0.022407599 3.9521647e-39 319 258
0 0.71100003 -0.022439159 6.3452882e-39 320 258
0.00124662 0.71100003 -0.022439159 6.4374839e-39 321 258
0.0024932399 0.71100003 -0.022439159 7.7228123e-39 322 258
0.0037398601 0.71100003 -0.022439159 7.9072035e-39 323 258
0.0049794666 0.70999998 -0.022407599 8.8248242e-39 324 258
0.0062243328 0.70999998 -0.022407599 8.7326286e-39 325 258
0.0074376399 0.70700002 -0.022312919 8.9123479e-39 326 258
0.008677247 0.70700002 -0.022312919 8.636124e-39 327 258
0.0099168532 0.70700002 -0.022312919 8.6346904e-39 328 258
0.011156459 0.70700002 -0.022312919 8.6346904e-39 329 258
0.012396066 0.70700002 -0.022312919 8.3616979e-39 330 258
0.013616386 0.70599997 -0.022281358 8.3616979e-39 331 258
0.014854239 0.70599997 -0.022281358 8.2695022e-39 332 258
0.016092092 0.70599997 -0.022281358 7.9929168e-39 333 258
0.017354494 0.70700002 -0.022312919 7.717776e-39 334 258
0.018594101 0.70700002 -0.022312919 7.717776e-39 335 258
0.019833706 0.70700002 -0.022312919 7.2589629e-39 336 258
0.021073313 0.70700002 -0.022312919 7.2589629e-39 337 258
0.022344479 0.708 -0.022344479 6.8919782e-39 338 258
0.023652466 0.70999998 -0.022407599 6.7997826e-39 339 258
0.024897331 0.70999998 -0.022407599 6.5242719e-39 340 258
0.026068559 0.708 -0.022344479 6.6164675e-39 341 258
0.027309919 0.708 -0.022344479 6.1598012e-39 342 258
0.028914221 0.71700001 -0.02262852 6.2519968e-39 343 258
0.030171359 0.71700001 -0.02262852 6.1619508e-39 344 258
0.031428497 0.71700001 -0.02262852 6.346342e-39 345 258
0.032685637 0.71700001 -0.02262852 6.4403285e-39 346 258
0.033942781 0.71700001 -0.02262852 6.7172755e-39 347 258
0.035199918 0.71700001 -0.02262852 6.7172755e-39 348 258
0.036457058 0.71700001 -0.02262852 6.8094712e-39 349 258
0.037661601 0.71600002 -0.022596961 7.3579702e-39 350 258
0.038916986 0.71600002 -0.022596961 7.081742e-39 351 258
0.040172372 0.71600002 -0.022596961 7.5391231e-39 352 258
0.041312039 0.71399999 -0.022533838 7.2625376e-39 353 258
0.042563915 0.71399999 -0.022533838 7.3525822e-39 354 258
0.043754432 0.713 -0.022502279 7.168191e-39 355 258
0.045004558 0.713 -0.022502279 7.3500683e-39 356 258
0.046124939 0.71100003 -0.022439159 7.1656798e-39 357 258
0.047371563 0.71100003 -0.022439159 7.2571566e-39 358 258
0.048618179 0.71100003 -0.022439159 7.4411863e-39 359 258
0.049864799 0.71100003 -0.022439159 6.9820088e-39 360 258
0.051111419 0.71100003 -0.022439159 6.7976204e-39 361 258
0.052358042 0.71100003 -0.022439159 6.156211e-39 362 258
0.053604662 0.71100003 -0.022439159 6.156211e-39 363 258
0.054851279 0.71100003 -0.022439159 5.7885145e-39 364 258
0.056097899 0.71100003 -0.022439159 5.9732659e-39 365 258
0.057344519 0.71100003 -0.022439159 6.433521e-39 366 258
0.058591139 0.71100003 -0.022439159 6.8944991e-39 367 258
0.060006075 0.713 -0.022502279 6.802651e-39 368 258
0.061342116 0.71399999 -0.022533838 6.0650888e-39 369 258
0.062593997 0.71399999 -0.022533838 8.3800535e-39 370 258
0.064024724 0.71600002 -0.022596961 1.2897639e-38 371 258
0.06528011 0.71600002 -0.022596961 1.3268946e-38 372 258
-0.0049654399 0.708 -0.023585839 1.271614e-38 316 259
-0.0037345996 0.70999998 -0.023652466 1.0319055e-38 317 259
-0.0024897333 0.70999998 -0.023652466 5.3343761e-39 318 259
-0.0012448666 0.70999998 -0.023652466 3.7670504e-39 319 259
0 0.70999998 -0.023652466 6.5311088e-39 320 259
0.0012448666 0.70999998 -0.023652466 6.6233045e-39 321 259
0.0024897333 0.70999998 -0.023652466 8.2738154e-39 322 259
0.0037345996 0.70999998 -0.023652466 8.4585654e-39 323 259
0.0049654399 0.708 -0.023585839 8.916301e-39 324 259
0.0061980332 0.70700002 -0.023552528 8.5471583e-39 325 259
0.0074271196 0.70599997 -0.023519212 9.0953014e-39 326 259
0.0086649731 0.70599997 -0.023519212 9.0031072e-39 327 259
0.0099028256 0.70599997 -0.023519212 8.8194362e-39 328 259
0.011140679 0.70599997 -0.023519212 8.9116305e-39 329 259
0.012378532 0.70599997 -0.023519212 8.9123507e-39 330 259
0.013616386 0.70599997 -0.023519212 8.8201551e-39 331 259
0.014812159 0.704 -0.023452586 8.4520942e-39 332 259
0.016046507 0.704 -0.023452586 8.3599e-39 333 259
0.017329946 0.70599997 -0.023519212 7.9003666e-39 334 259
0.018567799 0.70599997 -0.023519212 7.9925622e-39 335 259
0.019805651 0.70599997 -0.023519212 7.6262992e-39 336 259
0.021043506 0.70599997 -0.023519212 7.6262992e-39 337 259
0.022312919 0.70700002 -0.023552528 7.0756436e-39 338 259
0.023552528 0.70700002 -0.023552528 6.7068625e-39 339 259
0.024827199 0.708 -0.023585839 6.5242719e-39 340 259
0.02603174 0.70700002 -0.023552528 6.4320763e-39 341 259
0.027271347 0.70700002 -0.023552528 5.5158779e-39 342 259
0.028631933 0.70999998 -0.023652466 5.6080735e-39 343 259
0.030171359 0.71700001 -0.02388566 5.1506911e-39 344 259
0.031428497 0.71700001 -0.02388566 5.4272794e-39 345 259
0.032685637 0.71700001 -0.02388566 5.7060131e-39 346 259
0.033942781 0.71700001 -0.02388566 5.7982101e-39 347 259
0.035199918 0.71700001 -0.02388566 6.4421306e-39 348 259
0.036457058 0.71700001 -0.02388566 6.3499349e-39 349 259
0.037661601 0.71600002 -0.023852346 6.8065971e-39 350 259
0.038916986 0.71600002 -0.023852346 6.6222058e-39 351 259
0.040060159 0.71399999 -0.02378572 6.8040804e-39 352 259
0.041312039 0.71399999 -0.02378572 6.7118847e-39 353 259
0.042504307 0.713 -0.023752406 7.2607439e-39 354 259
0.043631699 0.71100003 -0.023685781 7.1685497e-39 355 259
0.044878319 0.71100003 -0.023685781 7.350427e-39 356 259
0.046124939 0.71100003 -0.023685781 7.2582328e-39 357 259
0.047304932 0.70999998 -0.023652466 7.2575153e-39 358 259
0.048549797 0.70999998 -0.023652466 7.2575153e-39 359 259
0.049794663 0.70999998 -0.023652466 7.0731269e-39 360 259
0.051039528 0.70999998 -0.023652466 7.0731269e-39 361 259
0.052284397 0.70999998 -0.023652466 6.3388044e-39 362 259
0.053529263 0.70999998 -0.023652466 6.4310001e-39 363 259
0.054774132 0.70999998 -0.023652466 6.1558579e-39 364 259
0.056018997 0.70999998 -0.023652466 6.3402506e-39 365 259
0.057263866 0.70999998 -0.023652466 6.3420414e-39 366 259
0.058591139 0.71100003 -0.023685781 6.7111841e-39 367 259
0.059837762 0.71100003 -0.023685781 7.0770757e-39 368 259
0.061256204 0.713 -0.023752406 6.0625777e-39 369 259
0.062593997 0.71399999 -0.02378572 7.6385298e-39 370 259
0.064024724 0.71600002 -0.023852346 1.2156114e-38 371 259
0.06528011 0.71600002 -0.023852346 1.2901239e-38 372 259
-0.0049654399 0.708 -0.024827199 1.1516878e-38 316 260
-0.00372408 0.708 -0.024827199 7.2755206e-39 317 260
-0.00248272 0.708 -0.024827199 4.5993292e-39 318 260
-0.0012448666 0.70999998 -0.024897331 4.7840792e-39 319 260
0 0.708 -0.024827199 6.8995312e-39 320 260
0.00124136 0.708 -0.024827199 6.9917268e-39 321 260
0.00248272 0.708 -0.024827199 8.3667355e-39 322 260
0.00372408 0.708 -0.024827199 8.1823457e-39 323 260
0.0049654399 0.708 -0.024827199 9.0988972e-39 324 260
0.0061980332 0.70700002 -0.024792133 8.9141458e-39 325 260
0.0074271196 0.70599997 -0.024757065 9.0942252e-39 326 260
0.0086649731 0.70599997 -0.024757065 9.002031e-39 327 260
0.0099028256 0.70599997 -0.024757065 8.9123479e-39 328 260
0.011109119 0.704 -0.024686933 8.8201537e-39 329 260
0.012343466 0.704 -0.024686933 8.9116305e-39 330 260
0.013577812 0.704 -0.024686933 8.9116305e-39 331 260
0.014812159 0.704 -0.024686933 8.5442885e-39 332 260
0.016046507 0.704 -0.024686933 8.4520942e-39 333 260
0.017280852 0.704 -0.024686933 7.9932811e-39 334 260
0.018515198 0.704 -0.024686933 7.8088898e-39 335 260
0.019749546 0.704 -0.024686933 7.4426339e-39 336 260
0.020983893 0.704 -0.024686933 7.4426339e-39 337 260
0.022281358 0.70599997 -0.024757065 6.70831e-39 338 260
0.023519212 0.70599997 -0.024757065 6.6161144e-39 339 260
0.024792133 0.70700002 -0.024792133 6.1562082e-39 340 260
0.02603174 0.70700002 -0.024792133 6.1562082e-39 341 260
0.027271347 0.70700002 -0.024792133 5.0559745e-39 342 260
0.028510952 0.70700002 -0.024792133 5.0559745e-39 343 260
0.030171359 0.71700001 -0.0251428 4.8726623e-39 344 260
0.031428497 0.71700001 -0.0251428 5.4258333e-39 345 260
0.032685637 0.71700001 -0.0251428 5.42798e-39 346 260
0.033942781 0.71700001 -0.0251428 5.9811524e-39 347 260
0.035199918 0.71700001 -0.0251428 6.0737012e-39 348 260
0.036457058 0.71700001 -0.0251428 6.0737012e-39 349 260
0.037661601 0.71600002 -0.025107734 6.6218415e-39 350 260
0.038916986 0.71600002 -0.025107734 6.4370943e-39 351 260
0.040060159 0.71399999 -0.025037598 6.8022839e-39 352 260
0.041138459 0.71100003 -0.024932399 6.8022839e-39 353 260
0.042385083 0.71100003 -0.024932399 7.0770729e-39 354 260
0.043570329 0.70999998 -0.024897331 6.9848787e-39 355 260
0.044815198 0.70999998 -0.024897331 7.2585915e-39 356 260
0.046060063 0.70999998 -0.024897331 6.9823676e-39 357 260
0.047171678 0.708 -0.024827199 7.4411863e-39 358 260
0.048413038 0.708 -0.024827199 7.2571566e-39 359 260
0.049794663 0.70999998 -0.024897331 6.8901733e-39 360 260
0.051039528 0.70999998 -0.024897331 6.7979791e-39 361 260
0.052137118 0.708 -0.024827199 6.4313546e-39 362 260
0.053378478 0.708 -0.024827199 6.3391604e-39 363 260
0.054774132 0.70999998 -0.024897331 6.3395233e-39 364 260
0.056018997 0.70999998 -0.024897331 6.523916e-39 365 260
0.057263866 0.70999998 -0.024897331 7.0767226e-39 366 260
0.058508728 0.70999998 -0.024897331 7.3529508e-39 367 260
0.059837762 0.71100003 -0.024932399 7.3540298e-39 368 260
0.061256204 0.713 -0.025002534 6.7086603e-39 369 260
0.062593997 0.71399999 -0.025037598 6.8980963e-39 370 260
0.064024724 0.71600002 -0.025107734 1.0770313e-38 371 260
0.06528011 0.71600002 -0.025107734 1.2533178e-38 372 260
-0.0049654399 0.708 -0.026068559 1.0226863e-38 316 261
-0.00372408 0.708 -0.026068559 4.9717103e-39 317 261
-0.00248272 0.708 -0.026068559 5.5198436e-39 318 261
-0.0012448666 0.70999998 -0.026142199 6.902778e-39 319 261
0 0.708 -0.026068559 7.8218448e-39 320 261
0.00124136 0.708 -0.026068559 7.0842784e-39 321 261
0.00248272 0.708 -0.026068559 8.5478912e-39 322 261
0.0037188199 0.70700002 -0.02603174 8.5478912e-39 323 261
0.0049584266 0.70700002 -0.02603174 9.0974608e-39 324 261
0.0061892662 0.70599997 -0.025994917 8.7290385e-39 325 261
0.0074271196 0.70599997 -0.025994917 9.1867782e-39 326 261
0.0086404262 0.704 -0.02592128 9.002031e-39 327 261
0.0098747732 0.704 -0.02592128 9.002031e-39 328 261
0.011109119 0.704 -0.02592128 8.9098368e-39 329 261
0.012343466 0.704 -0.02592128 9.093149e-39 330 261
0.013558527 0.70300001 -0.025884461 9.093149e-39 331 261
0.014791119 0.70300001 -0.025884461 8.8194362e-39 332 261
0.016046507 0.704 -0.02592128 8.8194362e-39 333 261
0.017280852 0.704 -0.02592128 8.3599e-39 334 261
0.018515198 0.704 -0.02592128 8.1755116e-39 335 261
0.019749546 0.704 -0.02592128 7.6252244e-39 336 261
0.020983893 0.704 -0.02592128 7.8096157e-39 337 261
0.022218239 0.704 -0.02592128 6.9841738e-39 338 261
0.023452586 0.704 -0.02592128 6.7072282e-39 339 261
0.024757065 0.70599997 -0.025994917 6.2487612e-39 340 261
0.025884461 0.70300001 -0.025884461 6.2487612e-39 341 261
0.027117053 0.70300001 -0.025884461 5.3314824e-39 342 261
0.028510952 0.70700002 -0.02603174 5.1474513e-39 343 261
0.030171359 0.71700001 -0.02639994 4.3216563e-39 344 261
0.031428497 0.71700001 -0.02639994 4.5978831e-39 345 261
0.032685637 0.71700001 -0.02639994 4.9680949e-39 346 261
0.033942781 0.71700001 -0.02639994 5.3368788e-39 347 261
0.035199918 0.71700001 -0.02639994 5.6138118e-39 348 261
0.036457058 0.71700001 -0.02639994 5.5216162e-39 349 261
0.037661601 0.71600002 -0.026363119 5.9786385e-39 350 261
0.038808275 0.71399999 -0.026289478 5.7938871e-39 351 261
0.039891839 0.71100003 -0.026179021 6.0690349e-39 352 261
0.041138459 0.71100003 -0.026179021 6.0690349e-39 353 261
0.042385083 0.71100003 -0.026179021 6.7100897e-39 354 261
0.043570329 0.70999998 -0.026142199 6.6178954e-39 355 261
0.044815198 0.70999998 -0.026142199 6.8905321e-39 356 261
0.045930319 0.708 -0.026068559 6.7983378e-39 357 261
0.047171678 0.708 -0.026068559 6.6143081e-39 358 261
0.048413038 0.708 -0.026068559 6.6143081e-39 359 261
0.049654398 0.708 -0.026068559 6.6139494e-39 360 261
0.050895758 0.708 -0.026068559 6.6139494e-39 361 261
0.052137118 0.708 -0.026068559 6.5221167e-39 362 261
0.053378478 0.708 -0.026068559 6.6143123e-39 363 261
0.054619838 0.708 -0.026068559 6.6143151e-39 364 261
0.055861197 0.708 -0.026068559 6.8909034e-39 365 261
0.057263866 0.70999998 -0.026142199 7.0767254e-39 366 261
0.058508728 0.70999998 -0.026142199 7.4451492e-39 367 261
0.059753593 0.70999998 -0.026142199 7.8117835e-39 368 261
0.061084379 0.71100003 -0.026179021 7.5351966e-39 369 261
0.062593997 0.71399999 -0.026289478 6.3431372e-39 370 261
0.064024724 0.71600002 -0.026363119 9.0168105e-39 371 261
0.06528011 0.71600002 -0.026363119 1.1795979e-38 372 261
-0.0049584266 0.70700002 -0.027271347 8.6581103e-39 316 262
-0.0037188199 0.70700002 -0.027271347 3.3104051e-39 317 262
-0.00248272 0.708 -0.027309919 5.7968186e-39 318 262
-0.00124136 0.708 -0.027309919 8.1020695e-39 319 262
0 0.708 -0.027309919 8.100252e-39 320 262
0.00124136 0.708 -0.027309919 6.6251205e-39 321 262
0.0024792133 0.70700002 -0.027271347 8.2713127e-39 322 262
0.0037135598 0.70599997 -0.027232772 7.995086e-39 323 262
0.0049514128 0.70599997 -0.027232772 8.8208782e-39 324 262
0.0061892662 0.70599997 -0.027232772 8.7286825e-39 325 262
0.0074060797 0.704 -0.027155625 9.369373e-39 326 262
0.0086404262 0.704 -0.027155625 9.2771788e-39 327 262
0.0098607466 0.70300001 -0.027117053 9.0002374e-39 328 262
0.01109334 0.70300001 -0.027117053 8.7243721e-39 329 262
0.012325933 0.70300001 -0.027117053 8.9080431e-39 330 262
0.013519952 0.70099998 -0.027039904 9.0917141e-39 331 262
0.014749039 0.70099998 -0.027039904 8.7261658e-39 332 262
0.016023712 0.70300001 -0.027117053 8.7261658e-39 333 262
0.017256306 0.70300001 -0.027117053 8.1755144e-39 334 262
0.018488899 0.70300001 -0.027117053 7.9907644e-39 335 262
0.019721493 0.70300001 -0.027117053 7.5326757e-39 336 262
0.020954086 0.70300001 -0.027117053 7.7174257e-39 337 262
0.02218668 0.70300001 -0.027117053 6.9841766e-39 338 262
0.023419274 0.70300001 -0.027117053 6.9841766e-39 339 262
0.024686933 0.704 -0.027155625 6.4338713e-39 340 262
0.025884461 0.70300001 -0.027117053 6.3416757e-39 341 262
0.027117053 0.70300001 -0.027117053 5.2414392e-39 342 262
0.028349647 0.70300001 -0.027117053 4.8726623e-39 343 262
0.030171359 0.71700001 -0.027657079 4.4124086e-39 344 262
0.031428497 0.71700001 -0.027657079 4.5967971e-39 345 262
0.032685637 0.71700001 -0.027657079 4.9662914e-39 346 262
0.033942781 0.71700001 -0.027657079 5.3354327e-39 347 262
0.035199918 0.71700001 -0.027657079 5.611651e-39 348 262
0.036457058 0.71700001 -0.027657079 5.611651e-39 349 262
0.037661601 0.71600002 -0.027618507 5.7942458e-39 350 262
0.038808275 0.71399999 -0.02754136 5.7020516e-39 351 262
0.039891839 0.71100003 -0.027425639 6.1601529e-39 352 262
0.041080594 0.70999998 -0.027387066 6.1601529e-39 353 262
0.042325463 0.70999998 -0.027387066 6.6175367e-39 354 262
0.043447599 0.708 -0.027309919 6.3413128e-39 355 262
0.044688959 0.708 -0.027309919 6.6143081e-39 356 262
0.045865446 0.70700002 -0.027271347 6.4295609e-39 357 262
0.047105055 0.70700002 -0.027271347 6.4292022e-39 358 262
0.048344657 0.70700002 -0.027271347 6.4292022e-39 359 262
0.049584266 0.70700002 -0.027271347 6.1536957e-39 360 262
0.050823875 0.70700002 -0.027271347 6.4299211e-39 361 262
0.05206348 0.70700002 -0.027271347 6.2462529e-39 362 262
0.053303085 0.70700002 -0.027271347 6.4310029e-39 363 262
0.054542694 0.70700002 -0.027271347 6.6153885e-39 364 262
0.055782299 0.70700002 -0.027271347 6.8919754e-39 365 262
0.057102561 0.708 -0.027309919 7.1689196e-39 366 262
0.058508728 0.70999998 -0.027387066 7.4451464e-39 367 262
0.059753593 0.70999998 -0.027387066 7.6295433e-39 368 262
0.061084379 0.71100003 -0.027425639 7.445152e-39 369 262
0.062593997 0.71399999 -0.02754136 5.97291e-39 370 262
0.064024724 0.71600002 -0.027618507 7.2636488e-39 371 262
0.06528011 0.71600002 -0.027618507 1.0781829e-38 372 262
-0.0049514128 0.70599997 -0.028470624 6.8138446e-39 316 263
-0.0037135598 0.70599997 -0.028470624 1.7448786e-39 317 263
-0.0024792133 0.70700002 -0.028510952 6.2578066e-39 318 263
-0.0012396066 0.70700002 -0.028510952 8.8392842e-39 319 263
0 0.70700002 -0.028510952 8.5583589e-39 320 263
0.0012396066 0.70700002 -0.028510952 7.0828701e-39 321 263
0.0024792133 0.70700002 -0.028510952 8.0872816e-39 322 263
0.0037135598 0.70599997 -0.028470624 7.9028903e-39 323 263
0.0049514128 0.70599997 -0.028470624 8.9112759e-39 324 263
0.0061892662 0.70599997 -0.028470624 8.9112759e-39 325 263
0.0074060797 0.704 -0.028389972 9.369373e-39 326 263
0.0086281532 0.70300001 -0.028349647 9.2771788e-39 327 263
0.0098607466 0.70300001 -0.028349647 9.0917141e-39 328 263
0.011061779 0.70099998 -0.028268991 8.9080431e-39 329 263
0.012290866 0.70099998 -0.028268991 8.9080431e-39 330 263
0.013500666 0.69999999 -0.028228667 8.8162076e-39 331 263
0.014727999 0.69999999 -0.028228667 8.7243721e-39 332 263
0.015955333 0.69999999 -0.028228667 8.5407011e-39 333 263
0.017207211 0.70099998 -0.028268991 8.2651961e-39 334 263
0.018436298 0.70099998 -0.028268991 8.2651961e-39 335 263
0.019665385 0.70099998 -0.028268991 7.4397612e-39 336 263
0.020894472 0.70099998 -0.028268991 7.6241525e-39 337 263
0.022123558 0.70099998 -0.028268991 7.0752905e-39 338 263
0.023352645 0.70099998 -0.028268991 7.1674861e-39 339 263
0.024686933 0.704 -0.028389972 6.7097351e-39 340 263
0.025884461 0.70300001 -0.028349647 6.5249851e-39 341 263
0.027117053 0.70300001 -0.028349647 5.6981056e-39 342 263
0.028349647 0.70300001 -0.028349647 5.4215229e-39 343 263
0.030171359 0.71700001 -0.028914221 4.5946447e-39 344 263
0.031428497 0.71700001 -0.028914221 4.7793947e-39 345 263
0.032640055 0.71600002 -0.028873893 4.7819072e-39 346 263
0.03389544 0.71600002 -0.028873893 5.0584927e-39 347 263
0.035150826 0.71600002 -0.028873893 5.4269039e-39 348 263
0.036406212 0.71600002 -0.028873893 5.4269039e-39 349 263
0.037661601 0.71600002 -0.028873893 5.7020516e-39 350 263
0.038808275 0.71399999 -0.028793238 5.6094986e-39 351 263
0.039891839 0.71100003 -0.028672259 6.1594354e-39 352 263
0.041080594 0.70999998 -0.028631933 6.1594354e-39 353 263
0.042325463 0.70999998 -0.028631933 6.340954e-39 354 263
0.043447599 0.708 -0.02855128 6.0643713e-39 355 263
0.044688959 0.708 -0.02855128 6.1544132e-39 356 263
0.045865446 0.70700002 -0.028510952 6.0622189e-39 357 263
0.047038425 0.70599997 -0.028470624 6.0622189e-39 358 263
0.048276275 0.70599997 -0.028470624 6.0622189e-39 359 263
0.04951413 0.70599997 -0.028470624 5.695956e-39 360 263
0.050751984 0.70599997 -0.028470624 5.7881516e-39 361 263
0.051989835 0.70599997 -0.028470624 5.7888705e-39 362 263
0.053227689 0.70599997 -0.028470624 5.9732631e-39 363 263
0.054465543 0.70599997 -0.028470624 6.3406037e-39 364 263
0.055703394 0.70599997 -0.028470624 6.6168305e-39 365 263
0.057021905 0.70700002 -0.028510952 7.0774429e-39 366 263
0.058343921 0.708 -0.02855128 7.3540298e-39 367 263
0.059753593 0.70999998 -0.028631933 7.8132114e-39 368 263
0.061084379 0.71100003 -0.028672259 7.536626e-39 369 263
0.062331002 0.71100003 -0.028672259 6.2491269e-39 370 263
0.064114138 0.71700001 -0.028914221 6.1569313e-39 371 263
0.065371275 0.71700001 -0.028914221 1.0135013e-38 372 263
-0.0049514128 0.70599997 -0.029708479 5.7067712e-39 316 264
-0.0037135598 0.70599997 -0.029708479 1.3775324e-39 317 264
-0.0024792133 0.70700002 -0.029750559 5.9794148e-39 318 264
-0.0012396066 0.70700002 -0.029750559 9.0222307e-39 319 264
0 0.70700002 -0.029750559 8.0988185e-39 320 264
0.0012396066 0.70700002 -0.029750559 6.715884e-39 321 264
0.0024757064 0.70599997 -0.029708479 7.8121394e-39 322 264
0.0037135598 0.70599997 -0.029708479 7.5351938e-39 323 264
0.0049373866 0.704 -0.029624319 8.6357708e-39 324 264
0.0061629666 0.70300001 -0.029582238 8.819802e-39 325 264
0.0073955595 0.70300001 -0.029582238 9.2778962e-39 326 264
0.0086036054 0.70099998 -0.029498078 9.2778962e-39 327 264
0.0098326923 0.70099998 -0.029498078 9.1849845e-39 328 264
0.011045999 0.69999999 -0.029455997 9.0927903e-39 329 264
0.012273333 0.69999999 -0.029455997 8.9998786e-39 330 264
0.013500666 0.69999999 -0.029455997 8.7243721e-39 331 264
0.014727999 0.69999999 -0.029455997 8.6325366e-39 332 264
0.015955333 0.69999999 -0.029455997 8.4488656e-39 333 264
0.017182667 0.69999999 -0.029455997 8.0815237e-39 334 264
0.018409999 0.69999999 -0.029455997 8.1733592e-39 335 264
0.019637333 0.69999999 -0.029455997 7.7141845e-39 336 264
0.020864666 0.69999999 -0.029455997 7.990414e-39 337 264
0.022091998 0.69999999 -0.029455997 7.8088926e-39 338 264
0.023319334 0.69999999 -0.029455997 7.8088926e-39 339 264
0.024581732 0.70099998 -0.029498078 7.5337393e-39 340 264
0.025773998 0.69999999 -0.029455997 7.2571566e-39 341 264
0.027001332 0.69999999 -0.029455997 6.5217552e-39 342 264
0.028228667 0.69999999 -0.029455997 6.3373667e-39 343 264
0.029203519 0.69400001 -0.029203519 5.6041177e-39 344 264
0.031384666 0.71600002 -0.03012928 5.6963119e-39 345 264
0.032640055 0.71600002 -0.03012928 5.4233165e-39 346 264
0.03389544 0.71600002 -0.03012928 5.6080637e-39 347 264
0.035150826 0.71600002 -0.03012928 5.7924522e-39 348 264
0.036406212 0.71600002 -0.03012928 5.7924522e-39 349 264
0.037661601 0.71600002 -0.03012928 5.8839289e-39 350 264
0.038808275 0.71399999 -0.030045118 5.8839289e-39 351 264
0.039723519 0.708 -0.02979264 6.2494773e-39 352 264
0.040964879 0.708 -0.02979264 6.157283e-39 353 264
0.042146627 0.70700002 -0.029750559 6.0640126e-39 354 264
0.043386232 0.70700002 -0.029750559 5.6955944e-39 355 264
0.044562716 0.70599997 -0.029708479 5.5115647e-39 356 264
0.045670826 0.704 -0.029624319 5.5115647e-39 357 264
0.046905171 0.704 -0.029624319 5.4204467e-39 358 264
0.048139516 0.704 -0.029624319 5.5126409e-39 359 264
0.049373865 0.704 -0.029624319 5.3300475e-39 360 264
0.050608214 0.704 -0.029624319 5.5140786e-39 361 264
0.051842559 0.704 -0.029624319 5.3311293e-39 362 264
0.053076904 0.704 -0.029624319 5.3311293e-39 363 264
0.054311249 0.704 -0.029624319 5.5148059e-39 364 264
0.055703394 0.70599997 -0.029708479 5.7913914e-39 365 264
0.056941248 0.70599997 -0.029708479 6.5264327e-39 366 264
0.058179103 0.70599997 -0.029708479 6.9874108e-39 367 264
0.059501119 0.70700002 -0.029750559 7.3540326e-39 368 264
0.060740728 0.70700002 -0.029750559 7.2618369e-39 369 264
0.062243331 0.70999998 -0.029876797 5.9718184e-39 370 264
0.063577622 0.71100003 -0.029918881 4.8672813e-39 371 264
0.064824238 0.71100003 -0.029918881 9.3038119e-39 372 264
-0.0049514128 0.70599997 -0.030946331 4.784096e-39 316 265
-0.0037135598 0.70599997 -0.030946331 1.5612034e-39 317 265
-0.0024757064 0.70599997 -0.030946331 4.781222e-39 318 265
-0.0012396066 0.70700002 -0.030990168 6.8095258e-39 319 265
0 0.70599997 -0.030946331 7.4480485e-39 320 265
0.0012378532 0.70599997 -0.030946331 7.1711029e-39 321 265
0.0024757064 0.70599997 -0.030946331 7.7181417e-39 322 265
0.0037030398 0.704 -0.030858666 7.7181417e-39 323 265
0.0049303733 0.70300001 -0.030814834 8.7265301e-39 324 265
0.0061454331 0.70099998 -0.030727165 8.7265301e-39 325 265
0.0073639993 0.69999999 -0.030683333 9.370452e-39 326 265
0.0085913334 0.69999999 -0.030683333 9.370452e-39 327 265
0.0098186666 0.69999999 -0.030683333 9.1882131e-39 328 265
0.01101444 0.69800001 -0.030595668 8.8194362e-39 329 265
0.012238266 0.69800001 -0.030595668 8.9091193e-39 330 265
0.013462093 0.69800001 -0.030595668 8.6325366e-39 331 265
0.01466488 0.69700003 -0.030551834 8.4488656e-39 332 265
0.015886955 0.69700003 -0.030551834 8.4488656e-39 333 265
0.017109027 0.69700003 -0.030551834 7.9896882e-39 334 265
0.018331099 0.69700003 -0.030551834 8.0815237e-39 335 265
0.019553173 0.69700003 -0.030551834 7.8989289e-39 336 265
0.020745439 0.69599998 -0.030507999 8.1755116e-39 337 265
0.021965759 0.69599998 -0.030507999 8.268782e-39 338 265
0.023186078 0.69599998 -0.030507999 8.3609762e-39 339 265
0.024336265 0.69400001 -0.030420333 7.9929168e-39 340 265
0.025553079 0.69400001 -0.030420333 7.7163341e-39 341 265
0.026769891 0.69400001 -0.030420333 7.0731269e-39 342 265
0.027986705 0.69400001 -0.030420333 6.9809326e-39 343 265
0.029203519 0.69400001 -0.030420333 6.2476836e-39 344 265
0.030420333 0.69400001 -0.030420333 6.3402366e-39 345 265
0.031637147 0.69400001 -0.030420333 5.975047e-39 346 265
0.032853961 0.69400001 -0.030420333 6.0672412e-39 347 265
0.034070771 0.69400001 -0.030420333 6.1597942e-39 348 265
0.035287585 0.69400001 -0.030420333 6.1597942e-39 349 265
0.036504399 0.69400001 -0.030420333 6.342389e-39 350 265
0.037721213 0.69400001 -0.030420333 6.342389e-39 351 265
0.039162453 0.69800001 -0.030595668 6.4320721e-39 352 265
0.040675577 0.70300001 -0.030814834 6.2476836e-39 353 265
0.041908171 0.70300001 -0.030814834 5.8785494e-39 354 265
0.043140765 0.70300001 -0.030814834 5.6941595e-39 355 265
0.04437336 0.70300001 -0.030814834 5.234982e-39 356 265
0.045476202 0.70099998 -0.030727165 5.5112088e-39 357 265
0.046705291 0.70099998 -0.030727165 5.2374987e-39 358 265
0.047934376 0.70099998 -0.030727165 5.3296944e-39 359 265
0.049163464 0.70099998 -0.030727165 4.9630699e-39 360 265
0.050392549 0.70099998 -0.030727165 5.1478198e-39 361 265
0.051621638 0.70099998 -0.030727165 4.8726721e-39 362 265
0.053001512 0.70300001 -0.030814834 4.9648691e-39 363 265
0.054311249 0.704 -0.030858666 5.2396609e-39 364 265
0.055545598 0.704 -0.030858666 5.3322153e-39 365 265
0.056941248 0.70599997 -0.030946331 6.3431232e-39 366 265
0.058179103 0.70599997 -0.030946331 6.711547e-39 367 265
0.059501119 0.70700002 -0.030990168 7.1714392e-39 368 265
0.060740728 0.70700002 -0.030990168 6.8022979e-39 369 265
0.062243331 0.70999998 -0.031121666 5.8792682e-39 370 265
0.063577622 0.71100003 -0.031165501 4.3162683e-39 371 265
0.064824238 0.71100003 -0.031165501 8.0130758e-39 372 265
-0.0049584266 0.70700002 -0.032229774 3.9528934e-39 316 266
-0.0037135598 0.70599997 -0.032184184 2.3877229e-39 317 266
-0.0024757064 0.70599997 -0.032184184 4.135505e-39 318 266
-0.0012378532 0.70599997 -0.032184184 4.8730701e-39 319 266
0 0.70599997 -0.032184184 6.0662225e-39 320 266
0.0012378532 0.70599997 -0.032184184 5.9740254e-39 321 266
0.0024686933 0.704 -0.032093015 7.2586153e-39 322 266
0.0036977797 0.70300001 -0.032047424 7.1664197e-39 323 266
0.0049163462 0.70099998 -0.031956252 7.9925678e-39 324 266
0.0061366665 0.69999999 -0.031910665 8.3609916e-39 325 266
0.0073639993 0.69999999 -0.031910665 8.7297573e-39 326 266
0.0085667865 0.69800001 -0.031819493 8.9141486e-39 327 266
0.0097906133 0.69800001 -0.031819493 9.5559139e-39 328 266
0.01101444 0.69800001 -0.031819493 9.5559139e-39 329 266
0.012220734 0.69700003 -0.03177391 9.3700905e-39 330 266
0.013442807 0.69700003 -0.03177391 9.2778962e-39 331 266
0.01460176 0.69400001 -0.031637147 9.093149e-39 332 266
0.015818574 0.69400001 -0.031637147 9.0009548e-39 333 266
0.017035386 0.69400001 -0.031637147 9.0009548e-39 334 266
0.0182522 0.69400001 -0.031637147 9.1853433e-39 335 266
