# .PCD v.7 - Point Cloud Data file format
FIELDS x y z rgb imX imY
SIZE 4 4 4 4 4 4
TYPE F F F F F F
COUNT 1 1 1 1 1 1
WIDTH 831
HEIGHT 1
VIEWPOINT 0 0 0 1 0 0 0
POINTS 831
DATA ascii
0.036977798 0.70300001 -0.032047424 1.1054698e-38 350 266
0.038264744 0.704 -0.032093015 1.1054698e-38 351 266
0.039499093 0.704 -0.032093015 1.1054339e-38 352 266
0.040849157 0.70599997 -0.032184184 1.0778115e-38 353 266
0.042087011 0.70599997 -0.032184184 1.0778115e-38 354 266
0.043324865 0.70599997 -0.032184184 1.0778115e-38 355 266
0.044688959 0.708 -0.03227536 1.0777756e-38 356 266
0.046060063 0.70999998 -0.032366529 1.0777756e-38 357 266
0.047371563 0.71100003 -0.032412119 1.0685203e-38 358 266
0.048754938 0.713 -0.032503292 1.0593009e-38 359 266
0.050005067 0.713 -0.032503292 1.0683076e-38 360 266
0.05132708 0.71399999 -0.032548878 1.1236249e-38 361 266
0.052578956 0.71399999 -0.032548878 1.1972774e-38 362 266
0.053830836 0.71399999 -0.032548878 1.3079122e-38 363 266
-0.020114239 0.71700001 -0.033942781 1.2898323e-38 304 267
-0.018857099 0.71700001 -0.033942781 1.1884531e-38 305 267
-0.017575413 0.71600002 -0.03389544 1.1885208e-38 306 267
-0.016251646 0.713 -0.033753417 1.1147284e-38 307 267
-0.015001519 0.713 -0.033753417 1.1515682e-38 308 267
-0.01371282 0.71100003 -0.033658739 1.1423486e-38 309 267
-0.012448666 0.70999998 -0.033611398 1.1608583e-38 310 267
-0.01117224 0.708 -0.033516716 1.1792976e-38 311 267
-0.0099168532 0.70700002 -0.033469379 1.2069562e-38 312 267
-0.0086649731 0.70599997 -0.033422034 1.2069562e-38 313 267
-0.0073955595 0.70300001 -0.033280019 1.2253597e-38 314 267
-0.0061454331 0.70099998 -0.03318534 1.2346151e-38 315 267
-0.0049163462 0.70099998 -0.03318534 1.2346869e-38 316 267
-0.0036819996 0.69999999 -0.033137999 1.2346869e-38 317 267
-0.0024546667 0.69999999 -0.033137999 1.2347221e-38 318 267
-0.0012273333 0.69999999 -0.033137999 1.2255025e-38 319 267
0 0.69999999 -0.033137999 1.2346852e-38 320 267
0.0012273333 0.69999999 -0.033137999 1.2254658e-38 321 267
0.0024546667 0.69999999 -0.033137999 1.2347211e-38 322 267
0.0036714801 0.69800001 -0.033043321 1.2255016e-38 323 267
0.0048953067 0.69800001 -0.033043321 1.2346135e-38 324 267
0.006119133 0.69800001 -0.033043321 1.2069552e-38 325 267
0.0073429602 0.69800001 -0.033043321 1.1885163e-38 326 267
0.0085545136 0.69700003 -0.03299598 1.1885163e-38 327 267
0.0097765867 0.69700003 -0.03299598 1.1885163e-38 328 267
0.01095132 0.69400001 -0.032853961 1.1792969e-38 329 267
0.012168133 0.69400001 -0.032853961 1.1976999e-38 330 267
0.013423519 0.69599998 -0.032948639 1.2161029e-38 331 267
0.014643839 0.69599998 -0.032948639 1.2345058e-38 332 267
0.015864158 0.69599998 -0.032948639 1.2529088e-38 333 267
0.017084479 0.69599998 -0.032948639 1.2345058e-38 334 267
0.018304799 0.69599998 -0.032948639 1.216067e-38 335 267
0.019525118 0.69599998 -0.032948639 1.2343623e-38 336 267
0.020745439 0.69599998 -0.032948639 1.2159594e-38 337 267
0.021965759 0.69599998 -0.032948639 1.1975564e-38 338 267
0.023186078 0.69599998 -0.032948639 1.1975564e-38 339 267
0.0244064 0.69599998 -0.032948639 1.1607504e-38 340 267
0.025626717 0.69599998 -0.032948639 1.151531e-38 341 267
0.026885614 0.69700003 -0.03299598 1.1330922e-38 342 267
0.028148014 0.69800001 -0.033043321 1.1330922e-38 343 267
0.029371841 0.69800001 -0.033043321 1.1238369e-38 344 267
0.030683333 0.69999999 -0.033137999 1.1146175e-38 345 267
0.031910665 0.69999999 -0.033137999 1.1329846e-38 346 267
0.03318534 0.70099998 -0.03318534 1.142204e-38 347 267
0.034414422 0.70099998 -0.03318534 1.1146533e-38 348 267
0.035745207 0.70300001 -0.033280019 1.1054339e-38 349 267
0.036977798 0.70300001 -0.033280019 1.0870668e-38 350 267
0.038264744 0.704 -0.03332736 1.1054698e-38 351 267
0.039499093 0.704 -0.03332736 1.0961427e-38 352 267
0.040733438 0.704 -0.03332736 1.0961427e-38 353 267
0.042087011 0.70599997 -0.033422034 1.0869233e-38 354 267
0.043324865 0.70599997 -0.033422034 1.0961427e-38 355 267
0.044625837 0.70700002 -0.033469379 1.0685921e-38 356 267
0.045930319 0.708 -0.033516716 1.0593727e-38 357 267
0.047371563 0.71100003 -0.033658739 1.0684486e-38 358 267
0.048754938 0.713 -0.033753417 1.0592292e-38 359 267
0.050005067 0.713 -0.033753417 1.105041e-38 360 267
0.05132708 0.71399999 -0.033800758 1.1695779e-38 361 267
0.052726239 0.71600002 -0.03389544 1.1973127e-38 362 267
0.053981625 0.71600002 -0.03389544 1.3079475e-38 363 267
-0.0188308 0.71600002 -0.035150826 1.1977443e-38 305 268
-0.017575413 0.71600002 -0.035150826 1.1608973e-38 306 268
-0.016251646 0.713 -0.035003547 1.1240189e-38 307 268
-0.014959441 0.71100003 -0.034905359 1.1239818e-38 308 268
-0.01371282 0.71100003 -0.034905359 1.1239818e-38 309 268
-0.012448666 0.70999998 -0.034856264 1.1516756e-38 310 268
-0.01117224 0.708 -0.034758076 1.1608952e-38 311 268
-0.0099028256 0.70599997 -0.034659892 1.1885896e-38 312 268
-0.0086649731 0.70599997 -0.034659892 1.1978092e-38 313 268
-0.0073955595 0.70300001 -0.034512613 1.1885896e-38 314 268
-0.0061454331 0.70099998 -0.034414422 1.2070288e-38 315 268
-0.0049163462 0.70099998 -0.034414422 1.2163201e-38 316 268
-0.0036819996 0.69999999 -0.034365334 1.2255755e-38 317 268
-0.0024546667 0.69999999 -0.034365334 1.2440136e-38 318 268
-0.0012273333 0.69999999 -0.034365334 1.2256105e-38 319 268
0 0.69999999 -0.034365334 1.2439768e-38 320 268
0.0012273333 0.69999999 -0.034365334 1.2347571e-38 321 268
0.0024546667 0.69999999 -0.034365334 1.2346852e-38 322 268
0.0036714801 0.69800001 -0.034267146 1.2254658e-38 323 268
0.0048953067 0.69800001 -0.034267146 1.2161387e-38 324 268
0.006119133 0.69800001 -0.034267146 1.1976999e-38 325 268
0.00733244 0.69700003 -0.034218054 1.1976281e-38 326 268
0.0085545136 0.69700003 -0.034218054 1.1883728e-38 327 268
0.0097625591 0.69599998 -0.034168959 1.1608939e-38 328 268
0.01095132 0.69400001 -0.034070771 1.1516745e-38 329 268
0.012168133 0.69400001 -0.034070771 1.1885163e-38 330 268
0.013384946 0.69400001 -0.034070771 1.1885163e-38 331 268
0.01460176 0.69400001 -0.034070771 1.2161029e-38 332 268
0.015818574 0.69400001 -0.034070771 1.2161029e-38 333 268
0.017035386 0.69400001 -0.034070771 1.2161029e-38 334 268
0.0182522 0.69400001 -0.034070771 1.1884446e-38 335 268
0.019469013 0.69400001 -0.034070771 1.1792252e-38 336 268
0.020685827 0.69400001 -0.034070771 1.1792252e-38 337 268
0.021902639 0.69400001 -0.034070771 1.1792252e-38 338 268
0.023186078 0.69599998 -0.034168959 1.1700057e-38 339 268
0.0244064 0.69599998 -0.034168959 1.1882294e-38 340 268
0.025626717 0.69599998 -0.034168959 1.1790099e-38 341 268
0.026847038 0.69599998 -0.034168959 1.1330563e-38 342 268
0.028067358 0.69599998 -0.034168959 1.1238369e-38 343 268
0.029371841 0.69800001 -0.034267146 1.1054339e-38 344 268
0.030595668 0.69800001 -0.034267146 1.1054339e-38 345 268
0.031819493 0.69800001 -0.034267146 1.1054698e-38 346 268
0.033137999 0.69999999 -0.034365334 1.0870668e-38 347 268
0.034365334 0.69999999 -0.034365334 1.0870668e-38 348 268
0.035643511 0.70099998 -0.034414422 1.0778474e-38 349 268
0.036977798 0.70300001 -0.034512613 1.068628e-38 350 268
0.038210396 0.70300001 -0.034512613 1.050225e-38 351 268
0.039442986 0.70300001 -0.034512613 1.0685562e-38 352 268
0.040733438 0.704 -0.034561705 1.0685562e-38 353 268
0.041967787 0.704 -0.034561705 1.0869233e-38 354 268
0.043324865 0.70599997 -0.034659892 1.0869233e-38 355 268
0.044625837 0.70700002 -0.034708988 1.0685562e-38 356 268
0.045865446 0.70700002 -0.034708988 1.0593368e-38 357 268
0.047304932 0.70999998 -0.034856264 1.0592292e-38 358 268
0.048618179 0.71100003 -0.034905359 1.0500098e-38 359 268
0.050005067 0.713 -0.035003547 1.0683073e-38 360 268
0.05132708 0.71399999 -0.035052639 1.1328443e-38 361 268
0.052726239 0.71600002 -0.035150826 1.1882376e-38 362 268
0.054057021 0.71700001 -0.035199918 1.2712497e-38 363 268
-0.018857099 0.71700001 -0.036457058 1.2068916e-38 305 269
-0.017599959 0.71700001 -0.036457058 1.1608973e-38 306 269
-0.016251646 0.713 -0.036253672 1.1240189e-38 307 269
-0.014938398 0.70999998 -0.036101133 1.1240174e-38 308 269
-0.013693533 0.70999998 -0.036101133 1.1240174e-38 309 269
-0.0124136 0.708 -0.03599944 1.1516754e-38 310 269
-0.011156459 0.70700002 -0.035948593 1.1608949e-38 311 269
-0.0099028256 0.70599997 -0.035897743 1.1793698e-38 312 269
-0.0086649731 0.70599997 -0.035897743 1.1885893e-38 313 269
-0.0074060797 0.704 -0.035796054 1.188554e-38 314 269
-0.0061629666 0.70300001 -0.035745207 1.207029e-38 315 269
-0.0049163462 0.70099998 -0.035643511 1.2071374e-38 316 269
-0.0036872597 0.70099998 -0.035643511 1.2255765e-38 317 269
-0.0024546667 0.69999999 -0.035592664 1.2348316e-38 318 269
-0.0012273333 0.69999999 -0.035592664 1.2256121e-38 319 269
0 0.69999999 -0.035592664 1.2256471e-38 320 269
0.0012273333 0.69999999 -0.035592664 1.2164275e-38 321 269
0.0024546667 0.69999999 -0.035592664 1.2255752e-38 322 269
0.0036714801 0.69800001 -0.035490975 1.207136e-38 323 269
0.0048882933 0.69700003 -0.035440128 1.2161401e-38 324 269
0.0061103669 0.69700003 -0.035440128 1.197701e-38 325 269
0.0073219193 0.69599998 -0.035389278 1.1791896e-38 326 269
0.0085422397 0.69599998 -0.035389278 1.1791896e-38 327 269
0.0097345067 0.69400001 -0.035287585 1.1700057e-38 328 269
0.01095132 0.69400001 -0.035287585 1.1700057e-38 329 269
0.012168133 0.69400001 -0.035287585 1.179261e-38 330 269
0.013384946 0.69400001 -0.035287585 1.1885163e-38 331 269
0.01460176 0.69400001 -0.035287585 1.2067758e-38 332 269
0.015818574 0.69400001 -0.035287585 1.2159952e-38 333 269
0.017035386 0.69400001 -0.035287585 1.2067758e-38 334 269
0.0182522 0.69400001 -0.035287585 1.1975564e-38 335 269
0.019469013 0.69400001 -0.035287585 1.188337e-38 336 269
0.020685827 0.69400001 -0.035287585 1.188337e-38 337 269
0.021902639 0.69400001 -0.035287585 1.1516386e-38 338 269
0.023119451 0.69400001 -0.035287585 1.1424192e-38 339 269
0.024336265 0.69400001 -0.035287585 1.1606787e-38 340 269
0.025553079 0.69400001 -0.035287585 1.142204e-38 341 269
0.026847038 0.69599998 -0.035389278 1.1238728e-38 342 269
0.028067358 0.69599998 -0.035389278 1.1146533e-38 343 269
0.02932976 0.69700003 -0.035440128 1.0870668e-38 344 269
0.030551834 0.69700003 -0.035440128 1.0870668e-38 345 269
0.031819493 0.69800001 -0.035490975 1.0870668e-38 346 269
0.033043321 0.69800001 -0.035490975 1.0870668e-38 347 269
0.034365334 0.69999999 -0.035592664 1.0961786e-38 348 269
0.035592664 0.69999999 -0.035592664 1.0869233e-38 349 269
0.036872596 0.70099998 -0.035643511 1.0685921e-38 350 269
0.038101684 0.70099998 -0.035643511 1.0593727e-38 351 269
0.039442986 0.70300001 -0.035745207 1.0593727e-38 352 269
0.040675577 0.70300001 -0.035745207 1.0593727e-38 353 269
0.041967787 0.704 -0.035796054 1.0593727e-38 354 269
0.043324865 0.70599997 -0.035897743 1.0593727e-38 355 269
0.044562716 0.70599997 -0.035897743 1.0593727e-38 356 269
0.045865446 0.70700002 -0.035948593 1.0501174e-38 357 269
0.047171678 0.708 -0.03599944 1.0683769e-38 358 269
0.048549797 0.70999998 -0.036101133 1.0683769e-38 359 269
0.049864799 0.71100003 -0.036151983 1.0681993e-38 360 269
0.051255193 0.713 -0.036253672 1.1327363e-38 361 269
0.052578956 0.71399999 -0.036304519 1.1973496e-38 362 269
0.054057021 0.71700001 -0.036457058 1.2803256e-38 363 269
-0.020086186 0.71600002 -0.037661601 1.2899392e-38 304 270
-0.0188308 0.71600002 -0.037661601 1.1977796e-38 305 270
-0.01745268 0.71100003 -0.037398599 1.1792644e-38 306 270
-0.01620606 0.71100003 -0.037398599 1.1331666e-38 307 270
-0.014938398 0.70999998 -0.037345998 1.124089e-38 308 270
-0.013693533 0.70999998 -0.037345998 1.124089e-38 309 270
-0.0124136 0.708 -0.0372408 1.1333441e-38 310 270
-0.011156459 0.70700002 -0.037188202 1.1333441e-38 311 270
-0.0099028256 0.70599997 -0.037135597 1.1425637e-38 312 270
-0.0086649731 0.70599997 -0.037135597 1.1425637e-38 313 270
-0.0074060797 0.704 -0.037030395 1.1609677e-38 314 270
-0.0061629666 0.70300001 -0.036977798 1.1886262e-38 315 270
-0.0049163462 0.70099998 -0.036872596 1.1886988e-38 316 270
-0.0036872597 0.70099998 -0.036872596 1.225577e-38 317 270
-0.0024546667 0.69999999 -0.036819998 1.2440159e-38 318 270
-0.0012273333 0.69999999 -0.036819998 1.2532713e-38 319 270
0 0.69999999 -0.036819998 1.2441228e-38 320 270
0.0012273333 0.69999999 -0.036819998 1.2349032e-38 321 270
0.0024476533 0.69800001 -0.0367148 1.2256837e-38 322 270
0.0036714801 0.69800001 -0.0367148 1.2072806e-38 323 270
0.0048882933 0.69700003 -0.036662199 1.207065e-38 324 270
0.0061103669 0.69700003 -0.036662199 1.1794064e-38 325 270
0.0073219193 0.69599998 -0.036609598 1.1608946e-38 326 270
0.0085422397 0.69599998 -0.036609598 1.1516751e-38 327 270
0.0097345067 0.69400001 -0.036504399 1.1516745e-38 328 270
0.01095132 0.69400001 -0.036504399 1.1516745e-38 329 270
0.012168133 0.69400001 -0.036504399 1.1700057e-38 330 270
0.013384946 0.69400001 -0.036504399 1.1700057e-38 331 270
0.01460176 0.69400001 -0.036504399 1.1791893e-38 332 270
0.015818574 0.69400001 -0.036504399 1.1791893e-38 333 270
0.017035386 0.69400001 -0.036504399 1.1883011e-38 334 270
0.0182522 0.69400001 -0.036504399 1.1698981e-38 335 270
0.019469013 0.69400001 -0.036504399 1.151531e-38 336 270
0.020685827 0.69400001 -0.036504399 1.151531e-38 337 270
0.021902639 0.69400001 -0.036504399 1.151531e-38 338 270
0.023119451 0.69400001 -0.036504399 1.1330922e-38 339 270
0.024336265 0.69400001 -0.036504399 1.1238728e-38 340 270
0.025553079 0.69400001 -0.036504399 1.1146533e-38 341 270
0.026847038 0.69599998 -0.036609598 1.1237651e-38 342 270
0.028067358 0.69599998 -0.036609598 1.1053622e-38 343 270
0.029287677 0.69599998 -0.036609598 1.0961427e-38 344 270
0.030551834 0.69700003 -0.036662199 1.0961427e-38 345 270
0.03177391 0.69700003 -0.036662199 1.0961427e-38 346 270
0.033043321 0.69800001 -0.0367148 1.0869233e-38 347 270
0.034267146 0.69800001 -0.0367148 1.0869233e-38 348 270
0.035592664 0.69999999 -0.036819998 1.0685203e-38 349 270
0.036872596 0.70099998 -0.036872596 1.0593368e-38 350 270
0.038101684 0.70099998 -0.036872596 1.0593368e-38 351 270
0.039442986 0.70300001 -0.036977798 1.0685203e-38 352 270
0.040675577 0.70300001 -0.036977798 1.0685203e-38 353 270
0.041967787 0.704 -0.037030395 1.0868516e-38 354 270
0.043324865 0.70599997 -0.037135597 1.0776322e-38 355 270
0.044562716 0.70599997 -0.037135597 1.0776322e-38 356 270
0.045865446 0.70700002 -0.037188202 1.0591933e-38 357 270
0.047171678 0.708 -0.0372408 1.0590498e-38 358 270
0.048549797 0.70999998 -0.037345998 1.0683051e-38 359 270
0.049864799 0.71100003 -0.037398599 1.0589797e-38 360 270
0.051255193 0.713 -0.037503798 1.1235167e-38 361 270
0.052505318 0.713 -0.037503798 1.2248641e-38 362 270
0.053755447 0.713 -0.037503798 1.3170598e-38 363 270
-0.021371379 0.71700001 -0.038971342 1.335968e-38 303 271
-0.020086186 0.71600002 -0.038916986 1.3082695e-38 304 271
-0.0188308 0.71600002 -0.038916986 1.2253294e-38 305 271
-0.017526319 0.71399999 -0.038808275 1.1792641e-38 306 271
-0.01620606 0.71100003 -0.038645219 1.1516053e-38 307 271
-0.014938398 0.70999998 -0.038590867 1.1148694e-38 308 271
-0.013693533 0.70999998 -0.038590867 1.1148694e-38 309 271
-0.0124136 0.708 -0.038482159 1.1240171e-38 310 271
-0.011156459 0.70700002 -0.038427804 1.1332367e-38 311 271
-0.0099028256 0.70599997 -0.038373452 1.1333085e-38 312 271
-0.0086649731 0.70599997 -0.038373452 1.142564e-38 313 271
-0.0074060797 0.704 -0.038264744 1.1425287e-38 314 271
-0.0061629666 0.70300001 -0.038210396 1.179371e-38 315 271
-0.0049163462 0.70099998 -0.038101684 1.1794442e-38 316 271
-0.0036872597 0.70099998 -0.038101684 1.207067e-38 317 271
-0.0024546667 0.69999999 -0.038047329 1.2347979e-38 318 271
-0.0012273333 0.69999999 -0.038047329 1.253273e-38 319 271
0 0.69999999 -0.038047329 1.2350484e-38 320 271
0.0012273333 0.69999999 -0.038047329 1.2258289e-38 321 271
0.0024476533 0.69800001 -0.037938625 1.2257921e-38 322 271
0.0036714801 0.69800001 -0.037938625 1.2073171e-38 323 271
0.0048882933 0.69700003 -0.037884273 1.2163206e-38 324 271
0.0061103669 0.69700003 -0.037884273 1.1886259e-38 325 271
0.0073219193 0.69599998 -0.037829921 1.1792976e-38 326 271
0.0085176928 0.69400001 -0.037721213 1.1608583e-38 327 271
0.0097345067 0.69400001 -0.037721213 1.1424192e-38 328 271
0.01095132 0.69400001 -0.037721213 1.1424192e-38 329 271
0.012168133 0.69400001 -0.037721213 1.1424551e-38 330 271
0.013384946 0.69400001 -0.037721213 1.1424551e-38 331 271
0.01460176 0.69400001 -0.037721213 1.1423833e-38 332 271
0.015818574 0.69400001 -0.037721213 1.1423833e-38 333 271
0.017035386 0.69400001 -0.037721213 1.151531e-38 334 271
0.0182522 0.69400001 -0.037721213 1.1330922e-38 335 271
0.019469013 0.69400001 -0.037721213 1.1514593e-38 336 271
0.020685827 0.69400001 -0.037721213 1.1514593e-38 337 271
0.021902639 0.69400001 -0.037721213 1.1147251e-38 338 271
0.023119451 0.69400001 -0.037721213 1.1147251e-38 339 271
0.024336265 0.69400001 -0.037721213 1.1146533e-38 340 271
0.025553079 0.69400001 -0.037721213 1.1054339e-38 341 271
0.026769891 0.69400001 -0.037721213 1.1237293e-38 342 271
0.028067358 0.69599998 -0.037829921 1.1053263e-38 343 271
0.029287677 0.69599998 -0.037829921 1.0685562e-38 344 271
0.030507999 0.69599998 -0.037829921 1.0685562e-38 345 271
0.03177391 0.69700003 -0.037884273 1.0869233e-38 346 271
0.033043321 0.69800001 -0.037938625 1.0869233e-38 347 271
0.034267146 0.69800001 -0.037938625 1.0685921e-38 348 271
0.035592664 0.69999999 -0.038047329 1.0593727e-38 349 271
0.036872596 0.70099998 -0.038101684 1.0317861e-38 350 271
0.038101684 0.70099998 -0.038101684 1.0225667e-38 351 271
0.039442986 0.70300001 -0.038210396 1.040898e-38 352 271
0.040675577 0.70300001 -0.038210396 1.040898e-38 353 271
0.041967787 0.704 -0.038264744 1.0500815e-38 354 271
0.043324865 0.70599997 -0.038373452 1.0408262e-38 355 271
0.044562716 0.70599997 -0.038373452 1.0408262e-38 356 271
0.045865446 0.70700002 -0.038427804 1.0408262e-38 357 271
0.047171678 0.708 -0.038482159 1.0682692e-38 358 271
0.048549797 0.70999998 -0.038590867 1.0682692e-38 359 271
0.049864799 0.71100003 -0.038645219 1.0681993e-38 360 271
0.051111419 0.71100003 -0.038645219 1.1235167e-38 361 271
0.052505318 0.713 -0.038753927 1.2248635e-38 362 271
0.053755447 0.713 -0.038753927 1.3078754e-38 363 271
-0.021371379 0.71700001 -0.040228479 1.3359324e-38 303 272
-0.020114239 0.71700001 -0.040228479 1.2990872e-38 304 272
-0.0188308 0.71600002 -0.040172372 1.1884526e-38 305 272
-0.017526319 0.71399999 -0.040060159 1.1884489e-38 306 272
-0.016251646 0.713 -0.040004052 1.1331316e-38 307 272
-0.014938398 0.70999998 -0.039835732 1.1240174e-38 308 272
-0.013693533 0.70999998 -0.039835732 1.1147978e-38 309 272
-0.0124136 0.708 -0.039723519 1.1240524e-38 310 272
-0.011156459 0.70700002 -0.039667413 1.1240524e-38 311 272
-0.0099028256 0.70599997 -0.039611302 1.133272e-38 312 272
-0.0086649731 0.70599997 -0.039611302 1.1516751e-38 313 272
-0.0074060797 0.704 -0.039499093 1.1608952e-38 314 272
-0.0061629666 0.70300001 -0.039442986 1.1701149e-38 315 272
-0.0049163462 0.70099998 -0.039330769 1.1793357e-38 316 272
-0.0036872597 0.70099998 -0.039330769 1.2070303e-38 317 272
-0.0024546667 0.69999999 -0.039274666 1.2255061e-38 318 272
-0.0012273333 0.69999999 -0.039274666 1.2532007e-38 319 272
0 0.69999999 -0.039274666 1.2532727e-38 320 272
0.0012273333 0.69999999 -0.039274666 1.2717118e-38 321 272
0.0024476533 0.69800001 -0.039162453 1.2350131e-38 322 272
0.0036714801 0.69800001 -0.039162453 1.1981707e-38 323 272
0.0048882933 0.69700003 -0.039106347 1.1979904e-38 324 272
0.0061103669 0.69700003 -0.039106347 1.1795511e-38 325 272
0.0073219193 0.69599998 -0.039050236 1.1609677e-38 326 272
0.0085176928 0.69400001 -0.038938027 1.1425284e-38 327 272
0.0097345067 0.69400001 -0.038938027 1.1240527e-38 328 272
0.01095132 0.69400001 -0.038938027 1.1332722e-38 329 272
0.012168133 0.69400001 -0.038938027 1.124088e-38 330 272
0.013384946 0.69400001 -0.038938027 1.1148686e-38 331 272
0.01460176 0.69400001 -0.038938027 1.1331639e-38 332 272
0.015818574 0.69400001 -0.038938027 1.1239445e-38 333 272
0.017035386 0.69400001 -0.038938027 1.1697905e-38 334 272
0.018225901 0.69300002 -0.03888192 1.1697905e-38 335 272
0.01944096 0.69300002 -0.03888192 1.1330922e-38 336 272
0.020685827 0.69400001 -0.038938027 1.1238728e-38 337 272
0.021902639 0.69400001 -0.038938027 1.1146533e-38 338 272
0.023119451 0.69400001 -0.038938027 1.1146533e-38 339 272
0.024336265 0.69400001 -0.038938027 1.0961786e-38 340 272
0.025553079 0.69400001 -0.038938027 1.0961786e-38 341 272
0.026769891 0.69400001 -0.038938027 1.096071e-38 342 272
0.028067358 0.69599998 -0.039050236 1.096071e-38 343 272
0.029287677 0.69599998 -0.039050236 1.0685562e-38 344 272
0.030507999 0.69599998 -0.039050236 1.0685562e-38 345 272
0.03177391 0.69700003 -0.039106347 1.0685562e-38 346 272
0.033043321 0.69800001 -0.039162453 1.0593368e-38 347 272
0.034267146 0.69800001 -0.039162453 1.0593368e-38 348 272
0.035592664 0.69999999 -0.039274666 1.0501174e-38 349 272
0.036819998 0.69999999 -0.039274666 1.0225667e-38 350 272
0.038101684 0.70099998 -0.039330769 1.0225667e-38 351 272
0.039442986 0.70300001 -0.039442986 1.040898e-38 352 272
0.040675577 0.70300001 -0.039442986 1.022495e-38 353 272
0.041967787 0.704 -0.039499093 1.0408262e-38 354 272
0.043324865 0.70599997 -0.039611302 1.0408262e-38 355 272
0.044562716 0.70599997 -0.039611302 1.0591574e-38 356 272
0.045865446 0.70700002 -0.039667413 1.0407545e-38 357 272
0.047171678 0.708 -0.039723519 1.0682692e-38 358 272
0.048549797 0.70999998 -0.039835732 1.0682692e-38 359 272
0.049794663 0.70999998 -0.039835732 1.0957135e-38 360 272
0.051111419 0.71100003 -0.039891839 1.1602505e-38 361 272
0.052505318 0.713 -0.040004052 1.2156076e-38 362 272
-0.020114239 0.71700001 -0.041485619 1.2989077e-38 304 273
-0.018857099 0.71700001 -0.041485619 1.2067122e-38 305 273
-0.017575413 0.71600002 -0.041427758 1.1791222e-38 306 273
-0.016251646 0.713 -0.041254178 1.1514275e-38 307 273
-0.014959441 0.71100003 -0.041138459 1.142277e-38 308 273
-0.013693533 0.70999998 -0.041080594 1.142277e-38 309 273
-0.0124136 0.708 -0.040964879 1.1240171e-38 310 273
-0.011156459 0.70700002 -0.040907022 1.1240171e-38 311 273
-0.0099028256 0.70599997 -0.040849157 1.1241246e-38 312 273
-0.0086649731 0.70599997 -0.040849157 1.1425637e-38 313 273
-0.0074060797 0.704 -0.040733438 1.1149776e-38 314 273
-0.0061629666 0.70300001 -0.040675577 1.1426004e-38 315 273
-0.0049163462 0.70099998 -0.040559858 1.1609692e-38 316 273
-0.0036872597 0.70099998 -0.040559858 1.1794442e-38 317 273
-0.0024546667 0.69999999 -0.040502001 1.1611865e-38 318 273
-0.0012273333 0.69999999 -0.040502001 1.1888452e-38 319 273
0 0.69999999 -0.040502001 1.2257229e-38 320 273
0.0012238267 0.69800001 -0.040386278 1.2441979e-38 321 273
0.0024476533 0.69800001 -0.040386278 1.2165382e-38 322 273
0.0036714801 0.69800001 -0.040386278 1.1889156e-38 323 273
0.0048882933 0.69700003 -0.040328421 1.1887711e-38 324 273
0.0061103669 0.69700003 -0.040328421 1.1610764e-38 325 273
0.0073219193 0.69599998 -0.040270556 1.1517481e-38 326 273
0.0085176928 0.69400001 -0.040154841 1.1333088e-38 327 273
0.0097345067 0.69400001 -0.040154841 1.1241246e-38 328 273
0.01095132 0.69400001 -0.040154841 1.1241246e-38 329 273
0.012168133 0.69400001 -0.040154841 1.124088e-38 330 273
0.013384946 0.69400001 -0.040154841 1.1148686e-38 331 273
0.01460176 0.69400001 -0.040154841 1.1331639e-38 332 273
0.015818574 0.69400001 -0.040154841 1.1331639e-38 333 273
0.017035386 0.69400001 -0.040154841 1.1330922e-38 334 273
0.018225901 0.69300002 -0.04009698 1.1330922e-38 335 273
0.01944096 0.69300002 -0.04009698 1.1146892e-38 336 273
0.020685827 0.69400001 -0.040154841 1.1054698e-38 337 273
0.021902639 0.69400001 -0.040154841 1.0870668e-38 338 273
0.023119451 0.69400001 -0.040154841 1.0870668e-38 339 273
0.024336265 0.69400001 -0.040154841 1.0961427e-38 340 273
0.025553079 0.69400001 -0.040154841 1.0869233e-38 341 273
0.026769891 0.69400001 -0.040154841 1.0685562e-38 342 273
0.028067358 0.69599998 -0.040270556 1.0593009e-38 343 273
0.029287677 0.69599998 -0.040270556 1.0410056e-38 344 273
0.030551834 0.69700003 -0.040328421 1.050225e-38 345 273
0.03177391 0.69700003 -0.040328421 1.0593368e-38 346 273
0.033043321 0.69800001 -0.040386278 1.0593368e-38 347 273
0.034267146 0.69800001 -0.040386278 1.0408621e-38 348 273
0.035592664 0.69999999 -0.040502001 1.0408621e-38 349 273
0.036819998 0.69999999 -0.040502001 1.004092e-38 350 273
0.038101684 0.70099998 -0.040559858 1.004092e-38 351 273
0.039442986 0.70300001 -0.040675577 1.004092e-38 352 273
0.040675577 0.70300001 -0.040675577 1.004092e-38 353 273
0.041967787 0.704 -0.040733438 1.0132756e-38 354 273
0.043324865 0.70599997 -0.040849157 1.0132756e-38 355 273
0.044562716 0.70599997 -0.040849157 1.0223515e-38 356 273
0.045865446 0.70700002 -0.040907022 1.0315709e-38 357 273
0.047171678 0.708 -0.040964879 1.0407545e-38 358 273
0.048549797 0.70999998 -0.041080594 1.0500098e-38 359 273
0.049794663 0.70999998 -0.041080594 1.0683073e-38 360 273
0.051111419 0.71100003 -0.041138459 1.1328443e-38 361 273
0.052358042 0.71100003 -0.041138459 1.2157521e-38 362 273
-0.020198401 0.72000003 -0.042921603 1.2897251e-38 304 274
-0.018778199 0.71399999 -0.042563915 1.2067491e-38 305 274
-0.017526319 0.71399999 -0.042563915 1.1792659e-38 306 274
-0.016251646 0.713 -0.042504307 1.114729e-38 307 274
-0.014959441 0.71100003 -0.042385083 1.1423486e-38 308 274
-0.013693533 0.70999998 -0.042325463 1.133129e-38 309 274
-0.0124136 0.708 -0.042206239 1.1331641e-38 310 274
-0.01117224 0.708 -0.042206239 1.1331641e-38 311 274
-0.0099168532 0.70700002 -0.042146627 1.124124e-38 312 274
-0.0086649731 0.70599997 -0.042087011 1.124124e-38 313 274
-0.0074060797 0.704 -0.041967787 1.1333441e-38 314 274
-0.0061629666 0.70300001 -0.041908171 1.1425637e-38 315 274
-0.0049163462 0.70099998 -0.041788943 1.1426004e-38 316 274
-0.0036872597 0.70099998 -0.041788943 1.15182e-38 317 274
-0.0024546667 0.69999999 -0.041729331 1.1610045e-38 318 274
-0.0012273333 0.69999999 -0.041729331 1.1794795e-38 319 274
0 0.69800001 -0.041610107 1.170369e-38 320 274
0.0012238267 0.69800001 -0.041610107 1.1888079e-38 321 274
0.0024476533 0.69800001 -0.041610107 1.2162868e-38 322 274
0.00366622 0.69700003 -0.041550495 1.2070673e-38 323 274
0.0048882933 0.69700003 -0.041550495 1.1702246e-38 324 274
0.0061103669 0.69700003 -0.041550495 1.1517496e-38 325 274
0.0073219193 0.69599998 -0.041490879 1.1424934e-38 326 274
0.0085422397 0.69599998 -0.041490879 1.1332738e-38 327 274
0.0097345067 0.69400001 -0.041371655 1.1240537e-38 328 274
0.01095132 0.69400001 -0.041371655 1.1240537e-38 329 274
0.012168133 0.69400001 -0.041371655 1.1240524e-38 330 274
0.013384946 0.69400001 -0.041371655 1.1148328e-38 331 274
0.01460176 0.69400001 -0.041371655 1.1147968e-38 332 274
0.015818574 0.69400001 -0.041371655 1.1055774e-38 333 274
0.01701084 0.69300002 -0.041312039 1.1514952e-38 334 274
0.018225901 0.69300002 -0.041312039 1.1238728e-38 335 274
0.01944096 0.69300002 -0.041312039 1.1054339e-38 336 274
0.020656019 0.69300002 -0.041312039 1.0870309e-38 337 274
0.021871079 0.69300002 -0.041312039 1.0961427e-38 338 274
0.023119451 0.69400001 -0.041371655 1.0961427e-38 339 274
0.024336265 0.69400001 -0.041371655 1.0686638e-38 340 274
0.025553079 0.69400001 -0.041371655 1.0686638e-38 341 274
0.026769891 0.69400001 -0.041371655 1.0593368e-38 342 274
0.028067358 0.69599998 -0.041490879 1.0593368e-38 343 274
0.029287677 0.69599998 -0.041490879 1.0593368e-38 344 274
0.030551834 0.69700003 -0.041550495 1.0593368e-38 345 274
0.03177391 0.69700003 -0.041550495 1.0592651e-38 346 274
0.033043321 0.69800001 -0.041610107 1.0592651e-38 347 274
0.034267146 0.69800001 -0.041610107 1.0224591e-38 348 274
0.035592664 0.69999999 -0.041729331 1.0132397e-38 349 274
0.036819998 0.69999999 -0.041729331 1.0040203e-38 350 274
0.038101684 0.70099998 -0.041788943 9.9480084e-39 351 274
0.039442986 0.70300001 -0.041908171 1.0223515e-38 352 274
0.040675577 0.70300001 -0.041908171 1.0131321e-38 353 274
0.041967787 0.704 -0.041967787 1.0131321e-38 354 274
0.043324865 0.70599997 -0.042087011 1.0131321e-38 355 274
0.044562716 0.70599997 -0.042087011 1.0222797e-38 356 274
0.045865446 0.70700002 -0.042146627 1.0314992e-38 357 274
0.047105055 0.70700002 -0.042146627 1.0407186e-38 358 274
0.048413038 0.708 -0.042206239 1.0591216e-38 359 274
0.049794663 0.70999998 -0.042325463 1.0774545e-38 360 274
0.051039528 0.70999998 -0.042325463 1.1419914e-38 361 274
0.052284397 0.70999998 -0.042325463 1.2341552e-38 362 274
-0.021460801 0.72000003 -0.044183999 1.3635911e-38 303 275
-0.020198401 0.72000003 -0.044183999 1.3173471e-38 304 275
-0.018857099 0.71700001 -0.043999899 1.2343352e-38 305 275
-0.017501773 0.713 -0.043754432 1.1608626e-38 306 275
-0.016251646 0.713 -0.043754432 1.1239483e-38 307 275
-0.014938398 0.70999998 -0.043570329 1.1240527e-38 308 275
-0.013693533 0.70999998 -0.043570329 1.1147972e-38 309 275
-0.0124136 0.708 -0.043447599 1.0965016e-38 310 275
-0.01117224 0.708 -0.043447599 1.1149047e-38 311 275
-0.0099168532 0.70700002 -0.043386232 1.1057575e-38 312 275
-0.0086649731 0.70599997 -0.043324865 1.1057575e-38 313 275
-0.0074060797 0.704 -0.043202132 1.1057578e-38 314 275
-0.0061629666 0.70300001 -0.043140765 1.1149773e-38 315 275
-0.0049163462 0.70099998 -0.043018032 1.114942e-38 316 275
-0.0036872597 0.70099998 -0.043018032 1.114942e-38 317 275
-0.0024546667 0.69999999 -0.042956665 1.1149793e-38 318 275
-0.0012273333 0.69999999 -0.042956665 1.1334184e-38 319 275
0 0.69800001 -0.042833932 1.1426029e-38 320 275
0.0012238267 0.69800001 -0.042833932 1.1702256e-38 321 275
0.0024476533 0.69800001 -0.042833932 1.1702612e-38 322 275
0.00366622 0.69700003 -0.042772565 1.1610416e-38 323 275
0.0048882933 0.69700003 -0.042772565 1.1517133e-38 324 275
0.0061015999 0.69599998 -0.042711195 1.1424936e-38 325 275
0.0073219193 0.69599998 -0.042711195 1.1332735e-38 326 275
0.0085176928 0.69400001 -0.042588469 1.1332735e-38 327 275
0.0097345067 0.69400001 -0.042588469 1.1240893e-38 328 275
0.01095132 0.69400001 -0.042588469 1.1148697e-38 329 275
0.012168133 0.69400001 -0.042588469 1.1148691e-38 330 275
0.013384946 0.69400001 -0.042588469 1.096466e-38 331 275
0.01460176 0.69400001 -0.042588469 1.1055415e-38 332 275
0.015818574 0.69400001 -0.042588469 1.1055415e-38 333 275
0.01701084 0.69300002 -0.042527102 1.1239086e-38 334 275
0.018225901 0.69300002 -0.042527102 1.1146892e-38 335 275
0.01944096 0.69300002 -0.042527102 1.0870309e-38 336 275
0.020656019 0.69300002 -0.042527102 1.0685562e-38 337 275
0.021871079 0.69300002 -0.042527102 1.050225e-38 338 275
0.023119451 0.69400001 -0.042588469 1.050225e-38 339 275
0.024336265 0.69400001 -0.042588469 1.0685562e-38 340 275
0.025553079 0.69400001 -0.042588469 1.0685562e-38 341 275
0.026847038 0.69599998 -0.042711195 1.0593368e-38 342 275
0.028067358 0.69599998 -0.042711195 1.0501174e-38 343 275
0.029287677 0.69599998 -0.042711195 1.0593009e-38 344 275
0.030551834 0.69700003 -0.042772565 1.0593009e-38 345 275
0.03177391 0.69700003 -0.042772565 1.0501174e-38 346 275
0.033043321 0.69800001 -0.042833932 1.040898e-38 347 275
0.034267146 0.69800001 -0.042833932 1.0133114e-38 348 275
0.035592664 0.69999999 -0.042956665 1.004092e-38 349 275
0.036819998 0.69999999 -0.042956665 9.8565316e-39 350 275
0.038047329 0.69999999 -0.042956665 9.7643374e-39 351 275
0.039330769 0.70099998 -0.043018032 1.0131321e-38 352 275
0.040675577 0.70300001 -0.043140765 1.0131321e-38 353 275
0.041967787 0.704 -0.043202132 9.9480084e-39 354 275
0.043324865 0.70599997 -0.043324865 9.8554554e-39 355 275
0.044562716 0.70599997 -0.043324865 1.0130962e-38 356 275
0.045865446 0.70700002 -0.043386232 1.0223156e-38 357 275
0.047105055 0.70700002 -0.043386232 1.0406827e-38 358 275
0.048413038 0.708 -0.043447599 1.0590857e-38 359 275
0.049794663 0.70999998 -0.043570329 1.0774189e-38 360 275
0.051039528 0.70999998 -0.043570329 1.1327363e-38 361 275
0.052284397 0.70999998 -0.043570329 1.2526301e-38 362 275
-0.021430992 0.71899998 -0.045383278 1.372775e-38 303 276
-0.020170346 0.71899998 -0.045383278 1.3173837e-38 304 276
-0.018857099 0.71700001 -0.045257039 1.2436272e-38 305 276
-0.017501773 0.713 -0.045004558 1.170154e-38 306 276
-0.016251646 0.713 -0.045004558 1.1148366e-38 307 276
-0.014938398 0.70999998 -0.044815198 1.1332722e-38 308 276
-0.013693533 0.70999998 -0.044815198 1.1147972e-38 309 276
-0.0124136 0.708 -0.044688959 1.0965016e-38 310 276
-0.011156459 0.70700002 -0.044625837 1.0965016e-38 311 276
-0.0099168532 0.70700002 -0.044625837 1.1057578e-38 312 276
-0.0086649731 0.70599997 -0.044562716 1.1057578e-38 313 276
-0.0074060797 0.704 -0.044436477 1.1148694e-38 314 276
-0.0061717331 0.704 -0.044436477 1.124089e-38 315 276
-0.0049303733 0.70300001 -0.04437336 1.124089e-38 316 276
-0.0036872597 0.70099998 -0.044247117 1.124089e-38 317 276
-0.0024546667 0.69999999 -0.044183996 1.1148344e-38 318 276
-0.0012273333 0.69999999 -0.044183996 1.1332735e-38 319 276
0 0.69800001 -0.04405776 1.1424936e-38 320 276
0.0012238267 0.69800001 -0.04405776 1.1517133e-38 321 276
0.0024476533 0.69800001 -0.04405776 1.1517849e-38 322 276
0.00366622 0.69700003 -0.043994639 1.1517849e-38 323 276
0.0048882933 0.69700003 -0.043994639 1.1424931e-38 324 276
0.0061015999 0.69599998 -0.043931518 1.1424931e-38 325 276
0.0073219193 0.69599998 -0.043931518 1.1332016e-38 326 276
0.0085176928 0.69400001 -0.043805279 1.1332016e-38 327 276
0.0097345067 0.69400001 -0.043805279 1.1240539e-38 328 276
0.01095132 0.69400001 -0.043805279 1.1148344e-38 329 276
0.012168133 0.69400001 -0.043805279 1.1055424e-38 330 276
0.013384946 0.69400001 -0.043805279 1.0963227e-38 331 276
0.01460176 0.69400001 -0.043805279 1.0962862e-38 332 276
0.015818574 0.69400001 -0.043805279 1.0962862e-38 333 276
0.01701084 0.69300002 -0.043742158 1.1146533e-38 334 276
0.018225901 0.69300002 -0.043742158 1.1054339e-38 335 276
0.01944096 0.69300002 -0.043742158 1.0686638e-38 336 276
0.020656019 0.69300002 -0.043742158 1.0502609e-38 337 276
0.021871079 0.69300002 -0.043742158 1.0593727e-38 338 276
0.023119451 0.69400001 -0.043805279 1.0593727e-38 339 276
0.024336265 0.69400001 -0.043805279 1.0593368e-38 340 276
0.025553079 0.69400001 -0.043805279 1.0593368e-38 341 276
0.026847038 0.69599998 -0.043931518 1.0501174e-38 342 276
0.028067358 0.69599998 -0.043931518 1.0501174e-38 343 276
0.029287677 0.69599998 -0.043931518 1.040898e-38 344 276
0.030551834 0.69700003 -0.043994639 1.0501174e-38 345 276
0.03177391 0.69700003 -0.043994639 1.0592651e-38 346 276
0.033043321 0.69800001 -0.04405776 1.0408262e-38 347 276
0.034267146 0.69800001 -0.04405776 1.0040203e-38 348 276
0.035592664 0.69999999 -0.044183996 1.0040203e-38 349 276
0.036819998 0.69999999 -0.044183996 9.9476496e-39 350 276
0.038047329 0.69999999 -0.044183996 9.9476496e-39 351 276
0.039330769 0.70099998 -0.044247117 1.0131321e-38 352 276
0.040675577 0.70300001 -0.04437336 1.0131321e-38 353 276
0.041967787 0.704 -0.044436477 9.9472909e-39 354 276
0.043324865 0.70599997 -0.044562716 9.9472909e-39 355 276
0.044562716 0.70599997 -0.044562716 9.9469322e-39 356 276
0.045865446 0.70700002 -0.044625837 1.0130962e-38 357 276
0.047105055 0.70700002 -0.044625837 1.0497586e-38 358 276
0.048413038 0.708 -0.044688959 1.0682334e-38 359 276
0.049794663 0.70999998 -0.044815198 1.095786e-38 360 276
0.051039528 0.70999998 -0.044815198 1.1603229e-38 361 276
0.052284397 0.70999998 -0.044815198 1.2435535e-38 362 276
-0.021430992 0.71899998 -0.046643924 1.345224e-38 303 277
-0.020170346 0.71899998 -0.046643924 1.2991242e-38 304 277
-0.018857099 0.71700001 -0.046514176 1.2253675e-38 305 277
-0.017526319 0.71399999 -0.046319555 1.1516074e-38 306 277
-0.016251646 0.713 -0.046254687 1.1331681e-38 307 277
-0.014959441 0.71100003 -0.046124939 1.1148694e-38 308 277
-0.013693533 0.70999998 -0.046060063 1.0964663e-38 309 277
-0.0124136 0.708 -0.045930319 1.0872465e-38 310 277
-0.011156459 0.70700002 -0.045865446 1.096466e-38 311 277
-0.0099168532 0.70700002 -0.045865446 1.096466e-38 312 277
-0.0086649731 0.70599997 -0.04580057 1.096466e-38 313 277
-0.0074060797 0.704 -0.045670826 1.1147975e-38 314 277
-0.0061717331 0.704 -0.045670826 1.1147975e-38 315 277
-0.0049303733 0.70300001 -0.04560595 1.1147975e-38 316 277
-0.0036872597 0.70099998 -0.045476202 1.105578e-38 317 277
-0.0024546667 0.69999999 -0.04541133 1.0872117e-38 318 277
-0.0012273333 0.69999999 -0.04541133 1.0964313e-38 319 277
0 0.69800001 -0.045281585 1.1147991e-38 320 277
0.0012238267 0.69800001 -0.045281585 1.1332382e-38 321 277
0.0024476533 0.69800001 -0.045281585 1.105759e-38 322 277
0.00366622 0.69700003 -0.045216713 1.1150144e-38 323 277
0.0048882933 0.69700003 -0.045216713 1.1332735e-38 324 277
0.0061015999 0.69599998 -0.045151837 1.1240539e-38 325 277
0.0073219193 0.69599998 -0.045151837 1.1239821e-38 326 277
0.0085176928 0.69400001 -0.045022093 1.1239821e-38 327 277
0.0097345067 0.69400001 -0.045022093 1.1147622e-38 328 277
0.01095132 0.69400001 -0.045022093 1.1055427e-38 329 277
0.012168133 0.69400001 -0.045022093 1.0871031e-38 330 277
0.013384946 0.69400001 -0.045022093 1.0687e-38 331 277
0.01460176 0.69400001 -0.045022093 1.0687e-38 332 277
0.015818574 0.69400001 -0.045022093 1.0594804e-38 333 277
0.017035386 0.69400001 -0.045022093 1.0778474e-38 334 277
0.0182522 0.69400001 -0.045022093 1.068628e-38 335 277
0.019469013 0.69400001 -0.045022093 1.0778115e-38 336 277
0.020685827 0.69400001 -0.045022093 1.0593727e-38 337 277
0.021902639 0.69400001 -0.045022093 1.0501174e-38 338 277
0.023119451 0.69400001 -0.045022093 1.0501174e-38 339 277
0.024336265 0.69400001 -0.045022093 1.0501174e-38 340 277
0.025553079 0.69400001 -0.045022093 1.0501174e-38 341 277
0.026847038 0.69599998 -0.045151837 1.0500098e-38 342 277
0.028067358 0.69599998 -0.045151837 1.0407903e-38 343 277
0.029287677 0.69599998 -0.045151837 1.0315709e-38 344 277
0.030551834 0.69700003 -0.045216713 1.0407903e-38 345 277
0.03177391 0.69700003 -0.045216713 1.0408262e-38 346 277
0.033043321 0.69800001 -0.045281585 1.0223515e-38 347 277
0.034267146 0.69800001 -0.045281585 1.0222439e-38 348 277
0.035592664 0.69999999 -0.04541133 1.0222439e-38 349 277
0.036819998 0.69999999 -0.04541133 1.0130962e-38 350 277
0.038047329 0.69999999 -0.04541133 9.9469322e-39 351 277
0.039330769 0.70099998 -0.045476202 9.8554554e-39 352 277
0.040675577 0.70300001 -0.04560595 9.8554554e-39 353 277
0.041967787 0.704 -0.045670826 9.945856e-39 354 277
0.043324865 0.70599997 -0.04580057 9.945856e-39 355 277
0.044562716 0.70599997 -0.04580057 9.9465734e-39 356 277
0.045865446 0.70700002 -0.045865446 1.0130603e-38 357 277
0.047171678 0.708 -0.045930319 1.049723e-38 358 277
0.048549797 0.70999998 -0.046060063 1.068198e-38 359 277
0.049794663 0.70999998 -0.046060063 1.1048981e-38 360 277
0.051111419 0.71100003 -0.046124939 1.2063132e-38 361 277
0.052358042 0.71100003 -0.046124939 1.280396e-38 362 277
-0.021371379 0.71700001 -0.04777132 1.3360043e-38 303 278
-0.020114239 0.71700001 -0.04777132 1.2991245e-38 304 278
-0.018857099 0.71700001 -0.04777132 1.2438071e-38 305 278
-0.017575413 0.71600002 -0.047704693 1.1607196e-38 306 278
-0.016251646 0.713 -0.047504812 1.1607196e-38 307 278
-0.014959441 0.71100003 -0.047371563 1.1239818e-38 308 278
-0.01371282 0.71100003 -0.047371563 1.1147622e-38 309 278
-0.012448666 0.70999998 -0.047304932 1.0872462e-38 310 278
-0.01117224 0.708 -0.047171678 1.0965016e-38 311 278
-0.0099168532 0.70700002 -0.047105055 1.0873183e-38 312 278
-0.0086649731 0.70599997 -0.047038425 1.0873183e-38 313 278
-0.0074271196 0.70599997 -0.047038425 1.0964663e-38 314 278
-0.0061717331 0.704 -0.046905171 1.0872467e-38 315 278
-0.0049303733 0.70300001 -0.046838548 1.1147256e-38 316 278
-0.0036872597 0.70099998 -0.046705291 1.1055059e-38 317 278
-0.0024581731 0.70099998 -0.046705291 1.0779561e-38 318 278
-0.0012273333 0.69999999 -0.046638668 1.0779561e-38 319 278
0 0.69800001 -0.046505414 1.0596616e-38 320 278
0.0012238267 0.69800001 -0.046505414 1.0781366e-38 321 278
0.0024476533 0.69800001 -0.046505414 1.0781366e-38 322 278
0.00366622 0.69700003 -0.046438783 1.0965397e-38 323 278
0.0048882933 0.69700003 -0.046438783 1.0964678e-38 324 278
0.0061015999 0.69599998 -0.046372157 1.0872483e-38 325 278
0.0073219193 0.69599998 -0.046372157 1.0964313e-38 326 278
0.0085176928 0.69400001 -0.046238903 1.0872117e-38 327 278
0.0097345067 0.69400001 -0.046238903 1.1055427e-38 328 278
0.01095132 0.69400001 -0.046238903 1.0963229e-38 329 278
0.012168133 0.69400001 -0.046238903 1.0686997e-38 330 278
0.013384946 0.69400001 -0.046238903 1.0686997e-38 331 278
0.01460176 0.69400001 -0.046238903 1.0503326e-38 332 278
0.015818574 0.69400001 -0.046238903 1.0503326e-38 333 278
0.017035386 0.69400001 -0.046238903 1.0502967e-38 334 278
0.0182522 0.69400001 -0.046238903 1.0410773e-38 335 278
0.019469013 0.69400001 -0.046238903 1.0410056e-38 336 278
0.020685827 0.69400001 -0.046238903 1.0317861e-38 337 278
0.021902639 0.69400001 -0.046238903 1.0226026e-38 338 278
0.023119451 0.69400001 -0.046238903 1.0041996e-38 339 278
0.024336265 0.69400001 -0.046238903 1.0041638e-38 340 278
0.025553079 0.69400001 -0.046238903 9.9494433e-39 341 278
0.026847038 0.69599998 -0.046372157 1.0132756e-38 342 278
0.028067358 0.69599998 -0.046372157 1.0040203e-38 343 278
0.029287677 0.69599998 -0.046372157 9.8565316e-39 344 278
0.030551834 0.69700003 -0.046438783 9.8565316e-39 345 278
0.03177391 0.69700003 -0.046438783 1.0223156e-38 346 278
0.033043321 0.69800001 -0.046505414 9.9469322e-39 347 278
0.034267146 0.69800001 -0.046505414 1.0037691e-38 348 278
0.035592664 0.69999999 -0.046638668 1.0037691e-38 349 278
0.036819998 0.69999999 -0.046638668 9.9469322e-39 350 278
0.038047329 0.69999999 -0.046638668 9.8547379e-39 351 278
0.039330769 0.70099998 -0.046705291 9.8547379e-39 352 278
0.040675577 0.70300001 -0.046838548 9.762185e-39 353 278
0.041967787 0.704 -0.046905171 9.945856e-39 354 278
0.043324865 0.70599997 -0.047038425 1.003805e-38 355 278
0.044562716 0.70599997 -0.047038425 9.9465734e-39 356 278
0.045865446 0.70700002 -0.047105055 1.0222797e-38 357 278
0.047171678 0.708 -0.047171678 1.0406117e-38 358 278
0.048549797 0.70999998 -0.047304932 1.0682343e-38 359 278
0.049794663 0.70999998 -0.047304932 1.1048983e-38 360 278
0.051111419 0.71100003 -0.047371563 1.2062777e-38 361 278
-0.020114239 0.71700001 -0.04902846 1.2992687e-38 304 279
-0.018857099 0.71700001 -0.04902846 1.2439513e-38 305 279
-0.017575413 0.71600002 -0.048960082 1.1791953e-38 306 279
-0.016274439 0.71399999 -0.048823316 1.1330975e-38 307 279
-0.015001519 0.713 -0.048754938 1.1240542e-38 308 279
-0.01371282 0.71100003 -0.048618179 1.0963957e-38 309 279
-0.012448666 0.70999998 -0.048549797 1.0964307e-38 310 279
-0.01117224 0.708 -0.048413038 1.0964307e-38 311 279
-0.0099168532 0.70700002 -0.048344657 1.0964663e-38 312 279
-0.0086649731 0.70599997 -0.048276275 1.0872467e-38 313 279
-0.0074271196 0.70599997 -0.048276275 1.1055777e-38 314 279
-0.0061717331 0.704 -0.048139516 1.096358e-38 315 279
-0.0049373866 0.704 -0.048139516 1.0871386e-38 316 279
-0.0036977797 0.70300001 -0.048071139 1.0687356e-38 317 279
-0.0024581731 0.70099998 -0.047934376 1.0686997e-38 318 279
-0.0012273333 0.69999999 -0.047865998 1.0871387e-38 319 279
0 0.69999999 -0.047865998 1.0504769e-38 320 279
0.0012273333 0.69999999 -0.047865998 1.0597325e-38 321 279
0.0024476533 0.69800001 -0.047729239 1.0780282e-38 322 279
0.00366622 0.69700003 -0.047660861 1.0872477e-38 323 279
0.0048882933 0.69700003 -0.047660861 1.0964313e-38 324 279
0.0061015999 0.69599998 -0.047592476 1.0872117e-38 325 279
0.0073219193 0.69599998 -0.047592476 1.1055424e-38 326 279
0.0085422397 0.69599998 -0.047592476 1.0963227e-38 327 279
0.0097345067 0.69400001 -0.047455717 1.0963221e-38 328 279
0.01095132 0.69400001 -0.047455717 1.0963221e-38 329 279
0.012168133 0.69400001 -0.047455717 1.0595162e-38 330 279
0.013384946 0.69400001 -0.047455717 1.0595162e-38 331 279
0.01460176 0.69400001 -0.047455717 1.0502967e-38 332 279
0.015818574 0.69400001 -0.047455717 1.0502967e-38 333 279
0.017035386 0.69400001 -0.047455717 1.0410773e-38 334 279
0.0182522 0.69400001 -0.047455717 1.0226385e-38 335 279
0.019469013 0.69400001 -0.047455717 1.0225667e-38 336 279
0.020685827 0.69400001 -0.047455717 1.0133473e-38 337 279
0.021902639 0.69400001 -0.047455717 9.949802e-39 338 279
0.023119451 0.69400001 -0.047455717 9.8576078e-39 339 279
0.024336265 0.69400001 -0.047455717 1.0040561e-38 340 279
0.025626717 0.69599998 -0.047592476 1.0040561e-38 341 279
0.026847038 0.69599998 -0.047592476 9.8561729e-39 342 279
0.028067358 0.69599998 -0.047592476 9.7639787e-39 343 279
0.029287677 0.69599998 -0.047592476 1.0130962e-38 344 279
0.030551834 0.69700003 -0.047660861 9.8543792e-39 345 279
0.03177391 0.69700003 -0.047660861 1.0129527e-38 346 279
0.033043321 0.69800001 -0.047729239 1.0036974e-38 347 279
0.034267146 0.69800001 -0.047729239 1.0128451e-38 348 279
0.035592664 0.69999999 -0.047865998 1.0220645e-38 349 279
0.036819998 0.69999999 -0.047865998 9.945856e-39 350 279
0.038047329 0.69999999 -0.047865998 9.7618263e-39 351 279
0.039330769 0.70099998 -0.047934376 9.945856e-39 352 279
0.040675577 0.70300001 -0.048071139 9.945856e-39 353 279
0.041967787 0.704 -0.048139516 9.945856e-39 354 279
0.043324865 0.70599997 -0.048276275 1.003805e-38 355 279
0.044625837 0.70700002 -0.048344657 9.9469322e-39 356 279
0.045865446 0.70700002 -0.048344657 1.0223156e-38 357 279
0.047171678 0.708 -0.048413038 1.0406114e-38 358 279
0.048549797 0.70999998 -0.048549797 1.0774895e-38 359 279
0.049794663 0.70999998 -0.048549797 1.1140827e-38 360 279
0.051039528 0.70999998 -0.048549797 1.2247173e-38 361 279
-0.020170346 0.71899998 -0.050425861 1.3083084e-38 304 280
-0.018857099 0.71700001 -0.0502856 1.2990889e-38 305 280
-0.017575413 0.71600002 -0.050215468 1.1700837e-38 306 280
-0.016274439 0.71399999 -0.050075196 1.1055467e-38 307 280
-0.015001519 0.713 -0.050005067 1.1147991e-38 308 280
-0.013751393 0.713 -0.050005067 1.1147991e-38 309 280
-0.0124662 0.71100003 -0.049864799 1.1055427e-38 310 280
-0.011203799 0.70999998 -0.049794663 1.1055427e-38 311 280
-0.0099308798 0.708 -0.049654398 1.0780638e-38 312 280
-0.008677247 0.70700002 -0.049584266 1.0780638e-38 313 280
-0.0074271196 0.70599997 -0.04951413 1.0596599e-38 314 280
-0.0061892662 0.70599997 -0.04951413 1.0504404e-38 315 280
-0.0049373866 0.704 -0.049373865 1.0688073e-38 316 280
-0.0036977797 0.70300001 -0.049303733 1.0595879e-38 317 280
-0.0024581731 0.70099998 -0.049163464 1.0504407e-38 318 280
-0.0012273333 0.69999999 -0.049093332 1.0504407e-38 319 280
0 0.69999999 -0.049093332 1.0504056e-38 320 280
0.0012273333 0.69999999 -0.049093332 1.0596252e-38 321 280
0.0024476533 0.69800001 -0.048953064 1.0503703e-38 322 280
0.00366622 0.69700003 -0.048882935 1.0503703e-38 323 280
0.0048882933 0.69700003 -0.048882935 1.0595897e-38 324 280
0.0061015999 0.69599998 -0.048812799 1.0595897e-38 325 280
0.0073219193 0.69599998 -0.048812799 1.078027e-38 326 280
0.0085422397 0.69599998 -0.048812799 1.0687716e-38 327 280
0.0097345067 0.69400001 -0.048672531 1.059552e-38 328 280
0.01095132 0.69400001 -0.048672531 1.0503326e-38 329 280
0.012168133 0.69400001 -0.048672531 1.0502609e-38 330 280
0.013384946 0.69400001 -0.048672531 1.0502609e-38 331 280
0.01460176 0.69400001 -0.048672531 1.0319296e-38 332 280
0.015818574 0.69400001 -0.048672531 1.0227102e-38 333 280
0.017035386 0.69400001 -0.048672531 1.0226026e-38 334 280
0.0182522 0.69400001 -0.048672531 1.0041996e-38 335 280
0.019469013 0.69400001 -0.048672531 9.949802e-39 336 280
0.020685827 0.69400001 -0.048672531 9.8576078e-39 337 280
0.021902639 0.69400001 -0.048672531 9.6739368e-39 338 280
0.023119451 0.69400001 -0.048672531 9.6739368e-39 339 280
0.0244064 0.69599998 -0.048812799 9.8572491e-39 340 280
0.025626717 0.69599998 -0.048812799 9.7650548e-39 341 280
0.026847038 0.69599998 -0.048812799 9.8565316e-39 342 280
0.028067358 0.69599998 -0.048812799 9.7643374e-39 343 280
0.02932976 0.69700003 -0.048882935 9.8540205e-39 344 280
0.030551834 0.69700003 -0.048882935 9.7618263e-39 345 280
0.031819493 0.69800001 -0.048953064 9.9447798e-39 346 280
