# .PCD v.7 - Point Cloud Data file format
FIELDS x y z rgb imX imY
SIZE 4 4 4 4 4 4
TYPE F F F F F F
COUNT 1 1 1 1 1 1
WIDTH 857
HEIGHT 1
VIEWPOINT 0 0 0 1 0 0 0
POINTS 857
DATA ascii
0.0027141599 0.77399999 0.050211959 1.5855738e-38 322 203
0.0040712398 0.77399999 0.050211959 1.5763184e-38 323 203
0.0054213065 0.773 0.050147086 1.6037955e-38 324 203
0.0067766332 0.773 0.050147086 1.5761369e-38 325 203
0.0081319595 0.773 0.050147086 1.6037586e-38 326 203
0.0094872871 0.773 0.050147086 1.5853195e-38 327 203
0.01085664 0.77399999 0.050211959 1.5762444e-38 328 203
0.01221372 0.77399999 0.050211959 1.5485859e-38 329 203
0.013570799 0.77399999 0.050211959 1.5025619e-38 330 203
0.014927879 0.77399999 0.050211959 1.4933422e-38 331 203
0.016284959 0.77399999 0.050211959 1.4749761e-38 332 203
0.01764204 0.77399999 0.050211959 1.5118183e-38 333 203
0.018925481 0.77100003 0.050017338 1.5208959e-38 334 203
0.020277301 0.77100003 0.050017338 1.5854329e-38 335 203
0.021573013 0.76899999 0.04988759 1.6224221e-38 336 203
0.022921326 0.76899999 0.04988759 1.6961787e-38 337 203
0.024269639 0.76899999 0.04988759 1.7698299e-38 338 203
0.025617953 0.76899999 0.04988759 1.8159275e-38 339 203
-0.0081635201 0.77600002 0.048981119 1.8251845e-38 314 204
-0.0068029333 0.77600002 0.048981119 1.8067454e-38 315 204
-0.0054423464 0.77600002 0.048981119 1.7331664e-38 316 204
-0.0040817601 0.77600002 0.048981119 1.6501904e-38 317 204
-0.0027211732 0.77600002 0.048981119 1.6132007e-38 318 204
-0.0013605866 0.77600002 0.048981119 1.5671029e-38 319 204
0 0.77399999 0.04885488 1.5579877e-38 320 204
0.0013570799 0.77399999 0.04885488 1.5763908e-38 321 204
0.0027141599 0.77399999 0.04885488 1.5856436e-38 322 204
0.0040712398 0.77399999 0.04885488 1.5672044e-38 323 204
0.0054213065 0.773 0.048791755 1.603829e-38 324 204
0.0067766332 0.773 0.048791755 1.5946094e-38 325 204
0.0081319595 0.773 0.048791755 1.6037188e-38 326 204
0.0094872871 0.773 0.048791755 1.5760962e-38 327 204
0.01085664 0.77399999 0.04885488 1.5853876e-38 328 204
0.01221372 0.77399999 0.04885488 1.576168e-38 329 204
0.013570799 0.77399999 0.04885488 1.5209608e-38 330 204
0.014908593 0.773 0.048791755 1.5209608e-38 331 204
0.016263919 0.773 0.048791755 1.5209621e-38 332 204
0.017619247 0.773 0.048791755 1.5301816e-38 333 204
0.018925481 0.77100003 0.04866552 1.5301114e-38 334 204
0.0202247 0.76899999 0.048539277 1.5485864e-38 335 204
0.021573013 0.76899999 0.048539277 1.5394424e-38 336 204
0.022921326 0.76899999 0.048539277 1.5579174e-38 337 204
0.024269639 0.76899999 0.048539277 1.5855796e-38 338 204
0.025617953 0.76899999 0.048539277 1.6593361e-38 339 204
0.026966266 0.76899999 0.048539277 1.7330588e-38 340 204
-0.0095486529 0.778 0.047743265 1.8435879e-38 313 205
-0.0081635201 0.77600002 0.047620531 1.8252549e-38 314 205
-0.0068029333 0.77600002 0.047620531 1.7607179e-38 315 205
-0.0054423464 0.77600002 0.047620531 1.6594427e-38 316 205
-0.0040817601 0.77600002 0.047620531 1.5396243e-38 317 205
-0.0027211732 0.77600002 0.047620531 1.5395482e-38 318 205
-0.0013605866 0.77600002 0.047620531 1.5487679e-38 319 205
0 0.77399999 0.047497798 1.576389e-38 320 205
0.0013570799 0.77399999 0.047497798 1.5856086e-38 321 205
0.0027141599 0.77399999 0.047497798 1.5855712e-38 322 205
0.0040712398 0.77399999 0.047497798 1.5671322e-38 323 205
0.0054283198 0.77399999 0.047497798 1.6038274e-38 324 205
0.0067766332 0.773 0.047436431 1.5946079e-38 325 205
0.0081319595 0.773 0.047436431 1.612829e-38 326 205
0.0094995592 0.77399999 0.047497798 1.5944258e-38 327 205
0.01085664 0.77399999 0.047497798 1.5852784e-38 328 205
0.01221372 0.77399999 0.047497798 1.5852784e-38 329 205
0.013570799 0.77399999 0.047497798 1.5576214e-38 330 205
0.014908593 0.773 0.047436431 1.5668769e-38 331 205
0.016263919 0.773 0.047436431 1.5576936e-38 332 205
0.017619247 0.773 0.047436431 1.5576936e-38 333 205
0.018925481 0.77100003 0.047313701 1.5486188e-38 334 205
0.0202247 0.76899999 0.047190964 1.5486188e-38 335 205
0.021573013 0.76899999 0.047190964 1.5394016e-38 336 205
0.022921326 0.76899999 0.047190964 1.5301819e-38 337 205
0.024269639 0.76899999 0.047190964 1.5117817e-38 338 205
0.025617953 0.76899999 0.047190964 1.5486599e-38 339 205
0.026966266 0.76899999 0.047190964 1.5947989e-38 340 205
0.028314579 0.76899999 0.047190964 1.7054336e-38 341 205
-0.0095486529 0.778 0.046379171 1.7513554e-38 313 206
-0.0081845606 0.778 0.046379171 1.6868506e-38 314 206
-0.0068204664 0.778 0.046379171 1.6130582e-38 315 206
-0.0054423464 0.77600002 0.046259947 1.5764634e-38 316 206
-0.0040817601 0.77600002 0.046259947 1.5672439e-38 317 206
-0.0027211732 0.77600002 0.046259947 1.5764597e-38 318 206
-0.0013605866 0.77600002 0.046259947 1.5579845e-38 319 206
0 0.77399999 0.046140719 1.5672734e-38 320 206
0.0013570799 0.77399999 0.046140719 1.558018e-38 321 206
0.0027141599 0.77399999 0.046140719 1.6039346e-38 322 206
0.0040712398 0.77399999 0.046140719 1.5854596e-38 323 206
0.0054283198 0.77399999 0.046140719 1.5946046e-38 324 206
0.0067853997 0.77399999 0.046140719 1.5946046e-38 325 206
0.0081424797 0.77399999 0.046140719 1.5946034e-38 326 206
0.0094995592 0.77399999 0.046140719 1.5946034e-38 327 206
0.01085664 0.77399999 0.046140719 1.5853119e-38 328 206
0.01221372 0.77399999 0.046140719 1.5760922e-38 329 206
0.013570799 0.77399999 0.046140719 1.5577607e-38 330 206
0.01487002 0.77100003 0.045961879 1.576164e-38 331 206
0.016221842 0.77100003 0.045961879 1.5394665e-38 332 206
0.01757366 0.77100003 0.045961879 1.5578696e-38 333 206
0.018925481 0.77100003 0.045961879 1.5394324e-38 334 206
0.0202247 0.76899999 0.045842651 1.5394324e-38 335 206
0.021573013 0.76899999 0.045842651 1.5576933e-38 336 206
0.022921326 0.76899999 0.045842651 1.5761683e-38 337 206
0.024269639 0.76899999 0.045842651 1.5853189e-38 338 206
0.025617953 0.76899999 0.045842651 1.5853189e-38 339 206
0.026966266 0.76899999 0.045842651 1.5577736e-38 340 206
0.028314579 0.76899999 0.045842651 1.5762486e-38 341 206
0.02966289 0.76899999 0.045842651 1.5856887e-38 342 206
-0.010912746 0.778 0.045015078 1.6690611e-38 312 207
-0.0095486529 0.778 0.045015078 1.5307677e-38 313 207
-0.0081635201 0.77600002 0.044899363 1.5580612e-38 314 207
-0.0068029333 0.77600002 0.044899363 1.5119635e-38 315 207
-0.0054283198 0.77399999 0.044783637 1.5488731e-38 316 207
-0.0040712398 0.77399999 0.044783637 1.5580928e-38 317 207
-0.0027141599 0.77399999 0.044783637 1.5672025e-38 318 207
-0.0013570799 0.77399999 0.044783637 1.5672025e-38 319 207
0 0.77399999 0.044783637 1.5946792e-38 320 207
0.0013553266 0.773 0.044725779 1.6039346e-38 321 207
0.0027106532 0.773 0.044725779 1.5947479e-38 322 207
0.0040659797 0.773 0.044725779 1.5947479e-38 323 207
0.0054213065 0.773 0.044725779 1.6222597e-38 324 207
0.0067766332 0.773 0.044725779 1.631515e-38 325 207
0.0081319595 0.773 0.044725779 1.6498103e-38 326 207
0.0094627403 0.77100003 0.044610061 1.6405909e-38 327 207
0.01081456 0.77100003 0.044610061 1.6405192e-38 328 207
0.012197939 0.773 0.044725779 1.6312997e-38 329 207
0.013553266 0.773 0.044725779 1.6313715e-38 330 207
0.014831445 0.76899999 0.044494338 1.6313715e-38 331 207
0.016179759 0.76899999 0.044494338 1.5854179e-38 332 207
0.017528072 0.76899999 0.044494338 1.5946373e-38 333 207
0.018876385 0.76899999 0.044494338 1.5853485e-38 334 207
0.0202247 0.76899999 0.044494338 1.5853485e-38 335 207
0.021573013 0.76899999 0.044494338 1.5944627e-38 336 207
0.022921326 0.76899999 0.044494338 1.6036823e-38 337 207
0.024269639 0.76899999 0.044494338 1.5944295e-38 338 207
0.025617953 0.76899999 0.044494338 1.6036492e-38 339 207
0.026966266 0.76899999 0.044494338 1.5669176e-38 340 207
0.028314579 0.76899999 0.044494338 1.5392229e-38 341 207
0.02966289 0.76899999 0.044494338 1.5117485e-38 342 207
0.031011207 0.76899999 0.044494338 1.6131639e-38 343 207
-0.012276839 0.778 0.043650985 1.6685575e-38 311 208
-0.010884693 0.77600002 0.043538772 1.5306197e-38 312 208
-0.009524107 0.77600002 0.043538772 1.4660827e-38 313 208
-0.0081635201 0.77600002 0.043538772 1.539655e-38 314 208
-0.0067853997 0.77399999 0.043426558 1.5304353e-38 315 208
-0.0054283198 0.77399999 0.043426558 1.5672025e-38 316 208
-0.0040712398 0.77399999 0.043426558 1.557983e-38 317 208
-0.0027141599 0.77399999 0.043426558 1.5854949e-38 318 208
-0.0013553266 0.773 0.043370452 1.5854949e-38 319 208
0 0.773 0.043370452 1.5855639e-38 320 208
0.0013553266 0.773 0.043370452 1.5947835e-38 321 208
0.0027036399 0.77100003 0.043258239 1.6040005e-38 322 208
0.0040554604 0.77100003 0.043258239 1.6132201e-38 323 208
0.0054213065 0.773 0.043370452 1.6408062e-38 324 208
0.0067766332 0.773 0.043370452 1.6592454e-38 325 208
0.0081109209 0.77100003 0.043258239 1.6867249e-38 326 208
0.0094627403 0.77100003 0.043258239 1.6775053e-38 327 208
0.01081456 0.77100003 0.043258239 1.6499538e-38 328 208
0.01216638 0.77100003 0.043258239 1.6407344e-38 329 208
0.013518199 0.77100003 0.043258239 1.6132196e-38 330 208
0.014831445 0.76899999 0.043146025 1.6039643e-38 331 208
0.016179759 0.76899999 0.043146025 1.6130761e-38 332 208
0.017528072 0.76899999 0.043146025 1.5854537e-38 333 208
0.018876385 0.76899999 0.043146025 1.5762343e-38 334 208
0.0202247 0.76899999 0.043146025 1.5578314e-38 335 208
0.021573013 0.76899999 0.043146025 1.5761626e-38 336 208
0.022921326 0.76899999 0.043146025 1.5853823e-38 337 208
0.024269639 0.76899999 0.043146025 1.612863e-38 338 208
0.025617953 0.76899999 0.043146025 1.612863e-38 339 208
0.026896132 0.76700002 0.043033812 1.5668413e-38 340 208
0.02824094 0.76700002 0.043033812 1.594464e-38 341 208
0.029585747 0.76700002 0.043033812 1.5208567e-38 342 208
0.030930554 0.76700002 0.043033812 1.5208567e-38 343 208
-0.013640933 0.778 0.042286891 1.650296e-38 310 209
-0.01224528 0.77600002 0.042178184 1.56732e-38 311 209
-0.010884693 0.77600002 0.042178184 1.5397278e-38 312 209
-0.009524107 0.77600002 0.042178184 1.5028136e-38 313 209
-0.0081635201 0.77600002 0.042178184 1.5488353e-38 314 209
-0.0067853997 0.77399999 0.042069476 1.5119931e-38 315 209
-0.0054283198 0.77399999 0.042069476 1.5395419e-38 316 209
-0.0040659797 0.773 0.042015124 1.5395419e-38 317 209
-0.0027106532 0.773 0.042015124 1.5762387e-38 318 209
-0.0013553266 0.773 0.042015124 1.5854582e-38 319 209
0 0.773 0.042015124 1.6039301e-38 320 209
0.00135182 0.77100003 0.04190642 1.6131497e-38 321 209
0.0027036399 0.77100003 0.04190642 1.6132914e-38 322 209
0.0040554604 0.77100003 0.04190642 1.6317302e-38 323 209
0.0054072798 0.77100003 0.04190642 1.6409496e-38 324 209
0.0067590997 0.77100003 0.04190642 1.6409496e-38 325 209
0.0080898795 0.76899999 0.041797712 1.6776125e-38 326 209
0.0094381925 0.76899999 0.041797712 1.6776125e-38 327 209
0.010786506 0.76899999 0.041797712 1.6776125e-38 328 209
0.012134819 0.76899999 0.041797712 1.6868321e-38 329 209
0.013483133 0.76899999 0.041797712 1.6317302e-38 330 209
0.014831445 0.76899999 0.041797712 1.6040361e-38 331 209
0.01613768 0.76700002 0.041689005 1.6223314e-38 332 209
0.017482487 0.76700002 0.041689005 1.613112e-38 333 209
0.018827293 0.76700002 0.041689005 1.594709e-38 334 209
0.020172099 0.76700002 0.041689005 1.5854896e-38 335 209
0.021516906 0.76700002 0.041689005 1.603785e-38 336 209
0.022861714 0.76700002 0.041689005 1.603785e-38 337 209
0.024206521 0.76700002 0.041689005 1.6312649e-38 338 209
0.025551327 0.76700002 0.041689005 1.6128259e-38 339 209
0.026861066 0.76599997 0.041634649 1.575987e-38 340 209
0.028204117 0.76599997 0.041634649 1.5944261e-38 341 209
0.029547172 0.76599997 0.041634649 1.5668431e-38 342 209
0.030890226 0.76599997 0.041634649 1.5576235e-38 343 209
0.032233275 0.76599997 0.041634649 1.5300414e-38 344 209
-0.015005025 0.778 0.040922798 1.6317866e-38 309 210
-0.013640933 0.778 0.040922798 1.5396225e-38 310 210
-0.01224528 0.77600002 0.0408176 1.5304029e-38 311 210
-0.010884693 0.77600002 0.0408176 1.5580928e-38 312 210
-0.009524107 0.77600002 0.0408176 1.5211786e-38 313 210
-0.0081424797 0.77399999 0.040712398 1.5211381e-38 314 210
-0.0067853997 0.77399999 0.040712398 1.5026631e-38 315 210
-0.0054213065 0.773 0.0406598 1.5395031e-38 316 210
-0.0040659797 0.773 0.0406598 1.5395031e-38 317 210
-0.0027106532 0.773 0.0406598 1.5762366e-38 318 210
-0.0013553266 0.773 0.0406598 1.6038951e-38 319 210
0 0.773 0.0406598 1.6131482e-38 320 210
0.00135182 0.77100003 0.040554602 1.6223677e-38 321 210
0.0027036399 0.77100003 0.040554602 1.6041801e-38 322 210
0.0040554604 0.77100003 0.040554602 1.6041801e-38 323 210
0.0054072798 0.77100003 0.040554602 1.6225492e-38 324 210
0.0067590997 0.77100003 0.040554602 1.6318046e-38 325 210
0.0080898795 0.76899999 0.0404494 1.6593204e-38 326 210
0.0094381925 0.76899999 0.0404494 1.6501008e-38 327 210
0.010786506 0.76899999 0.0404494 1.6593204e-38 328 210
0.01210326 0.76700002 0.040344197 1.6685401e-38 329 210
0.013448066 0.76700002 0.040344197 1.6501709e-38 330 210
0.014792874 0.76700002 0.040344197 1.6224763e-38 331 210
0.01613768 0.76700002 0.040344197 1.6408779e-38 332 210
0.017482487 0.76700002 0.040344197 1.6132196e-38 333 210
0.018827293 0.76700002 0.040344197 1.6223314e-38 334 210
0.020172099 0.76700002 0.040344197 1.613112e-38 335 210
0.021516906 0.76700002 0.040344197 1.6222597e-38 336 210
0.022861714 0.76700002 0.040344197 1.6130403e-38 337 210
0.024174958 0.76599997 0.040291596 1.6495592e-38 338 210
0.025518013 0.76599997 0.040291596 1.6495592e-38 339 210
0.026861066 0.76599997 0.040291596 1.6036081e-38 340 210
0.028204117 0.76599997 0.040291596 1.6128277e-38 341 210
0.029547172 0.76599997 0.040291596 1.5851728e-38 342 210
0.030890226 0.76599997 0.040291596 1.5943923e-38 343 210
0.032233275 0.76599997 0.040291596 1.5851767e-38 344 210
-0.016411198 0.77999997 0.039660398 1.6041256e-38 308 211
-0.015005025 0.778 0.039558705 1.5488082e-38 309 211
-0.013605867 0.77600002 0.039457016 1.5580222e-38 310 211
-0.01224528 0.77600002 0.039457016 1.5395829e-38 311 211
-0.010884693 0.77600002 0.039457016 1.567165e-38 312 211
-0.0094995592 0.77399999 0.039355319 1.521103e-38 313 211
-0.0081424797 0.77399999 0.039355319 1.5302479e-38 314 211
-0.0067766332 0.773 0.039304473 1.5210283e-38 315 211
-0.0054213065 0.773 0.039304473 1.5302462e-38 316 211
-0.0040659797 0.773 0.039304473 1.5394659e-38 317 211
-0.0027106532 0.773 0.039304473 1.5947103e-38 318 211
-0.00135182 0.77100003 0.03920278 1.622405e-38 319 211
0 0.77100003 0.03920278 1.6224047e-38 320 211
0.00135182 0.77100003 0.03920278 1.6224047e-38 321 211
0.0026966266 0.76899999 0.039101087 1.6040382e-38 322 211
0.0040449398 0.76899999 0.039101087 1.6224413e-38 323 211
0.0053932532 0.76899999 0.039101087 1.613224e-38 324 211
0.0067415666 0.76899999 0.039101087 1.6501022e-38 325 211
0.0080898795 0.76899999 0.039101087 1.6225157e-38 326 211
0.0094381925 0.76899999 0.039101087 1.6040766e-38 327 211
0.010758453 0.76700002 0.038999394 1.5950368e-38 328 211
0.01210326 0.76700002 0.038999394 1.6042565e-38 329 211
0.013448066 0.76700002 0.038999394 1.6500299e-38 330 211
0.014792874 0.76700002 0.038999394 1.6500299e-38 331 211
0.01613768 0.76700002 0.038999394 1.6409157e-38 332 211
0.017482487 0.76700002 0.038999394 1.6224766e-38 333 211
0.018802745 0.76599997 0.038948543 1.6224749e-38 334 211
0.020145798 0.76599997 0.038948543 1.6040361e-38 335 211
0.021488851 0.76599997 0.038948543 1.6314791e-38 336 211
0.022831906 0.76599997 0.038948543 1.603785e-38 337 211
0.024174958 0.76599997 0.038948543 1.6219727e-38 338 211
0.025518013 0.76599997 0.038948543 1.6311924e-38 339 211
0.026790932 0.764 0.038846854 1.6035714e-38 340 211
0.028130481 0.764 0.038846854 1.6127911e-38 341 211
0.029470026 0.764 0.038846854 1.6126852e-38 342 211
0.030890226 0.76599997 0.038948543 1.6403437e-38 343 211
0.032233275 0.76599997 0.038948543 1.566806e-38 344 211
0.033576332 0.76599997 0.038948543 1.566806e-38 345 211
-0.017778799 0.77999997 0.038292799 1.6686289e-38 307 212
-0.016369121 0.778 0.038194612 1.5118912e-38 308 212
-0.014966453 0.77600002 0.038096428 1.5302944e-38 309 212
-0.013605867 0.77600002 0.038096428 1.5855709e-38 310 212
-0.01221372 0.77399999 0.037998237 1.5487287e-38 311 212
-0.01085664 0.77399999 0.037998237 1.5578365e-38 312 212
-0.0094995592 0.77399999 0.037998237 1.5393974e-38 313 212
-0.0081319595 0.773 0.037949149 1.5302465e-38 314 212
-0.0067766332 0.773 0.037949149 1.5210269e-38 315 212
-0.0054072798 0.77100003 0.037850961 1.539501e-38 316 212
-0.0040554604 0.77100003 0.037850961 1.5763791e-38 317 212
-0.0027036399 0.77100003 0.037850961 1.5948185e-38 318 212
-0.00135182 0.77100003 0.037850961 1.6040382e-38 319 212
0 0.77100003 0.037850961 1.5948552e-38 320 212
0.0013483133 0.76899999 0.03775277 1.5948552e-38 321 212
0.0026966266 0.76899999 0.03775277 1.5764183e-38 322 212
0.0040449398 0.76899999 0.03775277 1.5856379e-38 323 212
0.0053932532 0.76899999 0.03775277 1.5580886e-38 324 212
0.0067415666 0.76899999 0.03775277 1.5857113e-38 325 212
0.00806884 0.76700002 0.037654586 1.5765996e-38 326 212
0.0094136465 0.76700002 0.037654586 1.5581605e-38 327 212
0.010758453 0.76700002 0.037654586 1.5490489e-38 328 212
0.01210326 0.76700002 0.037654586 1.5582684e-38 329 212
0.013448066 0.76700002 0.037654586 1.6042212e-38 330 212
0.014792874 0.76700002 0.037654586 1.6134408e-38 331 212
0.01613768 0.76700002 0.037654586 1.6594628e-38 332 212
0.017482487 0.76700002 0.037654586 1.6225845e-38 333 212
0.018802745 0.76599997 0.037605491 1.6500973e-38 334 212
0.020145798 0.76599997 0.037605491 1.6224749e-38 335 212
0.021488851 0.76599997 0.037605491 1.6590656e-38 336 212
0.022831906 0.76599997 0.037605491 1.6406268e-38 337 212
0.024174958 0.76599997 0.037605491 1.6588504e-38 338 212
0.025451386 0.764 0.037507307 1.631228e-38 339 212
0.026790932 0.764 0.037507307 1.6494875e-38 340 212
0.028130481 0.764 0.037507307 1.6494875e-38 341 212
0.029470026 0.764 0.037507307 1.6494536e-38 342 212
0.030809574 0.764 0.037507307 1.6494536e-38 343 212
0.032149121 0.764 0.037507307 1.6035027e-38 344 212
0.033576332 0.76599997 0.037605491 1.6219419e-38 345 212
0.034919381 0.76599997 0.037605491 1.5391495e-38 346 212
-0.018999118 0.77399999 0.036641158 1.6317123e-38 306 213
-0.01764204 0.77399999 0.036641158 1.5395168e-38 307 213
-0.016284959 0.77399999 0.036641158 1.5488029e-38 308 213
-0.014927879 0.77399999 0.036641158 1.5395832e-38 309 213
-0.013570799 0.77399999 0.036641158 1.5487619e-38 310 213
-0.01221372 0.77399999 0.036641158 1.521103e-38 311 213
-0.01085664 0.77399999 0.036641158 1.5577624e-38 312 213
-0.0094872871 0.773 0.036593821 1.5485428e-38 313 213
-0.0081109209 0.77100003 0.036499143 1.5485775e-38 314 213
-0.0067590997 0.77100003 0.036499143 1.5577972e-38 315 213
-0.0054072798 0.77100003 0.036499143 1.5948199e-38 316 213
-0.0040554604 0.77100003 0.036499143 1.6132949e-38 317 213
-0.0027036399 0.77100003 0.036499143 1.6039676e-38 318 213
-0.00135182 0.77100003 0.036499143 1.5855283e-38 319 213
0 0.77100003 0.036499143 1.6038951e-38 320 213
0.0013483133 0.76899999 0.036404461 1.5762366e-38 321 213
0.0026966266 0.76899999 0.036404461 1.5211012e-38 322 213
0.0040449398 0.76899999 0.036404461 1.5579435e-38 323 213
0.0053932532 0.76899999 0.036404461 1.5395775e-38 324 213
0.0067415666 0.76899999 0.036404461 1.5303579e-38 325 213
0.00806884 0.76700002 0.036309779 1.5305378e-38 326 213
0.0094136465 0.76700002 0.036309779 1.5305378e-38 327 213
0.010758453 0.76700002 0.036309779 1.5580889e-38 328 213
0.01210326 0.76700002 0.036309779 1.5673085e-38 329 213
0.013448066 0.76700002 0.036309779 1.6041859e-38 330 213
0.014792874 0.76700002 0.036309779 1.6226609e-38 331 213
0.01613768 0.76700002 0.036309779 1.6503173e-38 332 213
0.017459691 0.76599997 0.036262438 1.6134391e-38 333 213
0.018802745 0.76599997 0.036262438 1.6502062e-38 334 213
0.020093199 0.764 0.036167759 1.5948888e-38 335 213
0.021432746 0.764 0.036167759 1.6407344e-38 336 213
0.022772292 0.764 0.036167759 1.631515e-38 337 213
0.024111839 0.764 0.036167759 1.6497386e-38 338 213
0.02538476 0.76200002 0.036073081 1.6497386e-38 339 213
0.0267208 0.76200002 0.036073081 1.649631e-38 340 213
0.028056841 0.76200002 0.036073081 1.631228e-38 341 213
0.029470026 0.764 0.036167759 1.6127174e-38 342 213
0.030809574 0.764 0.036167759 1.6127174e-38 343 213
0.032149121 0.764 0.036167759 1.5943516e-38 344 213
0.033488665 0.764 0.036167759 1.5943516e-38 345 213
0.034828212 0.764 0.036167759 1.5483654e-38 346 213
0.036167759 0.764 0.036167759 1.5298904e-38 347 213
-0.020356199 0.77399999 0.03528408 1.7146923e-38 305 214
-0.018999118 0.77399999 0.03528408 1.5579537e-38 306 214
-0.01764204 0.77399999 0.03528408 1.530295e-38 307 214
-0.016284959 0.77399999 0.03528408 1.6040455e-38 308 214
-0.014927879 0.77399999 0.03528408 1.5672031e-38 309 214
-0.013570799 0.77399999 0.03528408 1.5854232e-38 310 214
-0.012197939 0.773 0.035238493 1.5669482e-38 311 214
-0.010842613 0.773 0.035238493 1.5760569e-38 312 214
-0.0094872871 0.773 0.035238493 1.5760569e-38 313 214
-0.0081109209 0.77100003 0.03514732 1.5485777e-38 314 214
-0.0067590997 0.77100003 0.03514732 1.5762366e-38 315 214
-0.0054072798 0.77100003 0.03514732 1.5579422e-38 316 214
-0.0040554604 0.77100003 0.03514732 1.5579422e-38 317 214
-0.0027036399 0.77100003 0.03514732 1.5762734e-38 318 214
-0.00135182 0.77100003 0.03514732 1.5762734e-38 319 214
0 0.77100003 0.03514732 1.5485061e-38 320 214
0.0013483133 0.76899999 0.035056144 1.5392507e-38 321 214
0.0026966266 0.76899999 0.035056144 1.456708e-38 322 214
0.0040449398 0.76899999 0.035056144 1.4659276e-38 323 214
0.0053932532 0.76899999 0.035056144 1.4383785e-38 324 214
0.0067415666 0.76899999 0.035056144 1.4475981e-38 325 214
0.0080898795 0.76899999 0.035056144 1.4752217e-38 326 214
0.0094381925 0.76899999 0.035056144 1.5028804e-38 327 214
0.010758453 0.76700002 0.034964975 1.4937697e-38 328 214
0.01210326 0.76700002 0.034964975 1.5122447e-38 329 214
0.013448066 0.76700002 0.034964975 1.567525e-38 330 214
0.014773586 0.76599997 0.034919381 1.5951476e-38 331 214
0.016116638 0.76599997 0.034919381 1.6502823e-38 332 214
0.017459691 0.76599997 0.034919381 1.6134042e-38 333 214
0.018753653 0.764 0.034828212 1.6592104e-38 334 214
0.020093199 0.764 0.034828212 1.6131484e-38 335 214
0.021432746 0.764 0.034828212 1.631515e-38 336 214
0.02271268 0.76200002 0.034737039 1.631515e-38 337 214
0.02404872 0.76200002 0.034737039 1.6681774e-38 338 214
0.02538476 0.76200002 0.034737039 1.6497745e-38 339 214
0.0267208 0.76200002 0.034737039 1.6680339e-38 340 214
0.028056841 0.76200002 0.034737039 1.6495592e-38 341 214
0.029392879 0.76200002 0.034737039 1.6403039e-38 342 214
0.030728921 0.76200002 0.034737039 1.6310845e-38 343 214
0.032064959 0.76200002 0.034737039 1.6034983e-38 344 214
0.033488665 0.764 0.034828212 1.6127178e-38 345 214
0.034828212 0.764 0.034828212 1.5850617e-38 346 214
0.036167759 0.764 0.034828212 1.538964e-38 347 214
0.037507307 0.764 0.034828212 1.4652854e-38 348 214
-0.021713279 0.77399999 0.033927001 1.7239099e-38 304 215
-0.020356199 0.77399999 0.033927001 1.6224948e-38 305 215
-0.018999118 0.77399999 0.033927001 1.5763184e-38 306 215
-0.01764204 0.77399999 0.033927001 1.5763184e-38 307 215
-0.016263919 0.773 0.033883166 1.6131192e-38 308 215
-0.01487002 0.77100003 0.033795502 1.5946442e-38 309 215
-0.013518199 0.77100003 0.033795502 1.6037529e-38 310 215
-0.01216638 0.77100003 0.033795502 1.5852779e-38 311 215
-0.01081456 0.77100003 0.033795502 1.5944588e-38 312 215
-0.0094627403 0.77100003 0.033795502 1.5852033e-38 313 215
-0.0080898795 0.76899999 0.033707831 1.5485762e-38 314 215
-0.0067415666 0.76899999 0.033707831 1.5485762e-38 315 215
-0.0053932532 0.76899999 0.033707831 1.5576879e-38 316 215
-0.0040449398 0.76899999 0.033707831 1.5300655e-38 317 215
-0.0027036399 0.77100003 0.033795502 1.5117705e-38 318 215
-0.00135182 0.77100003 0.033795502 1.5117705e-38 319 215
0 0.77100003 0.033795502 1.4562027e-38 320 215
0.0013483133 0.76899999 0.033707831 1.4562027e-38 321 215
0.0026966266 0.76899999 0.033707831 1.373623e-38 322 215
0.0040449398 0.76899999 0.033707831 1.3644033e-38 323 215
0.0053932532 0.76899999 0.033707831 1.3277422e-38 324 215
0.0067415666 0.76899999 0.033707831 1.3369618e-38 325 215
0.0080898795 0.76899999 0.033707831 1.3371453e-38 326 215
0.0094381925 0.76899999 0.033707831 1.3924268e-38 327 215
0.010786506 0.76899999 0.033707831 1.4477093e-38 328 215
0.01210326 0.76700002 0.033620168 1.456929e-38 329 215
0.013448066 0.76700002 0.033620168 1.512281e-38 330 215
0.014773586 0.76599997 0.033576332 1.5860377e-38 331 215
0.016116638 0.76599997 0.033576332 1.6411366e-38 332 215
0.017459691 0.76599997 0.033576332 1.5858193e-38 333 215
0.018753653 0.764 0.033488665 1.6409163e-38 334 215
0.020093199 0.764 0.033488665 1.5948185e-38 335 215
0.021432746 0.764 0.033488665 1.6222956e-38 336 215
0.02271268 0.76200002 0.033401001 1.6130761e-38 337 215
0.02404872 0.76200002 0.033401001 1.6406268e-38 338 215
0.02538476 0.76200002 0.033401001 1.6406268e-38 339 215
0.0267208 0.76200002 0.033401001 1.6587786e-38 340 215
0.028056841 0.76200002 0.033401001 1.6587786e-38 341 215
0.029392879 0.76200002 0.033401001 1.6403039e-38 342 215
0.030728921 0.76200002 0.033401001 1.6403039e-38 343 215
0.032064959 0.76200002 0.033401001 1.6126815e-38 344 215
0.033488665 0.764 0.033488665 1.6219368e-38 345 215
0.034828212 0.764 0.033488665 1.5758771e-38 346 215
0.036167759 0.764 0.033488665 1.5482186e-38 347 215
0.037654586 0.76700002 0.033620168 1.4837583e-38 348 215
-0.021713279 0.77399999 0.032569919 1.6686982e-38 304 216
-0.020356199 0.77399999 0.032569919 1.5396243e-38 305 216
-0.018999118 0.77399999 0.032569919 1.5579482e-38 306 216
-0.017619247 0.773 0.032527838 1.5855709e-38 307 216
-0.016263919 0.773 0.032527838 1.6223009e-38 308 216
-0.01487002 0.77100003 0.032443684 1.5946782e-38 309 216
-0.013518199 0.77100003 0.032443684 1.6038229e-38 310 216
-0.012134819 0.76899999 0.032359518 1.5761643e-38 311 216
-0.010786506 0.76899999 0.032359518 1.5943863e-38 312 216
-0.0094381925 0.76899999 0.032359518 1.5851668e-38 313 216
-0.0080898795 0.76899999 0.032359518 1.5208819e-38 314 216
-0.0067415666 0.76899999 0.032359518 1.4840401e-38 315 216
-0.0053792265 0.76700002 0.03227536 1.4930802e-38 316 216
-0.00403442 0.76700002 0.03227536 1.4746413e-38 317 216
-0.0026966266 0.76899999 0.032359518 1.4377995e-38 318 216
-0.0013483133 0.76899999 0.032359518 1.4285801e-38 319 216
0 0.76700002 0.03227536 1.3732635e-38 320 216
0.0013448066 0.76700002 0.03227536 1.3456411e-38 321 216
0.0026966266 0.76899999 0.032359518 1.3088711e-38 322 216
0.0040449398 0.76899999 0.032359518 1.2904322e-38 323 216
0.0053932532 0.76899999 0.032359518 1.2261841e-38 324 216
0.0067415666 0.76899999 0.032359518 1.2354036e-38 325 216
0.0080898795 0.76899999 0.032359518 1.2081809e-38 326 216
0.0094381925 0.76899999 0.032359518 1.2819375e-38 327 216
0.010786506 0.76899999 0.032359518 1.3096331e-38 328 216
0.01210326 0.76700002 0.03227536 1.3557309e-38 329 216
0.013448066 0.76700002 0.03227536 1.4661839e-38 330 216
0.014773586 0.76599997 0.032233275 1.5399404e-38 331 216
0.016116638 0.76599997 0.032233275 1.6134426e-38 332 216
0.017459691 0.76599997 0.032233275 1.5858199e-38 333 216
0.018753653 0.764 0.032149121 1.6040748e-38 334 216
0.0200406 0.76200002 0.032064959 1.5856355e-38 335 216
0.02137664 0.76200002 0.032064959 1.6040002e-38 336 216
0.02271268 0.76200002 0.032064959 1.5947808e-38 337 216
0.02404872 0.76200002 0.032064959 1.6314432e-38 338 216
0.025351444 0.76099998 0.032022879 1.6222238e-38 339 216
0.026685731 0.76099998 0.032022879 1.6312639e-38 340 216
0.028020019 0.76099998 0.032022879 1.6312639e-38 341 216
0.029354304 0.76099998 0.032022879 1.6219368e-38 342 216
0.030728921 0.76200002 0.032064959 1.6127174e-38 343 216
0.032064959 0.76200002 0.032064959 1.6035339e-38 344 216
0.033401001 0.76200002 0.032064959 1.5851309e-38 345 216
0.034737039 0.76200002 0.032064959 1.566657e-38 346 216
0.036073081 0.76200002 0.032064959 1.5390342e-38 347 216
0.037605491 0.76599997 0.032233275 1.5021948e-38 348 216
0.038948543 0.76599997 0.032233275 1.5021948e-38 349 216
-0.02307036 0.77399999 0.031212838 1.7791213e-38 303 217
-0.021685226 0.773 0.03117251 1.6224543e-38 304 217
-0.0203299 0.773 0.03117251 1.5210031e-38 305 217
-0.018974574 0.773 0.03117251 1.5763132e-38 306 217
-0.017619247 0.773 0.03117251 1.5855328e-38 307 217
-0.016221842 0.77100003 0.031091858 1.6222993e-38 308 217
-0.014831445 0.76899999 0.031011207 1.6038601e-38 309 217
-0.013483133 0.76899999 0.031011207 1.613005e-38 310 217
-0.012134819 0.76899999 0.031011207 1.5761626e-38 311 217
-0.010786506 0.76899999 0.031011207 1.5852026e-38 312 217
-0.0094381925 0.76899999 0.031011207 1.5667279e-38 313 217
-0.00806884 0.76700002 0.030930554 1.4840405e-38 314 217
-0.006724033 0.76700002 0.030930554 1.4102847e-38 315 217
-0.0053722127 0.76599997 0.030890226 1.4193248e-38 316 217
-0.0040291594 0.76599997 0.030890226 1.3732277e-38 317 217
-0.0026861064 0.76599997 0.030890226 1.3271305e-38 318 217
-0.0013430532 0.76599997 0.030890226 1.290217e-38 319 217
0 0.76700002 0.030930554 1.253411e-38 320 217
0.0013448066 0.76700002 0.030930554 1.2073139e-38 321 217
0.0026966266 0.76899999 0.031011207 1.1704721e-38 322 217
0.0040449398 0.76899999 0.031011207 1.1520333e-38 323 217
0.0053932532 0.76899999 0.031011207 1.0509783e-38 324 217
0.0067415666 0.76899999 0.031011207 1.087856e-38 325 217
0.0080898795 0.76899999 0.031011207 1.0422658e-38 326 217
0.0094381925 0.76899999 0.031011207 1.1621201e-38 327 217
0.010786506 0.76899999 0.031011207 1.2449529e-38 328 217
0.01210326 0.76700002 0.030930554 1.3002703e-38 329 217
0.013448066 0.76700002 0.030930554 1.4384179e-38 330 217
0.014773586 0.76599997 0.030890226 1.5121744e-38 331 217
0.016116638 0.76599997 0.030890226 1.576565e-38 332 217
0.017414106 0.764 0.030809574 1.576565e-38 333 217
0.01870456 0.76200002 0.030728921 1.5856729e-38 334 217
0.0200406 0.76200002 0.030728921 1.5580141e-38 335 217
0.02137664 0.76200002 0.030728921 1.5947459e-38 336 217
0.022682872 0.76099998 0.030688593 1.5763069e-38 337 217
0.024017159 0.76099998 0.030688593 1.613005e-38 338 217
0.025351444 0.76099998 0.030688593 1.613005e-38 339 217
0.026685731 0.76099998 0.030688593 1.6221529e-38 340 217
0.028020019 0.76099998 0.030688593 1.6037138e-38 341 217
0.029354304 0.76099998 0.030688593 1.6127533e-38 342 217
0.030688593 0.76099998 0.030688593 1.6035339e-38 343 217
0.032022879 0.76099998 0.030688593 1.5759473e-38 344 217
0.033401001 0.76200002 0.030728921 1.5667279e-38 345 217
0.034737039 0.76200002 0.030728921 1.5482539e-38 346 217
0.036073081 0.76200002 0.030728921 1.5298146e-38 347 217
0.037507307 0.764 0.030809574 1.5297446e-38 348 217
0.038846854 0.764 0.030809574 1.5204891e-38 349 217
0.040344197 0.76700002 0.030930554 1.4561031e-38 350 217
-0.02307036 0.77399999 0.029855758 1.6778491e-38 303 218
-0.021685226 0.773 0.029817186 1.5579872e-38 304 218
-0.0203299 0.773 0.029817186 1.5026338e-38 305 218
-0.018974574 0.773 0.029817186 1.6039697e-38 306 218
-0.01757366 0.77100003 0.029740039 1.5947501e-38 307 218
-0.016179759 0.76899999 0.02966289 1.6039676e-38 308 218
-0.014831445 0.76899999 0.02966289 1.5947479e-38 309 218
-0.013483133 0.76899999 0.02966289 1.613005e-38 310 218
-0.01210326 0.76700002 0.029585747 1.5853823e-38 311 218
-0.010758453 0.76700002 0.029585747 1.5668714e-38 312 218
-0.0094136465 0.76700002 0.029585747 1.5207384e-38 313 218
-0.00806884 0.76700002 0.029585747 1.4012093e-38 314 218
-0.006697733 0.764 0.029470026 1.1430649e-38 315 218
-0.0053581866 0.764 0.029470026 1.1053622e-38 316 218
-0.0040081199 0.76200002 0.029392879 1.0408262e-38 317 218
-0.00267208 0.76200002 0.029392879 9.675013e-39 318 218
-0.00133604 0.76200002 0.029392879 9.8597602e-39 319 218
0 0.76599997 0.029547172 1.0228537e-38 320 218
0.0013430532 0.76599997 0.029547172 1.0228537e-38 321 218
0.0026896133 0.76700002 0.029585747 9.6757305e-39 322 218
0.0040449398 0.76899999 0.02966289 9.0303709e-39 323 218
0.0053932532 0.76899999 0.02966289 8.110581e-39 324 218
0.0067415666 0.76899999 0.02966289 8.4793579e-39 325 218
0.0080898795 0.76899999 0.02966289 8.2088933e-39 326 218
0.0094381925 0.76899999 0.02966289 9.8680545e-39 327 218
0.010786506 0.76899999 0.02966289 1.1066951e-38 328 218
0.01210326 0.76700002 0.029585747 1.235769e-38 329 218
0.013430533 0.76599997 0.029547172 1.419906e-38 330 218
0.014773586 0.76599997 0.029547172 1.5121375e-38 331 218
0.016074561 0.764 0.029470026 1.5581252e-38 332 218
0.017414106 0.764 0.029470026 1.5581252e-38 333 218
0.01870456 0.76200002 0.029392879 1.5948202e-38 334 218
0.0200406 0.76200002 0.029392879 1.5763809e-38 335 218
0.021348584 0.76099998 0.029354304 1.5856342e-38 336 218
0.022682872 0.76099998 0.029354304 1.5763788e-38 337 218
0.024017159 0.76099998 0.029354304 1.594709e-38 338 218
0.025351444 0.76099998 0.029354304 1.594709e-38 339 218
0.026615599 0.759 0.029277159 1.6129687e-38 340 218
0.027946379 0.759 0.029277159 1.6037132e-38 341 218
0.029277159 0.759 0.029277159 1.6036418e-38 342 218
0.030688593 0.76099998 0.029354304 1.5943863e-38 343 218
0.032022879 0.76099998 0.029354304 1.5668002e-38 344 218
0.033357166 0.76099998 0.029354304 1.5483611e-38 345 218
0.034737039 0.76200002 0.029392879 1.5482895e-38 346 218
0.036073081 0.76200002 0.029392879 1.5205949e-38 347 218
0.037409119 0.76200002 0.029392879 1.5297793e-38 348 218
0.038846854 0.764 0.029470026 1.5205598e-38 349 218
0.040291596 0.76599997 0.029547172 1.4745403e-38 350 218
0.041634649 0.76599997 0.029547172 1.5575163e-38 351 218
-0.024395877 0.773 0.028461859 1.7332364e-38 302 219
-0.023040552 0.773 0.028461859 1.5857594e-38 303 219
-0.021685226 0.773 0.028461859 1.5486568e-38 304 219
-0.0203299 0.773 0.028461859 1.5486568e-38 305 219
-0.018925481 0.77100003 0.028388219 1.6222991e-38 306 219
-0.017528072 0.76899999 0.028314579 1.6315186e-38 307 219
-0.016179759 0.76899999 0.028314579 1.640736e-38 308 219
-0.014792874 0.76700002 0.02824094 1.6131131e-38 309 219
-0.013448066 0.76700002 0.02824094 1.640555e-38 310 219
-0.01210326 0.76700002 0.02824094 1.5944579e-38 311 219
-0.010758453 0.76700002 0.02824094 1.6127174e-38 312 219
-0.0094013726 0.76599997 0.028204117 1.5666562e-38 313 219
-0.0080583189 0.76599997 0.028204117 1.4011375e-38 314 219
-0.0066801999 0.76200002 0.028056841 1.0968602e-38 315 219
-0.0053441599 0.76200002 0.028056841 9.2133244e-39 316 219
-0.0040081199 0.76200002 0.028056841 9.0292947e-39 317 219
-0.0026685731 0.76099998 0.028020019 9.4895484e-39 318 219
-0.0013342865 0.76099998 0.028020019 9.9501608e-39 319 219
0 0.76200002 0.028056841 1.0502253e-38 320 219
0.0013395466 0.764 0.028130481 1.0317861e-38 321 219
0.0026861064 0.76599997 0.028204117 9.3962905e-39 322 219
0.00403442 0.76700002 0.02824094 8.9356711e-39 323 219
0.0053792265 0.76700002 0.02824094 7.64674e-39 324 219
0.006724033 0.76700002 0.02824094 7.554187e-39 325 219
0.0080898795 0.76899999 0.028314579 7.0078418e-39 326 219
0.0094136465 0.76700002 0.02824094 8.2985806e-39 327 219
0.010758453 0.76700002 0.02824094 1.004848e-38 328 219
0.01210326 0.76700002 0.02824094 1.2906905e-38 329 219
0.013430533 0.76599997 0.028204117 1.4474556e-38 330 219
0.014735013 0.764 0.028130481 1.5488706e-38 331 219
0.01603248 0.76200002 0.028056841 1.5580889e-38 332 219
0.01736852 0.76200002 0.028056841 1.5488335e-38 333 219
0.01870456 0.76200002 0.028056841 1.5947481e-38 334 219
0.020014299 0.76099998 0.028020019 1.5855286e-38 335 219
0.021348584 0.76099998 0.028020019 1.6039286e-38 336 219
0.022682872 0.76099998 0.028020019 1.594709e-38 337 219
0.023954039 0.759 0.027946379 1.6130761e-38 338 219
0.025284819 0.759 0.027946379 1.6130761e-38 339 219
0.026615599 0.759 0.027946379 1.603785e-38 340 219
0.027946379 0.759 0.027946379 1.5945297e-38 341 219
0.029277159 0.759 0.027946379 1.5945297e-38 342 219
0.030607941 0.759 0.027946379 1.5853103e-38 343 219
0.032022879 0.76099998 0.028020019 1.5485043e-38 344 219
0.033357166 0.76099998 0.028020019 1.5208819e-38 345 219
0.034691449 0.76099998 0.028020019 1.5299578e-38 346 219
0.036073081 0.76200002 0.028056841 1.5023354e-38 347 219
0.037409119 0.76200002 0.028056841 1.5297793e-38 348 219
0.038846854 0.764 0.028130481 1.5297793e-38 349 219
0.040291596 0.76599997 0.028204117 1.4837227e-38 350 219
0.041689005 0.76700002 0.02824094 1.5206008e-38 351 219
0.043033812 0.76700002 0.02824094 1.5576668e-38 352 219
-0.025784519 0.77399999 0.027141599 1.8067451e-38 301 220
-0.024395877 0.773 0.027106533 1.696357e-38 302 220
-0.023040552 0.773 0.027106533 1.5303688e-38 303 220
-0.021685226 0.773 0.027106533 1.5670583e-38 304 220
-0.020277301 0.77100003 0.027036399 1.5762779e-38 305 220
-0.018876385 0.76899999 0.026966266 1.6224065e-38 306 220
-0.017528072 0.76899999 0.026966266 1.6316261e-38 307 220
-0.01613768 0.76700002 0.026896132 1.6316965e-38 308 220
-0.014792874 0.76700002 0.026896132 1.6040379e-38 309 220
-0.013448066 0.76700002 0.026896132 1.6222597e-38 310 220
-0.012087479 0.76599997 0.026861066 1.5854179e-38 311 220
-0.010744425 0.76599997 0.026861066 1.5944221e-38 312 220
-0.0093768267 0.764 0.026790932 1.5852026e-38 313 220
-0.0080372803 0.764 0.026790932 1.4287601e-38 314 220
-0.0066714329 0.76099998 0.026685731 1.3181622e-38 315 220
-0.0053231199 0.759 0.026615599 1.271995e-38 316 220
-0.0039923396 0.759 0.026615599 1.271995e-38 317 220
-0.0026545466 0.75700003 0.026545467 1.2443383e-38 318 220
-0.0013272733 0.75700003 0.026545467 1.1798014e-38 319 220
0 0.76099998 0.026685731 1.1425987e-38 320 220
0.0013395466 0.764 0.026790932 1.0135267e-38 321 220
0.0026790933 0.764 0.026790932 8.1991879e-39 322 220
0.00403442 0.76700002 0.026896132 8.1991879e-39 323 220
0.0053792265 0.76700002 0.026896132 8.1059175e-39 324 220
0.006724033 0.76700002 0.026896132 7.6449463e-39 325 220
0.00806884 0.76700002 0.026896132 5.8100301e-39 326 220
0.0094136465 0.76700002 0.026896132 6.2710012e-39 327 220
0.010744425 0.76599997 0.026861066 1.0598044e-38 328 220
0.01205592 0.764 0.026790932 1.4193674e-38 329 220
0.013395466 0.764 0.026790932 1.5119575e-38 330 220
0.01469644 0.76200002 0.0267208 1.585714e-38 331 220
0.01603248 0.76200002 0.0267208 1.5672729e-38 332 220
0.017345725 0.76099998 0.026685731 1.5396142e-38 333 220
0.018680012 0.76099998 0.026685731 1.6131144e-38 334 220
0.020014299 0.76099998 0.026685731 1.5946753e-38 335 220
0.021348584 0.76099998 0.026685731 1.5947809e-38 336 220
0.02262326 0.759 0.026615599 1.5947809e-38 337 220
0.023954039 0.759 0.026615599 1.6130403e-38 338 220
0.025284819 0.759 0.026615599 1.6130403e-38 339 220
0.026615599 0.759 0.026615599 1.603785e-38 340 220
0.027946379 0.759 0.026615599 1.5945655e-38 341 220
0.029277159 0.759 0.026615599 1.5853103e-38 342 220
0.030607941 0.759 0.026615599 1.5853103e-38 343 220
0.032022879 0.76099998 0.026685731 1.5301372e-38 344 220
0.033357166 0.76099998 0.026685731 1.5116984e-38 345 220
0.034691449 0.76099998 0.026685731 1.5208103e-38 346 220
0.036073081 0.76200002 0.0267208 1.5115549e-38 347 220
0.037409119 0.76200002 0.0267208 1.5390345e-38 348 220
0.038846854 0.764 0.026790932 1.5298149e-38 349 220
0.040186398 0.764 0.026790932 1.5298166e-38 350 220
0.041634649 0.76599997 0.026861066 1.4929383e-38 351 220
0.042977702 0.76599997 0.026861066 1.4930905e-38 352 220
0.044320758 0.76599997 0.026861066 1.6867013e-38 353 220
-0.027211733 0.77600002 0.025851147 1.7883412e-38 300 221
-0.025784519 0.77399999 0.025784519 1.7607185e-38 301 221
-0.024395877 0.773 0.025751207 1.6687329e-38 302 221
-0.023040552 0.773 0.025751207 1.5212199e-38 303 221
-0.021629119 0.77100003 0.02568458 1.5853893e-38 304 221
-0.0202247 0.76899999 0.025617953 1.5946088e-38 305 221
-0.018827293 0.76700002 0.025551327 1.6683967e-38 306 221
-0.017482487 0.76700002 0.025551327 1.6683967e-38 307 221
-0.016116638 0.76599997 0.025518013 1.659246e-38 308 221
-0.014773586 0.76599997 0.025518013 1.6223677e-38 309 221
-0.013430533 0.76599997 0.025518013 1.631515e-38 310 221
-0.01205592 0.764 0.025451386 1.6038208e-38 311 221
-0.01068832 0.76200002 0.02538476 1.5945297e-38 312 221
-0.0093522798 0.76200002 0.02538476 1.5484326e-38 313 221
-0.0080057196 0.76099998 0.025351444 1.4840042e-38 314 221
-0.0066538998 0.759 0.025284819 1.4378712e-38 315 221
-0.0053090933 0.75700003 0.025218192 1.3826273e-38 316 221
-0.0039818203 0.75700003 0.025218192 1.3641882e-38 317 221
-0.0026545466 0.75700003 0.025218192 1.3548617e-38 318 221
-0.0013272733 0.75700003 0.025218192 1.3179834e-38 319 221
0 0.75700003 0.025218192 1.2533393e-38 320 221
0.0013272733 0.75700003 0.025218192 1.1242674e-38 321 221
0.0026545466 0.75700003 0.025218192 9.7646961e-39 322 221
0.0040028598 0.76099998 0.025351444 8.1970355e-39 323 221
0.0053792265 0.76700002 0.025551327 7.2747345e-39 324 221
0.006724033 0.76700002 0.025551327 6.9063163e-39 325 221
0.00806884 0.76700002 0.025551327 5.7146072e-39 326 221
0.0093768267 0.764 0.025451386 7.3741062e-39 327 221
0.010716373 0.764 0.025451386 1.1148691e-38 328 221
0.01205592 0.764 0.025451386 1.4560288e-38 329 221
0.0133604 0.76200002 0.02538476 1.4751867e-38 330 221
0.01469644 0.76200002 0.02538476 1.5397236e-38 331 221
0.016011439 0.76099998 0.025351444 1.548834e-38 332 221
0.017345725 0.76099998 0.025351444 1.5395786e-38 333 221
0.018680012 0.76099998 0.025351444 1.5855636e-38 334 221
0.0199617 0.759 0.025284819 1.5855636e-38 335 221
0.02129248 0.759 0.025284819 1.6222956e-38 336 221
0.02262326 0.759 0.025284819 1.6222956e-38 337 221
0.02389092 0.75700003 0.025218192 1.6405909e-38 338 221
0.025218192 0.75700003 0.025218192 1.6313715e-38 339 221
0.026545467 0.75700003 0.025218192 1.6312997e-38 340 221
0.027872739 0.75700003 0.025218192 1.6220803e-38 341 221
0.029277159 0.759 0.025284819 1.5944938e-38 342 221
0.030607941 0.759 0.025284819 1.5852744e-38 343 221
0.031938717 0.759 0.025284819 1.5484326e-38 344 221
0.033357166 0.76099998 0.025351444 1.5392131e-38 345 221
0.034691449 0.76099998 0.025351444 1.5116625e-38 346 221
0.036025736 0.76099998 0.025351444 1.4932595e-38 347 221
0.037409119 0.76200002 0.02538476 1.4931889e-38 348 221
0.038745161 0.76200002 0.02538476 1.4839692e-38 349 221
0.040081199 0.76200002 0.02538476 1.4931185e-38 350 221
0.041525945 0.764 0.025451386 1.4469847e-38 351 221
0.042865492 0.764 0.025451386 1.4560681e-38 352 221
0.04420504 0.764 0.025451386 1.668118e-38 353 221
-0.028572321 0.77600002 0.024490559 1.7975261e-38 299 222
-0.027141599 0.77399999 0.02442744 1.7974888e-38 300 222
-0.025784519 0.77399999 0.02442744 1.7329519e-38 301 222
-0.024395877 0.773 0.024395877 1.6411093e-38 302 222
-0.023040552 0.773 0.024395877 1.5304745e-38 303 222
-0.021629119 0.77100003 0.02433276 1.6037918e-38 304 222
-0.0202247 0.76899999 0.024269639 1.6037918e-38 305 222
-0.018827293 0.76700002 0.024206521 1.686801e-38 306 222
-0.017482487 0.76700002 0.024206521 1.6960205e-38 307 222
-0.016116638 0.76599997 0.024174958 1.6776145e-38 308 222
-0.014735013 0.764 0.024111839 1.6499558e-38 309 222
-0.013395466 0.764 0.024111839 1.6406985e-38 310 222
-0.01202436 0.76200002 0.02404872 1.6222597e-38 311 222
-0.01068832 0.76200002 0.02404872 1.5762343e-38 312 222
-0.0093400059 0.76099998 0.024017159 1.5485402e-38 313 222
-0.0080057196 0.76099998 0.024017159 1.5116625e-38 314 222
-0.0066538998 0.759 0.023954039 1.4840401e-38 315 222
-0.0053090933 0.75700003 0.02389092 1.4562025e-38 316 222
-0.0039818203 0.75700003 0.02389092 1.4285442e-38 317 222
-0.0026545466 0.75700003 0.02389092 1.4009935e-38 318 222
-0.0013272733 0.75700003 0.02389092 1.3917382e-38 319 222
0 0.75700003 0.02389092 1.3641517e-38 320 222
0.0013272733 0.75700003 0.02389092 1.2811769e-38 321 222
0.0026545466 0.75700003 0.02389092 1.2069552e-38 322 222
0.0039818203 0.75700003 0.02389092 1.0041279e-38 323 222
0.0053371461 0.76099998 0.024017159 7.9186591e-39 324 222
0.0066801999 0.76200002 0.02404872 6.9970756e-39 325 222
0.0080372803 0.764 0.024111839 4.6104289e-39 326 222
0.0093522798 0.76200002 0.02404872 7.5610057e-39 327 222
0.01068832 0.76200002 0.02404872 1.1886244e-38 328 222
0.01202436 0.76200002 0.02404872 1.4467721e-38 329 222
0.0133604 0.76200002 0.02404872 1.4566377e-38 330 222
0.014677152 0.76099998 0.024017159 1.5211746e-38 331 222
0.016011439 0.76099998 0.024017159 1.5487972e-38 332 222
0.017300138 0.759 0.023954039 1.5672003e-38 333 222
0.01863092 0.759 0.023954039 1.5856355e-38 334 222
0.019909101 0.75700003 0.02389092 1.5764159e-38 335 222
0.021236373 0.75700003 0.02389092 1.6407344e-38 336 222
0.022563647 0.75700003 0.02389092 1.6499538e-38 337 222
0.023827799 0.755 0.023827799 1.6591015e-38 338 222
0.025151566 0.755 0.023827799 1.6314432e-38 339 222
0.026475333 0.755 0.023827799 1.6313356e-38 340 222
0.027799098 0.755 0.023827799 1.6129326e-38 341 222
0.029200014 0.75700003 0.02389092 1.6036774e-38 342 222
0.030607941 0.759 0.023954039 1.5944579e-38 343 222
0.031938717 0.759 0.023954039 1.557652e-38 344 222
0.033357166 0.76099998 0.024017159 1.5391773e-38 345 222
0.034691449 0.76099998 0.024017159 1.5116273e-38 346 222
0.036025736 0.76099998 0.024017159 1.5116273e-38 347 222
0.037409119 0.76200002 0.02404872 1.5114495e-38 348 222
0.038745161 0.76200002 0.02404872 1.5022298e-38 349 222
0.040081199 0.76200002 0.02404872 1.4838633e-38 350 222
0.041525945 0.764 0.024111839 1.4654241e-38 351 222
0.042865492 0.764 0.024111839 1.4469198e-38 352 222
0.04420504 0.764 0.024111839 1.6221275e-38 353 222
0.045544583 0.764 0.024111839 1.6866721e-38 354 222
-0.028498679 0.77399999 0.02307036 1.7975977e-38 299 223
-0.027141599 0.77399999 0.02307036 1.7883409e-38 300 223
-0.025751207 0.773 0.023040552 1.6777421e-38 301 223
-0.024395877 0.773 0.023040552 1.6317808e-38 302 223
-0.02298094 0.77100003 0.02298094 1.5395493e-38 303 223
-0.021573013 0.76899999 0.022921326 1.6222656e-38 304 223
-0.020172099 0.76700002 0.022861714 1.5946429e-38 305 223
-0.018827293 0.76700002 0.022861714 1.686981e-38 306 223
-0.017459691 0.76599997 0.022831906 1.7146039e-38 307 223
-0.016074561 0.764 0.022772292 1.7143858e-38 308 223
-0.01469644 0.76200002 0.02271268 1.6866911e-38 309 223
-0.0133604 0.76200002 0.02271268 1.6683568e-38 310 223
-0.01202436 0.76200002 0.02271268 1.6406985e-38 311 223
-0.010674292 0.76099998 0.022682872 1.6130403e-38 312 223
-0.0093400059 0.76099998 0.022682872 1.6038208e-38 313 223
-0.0079846792 0.759 0.02262326 1.5669073e-38 314 223
-0.0066363667 0.75700003 0.022563647 1.5392131e-38 315 223
-0.0053090933 0.75700003 0.022563647 1.5482173e-38 316 223
-0.0039818203 0.75700003 0.022563647 1.5113755e-38 317 223
-0.0026475333 0.755 0.022504034 1.465386e-38 318 223
-0.0013237667 0.755 0.022504034 1.4561666e-38 319 223
0 0.755 0.022504034 1.4378355e-38 320 223
0.0013237667 0.755 0.022504034 1.4378355e-38 321 223
0.0026475333 0.755 0.022504034 1.40078e-38 322 223
0.0039712996 0.755 0.022504034 1.3638657e-38 323 223
0.0053090933 0.75700003 0.022563647 1.2806774e-38 324 223
0.0066714329 0.76099998 0.022682872 1.1700426e-38 325 223
0.0080057196 0.76099998 0.022682872 9.7697282e-39 326 223
0.0093400059 0.76099998 0.022682872 1.1152663e-38 327 223
0.010674292 0.76099998 0.022682872 1.327025e-38 328 223
0.012008579 0.76099998 0.022682872 1.4468793e-38 329 223
0.013342866 0.76099998 0.022682872 1.456529e-38 330 223
0.014638579 0.759 0.02262326 1.539469e-38 331 223
0.015969358 0.759 0.02262326 1.5303929e-38 332 223
0.017254554 0.75700003 0.022563647 1.5488322e-38 333 223
0.018581826 0.75700003 0.022563647 1.61315e-38 334 223
0.019909101 0.75700003 0.022563647 1.6223697e-38 335 223
0.021236373 0.75700003 0.022563647 1.6775406e-38 336 223
0.022504034 0.755 0.022504034 1.6775406e-38 337 223
0.023827799 0.755 0.022504034 1.6959075e-38 338 223
0.025151566 0.755 0.022504034 1.6590656e-38 339 223
0.026475333 0.755 0.022504034 1.6498103e-38 340 223
0.027799098 0.755 0.022504034 1.6129326e-38 341 223
0.029122867 0.755 0.022504034 1.6036774e-38 342 223
0.030607941 0.759 0.02262326 1.5944579e-38 343 223
0.031938717 0.759 0.02262326 1.5668714e-38 344 223
0.033269498 0.759 0.02262326 1.5391773e-38 345 223
0.034691449 0.76099998 0.022682872 1.5116273e-38 346 223
0.036025736 0.76099998 0.022682872 1.4839686e-38 347 223
0.037360024 0.76099998 0.022682872 1.5022298e-38 348 223
0.038745161 0.76200002 0.02271268 1.4930102e-38 349 223
