# .PCD v.7 - Point Cloud Data file format
FIELDS x y z rgb imX imY
SIZE 4 4 4 4 4 4
TYPE F F F F F F
COUNT 1 1 1 1 1 1
WIDTH 840
HEIGHT 1
VIEWPOINT 0 0 0 1 0 0 0
POINTS 840
DATA ascii
0.048344657 0.70700002 -0.032229774 6.2455368e-39 359 266
0.049584266 0.70700002 -0.032229774 6.1537041e-39 360 266
0.050823875 0.70700002 -0.032229774 6.2462585e-39 361 266
0.052137118 0.708 -0.03227536 5.9711135e-39 362 266
0.053378478 0.708 -0.03227536 5.8789179e-39 363 266
0.054774132 0.70999998 -0.032366529 5.6941777e-39 364 266
0.056097899 0.71100003 -0.032412119 5.9707632e-39 365 266
0.057344519 0.71100003 -0.032412119 5.2393134e-39 366 266
0.058755953 0.713 -0.032503292 4.6861396e-39 367 266
0.060006075 0.713 -0.032503292 7.3619569e-39 368 266
0.061256204 0.713 -0.032503292 1.2709303e-38 369 266
-0.016593546 0.72799999 -0.034463517 1.3637005e-38 307 267
-0.01531712 0.72799999 -0.034463517 1.2438829e-38 308 267
-0.014021406 0.727 -0.03441618 8.7513625e-39 309 267
-0.012746733 0.727 -0.03441618 4.6908116e-39 310 267
-0.01140894 0.72299999 -0.03422682 4.413866e-39 311 267
-0.010127253 0.722 -0.034179479 4.1329659e-39 312 267
-0.0088613462 0.722 -0.034179479 3.8570964e-39 313 267
-0.0075743999 0.72000003 -0.034084801 3.3979134e-39 314 267
-0.0062857 0.71700001 -0.033942781 3.3979134e-39 315 267
-0.0050285598 0.71700001 -0.033942781 3.4897489e-39 316 267
-0.0037556398 0.71399999 -0.033800758 3.4897489e-39 317 267
-0.0025037599 0.71399999 -0.033800758 3.4897531e-39 318 267
-0.0012501266 0.713 -0.033753417 3.3060793e-39 319 267
0 0.71100003 -0.033658739 3.3979176e-39 320 267
0.00124662 0.71100003 -0.033658739 3.58159e-39 321 267
0.0024897333 0.70999998 -0.033611398 3.6734255e-39 322 267
0.00372408 0.708 -0.033516716 4.1336847e-39 323 267
0.0049654399 0.708 -0.033516716 4.5024645e-39 324 267
0.0061892662 0.70599997 -0.033422034 4.6868557e-39 325 267
0.0074271196 0.70599997 -0.033422034 4.7812093e-39 326 267
0.0086404262 0.704 -0.03332736 4.9652405e-39 327 267
0.0098607466 0.70300001 -0.033280019 5.0592382e-39 328 267
0.01109334 0.70300001 -0.033280019 5.1514338e-39 329 267
0.012290866 0.70099998 -0.03318534 5.0585179e-39 330 267
0.013519952 0.70099998 -0.03318534 4.7815723e-39 331 267
0.014727999 0.69999999 -0.033137999 4.6890137e-39 332 267
0.015955333 0.69999999 -0.033137999 4.5042623e-39 333 267
0.017182667 0.69999999 -0.033137999 4.5957391e-39 334 267
0.018409999 0.69999999 -0.033137999 4.5957391e-39 335 267
0.019581227 0.69800001 -0.033043321 5.2378673e-39 336 267
0.020805053 0.69800001 -0.033043321 5.0531173e-39 337 267
0.02202888 0.69800001 -0.033043321 5.4182971e-39 338 267
0.023252707 0.69800001 -0.033043321 5.3264602e-39 339 267
0.024476532 0.69800001 -0.033043321 5.8774746e-39 340 267
0.025700359 0.69800001 -0.033043321 5.7856377e-39 341 267
0.026924185 0.69800001 -0.033043321 6.1529852e-39 342 267
0.028228667 0.69999999 -0.033137999 6.2448221e-39 343 267
0.029455997 0.69999999 -0.033137999 6.4284917e-39 344 267
0.030683333 0.69999999 -0.033137999 6.4284917e-39 345 267
0.031910665 0.69999999 -0.033137999 6.9795033e-39 346 267
0.03318534 0.70099998 -0.03318534 7.1631771e-39 347 267
0.034414422 0.70099998 -0.03318534 7.1631771e-39 348 267
0.035643511 0.70099998 -0.03318534 7.1631771e-39 349 267
0.036872596 0.70099998 -0.03318534 6.703994e-39 350 267
0.038210396 0.70300001 -0.033280019 6.9802208e-39 351 267
0.039499093 0.704 -0.03332736 6.5214006e-39 352 267
0.040733438 0.704 -0.03332736 6.429205e-39 353 267
0.041967787 0.704 -0.03332736 6.4288519e-39 354 267
0.043324865 0.70599997 -0.033422034 6.3366562e-39 355 267
0.044562716 0.70599997 -0.033422034 6.15406e-39 356 267
0.04580057 0.70599997 -0.033422034 6.0618644e-39 357 267
0.047105055 0.70700002 -0.033469379 5.9696688e-39 358 267
0.048344657 0.70700002 -0.033469379 6.0618644e-39 359 267
0.049584266 0.70700002 -0.033469379 5.9696688e-39 360 267
0.050895758 0.708 -0.033516716 6.15406e-39 361 267
0.052137118 0.708 -0.033516716 5.8792682e-39 362 267
0.053378478 0.708 -0.033516716 5.8792682e-39 363 267
0.054774132 0.70999998 -0.033611398 5.4200893e-39 364 267
0.056097899 0.71100003 -0.033658739 5.5126437e-39 365 267
0.057344519 0.71100003 -0.033658739 5.6062715e-39 366 267
0.058755953 0.713 -0.033753417 4.6846865e-39 367 267
0.060006075 0.713 -0.033753417 6.7158532e-39 368 267
0.061256204 0.713 -0.033753417 1.2339426e-38 369 267
-0.016593546 0.72799999 -0.035739943 1.3544085e-38 307 268
-0.015296079 0.727 -0.035690852 1.2623573e-38 308 268
-0.014021406 0.727 -0.035690852 9.2123351e-39 309 268
-0.012711667 0.72500002 -0.035592668 5.4272976e-39 310 268
-0.01140894 0.72299999 -0.035494477 4.2287544e-39 311 268
-0.010127253 0.722 -0.035445385 4.6843404e-39 312 268
-0.0088613462 0.722 -0.035445385 4.1326029e-39 313 268
-0.0075743999 0.72000003 -0.035347197 3.3060779e-39 314 268
-0.0063032326 0.71899998 -0.035298105 3.2142424e-39 315 268
-0.0050285598 0.71700001 -0.035199918 3.2142424e-39 316 268
-0.00376616 0.71600002 -0.035150826 3.1224069e-39 317 268
-0.0025002533 0.713 -0.035003547 3.3060793e-39 318 268
-0.0012501266 0.713 -0.035003547 3.3979162e-39 319 268
0 0.71100003 -0.034905359 3.0305728e-39 320 268
0.0012448666 0.70999998 -0.034856264 3.0305728e-39 321 268
0.0024897333 0.70999998 -0.034856264 3.4897545e-39 322 268
0.00372408 0.708 -0.034758076 3.7656253e-39 323 268
0.0049654399 0.708 -0.034758076 4.2266034e-39 324 268
0.0061892662 0.70599997 -0.034659892 4.4109947e-39 325 268
0.0074060797 0.704 -0.034561705 4.4131485e-39 326 268
0.0086404262 0.704 -0.034561705 6.0723111e-39 327 268
0.0098607466 0.70300001 -0.034512613 5.9822665e-39 328 268
0.011061779 0.70099998 -0.034414422 5.9822665e-39 329 268
0.012290866 0.70099998 -0.034414422 5.9801015e-39 330 268
0.013519952 0.70099998 -0.034414422 5.334732e-39 331 268
0.014727999 0.69999999 -0.034365334 5.0570704e-39 332 268
0.015955333 0.69999999 -0.034365334 4.7801233e-39 333 268
0.017182667 0.69999999 -0.034365334 4.596095e-39 334 268
0.018409999 0.69999999 -0.034365334 4.596095e-39 335 268
0.019581227 0.69800001 -0.034267146 4.6872116e-39 336 268
0.020805053 0.69800001 -0.034267146 4.5028204e-39 337 268
0.02202888 0.69800001 -0.034267146 4.5921419e-39 338 268
0.023252707 0.69800001 -0.034267146 4.4081094e-39 339 268
0.024476532 0.69800001 -0.034267146 4.6836159e-39 340 268
0.025700359 0.69800001 -0.034267146 4.7754528e-39 341 268
0.026924185 0.69800001 -0.034267146 5.2349946e-39 342 268
0.028148014 0.69800001 -0.034267146 5.2349946e-39 343 268
0.029455997 0.69999999 -0.034365334 5.5108556e-39 344 268
0.030683333 0.69999999 -0.034365334 5.6030513e-39 345 268
0.031910665 0.69999999 -0.034365334 5.7860006e-39 346 268
0.03318534 0.70099998 -0.034414422 5.8781962e-39 347 268
0.034414422 0.70099998 -0.034414422 6.153344e-39 348 268
0.035643511 0.70099998 -0.034414422 6.153344e-39 349 268
0.036872596 0.70099998 -0.034414422 5.9703919e-39 350 268
0.038210396 0.70300001 -0.034512613 5.9703919e-39 351 268
0.039442986 0.70300001 -0.034512613 5.9703919e-39 352 268
0.040733438 0.704 -0.034561705 5.9703919e-39 353 268
0.041967787 0.704 -0.034561705 5.9703919e-39 354 268
0.043324865 0.70599997 -0.034659892 5.9703919e-39 355 268
0.044562716 0.70599997 -0.034659892 5.8789151e-39 356 268
0.04580057 0.70599997 -0.034659892 5.694884e-39 357 268
0.047038425 0.70599997 -0.034659892 5.6034072e-39 358 268
0.048344657 0.70700002 -0.034708988 5.5112116e-39 359 268
0.049584266 0.70700002 -0.034708988 5.6034044e-39 360 268
0.050895758 0.708 -0.034758076 5.7877957e-39 361 268
0.052137118 0.708 -0.034758076 5.7888677e-39 362 268
0.053378478 0.708 -0.034758076 5.7888677e-39 363 268
0.054774132 0.70999998 -0.034856264 6.0636595e-39 364 268
0.056097899 0.71100003 -0.034905359 6.1558551e-39 365 268
0.057505824 0.713 -0.035003547 5.6062743e-39 366 268
0.058838356 0.71399999 -0.035052639 4.8687162e-39 367 268
0.060090236 0.71399999 -0.035052639 6.4371111e-39 368 268
0.061599858 0.71700001 -0.035199918 1.2061046e-38 369 268
0.062856995 0.71700001 -0.035199918 1.2896919e-38 370 268
-0.016570752 0.727 -0.036965527 1.3544807e-38 307 269
-0.015296079 0.727 -0.036965527 1.2716493e-38 308 269
-0.013982833 0.72500002 -0.036863834 9.3974508e-39 309 269
-0.012711667 0.72500002 -0.036863834 5.6116861e-39 310 269
-0.01140894 0.72299999 -0.036762137 4.0443604e-39 311 269
-0.01014128 0.72299999 -0.036762137 4.5921419e-39 312 269
-0.0088613462 0.722 -0.03671129 4.224437e-39 313 269
-0.0075743999 0.72000003 -0.036609601 3.3060779e-39 314 269
-0.0063032326 0.71899998 -0.036558751 3.2142424e-39 315 269
-0.0050285598 0.71700001 -0.036457058 3.2142424e-39 316 269
-0.0037556398 0.71399999 -0.036304519 3.1224069e-39 317 269
-0.0025002533 0.713 -0.036253672 3.2142424e-39 318 269
-0.0012501266 0.713 -0.036253672 3.3060779e-39 319 269
0 0.71100003 -0.036151983 3.1224097e-39 320 269
0.0012448666 0.70999998 -0.036101133 3.0305728e-39 321 269
0.0024897333 0.70999998 -0.036101133 3.214248e-39 322 269
0.00372408 0.708 -0.03599944 3.4897573e-39 323 269
0.0049584266 0.70700002 -0.035948593 3.8578209e-39 324 269
0.0061892662 0.70599997 -0.035897743 4.1344064e-39 325 269
0.0074060797 0.704 -0.035796054 4.3206123e-39 326 269
0.0086281532 0.70300001 -0.035745207 7.179037e-39 327 269
0.0098607466 0.70300001 -0.035745207 6.4483061e-39 328 269
0.011061779 0.70099998 -0.035643511 6.3561091e-39 329 269
0.012290866 0.70099998 -0.035643511 5.9847874e-39 330 269
0.013500666 0.69999999 -0.035592664 4.6018529e-39 331 269
0.014727999 0.69999999 -0.035592664 4.87197e-39 332 269
0.015955333 0.69999999 -0.035592664 4.5035463e-39 333 269
0.017182667 0.69999999 -0.035592664 4.4113506e-39 334 269
0.018409999 0.69999999 -0.035592664 4.5035463e-39 335 269
0.019581227 0.69800001 -0.035490975 4.595016e-39 336 269
0.020805053 0.69800001 -0.035490975 4.3184305e-39 337 269
0.02202888 0.69800001 -0.035490975 4.4091828e-39 338 269
0.023252707 0.69800001 -0.035490975 4.2244328e-39 339 269
0.024476532 0.69800001 -0.035490975 4.4081038e-39 340 269
0.025700359 0.69800001 -0.035490975 4.4999393e-39 341 269
0.026924185 0.69800001 -0.035490975 5.0509579e-39 342 269
0.028148014 0.69800001 -0.035490975 5.1427948e-39 343 269
0.029371841 0.69800001 -0.035490975 5.2353478e-39 344 269
0.030683333 0.69999999 -0.035592664 5.2353478e-39 345 269
0.031910665 0.69999999 -0.035592664 5.5104885e-39 346 269
0.033137999 0.69999999 -0.035592664 5.6030415e-39 347 269
0.034365334 0.69999999 -0.035592664 5.7863537e-39 348 269
0.035643511 0.70099998 -0.035643511 5.7863537e-39 349 269
0.036872596 0.70099998 -0.035643511 5.6948812e-39 350 269
0.038101684 0.70099998 -0.035643511 5.6026855e-39 351 269
0.039442986 0.70300001 -0.035745207 5.6026883e-39 352 269
0.040733438 0.704 -0.035796054 5.694884e-39 353 269
0.041967787 0.704 -0.035796054 5.6956e-39 354 269
0.043202132 0.704 -0.035796054 5.6956e-39 355 269
0.044562716 0.70599997 -0.035897743 5.6956028e-39 356 269
0.04580057 0.70599997 -0.035897743 5.6034072e-39 357 269
0.047038425 0.70599997 -0.035897743 5.6026883e-39 358 269
0.048344657 0.70700002 -0.035948593 5.5104927e-39 359 269
0.049584266 0.70700002 -0.035948593 5.6952371e-39 360 269
0.050895758 0.708 -0.03599944 6.0636595e-39 361 269
0.052137118 0.708 -0.03599944 6.1562082e-39 362 269
0.053529263 0.70999998 -0.036101133 6.3409596e-39 363 269
0.054774132 0.70999998 -0.036101133 6.5246348e-39 364 269
0.056097899 0.71100003 -0.036151983 6.8015804e-39 365 269
0.057505824 0.713 -0.036253672 6.3441966e-39 366 269
0.058838356 0.71399999 -0.036304519 5.1456576e-39 367 269
0.06025856 0.71600002 -0.036406212 5.6091455e-39 368 269
0.061599858 0.71700001 -0.036457058 1.1233439e-38 369 269
0.062856995 0.71700001 -0.036457058 1.2712525e-38 370 269
-0.016570752 0.727 -0.038240198 1.3452611e-38 307 270
-0.015296079 0.727 -0.038240198 1.2900886e-38 308 270
-0.013982833 0.72500002 -0.038135 9.4896464e-39 309 270
-0.012711667 0.72500002 -0.038135 5.5202093e-39 310 270
-0.01140894 0.72299999 -0.038029801 4.2294705e-39 311 270
-0.01014128 0.72299999 -0.038029801 4.6864928e-39 312 270
-0.0088613462 0.722 -0.0379772 4.0411234e-39 313 270
-0.0075954394 0.722 -0.0379772 3.3060779e-39 314 270
-0.0063032326 0.71899998 -0.037819397 3.2142424e-39 315 270
-0.0050285598 0.71700001 -0.037714198 3.0305714e-39 316 270
-0.0037556398 0.71399999 -0.037556399 2.8469004e-39 317 270
-0.0025002533 0.713 -0.037503798 3.0305728e-39 318 270
-0.0012501266 0.713 -0.037503798 3.1224097e-39 319 270
0 0.71100003 -0.037398599 3.0305756e-39 320 270
0.0012448666 0.70999998 -0.037345998 2.8469032e-39 321 270
0.0024897333 0.70999998 -0.037345998 3.1224111e-39 322 270
0.00372408 0.708 -0.0372408 3.3060849e-39 323 270
0.0049584266 0.70700002 -0.037188202 3.3979218e-39 324 270
0.0061892662 0.70599997 -0.037135597 3.7663442e-39 325 270
0.0074060797 0.704 -0.037030395 3.9525529e-39 326 270
0.0086281532 0.70300001 -0.036977798 5.7964655e-39 327 270
0.0098607466 0.70300001 -0.036977798 5.7085887e-39 328 270
0.011061779 0.70099998 -0.036872596 5.616393e-39 329 270
0.012290866 0.70099998 -0.036872596 5.1521527e-39 330 270
0.013500666 0.69999999 -0.036819998 4.5067833e-39 331 270
0.014727999 0.69999999 -0.036819998 4.5035463e-39 332 270
0.015955333 0.69999999 -0.036819998 4.319155e-39 333 270
0.017182667 0.69999999 -0.036819998 4.2266034e-39 334 270
0.018409999 0.69999999 -0.036819998 4.4109947e-39 335 270
0.019581227 0.69800001 -0.0367148 4.3198711e-39 336 270
0.020805053 0.69800001 -0.0367148 4.1358399e-39 337 270
0.02202888 0.69800001 -0.0367148 4.1347567e-39 338 270
0.023252707 0.69800001 -0.0367148 3.85853e-39 339 270
0.024476532 0.69800001 -0.0367148 3.8570936e-39 340 270
0.025700359 0.69800001 -0.0367148 3.8570936e-39 341 270
0.026924185 0.69800001 -0.0367148 4.2244384e-39 342 270
0.028148014 0.69800001 -0.0367148 4.3166341e-39 343 270
0.029371841 0.69800001 -0.0367148 4.8672869e-39 344 270
0.030683333 0.69999999 -0.036819998 4.8672869e-39 345 270
0.031910665 0.69999999 -0.036819998 4.9598357e-39 346 270
0.033137999 0.69999999 -0.036819998 4.9598357e-39 347 270
0.034365334 0.69999999 -0.036819998 5.0509523e-39 348 270
0.035643511 0.70099998 -0.036872596 5.1431479e-39 349 270
0.036872596 0.70099998 -0.036872596 5.2346247e-39 350 270
0.038101684 0.70099998 -0.036872596 5.2346247e-39 351 270
0.039442986 0.70300001 -0.036977798 5.2353449e-39 352 270
0.040733438 0.704 -0.037030395 5.3275406e-39 353 270
0.041967787 0.704 -0.037030395 5.3282594e-39 354 270
0.043202132 0.704 -0.037030395 5.3282594e-39 355 270
0.044562716 0.70599997 -0.037135597 5.3275434e-39 356 270
0.04580057 0.70599997 -0.037135597 5.2353478e-39 357 270
0.047038425 0.70599997 -0.037135597 5.2346303e-39 358 270
0.048344657 0.70700002 -0.037188202 5.5108584e-39 359 270
0.049584266 0.70700002 -0.037188202 5.9714667e-39 360 270
0.050895758 0.708 -0.0372408 6.2480549e-39 361 270
0.052137118 0.708 -0.0372408 6.8926971e-39 362 270
0.053529263 0.70999998 -0.037345998 7.1692854e-39 363 270
0.054774132 0.70999998 -0.037345998 7.3562004e-39 364 270
0.056097899 0.71100003 -0.037398599 8.6469392e-39 365 270
0.057505824 0.713 -0.037503798 8.1892008e-39 366 270
0.058838356 0.71399999 -0.037556399 6.8062664e-39 367 270
0.06025856 0.71600002 -0.037661601 5.5219946e-39 368 270
0.061599858 0.71700001 -0.037714198 9.9473848e-39 369 270
0.062856995 0.71700001 -0.037714198 1.2252267e-38 370 270
-0.015254001 0.72500002 -0.039406165 1.3176028e-38 308 271
-0.013982833 0.72500002 -0.039406165 9.8569842e-39 309 271
-0.012676599 0.72299999 -0.039297458 6.0730173e-39 310 271
-0.01140894 0.72299999 -0.039297458 4.9666698e-39 311 271
-0.01014128 0.72299999 -0.039297458 5.3307804e-39 312 271
-0.0088613462 0.722 -0.039243106 4.4091828e-39 313 271
-0.0075954394 0.722 -0.039243106 3.5815844e-39 314 271
-0.0063032326 0.71899998 -0.039080046 3.3979134e-39 315 271
-0.0050285598 0.71700001 -0.038971342 3.2142424e-39 316 271
-0.00376616 0.71600002 -0.038916986 3.2142424e-39 317 271
-0.0025002533 0.713 -0.038753927 3.1224069e-39 318 271
-0.0012501266 0.713 -0.038753927 3.0305714e-39 319 271
0 0.71100003 -0.038645219 2.8469032e-39 320 271
0.0012448666 0.70999998 -0.038590867 2.7550663e-39 321 271
0.0024897333 0.70999998 -0.038590867 3.0305756e-39 322 271
0.00372408 0.708 -0.038482159 3.3060849e-39 323 271
0.0049584266 0.70700002 -0.038427804 3.2142522e-39 324 271
0.0061892662 0.70599997 -0.038373452 3.6737954e-39 325 271
0.0074060797 0.704 -0.038264744 3.8596384e-39 326 271
0.0086404262 0.704 -0.038264744 4.5050078e-39 327 271
0.0098607466 0.70300001 -0.038210396 4.4149758e-39 328 271
0.011061779 0.70099998 -0.038101684 4.2305845e-39 329 271
0.012290866 0.70099998 -0.038101684 4.411366e-39 330 271
0.013500666 0.69999999 -0.038047329 4.3191704e-39 331 271
0.014727999 0.69999999 -0.038047329 4.1351337e-39 332 271
0.015955333 0.69999999 -0.038047329 4.1351337e-39 333 271
0.017182667 0.69999999 -0.038047329 3.9518144e-39 334 271
0.018409999 0.69999999 -0.038047329 4.04401e-39 335 271
0.019581227 0.69800001 -0.037938625 4.0443632e-39 336 271
0.020805053 0.69800001 -0.037938625 4.0443632e-39 337 271
0.02202888 0.69800001 -0.037938625 3.9510885e-39 338 271
0.023252707 0.69800001 -0.037938625 3.8588929e-39 339 271
0.024476532 0.69800001 -0.037938625 3.6745045e-39 340 271
0.025700359 0.69800001 -0.037938625 3.4901146e-39 341 271
0.026924185 0.69800001 -0.037938625 3.8570978e-39 342 271
0.028148014 0.69800001 -0.037938625 3.8570978e-39 343 271
0.029371841 0.69800001 -0.037938625 4.3162781e-39 344 271
0.030683333 0.69999999 -0.038047329 4.3162781e-39 345 271
0.031910665 0.69999999 -0.038047329 4.4088269e-39 346 271
0.033137999 0.69999999 -0.038047329 4.4088269e-39 347 271
0.034365334 0.69999999 -0.038047329 4.591779e-39 348 271
0.035643511 0.70099998 -0.038101684 4.4999421e-39 349 271
0.036872596 0.70099998 -0.038101684 4.77545e-39 350 271
0.038101684 0.70099998 -0.038101684 4.8672869e-39 351 271
0.039442986 0.70300001 -0.038210396 4.6854138e-39 352 271
0.040733438 0.704 -0.038264744 4.5013812e-39 353 271
0.041967787 0.704 -0.038264744 4.7776094e-39 354 271
0.043202132 0.704 -0.038264744 4.6854138e-39 355 271
0.044562716 0.70599997 -0.038373452 4.8680086e-39 356 271
0.04580057 0.70599997 -0.038373452 4.6836187e-39 357 271
0.047038425 0.70599997 -0.038373452 5.2353478e-39 358 271
0.048344657 0.70700002 -0.038427804 5.6963245e-39 359 271
0.049584266 0.70700002 -0.038427804 6.4317231e-39 360 271
0.050895758 0.708 -0.038482159 7.0770925e-39 361 271
0.052137118 0.708 -0.038482159 7.4476673e-39 362 271
0.053529263 0.70999998 -0.038590867 8.0930367e-39 363 271
0.054774132 0.70999998 -0.038590867 7.7307408e-39 364 271
0.056097899 0.71100003 -0.038645219 9.4824578e-39 365 271
0.057505824 0.713 -0.038753927 9.5768226e-39 366 271
0.058838356 0.71399999 -0.038808275 7.6407144e-39 367 271
0.06025856 0.71600002 -0.038916986 6.3531944e-39 368 271
0.061599858 0.71700001 -0.038971342 9.5800414e-39 369 271
0.062856995 0.71700001 -0.038971342 1.1976036e-38 370 271
0.064114138 0.71700001 -0.038971342 1.2897992e-38 371 271
-0.015254001 0.72500002 -0.040677335 1.3268943e-38 308 272
-0.013982833 0.72500002 -0.040677335 1.0226846e-38 309 272
-0.012676599 0.72299999 -0.040565118 7.1768412e-39 310 272
-0.01140894 0.72299999 -0.040565118 5.8861024e-39 311 272
-0.01014128 0.72299999 -0.040565118 5.422976e-39 312 272
-0.0088613462 0.722 -0.040509012 4.8698022e-39 313 272
-0.0075743999 0.72000003 -0.040396802 3.857095e-39 314 272
-0.0063032326 0.71899998 -0.040340692 3.6734226e-39 315 272
-0.0050285598 0.71700001 -0.040228479 3.3060779e-39 316 272
-0.00376616 0.71600002 -0.040172372 3.2142424e-39 317 272
-0.0025037599 0.71399999 -0.040060159 2.9387387e-39 318 272
-0.0012501266 0.713 -0.040004052 2.6632294e-39 319 272
0 0.71100003 -0.039891839 2.9387401e-39 320 272
0.0012448666 0.70999998 -0.039835732 2.9387401e-39 321 272
0.0024897333 0.70999998 -0.039835732 3.0305756e-39 322 272
0.00372408 0.708 -0.039723519 3.214248e-39 323 272
0.0049584266 0.70700002 -0.039667413 3.4897559e-39 324 272
0.0061892662 0.70599997 -0.039611302 3.8571035e-39 325 272
0.0074060797 0.704 -0.039499093 3.5830347e-39 326 272
0.0086404262 0.704 -0.039499093 4.0436541e-39 327 272
0.0098607466 0.70300001 -0.039442986 4.2262531e-39 328 272
0.011061779 0.70099998 -0.039330769 4.1340561e-39 329 272
0.012290866 0.70099998 -0.039330769 4.2255328e-39 330 272
0.013500666 0.69999999 -0.039274666 4.2255328e-39 331 272
0.014727999 0.69999999 -0.039274666 4.1340505e-39 332 272
0.015955333 0.69999999 -0.039274666 4.1340505e-39 333 272
0.017182667 0.69999999 -0.039274666 3.9510941e-39 334 272
0.018409999 0.69999999 -0.039274666 3.9510941e-39 335 272
0.019581227 0.69800001 -0.039162453 3.9510941e-39 336 272
0.020805053 0.69800001 -0.039162453 3.9510941e-39 337 272
0.02202888 0.69800001 -0.039162453 3.9503753e-39 338 272
0.023252707 0.69800001 -0.039162453 3.7656253e-39 339 272
0.024476532 0.69800001 -0.039162453 3.7656253e-39 340 272
0.025700359 0.69800001 -0.039162453 3.6734297e-39 341 272
0.026924185 0.69800001 -0.039162453 3.8570992e-39 342 272
0.028148014 0.69800001 -0.039162453 3.8570992e-39 343 272
0.029371841 0.69800001 -0.039162453 4.2244412e-39 344 272
0.030683333 0.69999999 -0.039274666 4.3162781e-39 345 272
0.031910665 0.69999999 -0.039274666 4.3166341e-39 346 272
0.033137999 0.69999999 -0.039274666 4.2244384e-39 347 272
0.034365334 0.69999999 -0.039274666 4.4999449e-39 348 272
0.035643511 0.70099998 -0.039330769 4.4999449e-39 349 272
0.036872596 0.70099998 -0.039330769 4.4081094e-39 350 272
0.038101684 0.70099998 -0.039330769 4.4999463e-39 351 272
0.039442986 0.70300001 -0.039442986 4.4088297e-39 352 272
0.040733438 0.704 -0.039499093 4.3166341e-39 353 272
0.041967787 0.704 -0.039499093 4.6843376e-39 354 272
0.043324865 0.70599997 -0.039611302 4.5921419e-39 355 272
0.044562716 0.70599997 -0.039611302 4.5921448e-39 356 272
0.04580057 0.70599997 -0.039611302 4.4999491e-39 357 272
0.047038425 0.70599997 -0.039611302 5.3271903e-39 358 272
0.048344657 0.70700002 -0.039667413 6.5257334e-39 359 272
0.049584266 0.70700002 -0.039667413 7.5398686e-39 360 272
0.050895758 0.708 -0.039723519 8.0926836e-39 361 272
0.052137118 0.708 -0.039723519 7.6381823e-39 362 272
0.053529263 0.70999998 -0.039835732 8.5597784e-39 363 272
0.054774132 0.70999998 -0.039835732 7.920174e-39 364 272
0.056097899 0.71100003 -0.039891839 8.5655434e-39 365 272
0.057505824 0.713 -0.040004052 8.8417729e-39 366 272
0.058838356 0.71399999 -0.040060159 7.7354254e-39 367 272
0.06025856 0.71600002 -0.040172372 7.6432171e-39 368 272
0.061771683 0.71899998 -0.040340692 9.7637166e-39 369 272
0.063032329 0.71899998 -0.040340692 1.2067153e-38 370 272
0.064292975 0.71899998 -0.040340692 1.2989469e-38 371 272
-0.013982833 0.72500002 -0.041948501 1.096261e-38 309 273
-0.012676599 0.72299999 -0.041832779 7.5466999e-39 310 273
-0.01140894 0.72299999 -0.041832779 5.7027873e-39 311 273
-0.01014128 0.72299999 -0.041832779 5.0581424e-39 312 273
-0.0088613462 0.722 -0.041774917 4.3202186e-39 313 273
-0.0075743999 0.72000003 -0.041659199 4.5020959e-39 314 273
-0.0063032326 0.71899998 -0.041601337 4.1336735e-39 315 273
-0.0050285598 0.71700001 -0.041485619 3.9496438e-39 316 273
-0.00376616 0.71600002 -0.041427758 3.6734198e-39 317 273
-0.0025037599 0.71399999 -0.041312039 3.3979134e-39 318 273
-0.0012501266 0.713 -0.041254178 3.3060779e-39 319 273
0 0.71100003 -0.041138459 3.0305728e-39 320 273
0.0012448666 0.70999998 -0.041080594 3.0305728e-39 321 273
0.0024897333 0.70999998 -0.041080594 3.0305798e-39 322 273
0.00372408 0.708 -0.040964879 3.0305798e-39 323 273
0.0049584266 0.70700002 -0.040907022 2.8469074e-39 324 273
0.0061892662 0.70599997 -0.040849157 3.3060919e-39 325 273
0.0074060797 0.704 -0.040733438 3.3982903e-39 326 273
0.0086404262 0.704 -0.040733438 3.3982903e-39 327 273
0.0098607466 0.70300001 -0.040675577 3.2146221e-39 328 273
0.01109334 0.70300001 -0.040675577 3.3068177e-39 329 273
0.012290866 0.70099998 -0.040559858 3.5826816e-39 330 273
0.013519952 0.70099998 -0.040559858 3.5826816e-39 331 273
0.014727999 0.69999999 -0.040502001 3.491202e-39 332 273
0.015955333 0.69999999 -0.040502001 3.491202e-39 333 273
0.017182667 0.69999999 -0.040502001 3.2156941e-39 334 273
0.018409999 0.69999999 -0.040502001 3.4000854e-39 335 273
0.019637333 0.69999999 -0.040502001 3.491202e-39 336 273
0.020805053 0.69800001 -0.040386278 3.3071709e-39 337 273
0.02202888 0.69800001 -0.040386278 3.6737954e-39 338 273
0.023252707 0.69800001 -0.040386278 3.3060891e-39 339 273
0.024476532 0.69800001 -0.040386278 3.3060891e-39 340 273
0.025700359 0.69800001 -0.040386278 3.3060891e-39 341 273
0.027001332 0.69999999 -0.040502001 3.3060863e-39 342 273
0.028228667 0.69999999 -0.040502001 3.3060863e-39 343 273
0.029455997 0.69999999 -0.040502001 3.4901202e-39 344 273
0.030683333 0.69999999 -0.040502001 3.6741513e-39 345 273
0.031910665 0.69999999 -0.040502001 3.7659812e-39 346 273
0.033137999 0.69999999 -0.040502001 3.7659812e-39 347 273
0.034365334 0.69999999 -0.040502001 3.9489333e-39 348 273
0.035643511 0.70099998 -0.040559858 3.9489333e-39 349 273
0.036872596 0.70099998 -0.040559858 3.9489361e-39 350 273
0.038101684 0.70099998 -0.040559858 3.9489361e-39 351 273
0.039442986 0.70300001 -0.040675577 3.6734297e-39 352 273
0.040733438 0.704 -0.040733438 3.7656253e-39 353 273
0.041967787 0.704 -0.040733438 3.9503753e-39 354 273
0.043324865 0.70599997 -0.040849157 3.9503753e-39 355 273
0.044562716 0.70599997 -0.040849157 4.2258832e-39 356 273
0.04580057 0.70599997 -0.040849157 4.5021113e-39 357 273
0.047038425 0.70599997 -0.040849157 5.6091721e-39 358 273
0.048344657 0.70700002 -0.040907022 6.7155183e-39 359 273
0.049584266 0.70700002 -0.040907022 7.6374522e-39 360 273
0.050895758 0.708 -0.040964879 8.1902672e-39 361 273
0.052137118 0.708 -0.040964879 8.011271e-39 362 273
0.053529263 0.70999998 -0.041080594 8.5644447e-39 363 273
0.054851279 0.71100003 -0.041138459 7.6475457e-39 364 273
0.056097899 0.71100003 -0.041138459 7.6475457e-39 365 273
0.057586476 0.71399999 -0.041312039 7.4624384e-39 366 273
0.059003171 0.71600002 -0.041427758 7.3702428e-39 367 273
0.06025856 0.71600002 -0.041427758 7.7386497e-39 368 273
0.061599858 0.71700001 -0.041485619 9.0293886e-39 369 273
0.062856995 0.71700001 -0.041485619 1.2066434e-38 370 273
0.064114138 0.71700001 -0.041485619 1.3172781e-38 371 273
-0.012711667 0.72500002 -0.043219667 7.9183621e-39 310 274
-0.01140894 0.72299999 -0.043100435 5.5209156e-39 311 274
-0.01014128 0.72299999 -0.043100435 4.8751958e-39 312 274
-0.0088613462 0.722 -0.043040827 4.5064147e-39 313 274
-0.0075954394 0.722 -0.043040827 4.3198683e-39 314 274
-0.0063120001 0.72000003 -0.042921603 4.0436415e-39 315 274
-0.0050285598 0.71700001 -0.042742759 3.7681322e-39 316 274
-0.00376616 0.71600002 -0.042683143 3.6755778e-39 317 274
-0.0025037599 0.71399999 -0.042563915 3.2163976e-39 318 274
-0.0012501266 0.713 -0.042504307 2.8476178e-39 319 274
0 0.71100003 -0.042385083 2.9387359e-39 320 274
0.0012448666 0.70999998 -0.042325463 2.8469004e-39 321 274
0.0024897333 0.70999998 -0.042325463 3.0305756e-39 322 274
0.00372408 0.708 -0.042206239 3.0305756e-39 323 274
0.0049584266 0.70700002 -0.042146627 2.9387415e-39 324 274
0.0061980332 0.70700002 -0.042146627 3.0305784e-39 325 274
0.0074271196 0.70599997 -0.042087011 3.2153284e-39 326 274
0.0086404262 0.704 -0.041967787 3.122774e-39 327 274
0.0098607466 0.70300001 -0.041908171 3.307524e-39 328 274
0.01109334 0.70300001 -0.041908171 3.2153284e-39 329 274
0.012290866 0.70099998 -0.041788943 3.5830347e-39 330 274
0.013519952 0.70099998 -0.041788943 3.4908391e-39 331 274
0.014727999 0.69999999 -0.041729331 3.3979274e-39 332 274
0.015955333 0.69999999 -0.041729331 3.4897643e-39 333 274
0.017182667 0.69999999 -0.041729331 3.2149724e-39 334 274
0.018409999 0.69999999 -0.041729331 3.3071681e-39 335 274
0.019637333 0.69999999 -0.041729331 3.5830347e-39 336 274
0.020805053 0.69800001 -0.041610107 3.3982847e-39 337 274
0.02202888 0.69800001 -0.041610107 3.5816012e-39 338 274
0.023252707 0.69800001 -0.041610107 3.4897629e-39 339 274
0.024476532 0.69800001 -0.041610107 3.1224181e-39 340 274
0.025773998 0.69999999 -0.041729331 2.9387443e-39 341 274
0.027001332 0.69999999 -0.041729331 3.2142452e-39 342 274
0.028228667 0.69999999 -0.041729331 3.3060821e-39 343 274
0.029455997 0.69999999 -0.041729331 3.58159e-39 344 274
0.030683333 0.69999999 -0.041729331 3.8571006e-39 345 274
0.031956252 0.70099998 -0.041788943 3.6734297e-39 346 274
0.033137999 0.69999999 -0.041729331 3.5815928e-39 347 274
0.034365334 0.69999999 -0.041729331 3.9489333e-39 348 274
0.035643511 0.70099998 -0.041788943 4.0407702e-39 349 274
0.036872596 0.70099998 -0.041788943 3.857095e-39 350 274
0.038101684 0.70099998 -0.041788943 3.9492907e-39 351 274
0.039442986 0.70300001 -0.041908171 3.4904705e-39 352 274
0.040733438 0.704 -0.041967787 3.4904705e-39 353 274
0.041967787 0.704 -0.041967787 3.6734297e-39 354 274
0.043324865 0.70599997 -0.042087011 3.7656253e-39 355 274
0.044562716 0.70599997 -0.042087011 4.1326127e-39 356 274
0.04580057 0.70599997 -0.042087011 5.6077414e-39 357 274
0.047038425 0.70599997 -0.042087011 6.8109509e-39 358 274
0.048344657 0.70700002 -0.042146627 7.8251043e-39 359 274
0.049584266 0.70700002 -0.042146627 7.3673561e-39 360 274
0.050895758 0.708 -0.042206239 7.6435829e-39 361 274
0.052137118 0.708 -0.042206239 7.6457479e-39 362 274
0.053529263 0.70999998 -0.042325463 7.9226935e-39 363 274
0.054851279 0.71100003 -0.042385083 7.4620825e-39 364 274
0.056097899 0.71100003 -0.042385083 7.2776898e-39 365 274
0.057586476 0.71399999 -0.042563915 7.4602832e-39 366 274
0.059003171 0.71600002 -0.042683143 7.3680876e-39 367 274
0.06025856 0.71600002 -0.042683143 7.4613426e-39 368 274
0.061599858 0.71700001 -0.042742759 9.1208653e-39 369 274
0.062856995 0.71700001 -0.042742759 1.1883122e-38 370 274
0.064114138 0.71700001 -0.042742759 1.2805077e-38 371 274
-0.0088613462 0.722 -0.044306733 4.7822785e-39 313 275
-0.0075954394 0.722 -0.044306733 4.7804793e-39 314 275
-0.0063120001 0.72000003 -0.044183999 4.4116981e-39 315 275
-0.0050425865 0.71899998 -0.044122629 4.0447107e-39 316 275
-0.00376616 0.71600002 -0.043938532 4.0447107e-39 317 275
-0.0025037599 0.71399999 -0.043815799 3.7684839e-39 318 275
-0.0012501266 0.713 -0.043754432 3.4919012e-39 319 275
0 0.71100003 -0.043631699 3.1227656e-39 320 275
0.0012448666 0.70999998 -0.043570329 3.0305714e-39 321 275
0.0024897333 0.70999998 -0.043570329 3.0305756e-39 322 275
0.00372408 0.708 -0.043447599 2.8469032e-39 323 275
0.0049584266 0.70700002 -0.043386232 2.8469074e-39 324 275
0.0061892662 0.70599997 -0.043324865 3.0305812e-39 325 275
0.0074271196 0.70599997 -0.043324865 3.0305756e-39 326 275
0.0086404262 0.704 -0.043202132 3.306445e-39 327 275
0.0098607466 0.70300001 -0.043140765 3.2160472e-39 328 275
0.01109334 0.70300001 -0.043140765 3.3082429e-39 329 275
0.012325933 0.70300001 -0.043140765 3.4908391e-39 330 275
0.013519952 0.70099998 -0.043018032 3.3982847e-39 331 275
0.014727999 0.69999999 -0.042956665 3.1227796e-39 332 275
0.015955333 0.69999999 -0.042956665 3.0305826e-39 333 275
0.017182667 0.69999999 -0.042956665 2.8476319e-39 334 275
0.018409999 0.69999999 -0.042956665 2.8476319e-39 335 275
0.019637333 0.69999999 -0.042956665 3.1227796e-39 336 275
0.020805053 0.69800001 -0.042833932 3.0305826e-39 337 275
0.02202888 0.69800001 -0.042833932 2.9387443e-39 338 275
0.023252707 0.69800001 -0.042833932 2.9387443e-39 339 275
0.024546666 0.69999999 -0.042956665 2.9387401e-39 340 275
0.025773998 0.69999999 -0.042956665 2.8469032e-39 341 275
0.027001332 0.69999999 -0.042956665 2.9387415e-39 342 275
0.028228667 0.69999999 -0.042956665 3.0305784e-39 343 275
0.029455997 0.69999999 -0.042956665 3.2142522e-39 344 275
0.030683333 0.69999999 -0.042956665 3.3060891e-39 345 275
0.031956252 0.70099998 -0.043018032 3.4901202e-39 346 275
0.03318534 0.70099998 -0.043018032 3.3979246e-39 347 275
0.034414422 0.70099998 -0.043018032 3.8571006e-39 348 275
0.035643511 0.70099998 -0.043018032 3.6734283e-39 349 275
0.036872596 0.70099998 -0.043018032 3.9489305e-39 350 275
0.038101684 0.70099998 -0.043018032 4.0407674e-39 351 275
0.039442986 0.70300001 -0.043140765 3.4904705e-39 352 275
0.040733438 0.704 -0.043202132 3.4904705e-39 353 275
0.041967787 0.704 -0.043202132 3.4897601e-39 354 275
0.043324865 0.70599997 -0.043324865 3.3060877e-39 355 275
0.044562716 0.70599997 -0.043324865 4.4142373e-39 356 275
0.04580057 0.70599997 -0.043324865 6.8113251e-39 357 275
0.047038425 0.70599997 -0.043324865 7.183325e-39 358 275
0.048344657 0.70700002 -0.043386232 7.368075e-39 359 275
0.049584266 0.70700002 -0.043386232 7.09293e-39 360 275
0.050895758 0.708 -0.043447599 7.0007344e-39 361 275
0.052284397 0.70999998 -0.043570329 6.727037e-39 362 275
0.053529263 0.70999998 -0.043570329 6.6348413e-39 363 275
0.054851279 0.71100003 -0.043631699 6.3568237e-39 364 275
0.056255698 0.713 -0.043754432 6.1727912e-39 365 275
0.057586476 0.71399999 -0.043815799 6.4493781e-39 366 275
0.059003171 0.71600002 -0.043938532 6.6337694e-39 367 275
0.06025856 0.71600002 -0.043938532 7.36987e-39 368 275
0.061599858 0.71700001 -0.043999899 9.121587e-39 369 275
0.062856995 0.71700001 -0.043999899 1.2067153e-38 370 275
0.064114138 0.71700001 -0.043999899 1.2897272e-38 371 275
-0.0088736191 0.72299999 -0.04563576 5.2418147e-39 313 276
-0.0076059597 0.72299999 -0.04563576 4.8726749e-39 314 276
-0.0063295332 0.722 -0.045572639 4.5964481e-39 315 276
-0.0050496003 0.72000003 -0.045446403 4.2291048e-39 316 276
-0.0037714199 0.71700001 -0.045257039 4.2291048e-39 317 276
-0.0025037599 0.71399999 -0.045067675 3.9535941e-39 318 276
-0.0012501266 0.713 -0.045004558 3.6770072e-39 319 276
0 0.71100003 -0.044878319 3.2163948e-39 320 276
0.0012448666 0.70999998 -0.044815198 2.7554236e-39 321 276
0.0024897333 0.70999998 -0.044815198 3.1224097e-39 322 276
0.00372408 0.708 -0.044688959 2.7550649e-39 323 276
0.0049584266 0.70700002 -0.044625837 2.8469004e-39 324 276
0.0061892662 0.70599997 -0.044562716 2.8469004e-39 325 276
0.0074271196 0.70599997 -0.044562716 3.1224097e-39 326 276
0.0086404262 0.704 -0.044436477 3.2142466e-39 327 276
0.0098747732 0.704 -0.044436477 2.9394617e-39 328 276
0.01109334 0.70300001 -0.04437336 3.2160472e-39 329 276
0.012325933 0.70300001 -0.04437336 3.4908363e-39 330 276
0.013519952 0.70099998 -0.044247117 3.306445e-39 331 276
0.014749039 0.70099998 -0.044247117 2.8472675e-39 332 276
0.015955333 0.69999999 -0.044183996 2.8472675e-39 333 276
0.017182667 0.69999999 -0.044183996 2.8472675e-39 334 276
0.018409999 0.69999999 -0.044183996 2.7550719e-39 335 276
0.019637333 0.69999999 -0.044183996 3.0305784e-39 336 276
0.020805053 0.69800001 -0.04405776 3.0305784e-39 337 276
0.02202888 0.69800001 -0.04405776 2.7550691e-39 338 276
0.023252707 0.69800001 -0.04405776 2.7550691e-39 339 276
0.024546666 0.69999999 -0.044183996 2.7550663e-39 340 276
0.025773998 0.69999999 -0.044183996 2.6632294e-39 341 276
0.027001332 0.69999999 -0.044183996 3.0305756e-39 342 276
0.028228667 0.69999999 -0.044183996 3.1224125e-39 343 276
0.029498078 0.70099998 -0.044247117 3.2142494e-39 344 276
0.030727165 0.70099998 -0.044247117 3.2142494e-39 345 276
0.031956252 0.70099998 -0.044247117 3.3060835e-39 346 276
0.03318534 0.70099998 -0.044247117 3.3979218e-39 347 276
0.034414422 0.70099998 -0.044247117 3.8570978e-39 348 276
0.035643511 0.70099998 -0.044247117 3.6734255e-39 349 276
0.036872596 0.70099998 -0.044247117 3.857451e-39 350 276
0.038210396 0.70300001 -0.04437336 3.9496466e-39 351 276
0.039442986 0.70300001 -0.04437336 3.5815872e-39 352 276
0.040733438 0.704 -0.044436477 3.4897489e-39 353 276
0.041967787 0.704 -0.044436477 3.2142452e-39 354 276
0.043324865 0.70599997 -0.044562716 2.8469004e-39 355 276
0.044562716 0.70599997 -0.044562716 5.8897205e-39 356 276
0.04580057 0.70599997 -0.044562716 9.4853515e-39 357 276
0.047105055 0.70700002 -0.044625837 7.6468297e-39 358 276
0.048344657 0.70700002 -0.044625837 6.9092646e-39 359 276
0.049584266 0.70700002 -0.044625837 6.7245174e-39 360 276
0.050895758 0.708 -0.044688959 6.7245174e-39 361 276
0.052284397 0.70999998 -0.044815198 6.6330477e-39 362 276
0.053529263 0.70999998 -0.044815198 6.3564594e-39 363 276
0.054851279 0.71100003 -0.044878319 5.71109e-39 364 276
0.056255698 0.713 -0.045004558 5.9876783e-39 365 276
0.057586476 0.71399999 -0.045067675 6.2660602e-39 366 276
0.059003171 0.71600002 -0.045193922 6.4508102e-39 367 276
0.06025856 0.71600002 -0.045193922 7.1861948e-39 368 276
0.061599858 0.71700001 -0.045257039 9.3066943e-39 369 276
0.062856995 0.71700001 -0.045257039 1.1976392e-38 370 276
0.064114138 0.71700001 -0.045257039 1.2529566e-38 371 276
-0.0089349858 0.72799999 -0.047227785 5.6105945e-39 313 277
-0.0076059597 0.72299999 -0.046903417 4.9648719e-39 314 277
-0.0063295332 0.722 -0.046838548 4.8726749e-39 315 277
-0.0050496003 0.72000003 -0.0467088 4.4138519e-39 316 277
-0.0037819401 0.71899998 -0.046643924 4.4138519e-39 317 277
-0.0025142799 0.71700001 -0.046514176 4.3216563e-39 318 277
-0.0012501266 0.713 -0.046254687 4.1369063e-39 319 277
0 0.71100003 -0.046124939 3.4011419e-39 320 277
0.0012448666 0.70999998 -0.046060063 3.1242005e-39 321 277
0.0024897333 0.70999998 -0.046060063 2.9387359e-39 322 277
0.00372408 0.708 -0.045930319 2.7550649e-39 323 277
0.0049584266 0.70700002 -0.045865446 2.7550649e-39 324 277
0.0061892662 0.70599997 -0.04580057 2.8469004e-39 325 277
0.0074271196 0.70599997 -0.04580057 2.8469004e-39 326 277
0.0086404262 0.704 -0.045670826 3.0305728e-39 327 277
0.0098747732 0.704 -0.045670826 3.0305756e-39 328 277
0.011109119 0.704 -0.045670826 3.306445e-39 329 277
0.012343466 0.704 -0.045670826 3.1234929e-39 330 277
0.013558527 0.70300001 -0.04560595 2.9394617e-39 331 277
0.014749039 0.70099998 -0.045476202 2.847985e-39 332 277
0.015978126 0.70099998 -0.045476202 2.755788e-39 333 277
0.017207211 0.70099998 -0.045476202 2.7550691e-39 334 277
0.018409999 0.69999999 -0.04541133 2.6632322e-39 335 277
0.019637333 0.69999999 -0.04541133 2.6632322e-39 336 277
0.020864666 0.69999999 -0.04541133 2.7550691e-39 337 277
0.022091998 0.69999999 -0.04541133 2.7554236e-39 338 277
0.023319334 0.69999999 -0.04541133 2.7554236e-39 339 277
0.024546666 0.69999999 -0.04541133 2.7550663e-39 340 277
0.025773998 0.69999999 -0.04541133 2.4795584e-39 341 277
0.027001332 0.69999999 -0.04541133 2.8469018e-39 342 277
0.028228667 0.69999999 -0.04541133 2.8469018e-39 343 277
0.029498078 0.70099998 -0.045476202 3.0305728e-39 344 277
0.030727165 0.70099998 -0.045476202 3.2142466e-39 345 277
0.031956252 0.70099998 -0.045476202 3.2142466e-39 346 277
0.03318534 0.70099998 -0.045476202 3.3060835e-39 347 277
0.034414422 0.70099998 -0.045476202 3.5815872e-39 348 277
0.035643511 0.70099998 -0.045476202 3.5815872e-39 349 277
0.036872596 0.70099998 -0.045476202 3.6734198e-39 350 277
0.038210396 0.70300001 -0.04560595 3.6734198e-39 351 277
0.039442986 0.70300001 -0.04560595 3.3982721e-39 352 277
0.040733438 0.704 -0.045670826 3.2142424e-39 353 277
0.041967787 0.704 -0.045670826 3.3060779e-39 354 277
0.043324865 0.70599997 -0.04580057 3.3060779e-39 355 277
0.044562716 0.70599997 -0.04580057 6.4428915e-39 356 277
0.045865446 0.70700002 -0.045865446 9.6697385e-39 357 277
0.047105055 0.70700002 -0.045865446 7.8301419e-39 358 277
0.048344657 0.70700002 -0.045865446 7.1847725e-39 359 277
0.049654398 0.708 -0.045930319 6.6351889e-39 360 277
0.051039528 0.70999998 -0.046060063 6.6351889e-39 361 277
0.052284397 0.70999998 -0.046060063 6.4511605e-39 362 277
0.053604662 0.71100003 -0.046124939 6.0820179e-39 363 277
0.054851279 0.71100003 -0.046124939 5.2511824e-39 364 277
0.056255698 0.713 -0.046254687 5.528128e-39 365 277
0.057586476 0.71399999 -0.046319555 5.8983497e-39 366 277
0.059003171 0.71600002 -0.046449307 5.8983497e-39 367 277
0.060342718 0.71700001 -0.046514176 6.7255712e-39 368 277
0.061599858 0.71700001 -0.046514176 9.6761901e-39 369 277
0.062856995 0.71700001 -0.046514176 1.2158983e-38 370 277
-0.010197386 0.727 -0.048437584 5.7027929e-39 312 278
-0.0089227129 0.727 -0.048437584 5.6102385e-39 313 278
-0.0076270006 0.72500002 -0.048304334 5.1492632e-39 314 278
-0.0063382997 0.72299999 -0.048171077 4.8726749e-39 315 278
-0.0050636264 0.722 -0.048104454 4.6893626e-39 316 278
-0.0037819401 0.71899998 -0.04790457 4.597167e-39 317 278
-0.0025142799 0.71700001 -0.04777132 4.5971642e-39 318 278
-0.0012501266 0.713 -0.047504812 4.4127729e-39 319 278
0 0.71100003 -0.047371563 3.7692014e-39 320 278
0.00124662 0.71100003 -0.047371563 3.5848129e-39 321 278
0.0024897333 0.70999998 -0.047304932 3.3064366e-39 322 278
0.00372408 0.708 -0.047171678 3.1224069e-39 323 278
0.0049654399 0.708 -0.047171678 3.1224069e-39 324 278
0.0061980332 0.70700002 -0.047105055 3.0305714e-39 325 278
0.0074271196 0.70599997 -0.047038425 2.8469004e-39 326 278
0.0086649731 0.70599997 -0.047038425 2.6632294e-39 327 278
0.0098747732 0.704 -0.046905171 2.9387415e-39 328 278
0.011109119 0.704 -0.046905171 3.0305784e-39 329 278
0.012343466 0.704 -0.046905171 2.9394617e-39 330 278
0.013558527 0.70300001 -0.046838548 3.1234929e-39 331 278
0.014791119 0.70300001 -0.046838548 2.8472619e-39 332 278
0.016023712 0.70300001 -0.046838548 2.8472619e-39 333 278
0.017207211 0.70099998 -0.046705291 2.6632294e-39 334 278
0.018436298 0.70099998 -0.046705291 2.6632294e-39 335 278
0.019665385 0.70099998 -0.046705291 2.6632294e-39 336 278
0.020864666 0.69999999 -0.046638668 2.6632294e-39 337 278
0.022091998 0.69999999 -0.046638668 2.8469004e-39 338 278
0.023319334 0.69999999 -0.046638668 2.8469004e-39 339 278
0.024546666 0.69999999 -0.046638668 2.8469004e-39 340 278
0.025773998 0.69999999 -0.046638668 2.8469004e-39 341 278
0.027039904 0.70099998 -0.046705291 2.8469018e-39 342 278
0.028268991 0.70099998 -0.046705291 2.7550649e-39 343 278
0.029498078 0.70099998 -0.046705291 2.8469018e-39 344 278
0.030727165 0.70099998 -0.046705291 2.9387387e-39 345 278
0.031956252 0.70099998 -0.046705291 3.1224097e-39 346 278
0.03318534 0.70099998 -0.046705291 3.1224097e-39 347 278
0.034512613 0.70300001 -0.046838548 3.3060793e-39 348 278
0.035745207 0.70300001 -0.046838548 3.3060793e-39 349 278
0.036977798 0.70300001 -0.046838548 3.3060779e-39 350 278
0.038210396 0.70300001 -0.046838548 3.3060779e-39 351 278
0.039442986 0.70300001 -0.046838548 3.2142424e-39 352 278
0.040733438 0.704 -0.046905171 3.1224069e-39 353 278
0.041967787 0.704 -0.046905171 3.0305728e-39 354 278
0.043324865 0.70599997 -0.047038425 3.1224097e-39 355 278
0.044562716 0.70599997 -0.047038425 6.2599422e-39 356 278
0.045865446 0.70700002 -0.047105055 8.9336154e-39 357 278
0.047171678 0.708 -0.047171678 7.6479017e-39 358 278
0.048413038 0.708 -0.047171678 7.4631517e-39 359 278
0.049794663 0.70999998 -0.047304932 6.6373413e-39 360 278
0.051039528 0.70999998 -0.047304932 6.5451442e-39 361 278
0.052358042 0.71100003 -0.047371563 6.8181354e-39 362 278
0.053755447 0.713 -0.047504812 6.2649616e-39 363 278
0.055005573 0.713 -0.047504812 6.0780494e-39 364 278
0.0563346 0.71399999 -0.047571439 6.4471921e-39 365 278
0.057747785 0.71600002 -0.047704693 6.3582292e-39 366 278
0.059085581 0.71700001 -0.04777132 4.8834593e-39 367 278
0.060342718 0.71700001 -0.04777132 6.3539006e-39 368 278
0.061599858 0.71700001 -0.04777132 1.0778932e-38 369 278
0.062856995 0.71700001 -0.04777132 1.2527045e-38 370 278
-0.010211413 0.72799999 -0.049780637 6.348528e-39 312 279
-0.0089227129 0.727 -0.049712259 6.1644969e-39 313 279
-0.0076270006 0.72500002 -0.0495755 5.2414644e-39 314 279
-0.0063382997 0.72299999 -0.049438741 5.0567144e-39 315 279
-0.0050636264 0.722 -0.04937036 4.6890081e-39 316 279
-0.0037872 0.72000003 -0.0492336 4.5968111e-39 317 279
-0.0025142799 0.71700001 -0.04902846 4.5978859e-39 318 279
-0.00125188 0.71399999 -0.048823316 4.413496e-39 319 279
0 0.713 -0.048754938 3.8621173e-39 320 279
0.00124662 0.71100003 -0.048618179 3.5858891e-39 321 279
0.0024897333 0.70999998 -0.048549797 3.3085904e-39 322 279
0.0037345996 0.70999998 -0.048549797 3.1242005e-39 323 279
0.0049654399 0.708 -0.048413038 3.0309301e-39 324 279
0.0061980332 0.70700002 -0.048344657 2.9387359e-39 325 279
0.0074376399 0.70700002 -0.048344657 2.7550649e-39 326 279
0.0086649731 0.70599997 -0.048276275 2.7550649e-39 327 279
0.0098747732 0.704 -0.048139516 2.8469004e-39 328 279
0.011109119 0.704 -0.048139516 3.1224069e-39 329 279
0.012343466 0.704 -0.048139516 2.9387373e-39 330 279
0.013577812 0.704 -0.048139516 2.9387373e-39 331 279
0.014791119 0.70300001 -0.048071139 2.8472619e-39 332 279
0.016023712 0.70300001 -0.048071139 2.6632294e-39 333 279
0.017256306 0.70300001 -0.048071139 2.6632294e-39 334 279
0.018488899 0.70300001 -0.048071139 2.6632294e-39 335 279
0.019665385 0.70099998 -0.047934376 2.6632294e-39 336 279
0.020894472 0.70099998 -0.047934376 2.5713939e-39 337 279
0.022091998 0.69999999 -0.047865998 2.8469004e-39 338 279
0.023319334 0.69999999 -0.047865998 2.6632294e-39 339 279
0.024546666 0.69999999 -0.047865998 2.7550649e-39 340 279
0.025810819 0.70099998 -0.047934376 2.8469004e-39 341 279
0.027039904 0.70099998 -0.047934376 2.7550649e-39 342 279
0.028268991 0.70099998 -0.047934376 2.7550649e-39 343 279
0.029582238 0.70300001 -0.048071139 2.8469004e-39 344 279
0.030814834 0.70300001 -0.048071139 2.8469004e-39 345 279
0.032047424 0.70300001 -0.048071139 3.0305714e-39 346 279
0.033280019 0.70300001 -0.048071139 2.8469004e-39 347 279
0.034512613 0.70300001 -0.048071139 3.2142424e-39 348 279
0.035745207 0.70300001 -0.048071139 3.3060779e-39 349 279
0.036977798 0.70300001 -0.048071139 3.1224069e-39 350 279
0.038210396 0.70300001 -0.048071139 3.1224069e-39 351 279
0.039442986 0.70300001 -0.048071139 3.1224069e-39 352 279
0.040733438 0.704 -0.048139516 3.0305714e-39 353 279
0.041967787 0.704 -0.048139516 3.1224069e-39 354 279
0.043324865 0.70599997 -0.048276275 3.4897489e-39 355 279
0.044562716 0.70599997 -0.048276275 5.6167279e-39 356 279
0.045865446 0.70700002 -0.048344657 8.1982042e-39 357 279
0.047171678 0.708 -0.048413038 7.2802051e-39 358 279
0.048413038 0.708 -0.048413038 6.9117828e-39 359 279
0.049794663 0.70999998 -0.048549797 6.8199389e-39 360 279
0.051039528 0.70999998 -0.048549797 6.6351889e-39 361 279
0.052358042 0.71100003 -0.048618179 6.9092618e-39 362 279
0.053755447 0.713 -0.048754938 6.8170662e-39 363 279
0.055005573 0.713 -0.048754938 7.1858417e-39 364 279
0.0563346 0.71399999 -0.048823316 8.0159625e-39 365 279
0.057747785 0.71600002 -0.048960082 7.6460884e-39 366 279
0.059085581 0.71700001 -0.04902846 4.3270443e-39 367 279
0.060342718 0.71700001 -0.04902846 6.3513797e-39 368 279
0.061599858 0.71700001 -0.04902846 1.1698728e-38 369 279
0.062856995 0.71700001 -0.04902846 1.2802909e-38 370 279
-0.01148784 0.72799999 -0.051057063 8.751378e-39 311 280
-0.010211413 0.72799999 -0.051057063 6.8120271e-39 312 280
-0.0089349858 0.72799999 -0.051057063 5.7056796e-39 313 280
-0.0076480396 0.727 -0.050986931 5.7935564e-39 314 280
-0.0063558333 0.72500002 -0.050846666 5.148187e-39 315 280
-0.0050636264 0.722 -0.050636265 4.6890081e-39 316 280
-0.0037872 0.72000003 -0.050496001 4.5968111e-39 317 280
-0.0025142799 0.71700001 -0.0502856 4.597167e-39 318 280
-0.00125188 0.71399999 -0.050075196 4.597167e-39 319 280
0 0.713 -0.050005067 4.2294579e-39 320 280
0.00124662 0.71100003 -0.049864799 4.0450666e-39 321 280
0.0024932399 0.71100003 -0.049864799 3.7684839e-39 322 280
0.0037345996 0.70999998 -0.049794663 3.6762897e-39 323 280
0.0049654399 0.708 -0.049654398 3.4915425e-39 324 280
0.0061980332 0.70700002 -0.049584266 3.3071541e-39 325 280
0.0074376399 0.70700002 -0.049584266 3.0309301e-39 326 280
0.0086649731 0.70599997 -0.04951413 2.6632294e-39 327 280
0.0099028256 0.70599997 -0.04951413 2.8469018e-39 328 280
0.011109119 0.704 -0.049373865 2.9387387e-39 329 280
0.012343466 0.704 -0.049373865 2.846906e-39 330 280
0.013577812 0.704 -0.049373865 2.846906e-39 331 280
0.014812159 0.704 -0.049373865 2.8469032e-39 332 280
0.016023712 0.70300001 -0.049303733 2.8469032e-39 333 280
0.017256306 0.70300001 -0.049303733 2.6632294e-39 334 280
0.018488899 0.70300001 -0.049303733 2.6632294e-39 335 280
0.019721493 0.70300001 -0.049303733 2.6632294e-39 336 280
0.020894472 0.70099998 -0.049163464 2.6632294e-39 337 280
