# .PCD v.7 - Point Cloud Data file format
FIELDS x y z rgb imX imY
SIZE 4 4 4 4 4 4
TYPE F F F F F F
COUNT 1 1 1 1 1 1
WIDTH 866
HEIGHT 1
VIEWPOINT 0 0 0 1 0 0 0
POINTS 866
DATA ascii
-0.02966289 0.76899999 0.017528072 1.0779331e-38 298 227
-0.02824094 0.76700002 0.017482487 9.3038427e-39 299 227
-0.026896132 0.76700002 0.017482487 8.9285834e-39 300 227
-0.025518013 0.76599997 0.017459691 6.9002795e-39 301 227
-0.024111839 0.764 0.017414106 7.4466163e-39 302 227
-0.022772292 0.764 0.017414106 6.52466e-39 303 227
-0.02137664 0.76200002 0.01736852 6.5210657e-39 304 227
-0.0200406 0.76200002 0.01736852 6.7054584e-39 305 227
-0.018680012 0.76099998 0.017345725 7.4405025e-39 306 227
-0.017300138 0.759 0.017300138 8.0858719e-39 307 227
-0.015969358 0.759 0.017300138 8.5450354e-39 308 227
-0.014561433 0.755 0.017208965 8.637231e-39 309 227
-0.013237666 0.755 0.017208965 9.0045646e-39 310 227
-0.011913899 0.755 0.017208965 9.0045646e-39 311 227
-0.010590133 0.755 0.017208965 9.4622973e-39 312 227
-0.0092663663 0.755 0.017208965 9.7392443e-39 313 227
-0.0079425992 0.755 0.017208965 1.0662976e-38 314 227
-0.0066188332 0.755 0.017208965 1.1400541e-38 315 227
-0.0052880533 0.75400001 0.017186172 1.1957287e-38 316 227
-0.00396604 0.75400001 0.017186172 1.2142037e-38 317 227
-0.0026440267 0.75400001 0.017186172 1.2876721e-38 318 227
-0.0013220133 0.75400001 0.017186172 1.2876721e-38 319 227
0 0.75400001 0.017186172 1.3417316e-38 320 227
0.0013220133 0.75400001 0.017186172 1.2956338e-38 321 227
0.0026440267 0.75400001 0.017186172 1.203943e-38 322 227
0.00396604 0.75400001 0.017186172 1.185468e-38 323 227
0.0052950666 0.755 0.017208965 1.1669219e-38 324 227
0.0066188332 0.755 0.017208965 1.1669219e-38 325 227
0.0079425992 0.755 0.017208965 1.1759262e-38 326 227
0.0092663663 0.755 0.017208965 1.1851458e-38 327 227
0.010590133 0.755 0.017208965 1.1578821e-38 328 227
0.011913899 0.755 0.017208965 1.1855048e-38 329 227
0.013237666 0.755 0.017208965 1.1947231e-38 330 227
0.014561433 0.755 0.017208965 1.1855035e-38 331 227
0.015885198 0.755 0.017208965 1.2313142e-38 332 227
0.017208965 0.755 0.017208965 1.2220588e-38 333 227
0.018532733 0.755 0.017208965 1.2312068e-38 334 227
0.0198565 0.755 0.017208965 1.2312068e-38 335 227
0.021180267 0.755 0.017208965 1.1944374e-38 336 227
0.022563647 0.75700003 0.017254554 1.1852178e-38 337 227
0.02389092 0.75700003 0.017254554 1.1483767e-38 338 227
0.025218192 0.75700003 0.017254554 1.1391571e-38 339 227
0.026615599 0.759 0.017300138 1.0563983e-38 340 227
0.027946379 0.759 0.017300138 1.0563983e-38 341 227
0.029354304 0.76099998 0.017345725 9.4637491e-39 342 227
0.030688593 0.76099998 0.017345725 9.2793564e-39 343 227
0.032064959 0.76200002 0.01736852 8.2698778e-39 344 227
0.033488665 0.764 0.017414106 8.0851278e-39 345 227
0.034919381 0.76599997 0.017459691 7.2589657e-39 346 227
0.036309779 0.76700002 0.017482487 7.16677e-39 347 227
0.037654586 0.76700002 0.017482487 6.8923468e-39 348 227
0.038999394 0.76700002 0.017482487 6.9845424e-39 349 227
0.040344197 0.76700002 0.017482487 8.189198e-39 350 227
0.041689005 0.76700002 0.017482487 1.4827283e-38 351 227
-0.031091858 0.77100003 0.016221842 1.290522e-38 297 228
-0.029585747 0.76700002 0.01613768 1.1516178e-38 298 228
-0.028204117 0.76599997 0.016116638 9.4878738e-39 299 228
-0.026861066 0.76599997 0.016116638 8.7452711e-39 300 228
-0.025451386 0.764 0.016074561 6.7169672e-39 301 228
-0.02404872 0.76200002 0.01603248 7.7217585e-39 302 228
-0.02271268 0.76200002 0.01603248 6.7076066e-39 303 228
-0.02137664 0.76200002 0.01603248 6.3377507e-39 304 228
-0.0200406 0.76200002 0.01603248 6.6139788e-39 305 228
-0.018680012 0.76099998 0.016011439 7.257556e-39 306 228
-0.017300138 0.759 0.015969358 7.7185341e-39 307 228
-0.015969358 0.759 0.015969358 8.4542845e-39 308 228
-0.014561433 0.755 0.015885198 8.823067e-39 309 228
-0.013237666 0.755 0.015885198 9.0985595e-39 310 228
-0.011913899 0.755 0.015885198 8.4531901e-39 311 228
-0.010590133 0.755 0.015885198 9.0935246e-39 312 228
-0.0092663663 0.755 0.015885198 1.0015121e-38 313 228
-0.0079425992 0.755 0.015885198 1.03882e-38 314 228
-0.0066188332 0.755 0.015885198 1.1494907e-38 315 228
-0.0052880533 0.75400001 0.01586416 1.2050207e-38 316 228
-0.00396604 0.75400001 0.01586416 1.2234598e-38 317 228
-0.0026440267 0.75400001 0.01586416 1.3061099e-38 318 228
-0.0013220133 0.75400001 0.01586416 1.3061099e-38 319 228
0 0.75400001 0.01586416 1.3698203e-38 320 228
0.0013220133 0.75400001 0.01586416 1.3052837e-38 321 228
0.0026440267 0.75400001 0.01586416 1.3140737e-38 322 228
0.00396604 0.75400001 0.01586416 1.286379e-38 323 228
0.0052880533 0.75400001 0.01586416 1.2495017e-38 324 228
0.0066188332 0.755 0.015885198 1.2402821e-38 325 228
0.0079425992 0.755 0.015885198 1.2126956e-38 326 228
0.0092663663 0.755 0.015885198 1.249538e-38 327 228
0.010590133 0.755 0.015885198 1.2037276e-38 328 228
0.011913899 0.755 0.015885198 1.2037276e-38 329 228
0.013237666 0.755 0.015885198 1.2219869e-38 330 228
0.014561433 0.755 0.015885198 1.2219869e-38 331 228
0.015885198 0.755 0.015885198 1.2310991e-38 332 228
0.017208965 0.755 0.015885198 1.2403187e-38 333 228
0.018532733 0.755 0.015885198 1.2220594e-38 334 228
0.0198565 0.755 0.015885198 1.2220594e-38 335 228
0.021180267 0.755 0.015885198 1.2036923e-38 336 228
0.022504034 0.755 0.015885198 1.1852531e-38 337 228
0.023827799 0.755 0.015885198 1.1759628e-38 338 228
0.025218192 0.75700003 0.015927281 1.1483401e-38 339 228
0.026545467 0.75700003 0.015927281 1.08402e-38 340 228
0.027946379 0.759 0.015969358 1.0748004e-38 341 228
0.029354304 0.76099998 0.016011439 9.6474144e-39 342 228
0.030688593 0.76099998 0.016011439 9.3711863e-39 343 228
0.032064959 0.76200002 0.01603248 8.3609916e-39 344 228
0.033488665 0.764 0.016074561 8.176599e-39 345 228
0.034919381 0.76599997 0.016116638 7.441915e-39 346 228
0.036262438 0.76599997 0.016116638 7.7181417e-39 347 228
0.037654586 0.76700002 0.01613768 7.0763723e-39 348 228
0.038948543 0.76599997 0.016116638 7.5369917e-39 349 228
0.040291596 0.76599997 0.016116638 9.017514e-39 350 228
0.041689005 0.76700002 0.01613768 1.5471208e-38 351 228
-0.029585747 0.76700002 0.014792874 1.2070068e-38 298 229
-0.028204117 0.76599997 0.014773586 9.3963942e-39 299 229
-0.026861066 0.76599997 0.014773586 8.7434662e-39 300 229
-0.025451386 0.764 0.014735013 6.9921094e-39 301 229
-0.02404872 0.76200002 0.01469644 7.3547696e-39 302 229
-0.02271268 0.76200002 0.01469644 6.4328147e-39 303 229
-0.02137664 0.76200002 0.01469644 6.5210601e-39 304 229
-0.020014299 0.76099998 0.014677152 6.7058115e-39 305 229
-0.018680012 0.76099998 0.014677152 7.257556e-39 306 229
-0.017300138 0.759 0.014638579 7.9029254e-39 307 229
-0.015969358 0.759 0.014638579 8.5493682e-39 308 229
-0.014561433 0.755 0.014561433 9.1025406e-39 309 229
-0.013237666 0.755 0.014561433 9.1025223e-39 310 229
-0.011913899 0.755 0.014561433 7.6273923e-39 311 229
-0.010590133 0.755 0.014561433 8.816209e-39 312 229
-0.0092663663 0.755 0.014561433 1.0197351e-38 313 229
-0.0079425992 0.755 0.014561433 1.0754468e-38 314 229
-0.0066188332 0.755 0.014561433 1.1676425e-38 315 229
-0.0052880533 0.75400001 0.014542146 1.2139901e-38 316 229
-0.00396604 0.75400001 0.014542146 1.2324292e-38 317 229
-0.0026440267 0.75400001 0.014542146 1.3058961e-38 318 229
-0.0013220133 0.75400001 0.014542146 1.3151157e-38 319 229
0 0.75400001 0.014542146 1.406951e-38 320 229
0.0013220133 0.75400001 0.014542146 1.3608532e-38 321 229
0.0026440267 0.75400001 0.014542146 1.3694259e-38 322 229
0.00396604 0.75400001 0.014542146 1.3417314e-38 323 229
0.0052880533 0.75400001 0.014542146 1.2956708e-38 324 229
0.0066100666 0.75400001 0.014542146 1.268048e-38 325 229
0.00793208 0.75400001 0.014542146 1.2587931e-38 326 229
0.0092540924 0.75400001 0.014542146 1.2587931e-38 327 229
0.010590133 0.755 0.014561433 1.2495736e-38 328 229
0.011913899 0.755 0.014561433 1.2495736e-38 329 229
0.013237666 0.755 0.014561433 1.2586131e-38 330 229
0.014561433 0.755 0.014561433 1.2586131e-38 331 229
0.015885198 0.755 0.014561433 1.249537e-38 332 229
0.017208965 0.755 0.014561433 1.2771597e-38 333 229
0.018532733 0.755 0.014561433 1.2404616e-38 334 229
0.0198565 0.755 0.014561433 1.2588647e-38 335 229
0.021180267 0.755 0.014561433 1.2037997e-38 336 229
0.022504034 0.755 0.014561433 1.2130193e-38 337 229
0.023827799 0.755 0.014561433 1.176178e-38 338 229
0.025218192 0.75700003 0.014600007 1.1393357e-38 339 229
0.026545467 0.75700003 0.014600007 1.074872e-38 340 229
0.027946379 0.759 0.014638579 1.0564689e-38 341 229
0.029354304 0.76099998 0.014677152 9.3708332e-39 342 229
0.030688593 0.76099998 0.014677152 9.0938875e-39 343 229
0.032064959 0.76200002 0.01469644 8.2673695e-39 344 229
0.033401001 0.76200002 0.01469644 8.1751738e-39 345 229
0.034919381 0.76599997 0.014773586 7.7167166e-39 346 229
0.036262438 0.76599997 0.014773586 7.809271e-39 347 229
0.037654586 0.76700002 0.014792874 7.4429996e-39 348 229
0.038948543 0.76599997 0.014773586 8.2727617e-39 349 229
0.040291596 0.76599997 0.014773586 1.0126375e-38 350 229
0.041689005 0.76700002 0.014792874 1.5842865e-38 351 229
-0.029547172 0.76599997 0.013430533 1.2439926e-38 298 230
-0.028204117 0.76599997 0.013430533 9.1208835e-39 299 230
-0.026790932 0.764 0.013395466 8.3757599e-39 300 230
-0.025451386 0.764 0.013395466 7.3616066e-39 301 230
-0.02404872 0.76200002 0.0133604 7.35585e-39 302 230
-0.02271268 0.76200002 0.0133604 6.4335336e-39 303 230
-0.02137664 0.76200002 0.0133604 6.4299449e-39 304 230
-0.020014299 0.76099998 0.013342866 6.6143347e-39 305 230
-0.018680012 0.76099998 0.013342866 6.8894993e-39 306 230
-0.017300138 0.759 0.0133078 7.9036512e-39 307 230
-0.015927281 0.75700003 0.013272733 9.385984e-39 308 230
-0.014561433 0.755 0.013237666 1.0584527e-38 309 230
-0.013237666 0.755 0.013237666 1.0311884e-38 310 230
-0.011913899 0.755 0.013237666 9.2980918e-39 311 230
-0.010590133 0.755 0.013237666 1.0113803e-38 312 230
-0.0092663663 0.755 0.013237666 8.9152598e-39 313 230
-0.0079425992 0.755 0.013237666 1.0843437e-38 314 230
-0.0066188332 0.755 0.013237666 1.1765752e-38 315 230
-0.0052880533 0.75400001 0.013220133 1.2044834e-38 316 230
-0.00396604 0.75400001 0.013220133 1.2413618e-38 317 230
-0.0026440267 0.75400001 0.013220133 1.3056093e-38 318 230
-0.0013220133 0.75400001 0.013220133 1.3240485e-38 319 230
0 0.75400001 0.013220133 1.3884762e-38 320 230
0.0013220133 0.75400001 0.013220133 1.4069154e-38 321 230
0.0026440267 0.75400001 0.013220133 1.3604932e-38 322 230
0.00396604 0.75400001 0.013220133 1.3236508e-38 323 230
0.0052880533 0.75400001 0.013220133 1.3141809e-38 324 230
0.0066100666 0.75400001 0.013220133 1.2957057e-38 325 230
0.00793208 0.75400001 0.013220133 1.2955988e-38 326 230
0.0092540924 0.75400001 0.013220133 1.3048185e-38 327 230
0.010590133 0.755 0.013237666 1.268048e-38 328 230
0.011913899 0.755 0.013237666 1.268048e-38 329 230
0.013237666 0.755 0.013237666 1.286379e-38 330 230
0.014561433 0.755 0.013237666 1.2956344e-38 331 230
0.015885198 0.755 0.013237666 1.2865945e-38 332 230
0.017208965 0.755 0.013237666 1.2773748e-38 333 230
0.018532733 0.755 0.013237666 1.2498251e-38 334 230
0.0198565 0.755 0.013237666 1.2406054e-38 335 230
0.021180267 0.755 0.013237666 1.2314586e-38 336 230
0.022504034 0.755 0.013237666 1.2314586e-38 337 230
0.023827799 0.755 0.013237666 1.1946528e-38 338 230
0.025218192 0.75700003 0.013272733 1.1577386e-38 339 230
0.026545467 0.75700003 0.013272733 1.0564689e-38 340 230
0.027946379 0.759 0.0133078 1.0380296e-38 341 230
0.029277159 0.759 0.0133078 9.0938903e-39 342 230
0.030688593 0.76099998 0.013342866 9.0938903e-39 343 230
0.032022879 0.76099998 0.013342866 8.2673723e-39 344 230
0.033401001 0.76200002 0.0133604 8.082981e-39 345 230
0.034919381 0.76599997 0.013430533 7.809271e-39 346 230
0.036262438 0.76599997 0.013430533 8.0854991e-39 347 230
0.037654586 0.76700002 0.013448066 7.4429968e-39 348 230
0.038999394 0.76700002 0.013448066 9.0106826e-39 349 230
0.040344197 0.76700002 0.013448066 1.1142688e-38 350 230
0.041689005 0.76700002 0.013448066 1.6028698e-38 351 230
-0.029547172 0.76599997 0.012087479 1.2901981e-38 298 231
-0.028204117 0.76599997 0.012087479 8.7531772e-39 299 231
-0.026790932 0.764 0.01205592 8.3768347e-39 300 231
-0.025451386 0.764 0.01205592 7.3626842e-39 301 231
-0.024111839 0.764 0.01205592 7.7239095e-39 302 231
-0.022772292 0.764 0.01205592 6.8015945e-39 303 231
-0.02137664 0.76200002 0.01202436 6.5232153e-39 304 231
-0.020014299 0.76099998 0.012008579 6.5232153e-39 305 231
-0.018680012 0.76099998 0.012008579 6.7965974e-39 306 231
-0.017300138 0.759 0.01197702 7.9951406e-39 307 231
-0.015927281 0.75700003 0.01194546 9.3899679e-39 308 231
-0.014561433 0.755 0.011913899 1.187961e-38 309 231
-0.013237666 0.755 0.011913899 1.1884999e-38 310 231
-0.011913899 0.755 0.011913899 1.1977195e-38 311 231
-0.010590133 0.755 0.011913899 1.2156875e-38 312 231
-0.0092663663 0.755 0.011913899 7.5470937e-39 313 231
-0.0079425992 0.755 0.011913899 1.0014049e-38 314 231
-0.0066100666 0.75400001 0.01189812 1.1304788e-38 315 231
-0.0052880533 0.75400001 0.01189812 1.1766465e-38 316 231
-0.00396604 0.75400001 0.01189812 1.1951216e-38 317 231
-0.0026440267 0.75400001 0.01189812 1.2411103e-38 318 231
-0.0013220133 0.75400001 0.01189812 1.2779525e-38 319 231
0 0.75400001 0.01189812 1.3515283e-38 320 231
0.0013220133 0.75400001 0.01189812 1.3883705e-38 321 231
0.0026440267 0.75400001 0.01189812 1.3329084e-38 322 231
0.00396604 0.75400001 0.01189812 1.3052857e-38 323 231
0.0052880533 0.75400001 0.01189812 1.3143253e-38 324 231
0.0066100666 0.75400001 0.01189812 1.2958862e-38 325 231
0.00793208 0.75400001 0.01189812 1.295779e-38 326 231
0.0092540924 0.75400001 0.01189812 1.2865594e-38 327 231
0.010576107 0.75400001 0.01189812 1.2865948e-38 328 231
0.01189812 0.75400001 0.01189812 1.2958143e-38 329 231
0.013237666 0.755 0.011913899 1.2959212e-38 330 231
0.014561433 0.755 0.011913899 1.3051408e-38 331 231
0.015885198 0.755 0.011913899 1.2961007e-38 332 231
0.017208965 0.755 0.011913899 1.2684421e-38 333 231
0.018532733 0.755 0.011913899 1.2775547e-38 334 231
0.0198565 0.755 0.011913899 1.2683351e-38 335 231
0.021180267 0.755 0.011913899 1.2683717e-38 336 231
0.022504034 0.755 0.011913899 1.2499686e-38 337 231
0.023827799 0.755 0.011913899 1.222167e-38 338 231
0.025218192 0.75700003 0.01194546 1.1852529e-38 339 231
0.026545467 0.75700003 0.01194546 1.0931314e-38 340 231
0.027872739 0.75700003 0.01194546 1.056289e-38 341 231
0.029277159 0.759 0.01197702 8.9102221e-39 342 231
0.030607941 0.759 0.01197702 8.8180265e-39 343 231
0.032022879 0.76099998 0.012008579 7.9918644e-39 344 231
0.033401001 0.76200002 0.01202436 7.9918644e-39 345 231
0.034919381 0.76599997 0.012087479 7.5344792e-39 346 231
0.036309779 0.76700002 0.01210326 7.9950986e-39 347 231
0.037654586 0.76700002 0.01210326 7.7206571e-39 348 231
0.038999394 0.76700002 0.01210326 9.7489609e-39 349 231
-0.029585747 0.76700002 0.010758453 1.3548069e-38 298 232
-0.028204117 0.76599997 0.010744425 8.569865e-39 299 232
-0.026861066 0.76599997 0.010744425 8.3775578e-39 300 232
-0.025451386 0.764 0.010716373 7.1786544e-39 301 232
-0.024111839 0.764 0.010716373 7.5413273e-39 302 232
-0.022772292 0.764 0.010716373 6.5275341e-39 303 232
-0.02137664 0.76200002 0.01068832 6.523937e-39 304 232
-0.020014299 0.76099998 0.010674292 6.3395471e-39 305 232
-0.018680012 0.76099998 0.010674292 6.7980254e-39 306 232
-0.017300138 0.759 0.01064624 7.3508404e-39 307 232
-0.015927281 0.75700003 0.010618187 6.5326236e-39 308 232
-0.014561433 0.755 0.010590133 9.2988527e-39 309 232
-0.013237666 0.755 0.010590133 1.0776867e-38 310 232
-0.011913899 0.755 0.010590133 1.2067605e-38 311 232
-0.010590133 0.755 0.010590133 1.1702751e-38 312 232
-0.0092663663 0.755 0.010590133 7.4617504e-39 313 232
-0.0079425992 0.755 0.010590133 1.0753787e-38 314 232
-0.0066100666 0.75400001 0.010576107 1.112221e-38 315 232
-0.0052880533 0.75400001 0.010576107 1.1581005e-38 316 232
-0.00396604 0.75400001 0.010576107 1.1765396e-38 317 232
-0.0026440267 0.75400001 0.010576107 1.2499351e-38 318 232
-0.0013220133 0.75400001 0.010576107 1.2867775e-38 319 232
0 0.75400001 0.010576107 1.2774856e-38 320 232
0.0013220133 0.75400001 0.010576107 1.2959608e-38 321 232
0.0026440267 0.75400001 0.010576107 1.3232948e-38 322 232
0.00396604 0.75400001 0.010576107 1.3232948e-38 323 232
0.0052880533 0.75400001 0.010576107 1.3140752e-38 324 232
0.0066100666 0.75400001 0.010576107 1.3048556e-38 325 232
0.00793208 0.75400001 0.010576107 1.2865963e-38 326 232
0.0092540924 0.75400001 0.010576107 1.2865963e-38 327 232
0.010576107 0.75400001 0.010576107 1.2775197e-38 328 232
0.01189812 0.75400001 0.010576107 1.2775197e-38 329 232
0.013220133 0.75400001 0.010576107 1.3051774e-38 330 232
0.014542146 0.75400001 0.010576107 1.3236525e-38 331 232
0.015885198 0.755 0.010590133 1.3053576e-38 332 232
0.017208965 0.755 0.010590133 1.2869183e-38 333 232
0.018532733 0.755 0.010590133 1.2868111e-38 334 232
0.0198565 0.755 0.010590133 1.249933e-38 335 232
0.021180267 0.755 0.010590133 1.2683364e-38 336 232
0.022504034 0.755 0.010590133 1.2683364e-38 337 232
0.023827799 0.755 0.010590133 1.2222756e-38 338 232
0.025218192 0.75700003 0.010618187 1.1854332e-38 339 232
0.026545467 0.75700003 0.010618187 1.0472856e-38 340 232
0.027872739 0.75700003 0.010618187 1.0104433e-38 341 232
0.029277159 0.759 0.01064624 8.4510377e-39 342 232
0.030607941 0.759 0.01064624 8.4510377e-39 343 232
0.032022879 0.76099998 0.010674292 7.6238021e-39 344 232
0.033401001 0.76200002 0.01068832 7.9003876e-39 345 232
0.034828212 0.764 0.010716373 7.7174355e-39 346 232
0.036309779 0.76700002 0.010758453 8.4550019e-39 347 232
0.037654586 0.76700002 0.010758453 7.9976041e-39 348 232
0.038999394 0.76700002 0.010758453 1.0671277e-38 349 232
-0.029585747 0.76700002 0.0094136465 1.4101243e-38 298 233
-0.02824094 0.76700002 0.0094136465 9.2148756e-39 299 233
-0.026861066 0.76599997 0.0094013726 8.7463375e-39 300 233
-0.025518013 0.76599997 0.0094013726 7.2712074e-39 301 233
-0.024111839 0.764 0.0093768267 8.0015726e-39 302 233
-0.022772292 0.764 0.0093768267 6.9870605e-39 303 233
-0.02137664 0.76200002 0.0093522798 6.7079625e-39 304 233
-0.020014299 0.76099998 0.0093400059 6.6157669e-39 305 233
-0.018680012 0.76099998 0.0093400059 6.3395471e-39 306 233
-0.017300138 0.759 0.00931546 6.2473515e-39 307 233
-0.015927281 0.75700003 0.0092909131 5.4208558e-39 308 233
-0.014600007 0.75700003 0.0092909131 7.2644083e-39 309 233
-0.013237666 0.755 0.0092663663 9.2995715e-39 310 233
-0.011913899 0.755 0.0092663663 1.1420071e-38 311 233
-0.010590133 0.755 0.0092663663 1.1330742e-38 312 233
-0.0092663663 0.755 0.0092663663 7.6429186e-39 313 233
-0.0079425992 0.755 0.0092663663 1.0115267e-38 314 233
-0.0066100666 0.75400001 0.0092540924 9.6542892e-39 315 233
-0.0052880533 0.75400001 0.0092540924 1.0572263e-38 316 233
-0.00396604 0.75400001 0.0092540924 1.0572263e-38 317 233
-0.0026440267 0.75400001 0.0092540924 1.1489538e-38 318 233
-0.0013220133 0.75400001 0.0092540924 1.1396983e-38 319 233
0 0.75400001 0.0092540924 1.1947639e-38 320 233
0.0013220133 0.75400001 0.0092540924 1.1947639e-38 321 233
0.0026440267 0.75400001 0.0092540924 1.2495775e-38 322 233
0.00396604 0.75400001 0.0092540924 1.2403578e-38 323 233
0.0052880533 0.75400001 0.0092540924 1.2586522e-38 324 233
0.0066100666 0.75400001 0.0092540924 1.2771273e-38 325 233
0.00793208 0.75400001 0.0092540924 1.2589024e-38 326 233
0.0092540924 0.75400001 0.0092540924 1.286561e-38 327 233
0.010576107 0.75400001 0.0092540924 1.2683367e-38 328 233
0.01189812 0.75400001 0.0092540924 1.2775562e-38 329 233
0.013220133 0.75400001 0.0092540924 1.2684446e-38 330 233
0.014542146 0.75400001 0.0092540924 1.2684446e-38 331 233
0.01586416 0.75400001 0.0092540924 1.2960321e-38 332 233
0.017208965 0.755 0.0092663663 1.2684093e-38 333 233
0.018532733 0.755 0.0092663663 1.2867758e-38 334 233
0.0198565 0.755 0.0092663663 1.2775562e-38 335 233
0.021180267 0.755 0.0092663663 1.2683367e-38 336 233
0.022504034 0.755 0.0092663663 1.2499336e-38 337 233
0.02389092 0.75700003 0.0092909131 1.2222038e-38 338 233
0.025218192 0.75700003 0.0092909131 1.1761062e-38 339 233
0.026545467 0.75700003 0.0092909131 1.0931314e-38 340 233
0.027872739 0.75700003 0.0092909131 1.0378498e-38 341 233
0.029277159 0.759 0.00931546 8.6347143e-39 342 233
0.030688593 0.76099998 0.0093400059 8.4503216e-39 343 233
0.032022879 0.76099998 0.0093400059 7.3486572e-39 344 233
0.033401001 0.76200002 0.0093522798 7.6252427e-39 345 233
0.034828212 0.764 0.0093768267 7.2614964e-39 346 233
0.036262438 0.76599997 0.0094013726 7.8146702e-39 347 233
0.037654586 0.76700002 0.0094136465 8.6451371e-39 348 233
0.038999394 0.76700002 0.0094136465 1.1226615e-38 349 233
-0.02824094 0.76700002 0.00806884 1.0137912e-38 299 234
-0.026861066 0.76599997 0.0080583189 9.0225741e-39 300 234
-0.025518013 0.76599997 0.0080583189 7.1786615e-39 301 234
-0.024111839 0.764 0.0080372803 6.5325718e-39 302 234
-0.022772292 0.764 0.0080372803 5.5184213e-39 303 234
-0.02137664 0.76200002 0.0080162399 6.4335336e-39 304 234
-0.020014299 0.76099998 0.0080057196 6.0651112e-39 305 234
-0.018680012 0.76099998 0.0080057196 6.4310197e-39 306 234
-0.017345725 0.76099998 0.0080057196 6.5232153e-39 307 234
-0.015927281 0.75700003 0.0079636406 6.6147103e-39 308 234
-0.014600007 0.75700003 0.0079636406 6.5225147e-39 309 234
-0.013237666 0.755 0.0079425992 6.0723559e-39 310 234
-0.011913899 0.755 0.0079425992 6.9021166e-39 311 234
-0.010590133 0.755 0.0079425992 7.819031e-39 312 234
-0.0092663663 0.755 0.0079425992 7.9112267e-39 313 234
-0.0079425992 0.755 0.0079425992 9.2873018e-39 314 234
-0.0066100666 0.75400001 0.00793208 9.1032706e-39 315 234
-0.0052880533 0.75400001 0.00793208 1.038644e-38 316 234
-0.00396604 0.75400001 0.00793208 1.038644e-38 317 234
-0.0026440267 0.75400001 0.00793208 1.1120392e-38 318 234
-0.0013220133 0.75400001 0.00793208 1.1305144e-38 319 234
0 0.75400001 0.00793208 1.1853997e-38 320 234
0.0013220133 0.75400001 0.00793208 1.1669607e-38 321 234
0.0026440267 0.75400001 0.00793208 1.2309938e-38 322 234
0.00396604 0.75400001 0.00793208 1.1941155e-38 323 234
0.0052880533 0.75400001 0.00793208 1.2399965e-38 324 234
0.0066100666 0.75400001 0.00793208 1.2584357e-38 325 234
0.00793208 0.75400001 0.00793208 1.2312439e-38 326 234
0.0092540924 0.75400001 0.00793208 1.2312439e-38 327 234
0.010576107 0.75400001 0.00793208 1.2405351e-38 328 234
0.01189812 0.75400001 0.00793208 1.2497548e-38 329 234
0.013220133 0.75400001 0.00793208 1.2497904e-38 330 234
0.014542146 0.75400001 0.00793208 1.2590099e-38 331 234
0.01586416 0.75400001 0.00793208 1.258938e-38 332 234
0.017186172 0.75400001 0.00793208 1.3050357e-38 333 234
0.018508185 0.75400001 0.00793208 1.2773411e-38 334 234
0.0198565 0.755 0.0079425992 1.2773411e-38 335 234
0.021180267 0.755 0.0079425992 1.2405351e-38 336 234
0.022504034 0.755 0.0079425992 1.2129124e-38 337 234
0.02389092 0.75700003 0.0079636406 1.1668518e-38 338 234
0.025218192 0.75700003 0.0079636406 1.1391571e-38 339 234
0.026545467 0.75700003 0.0079636406 9.9214888e-39 340 234
0.027946379 0.759 0.0079846792 9.5523475e-39 341 234
0.029277159 0.759 0.0079846792 8.2655716e-39 342 234
0.030688593 0.76099998 0.0080057196 8.358126e-39 343 234
0.032022879 0.76099998 0.0080057196 7.2571804e-39 344 234
0.033401001 0.76200002 0.0080162399 7.5341274e-39 345 234
0.034828212 0.764 0.0080372803 7.3533263e-39 346 234
0.036262438 0.76599997 0.0080583189 7.9986957e-39 347 234
-0.028204117 0.76599997 0.0067152665 1.1153506e-38 299 235
-0.026861066 0.76599997 0.0067152665 9.3920782e-39 300 235
-0.025518013 0.76599997 0.0067152665 7.1793845e-39 301 235
-0.024174958 0.76599997 0.0067152665 6.9928283e-39 302 235
-0.022772292 0.764 0.006697733 6.0705118e-39 303 235
-0.02137664 0.76200002 0.0066801999 6.7108338e-39 304 235
-0.0200406 0.76200002 0.0066801999 6.3416911e-39 305 235
-0.018680012 0.76099998 0.0066714329 6.3406219e-39 306 235
-0.017345725 0.76099998 0.0066714329 6.2484263e-39 307 235
-0.015969358 0.759 0.0066538998 6.3395527e-39 308 235
-0.014600007 0.75700003 0.0066363667 6.2469984e-39 309 235
-0.013272733 0.75700003 0.0066363667 6.4321141e-39 310 235
-0.011913899 0.755 0.0066188332 7.3537117e-39 311 235
-0.010590133 0.755 0.0066188332 7.8157716e-39 312 235
-0.0092663663 0.755 0.0066188332 8.2763896e-39 313 235
-0.00793208 0.75400001 0.0066100666 8.4593361e-39 314 235
-0.0066100666 0.75400001 0.0066100666 8.5515318e-39 315 235
-0.0052880533 0.75400001 0.0066100666 9.5609978e-39 316 235
-0.00396604 0.75400001 0.0066100666 9.6531934e-39 317 235
-0.0026440267 0.75400001 0.0066100666 1.0386793e-38 318 235
-0.0013220133 0.75400001 0.0066100666 1.047899e-38 319 235
0 0.75400001 0.0066100666 1.1120395e-38 320 235
0.0013220133 0.75400001 0.0066100666 1.0844168e-38 321 235
0.0026440267 0.75400001 0.0066100666 1.148342e-38 322 235
0.00396604 0.75400001 0.0066100666 1.129867e-38 323 235
0.0052880533 0.75400001 0.0066100666 1.1481616e-38 324 235
0.0066100666 0.75400001 0.0066100666 1.1666366e-38 325 235
0.00793208 0.75400001 0.0066100666 1.1392655e-38 326 235
0.0092540924 0.75400001 0.0066100666 1.1392655e-38 327 235
0.010576107 0.75400001 0.0066100666 1.1669237e-38 328 235
0.01189812 0.75400001 0.0066100666 1.1761433e-38 329 235
0.013220133 0.75400001 0.0066100666 1.1760361e-38 330 235
0.014542146 0.75400001 0.0066100666 1.1760361e-38 331 235
0.01586416 0.75400001 0.0066100666 1.1760361e-38 332 235
0.017186172 0.75400001 0.0066100666 1.1760361e-38 333 235
0.018508185 0.75400001 0.0066100666 1.1944026e-38 334 235
0.0198565 0.755 0.0066188332 1.1944026e-38 335 235
0.021180267 0.755 0.0066188332 1.1668518e-38 336 235
0.022504034 0.755 0.0066188332 1.1391571e-38 337 235
0.02389092 0.75700003 0.0066363667 1.111571e-38 338 235
0.025218192 0.75700003 0.0066363667 1.0654732e-38 339 235
0.026615599 0.759 0.0066538998 9.7378136e-39 340 235
0.027946379 0.759 0.0066538998 9.1846398e-39 341 235
0.029277159 0.759 0.0066538998 8.3581232e-39 342 235
0.030688593 0.76099998 0.0066714329 8.2659275e-39 343 235
0.032022879 0.76099998 0.0066714329 7.4419276e-39 344 235
0.033401001 0.76200002 0.0066801999 7.6263203e-39 345 235
0.034828212 0.764 0.006697733 7.1714518e-39 346 235
0.036262438 0.76599997 0.0067152665 7.8168212e-39 347 235
-0.026861066 0.76599997 0.0053722127 1.0038527e-38 300 236
-0.025518013 0.76599997 0.0053722127 7.0879078e-39 301 236
-0.024174958 0.76599997 0.0053722127 7.4527274e-39 302 236
-0.022831906 0.76599997 0.0053722127 6.6229667e-39 303 236
-0.02137664 0.76200002 0.0053441599 6.8033923e-39 304 236
-0.0200406 0.76200002 0.0053441599 6.3427729e-39 305 236
-0.018680012 0.76099998 0.0053371461 6.4335336e-39 306 236
-0.017345725 0.76099998 0.0053371461 6.1573069e-39 307 236
-0.015969358 0.759 0.0053231199 6.3406219e-39 308 236
-0.014600007 0.75700003 0.0053090933 6.3406219e-39 309 236
-0.013272733 0.75700003 0.0053090933 6.8001721e-39 310 236
-0.011913899 0.755 0.0052950666 7.2611489e-39 311 236
-0.010590133 0.755 0.0052950666 7.2636698e-39 312 236
-0.0092663663 0.755 0.0052950666 7.6324537e-39 313 236
-0.00793208 0.75400001 0.0052880533 8.1834625e-39 314 236
-0.0066100666 0.75400001 0.0052880533 8.2756581e-39 315 236
-0.0052880533 0.75400001 0.0052880533 9.010698e-39 316 236
-0.00396604 0.75400001 0.0052880533 9.1028937e-39 317 236
-0.0026440267 0.75400001 0.0052880533 9.9283355e-39 318 236
-0.0013220133 0.75400001 0.0052880533 1.0020533e-38 319 236
0 0.75400001 0.0052880533 1.075377e-38 320 236
0.0013220133 0.75400001 0.0052880533 1.0476825e-38 321 236
0.0026440267 0.75400001 0.0052880533 1.1208625e-38 322 236
0.00396604 0.75400001 0.0052880533 1.0840202e-38 323 236
0.0052880533 0.75400001 0.0052880533 1.0930597e-38 324 236
0.0066100666 0.75400001 0.0052880533 1.0930597e-38 325 236
0.00793208 0.75400001 0.0052880533 1.1023512e-38 326 236
0.0092540924 0.75400001 0.0052880533 1.1023512e-38 327 236
0.010576107 0.75400001 0.0052880533 1.1207909e-38 328 236
0.01189812 0.75400001 0.0052880533 1.1115713e-38 329 236
0.013220133 0.75400001 0.0052880533 1.1114638e-38 330 236
0.014542146 0.75400001 0.0052880533 1.1114638e-38 331 236
0.01586416 0.75400001 0.0052880533 1.0930613e-38 332 236
0.017208965 0.755 0.0052950666 1.0930613e-38 333 236
0.018532733 0.755 0.0052950666 1.0930613e-38 334 236
0.0198565 0.755 0.0052950666 1.0930613e-38 335 236
0.021180267 0.755 0.0052950666 1.0655099e-38 336 236
0.022563647 0.75700003 0.0053090933 1.0562902e-38 337 236
0.02389092 0.75700003 0.0053090933 1.0470707e-38 338 236
0.025284819 0.759 0.0053231199 1.0102284e-38 339 236
0.026685731 0.76099998 0.0053371461 9.2757635e-39 340 236
0.028020019 0.76099998 0.0053371461 9.0917309e-39 341 236
0.029354304 0.76099998 0.0053371461 7.9907798e-39 342 236
0.030688593 0.76099998 0.0053371461 8.1755298e-39 343 236
0.032064959 0.76200002 0.0053441599 7.4426465e-39 344 236
0.033401001 0.76200002 0.0053441599 7.6270391e-39 345 236
0.034828212 0.764 0.0053581866 7.0799862e-39 346 236
0.036262438 0.76599997 0.0053722127 8.093778e-39 347 236
0.037605491 0.76599997 0.0053722127 9.2973463e-39 348 236
-0.025518013 0.76599997 0.0040291594 7.0893399e-39 301 237
-0.024174958 0.76599997 0.0040291594 7.4548826e-39 302 237
-0.022831906 0.76599997 0.0040291594 6.7173176e-39 303 237
-0.02137664 0.76200002 0.0040081199 6.7129946e-39 304 237
-0.0200406 0.76200002 0.0040081199 6.1598222e-39 305 237
-0.018680012 0.76099998 0.0040028598 6.3424184e-39 306 237
-0.017345725 0.76099998 0.0040028598 6.2502213e-39 307 237
-0.015969358 0.759 0.0039923396 6.3413408e-39 308 237
-0.014638579 0.759 0.0039923396 6.3413408e-39 309 237
-0.013272733 0.75700003 0.0039818203 6.4324672e-39 310 237
-0.011913899 0.755 0.0039712996 6.800891e-39 311 237
-0.010590133 0.755 0.0039712996 6.8019728e-39 312 237
-0.0092663663 0.755 0.0039712996 7.1703966e-39 313 237
-0.00793208 0.75400001 0.00396604 7.4473394e-39 314 237
-0.0066100666 0.75400001 0.00396604 7.8161219e-39 315 237
-0.0052880533 0.75400001 0.00396604 8.4596893e-39 316 237
-0.00396604 0.75400001 0.00396604 8.6440805e-39 317 237
-0.0026440267 0.75400001 0.00396604 9.1950893e-39 318 237
-0.0013220133 0.75400001 0.00396604 9.2872863e-39 319 237
0 0.75400001 0.00396604 1.0202762e-38 320 237
0.0013220133 0.75400001 0.00396604 1.001837e-38 321 237
0.0026440267 0.75400001 0.00396604 1.0658699e-38 322 237
0.00396604 0.75400001 0.00396604 1.0382111e-38 323 237
0.0052880533 0.75400001 0.00396604 1.0381742e-38 324 237
0.0066100666 0.75400001 0.00396604 1.0197351e-38 325 237
0.00793208 0.75400001 0.00396604 1.0196628e-38 326 237
0.0092540924 0.75400001 0.00396604 1.0380661e-38 327 237
0.010576107 0.75400001 0.00396604 1.0472143e-38 328 237
0.01189812 0.75400001 0.00396604 1.0379946e-38 329 237
0.013220133 0.75400001 0.00396604 1.0654382e-38 330 237
0.014542146 0.75400001 0.00396604 1.0562186e-38 331 237
0.01586416 0.75400001 0.00396604 1.065295e-38 332 237
0.017208965 0.755 0.0039712996 1.08377e-38 333 237
0.018532733 0.755 0.0039712996 1.0471437e-38 334 237
0.0198565 0.755 0.0039712996 1.037924e-38 335 237
0.021236373 0.75700003 0.0039818203 1.0287397e-38 336 237
0.022563647 0.75700003 0.0039818203 1.0102647e-38 337 237
0.023954039 0.759 0.0039923396 9.7349409e-39 338 237
0.025284819 0.759 0.0039923396 9.3672346e-39 339 237
0.026685731 0.76099998 0.0040028598 8.9080599e-39 340 237
0.028020019 0.76099998 0.0040028598 8.7243875e-39 341 237
0.029354304 0.76099998 0.0040028598 7.8067515e-39 342 237
0.030688593 0.76099998 0.0040028598 8.1751738e-39 343 237
0.032064959 0.76200002 0.0040081199 7.351534e-39 344 237
0.033401001 0.76200002 0.0040081199 7.8121521e-39 345 237
0.034828212 0.764 0.0040186401 7.2640202e-39 346 237
0.036167759 0.764 0.0040186401 8.2781721e-39 347 237
0.037654586 0.76700002 0.00403442 9.7597663e-39 348 237
-0.025551327 0.76700002 0.0026896133 7.3652037e-39 301 238
-0.024206521 0.76700002 0.0026896133 7.6381823e-39 302 238
-0.022861714 0.76700002 0.0026896133 7.2690396e-39 303 238
-0.021488851 0.76599997 0.0026861064 6.988857e-39 304 238
-0.0200406 0.76200002 0.00267208 6.4360419e-39 305 238
-0.01870456 0.76200002 0.00267208 6.2509416e-39 306 238
-0.01736852 0.76200002 0.00267208 6.1587446e-39 307 238
-0.016011439 0.76099998 0.0026685731 6.1587474e-39 308 238
-0.014638579 0.759 0.00266156 5.9743575e-39 309 238
-0.0133078 0.759 0.00266156 6.249871e-39 310 238
-0.01194546 0.75700003 0.0026545466 6.1576754e-39 311 238
-0.010590133 0.755 0.0026475333 6.3417205e-39 312 238
-0.0092663663 0.755 0.0026475333 6.5257517e-39 313 238
-0.0079425992 0.755 0.0026475333 6.6190291e-39 314 238
-0.0066188332 0.755 0.0026475333 7.2643985e-39 315 238
-0.0052880533 0.75400001 0.0026440267 7.725371e-39 316 238
-0.00396604 0.75400001 0.0026440267 8.1863492e-39 317 238
-0.0026440267 0.75400001 0.0026440267 8.5529653e-39 318 238
-0.0013220133 0.75400001 0.0026440267 8.5529653e-39 319 238
0 0.75400001 0.0026440267 9.2854899e-39 320 238
0.0013220133 0.75400001 0.0026440267 9.0089044e-39 321 238
0.0026440267 0.75400001 0.0026440267 9.7414234e-39 322 238
0.00396604 0.75400001 0.0026440267 9.6492277e-39 323 238
0.0052880533 0.75400001 0.0026440267 9.5563006e-39 324 238
0.0066188332 0.755 0.0026475333 9.3715492e-39 325 238
0.0079425992 0.755 0.0026475333 9.7378136e-39 326 238
0.0092663663 0.755 0.0026475333 9.5534237e-39 327 238
0.010576107 0.75400001 0.0026440267 9.9200539e-39 328 238
0.01189812 0.75400001 0.0026440267 9.7360227e-39 329 238
0.013237666 0.755 0.0026475333 9.6434712e-39 330 238
0.014561433 0.755 0.0026475333 9.6434712e-39 331 238
0.015885198 0.755 0.0026475333 9.7356696e-39 332 238
0.017208965 0.755 0.0026475333 9.9197007e-39 333 238
0.018532733 0.755 0.0026475333 9.7371074e-39 334 238
0.0198565 0.755 0.0026475333 9.7371074e-39 335 238
0.021236373 0.75700003 0.0026545466 9.5534294e-39 336 238
0.02262326 0.759 0.00266156 9.2764837e-39 337 238
0.023954039 0.759 0.00266156 9.2754047e-39 338 238
0.025351444 0.76099998 0.0026685731 8.9080585e-39 339 238
0.026685731 0.76099998 0.0026685731 8.4488867e-39 340 238
0.028020019 0.76099998 0.0026685731 8.4488867e-39 341 238
0.029354304 0.76099998 0.0026685731 7.8078361e-39 342 238
0.030688593 0.76099998 0.0026685731 7.9922287e-39 343 238
0.032064959 0.76200002 0.00267208 7.2607803e-39 344 238
0.033401001 0.76200002 0.00267208 7.8139541e-39 345 238
0.034828212 0.764 0.0026790933 7.4494834e-39 346 238
0.036167759 0.764 0.0026790933 8.5561911e-39 347 238
0.037654586 0.76700002 0.0026896133 1.0775348e-38 348 238
0.038999394 0.76700002 0.0026896133 1.3909999e-38 349 238
-0.025617953 0.76899999 0.0013483133 7.6432297e-39 301 239
-0.024269639 0.76899999 0.0013483133 7.9144118e-39 302 239
-0.022921326 0.76899999 0.0013483133 7.2690424e-39 303 239
-0.021516906 0.76700002 0.0013448066 6.8991837e-39 304 239
-0.020093199 0.764 0.0013395466 5.9772288e-39 305 239
-0.01870456 0.76200002 0.00133604 6.0672762e-39 306 239
-0.01736852 0.76200002 0.00133604 5.9750792e-39 307 239
-0.016011439 0.76099998 0.0013342865 6.2498682e-39 308 239
-0.014677152 0.76099998 0.0013342865 6.2498682e-39 309 239
-0.0133078 0.759 0.00133078 5.9743631e-39 310 239
-0.01194546 0.75700003 0.0013272733 5.9743631e-39 311 239
-0.010618187 0.75700003 0.0013272733 6.0647609e-39 312 239
-0.0092663663 0.755 0.0013237667 6.3409877e-39 313 239
-0.0079425992 0.755 0.0013237667 6.800891e-39 314 239
-0.0066188332 0.755 0.0013237667 7.3540648e-39 315 239
-0.0052950666 0.755 0.0013237667 7.723569e-39 316 239
-0.0039712996 0.755 0.0013237667 8.2767428e-39 317 239
-0.0026475333 0.755 0.0013237667 8.6440833e-39 318 239
-0.0013237667 0.755 0.0013237667 8.5518877e-39 319 239
0 0.755 0.0013237667 9.1929355e-39 320 239
0.0013237667 0.755 0.0013237667 8.9167088e-39 321 239
0.0026475333 0.755 0.0013237667 9.1911264e-39 322 239
0.0039712996 0.755 0.0013237667 9.0985721e-39 323 239
0.0052950666 0.755 0.0013237667 9.1882398e-39 324 239
0.0066188332 0.755 0.0013237667 9.0034898e-39 325 239
0.0079425992 0.755 0.0013237667 9.3686696e-39 326 239
0.0092663663 0.755 0.0013237667 9.2761138e-39 327 239
0.010590133 0.755 0.0013237667 9.2761166e-39 328 239
0.011913899 0.755 0.0013237667 9.2761166e-39 329 239
0.013237666 0.755 0.0013237667 9.367236e-39 330 239
0.014561433 0.755 0.0013237667 9.367236e-39 331 239
0.015885198 0.755 0.0013237667 9.3672388e-39 332 239
0.017208965 0.755 0.0013237667 9.7360227e-39 333 239
0.018581826 0.75700003 0.0013272733 9.3686794e-39 334 239
0.019909101 0.75700003 0.0013272733 9.5534294e-39 335 239
0.021236373 0.75700003 0.0013272733 9.1853671e-39 336 239
0.02262326 0.759 0.00133078 8.9087788e-39 337 239
0.023954039 0.759 0.00133078 8.8162258e-39 338 239
0.025351444 0.76099998 0.0013342865 8.6325521e-39 339 239
0.026685731 0.76099998 0.0013342865 7.8978695e-39 340 239
0.028020019 0.76099998 0.0013342865 7.9897064e-39 341 239
0.029354304 0.76099998 0.0013342865 7.4412059e-39 342 239
0.030728921 0.76200002 0.00133604 7.8099885e-39 343 239
0.032064959 0.76200002 0.00133604 7.5370071e-39 344 239
0.033488665 0.764 0.0013395466 8.1823765e-39 345 239
0.034828212 0.764 0.0013395466 7.2658152e-39 346 239
0.036167759 0.764 0.0013395466 8.8335011e-39 347 239
0.037654586 0.76700002 0.0013448066 1.1975333e-38 348 239
0.038999394 0.76700002 0.0013448066 1.4464615e-38 349 239
-0.024269639 0.76899999 -0 8.4690247e-39 302 240
-0.022921326 0.76899999 -0 7.6392641e-39 303 240
-0.021516906 0.76700002 -0 7.4498337e-39 304 240
-0.020093199 0.764 -0 6.988857e-39 305 240
-0.018753653 0.764 -0 6.6193542e-39 306 240
-0.01736852 0.76200002 -0 6.3427673e-39 307 240
-0.01603248 0.76200002 -0 6.3424184e-39 308 240
-0.014677152 0.76099998 -0 6.3424184e-39 309 240
-0.013342866 0.76099998 -0 6.3424184e-39 310 240
-0.01197702 0.759 -0 6.2502213e-39 311 240
-0.01064624 0.759 -0 6.1576754e-39 312 240
-0.0092909131 0.75700003 -0 6.0654798e-39 313 240
-0.0079636406 0.75700003 -0 6.1573349e-39 314 240
-0.0066188332 0.755 -0 6.3420863e-39 315 240
-0.0052950666 0.755 -0 6.619762e-39 316 240
-0.0039712996 0.755 -0 7.0810989e-39 317 240
-0.0026475333 0.755 -0 7.6328251e-39 318 240
-0.0013237667 0.755 -0 7.6328251e-39 319 240
0 0.755 -0 7.8150485e-39 320 240
0.0013237667 0.755 -0 7.7228529e-39 321 240
0.0026475333 0.755 -0 8.1816633e-39 322 240
0.0039712996 0.755 -0 7.9969133e-39 323 240
0.0052950666 0.755 -0 8.0865809e-39 324 240
0.0066188332 0.755 -0 7.8096353e-39 325 240
0.0079425992 0.755 -0 8.3584861e-39 326 240
0.0092663663 0.755 -0 8.3584861e-39 327 240
0.010590133 0.755 -0 8.4503216e-39 328 240
0.011913899 0.755 -0 8.4503216e-39 329 240
0.013237666 0.755 -0 8.2655744e-39 330 240
0.014561433 0.755 -0 8.2655744e-39 331 240
0.015885198 0.755 -0 8.6325647e-39 332 240
0.017208965 0.755 -0 8.9087928e-39 333 240
0.018581826 0.75700003 -0 9.2782844e-39 334 240
0.019909101 0.75700003 -0 9.2782844e-39 335 240
0.02129248 0.759 -0 1.0012234e-38 336 240
0.02262326 0.759 -0 9.7356472e-39 337 240
0.024017159 0.76099998 -0 9.8263981e-39 338 240
0.025351444 0.76099998 -0 9.4590561e-39 339 240
0.026685731 0.76099998 -0 8.6325366e-39 340 240
0.028020019 0.76099998 -0 8.816209e-39 341 240
0.029392879 0.76200002 -0 7.5344764e-39 342 240
0.030728921 0.76200002 -0 7.718869e-39 343 240
0.032149121 0.764 -0 7.2629454e-39 344 240
0.033576332 0.76599997 -0 7.9083148e-39 345 240
0.034828212 0.764 -0 7.7285912e-39 346 240
0.036167759 0.764 -0 9.2962771e-39 347 240
0.037654586 0.76700002 -0 1.3083478e-38 348 240
0.038999394 0.76700002 -0 1.4742999e-38 349 240
-0.022921326 0.76899999 -0.0013483133 7.8261763e-39 303 241
-0.021573013 0.76899999 -0.0013483133 7.8196952e-39 304 241
-0.020145798 0.76599997 -0.0013430532 7.1743258e-39 305 241
-0.018753653 0.764 -0.0013395466 6.5307557e-39 306 241
-0.01736852 0.76200002 -0.00133604 6.2538087e-39 307 241
-0.01603248 0.76200002 -0.00133604 6.2530954e-39 308 241
-0.01469644 0.76200002 -0.00133604 6.1605411e-39 309 241
-0.013342866 0.76099998 -0.0013342865 6.1598278e-39 310 241
-0.01197702 0.759 -0.00133078 6.0672734e-39 311 241
-0.01064624 0.759 -0.00133078 6.1580285e-39 312 241
-0.0092909131 0.75700003 -0.0013272733 6.0654742e-39 313 241
-0.0079636406 0.75700003 -0.0013272733 6.1558775e-39 314 241
-0.0066363667 0.75700003 -0.0013272733 6.3402688e-39 315 241
-0.0052950666 0.755 -0.0013237667 6.7083423e-39 316 241
-0.0039712996 0.755 -0.0013237667 7.1696791e-39 317 241
-0.0026475333 0.755 -0.0013237667 7.4451912e-39 318 241
-0.0013272733 0.75700003 -0.0013272733 7.4451912e-39 319 241
0 0.755 -0.0013237667 7.8114514e-39 320 241
0.0013237667 0.755 -0.0013237667 7.7192558e-39 321 241
0.0026475333 0.755 -0.0013237667 7.8110829e-39 322 241
0.0039712996 0.755 -0.0013237667 7.6266916e-39 323 241
0.0052950666 0.755 -0.0013237667 7.7167222e-39 324 241
0.0066188332 0.755 -0.0013237667 7.4397766e-39 325 241
0.0079425992 0.755 -0.0013237667 7.8978737e-39 326 241
0.0092663663 0.755 -0.0013237667 7.8060368e-39 327 241
0.010590133 0.755 -0.0013237667 7.8978737e-39 328 241
0.011913899 0.755 -0.0013237667 7.8060368e-39 329 241
0.013237666 0.755 -0.0013237667 7.8978723e-39 330 241
0.014561433 0.755 -0.0013237667 7.8060354e-39 331 241
0.015885198 0.755 -0.0013237667 8.0815475e-39 332 241
0.017254554 0.75700003 -0.0013272733 9.091752e-39 333 241
0.01863092 0.759 -0.00133078 9.370494e-39 334 241
0.0199617 0.759 -0.00133078 9.6474397e-39 335 241
0.02129248 0.759 -0.00133078 1.0013698e-38 336 241
0.022682872 0.76099998 -0.0013342865 1.019809e-38 337 241
0.024017159 0.76099998 -0.0013342865 9.5555916e-39 338 241
0.025351444 0.76099998 -0.0013342865 9.2790033e-39 339 241
0.026685731 0.76099998 -0.0013342865 8.4546404e-39 340 241
0.028056841 0.76200002 -0.00133604 8.362086e-39 341 241
0.029392879 0.76200002 -0.00133604 7.0763863e-39 342 241
0.030809574 0.764 -0.0013395466 7.2607775e-39 343 241
0.032233275 0.76599997 -0.0013430532 7.3565689e-39 344 241
0.033620168 0.76700002 -0.0013448066 8.2785252e-39 345 241
0.034964975 0.76700002 -0.0013448066 8.0966521e-39 346 241
0.036309779 0.76700002 -0.0013448066 1.0309347e-38 347 241
0.037654586 0.76700002 -0.0013448066 1.4006876e-38 348 241
0.038999394 0.76700002 -0.0013448066 1.4929193e-38 349 241
-0.02433276 0.77100003 -0.0027036399 1.0316537e-38 302 242
-0.02298094 0.77100003 -0.0027036399 8.1038421e-39 303 242
-0.021629119 0.77100003 -0.0027036399 8.465415e-39 304 242
-0.020172099 0.76700002 -0.0026896133 7.9122412e-39 305 242
-0.018827293 0.76700002 -0.0026896133 7.2675879e-39 306 242
-0.017482487 0.76700002 -0.0026896133 6.8069698e-39 307 242
-0.016074561 0.764 -0.0026790933 6.6218709e-39 308 242
-0.01469644 0.76200002 -0.00267208 6.3456442e-39 309 242
-0.0133604 0.76200002 -0.00267208 6.4353329e-39 310 242
-0.01202436 0.76200002 -0.00267208 6.3431372e-39 311 242
-0.01068832 0.76200002 -0.00267208 6.1587446e-39 312 242
-0.0093400059 0.76099998 -0.0026685731 5.8825178e-39 313 242
-0.0079846792 0.759 -0.00266156 5.9722065e-39 314 242
-0.0066363667 0.75700003 -0.0026545466 6.0647609e-39 315 242
-0.0053090933 0.75700003 -0.0026545466 5.9736597e-39 316 242
-0.0039818203 0.75700003 -0.0026545466 6.2498878e-39 317 242
-0.0026545466 0.75700003 -0.0026545466 6.5246825e-39 318 242
-0.0013272733 0.75700003 -0.0026545466 6.6168781e-39 319 242
0 0.75700003 -0.0026545466 6.9842131e-39 320 242
0.0013237667 0.755 -0.0026475333 6.9842131e-39 321 242
0.0026475333 0.755 -0.0026475333 6.9834872e-39 322 242
0.0039712996 0.755 -0.0026475333 6.707259e-39 323 242
0.0052950666 0.755 -0.0026475333 6.7980099e-39 324 242
0.0066188332 0.755 -0.0026475333 6.7054556e-39 325 242
0.0079425992 0.755 -0.0026475333 6.889121e-39 326 242
0.0092663663 0.755 -0.0026475333 6.6128928e-39 327 242
0.010590133 0.755 -0.0026475333 7.0713514e-39 328 242
0.011913899 0.755 -0.0026475333 6.9795145e-39 329 242
0.013237666 0.755 -0.0026475333 7.4387046e-39 330 242
0.014561433 0.755 -0.0026475333 8.4528551e-39 331 242
0.015927281 0.75700003 -0.0026545466 9.740001e-39 332 242
0.017300138 0.759 -0.00266156 1.0477567e-38 333 242
0.01863092 0.759 -0.00266156 1.0755229e-38 334 242
0.0199617 0.759 -0.00266156 1.1031815e-38 335 242
0.02129248 0.759 -0.00266156 1.0575873e-38 336 242
0.022682872 0.76099998 -0.0026685731 1.1313438e-38 337 242
0.024017159 0.76099998 -0.0026685731 1.003241e-38 338 242
0.025351444 0.76099998 -0.0026685731 1.0401193e-38 339 242
0.0267208 0.76200002 -0.00267208 1.0038527e-38 340 242
0.028056841 0.76200002 -0.00267208 9.6693854e-39 341 242
0.029470026 0.764 -0.0026790933 8.9220996e-39 342 242
0.030809574 0.764 -0.0026790933 7.078187e-39 343 242
0.032233275 0.76599997 -0.0026861064 7.1739755e-39 344 242
0.033620168 0.76700002 -0.0026896133 7.8193449e-39 345 242
0.034964975 0.76700002 -0.0026896133 9.2047975e-39 346 242
0.036309779 0.76700002 -0.0026896133 1.150969e-38 347 242
0.03775277 0.76899999 -0.0026966266 1.4653326e-38 348 242
0.039101087 0.76899999 -0.0026966266 1.5206499e-38 349 242
-0.02433276 0.77100003 -0.0040554604 1.105627e-38 302 243
-0.02298094 0.77100003 -0.0040554604 8.8435736e-39 303 243
-0.021629119 0.77100003 -0.0040554604 8.8363653e-39 304 243
-0.0202247 0.76899999 -0.0040449398 8.0066046e-39 305 243
-0.018827293 0.76700002 -0.00403442 7.5459824e-39 306 243
-0.017482487 0.76700002 -0.00403442 6.900613e-39 307 243
-0.016116638 0.76599997 -0.0040291594 6.6229541e-39 308 243
-0.014735013 0.764 -0.0040186401 6.4382027e-39 309 243
-0.0133604 0.76200002 -0.0040081199 6.6197269e-39 310 243
-0.01202436 0.76200002 -0.0040081199 6.5275313e-39 311 243
-0.01068832 0.76200002 -0.0040081199 6.2509416e-39 312 243
-0.0093522798 0.76200002 -0.0040081199 5.9747135e-39 313 243
-0.0080057196 0.76099998 -0.0040028598 6.0651112e-39 314 243
-0.0066538998 0.759 -0.0039923396 5.9729156e-39 315 243
-0.0053231199 0.759 -0.0039923396 6.1558747e-39 316 243
-0.0039923396 0.759 -0.0039923396 6.2480704e-39 317 243
-0.0026545466 0.75700003 -0.0039818203 6.6150606e-39 318 243
-0.0013272733 0.75700003 -0.0039818203 6.8912874e-39 319 243
0 0.75700003 -0.0039818203 6.8001721e-39 320 243
0.0013272733 0.75700003 -0.0039818203 6.7079751e-39 321 243
0.0026545466 0.75700003 -0.0039818203 6.7983729e-39 322 243
0.0039818203 0.75700003 -0.0039818203 6.7061772e-39 323 243
0.0053090933 0.75700003 -0.0039818203 6.7058115e-39 324 243
0.0066363667 0.75700003 -0.0039818203 6.5210601e-39 325 243
0.0079636406 0.75700003 -0.0039818203 6.5210629e-39 326 243
0.0092909131 0.75700003 -0.0039818203 5.6019779e-39 327 243
0.010618187 0.75700003 -0.0039818203 5.142799e-39 328 243
0.01194546 0.75700003 -0.0039818203 6.3366787e-39 329 243
0.0133078 0.759 -0.0039923396 7.724655e-39 330 243
0.014638579 0.759 -0.0039923396 1.0029186e-38 331 243
0.015969358 0.759 -0.0039923396 1.0950419e-38 332 243
0.017300138 0.759 -0.0039923396 1.1227007e-38 333 243
0.018680012 0.76099998 -0.0040028598 1.1597585e-38 334 243
0.020014299 0.76099998 -0.0040028598 1.2150758e-38 335 243
0.021348584 0.76099998 -0.0040028598 1.1604422e-38 336 243
0.022682872 0.76099998 -0.0040028598 1.2434541e-38 337 243
0.024017159 0.76099998 -0.0040028598 1.2164078e-38 338 243
0.025351444 0.76099998 -0.0040028598 1.2901643e-38 339 243
0.0267208 0.76200002 -0.0040081199 1.2352789e-38 340 243
0.028130481 0.764 -0.0040186401 1.1984005e-38 341 243
0.029470026 0.764 -0.0040186401 9.6679463e-39 342 243
0.030809574 0.764 -0.0040186401 5.4269473e-39 343 243
0.032233275 0.76599997 -0.0040291594 6.8062664e-39 344 243
0.033707831 0.76899999 -0.0040449398 7.4516358e-39 345 243
0.035056144 0.76899999 -0.0040449398 1.0312574e-38 346 243
0.036404461 0.76899999 -0.0040449398 1.2986248e-38 347 243
0.03775277 0.76899999 -0.0040449398 1.5022473e-38 348 243
-0.02433276 0.77100003 -0.0054072798 1.1888555e-38 302 244
-0.02298094 0.77100003 -0.0054072798 9.5833036e-39 303 244
-0.021629119 0.77100003 -0.0054072798 9.3913412e-39 304 244
-0.0202247 0.76899999 -0.0053932532 8.3768291e-39 305 244
-0.018827293 0.76700002 -0.0053792265 7.6414179e-39 306 244
-0.017482487 0.76700002 -0.0053792265 6.8112985e-39 307 244
-0.016116638 0.76599997 -0.0053722127 6.8084272e-39 308 244
-0.014773586 0.76599997 -0.0053722127 6.4400048e-39 309 244
-0.013395466 0.764 -0.0053581866 6.5296963e-39 310 244
-0.01205592 0.764 -0.0053581866 6.3453037e-39 311 244
