# .PCD v.7 - Point Cloud Data file format
FIELDS x y z rgb imX imY
SIZE 4 4 4 4 4 4
TYPE F F F F F F
COUNT 1 1 1 1 1 1
WIDTH 832
HEIGHT 1
VIEWPOINT 0 0 0 1 0 0 0
POINTS 832
DATA ascii
-0.030420333 0.69400001 -0.012168133 1.5023046e-38 295 250
-0.029161438 0.69300002 -0.012150601 1.4746829e-38 296 250
-0.027865725 0.69099998 -0.012115533 1.5023415e-38 297 250
-0.026654173 0.69099998 -0.012115533 1.4748644e-38 298 250
-0.025405798 0.69 -0.012097999 1.5025229e-38 299 250
-0.024125867 0.68800002 -0.012062933 1.5119243e-38 300 250
-0.022919573 0.68800002 -0.012062933 1.5580222e-38 301 250
-0.021713281 0.68800002 -0.012062933 1.5673508e-38 302 250
-0.020506985 0.68800002 -0.012062933 1.5765704e-38 303 250
-0.019300694 0.68800002 -0.012062933 1.5856104e-38 304 250
-0.018068098 0.68699998 -0.012045399 1.530293e-38 305 250
-0.01686356 0.68699998 -0.012045399 1.4471355e-38 306 250
-0.015659019 0.68699998 -0.012045399 1.4286605e-38 307 250
-0.014454478 0.68699998 -0.012045399 1.4102181e-38 308 250
-0.013249939 0.68699998 -0.012045399 1.3825236e-38 309 250
-0.012045399 0.68699998 -0.012045399 1.373266e-38 310 250
-0.010840859 0.68699998 -0.012045399 1.373266e-38 311 250
-0.0096363192 0.68699998 -0.012045399 1.3824127e-38 312 250
-0.0084195063 0.68599999 -0.012027865 1.3547542e-38 313 250
-0.0072167199 0.68599999 -0.012027865 1.3455345e-38 314 250
-0.0060139326 0.68599999 -0.012027865 1.3363149e-38 315 250
-0.0048111463 0.68599999 -0.012027865 1.3269882e-38 316 250
-0.00360836 0.68599999 -0.012027865 1.308549e-38 317 250
-0.0024090798 0.68699998 -0.012045399 1.3268803e-38 318 250
-0.0012045399 0.68699998 -0.012045399 1.2992575e-38 319 250
0 0.68699998 -0.012045399 1.2992575e-38 320 250
0.0012045399 0.68699998 -0.012045399 1.2900379e-38 321 250
0.0024090798 0.68699998 -0.012045399 1.2715279e-38 322 250
0.0036136196 0.68699998 -0.012045399 1.2715279e-38 323 250
0.0048251734 0.68800002 -0.012062933 1.2714209e-38 324 250
0.0060314666 0.68800002 -0.012062933 1.2622012e-38 325 250
0.0072377604 0.68800002 -0.012062933 1.2621661e-38 326 250
0.0084686 0.69 -0.012097999 1.2529464e-38 327 250
0.0096924258 0.69099998 -0.012115533 1.2436543e-38 328 250
0.010935539 0.69300002 -0.012150601 1.2344348e-38 329 250
0.012150601 0.69300002 -0.012150601 1.2252505e-38 330 250
0.01336566 0.69300002 -0.012150601 1.2252505e-38 331 250
0.01460176 0.69400001 -0.012168133 1.2159952e-38 332 250
0.015864158 0.69599998 -0.0122032 1.2252508e-38 333 250
0.017109027 0.69700003 -0.012220734 1.2159957e-38 334 250
0.0183574 0.69800001 -0.012238266 1.2159957e-38 335 250
0.019581227 0.69800001 -0.012238266 1.2159957e-38 336 250
0.020864666 0.69999999 -0.012273333 1.1883728e-38 337 250
0.022123558 0.70099998 -0.012290866 1.1883373e-38 338 250
0.023352645 0.70099998 -0.012290866 1.1791177e-38 339 250
0.024651866 0.70300001 -0.012325933 1.2065981e-38 340 250
0.02592128 0.704 -0.012343466 1.2158536e-38 341 250
0.027232772 0.70599997 -0.012378532 1.1881988e-38 342 250
0.028470624 0.70599997 -0.012378532 1.3080171e-38 343 250
-0.047304932 0.70999998 -0.013693533 1.6589434e-38 282 251
-0.046060063 0.70999998 -0.013693533 1.6773466e-38 283 251
-0.044688959 0.708 -0.013654959 1.6590492e-38 284 251
-0.043386232 0.70700002 -0.013635674 1.5022808e-38 285 251
-0.041967787 0.704 -0.013577812 1.4468851e-38 286 251
-0.040733438 0.704 -0.013577812 1.428482e-38 287 251
-0.039330769 0.70099998 -0.013519952 1.4470241e-38 288 251
-0.038101684 0.70099998 -0.013519952 1.4562438e-38 289 251
-0.036819998 0.69999999 -0.013500666 1.4838299e-38 290 251
-0.035490975 0.69800001 -0.013462093 1.4930495e-38 291 251
-0.034218054 0.69700003 -0.013442807 1.5023043e-38 292 251
-0.032948639 0.69599998 -0.013423519 1.5023043e-38 293 251
-0.031728316 0.69599998 -0.013423519 1.4931569e-38 294 251
-0.030420333 0.69400001 -0.013384946 1.474718e-38 295 251
-0.029161438 0.69300002 -0.01336566 1.4654634e-38 296 251
-0.027865725 0.69099998 -0.013327086 1.4746829e-38 297 251
-0.026654173 0.69099998 -0.013327086 1.4747566e-38 298 251
-0.025405798 0.69 -0.0133078 1.5116709e-38 299 251
-0.024125867 0.68800002 -0.013269227 1.5118536e-38 300 251
-0.022919573 0.68800002 -0.013269227 1.5579875e-38 301 251
-0.021713281 0.68800002 -0.013269227 1.5580959e-38 302 251
-0.020506985 0.68800002 -0.013269227 1.5580959e-38 303 251
-0.019300694 0.68800002 -0.013269227 1.5486599e-38 304 251
-0.018068098 0.68699998 -0.013249939 1.4933425e-38 305 251
-0.01686356 0.68699998 -0.013249939 1.4286958e-38 306 251
-0.015659019 0.68699998 -0.013249939 1.4010731e-38 307 251
-0.014454478 0.68699998 -0.013249939 1.4009986e-38 308 251
-0.013249939 0.68699998 -0.013249939 1.3641203e-38 309 251
-0.012027865 0.68599999 -0.013230653 1.3732658e-38 310 251
-0.010825079 0.68599999 -0.013230653 1.3640462e-38 311 251
-0.0096363192 0.68699998 -0.013249939 1.3731929e-38 312 251
-0.0084195063 0.68599999 -0.013230653 1.3547896e-38 313 251
-0.0072167199 0.68599999 -0.013230653 1.336243e-38 314 251
-0.0060139326 0.68599999 -0.013230653 1.3270235e-38 315 251
-0.0048111463 0.68599999 -0.013230653 1.3177686e-38 316 251
-0.00360836 0.68599999 -0.013230653 1.2993293e-38 317 251
-0.0024090798 0.68699998 -0.013249939 1.2992219e-38 318 251
-0.0012045399 0.68699998 -0.013249939 1.2900023e-38 319 251
0 0.68699998 -0.013249939 1.2716711e-38 320 251
0.0012045399 0.68699998 -0.013249939 1.2624515e-38 321 251
0.0024090798 0.68699998 -0.013249939 1.2623086e-38 322 251
0.0036136196 0.68699998 -0.013249939 1.2623086e-38 323 251
0.0048251734 0.68800002 -0.013269227 1.2805329e-38 324 251
0.0060314666 0.68800002 -0.013269227 1.2528742e-38 325 251
0.0072587994 0.69 -0.0133078 1.2528389e-38 326 251
0.0084686 0.69 -0.0133078 1.2436193e-38 327 251
0.0096924258 0.69099998 -0.013327086 1.2344351e-38 328 251
0.010935539 0.69300002 -0.01336566 1.2252155e-38 329 251
0.012150601 0.69300002 -0.01336566 1.2251788e-38 330 251
0.013384946 0.69400001 -0.013384946 1.2251788e-38 331 251
0.01460176 0.69400001 -0.013384946 1.2159957e-38 332 251
0.015864158 0.69599998 -0.013423519 1.2159957e-38 333 251
0.017109027 0.69700003 -0.013442807 1.1976644e-38 334 251
0.0183574 0.69800001 -0.013462093 1.1884447e-38 335 251
0.019581227 0.69800001 -0.013462093 1.2067041e-38 336 251
0.020864666 0.69999999 -0.013500666 1.1974846e-38 337 251
0.022123558 0.70099998 -0.013519952 1.1974489e-38 338 251
0.023352645 0.70099998 -0.013519952 1.1882294e-38 339 251
0.024581732 0.70099998 -0.013519952 1.2065618e-38 340 251
0.025994917 0.70599997 -0.013616386 1.2157814e-38 341 251
0.027232772 0.70599997 -0.013616386 1.1789432e-38 342 251
0.028470624 0.70599997 -0.013616386 1.3264922e-38 343 251
-0.047304932 0.70999998 -0.014938398 1.6497237e-38 282 252
-0.046060063 0.70999998 -0.014938398 1.6589434e-38 283 252
-0.044688959 0.708 -0.01489632 1.6590492e-38 284 252
-0.043386232 0.70700002 -0.01487528 1.5115004e-38 285 252
-0.041967787 0.704 -0.014812159 1.4561046e-38 286 252
-0.040733438 0.704 -0.014812159 1.4468851e-38 287 252
-0.039330769 0.70099998 -0.014749039 1.4562441e-38 288 252
-0.038101684 0.70099998 -0.014749039 1.4562441e-38 289 252
-0.036819998 0.69999999 -0.014727999 1.4838302e-38 290 252
-0.035490975 0.69800001 -0.01468592 1.4930497e-38 291 252
-0.034267146 0.69800001 -0.01468592 1.4747182e-38 292 252
-0.03299598 0.69700003 -0.01466488 1.4747182e-38 293 252
-0.031728316 0.69599998 -0.014643839 1.4563154e-38 294 252
-0.030420333 0.69400001 -0.01460176 1.4563154e-38 295 252
-0.029161438 0.69300002 -0.014580719 1.4470608e-38 296 252
-0.027946379 0.69300002 -0.014580719 1.4562804e-38 297 252
-0.026654173 0.69099998 -0.014538639 1.4471705e-38 298 252
-0.025405798 0.69 -0.014517599 1.4840489e-38 299 252
-0.024125867 0.68800002 -0.014475521 1.5025975e-38 300 252
-0.022919573 0.68800002 -0.014475521 1.5486593e-38 301 252
-0.021713281 0.68800002 -0.014475521 1.5946499e-38 302 252
-0.020506985 0.68800002 -0.014475521 1.5946499e-38 303 252
-0.019300694 0.68800002 -0.014475521 1.5118171e-38 304 252
-0.018068098 0.68699998 -0.014454478 1.4472801e-38 305 252
-0.01686356 0.68699998 -0.014454478 1.4194397e-38 306 252
-0.015659019 0.68699998 -0.014454478 1.391781e-38 307 252
-0.014454478 0.68699998 -0.014454478 1.3825589e-38 308 252
-0.013249939 0.68699998 -0.014454478 1.3549361e-38 309 252
-0.012027865 0.68599999 -0.01443344 1.3640459e-38 310 252
-0.010825079 0.68599999 -0.01443344 1.3548264e-38 311 252
-0.0096363192 0.68699998 -0.014454478 1.3547545e-38 312 252
-0.0084317802 0.68699998 -0.014454478 1.3363152e-38 313 252
-0.0072167199 0.68599999 -0.01443344 1.3269884e-38 314 252
-0.0060139326 0.68599999 -0.01443344 1.3085493e-38 315 252
-0.0048111463 0.68599999 -0.01443344 1.2809628e-38 316 252
-0.00360836 0.68599999 -0.01443344 1.2717432e-38 317 252
-0.0024055731 0.68599999 -0.01443344 1.2624881e-38 318 252
-0.0012045399 0.68699998 -0.014454478 1.2624881e-38 319 252
0 0.68699998 -0.014454478 1.2531966e-38 320 252
0.0012045399 0.68699998 -0.014454478 1.2439771e-38 321 252
0.0024090798 0.68699998 -0.014454478 1.24387e-38 322 252
0.0036136196 0.68699998 -0.014454478 1.2346146e-38 323 252
0.0048251734 0.68800002 -0.014475521 1.2344716e-38 324 252
0.0060314666 0.68800002 -0.014475521 1.2160685e-38 325 252
0.0072587994 0.69 -0.014517599 1.2160688e-38 326 252
0.008480873 0.69099998 -0.014538639 1.2160688e-38 327 252
0.0096924258 0.69099998 -0.014538639 1.2251802e-38 328 252
0.010935539 0.69300002 -0.014580719 1.2159606e-38 329 252
0.012150601 0.69300002 -0.014580719 1.2159959e-38 330 252
0.01336566 0.69300002 -0.014580719 1.2159959e-38 331 252
0.01460176 0.69400001 -0.01460176 1.1976288e-38 332 252
0.015818574 0.69400001 -0.01460176 1.1976288e-38 333 252
0.017109027 0.69700003 -0.01466488 1.1884091e-38 334 252
0.0183574 0.69800001 -0.01468592 1.1791896e-38 335 252
0.019581227 0.69800001 -0.01468592 1.1974846e-38 336 252
0.020864666 0.69999999 -0.014727999 1.1882652e-38 337 252
0.022123558 0.70099998 -0.014749039 1.1791177e-38 338 252
0.023352645 0.70099998 -0.014749039 1.1791177e-38 339 252
0.024581732 0.70099998 -0.014749039 1.1790123e-38 340 252
0.02592128 0.704 -0.014812159 1.2158547e-38 341 252
0.027232772 0.70599997 -0.014854239 1.1974196e-38 342 252
0.028470624 0.70599997 -0.014854239 1.3449326e-38 343 252
-0.045930319 0.708 -0.01613768 1.668055e-38 283 253
-0.044688959 0.708 -0.01613768 1.622243e-38 284 253
-0.043386232 0.70700002 -0.016114887 1.5115722e-38 285 253
-0.041967787 0.704 -0.016046507 1.5021304e-38 286 253
-0.040733438 0.704 -0.016046507 1.4560328e-38 287 253
-0.039442986 0.70300001 -0.016023712 1.4653556e-38 288 253
-0.038101684 0.70099998 -0.015978126 1.4745753e-38 289 253
-0.036819998 0.69999999 -0.015955333 1.4838296e-38 290 253
-0.035490975 0.69800001 -0.015909746 1.4930851e-38 291 253
-0.034267146 0.69800001 -0.015909746 1.465534e-38 292 253
-0.03299598 0.69700003 -0.015886955 1.465534e-38 293 253
-0.031728316 0.69599998 -0.015864158 1.4654984e-38 294 253
-0.030420333 0.69400001 -0.015818574 1.4470591e-38 295 253
-0.029161438 0.69300002 -0.015795778 1.4470594e-38 296 253
-0.027946379 0.69300002 -0.015795778 1.4562791e-38 297 253
-0.026654173 0.69099998 -0.015750192 1.4563154e-38 298 253
-0.025405798 0.69 -0.015727401 1.48401e-38 299 253
-0.024125867 0.68800002 -0.015681813 1.4564604e-38 300 253
-0.022919573 0.68800002 -0.015681813 1.4380213e-38 301 253
-0.021713281 0.68800002 -0.015681813 1.474721e-38 302 253
-0.020506985 0.68800002 -0.015681813 1.4839766e-38 303 253
-0.019300694 0.68800002 -0.015681813 1.4470984e-38 304 253
-0.018068098 0.68699998 -0.015659019 1.4286592e-38 305 253
-0.01686356 0.68699998 -0.015659019 1.3734125e-38 306 253
-0.015659019 0.68699998 -0.015659019 1.364157e-38 307 253
-0.014454478 0.68699998 -0.015659019 1.3825225e-38 308 253
-0.013249939 0.68699998 -0.015659019 1.3456444e-38 309 253
-0.012045399 0.68699998 -0.015659019 1.354791e-38 310 253
-0.010840859 0.68699998 -0.015659019 1.354791e-38 311 253
-0.0096363192 0.68699998 -0.015659019 1.3454995e-38 312 253
-0.0084317802 0.68699998 -0.015659019 1.3362799e-38 313 253
-0.0072272392 0.68699998 -0.015659019 1.2901825e-38 314 253
-0.0060226996 0.68699998 -0.015659019 1.2809628e-38 315 253
-0.0048111463 0.68599999 -0.015636226 1.2717432e-38 316 253
-0.00360836 0.68599999 -0.015636226 1.2624878e-38 317 253
-0.0024055731 0.68599999 -0.015636226 1.2624159e-38 318 253
-0.0012045399 0.68699998 -0.015659019 1.2531964e-38 319 253
0 0.68699998 -0.015659019 1.2531969e-38 320 253
0.0012045399 0.68699998 -0.015659019 1.2255022e-38 321 253
0.0024090798 0.68699998 -0.015659019 1.2437262e-38 322 253
0.0036188802 0.68800002 -0.015681813 1.2161036e-38 323 253
0.0048251734 0.68800002 -0.015681813 1.2251799e-38 324 253
0.0060489997 0.69 -0.015727401 1.2159603e-38 325 253
0.0072587994 0.69 -0.015727401 1.2342201e-38 326 253
0.008480873 0.69099998 -0.015750192 1.2342201e-38 327 253
0.0097204801 0.69300002 -0.015795778 1.2158886e-38 328 253
0.010935539 0.69300002 -0.015795778 1.2158886e-38 329 253
0.012150601 0.69300002 -0.015795778 1.2158517e-38 330 253
0.01336566 0.69300002 -0.015795778 1.2158517e-38 331 253
0.01460176 0.69400001 -0.015818574 1.1883728e-38 332 253
0.015818574 0.69400001 -0.015818574 1.1791534e-38 333 253
0.017109027 0.69700003 -0.015886955 1.1791893e-38 334 253
0.0183574 0.69800001 -0.015909746 1.1699699e-38 335 253
0.019637333 0.69999999 -0.015955333 1.1882294e-38 336 253
0.020864666 0.69999999 -0.015955333 1.1882294e-38 337 253
0.022123558 0.70099998 -0.015978126 1.1881935e-38 338 253
0.023352645 0.70099998 -0.015978126 1.1881935e-38 339 253
0.024651866 0.70300001 -0.016023712 1.206669e-38 340 253
0.02592128 0.704 -0.016046507 1.1974495e-38 341 253
0.027155625 0.704 -0.016046507 1.2341168e-38 342 253
0.028389972 0.704 -0.016046507 1.4092885e-38 343 253
-0.044688959 0.708 -0.017379038 1.6406098e-38 284 254
-0.043324865 0.70599997 -0.017329946 1.5207555e-38 285 254
-0.041967787 0.704 -0.017280852 1.4746513e-38 286 254
-0.040675577 0.70300001 -0.017256306 1.419334e-38 287 254
-0.039442986 0.70300001 -0.017256306 1.4745753e-38 288 254
-0.038101684 0.70099998 -0.017207211 1.4745753e-38 289 254
-0.036819998 0.69999999 -0.017182667 1.4563157e-38 290 254
-0.035490975 0.69800001 -0.017133573 1.4563157e-38 291 254
-0.034218054 0.69700003 -0.017109027 1.4654631e-38 292 254
-0.03299598 0.69700003 -0.017109027 1.4654631e-38 293 254
-0.031728316 0.69599998 -0.017084479 1.4286923e-38 294 254
-0.030420333 0.69400001 -0.017035386 1.4286923e-38 295 254
-0.029161438 0.69300002 -0.01701084 1.4286926e-38 296 254
-0.027946379 0.69300002 -0.01701084 1.4470958e-38 297 254
-0.026654173 0.69099998 -0.016961746 1.4288015e-38 298 254
-0.025405798 0.69 -0.0169372 1.438021e-38 299 254
-0.024125867 0.68800002 -0.016888106 1.4471337e-38 300 254
-0.022919573 0.68800002 -0.016888106 1.4379141e-38 301 254
-0.021713281 0.68800002 -0.016888106 1.4562456e-38 302 254
-0.020506985 0.68800002 -0.016888106 1.4654652e-38 303 254
-0.019300694 0.68800002 -0.016888106 1.4286945e-38 304 254
-0.018068098 0.68699998 -0.01686356 1.4194391e-38 305 254
-0.01686356 0.68699998 -0.01686356 1.3826318e-38 306 254
-0.015659019 0.68699998 -0.01686356 1.3641926e-38 307 254
-0.014454478 0.68699998 -0.01686356 1.3640475e-38 308 254
-0.013249939 0.68699998 -0.01686356 1.3456444e-38 309 254
-0.012045399 0.68699998 -0.01686356 1.354791e-38 310 254
-0.010840859 0.68699998 -0.01686356 1.3455715e-38 311 254
-0.0096363192 0.68699998 -0.01686356 1.3179131e-38 312 254
-0.0084317802 0.68699998 -0.01686356 1.299474e-38 313 254
-0.0072272392 0.68699998 -0.01686356 1.3085856e-38 314 254
-0.0060226996 0.68699998 -0.01686356 1.2809628e-38 315 254
-0.0048111463 0.68599999 -0.016839013 1.271743e-38 316 254
-0.00360836 0.68599999 -0.016839013 1.2625234e-38 317 254
-0.0024090798 0.68699998 -0.01686356 1.2533038e-38 318 254
-0.0012045399 0.68699998 -0.01686356 1.2533038e-38 319 254
0 0.68699998 -0.01686356 1.2438694e-38 320 254
0.0012045399 0.68699998 -0.01686356 1.2346499e-38 321 254
0.0024090798 0.68699998 -0.01686356 1.2345067e-38 322 254
0.0036188802 0.68800002 -0.016888106 1.206884e-38 323 254
0.0048251734 0.68800002 -0.016888106 1.2159239e-38 324 254
0.0060489997 0.69 -0.0169372 1.1974489e-38 325 254
0.0072693196 0.69099998 -0.016961746 1.206669e-38 326 254
0.008480873 0.69099998 -0.016961746 1.206669e-38 327 254
0.0097204801 0.69300002 -0.01701084 1.2066688e-38 328 254
0.01095132 0.69400001 -0.017035386 1.1974492e-38 329 254
0.012168133 0.69400001 -0.017035386 1.1791175e-38 330 254
0.013384946 0.69400001 -0.017035386 1.1883728e-38 331 254
0.01460176 0.69400001 -0.017035386 1.1791534e-38 332 254
0.015818574 0.69400001 -0.017035386 1.1791534e-38 333 254
0.017109027 0.69700003 -0.017109027 1.169934e-38 334 254
0.0183574 0.69800001 -0.017133573 1.169934e-38 335 254
0.019637333 0.69999999 -0.017182667 1.1882294e-38 336 254
0.020864666 0.69999999 -0.017182667 1.1882294e-38 337 254
0.022123558 0.70099998 -0.017207211 1.1882652e-38 338 254
0.023352645 0.70099998 -0.017207211 1.1882652e-38 339 254
0.024651866 0.70300001 -0.017256306 1.1790476e-38 340 254
0.02592128 0.704 -0.017280852 1.1882672e-38 341 254
0.027155625 0.704 -0.017280852 1.2343692e-38 342 254
0.028389972 0.704 -0.017280852 1.4002853e-38 343 254
0.029708479 0.70599997 -0.017329946 1.5573817e-38 344 254
-0.044562716 0.70599997 -0.018567799 1.6498294e-38 284 255
-0.043324865 0.70599997 -0.018567799 1.5483783e-38 285 255
-0.041967787 0.704 -0.018515198 1.4930908e-38 286 255
-0.040675577 0.70300001 -0.018488899 1.3916756e-38 287 255
-0.039442986 0.70300001 -0.018488899 1.46532e-38 288 255
-0.038101684 0.70099998 -0.018436298 1.4745397e-38 289 255
-0.036819998 0.69999999 -0.018409999 1.4562441e-38 290 255
-0.035490975 0.69800001 -0.0183574 1.4562441e-38 291 255
-0.034218054 0.69700003 -0.018331099 1.4562435e-38 292 255
-0.03299598 0.69700003 -0.018331099 1.4470238e-38 293 255
-0.031728316 0.69599998 -0.018304799 1.4378396e-38 294 255
-0.030420333 0.69400001 -0.0182522 1.4378396e-38 295 255
-0.029161438 0.69300002 -0.018225901 1.4195083e-38 296 255
-0.027946379 0.69300002 -0.018225901 1.4287279e-38 297 255
-0.026654173 0.69099998 -0.0181733 1.4287649e-38 298 255
-0.025405798 0.69 -0.018146999 1.4287649e-38 299 255
-0.024125867 0.68800002 -0.0180944 1.4286943e-38 300 255
-0.022919573 0.68800002 -0.0180944 1.4194746e-38 301 255
-0.021713281 0.68800002 -0.0180944 1.4285871e-38 302 255
-0.020506985 0.68800002 -0.0180944 1.4193674e-38 303 255
-0.019300694 0.68800002 -0.0180944 1.4101828e-38 304 255
-0.018068098 0.68699998 -0.018068098 1.4009633e-38 305 255
-0.01686356 0.68699998 -0.018068098 1.3825589e-38 306 255
-0.015659019 0.68699998 -0.018068098 1.3549361e-38 307 255
-0.014454478 0.68699998 -0.018068098 1.3457516e-38 308 255
-0.013249939 0.68699998 -0.018068098 1.336532e-38 309 255
-0.012045399 0.68699998 -0.018068098 1.3364601e-38 310 255
-0.010840859 0.68699998 -0.018068098 1.317985e-38 311 255
-0.0096363192 0.68699998 -0.018068098 1.3269534e-38 312 255
-0.0084317802 0.68699998 -0.018068098 1.317698e-38 313 255
-0.0072272392 0.68699998 -0.018068098 1.2809995e-38 314 255
-0.0060226996 0.68699998 -0.018068098 1.2533767e-38 315 255
-0.0048181596 0.68699998 -0.018068098 1.2624881e-38 316 255
-0.0036136196 0.68699998 -0.018068098 1.2532685e-38 317 255
-0.0024090798 0.68699998 -0.018068098 1.2532685e-38 318 255
-0.0012062934 0.68800002 -0.0180944 1.2256458e-38 319 255
0 0.68800002 -0.0180944 1.2438694e-38 320 255
0.0012062934 0.68800002 -0.0180944 1.2254303e-38 321 255
0.0024125867 0.68800002 -0.0180944 1.2344704e-38 322 255
0.0036188802 0.68800002 -0.0180944 1.2159952e-38 323 255
0.0048251734 0.68800002 -0.0180944 1.2067041e-38 324 255
0.0060489997 0.69 -0.018146999 1.1974846e-38 325 255
0.0072587994 0.69 -0.018146999 1.1974489e-38 326 255
0.008480873 0.69099998 -0.0181733 1.1974489e-38 327 255
0.0097204801 0.69300002 -0.018225901 1.2066323e-38 328 255
0.01095132 0.69400001 -0.0182522 1.2066323e-38 329 255
0.012168133 0.69400001 -0.0182522 1.1974846e-38 330 255
0.013384946 0.69400001 -0.0182522 1.1882652e-38 331 255
0.01460176 0.69400001 -0.0182522 1.1883011e-38 332 255
0.015818574 0.69400001 -0.0182522 1.1698981e-38 333 255
0.017109027 0.69700003 -0.018331099 1.1698623e-38 334 255
0.018331099 0.69700003 -0.018331099 1.1698623e-38 335 255
0.019581227 0.69800001 -0.0183574 1.1881935e-38 336 255
0.020864666 0.69999999 -0.018409999 1.1881935e-38 337 255
0.02218668 0.70300001 -0.018488899 1.1881935e-38 338 255
0.023419274 0.70300001 -0.018488899 1.1974129e-38 339 255
0.024686933 0.704 -0.018515198 1.2065972e-38 340 255
0.02592128 0.704 -0.018515198 1.1973776e-38 341 255
0.027155625 0.704 -0.018515198 1.2619187e-38 342 255
0.028470624 0.70599997 -0.018567799 1.4555296e-38 343 255
0.029708479 0.70599997 -0.018567799 1.5573098e-38 344 255
-0.044562716 0.70599997 -0.019805651 1.6681609e-38 284 256
-0.043324865 0.70599997 -0.019805651 1.5575263e-38 285 256
-0.041967787 0.704 -0.019749546 1.5115302e-38 286 256
-0.040733438 0.704 -0.019749546 1.4100791e-38 287 256
-0.039442986 0.70300001 -0.019721493 1.4562085e-38 288 256
-0.038101684 0.70099998 -0.019665385 1.4562085e-38 289 256
-0.036819998 0.69999999 -0.019637333 1.4286573e-38 290 256
-0.035490975 0.69800001 -0.019581227 1.4286573e-38 291 256
-0.034267146 0.69800001 -0.019581227 1.4286929e-38 292 256
-0.03299598 0.69700003 -0.019553173 1.4102179e-38 293 256
-0.031728316 0.69599998 -0.019525118 1.4102535e-38 294 256
-0.030420333 0.69400001 -0.019469013 1.400998e-38 295 256
-0.029161438 0.69300002 -0.01944096 1.4102179e-38 296 256
-0.027946379 0.69300002 -0.01944096 1.4102179e-38 297 256
-0.026654173 0.69099998 -0.019384852 1.4011428e-38 298 256
-0.025405798 0.69 -0.019356798 1.4011428e-38 299 256
-0.024195999 0.69 -0.019356798 1.410255e-38 300 256
-0.022919573 0.68800002 -0.019300694 1.3918519e-38 301 256
-0.021713281 0.68800002 -0.019300694 1.4101475e-38 302 256
-0.020506985 0.68800002 -0.019300694 1.400928e-38 303 256
-0.019300694 0.68800002 -0.019300694 1.3917437e-38 304 256
-0.0180944 0.68800002 -0.019300694 1.3825241e-38 305 256
-0.016888106 0.68800002 -0.019300694 1.3641554e-38 306 256
-0.015681813 0.68800002 -0.019300694 1.3549358e-38 307 256
-0.014454478 0.68699998 -0.019272638 1.336532e-38 308 256
-0.013249939 0.68699998 -0.019272638 1.336532e-38 309 256
-0.012045399 0.68699998 -0.019272638 1.3455362e-38 310 256
-0.010840859 0.68699998 -0.019272638 1.3179134e-38 311 256
-0.0096363192 0.68699998 -0.019272638 1.2994386e-38 312 256
-0.0084317802 0.68699998 -0.019272638 1.2902191e-38 313 256
-0.0072272392 0.68699998 -0.019272638 1.2901472e-38 314 256
-0.0060226996 0.68699998 -0.019272638 1.2717079e-38 315 256
-0.0048181596 0.68699998 -0.019272638 1.271636e-38 316 256
-0.0036136196 0.68699998 -0.019272638 1.2624165e-38 317 256
-0.0024090798 0.68699998 -0.019272638 1.2531969e-38 318 256
-0.0012062934 0.68800002 -0.019300694 1.2439415e-38 319 256
0 0.68800002 -0.019300694 1.2437618e-38 320 256
0.0012062934 0.68800002 -0.019300694 1.2161392e-38 321 256
0.0024125867 0.68800002 -0.019300694 1.2252152e-38 322 256
0.0036188802 0.68800002 -0.019300694 1.1975924e-38 323 256
0.0048251734 0.68800002 -0.019300694 1.2066323e-38 324 256
0.0060489997 0.69 -0.019356798 1.1974129e-38 325 256
0.0072587994 0.69 -0.019356798 1.1882652e-38 326 256
0.008480873 0.69099998 -0.019384852 1.1882652e-38 327 256
0.0097204801 0.69300002 -0.01944096 1.1882652e-38 328 256
0.01095132 0.69400001 -0.019469013 1.1882652e-38 329 256
0.012168133 0.69400001 -0.019469013 1.1882652e-38 330 256
0.013384946 0.69400001 -0.019469013 1.1882652e-38 331 256
0.01460176 0.69400001 -0.019469013 1.1607146e-38 332 256
0.015818574 0.69400001 -0.019469013 1.1607146e-38 333 256
0.017084479 0.69599998 -0.019525118 1.1698981e-38 334 256
0.018331099 0.69700003 -0.019553173 1.1606787e-38 335 256
0.019581227 0.69800001 -0.019581227 1.1698264e-38 336 256
0.020894472 0.70099998 -0.019665385 1.1698264e-38 337 256
0.022123558 0.70099998 -0.019665385 1.1882296e-38 338 256
0.023452586 0.704 -0.019749546 1.1974492e-38 339 256
0.024686933 0.704 -0.019749546 1.2065618e-38 340 256
0.02592128 0.704 -0.019749546 1.1881227e-38 341 256
0.027155625 0.704 -0.019749546 1.2802146e-38 342 256
0.028470624 0.70599997 -0.019805651 1.4922646e-38 343 256
0.029708479 0.70599997 -0.019805651 1.5573098e-38 344 256
0.030946331 0.70599997 -0.019805651 1.6310663e-38 345 256
-0.044688959 0.708 -0.021103119 1.695712e-38 284 257
-0.043447599 0.708 -0.021103119 1.5942969e-38 285 257
-0.042087011 0.70599997 -0.021043506 1.5115668e-38 286 257
-0.040733438 0.704 -0.020983893 1.4009322e-38 287 257
-0.039499093 0.704 -0.020983893 1.4562088e-38 288 257
-0.038101684 0.70099998 -0.020894472 1.4469891e-38 289 257
-0.036819998 0.69999999 -0.020864666 1.4194377e-38 290 257
-0.035490975 0.69800001 -0.020805053 1.4194377e-38 291 257
-0.034267146 0.69800001 -0.020805053 1.419473e-38 292 257
-0.03299598 0.69700003 -0.020775247 1.4102535e-38 293 257
-0.03177391 0.69700003 -0.020775247 1.4101816e-38 294 257
-0.030507999 0.69599998 -0.020745439 1.4101816e-38 295 257
-0.029203519 0.69400001 -0.020685827 1.4102535e-38 296 257
-0.027946379 0.69300002 -0.020656019 1.4102535e-38 297 257
-0.026654173 0.69099998 -0.020596405 1.3735917e-38 298 257
-0.025442619 0.69099998 -0.020596405 1.3735917e-38 299 257
-0.024195999 0.69 -0.020566599 1.3734844e-38 300 257
-0.022919573 0.68800002 -0.020506985 1.3734844e-38 301 257
-0.021713281 0.68800002 -0.020506985 1.3917437e-38 302 257
-0.020506985 0.68800002 -0.020506985 1.3917437e-38 303 257
-0.019300694 0.68800002 -0.020506985 1.3549729e-38 304 257
-0.0180944 0.68800002 -0.020506985 1.3549729e-38 305 257
-0.016888106 0.68800002 -0.020506985 1.3549005e-38 306 257
-0.015681813 0.68800002 -0.020506985 1.3456809e-38 307 257
-0.014475521 0.68800002 -0.020506985 1.3364248e-38 308 257
-0.013249939 0.68699998 -0.020477179 1.3272052e-38 309 257
-0.012045399 0.68699998 -0.020477179 1.3363165e-38 310 257
-0.010840859 0.68699998 -0.020477179 1.3086938e-38 311 257
-0.0096363192 0.68699998 -0.020477179 1.3178052e-38 312 257
-0.0084317802 0.68699998 -0.020477179 1.3178052e-38 313 257
-0.0072272392 0.68699998 -0.020477179 1.2992943e-38 314 257
-0.0060226996 0.68699998 -0.020477179 1.2716358e-38 315 257
-0.0048181596 0.68699998 -0.020477179 1.2624884e-38 316 257
-0.0036136196 0.68699998 -0.020477179 1.2532329e-38 317 257
-0.0024090798 0.68699998 -0.020477179 1.2531613e-38 318 257
-0.0012062934 0.68800002 -0.020506985 1.2255025e-38 319 257
0 0.68800002 -0.020506985 1.2437262e-38 320 257
0.0012062934 0.68800002 -0.020506985 1.206884e-38 321 257
0.0024125867 0.68800002 -0.020506985 1.2159239e-38 322 257
0.0036188802 0.68800002 -0.020506985 1.1974489e-38 323 257
0.0048391996 0.69 -0.020566599 1.1698265e-38 324 257
0.0060489997 0.69 -0.020566599 1.1698265e-38 325 257
0.0072693196 0.69099998 -0.020596405 1.1698265e-38 326 257
0.0085054198 0.69300002 -0.020656019 1.1698265e-38 327 257
0.0097204801 0.69300002 -0.020656019 1.1698264e-38 328 257
0.01095132 0.69400001 -0.020685827 1.1698264e-38 329 257
0.012168133 0.69400001 -0.020685827 1.1698623e-38 330 257
0.013384946 0.69400001 -0.020685827 1.1698623e-38 331 257
0.01460176 0.69400001 -0.020685827 1.1514593e-38 332 257
0.015818574 0.69400001 -0.020685827 1.1514593e-38 333 257
0.017084479 0.69599998 -0.020745439 1.1514593e-38 334 257
0.0183574 0.69800001 -0.020805053 1.1606787e-38 335 257
0.019637333 0.69999999 -0.020864666 1.1698265e-38 336 257
0.020894472 0.70099998 -0.020894472 1.1882296e-38 337 257
0.022123558 0.70099998 -0.020894472 1.188194e-38 338 257
0.023452586 0.704 -0.020983893 1.1974495e-38 339 257
0.024686933 0.704 -0.020983893 1.2065616e-38 340 257
0.02592128 0.704 -0.020983893 1.1696832e-38 341 257
0.027155625 0.704 -0.020983893 1.2802146e-38 342 257
0.028470624 0.70599997 -0.021043506 1.5383624e-38 343 257
0.029708479 0.70599997 -0.021043506 1.5572742e-38 344 257
0.030946331 0.70599997 -0.021043506 1.6125916e-38 345 257
-0.044688959 0.708 -0.022344479 1.677273e-38 284 258
-0.043447599 0.708 -0.022344479 1.612736e-38 285 258
-0.042146627 0.70700002 -0.022312919 1.5024197e-38 286 258
-0.040849157 0.70599997 -0.022281358 1.4010043e-38 287 258
-0.039499093 0.704 -0.022218239 1.4469535e-38 288 258
-0.038210396 0.70300001 -0.02218668 1.4469535e-38 289 258
-0.036819998 0.69999999 -0.022091998 1.4378045e-38 290 258
-0.035592664 0.69999999 -0.022091998 1.4378045e-38 291 258
-0.034267146 0.69800001 -0.02202888 1.4194727e-38 292 258
-0.03299598 0.69700003 -0.02199732 1.4102532e-38 293 258
-0.03177391 0.69700003 -0.02199732 1.410181e-38 294 258
-0.030507999 0.69599998 -0.021965759 1.42862e-38 295 258
-0.029203519 0.69400001 -0.021902639 1.4102532e-38 296 258
-0.027946379 0.69300002 -0.021871079 1.4010336e-38 297 258
-0.026654173 0.69099998 -0.021807959 1.3735191e-38 298 258
-0.025442619 0.69099998 -0.021807959 1.3735191e-38 299 258
-0.024195999 0.69 -0.021776399 1.3734119e-38 300 258
-0.022919573 0.68800002 -0.021713281 1.3641924e-38 301 258
-0.021713281 0.68800002 -0.021713281 1.3641926e-38 302 258
-0.020506985 0.68800002 -0.021713281 1.3549729e-38 303 258
-0.019300694 0.68800002 -0.021713281 1.3549005e-38 304 258
-0.0180944 0.68800002 -0.021713281 1.3549005e-38 305 258
-0.016888106 0.68800002 -0.021713281 1.3640831e-38 306 258
-0.015681813 0.68800002 -0.021713281 1.3456441e-38 307 258
-0.014475521 0.68800002 -0.021713281 1.3272405e-38 308 258
-0.013269227 0.68800002 -0.021713281 1.317985e-38 309 258
-0.012045399 0.68699998 -0.021681719 1.327025e-38 310 258
-0.010840859 0.68699998 -0.021681719 1.3178055e-38 311 258
-0.0096363192 0.68699998 -0.021681719 1.3177699e-38 312 258
-0.0084317802 0.68699998 -0.021681719 1.3085503e-38 313 258
-0.0072272392 0.68699998 -0.021681719 1.2717076e-38 314 258
-0.0060226996 0.68699998 -0.021681719 1.2624881e-38 315 258
-0.0048181596 0.68699998 -0.021681719 1.2624162e-38 316 258
-0.0036136196 0.68699998 -0.021681719 1.2531966e-38 317 258
-0.0024125867 0.68800002 -0.021713281 1.2439415e-38 318 258
-0.0012062934 0.68800002 -0.021713281 1.2070991e-38 319 258
0 0.68800002 -0.021713281 1.2161389e-38 320 258
0.0012062934 0.68800002 -0.021713281 1.1884446e-38 321 258
0.0024125867 0.68800002 -0.021713281 1.2066323e-38 322 258
0.0036188802 0.68800002 -0.021713281 1.1974129e-38 323 258
0.0048391996 0.69 -0.021776399 1.1789382e-38 324 258
0.0060577663 0.69099998 -0.021807959 1.1789382e-38 325 258
0.0072693196 0.69099998 -0.021807959 1.1789382e-38 326 258
0.0085054198 0.69300002 -0.021871079 1.1789382e-38 327 258
0.0097204801 0.69300002 -0.021871079 1.1789741e-38 328 258
0.01095132 0.69400001 -0.021902639 1.1789741e-38 329 258
0.012168133 0.69400001 -0.021902639 1.1607146e-38 330 258
0.013384946 0.69400001 -0.021902639 1.1514952e-38 331 258
0.01460176 0.69400001 -0.021902639 1.1514234e-38 332 258
0.015818574 0.69400001 -0.021902639 1.1514234e-38 333 258
0.017109027 0.69700003 -0.02199732 1.1513875e-38 334 258
0.0183574 0.69800001 -0.02202888 1.160607e-38 335 258
0.019637333 0.69999999 -0.022091998 1.160607e-38 336 258
0.020894472 0.70099998 -0.022123558 1.1698264e-38 337 258
0.02218668 0.70300001 -0.02218668 1.1973773e-38 338 258
0.023452586 0.704 -0.022218239 1.2065969e-38 339 258
0.024686933 0.704 -0.022218239 1.2249284e-38 340 258
0.02592128 0.704 -0.022218239 1.1603917e-38 341 258
0.027155625 0.704 -0.022218239 1.2801423e-38 342 258
0.028470624 0.70599997 -0.022281358 1.5843879e-38 343 258
0.029708479 0.70599997 -0.022281358 1.5663859e-38 344 258
0.030946331 0.70599997 -0.022281358 1.5848609e-38 345 258
-0.044815198 0.70999998 -0.023652466 1.658906e-38 284 259
-0.043570329 0.70999998 -0.023652466 1.6035886e-38 285 259
-0.042206239 0.708 -0.023585839 1.5484457e-38 286 259
-0.040849157 0.70599997 -0.023519212 1.4101523e-38 287 259
-0.039499093 0.704 -0.023452586 1.4836877e-38 288 259
-0.038264744 0.704 -0.023452586 1.474468e-38 289 259
-0.036819998 0.69999999 -0.023319334 1.437804e-38 290 259
-0.035592664 0.69999999 -0.023319334 1.437804e-38 291 259
-0.034267146 0.69800001 -0.023252707 1.4102885e-38 292 259
-0.033043321 0.69800001 -0.023252707 1.4102885e-38 293 259
-0.03177391 0.69700003 -0.023219392 1.42862e-38 294 259
-0.030507999 0.69599998 -0.023186078 1.410181e-38 295 259
-0.029203519 0.69400001 -0.023119451 1.42862e-38 296 259
-0.027946379 0.69300002 -0.02308614 1.410181e-38 297 259
-0.02673132 0.69300002 -0.02308614 1.3917785e-38 298 259
-0.025442619 0.69099998 -0.023019511 1.3825589e-38 299 259
-0.024231065 0.69099998 -0.023019511 1.3641926e-38 300 259
-0.022986198 0.69 -0.022986198 1.3549729e-38 301 259
-0.021776399 0.69 -0.022986198 1.3549729e-38 302 259
-0.020566599 0.69 -0.022986198 1.3457175e-38 303 259
-0.019300694 0.68800002 -0.022919573 1.3456809e-38 304 259
-0.0180944 0.68800002 -0.022919573 1.3364614e-38 305 259
-0.016888106 0.68800002 -0.022919573 1.3364248e-38 306 259
-0.015681813 0.68800002 -0.022919573 1.3364248e-38 307 259
-0.014475521 0.68800002 -0.022919573 1.3179852e-38 308 259
-0.013269227 0.68800002 -0.022919573 1.3087657e-38 309 259
-0.012062933 0.68800002 -0.022919573 1.3270253e-38 310 259
-0.010840859 0.68699998 -0.022886258 1.3177699e-38 311 259
-0.0096363192 0.68699998 -0.022886258 1.3085503e-38 312 259
-0.0084317802 0.68699998 -0.022886258 1.2901472e-38 313 259
-0.0072272392 0.68699998 -0.022886258 1.2900742e-38 314 259
-0.0060226996 0.68699998 -0.022886258 1.2716711e-38 315 259
-0.0048181596 0.68699998 -0.022886258 1.2531964e-38 316 259
-0.0036136196 0.68699998 -0.022886258 1.2347571e-38 317 259
-0.0024125867 0.68800002 -0.022919573 1.2437615e-38 318 259
-0.0012062934 0.68800002 -0.022919573 1.2161389e-38 319 259
0 0.68800002 -0.022919573 1.2160311e-38 320 259
0.0012062934 0.68800002 -0.022919573 1.1791534e-38 321 259
0.0024125867 0.68800002 -0.022919573 1.1881935e-38 322 259
0.0036188802 0.68800002 -0.022919573 1.1881935e-38 323 259
0.0048391996 0.69 -0.022986198 1.1605711e-38 324 259
0.0060489997 0.69 -0.022986198 1.1513517e-38 325 259
0.0072693196 0.69099998 -0.023019511 1.1697188e-38 326 259
0.0085054198 0.69300002 -0.02308614 1.1697188e-38 327 259
0.0097204801 0.69300002 -0.02308614 1.1697188e-38 328 259
0.01095132 0.69400001 -0.023119451 1.1789382e-38 329 259
0.012168133 0.69400001 -0.023119451 1.1607146e-38 330 259
0.013423519 0.69599998 -0.023186078 1.1514952e-38 331 259
0.014643839 0.69599998 -0.023186078 1.1514234e-38 332 259
0.015864158 0.69599998 -0.023186078 1.1514234e-38 333 259
0.017109027 0.69700003 -0.023219392 1.1330204e-38 334 259
0.0183574 0.69800001 -0.023252707 1.1330204e-38 335 259
0.019637333 0.69999999 -0.023319334 1.1514234e-38 336 259
0.020894472 0.70099998 -0.023352645 1.1698984e-38 337 259
0.02218668 0.70300001 -0.023419274 1.1881943e-38 338 259
0.023452586 0.704 -0.023452586 1.1974139e-38 339 259
0.024686933 0.704 -0.023452586 1.2248931e-38 340 259
0.02592128 0.704 -0.023452586 1.1695757e-38 341 259
0.027155625 0.704 -0.023452586 1.3536114e-38 342 259
0.028470624 0.70599997 -0.023519212 1.6762961e-38 343 259
0.029708479 0.70599997 -0.023519212 1.5480549e-38 344 259
0.030946331 0.70599997 -0.023519212 1.5388353e-38 345 259
-0.044815198 0.70999998 -0.024897331 1.6496509e-38 284 260
-0.043570329 0.70999998 -0.024897331 1.5943335e-38 285 260
-0.042206239 0.708 -0.024827199 1.5668135e-38 286 260
-0.040907022 0.70700002 -0.024792133 1.410117e-38 287 260
-0.039611302 0.70599997 -0.024757065 1.465393e-38 288 260
-0.038264744 0.704 -0.024686933 1.4561735e-38 289 260
-0.036872596 0.70099998 -0.024581732 1.4194374e-38 290 260
-0.035592664 0.69999999 -0.024546666 1.4102179e-38 291 260
-0.034267146 0.69800001 -0.024476532 1.42862e-38 292 260
-0.033043321 0.69800001 -0.024476532 1.410181e-38 293 260
-0.03177391 0.69700003 -0.024441468 1.410181e-38 294 260
-0.030507999 0.69599998 -0.0244064 1.410181e-38 295 260
-0.029203519 0.69400001 -0.024336265 1.410181e-38 296 260
-0.027946379 0.69300002 -0.024301201 1.410181e-38 297 260
-0.02673132 0.69300002 -0.024301201 1.3918141e-38 298 260
-0.025442619 0.69099998 -0.024231065 1.3641554e-38 299 260
-0.024231065 0.69099998 -0.024231065 1.3549005e-38 300 260
-0.022986198 0.69 -0.024195999 1.3549005e-38 301 260
-0.021776399 0.69 -0.024195999 1.3457165e-38 302 260
-0.020566599 0.69 -0.024195999 1.3457165e-38 303 260
-0.019356798 0.69 -0.024195999 1.3639756e-38 304 260
-0.0180944 0.68800002 -0.024125867 1.354756e-38 305 260
-0.016888106 0.68800002 -0.024125867 1.3272049e-38 306 260
-0.015681813 0.68800002 -0.024125867 1.3087657e-38 307 260
-0.014475521 0.68800002 -0.024125867 1.3086582e-38 308 260
-0.013269227 0.68800002 -0.024125867 1.2994386e-38 309 260
-0.012062933 0.68800002 -0.024125867 1.3085506e-38 310 260
-0.010856641 0.68800002 -0.024125867 1.3085506e-38 311 260
-0.0096503468 0.68800002 -0.024125867 1.2809998e-38 312 260
-0.0084440531 0.68800002 -0.024125867 1.2809998e-38 313 260
-0.0072377604 0.68800002 -0.024125867 1.2717076e-38 314 260
-0.0060314666 0.68800002 -0.024125867 1.2624881e-38 315 260
-0.0048251734 0.68800002 -0.024125867 1.2532319e-38 316 260
-0.0036188802 0.68800002 -0.024125867 1.2347569e-38 317 260
-0.0024125867 0.68800002 -0.024125867 1.2254658e-38 318 260
-0.0012062934 0.68800002 -0.024125867 1.1977716e-38 319 260
0 0.68800002 -0.024125867 1.1976999e-38 320 260
0.0012062934 0.68800002 -0.024125867 1.1516028e-38 321 260
0.0024125867 0.68800002 -0.024125867 1.1789382e-38 322 260
0.0036188802 0.68800002 -0.024125867 1.1697188e-38 323 260
0.0048391996 0.69 -0.024195999 1.1604993e-38 324 260
0.0060489997 0.69 -0.024195999 1.1697188e-38 325 260
0.0072693196 0.69099998 -0.024231065 1.1697188e-38 326 260
0.0085054198 0.69300002 -0.024301201 1.1697188e-38 327 260
0.0097345067 0.69400001 -0.024336265 1.1513875e-38 328 260
0.01095132 0.69400001 -0.024336265 1.160607e-38 329 260
0.0122032 0.69599998 -0.0244064 1.1790099e-38 330 260
0.013423519 0.69599998 -0.0244064 1.1790099e-38 331 260
0.014643839 0.69599998 -0.0244064 1.1330922e-38 332 260
0.015864158 0.69599998 -0.0244064 1.1238369e-38 333 260
0.017133573 0.69800001 -0.024476532 1.1330204e-38 334 260
0.018409999 0.69999999 -0.024546666 1.1330204e-38 335 260
0.019637333 0.69999999 -0.024546666 1.1605711e-38 336 260
0.020894472 0.70099998 -0.024581732 1.1698265e-38 337 260
0.02218668 0.70300001 -0.024651866 1.197342e-38 338 260
0.023452586 0.704 -0.024686933 1.2065616e-38 339 260
0.024686933 0.704 -0.024686933 1.2615918e-38 340 260
0.02592128 0.704 -0.024686933 1.2339331e-38 341 260
0.027155625 0.704 -0.024686933 1.4092888e-38 342 260
0.028470624 0.70599997 -0.024757065 1.658181e-38 343 260
0.029708479 0.70599997 -0.024757065 1.5663496e-38 344 260
0.030946331 0.70599997 -0.024757065 1.5571299e-38 345 260
-0.044815198 0.70999998 -0.026142199 1.6496146e-38 284 261
-0.043570329 0.70999998 -0.026142199 1.6127363e-38 285 261
-0.042206239 0.708 -0.026068559 1.5852531e-38 286 261
-0.040907022 0.70700002 -0.02603174 1.4469595e-38 287 261
-0.039611302 0.70599997 -0.025994917 1.4746847e-38 288 261
-0.038264744 0.704 -0.02592128 1.4469902e-38 289 261
-0.036872596 0.70099998 -0.025810819 1.4378043e-38 290 261
-0.035592664 0.69999999 -0.025773998 1.4285847e-38 291 261
-0.034365334 0.69999999 -0.025773998 1.4285125e-38 292 261
-0.033043321 0.69800001 -0.025700359 1.4285125e-38 293 261
-0.03177391 0.69700003 -0.025663542 1.410181e-38 294 261
-0.030507999 0.69599998 -0.025626717 1.410181e-38 295 261
-0.029203519 0.69400001 -0.025553079 1.410181e-38 296 261
-0.027986705 0.69400001 -0.025553079 1.4009615e-38 297 261
-0.02673132 0.69300002 -0.02551626 1.3917422e-38 298 261
-0.025442619 0.69099998 -0.025442619 1.3825225e-38 299 261
-0.024231065 0.69099998 -0.025442619 1.3641554e-38 300 261
-0.023019511 0.69099998 -0.025442619 1.3549358e-38 301 261
-0.021807959 0.69099998 -0.025442619 1.3640477e-38 302 261
-0.020596405 0.69099998 -0.025442619 1.3456446e-38 303 261
-0.019356798 0.69 -0.025405798 1.3271696e-38 304 261
-0.018146999 0.69 -0.025405798 1.3271696e-38 305 261
-0.0169372 0.69 -0.025405798 1.3179852e-38 306 261
-0.015681813 0.68800002 -0.02533216 1.3087657e-38 307 261
-0.014475521 0.68800002 -0.02533216 1.3270253e-38 308 261
-0.013269227 0.68800002 -0.02533216 1.3177699e-38 309 261
-0.012062933 0.68800002 -0.02533216 1.2902194e-38 310 261
-0.010856641 0.68800002 -0.02533216 1.2809998e-38 311 261
-0.0096503468 0.68800002 -0.02533216 1.2809995e-38 312 261
-0.0084440531 0.68800002 -0.02533216 1.2533767e-38 313 261
-0.0072377604 0.68800002 -0.02533216 1.2717432e-38 314 261
-0.0060314666 0.68800002 -0.02533216 1.2532682e-38 315 261
-0.0048251734 0.68800002 -0.02533216 1.262308e-38 316 261
-0.0036188802 0.68800002 -0.02533216 1.2346852e-38 317 261
-0.0024125867 0.68800002 -0.02533216 1.2437253e-38 318 261
-0.0012062934 0.68800002 -0.02533216 1.216067e-38 319 261
0 0.68800002 -0.02533216 1.1884087e-38 320 261
0.0012062934 0.68800002 -0.02533216 1.169934e-38 321 261
0.0024125867 0.68800002 -0.02533216 1.1881935e-38 322 261
0.0036188802 0.68800002 -0.02533216 1.1789741e-38 323 261
0.0048391996 0.69 -0.025405798 1.1788664e-38 324 261
0.0060577663 0.69099998 -0.025442619 1.1788664e-38 325 261
0.0072903596 0.69300002 -0.02551626 1.1697188e-38 326 261
0.0085054198 0.69300002 -0.02551626 1.1697188e-38 327 261
0.0097345067 0.69400001 -0.025553079 1.1697188e-38 328 261
0.01095132 0.69400001 -0.025553079 1.1789382e-38 329 261
0.0122032 0.69599998 -0.025626717 1.1789741e-38 330 261
0.013442807 0.69700003 -0.025663542 1.1697546e-38 331 261
0.01466488 0.69700003 -0.025663542 1.1697546e-38 332 261
0.015886955 0.69700003 -0.025663542 1.1697546e-38 333 261
0.017133573 0.69800001 -0.025700359 1.1604993e-38 334 261
0.018409999 0.69999999 -0.025773998 1.1697188e-38 335 261
0.019665385 0.70099998 -0.025810819 1.1605716e-38 336 261
0.020954086 0.70300001 -0.025884461 1.1697912e-38 337 261
0.022218239 0.704 -0.02592128 1.1881593e-38 338 261
0.023452586 0.704 -0.02592128 1.2065984e-38 339 261
0.024686933 0.704 -0.02592128 1.2431895e-38 340 261
0.025994917 0.70599997 -0.025994917 1.3261656e-38 341 261
0.027232772 0.70599997 -0.025994917 1.4830819e-38 342 261
0.028470624 0.70599997 -0.025994917 1.64907e-38 343 261
0.029708479 0.70599997 -0.025994917 1.566314e-38 344 261
0.030946331 0.70599997 -0.025994917 1.5570943e-38 345 261
-0.043570329 0.70999998 -0.027387066 1.6220282e-38 285 262
-0.042206239 0.708 -0.027309919 1.5853252e-38 286 262
-0.040964879 0.708 -0.027309919 1.4378124e-38 287 262
-0.039667413 0.70700002 -0.027271347 1.4747216e-38 288 262
-0.038373452 0.70599997 -0.027232772 1.4470631e-38 289 262
-0.037030395 0.704 -0.027155625 1.4470611e-38 290 262
-0.035643511 0.70099998 -0.027039904 1.428622e-38 291 262
-0.034365334 0.69999999 -0.027001332 1.4285847e-38 292 262
-0.033043321 0.69800001 -0.026924185 1.4101816e-38 293 262
-0.03177391 0.69700003 -0.026885614 1.4192927e-38 294 262
-0.030507999 0.69599998 -0.026847038 1.4285481e-38 295 262
-0.029203519 0.69400001 -0.026769891 1.419293e-38 296 262
-0.027986705 0.69400001 -0.026769891 1.419293e-38 297 262
-0.02673132 0.69300002 -0.02673132 1.3917422e-38 298 262
-0.02551626 0.69300002 -0.02673132 1.3825225e-38 299 262
-0.024231065 0.69099998 -0.026654173 1.3549358e-38 300 262
-0.023019511 0.69099998 -0.026654173 1.3549358e-38 301 262
-0.021807959 0.69099998 -0.026654173 1.3456441e-38 302 262
-0.020596405 0.69099998 -0.026654173 1.3364245e-38 303 262
-0.019384852 0.69099998 -0.026654173 1.3455362e-38 304 262
-0.018146999 0.69 -0.026615599 1.3363165e-38 305 262
-0.0169372 0.69 -0.026615599 1.3363165e-38 306 262
-0.015681813 0.68800002 -0.026538454 1.3179134e-38 307 262
-0.014475521 0.68800002 -0.026538454 1.327025e-38 308 262
-0.013269227 0.68800002 -0.026538454 1.3178055e-38 309 262
-0.012062933 0.68800002 -0.026538454 1.2902191e-38 310 262
-0.010856641 0.68800002 -0.026538454 1.2902191e-38 311 262
-0.0096503468 0.68800002 -0.026538454 1.2809278e-38 312 262
-0.0084440531 0.68800002 -0.026538454 1.2716723e-38 313 262
-0.0072377604 0.68800002 -0.026538454 1.2807477e-38 314 262
-0.0060314666 0.68800002 -0.026538454 1.2623086e-38 315 262
-0.0048251734 0.68800002 -0.026538454 1.2622363e-38 316 262
-0.0036188802 0.68800002 -0.026538454 1.2437971e-38 317 262
-0.0024125867 0.68800002 -0.026538454 1.2161387e-38 318 262
-0.0012062934 0.68800002 -0.026538454 1.1884805e-38 319 262
0 0.68800002 -0.026538454 1.1884087e-38 320 262
0.0012097999 0.69 -0.026615599 1.1791893e-38 321 262
0.0024195998 0.69 -0.026615599 1.1882652e-38 322 262
0.0036293997 0.69 -0.026615599 1.1698623e-38 323 262
0.0048391996 0.69 -0.026615599 1.1697188e-38 324 262
0.0060577663 0.69099998 -0.026654173 1.1697188e-38 325 262
0.0072903596 0.69300002 -0.02673132 1.1696829e-38 326 262
0.0085176928 0.69400001 -0.026769891 1.1696829e-38 327 262
0.0097345067 0.69400001 -0.026769891 1.1696829e-38 328 262
0.010982879 0.69599998 -0.026847038 1.1696829e-38 329 262
0.0122032 0.69599998 -0.026847038 1.1881217e-38 330 262
0.013442807 0.69700003 -0.026885614 1.1788664e-38 331 262
0.01466488 0.69700003 -0.026885614 1.1697546e-38 332 262
0.015886955 0.69700003 -0.026885614 1.1604993e-38 333 262
0.017133573 0.69800001 -0.026924185 1.1604993e-38 334 262
0.018409999 0.69999999 -0.027001332 1.1697188e-38 335 262
0.019665385 0.70099998 -0.027039904 1.1788673e-38 336 262
0.020954086 0.70300001 -0.027117053 1.1973423e-38 337 262
0.022218239 0.704 -0.027155625 1.1973438e-38 338 262
0.023452586 0.704 -0.027155625 1.2065634e-38 339 262
0.024757065 0.70599997 -0.027232772 1.270778e-38 340 262
0.025994917 0.70599997 -0.027232772 1.4183269e-38 341 262
0.027155625 0.704 -0.027155625 1.5015227e-38 342 262
0.028389972 0.704 -0.027155625 1.6398161e-38 343 262
0.029708479 0.70599997 -0.027232772 1.5570943e-38 344 262
0.030946331 0.70599997 -0.027232772 1.5478747e-38 345 262
-0.043447599 0.708 -0.02855128 1.6495793e-38 285 263
-0.042206239 0.708 -0.02855128 1.6404278e-38 286 263
-0.040964879 0.708 -0.02855128 1.4836952e-38 287 263
-0.039667413 0.70700002 -0.028510952 1.4746141e-38 288 263
-0.038373452 0.70599997 -0.028470624 1.4469554e-38 289 263
-0.037030395 0.704 -0.028389972 1.4469891e-38 290 263
-0.035745207 0.70300001 -0.028349647 1.4377336e-38 291 263
-0.034414422 0.70099998 -0.028268991 1.4378045e-38 292 263
-0.033043321 0.69800001 -0.028148014 1.410146e-38 293 263
-0.03177391 0.69700003 -0.028107686 1.4285125e-38 294 263
-0.030507999 0.69599998 -0.028067358 1.419293e-38 295 263
-0.029203519 0.69400001 -0.027986705 1.4101816e-38 296 263
-0.027986705 0.69400001 -0.027986705 1.3917066e-38 297 263
-0.02673132 0.69300002 -0.027946379 1.3825589e-38 298 263
-0.02551626 0.69300002 -0.027946379 1.3641556e-38 299 263
-0.024231065 0.69099998 -0.027865725 1.373267e-38 300 263
-0.023019511 0.69099998 -0.027865725 1.3640475e-38 301 263
-0.021807959 0.69099998 -0.027865725 1.3640112e-38 302 263
-0.020656019 0.69300002 -0.027946379 1.3547557e-38 303 263
-0.019384852 0.69099998 -0.027865725 1.3455362e-38 304 263
-0.018146999 0.69 -0.027825398 1.3363165e-38 305 263
-0.0169372 0.69 -0.027825398 1.3454647e-38 306 263
-0.015681813 0.68800002 -0.027744746 1.3269897e-38 307 263
-0.014475521 0.68800002 -0.027744746 1.336173e-38 308 263
-0.013269227 0.68800002 -0.027744746 1.3269534e-38 309 263
-0.012062933 0.68800002 -0.027744746 1.3085503e-38 310 263
-0.010856641 0.68800002 -0.027744746 1.2901472e-38 311 263
-0.0096503468 0.68800002 -0.027744746 1.2991871e-38 312 263
-0.0084440531 0.68800002 -0.027744746 1.2899675e-38 313 263
-0.0072377604 0.68800002 -0.027744746 1.2806758e-38 314 263
-0.0060314666 0.68800002 -0.027744746 1.2622365e-38 315 263
-0.0048391996 0.69 -0.027825398 1.2529811e-38 316 263
-0.0036293997 0.69 -0.027825398 1.234542e-38 317 263
-0.0024125867 0.68800002 -0.027744746 1.2344701e-38 318 263
-0.0012062934 0.68800002 -0.027744746 1.1976281e-38 319 263
0 0.69 -0.027825398 1.2159594e-38 320 263
0.0012097999 0.69 -0.027825398 1.1975205e-38 321 263
0.0024195998 0.69 -0.027825398 1.1974129e-38 322 263
0.0036293997 0.69 -0.027825398 1.1881935e-38 323 263
0.0048462129 0.69099998 -0.027865725 1.1881217e-38 324 263
0.0060753003 0.69300002 -0.027946379 1.1788664e-38 325 263
0.0072903596 0.69300002 -0.027946379 1.1696829e-38 326 263
0.0085176928 0.69400001 -0.027986705 1.1696829e-38 327 263
