# .PCD v.7 - Point Cloud Data file format
FIELDS x y z rgb imX imY
SIZE 4 4 4 4 4 4
TYPE F F F F F F
COUNT 1 1 1 1 1 1
WIDTH 871
HEIGHT 1
VIEWPOINT 0 0 0 1 0 0 0
POINTS 871
DATA ascii
0.036073081 0.76200002 0.02404872 1.0200556e-38 347 222
0.037409119 0.76200002 0.02404872 8.9148675e-39 348 222
0.038745161 0.76200002 0.02404872 8.5460863e-39 349 222
0.040081199 0.76200002 0.02404872 8.4539061e-39 350 222
0.041525945 0.764 0.024111839 8.6386561e-39 351 222
0.042977702 0.76599997 0.024174958 9.1918243e-39 352 222
0.044320758 0.76599997 0.024174958 9.4687713e-39 353 222
0.045723427 0.76700002 0.024206521 9.3762057e-39 354 222
0.047006864 0.76599997 0.024174958 7.6241398e-39 355 222
0.048349917 0.76599997 0.024174958 8.7470409e-39 356 222
-0.022921326 0.76899999 0.022921326 1.6131717e-38 303 223
-0.021573013 0.76899999 0.022921326 1.1798537e-38 304 223
-0.020172099 0.76700002 0.022861714 8.8486351e-39 305 223
-0.018827293 0.76700002 0.022861714 5.7928754e-39 306 223
-0.017459691 0.76599997 0.022831906 4.8709191e-39 307 223
-0.016074561 0.764 0.022772292 8.5504626e-39 308 223
-0.01469644 0.76200002 0.02271268 9.2880276e-39 309 223
-0.0133604 0.76200002 0.02271268 1.1675368e-38 310 223
-0.012008579 0.76099998 0.022682872 1.2597324e-38 311 223
-0.01064624 0.759 0.02262326 1.3888377e-38 312 223
-0.00931546 0.759 0.02262326 1.3519596e-38 313 223
-0.0079846792 0.759 0.02262326 1.3701812e-38 314 223
-0.0066363667 0.75700003 0.022563647 1.3609617e-38 315 223
-0.0053090933 0.75700003 0.022563647 1.4436513e-38 316 223
-0.0039818203 0.75700003 0.022563647 1.4528709e-38 317 223
-0.0026475333 0.755 0.022504034 1.3972318e-38 318 223
-0.0013237667 0.755 0.022504034 1.3142197e-38 319 223
0 0.755 0.022504034 1.1577036e-38 320 223
0.0013272733 0.75700003 0.022563647 1.1393004e-38 321 223
0.0026545466 0.75700003 0.022563647 1.0843067e-38 322 223
0.0039818203 0.75700003 0.022563647 1.0843067e-38 323 223
0.0053371461 0.76099998 0.022682872 1.0109104e-38 324 223
0.0066714329 0.76099998 0.022682872 1.0109104e-38 325 223
0.0080057196 0.76099998 0.022682872 9.283301e-39 326 223
0.0093400059 0.76099998 0.022682872 9.283301e-39 327 223
0.010674292 0.76099998 0.022682872 8.644393e-39 328 223
0.01202436 0.76200002 0.02271268 9.0135343e-39 329 223
0.0133604 0.76200002 0.02271268 8.3757025e-39 330 223
0.014735013 0.764 0.022772292 8.3757025e-39 331 223
0.01613768 0.76700002 0.022861714 8.1016323e-39 332 223
0.017528072 0.76899999 0.022921326 8.286025e-39 333 223
0.018876385 0.76899999 0.022921326 8.1048763e-39 334 223
0.0202247 0.76899999 0.022921326 8.1048763e-39 335 223
0.021573013 0.76899999 0.022921326 8.8370491e-39 336 223
0.022861714 0.76700002 0.022861714 8.6526593e-39 337 223
0.024206521 0.76700002 0.022861714 9.662491e-39 338 223
0.025518013 0.76599997 0.022831906 9.939438e-39 339 223
0.026790932 0.764 0.022772292 1.1041097e-38 340 223
0.028130481 0.764 0.022772292 1.0580119e-38 341 223
0.029392879 0.76200002 0.02271268 1.1400894e-38 342 223
0.030728921 0.76200002 0.02271268 1.0663329e-38 343 223
0.032064959 0.76200002 0.02271268 1.1395146e-38 344 223
0.033401001 0.76200002 0.02271268 1.1671733e-38 345 223
0.034737039 0.76200002 0.02271268 1.093884e-38 346 223
0.036073081 0.76200002 0.02271268 1.0385666e-38 347 223
0.037409119 0.76200002 0.02271268 9.2822094e-39 348 223
0.038745161 0.76200002 0.02271268 9.0052624e-39 349 223
0.040081199 0.76200002 0.02271268 8.6379344e-39 350 223
0.041417241 0.76200002 0.02271268 8.7301301e-39 351 223
0.042865492 0.764 0.022772292 9.2843758e-39 352 223
0.04420504 0.764 0.022772292 9.7449953e-39 353 223
0.045723427 0.76700002 0.022861714 9.5598711e-39 354 223
0.047006864 0.76599997 0.022831906 7.5315869e-39 355 223
0.048349917 0.76599997 0.022831906 8.3768165e-39 356 223
0.04969297 0.76599997 0.022831906 1.4738315e-38 357 223
-0.022921326 0.76899999 0.021573013 1.4933174e-38 303 224
-0.021573013 0.76899999 0.021573013 1.0875857e-38 304 224
-0.020172099 0.76700002 0.021516906 8.0181527e-39 305 224
-0.018802745 0.76599997 0.021488851 5.7899845e-39 306 224
-0.017414106 0.764 0.021432746 5.0524194e-39 307 224
-0.016074561 0.764 0.021432746 8.3621085e-39 308 224
-0.01469644 0.76200002 0.02137664 9.2840648e-39 309 224
-0.0133604 0.76200002 0.02137664 1.1214039e-38 310 224
-0.012008579 0.76099998 0.021348584 1.2320387e-38 311 224
-0.01064624 0.759 0.02129248 1.3702558e-38 312 224
-0.0092909131 0.75700003 0.021236373 1.3518167e-38 313 224
-0.0079636406 0.75700003 0.021236373 1.3976254e-38 314 224
-0.0066363667 0.75700003 0.021236373 1.3791863e-38 315 224
-0.0052950666 0.755 0.021180267 1.4068098e-38 316 224
-0.0039712996 0.755 0.021180267 1.3975901e-38 317 224
-0.0026475333 0.755 0.021180267 1.3510614e-38 318 224
-0.0013237667 0.755 0.021180267 1.231207e-38 319 224
0 0.755 0.021180267 1.1393001e-38 320 224
0.0013237667 0.755 0.021180267 1.1300805e-38 321 224
0.0026475333 0.755 0.021180267 1.0842351e-38 322 224
0.0039818203 0.75700003 0.021236373 1.0842351e-38 323 224
0.0053231199 0.759 0.02129248 1.0199865e-38 324 224
0.0066714329 0.76099998 0.021348584 1.0292061e-38 325 224
0.0080057196 0.76099998 0.021348584 9.2833038e-39 326 224
0.0093400059 0.76099998 0.021348584 9.3754995e-39 327 224
0.010674292 0.76099998 0.021348584 8.2781314e-39 328 224
0.012008579 0.76099998 0.021348584 8.7391082e-39 329 224
0.0133604 0.76200002 0.02137664 7.8250468e-39 330 224
0.014773586 0.76599997 0.021488851 7.8250468e-39 331 224
0.01613768 0.76700002 0.021516906 7.6413744e-39 332 224
0.017528072 0.76899999 0.021573013 7.6413744e-39 333 224
0.018876385 0.76899999 0.021573013 7.3669581e-39 334 224
0.0202247 0.76899999 0.021573013 7.3669581e-39 335 224
0.021573013 0.76899999 0.021573013 8.1005631e-39 336 224
0.022861714 0.76700002 0.021516906 8.1927587e-39 337 224
0.024206521 0.76700002 0.021516906 9.0196397e-39 338 224
0.025518013 0.76599997 0.021488851 9.388781e-39 339 224
0.026790932 0.764 0.021432746 1.0581203e-38 340 224
0.028056841 0.76200002 0.02137664 1.0212781e-38 341 224
0.029392879 0.76200002 0.02137664 1.1308345e-38 342 224
0.030728921 0.76200002 0.02137664 1.057078e-38 343 224
0.032064959 0.76200002 0.02137664 1.1394793e-38 344 224
0.033401001 0.76200002 0.02137664 1.1763934e-38 345 224
0.034737039 0.76200002 0.02137664 1.1123235e-38 346 224
0.036073081 0.76200002 0.02137664 1.0477866e-38 347 224
0.037409119 0.76200002 0.02137664 9.5570013e-39 348 224
0.038745161 0.76200002 0.02137664 9.2800542e-39 349 224
0.040081199 0.76200002 0.02137664 9.0971133e-39 350 224
0.041417241 0.76200002 0.02137664 9.281506e-39 351 224
0.042865492 0.764 0.021432746 9.3758498e-39 352 224
0.04420504 0.764 0.021432746 9.9290236e-39 353 224
0.045663811 0.76599997 0.021488851 9.8346601e-39 354 224
0.047006864 0.76599997 0.021488851 7.4386752e-39 355 224
0.048349917 0.76599997 0.021488851 8.0062389e-39 356 224
0.04969297 0.76599997 0.021488851 1.4459933e-38 357 224
-0.024269639 0.76899999 0.0202247 1.6408307e-38 302 225
-0.022921326 0.76899999 0.0202247 1.3642079e-38 303 225
-0.021516906 0.76700002 0.020172099 9.4018061e-39 304 225
-0.020145798 0.76599997 0.020145798 6.6359372e-39 305 225
-0.018802745 0.76599997 0.020145798 5.6963483e-39 306 225
-0.017414106 0.764 0.020093199 5.6041513e-39 307 225
-0.01603248 0.76200002 0.0200406 9.0038611e-39 308 225
-0.01469644 0.76200002 0.0200406 9.7414262e-39 309 225
-0.013342866 0.76099998 0.020014299 1.1304419e-38 310 225
-0.012008579 0.76099998 0.020014299 1.2410765e-38 311 225
-0.01064624 0.759 0.0199617 1.305647e-38 312 225
-0.0092909131 0.75700003 0.019909101 1.2964274e-38 313 225
-0.0079636406 0.75700003 0.019909101 1.4066654e-38 314 225
-0.0066363667 0.75700003 0.019909101 1.3790069e-38 315 225
-0.0052950666 0.755 0.0198565 1.4065936e-38 316 225
-0.0039712996 0.755 0.0198565 1.4065936e-38 317 225
-0.0026475333 0.755 0.0198565 1.3328015e-38 318 225
-0.0013237667 0.755 0.0198565 1.2129471e-38 319 225
0 0.755 0.0198565 1.1670664e-38 320 225
0.0013237667 0.755 0.0198565 1.1025294e-38 321 225
0.0026475333 0.755 0.0198565 1.1026386e-38 322 225
0.0039712996 0.755 0.0198565 1.1026386e-38 323 225
0.0053090933 0.75700003 0.019909101 1.0108749e-38 324 225
0.0066538998 0.759 0.0199617 1.0292781e-38 325 225
0.0080057196 0.76099998 0.020014299 9.0092337e-39 326 225
0.0093400059 0.76099998 0.020014299 9.0092337e-39 327 225
0.010674292 0.76099998 0.020014299 8.0033424e-39 328 225
0.012008579 0.76099998 0.020014299 8.1877337e-39 329 225
0.0133604 0.76200002 0.0200406 7.6385032e-39 330 225
0.014735013 0.764 0.020093199 7.5463075e-39 331 225
0.016179759 0.76899999 0.0202247 7.2700808e-39 332 225
0.01757366 0.77100003 0.020277301 7.2700808e-39 333 225
0.018925481 0.77100003 0.020277301 7.1796802e-39 334 225
0.0202247 0.76899999 0.0202247 7.3637113e-39 335 225
0.021573013 0.76899999 0.0202247 8.0069157e-39 336 225
0.022861714 0.76700002 0.020172099 8.283504e-39 337 225
0.024206521 0.76700002 0.020172099 8.927077e-39 338 225
0.025451386 0.764 0.020093199 9.2036653e-39 339 225
0.026790932 0.764 0.020093199 1.0488292e-38 340 225
0.028056841 0.76200002 0.0200406 1.0488292e-38 341 225
0.029392879 0.76200002 0.0200406 1.1216513e-38 342 225
0.030728921 0.76200002 0.0200406 1.0294917e-38 343 225
0.032064959 0.76200002 0.0200406 1.1394074e-38 344 225
0.033401001 0.76200002 0.0200406 1.2039444e-38 345 225
0.034737039 0.76200002 0.0200406 1.1399465e-38 346 225
0.036073081 0.76200002 0.0200406 1.0846291e-38 347 225
0.037409119 0.76200002 0.0200406 1.029025e-38 348 225
0.038745161 0.76200002 0.0200406 1.0105499e-38 349 225
0.040081199 0.76200002 0.0200406 9.2818591e-39 350 225
0.041417241 0.76200002 0.0200406 9.4662504e-39 351 225
0.042865492 0.764 0.020093199 9.7439135e-39 352 225
0.044320758 0.76599997 0.020145798 1.0112336e-38 353 225
0.045663811 0.76599997 0.020145798 9.6517164e-39 354 225
0.047006864 0.76599997 0.020145798 7.4386752e-39 355 225
0.048349917 0.76599997 0.020145798 7.5445475e-39 356 225
0.04969297 0.76599997 0.020145798 1.381421e-38 357 225
-0.024269639 0.76899999 0.018876385 1.6039168e-38 302 226
-0.022921326 0.76899999 0.018876385 1.2627931e-38 303 226
-0.021516906 0.76700002 0.018827293 8.8450323e-39 304 226
-0.020145798 0.76599997 0.018802745 5.8951323e-39 305 226
-0.018802745 0.76599997 0.018802745 5.9722093e-39 306 226
-0.017414106 0.764 0.018753653 5.7878167e-39 307 226
-0.01603248 0.76200002 0.01870456 8.7279973e-39 308 226
-0.01469644 0.76200002 0.01870456 9.4655623e-39 309 226
-0.013342866 0.76099998 0.018680012 1.102928e-38 310 226
-0.01197702 0.759 0.01863092 1.1674649e-38 311 226
-0.01064624 0.759 0.01863092 1.2595137e-38 312 226
-0.0092909131 0.75700003 0.018581826 1.2871725e-38 313 226
-0.0079636406 0.75700003 0.018581826 1.3788988e-38 314 226
-0.0066188332 0.755 0.018532733 1.3788988e-38 315 226
-0.0052950666 0.755 0.018532733 1.4067005e-38 316 226
-0.0039712996 0.755 0.018532733 1.4343593e-38 317 226
-0.0026475333 0.755 0.018532733 1.3697496e-38 318 226
-0.0013237667 0.755 0.018532733 1.2498955e-38 319 226
0 0.755 0.018532733 1.2035123e-38 320 226
0.0013237667 0.755 0.018532733 1.1942928e-38 321 226
0.0026475333 0.755 0.018532733 1.1118215e-38 322 226
0.0039712996 0.755 0.018532733 1.1210412e-38 323 226
0.0053090933 0.75700003 0.018581826 1.0384965e-38 324 226
0.0066363667 0.75700003 0.018581826 1.029277e-38 325 226
0.0079846792 0.759 0.01863092 9.2836542e-39 326 226
0.00931546 0.759 0.01863092 9.5602397e-39 327 226
0.01064624 0.759 0.01863092 7.9107937e-39 328 226
0.01197702 0.759 0.01863092 7.7267611e-39 329 226
0.013342866 0.76099998 0.018680012 6.53362e-39 330 226
0.01469644 0.76200002 0.01870456 6.3492287e-39 331 226
0.01613768 0.76700002 0.018827293 5.9811692e-39 332 226
0.01757366 0.77100003 0.018925481 5.9811692e-39 333 226
0.018925481 0.77100003 0.018925481 6.1659136e-39 334 226
0.020277301 0.77100003 0.018925481 6.3506636e-39 335 226
0.021573013 0.76899999 0.018876385 6.9953044e-39 336 226
0.022921326 0.76899999 0.018876385 7.4566426e-39 337 226
0.024206521 0.76700002 0.018827293 8.2835222e-39 338 226
0.025451386 0.764 0.018753653 8.4679135e-39 339 226
0.0267208 0.76200002 0.01870456 9.7525384e-39 340 226
0.028056841 0.76200002 0.01870456 9.4763103e-39 341 226
0.029392879 0.76200002 0.01870456 1.0571875e-38 342 226
0.030728921 0.76200002 0.01870456 1.0202734e-38 343 226
0.032064959 0.76200002 0.01870456 1.0845941e-38 344 226
0.033401001 0.76200002 0.01870456 1.1399115e-38 345 226
0.034737039 0.76200002 0.01870456 1.0938499e-38 346 226
0.036073081 0.76200002 0.01870456 1.0477881e-38 347 226
0.037409119 0.76200002 0.01870456 9.8303596e-39 348 226
0.038694311 0.76099998 0.018680012 9.8303596e-39 349 226
0.040028598 0.76099998 0.018680012 9.6488438e-39 350 226
0.041417241 0.76200002 0.01870456 1.0017625e-38 351 226
0.042753279 0.76200002 0.01870456 1.0111973e-38 352 226
0.044089317 0.76200002 0.01870456 1.0480395e-38 353 226
0.045544583 0.764 0.018753653 1.0292417e-38 354 226
0.046884131 0.764 0.018753653 7.6223462e-39 355 226
0.048223678 0.764 0.018753653 6.9910234e-39 356 226
0.049563225 0.764 0.018753653 1.3168491e-38 357 226
-0.025751207 0.773 0.017619247 1.7790157e-38 301 227
-0.024269639 0.76899999 0.017528072 1.5485995e-38 302 227
-0.022921326 0.76899999 0.017528072 1.1521582e-38 303 227
-0.021516906 0.76700002 0.017482487 8.1971462e-39 304 227
-0.020172099 0.76700002 0.017482487 5.6156686e-39 305 227
-0.018802745 0.76599997 0.017459691 6.5232181e-39 306 227
-0.017414106 0.764 0.017414106 6.4306638e-39 307 227
-0.01603248 0.76200002 0.01736852 9.0938931e-39 308 227
-0.014677152 0.76099998 0.017345725 9.7392625e-39 309 227
-0.013342866 0.76099998 0.017345725 1.121078e-38 310 227
-0.01197702 0.759 0.017300138 1.1856149e-38 311 227
-0.01064624 0.759 0.017300138 1.3050717e-38 312 227
-0.0092909131 0.75700003 0.017254554 1.3143273e-38 313 227
-0.0079636406 0.75700003 0.017254554 1.3695002e-38 314 227
-0.0066188332 0.755 0.017208965 1.3879033e-38 315 227
-0.0052950666 0.755 0.017208965 1.4066652e-38 316 227
-0.0039712996 0.755 0.017208965 1.4712021e-38 317 227
-0.0026475333 0.755 0.017208965 1.4342515e-38 318 227
-0.0013220133 0.75400001 0.017186172 1.342056e-38 319 227
0 0.75400001 0.017186172 1.2493218e-38 320 227
0.0013237667 0.755 0.017208965 1.2585413e-38 321 227
0.0026475333 0.755 0.017208965 1.1211128e-38 322 227
0.0039712996 0.755 0.017208965 1.1211128e-38 323 227
0.0052950666 0.755 0.017208965 1.0202018e-38 324 227
0.0066188332 0.755 0.017208965 1.0109821e-38 325 227
0.0079636406 0.75700003 0.017254554 9.1921774e-39 326 227
0.0092909131 0.75700003 0.017254554 9.3765687e-39 327 227
0.010618187 0.75700003 0.017254554 7.4519693e-39 328 227
0.01194546 0.75700003 0.017254554 7.267578e-39 329 227
0.0133078 0.759 0.017300138 6.2563142e-39 330 227
0.01469644 0.76200002 0.01736852 5.7031404e-39 331 227
0.01613768 0.76700002 0.017482487 5.8839401e-39 332 227
0.017528072 0.76899999 0.017528072 6.0683314e-39 333 227
0.018876385 0.76899999 0.017528072 6.4374614e-39 334 227
0.0202247 0.76899999 0.017528072 7.0828309e-39 335 227
0.021573013 0.76899999 0.017528072 7.3601212e-39 336 227
0.022921326 0.76899999 0.017528072 7.8210993e-39 337 227
0.024111839 0.764 0.017414106 8.5557777e-39 338 227
0.02538476 0.76200002 0.01736852 8.7398088e-39 339 227
0.0267208 0.76200002 0.01736852 9.7471364e-39 340 227
0.028020019 0.76099998 0.017345725 9.4701908e-39 341 227
0.029354304 0.76099998 0.017345725 1.0383533e-38 342 227
0.030688593 0.76099998 0.017345725 1.0199502e-38 343 227
0.032022879 0.76099998 0.017345725 1.0660475e-38 344 227
0.033357166 0.76099998 0.017345725 1.1213647e-38 345 227
0.034691449 0.76099998 0.017345725 9.8328749e-39 346 227
0.036025736 0.76099998 0.017345725 9.4644525e-39 347 227
0.037360024 0.76099998 0.017345725 9.2793536e-39 348 227
0.038694311 0.76099998 0.017345725 9.3715492e-39 349 227
0.040028598 0.76099998 0.017345725 9.8328777e-39 350 227
0.041362885 0.76099998 0.017345725 1.0109825e-38 351 227
0.042753279 0.76200002 0.01736852 1.0204169e-38 352 227
0.044089317 0.76200002 0.01736852 1.0480395e-38 353 227
0.045425359 0.76200002 0.01736852 1.0109116e-38 354 227
0.046761397 0.76200002 0.01736852 6.7039912e-39 355 227
0.048097439 0.76200002 0.01736852 6.1601935e-39 356 227
0.049433477 0.76200002 0.01736852 1.2337301e-38 357 227
-0.025751207 0.773 0.016263919 1.7513933e-38 301 228
-0.024269639 0.76899999 0.016179759 1.5208331e-38 302 228
-0.022921326 0.76899999 0.016179759 1.0322323e-38 303 228
-0.021516906 0.76700002 0.01613768 7.7347247e-39 304 228
-0.020172099 0.76700002 0.01613768 5.4301941e-39 305 228
-0.018802745 0.76599997 0.016116638 7.0738682e-39 306 228
-0.017414106 0.764 0.016074561 7.5348463e-39 307 228
-0.01603248 0.76200002 0.01603248 9.0016947e-39 308 228
-0.014677152 0.76099998 0.016011439 9.8314554e-39 309 228
-0.013342866 0.76099998 0.016011439 1.1027478e-38 310 228
-0.01197702 0.759 0.015969358 1.1304425e-38 311 228
-0.010618187 0.75700003 0.015927281 1.2774859e-38 312 228
-0.0092663663 0.755 0.015885198 1.2959252e-38 313 228
-0.0079425992 0.755 0.015885198 1.3692854e-38 314 228
-0.0066188332 0.755 0.015885198 1.3785049e-38 315 228
-0.0052950666 0.755 0.015885198 1.4156333e-38 316 228
-0.0039712996 0.755 0.015885198 1.4524756e-38 317 228
-0.0026440267 0.75400001 0.01586416 1.4436142e-38 318 228
-0.0013220133 0.75400001 0.01586416 1.4159553e-38 319 228
0 0.75400001 0.01586416 1.3139292e-38 320 228
0.0013237667 0.755 0.015885198 1.3046739e-38 321 228
0.0026440267 0.75400001 0.01586416 1.1762131e-38 322 228
0.00396604 0.75400001 0.01586416 1.1669935e-38 323 228
0.0052950666 0.755 0.015885198 1.084414e-38 324 228
0.0066188332 0.755 0.015885198 1.084414e-38 325 228
0.0079425992 0.755 0.015885198 9.8350259e-39 326 228
0.0092909131 0.75700003 0.015927281 9.6506346e-39 327 228
0.010618187 0.75700003 0.015927281 8.2756161e-39 328 228
0.01194546 0.75700003 0.015927281 7.9986705e-39 329 228
0.0133078 0.759 0.015969358 6.2527241e-39 330 228
0.01469644 0.76200002 0.01603248 5.515159e-39 331 228
0.01613768 0.76700002 0.01613768 5.1467507e-39 332 228
0.017528072 0.76899999 0.016179759 5.5151744e-39 333 228
0.018827293 0.76700002 0.01613768 5.8864583e-39 334 228
0.020172099 0.76700002 0.01613768 6.5318277e-39 335 228
0.021516906 0.76700002 0.01613768 7.0849819e-39 336 228
0.02271268 0.76200002 0.01603248 7.2693745e-39 337 228
0.024017159 0.76099998 0.016011439 8.5532792e-39 338 228
0.025351444 0.76099998 0.016011439 8.3685278e-39 339 228
0.026685731 0.76099998 0.016011439 9.1007077e-39 340 228
0.028020019 0.76099998 0.016011439 8.8241208e-39 341 228
0.029354304 0.76099998 0.016011439 9.371552e-39 342 228
0.030688593 0.76099998 0.016011439 9.2793564e-39 343 228
0.032022879 0.76099998 0.016011439 9.6484962e-39 344 228
0.033357166 0.76099998 0.016011439 1.0016919e-38 345 228
0.034691449 0.76099998 0.016011439 9.3733485e-39 346 228
0.036025736 0.76099998 0.016011439 9.1889572e-39 347 228
0.037360024 0.76099998 0.016011439 8.8208964e-39 348 228
0.038694311 0.76099998 0.016011439 9.005289e-39 349 228
0.040028598 0.76099998 0.016011439 9.2822277e-39 350 228
0.041362885 0.76099998 0.016011439 9.6510116e-39 351 228
0.042753279 0.76200002 0.01603248 1.0112336e-38 352 228
0.044089317 0.76200002 0.01603248 1.020489e-38 353 228
0.045425359 0.76200002 0.01603248 9.6484962e-39 354 228
0.046761397 0.76200002 0.01603248 6.9794977e-39 355 228
0.048097439 0.76200002 0.01603248 5.8825276e-39 356 228
0.049433477 0.76200002 0.01603248 1.1598657e-38 357 228
-0.02568458 0.77100003 0.01487002 1.7329183e-38 301 229
-0.024269639 0.76899999 0.014831445 1.4562962e-38 302 229
-0.022921326 0.76899999 0.014831445 9.4000082e-39 303 229
-0.021516906 0.76700002 0.014792874 7.3641443e-39 304 229
-0.020172099 0.76700002 0.014792874 5.3358405e-39 305 229
-0.018802745 0.76599997 0.014773586 7.6252427e-39 306 229
-0.017414106 0.764 0.014735013 7.4412115e-39 307 229
-0.01603248 0.76200002 0.01469644 9.0931687e-39 308 229
-0.014677152 0.76099998 0.014677152 9.7385381e-39 309 229
-0.013342866 0.76099998 0.014677152 1.0934913e-38 310 229
-0.01197702 0.759 0.014638579 1.1488087e-38 311 229
-0.010618187 0.75700003 0.014600007 1.2682661e-38 312 229
-0.0092663663 0.755 0.014561433 1.2867411e-38 313 229
-0.0079425992 0.755 0.014561433 1.3783969e-38 314 229
-0.0066188332 0.755 0.014561433 1.3876166e-38 315 229
-0.0052950666 0.755 0.014561433 1.4061629e-38 316 229
-0.0039712996 0.755 0.014561433 1.4983946e-38 317 229
-0.0026440267 0.75400001 0.014542146 1.4621974e-38 318 229
-0.0013220133 0.75400001 0.014542146 1.4068801e-38 319 229
0 0.75400001 0.014542146 1.3326197e-38 320 229
0.0013220133 0.75400001 0.014542146 1.3326197e-38 321 229
0.0026440267 0.75400001 0.014542146 1.2316011e-38 322 229
0.00396604 0.75400001 0.014542146 1.2039424e-38 323 229
0.0052880533 0.75400001 0.014542146 1.1211481e-38 324 229
0.0066188332 0.755 0.014561433 1.1027088e-38 325 229
0.0079425992 0.755 0.014561433 1.0200218e-38 326 229
0.0092663663 0.755 0.014561433 1.0108023e-38 327 229
0.010590133 0.755 0.014561433 8.8233991e-39 328 229
0.011913899 0.755 0.014561433 8.4542564e-39 329 229
0.013272733 0.75700003 0.014600007 6.8919754e-39 330 229
0.014638579 0.759 0.014638579 6.1544132e-39 331 229
0.01603248 0.76200002 0.01469644 5.6959532e-39 332 229
0.017482487 0.76700002 0.014792874 6.1569313e-39 333 229
0.018802745 0.76599997 0.014773586 6.9881115e-39 334 229
0.020145798 0.76599997 0.014773586 7.6334809e-39 335 229
0.021348584 0.76099998 0.014677152 7.8178623e-39 336 229
0.022563647 0.75700003 0.014600007 8.0018935e-39 337 229
0.02389092 0.75700003 0.014600007 9.1925305e-39 338 229
0.025218192 0.75700003 0.014600007 8.8237494e-39 339 229
0.026545467 0.75700003 0.014600007 9.1885873e-39 340 229
0.027872739 0.75700003 0.014600007 9.004196e-39 341 229
0.029200014 0.75700003 0.014600007 9.0942435e-39 342 229
0.030527288 0.75700003 0.014600007 9.0942435e-39 343 229
0.031938717 0.759 0.014638579 9.0960413e-39 344 229
0.033269498 0.759 0.014638579 9.5566607e-39 345 229
0.034600276 0.759 0.014638579 8.9134451e-39 346 229
0.035931058 0.759 0.014638579 8.3602728e-39 347 229
0.037360024 0.76099998 0.014677152 8.1780451e-39 348 229
0.038694311 0.76099998 0.014677152 8.3627951e-39 349 229
0.040028598 0.76099998 0.014677152 9.0978406e-39 350 229
0.041362885 0.76099998 0.014677152 9.466263e-39 351 229
0.042753279 0.76200002 0.01469644 9.8371937e-39 352 229
0.044089317 0.76200002 0.01469644 9.8371937e-39 353 229
0.045425359 0.76200002 0.01469644 9.2811529e-39 354 229
0.046761397 0.76200002 0.01469644 6.7958267e-39 355 229
0.048097439 0.76200002 0.01469644 5.605575e-39 356 229
0.049433477 0.76200002 0.01469644 1.0768529e-38 357 229
-0.02568458 0.77100003 0.013518199 1.6868563e-38 301 230
-0.024269639 0.76899999 0.013483133 1.3642801e-38 302 230
-0.022921326 0.76899999 0.013483133 8.3876499e-39 303 230
-0.021516906 0.76700002 0.013448066 7.6382075e-39 304 230
-0.020172099 0.76700002 0.013448066 5.7020993e-39 305 230
-0.018802745 0.76599997 0.013430533 7.5359225e-39 306 230
-0.017414106 0.764 0.013395466 7.1671386e-39 307 230
-0.01603248 0.76200002 0.0133604 9.0938875e-39 308 230
-0.014677152 0.76099998 0.013342866 9.7392569e-39 309 230
-0.0133078 0.759 0.0133078 1.0934913e-38 310 230
-0.01197702 0.759 0.0133078 1.139589e-38 311 230
-0.010618187 0.75700003 0.013272733 1.2498629e-38 312 230
-0.0092663663 0.755 0.013237666 1.2774856e-38 313 230
-0.0079425992 0.755 0.013237666 1.3601021e-38 314 230
-0.0066188332 0.755 0.013237666 1.3416989e-38 315 230
-0.0052880533 0.75400001 0.013220133 1.3877964e-38 316 230
-0.00396604 0.75400001 0.013220133 1.4708083e-38 317 230
-0.0026440267 0.75400001 0.013220133 1.4251769e-38 318 230
-0.0013220133 0.75400001 0.013220133 1.3790791e-38 319 230
0 0.75400001 0.013220133 1.2681199e-38 320 230
0.0013220133 0.75400001 0.013220133 1.2957787e-38 321 230
0.0026440267 0.75400001 0.013220133 1.2592598e-38 322 230
0.00396604 0.75400001 0.013220133 1.2316011e-38 323 230
0.0052880533 0.75400001 0.013220133 1.1854682e-38 324 230
0.0066100666 0.75400001 0.013220133 1.1854682e-38 325 230
0.00793208 0.75400001 0.013220133 1.1026016e-38 326 230
0.0092663663 0.755 0.013237666 1.0841625e-38 327 230
0.010590133 0.755 0.013237666 9.6473976e-39 328 230
0.011913899 0.755 0.013237666 9.555202e-39 329 230
0.013220133 0.75400001 0.013220133 9.3722555e-39 330 230
0.014542146 0.75400001 0.013220133 9.3722555e-39 331 230
0.015885198 0.755 0.013237666 8.5464549e-39 332 230
0.017208965 0.755 0.013237666 8.6386505e-39 333 230
0.018532733 0.755 0.013237666 8.9166639e-39 334 230
0.0198565 0.755 0.013237666 9.1936095e-39 335 230
0.021180267 0.755 0.013237666 8.9195408e-39 336 230
0.022504034 0.755 0.013237666 8.9195408e-39 337 230
0.023827799 0.755 0.013237666 9.4662476e-39 338 230
0.025151566 0.755 0.013237666 9.2818563e-39 339 230
0.026475333 0.755 0.013237666 9.1875083e-39 340 230
0.027799098 0.755 0.013237666 8.9112815e-39 341 230
0.029122867 0.755 0.013237666 8.4524712e-39 342 230
0.030446632 0.755 0.013237666 8.4524712e-39 343 230
0.031854562 0.75700003 0.013272733 8.2709596e-39 344 230
0.033181835 0.75700003 0.013272733 8.0869285e-39 345 230
0.034600276 0.759 0.0133078 7.3518816e-39 346 230
0.035931058 0.759 0.0133078 7.1674889e-39 347 230
0.03726184 0.759 0.0133078 7.2593342e-39 348 230
0.038592618 0.759 0.0133078 7.4437269e-39 349 230
0.0399234 0.759 0.0133078 8.0876501e-39 350 230
0.041362885 0.76099998 0.013342866 8.6408239e-39 351 230
0.042697169 0.76099998 0.013342866 9.6546031e-39 352 230
0.044031456 0.76099998 0.013342866 9.1936264e-39 353 230
0.045425359 0.76200002 0.0133604 9.0960413e-39 354 230
0.046761397 0.76200002 0.0133604 7.2550042e-39 355 230
0.048097439 0.76200002 0.0133604 5.6052051e-39 356 230
0.049433477 0.76200002 0.0133604 1.0307184e-38 357 230
-0.024269639 0.76899999 0.012134819 1.3274373e-38 302 231
-0.022921326 0.76899999 0.012134819 7.8348293e-39 303 231
-0.021516906 0.76700002 0.01210326 7.6378417e-39 304 231
-0.020172099 0.76700002 0.01210326 6.3471029e-39 305 231
-0.018802745 0.76599997 0.012087479 7.7203068e-39 306 231
-0.017414106 0.764 0.01205592 7.3518844e-39 307 231
-0.01603248 0.76200002 0.01202436 8.7279847e-39 308 231
-0.014677152 0.76099998 0.012008579 9.1886041e-39 309 231
-0.0133078 0.759 0.01197702 1.0842365e-38 310 231
-0.01194546 0.75700003 0.01194546 1.1303341e-38 311 231
-0.010618187 0.75700003 0.01194546 1.2589743e-38 312 231
-0.0092663663 0.755 0.011913899 1.305072e-38 313 231
-0.0079425992 0.755 0.011913899 1.3418781e-38 314 231
-0.0066188332 0.755 0.011913899 1.323475e-38 315 231
-0.0052880533 0.75400001 0.01189812 1.3602822e-38 316 231
-0.00396604 0.75400001 0.01189812 1.3879769e-38 317 231
-0.0026440267 0.75400001 0.01189812 1.3790437e-38 318 231
-0.0013220133 0.75400001 0.01189812 1.3329459e-38 319 231
0 0.75400001 0.01189812 1.3049613e-38 320 231
0.0013220133 0.75400001 0.01189812 1.2588638e-38 321 231
0.0026440267 0.75400001 0.01189812 1.3328721e-38 322 231
0.0039555198 0.75199997 0.011866559 1.3236525e-38 323 231
0.0052740262 0.75199997 0.011866559 1.2958859e-38 324 231
0.0066100666 0.75400001 0.01189812 1.2590435e-38 325 231
0.00793208 0.75400001 0.01189812 1.1853595e-38 326 231
0.0092540924 0.75400001 0.01189812 1.1392624e-38 327 231
0.010576107 0.75400001 0.01189812 1.0749417e-38 328 231
0.01189812 0.75400001 0.01189812 1.0749417e-38 329 231
0.013185065 0.75199997 0.011866559 1.0567181e-38 330 231
0.014503572 0.75199997 0.011866559 1.0751572e-38 331 231
0.01586416 0.75400001 0.01189812 1.0294544e-38 332 231
0.017186172 0.75400001 0.01189812 1.0017961e-38 333 231
0.018508185 0.75400001 0.01189812 9.927562e-39 334 231
0.019830201 0.75400001 0.01189812 9.927562e-39 335 231
0.021152213 0.75400001 0.01189812 9.744261e-39 336 231
0.022504034 0.755 0.011913899 9.744261e-39 337 231
0.023827799 0.755 0.011913899 9.8332308e-39 338 231
0.025151566 0.755 0.011913899 9.4644483e-39 339 231
0.026475333 0.755 0.011913899 9.279341e-39 340 231
0.027799098 0.755 0.011913899 9.094591e-39 341 231
0.029122867 0.755 0.011913899 8.6361366e-39 342 231
0.030446632 0.755 0.011913899 8.6361366e-39 343 231
0.031770397 0.755 0.011913899 7.719225e-39 344 231
0.033181835 0.75700003 0.01194546 7.6266706e-39 345 231
0.034509107 0.75700003 0.01194546 6.7086758e-39 346 231
0.03583638 0.75700003 0.01194546 6.7086758e-39 347 231
0.03726184 0.759 0.01197702 6.4328175e-39 348 231
0.038592618 0.759 0.01197702 6.5250132e-39 349 231
0.0399234 0.759 0.01197702 6.7101275e-39 350 231
0.041362885 0.76099998 0.012008579 7.3554969e-39 351 231
0.042697169 0.76099998 0.012008579 9.5627816e-39 352 231
0.044031456 0.76099998 0.012008579 8.8252152e-39 353 231
0.045365743 0.76099998 0.012008579 8.6375813e-39 354 231
0.046884131 0.764 0.01205592 6.9794977e-39 355 231
0.048223678 0.764 0.01205592 5.6973979e-39 356 231
0.049563225 0.764 0.01205592 1.0583766e-38 357 231
-0.024206521 0.76700002 0.010758453 1.3640634e-38 302 232
-0.022861714 0.76700002 0.010758453 8.1092554e-39 303 232
-0.021516906 0.76700002 0.010758453 7.9137084e-39 304 232
-0.020172099 0.76700002 0.010758453 6.8995578e-39 305 232
-0.018802745 0.76599997 0.010744425 7.5384434e-39 306 232
-0.01736852 0.76200002 0.01068832 6.5239314e-39 307 232
-0.01603248 0.76200002 0.01068832 8.6343611e-39 308 232
-0.014677152 0.76099998 0.010674292 9.0953379e-39 309 232
-0.0133078 0.759 0.01064624 1.0474304e-38 310 232
-0.01194546 0.75700003 0.010618187 1.1212228e-38 311 232
-0.010590133 0.755 0.010590133 1.2224559e-38 312 232
-0.0092663663 0.755 0.010590133 1.2408951e-38 313 232
-0.0079425992 0.755 0.010590133 1.3145068e-38 314 232
-0.0066100666 0.75400001 0.010576107 1.3052872e-38 315 232
-0.0052880533 0.75400001 0.010576107 1.3510258e-38 316 232
-0.00396604 0.75400001 0.010576107 1.3510258e-38 317 232
-0.0026440267 0.75400001 0.010576107 1.3878667e-38 318 232
-0.0013220133 0.75400001 0.010576107 1.4708787e-38 319 232
0 0.75400001 0.010576107 1.4249598e-38 320 232
0.0013185065 0.75199997 0.010548052 1.3696424e-38 321 232
0.0026370131 0.75199997 0.010548052 1.4063415e-38 322 232
0.0039555198 0.75199997 0.010548052 1.4616588e-38 323 232
0.0052740262 0.75199997 0.010548052 1.4249601e-38 324 232
0.0065925326 0.75199997 0.010548052 1.3143253e-38 325 232
0.0079110395 0.75199997 0.010548052 1.2773029e-38 326 232
0.0092540924 0.75400001 0.010576107 1.1942919e-38 327 232
0.010576107 0.75400001 0.010576107 1.1392625e-38 328 232
0.01189812 0.75400001 0.010576107 1.1392625e-38 329 232
0.013185065 0.75199997 0.010548052 1.0843417e-38 330 232
0.014503572 0.75199997 0.010548052 1.0843417e-38 331 232
0.015822079 0.75199997 0.010548052 1.0661544e-38 332 232
0.017140586 0.75199997 0.010548052 1.0477513e-38 333 232
0.018459093 0.75199997 0.010548052 1.0478953e-38 334 232
0.019830201 0.75400001 0.010576107 1.0294563e-38 335 232
0.021152213 0.75400001 0.010576107 1.0109821e-38 336 232
0.022474226 0.75400001 0.010576107 9.9254293e-39 337 232
0.02379624 0.75400001 0.010576107 9.7388912e-39 338 232
0.025118252 0.75400001 0.010576107 9.4623029e-39 339 232
0.026440267 0.75400001 0.010576107 9.0960385e-39 340 232
0.027762281 0.75400001 0.010576107 9.0038429e-39 341 232
0.029084291 0.75400001 0.010576107 8.3609916e-39 342 232
0.030406307 0.75400001 0.010576107 8.3609916e-39 343 232
0.031770397 0.755 0.010590133 7.2586125e-39 344 232
0.033094164 0.755 0.010590133 7.2586125e-39 345 232
0.034417931 0.755 0.010590133 6.616127e-39 346 232
0.035741698 0.755 0.010590133 6.616127e-39 347 232
0.037065465 0.755 0.010590133 6.1580285e-39 348 232
0.038490929 0.75700003 0.010618187 6.1580285e-39 349 232
0.039818201 0.75700003 0.010618187 6.5257362e-39 350 232
0.041254178 0.759 0.01064624 6.9863543e-39 351 232
0.042697169 0.76099998 0.010674292 8.0890963e-39 352 232
0.044031456 0.76099998 0.010674292 7.812508e-39 353 232
0.045365743 0.76099998 0.010674292 8.0858523e-39 354 232
0.046761397 0.76200002 0.01068832 6.7958309e-39 355 232
0.048097439 0.76200002 0.01068832 6.159448e-39 356 232
-0.024206521 0.76700002 0.0094136465 1.3548439e-38 302 233
-0.022861714 0.76700002 0.0094136465 8.5698748e-39 303 233
-0.021488851 0.76599997 0.0094013726 8.4650913e-39 304 233
-0.020145798 0.76599997 0.0094013726 7.3583836e-39 305 233
-0.018753653 0.764 0.0093768267 7.9947455e-39 306 233
-0.01736852 0.76200002 0.0093522798 7.9025498e-39 307 233
-0.01603248 0.76200002 0.0093522798 8.0847803e-39 308 233
-0.014677152 0.76099998 0.0093400059 8.545757e-39 309 233
-0.0133078 0.759 0.00931546 9.6492249e-39 310 233
-0.01194546 0.75700003 0.0092909131 1.0387149e-38 311 233
-0.010590133 0.755 0.0092663663 1.149096e-38 312 233
-0.0092663663 0.755 0.0092663663 1.2043775e-38 313 233
-0.0079425992 0.755 0.0092663663 1.286956e-38 314 233
-0.0066100666 0.75400001 0.0092540924 1.3145787e-38 315 233
-0.0052880533 0.75400001 0.0092540924 1.3420213e-38 316 233
-0.00396604 0.75400001 0.0092540924 1.3420213e-38 317 233
-0.0026440267 0.75400001 0.0092540924 1.369644e-38 318 233
-0.0013220133 0.75400001 0.0092540924 1.3881191e-38 319 233
0 0.75199997 0.0092295464 1.3883339e-38 320 233
0.0013185065 0.75199997 0.0092295464 1.3791144e-38 321 233
0.0026370131 0.75199997 0.0092295464 1.3974809e-38 322 233
0.0039555198 0.75199997 0.0092295464 1.4251396e-38 323 233
0.00526 0.75 0.0092049995 1.4161706e-38 324 233
0.006575 0.75 0.0092049995 1.3331585e-38 325 233
0.00789 0.75 0.0092049995 1.3509868e-38 326 233
0.0092295464 0.75199997 0.0092295464 1.258792e-38 327 233
0.01052 0.75 0.0092049995 1.231062e-38 328 233
0.011835 0.75 0.0092049995 1.231062e-38 329 233
0.01315 0.75 0.0092049995 1.1393704e-38 330 233
0.014465 0.75 0.0092049995 1.1393704e-38 331 233
0.01578 0.75 0.0092049995 1.1577386e-38 332 233
0.017095 0.75 0.0092049995 1.1577386e-38 333 233
0.018409999 0.75 0.0092049995 1.1210765e-38 334 233
0.019724999 0.75 0.0092049995 1.1118209e-38 335 233
0.021096105 0.75199997 0.0092295464 1.0749799e-38 336 233
0.022474226 0.75400001 0.0092540924 1.0473212e-38 337 233
0.02379624 0.75400001 0.0092540924 9.9214832e-39 338 233
0.025118252 0.75400001 0.0092540924 9.8292876e-39 339 233
0.026440267 0.75400001 0.0092540924 9.1885873e-39 340 233
0.027762281 0.75400001 0.0092540924 9.0963917e-39 341 233
0.029084291 0.75400001 0.0092540924 8.2698778e-39 342 233
0.030406307 0.75400001 0.0092540924 7.9929308e-39 343 233
0.03172832 0.75400001 0.0092540924 6.8909188e-39 344 233
0.033050332 0.75400001 0.0092540924 6.7987232e-39 345 233
0.034417931 0.755 0.0092663663 6.1576726e-39 346 233
0.035741698 0.755 0.0092663663 6.1576726e-39 347 233
0.037065465 0.755 0.0092663663 5.8828836e-39 348 233
0.038389232 0.755 0.0092663663 5.8828836e-39 349 233
0.039712999 0.755 0.0092663663 5.6992154e-39 350 233
0.041145474 0.75700003 0.0092909131 5.9758023e-39 351 233
0.042584959 0.759 0.00931546 6.1594747e-39 352 233
0.044031456 0.76099998 0.0093400059 6.1594747e-39 353 233
0.045365743 0.76099998 0.0093400059 6.8919936e-39 354 233
0.046577301 0.759 0.00931546 6.0625931e-39 355 233
0.047908079 0.759 0.00931546 6.8066167e-39 356 233
-0.024206521 0.76700002 0.00806884 1.3640634e-38 302 234
-0.022831906 0.76599997 0.0080583189 9.2152442e-39 303 234
-0.021432746 0.764 0.0080372803 8.9260652e-39 304 234
-0.020093199 0.764 0.0080372803 8.0037502e-39 305 234
-0.018753653 0.764 0.0080372803 7.8114332e-39 306 234
-0.01736852 0.76200002 0.0080162399 7.4426507e-39 307 234
-0.01603248 0.76200002 0.0080162399 8.177329e-39 308 234
-0.014677152 0.76099998 0.0080057196 8.4535558e-39 309 234
-0.0133078 0.759 0.0079846792 9.8325246e-39 310 234
-0.01197702 0.759 0.0079846792 1.0293863e-38 311 234
-0.010618187 0.75700003 0.0079636406 1.1673553e-38 312 234
-0.0092663663 0.755 0.0079425992 1.195014e-38 313 234
-0.0079425992 0.755 0.0079425992 1.2868854e-38 314 234
-0.0066100666 0.75400001 0.00793208 1.3329832e-38 315 234
-0.0052880533 0.75400001 0.00793208 1.3514574e-38 316 234
-0.0039555198 0.75199997 0.0079110395 1.3237985e-38 317 234
-0.0026370131 0.75199997 0.0079110395 1.3605324e-38 318 234
-0.0013185065 0.75199997 0.0079110395 1.3513127e-38 319 234
0 0.75199997 0.0079110395 1.3786121e-38 320 234
0.001315 0.75 0.00789 1.360173e-38 321 234
0.00263 0.75 0.00789 1.3785049e-38 322 234
0.003945 0.75 0.00789 1.4246026e-38 323 234
0.00526 0.75 0.00789 1.3974829e-38 324 234
0.006575 0.75 0.00789 1.3513851e-38 325 234
0.00789 0.75 0.00789 1.3140752e-38 326 234
0.0092049995 0.75 0.00789 1.2679774e-38 327 234
0.01052 0.75 0.00789 1.2035479e-38 328 234
0.011835 0.75 0.00789 1.2404263e-38 329 234
0.01315 0.75 0.00789 1.1671014e-38 330 234
0.014465 0.75 0.00789 1.1486623e-38 331 234
0.01578 0.75 0.00789 1.1486273e-38 332 234
0.017095 0.75 0.00789 1.1209326e-38 333 234
0.018409999 0.75 0.00789 1.1208975e-38 334 234
0.019724999 0.75 0.00789 1.1024944e-38 335 234
0.02104 0.75 0.00789 1.0657959e-38 336 234
0.022414612 0.75199997 0.0079110395 1.0473209e-38 337 234
0.023733119 0.75199997 0.0079110395 9.6474004e-39 338 234
0.025118252 0.75400001 0.00793208 9.6474004e-39 339 234
0.026440267 0.75400001 0.00793208 8.8216026e-39 340 234
0.027762281 0.75400001 0.00793208 8.6368526e-39 341 234
0.029084291 0.75400001 0.00793208 7.8092654e-39 342 234
0.030406307 0.75400001 0.00793208 7.6248741e-39 343 234
0.03172832 0.75400001 0.00793208 6.6161298e-39 344 234
0.033050332 0.75400001 0.00793208 6.339903e-39 345 234
0.034372345 0.75400001 0.00793208 6.065477e-39 346 234
0.035694357 0.75400001 0.00793208 6.1576726e-39 347 234
0.037065465 0.755 0.0079425992 5.7899691e-39 348 234
0.038389232 0.755 0.0079425992 5.8821647e-39 349 234
0.039712999 0.755 0.0079425992 5.606654e-39 350 234
0.041145474 0.75700003 0.0079636406 5.7906851e-39 351 234
0.042584959 0.759 0.0079846792 6.1573069e-39 352 234
0.044031456 0.76099998 0.0080057196 6.1573069e-39 353 234
0.045365743 0.76099998 0.0080057196 6.5242817e-39 354 234
0.046577301 0.759 0.0079846792 5.6948812e-39 355 234
0.047908079 0.759 0.0079846792 7.4537812e-39 356 234
0.049238857 0.759 0.0079846792 1.3077715e-38 357 234
-0.022772292 0.764 0.006697733 9.6762223e-39 303 235
-0.02137664 0.76200002 0.0066801999 9.2959239e-39 304 235
-0.0200406 0.76200002 0.0066801999 8.2814119e-39 305 235
-0.01870456 0.76200002 0.0066801999 7.6295559e-39 306 235
-0.01736852 0.76200002 0.0066801999 7.0767422e-39 307 235
-0.016011439 0.76099998 0.0066714329 7.6266762e-39 308 235
-0.014677152 0.76099998 0.0066714329 7.9029029e-39 309 235
-0.0133078 0.759 0.0066538998 9.0971399e-39 310 235
-0.01197702 0.759 0.0066538998 1.0018736e-38 311 235
-0.010618187 0.75700003 0.0066363667 1.0847049e-38 312 235
-0.0092663663 0.755 0.0066188332 1.1216192e-38 313 235
-0.00793208 0.75400001 0.0066100666 1.2135257e-38 314 235
-0.0066100666 0.75400001 0.0066100666 1.2227453e-38 315 235
-0.0052880533 0.75400001 0.0066100666 1.3513141e-38 316 235
-0.0039555198 0.75199997 0.0065925326 1.3605696e-38 317 235
-0.0026370131 0.75199997 0.0065925326 1.369752e-38 318 235
-0.0013185065 0.75199997 0.0065925326 1.3328736e-38 319 235
0 0.75199997 0.0065925326 1.3508461e-38 320 235
0.001315 0.75 0.006575 1.313968e-38 321 235
0.00263 0.75 0.006575 1.3322645e-38 322 235
0.003945 0.75 0.006575 1.3599232e-38 323 235
0.00526 0.75 0.006575 1.305145e-38 324 235
0.006575 0.75 0.006575 1.2867057e-38 325 235
0.00789 0.75 0.006575 1.3048556e-38 326 235
0.0092049995 0.75 0.006575 1.2956361e-38 327 235
0.01052 0.75 0.006575 1.2499683e-38 328 235
0.011835 0.75 0.006575 1.2407488e-38 329 235
0.01315 0.75 0.006575 1.2130546e-38 330 235
0.014465 0.75 0.006575 1.1761765e-38 331 235
0.01578 0.75 0.006575 1.1576672e-38 332 235
0.017095 0.75 0.006575 1.1299726e-38 333 235
0.018409999 0.75 0.006575 1.08402e-38 334 235
0.019724999 0.75 0.006575 1.0748004e-38 335 235
0.02104 0.75 0.006575 1.0197346e-38 336 235
0.022414612 0.75199997 0.0065925326 1.0105149e-38 337 235
0.023733119 0.75199997 0.0065925326 9.4626532e-39 338 235
0.025051624 0.75199997 0.0065925326 9.3704576e-39 339 235
0.02637013 0.75199997 0.0065925326 8.7283322e-39 340 235
0.027762281 0.75400001 0.0066100666 8.5439409e-39 341 235
0.029084291 0.75400001 0.0066100666 7.625593e-39 342 235
0.030406307 0.75400001 0.0066100666 7.4415619e-39 343 235
0.03172832 0.75400001 0.0066100666 6.2480704e-39 344 235
0.033050332 0.75400001 0.0066100666 6.2480704e-39 345 235
0.034372345 0.75400001 0.0066100666 5.6063009e-39 346 235
0.035694357 0.75400001 0.0066100666 5.790332e-39 347 235
0.037065465 0.755 0.0066188332 5.6063009e-39 348 235
0.038389232 0.755 0.0066188332 5.6063009e-39 349 235
0.039712999 0.755 0.0066188332 5.5141025e-39 350 235
0.041145474 0.75700003 0.0066363667 5.5141025e-39 351 235
0.042584959 0.759 0.0066538998 5.3297126e-39 352 235
0.044031456 0.76099998 0.0066714329 5.5141053e-39 353 235
0.045365743 0.76099998 0.0066714329 5.8825122e-39 354 235
0.046577301 0.759 0.0066538998 5.3296972e-39 355 235
0.047908079 0.759 0.0066538998 8.1924252e-39 356 235
0.049238857 0.759 0.0066538998 1.3724163e-38 357 235
-0.02271268 0.76200002 0.0053441599 1.004608e-38 303 236
-0.02137664 0.76200002 0.0053441599 9.7576182e-39 304 236
-0.0200406 0.76200002 0.0053441599 8.6512706e-39 305 236
-0.01870456 0.76200002 0.0053441599 7.9068658e-39 306 236
-0.01736852 0.76200002 0.0053441599 6.7086814e-39 307 236
-0.016011439 0.76099998 0.0053371461 7.7174397e-39 308 236
-0.014677152 0.76099998 0.0053371461 7.7174397e-39 309 236
-0.0133078 0.759 0.0053231199 9.0949848e-39 310 236
-0.01197702 0.759 0.0053231199 9.9247468e-39 311 236
-0.010590133 0.755 0.0052950666 1.0846699e-38 312 236
-0.0092663663 0.755 0.0052950666 1.0938895e-38 313 236
-0.00793208 0.75400001 0.0052880533 1.1858314e-38 314 236
-0.0066100666 0.75400001 0.0052880533 1.1858314e-38 315 236
-0.0052880533 0.75400001 0.0052880533 1.3236916e-38 316 236
-0.0039555198 0.75199997 0.0052740262 1.360534e-38 317 236
-0.0026370131 0.75199997 0.0052740262 1.3697873e-38 318 236
-0.0013185065 0.75199997 0.0052740262 1.3329089e-38 319 236
0 0.75199997 0.0052740262 1.3418042e-38 320 236
0.001315 0.75 0.00526 1.304926e-38 321 236
0.00263 0.75 0.00526 1.314003e-38 322 236
0.003945 0.75 0.00526 1.314003e-38 323 236
0.00526 0.75 0.00526 1.258903e-38 324 236
0.006575 0.75 0.00526 1.2496833e-38 325 236
0.00789 0.75 0.00526 1.2773409e-38 326 236
0.0092049995 0.75 0.00526 1.3234747e-38 327 236
0.010505973 0.74900001 0.0052529867 1.2595119e-38 328 236
0.01181922 0.74900001 0.0052529867 1.2410726e-38 329 236
0.01315 0.75 0.00526 1.2315307e-38 330 236
0.014445714 0.74900001 0.0052529867 1.1762134e-38 331 236
0.01575896 0.74900001 0.0052529867 1.148412e-38 332 236
0.017072206 0.74900001 0.0052529867 1.1023143e-38 333 236
0.018385453 0.74900001 0.0052529867 1.0748004e-38 334 236
0.019724999 0.75 0.00526 1.0563253e-38 335 236
0.02104 0.75 0.00526 1.0012956e-38 336 236
0.022414612 0.75199997 0.0052740262 9.9207601e-39 337 236
0.023733119 0.75199997 0.0052740262 9.1867894e-39 338 236
0.025051624 0.75199997 0.0052740262 9.0945938e-39 339 236
0.02637013 0.75199997 0.0052740262 8.6361338e-39 340 236
0.027762281 0.75400001 0.0052880533 8.4517411e-39 341 236
0.029084291 0.75400001 0.0052880533 7.3500823e-39 342 236
0.030406307 0.75400001 0.0052880533 7.0738555e-39 343 236
0.03172832 0.75400001 0.0052880533 6.1562279e-39 344 236
0.033050332 0.75400001 0.0052880533 6.1562279e-39 345 236
0.034372345 0.75400001 0.0052880533 5.5141025e-39 346 236
0.035694357 0.75400001 0.0052880533 5.5141025e-39 347 236
0.037016369 0.75400001 0.0052880533 5.6974147e-39 348 236
0.038389232 0.755 0.0052950666 5.6974147e-39 349 236
0.039712999 0.755 0.0052950666 5.513022e-39 350 236
0.041036766 0.755 0.0052950666 5.513022e-39 351 236
0.042584959 0.759 0.0053231199 5.3297098e-39 352 236
0.044031456 0.76099998 0.0053371461 5.4219068e-39 353 236
0.045365743 0.76099998 0.0053371461 5.7924704e-39 354 236
0.046700031 0.76099998 0.0053371461 5.4233291e-39 355 236
0.048034318 0.76099998 0.0053371461 8.6544782e-39 356 236
0.049368605 0.76099998 0.0053371461 1.4278053e-38 357 236
-0.02271268 0.76200002 0.0040081199 1.0691446e-38 303 237
-0.02137664 0.76200002 0.0040081199 9.7594132e-39 304 237
-0.0200406 0.76200002 0.0040081199 8.6534258e-39 305 237
-0.01870456 0.76200002 0.0040081199 8.2774462e-39 306 237
-0.01736852 0.76200002 0.0040081199 6.9867074e-39 307 237
-0.016011439 0.76099998 0.0040028598 7.7185159e-39 308 237
-0.014677152 0.76099998 0.0040028598 7.349732e-39 309 237
-0.0133078 0.759 0.0039923396 8.9098746e-39 310 237
-0.01197702 0.759 0.0039923396 9.6474397e-39 311 237
-0.010590133 0.755 0.0039712996 1.0660513e-38 312 237
-0.0092663663 0.755 0.0039712996 1.0753067e-38 313 237
-0.00793208 0.75400001 0.00396604 1.1491703e-38 314 237
-0.0066100666 0.75400001 0.00396604 1.1952679e-38 315 237
-0.0052880533 0.75400001 0.00396604 1.287426e-38 316 237
-0.0039555198 0.75199997 0.0039555198 1.2966457e-38 317 237
-0.0026370131 0.75199997 0.0039555198 1.3515648e-38 318 237
-0.0013185065 0.75199997 0.0039555198 1.3146867e-38 319 237
0 0.75199997 0.0039555198 1.3511317e-38 320 237
0.001315 0.75 0.003945 1.3418761e-38 321 237
0.00263 0.75 0.003945 1.3235452e-38 322 237
0.003945 0.75 0.003945 1.3050702e-38 323 237
0.00526 0.75 0.003945 1.2771969e-38 324 237
0.006575 0.75 0.003945 1.2679774e-38 325 237
0.00789 0.75 0.003945 1.2775197e-38 326 237
0.0092049995 0.75 0.003945 1.397374e-38 327 237
0.010505973 0.74900001 0.0039397399 1.3425954e-38 328 237
0.01181922 0.74900001 0.0039397399 1.3057173e-38 329 237
0.01315 0.75 0.003945 1.3052151e-38 330 237
0.014445714 0.74900001 0.0039397399 1.2130193e-38 331 237
0.01575896 0.74900001 0.0039397399 1.1394074e-38 332 237
0.017072206 0.74900001 0.0039397399 1.0933096e-38 333 237
0.018385453 0.74900001 0.0039397399 1.0289894e-38 334 237
0.019724999 0.75 0.003945 1.0013306e-38 335 237
0.02104 0.75 0.003945 9.5537769e-39 336 237
0.022414612 0.75199997 0.0039555198 9.4615812e-39 337 237
0.023733119 0.75199997 0.0039555198 8.9109256e-39 338 237
0.025051624 0.75199997 0.0039555198 8.9109256e-39 339 237
0.02637013 0.75199997 0.0039555198 8.451388e-39 340 237
0.027688639 0.75199997 0.0039555198 8.1751612e-39 341 237
0.029007144 0.75199997 0.0039555198 7.0735024e-39 342 237
0.030325651 0.75199997 0.0039555198 6.9813068e-39 343 237
0.031644158 0.75199997 0.0039555198 6.1551531e-39 344 237
0.032962665 0.75199997 0.0039555198 6.1551531e-39 345 237
0.034372345 0.75400001 0.00396604 5.6966958e-39 346 237
0.035694357 0.75400001 0.00396604 5.6966958e-39 347 237
0.037016369 0.75400001 0.00396604 5.6966958e-39 348 237
0.038389232 0.755 0.0039712996 5.6044988e-39 349 237
0.039712999 0.755 0.0039712996 5.5123032e-39 350 237
0.041036766 0.755 0.0039712996 5.4201076e-39 351 237
0.042472746 0.75700003 0.0039818203 5.513022e-39 352 237
0.043915741 0.759 0.0039923396 5.6974147e-39 353 237
0.045246519 0.759 0.0039923396 5.9775791e-39 354 237
0.046700031 0.76099998 0.0040028598 5.6087952e-39 355 237
0.048034318 0.76099998 0.0040028598 9.1172556e-39 356 237
0.049368605 0.76099998 0.0040028598 1.4740829e-38 357 237
-0.022861714 0.76700002 0.0026896133 1.1336816e-38 303 238
-0.02137664 0.76200002 0.00267208 9.8516117e-39 304 238
-0.0200406 0.76200002 0.00267208 8.7452655e-39 305 238
-0.01870456 0.76200002 0.00267208 8.740204e-39 306 238
-0.01736852 0.76200002 0.00267208 7.6342152e-39 307 238
-0.01603248 0.76200002 0.00267208 7.9032407e-39 308 238
-0.014677152 0.76099998 0.0026685731 7.7184893e-39 309 238
-0.0133078 0.759 0.00266156 8.4517705e-39 310 238
-0.01197702 0.759 0.00266156 8.8201929e-39 311 238
-0.010618187 0.75700003 0.0026545466 9.46414e-39 312 238
-0.0092663663 0.755 0.0026475333 1.0201705e-38 313 238
-0.00793208 0.75400001 0.0026440267 1.1677911e-38 314 238
-0.0066100666 0.75400001 0.0026440267 1.296865e-38 315 238
-0.0052740262 0.75199997 0.0026370131 1.3154829e-38 316 238
-0.0039555198 0.75199997 0.0026370131 1.3062634e-38 317 238
-0.0026370131 0.75199997 0.0026370131 1.3520713e-38 318 238
-0.0013185065 0.75199997 0.0026370131 1.2967539e-38 319 238
0 0.75199997 0.0026370131 1.378864e-38 320 238
0.001315 0.75 0.00263 1.3420216e-38 321 238
0.00263 0.75 0.00263 1.3604226e-38 322 238
0.003945 0.75 0.00263 1.3143606e-38 323 238
0.0052529867 0.74900001 0.0026264933 1.2956355e-38 324 238
0.0065662335 0.74900001 0.0026264933 1.2587931e-38 325 238
0.0078794798 0.74900001 0.0026264933 1.25919e-38 326 238
