# .PCD v.7 - Point Cloud Data file format
FIELDS x y z rgb imX imY
SIZE 4 4 4 4 4 4
TYPE F F F F F F
COUNT 1 1 1 1 1 1
WIDTH 867
HEIGHT 1
VIEWPOINT 0 0 0 1 0 0 0
POINTS 867
DATA ascii
0.025518013 0.76599997 0.033576332 1.1414275e-38 339 215
0.026861066 0.76599997 0.033576332 1.3367643e-38 340 215
0.028204117 0.76599997 0.033576332 1.5949121e-38 341 215
-0.043426558 0.77399999 0.032569919 1.1160359e-38 288 216
-0.042015124 0.773 0.032527838 3.5081227e-39 289 216
-0.040554602 0.77100003 0.032443684 3.3071863e-39 290 216
-0.039101087 0.76899999 0.032359518 3.4915789e-39 291 216
-0.037654586 0.76700002 0.03227536 9.8516313e-39 292 216
-0.036262438 0.76599997 0.032233275 1.1603348e-38 293 216
-0.034919381 0.76599997 0.032233275 9.3848854e-39 294 216
-0.033488665 0.764 0.032149121 8.3710936e-39 295 216
-0.032149121 0.764 0.032149121 8.6419029e-39 296 216
-0.030809574 0.764 0.032149121 7.8117835e-39 297 216
-0.029392879 0.76200002 0.032064959 8.5414354e-39 298 216
-0.028056841 0.76200002 0.032064959 8.0815335e-39 299 216
-0.0267208 0.76200002 0.032064959 7.9021715e-39 300 216
-0.02538476 0.76200002 0.032064959 1.0298898e-38 301 216
-0.02404872 0.76200002 0.032064959 1.0299957e-38 302 216
-0.02271268 0.76200002 0.032064959 9.1936095e-39 303 216
-0.021432746 0.764 0.032149121 9.0989126e-39 304 216
-0.020093199 0.764 0.032149121 9.0989126e-39 305 216
-0.018753653 0.764 0.032149121 9.191474e-39 306 216
-0.017414106 0.764 0.032149121 9.5606166e-39 307 216
-0.016116638 0.76599997 0.032233275 9.5627578e-39 308 216
-0.014792874 0.76700002 0.03227536 9.7471491e-39 309 216
-0.013483133 0.76899999 0.032359518 9.1071536e-39 310 216
-0.01216638 0.77100003 0.032443684 9.1993493e-39 311 216
-0.010842613 0.773 0.032527838 8.6493985e-39 312 216
-0.0094995592 0.77399999 0.032569919 8.5572028e-39 313 216
-0.0081424797 0.77399999 0.032569919 7.9147173e-39 314 216
-0.0068029333 0.77600002 0.032654081 7.7306862e-39 315 216
-0.0054283198 0.77399999 0.032569919 7.5470362e-39 316 216
-0.0040712398 0.77399999 0.032569919 7.8232644e-39 317 216
-0.0027211732 0.77600002 0.032654081 8.0998751e-39 318 216
-0.0013570799 0.77399999 0.032569919 8.2842677e-39 319 216
0 0.77100003 0.032443684 8.6494587e-39 320 216
0.0013483133 0.76899999 0.032359518 8.188482e-39 321 216
0.0026896133 0.76700002 0.03227536 8.7384089e-39 322 216
0.00403442 0.76700002 0.03227536 9.1071915e-39 323 216
0.0053792265 0.76700002 0.03227536 1.0852053e-38 324 216
0.006724033 0.76700002 0.03227536 1.0483269e-38 325 216
0.00806884 0.76700002 0.03227536 1.1396947e-38 326 216
0.0094013726 0.76599997 0.032233275 1.0843773e-38 327 216
0.010744425 0.76599997 0.032233275 1.1667064e-38 328 216
0.012087479 0.76599997 0.032233275 1.1759618e-38 329 216
0.013430533 0.76599997 0.032233275 1.2037276e-38 330 216
0.014773586 0.76599997 0.032233275 1.2222026e-38 331 216
0.016116638 0.76599997 0.032233275 1.1855404e-38 332 216
0.017482487 0.76700002 0.03227536 1.1855404e-38 333 216
0.018827293 0.76700002 0.03227536 1.1488436e-38 334 216
0.020172099 0.76700002 0.03227536 1.1488436e-38 335 216
0.021516906 0.76700002 0.03227536 1.1030352e-38 336 216
0.022861714 0.76700002 0.03227536 1.0384982e-38 337 216
0.024174958 0.76599997 0.032233275 7.6241679e-39 338 216
0.025518013 0.76599997 0.032233275 9.4680805e-39 339 216
0.026790932 0.764 0.032149121 1.0142593e-38 340 216
0.028130481 0.764 0.032149121 1.502896e-38 341 216
-0.044899363 0.77600002 0.031293493 1.4289251e-38 287 217
-0.043426558 0.77399999 0.031212838 9.6834348e-39 288 217
-0.042015124 0.773 0.03117251 3.1375451e-39 289 217
-0.0404494 0.76899999 0.031011207 3.950755e-39 290 217
-0.038999394 0.76700002 0.030930554 3.5823312e-39 291 217
-0.037605491 0.76599997 0.030890226 9.6676001e-39 292 217
-0.036262438 0.76599997 0.030890226 1.1511153e-38 293 217
-0.034828212 0.764 0.030809574 9.2944918e-39 294 217
-0.033488665 0.764 0.030809574 8.0959486e-39 295 217
-0.032064959 0.76200002 0.030728921 8.825218e-39 296 217
-0.030728921 0.76200002 0.030728921 7.9029029e-39 297 217
-0.029392879 0.76200002 0.030728921 8.5407166e-39 298 217
-0.028056841 0.76200002 0.030728921 8.0815321e-39 299 217
-0.0267208 0.76200002 0.030728921 8.178401e-39 300 217
-0.02538476 0.76200002 0.030728921 1.0391096e-38 301 217
-0.02404872 0.76200002 0.030728921 1.0482916e-38 302 217
-0.02271268 0.76200002 0.030728921 9.284373e-39 303 217
-0.02137664 0.76200002 0.030728921 9.2815032e-39 304 217
-0.0200406 0.76200002 0.030728921 9.3736988e-39 305 217
-0.01870456 0.76200002 0.030728921 9.4666189e-39 306 217
-0.01736852 0.76200002 0.030728921 9.7432072e-39 307 217
-0.016074561 0.764 0.030809574 9.4694874e-39 308 217
-0.014773586 0.76599997 0.030890226 9.6538786e-39 309 217
-0.013448066 0.76700002 0.030930554 9.2897484e-39 310 217
-0.012134819 0.76899999 0.031011207 9.3819455e-39 311 217
-0.01081456 0.77100003 0.031091858 8.5572028e-39 312 217
-0.0094872871 0.773 0.03117251 8.5572028e-39 313 217
-0.0081424797 0.77399999 0.031212838 7.3633428e-39 314 217
-0.0068029333 0.77600002 0.031293493 7.1789529e-39 315 217
-0.0054423464 0.77600002 0.031293493 6.9935093e-39 316 217
-0.0040817601 0.77600002 0.031293493 7.1779006e-39 317 217
-0.0027211732 0.77600002 0.031293493 7.1779258e-39 318 217
-0.0013570799 0.77399999 0.031212838 7.4541525e-39 319 217
0 0.76899999 0.031011207 7.6360271e-39 320 217
0.0013483133 0.76899999 0.031011207 7.4516358e-39 321 217
0.0026896133 0.76700002 0.030930554 8.0959066e-39 322 217
0.00403442 0.76700002 0.030930554 8.741276e-39 323 217
0.0053792265 0.76700002 0.030930554 1.0210277e-38 324 217
0.0067152665 0.76599997 0.030890226 9.8414943e-39 325 217
0.0080583189 0.76599997 0.030890226 1.1213997e-38 326 217
0.0094013726 0.76599997 0.030890226 1.0568628e-38 327 217
0.010744425 0.76599997 0.030890226 1.1574871e-38 328 217
0.01205592 0.764 0.030809574 1.1851458e-38 329 217
0.013395466 0.764 0.030809574 1.2129474e-38 330 217
0.014735013 0.764 0.030809574 1.2497898e-38 331 217
0.016116638 0.76599997 0.030890226 1.2039797e-38 332 217
0.017459691 0.76599997 0.030890226 1.2039797e-38 333 217
0.018802745 0.76599997 0.030890226 1.1581342e-38 334 217
0.020172099 0.76700002 0.030930554 1.1857569e-38 335 217
0.021516906 0.76700002 0.030930554 1.1490235e-38 336 217
0.022861714 0.76700002 0.030930554 1.139804e-38 337 217
0.024206521 0.76700002 0.030930554 1.0019074e-38 338 217
0.025518013 0.76599997 0.030890226 8.451388e-39 339 217
0.026790932 0.764 0.030809574 8.4686744e-39 340 217
0.028130481 0.764 0.030809574 1.6213107e-38 341 217
0.029470026 0.764 0.030809574 1.6406491e-38 342 217
-0.044783637 0.77399999 0.029855758 1.2908114e-38 287 218
-0.043370452 0.773 0.029817186 8.7586017e-39 288 218
-0.042015124 0.773 0.029817186 2.9506357e-39 289 218
-0.0404494 0.76899999 0.02966289 4.1333512e-39 290 218
-0.038999394 0.76700002 0.029585747 3.8571231e-39 291 218
-0.037605491 0.76599997 0.029547172 9.8523599e-39 292 218
-0.036262438 0.76599997 0.029547172 1.1788468e-38 293 218
-0.034828212 0.764 0.029470026 9.5717976e-39 294 218
-0.033401001 0.76200002 0.029392879 7.8204407e-39 295 218
-0.032064959 0.76200002 0.029392879 8.8234145e-39 296 218
-0.030688593 0.76099998 0.029354304 8.1780451e-39 297 218
-0.029354304 0.76099998 0.029354304 8.3584735e-39 298 218
-0.028020019 0.76099998 0.029354304 8.2662779e-39 299 218
-0.026685731 0.76099998 0.029354304 8.6368582e-39 300 218
-0.025351444 0.76099998 0.029354304 1.0757358e-38 301 218
-0.024017159 0.76099998 0.029354304 1.1217247e-38 302 218
-0.022682872 0.76099998 0.029354304 1.0294932e-38 303 218
-0.02137664 0.76200002 0.029392879 9.5591649e-39 304 218
-0.0200406 0.76200002 0.029392879 9.282578e-39 305 218
-0.01870456 0.76200002 0.029392879 9.4659e-39 306 218
-0.01736852 0.76200002 0.029392879 9.9268782e-39 307 218
-0.01603248 0.76200002 0.029392879 9.5609697e-39 308 218
-0.014735013 0.764 0.029470026 9.8371965e-39 309 218
-0.013448066 0.76700002 0.029585747 9.3815923e-39 310 218
-0.01210326 0.76700002 0.029585747 9.473788e-39 311 218
-0.010786506 0.76899999 0.02966289 8.3742563e-39 312 218
-0.0094627403 0.77100003 0.029740039 8.2820607e-39 313 218
-0.0081424797 0.77399999 0.029855758 7.1786012e-39 314 218
-0.0067853997 0.77399999 0.029855758 6.8098187e-39 315 218
-0.0054423464 0.77600002 0.029932907 6.807323e-39 316 218
-0.0040817601 0.77600002 0.029932907 6.8995186e-39 317 218
-0.0027211732 0.77600002 0.029932907 6.7162189e-39 318 218
-0.0013570799 0.77399999 0.029855758 6.9928072e-39 319 218
0 0.76899999 0.02966289 7.1764754e-39 320 218
0.0013448066 0.76700002 0.029585747 7.3608667e-39 321 218
0.0026896133 0.76700002 0.029585747 8.005862e-39 322 218
0.0040291594 0.76599997 0.029547172 8.4672002e-39 323 218
0.0053722127 0.76599997 0.029547172 9.9336927e-39 324 218
0.0067152665 0.76599997 0.029547172 9.7493014e-39 325 218
0.0080583189 0.76599997 0.029547172 1.0938136e-38 326 218
0.0094013726 0.76599997 0.029547172 1.0292767e-38 327 218
0.010716373 0.764 0.029470026 1.138976e-38 328 218
0.01205592 0.764 0.029470026 1.2127326e-38 329 218
0.013395466 0.764 0.029470026 1.2222742e-38 330 218
0.014735013 0.764 0.029470026 1.2314939e-38 331 218
0.016074561 0.764 0.029470026 1.2222386e-38 332 218
0.017459691 0.76599997 0.029547172 1.2222386e-38 333 218
0.018802745 0.76599997 0.029547172 1.1856134e-38 334 218
0.020145798 0.76599997 0.029547172 1.2224556e-38 335 218
0.021488851 0.76599997 0.029547172 1.1766821e-38 336 218
0.022861714 0.76700002 0.029585747 1.1951214e-38 337 218
0.024206521 0.76700002 0.029585747 1.1125046e-38 338 218
0.025518013 0.76599997 0.029547172 9.834307e-39 339 218
0.026790932 0.764 0.029470026 8.734816e-39 340 218
0.028130481 0.764 0.029470026 1.5926075e-38 341 218
0.029470026 0.764 0.029470026 1.5116834e-38 342 218
-0.044783637 0.77399999 0.028498679 1.1434426e-38 287 219
-0.043370452 0.773 0.028461859 8.2943823e-39 288 219
-0.04190642 0.77100003 0.028388219 3.6846008e-39 289 219
-0.0404494 0.76899999 0.028314579 4.6854516e-39 290 219
-0.038999394 0.76700002 0.02824094 4.5010604e-39 291 219
-0.037605491 0.76599997 0.028204117 9.2037661e-39 292 219
-0.036167759 0.764 0.028130481 1.2153668e-38 293 219
-0.034828212 0.764 0.028130481 9.6614765e-39 294 219
-0.033401001 0.76200002 0.028056841 8.0941494e-39 295 219
-0.032064959 0.76200002 0.028056841 8.8233991e-39 296 219
-0.030688593 0.76099998 0.028020019 8.6390064e-39 297 219
-0.029354304 0.76099998 0.028020019 8.8197992e-39 298 219
-0.028020019 0.76099998 0.028020019 8.8197992e-39 299 219
-0.026685731 0.76099998 0.028020019 9.006361e-39 300 219
-0.025284819 0.759 0.027946379 9.6517304e-39 301 219
-0.023954039 0.759 0.027946379 1.0388553e-38 302 219
-0.022682872 0.76099998 0.028020019 1.0572945e-38 303 219
-0.021348584 0.76099998 0.028020019 1.0844844e-38 304 219
-0.020014299 0.76099998 0.028020019 1.0568615e-38 305 219
-0.018680012 0.76099998 0.028020019 1.0292767e-38 306 219
-0.017345725 0.76099998 0.028020019 1.0384963e-38 307 219
-0.016011439 0.76099998 0.028020019 1.0204171e-38 308 219
-0.01469644 0.76200002 0.028056841 1.0388202e-38 309 219
-0.013395466 0.764 0.028130481 9.7478525e-39 310 219
-0.012087479 0.76599997 0.028204117 9.8400495e-39 311 219
-0.010758453 0.76700002 0.02824094 8.8319947e-39 312 219
-0.0094381925 0.76899999 0.028314579 8.5550504e-39 313 219
-0.0081319595 0.773 0.028461859 7.4526728e-39 314 219
-0.0067853997 0.77399999 0.028498679 6.8073062e-39 315 219
-0.0054283198 0.77399999 0.028498679 6.2545177e-39 316 219
-0.0040712398 0.77399999 0.028498679 6.3467134e-39 317 219
-0.0027141599 0.77399999 0.028498679 6.1634165e-39 318 219
-0.0013448066 0.76700002 0.02824094 6.2556135e-39 319 219
0 0.76700002 0.02824094 6.8991781e-39 320 219
0.0013430532 0.76599997 0.028204117 7.1761251e-39 321 219
0.0026861064 0.76599997 0.028204117 8.1877491e-39 322 219
0.0040186401 0.764 0.028130481 8.4646961e-39 323 219
0.0053581866 0.764 0.028130481 9.6574744e-39 324 219
0.0066801999 0.76200002 0.028056841 9.4730845e-39 325 219
0.0080162399 0.76200002 0.028056841 1.0571522e-38 326 219
0.0093522798 0.76200002 0.028056841 9.7417611e-39 327 219
0.010716373 0.764 0.028130481 1.0933465e-38 328 219
0.01202436 0.76200002 0.028056841 1.1578834e-38 329 219
0.0133604 0.76200002 0.028056841 1.2040513e-38 330 219
0.01469644 0.76200002 0.028056841 1.1856482e-38 331 219
0.01603248 0.76200002 0.028056841 1.2039079e-38 332 219
0.017414106 0.764 0.028130481 1.2039079e-38 333 219
0.018753653 0.764 0.028130481 1.1856497e-38 334 219
0.020145798 0.76599997 0.028204117 1.2040888e-38 335 219
0.021488851 0.76599997 0.028204117 1.2134879e-38 336 219
0.022861714 0.76700002 0.02824094 1.2227075e-38 337 219
0.024206521 0.76700002 0.02824094 1.1951211e-38 338 219
0.025518013 0.76599997 0.028204117 1.0753026e-38 339 219
0.026790932 0.764 0.028130481 8.9148941e-39 340 219
0.028130481 0.764 0.028130481 1.3800902e-38 341 219
0.029470026 0.764 0.028130481 1.3640985e-38 342 219
-0.044783637 0.77399999 0.027141599 1.023516e-38 287 220
-0.043370452 0.773 0.027106533 7.923439e-39 288 220
-0.04190642 0.77100003 0.027036399 4.2352537e-39 289 220
-0.040344197 0.76700002 0.026896132 5.7914306e-39 290 220
-0.038999394 0.76700002 0.026896132 5.2382568e-39 291 220
-0.037605491 0.76599997 0.026861066 7.079301e-39 292 220
-0.036167759 0.764 0.026790932 7.6324748e-39 293 220
-0.034828212 0.764 0.026790932 8.5490178e-39 294 220
-0.033401001 0.76200002 0.0267208 8.6412135e-39 295 220
-0.032022879 0.76099998 0.026685731 8.9152472e-39 296 220
-0.030688593 0.76099998 0.026685731 8.7304972e-39 297 220
-0.029354304 0.76099998 0.026685731 8.823755e-39 298 220
-0.028020019 0.76099998 0.026685731 9.0999818e-39 299 220
-0.026615599 0.759 0.026615599 9.6491941e-39 300 220
-0.025284819 0.759 0.026615599 9.4648014e-39 301 220
-0.023954039 0.759 0.026615599 1.0936692e-38 302 220
-0.02262326 0.759 0.026615599 1.1858648e-38 303 220
-0.021348584 0.76099998 0.026685731 1.0851329e-38 304 220
-0.020014299 0.76099998 0.026685731 9.7449826e-39 305 220
-0.018680012 0.76099998 0.026685731 1.0478597e-38 306 220
-0.017345725 0.76099998 0.026685731 1.0570793e-38 307 220
-0.016011439 0.76099998 0.026685731 1.0387847e-38 308 220
-0.01469644 0.76200002 0.0267208 1.0572598e-38 309 220
-0.0133604 0.76200002 0.0267208 9.839702e-39 310 220
-0.01202436 0.76200002 0.0267208 9.839702e-39 311 220
-0.010674292 0.76099998 0.026685731 8.8316583e-39 312 220
-0.0093400059 0.76099998 0.026685731 8.5554302e-39 313 220
-0.0081319595 0.773 0.027106533 6.9920674e-39 314 220
-0.0067853997 0.77399999 0.027141599 6.161948e-39 315 220
-0.0054283198 0.77399999 0.027141599 6.1590823e-39 316 220
-0.0040712398 0.77399999 0.027141599 6.3434736e-39 317 220
-0.0027141599 0.77399999 0.027141599 6.0686957e-39 318 220
-0.0013448066 0.76700002 0.026896132 5.9764987e-39 319 220
0 0.76700002 0.026896132 7.1710832e-39 320 220
0.0013430532 0.76599997 0.026861066 7.724257e-39 321 220
0.0026790933 0.764 0.026790932 8.6436924e-39 322 220
0.0040186401 0.764 0.026790932 9.0124749e-39 323 220
0.0053441599 0.76200002 0.0267208 9.9311914e-39 324 220
0.0066801999 0.76200002 0.0267208 1.0115583e-38 325 220
0.0080162399 0.76200002 0.0267208 1.0571522e-38 326 220
0.0093522798 0.76200002 0.0267208 1.0110185e-38 327 220
0.01068832 0.76200002 0.0267208 1.1116411e-38 328 220
0.01202436 0.76200002 0.0267208 1.1669585e-38 329 220
0.0133604 0.76200002 0.0267208 1.2037997e-38 330 220
0.01469644 0.76200002 0.0267208 1.2130193e-38 331 220
0.01603248 0.76200002 0.0267208 1.212984e-38 332 220
0.01736852 0.76200002 0.0267208 1.212984e-38 333 220
0.01870456 0.76200002 0.0267208 1.1856134e-38 334 220
0.020093199 0.764 0.026790932 1.2316752e-38 335 220
0.021488851 0.76599997 0.026861066 1.2134161e-38 336 220
0.022831906 0.76599997 0.026861066 1.2226359e-38 337 220
0.024206521 0.76700002 0.026896132 1.1859017e-38 338 220
0.025551327 0.76700002 0.026896132 1.139804e-38 339 220
0.026896132 0.76700002 0.026896132 9.5566607e-39 340 220
0.02824094 0.76700002 0.026896132 1.038678e-38 341 220
0.029585747 0.76700002 0.026896132 1.1149541e-38 342 220
-0.044783637 0.77399999 0.025784519 9.1277331e-39 287 221
-0.043370452 0.773 0.025751207 7.8297944e-39 288 221
-0.04190642 0.77100003 0.02568458 5.1561211e-39 289 221
-0.040344197 0.76700002 0.025551327 6.0669231e-39 290 221
-0.038948543 0.76599997 0.025518013 5.4215537e-39 291 221
-0.037507307 0.764 0.025451386 6.8001749e-39 292 221
-0.036167759 0.764 0.025451386 7.53774e-39 293 221
-0.034737039 0.76200002 0.02538476 8.3646098e-39 294 221
-0.033357166 0.76099998 0.025351444 8.4568054e-39 295 221
-0.032022879 0.76099998 0.025351444 9.0985567e-39 296 221
-0.030688593 0.76099998 0.025351444 9.2833067e-39 297 221
-0.029354304 0.76099998 0.025351444 9.6524199e-39 298 221
-0.027946379 0.759 0.025284819 9.928648e-39 299 221
-0.026615599 0.759 0.025284819 1.093884e-38 300 221
-0.025284819 0.759 0.025284819 1.0846644e-38 301 221
-0.023954039 0.759 0.025284819 1.130762e-38 302 221
-0.02262326 0.759 0.025284819 1.1676402e-38 303 221
-0.02129248 0.759 0.025284819 1.1951174e-38 304 221
-0.0199617 0.759 0.025284819 1.1582393e-38 305 221
-0.01863092 0.759 0.025284819 1.1765351e-38 306 221
-0.017300138 0.759 0.025284819 1.1765351e-38 307 221
-0.015969358 0.759 0.025284819 1.130655e-38 308 221
-0.014677152 0.76099998 0.025351444 1.1213995e-38 309 221
-0.013342866 0.76099998 0.025351444 1.0755537e-38 310 221
-0.012008579 0.76099998 0.025351444 1.0755537e-38 311 221
-0.010674292 0.76099998 0.025351444 9.6545821e-39 312 221
-0.0092909131 0.75700003 0.025218192 9.5623865e-39 313 221
-0.0079636406 0.75700003 0.025218192 8.6418721e-39 314 221
-0.0068029333 0.77600002 0.025851147 8.1812527e-39 315 221
-0.0054423464 0.77600002 0.025851147 8.090506e-39 316 221
-0.0040817601 0.77600002 0.025851147 8.1827016e-39 317 221
-0.0027211732 0.77600002 0.025851147 8.1830702e-39 318 221
-0.0013448066 0.76700002 0.025551327 8.0905158e-39 319 221
0 0.76700002 0.025551327 8.3652978e-39 320 221
0.00133604 0.76200002 0.02538476 8.7337202e-39 321 221
0.00267208 0.76200002 0.02538476 9.3790896e-39 322 221
0.0040081199 0.76200002 0.02538476 9.6560366e-39 323 221
0.0053441599 0.76200002 0.02538476 1.0206336e-38 324 221
0.0066801999 0.76200002 0.02538476 1.0206336e-38 325 221
0.0080162399 0.76200002 0.02538476 1.0661919e-38 326 221
0.0093522798 0.76200002 0.02538476 1.001655e-38 327 221
0.010674292 0.76099998 0.025351444 1.1026386e-38 328 221
0.012008579 0.76099998 0.025351444 1.1026386e-38 329 221
0.013342866 0.76099998 0.025351444 1.1669588e-38 330 221
0.014677152 0.76099998 0.025351444 1.1853979e-38 331 221
0.016011439 0.76099998 0.025351444 1.194653e-38 332 221
0.01736852 0.76200002 0.02538476 1.2038726e-38 333 221
0.01870456 0.76200002 0.02538476 1.1855778e-38 334 221
0.0200406 0.76200002 0.02538476 1.2224559e-38 335 221
0.021432746 0.764 0.025451386 1.2134161e-38 336 221
0.022772292 0.764 0.025451386 1.2134161e-38 337 221
0.024174958 0.76599997 0.025518013 1.1949058e-38 338 221
0.025518013 0.76599997 0.025518013 1.084307e-38 339 221
0.026896132 0.76700002 0.025551327 8.7286979e-39 340 221
0.02824094 0.76700002 0.025551327 8.9134479e-39 341 221
0.029585747 0.76700002 0.025551327 1.0217152e-38 342 221
0.030930554 0.76700002 0.025551327 1.6209868e-38 343 221
-0.044783637 0.77399999 0.02442744 8.666392e-39 287 222
-0.043370452 0.773 0.024395877 8.1045834e-39 288 222
-0.04190642 0.77100003 0.02433276 6.4447034e-39 289 222
-0.040344197 0.76700002 0.024206521 6.4385755e-39 290 222
-0.038948543 0.76599997 0.024174958 5.4244236e-39 291 222
-0.037507307 0.764 0.024111839 7.0738808e-39 292 222
-0.036025736 0.76099998 0.024017159 7.4430234e-39 293 222
-0.034691449 0.76099998 0.024017159 8.5454011e-39 294 222
-0.033357166 0.76099998 0.024017159 8.8223481e-39 295 222
-0.031938717 0.759 0.023954039 9.2822277e-39 296 222
-0.030607941 0.759 0.023954039 9.5588145e-39 297 222
-0.029277159 0.759 0.023954039 9.9279474e-39 298 222
-0.027946379 0.759 0.023954039 1.029673e-38 299 222
-0.026615599 0.759 0.023954039 1.1221188e-38 300 222
-0.025284819 0.759 0.023954039 1.140558e-38 301 222
-0.02389092 0.75700003 0.02389092 1.1864021e-38 302 222
-0.022563647 0.75700003 0.02389092 1.1864021e-38 303 222
-0.02129248 0.759 0.023954039 1.2319961e-38 304 222
-0.0199617 0.759 0.023954039 1.213521e-38 305 222
-0.01863092 0.759 0.023954039 1.2135934e-38 306 222
-0.017300138 0.759 0.023954039 1.1859349e-38 307 222
-0.015969358 0.759 0.023954039 1.1492014e-38 308 222
-0.014677152 0.76099998 0.024017159 1.1123233e-38 309 222
-0.0133078 0.759 0.023954039 1.1030685e-38 310 222
-0.01197702 0.759 0.023954039 1.1030685e-38 311 222
-0.010618187 0.75700003 0.02389092 9.9300984e-39 312 222
-0.0092909131 0.75700003 0.02389092 9.7453484e-39 313 222
-0.0079636406 0.75700003 0.02389092 9.009584e-39 314 222
-0.0066188332 0.755 0.023827799 9.009584e-39 315 222
-0.0052950666 0.755 0.023827799 9.012828e-39 316 222
-0.0039712996 0.755 0.023827799 9.5660018e-39 317 222
-0.0026440267 0.75400001 0.02379624 9.7489609e-39 318 222
-0.0013220133 0.75400001 0.02379624 9.1961459e-39 319 222
0 0.76200002 0.02404872 9.3765757e-39 320 222
0.00133604 0.76200002 0.02404872 9.4687713e-39 321 222
0.0026545466 0.75700003 0.02389092 9.7464302e-39 322 222
0.0039818203 0.75700003 0.02389092 1.0022658e-38 323 222
0.0053371461 0.76099998 0.024017159 1.0480045e-38 324 222
0.0066714329 0.76099998 0.024017159 1.0480045e-38 325 222
0.0080057196 0.76099998 0.024017159 1.0752323e-38 326 222
0.0093400059 0.76099998 0.024017159 1.0567573e-38 327 222
0.010674292 0.76099998 0.024017159 1.1025666e-38 328 222
0.012008579 0.76099998 0.024017159 1.1210058e-38 329 222
0.013342866 0.76099998 0.024017159 1.176178e-38 330 222
0.014677152 0.76099998 0.024017159 1.194653e-38 331 222
0.016011439 0.76099998 0.024017159 1.2222759e-38 332 222
0.017345725 0.76099998 0.024017159 1.2222759e-38 333 222
0.01870456 0.76200002 0.02404872 1.2039812e-38 334 222
0.0200406 0.76200002 0.02404872 1.2224203e-38 335 222
0.02137664 0.76200002 0.02404872 1.2133806e-38 336 222
0.022772292 0.764 0.024111839 1.2133806e-38 337 222
0.024111839 0.764 0.024111839 1.1765746e-38 338 222
0.025518013 0.76599997 0.024174958 1.0567203e-38 339 222
0.026861066 0.76599997 0.024174958 8.638303e-39 340 222
0.028204117 0.76599997 0.024174958 8.4539117e-39 341 222
0.029547172 0.76599997 0.024174958 9.386672e-39 342 222
0.030890226 0.76599997 0.024174958 1.4734019e-38 343 222
-0.047927368 0.78100002 0.023279008 1.7332408e-38 285 223
-0.044783637 0.77399999 0.02307036 8.6653102e-39 287 223
-0.043370452 0.773 0.023040552 8.3804472e-39 288 223
-0.04190642 0.77100003 0.02298094 6.7209273e-39 289 223
-0.040344197 0.76700002 0.022861714 6.5282502e-39 290 223
-0.038948543 0.76599997 0.022831906 5.606654e-39 291 223
-0.037507307 0.764 0.022772292 6.7980071e-39 292 223
-0.036025736 0.76099998 0.022682872 7.3511809e-39 293 223
-0.034691449 0.76099998 0.022682872 8.2706121e-39 294 223
-0.033269498 0.759 0.02262326 8.5472004e-39 295 223
-0.031938717 0.759 0.02262326 9.0978406e-39 296 223
-0.030607941 0.759 0.02262326 9.3740674e-39 297 223
-0.029277159 0.759 0.02262326 9.8339595e-39 298 223
-0.027946379 0.759 0.02262326 1.0294579e-38 299 223
-0.026545467 0.75700003 0.022563647 1.0666942e-38 300 223
-0.025218192 0.75700003 0.022563647 1.1312311e-38 301 223
-0.02389092 0.75700003 0.022563647 1.2324643e-38 302 223
-0.022563647 0.75700003 0.022563647 1.2324643e-38 303 223
-0.021236373 0.75700003 0.022563647 1.2781651e-38 304 223
-0.019909101 0.75700003 0.022563647 1.2413229e-38 305 223
-0.018581826 0.75700003 0.022563647 1.2596544e-38 306 223
-0.017254554 0.75700003 0.022563647 1.2227761e-38 307 223
-0.015927281 0.75700003 0.022563647 1.2134143e-38 308 223
-0.014638579 0.759 0.02262326 1.1857198e-38 309 223
-0.013272733 0.75700003 0.022563647 1.1488068e-38 310 223
-0.01194546 0.75700003 0.022563647 1.1488068e-38 311 223
-0.010618187 0.75700003 0.022563647 1.0479679e-38 312 223
-0.0092663663 0.755 0.022504034 1.0295288e-38 313 223
-0.0079425992 0.755 0.022504034 9.5602397e-39 314 223
-0.0066188332 0.755 0.022504034 9.5602397e-39 315 223
-0.0052880533 0.75400001 0.022474226 8.9188345e-39 316 223
-0.00396604 0.75400001 0.022474226 8.9188345e-39 317 223
-0.0026440267 0.75400001 0.022474226 9.1010776e-39 318 223
-0.0013220133 0.75400001 0.022474226 8.9166849e-39 319 223
0 0.75400001 0.022474226 9.0978406e-39 320 223
0.0013237667 0.755 0.022504034 9.3740674e-39 321 223
0.0026475333 0.755 0.022504034 9.9261593e-39 322 223
0.0039712996 0.755 0.022504034 1.0202386e-38 323 223
0.0053090933 0.75700003 0.022563647 1.0477175e-38 324 223
0.0066538998 0.759 0.02262326 1.0477175e-38 325 223
0.0079846792 0.759 0.02262326 1.075232e-38 326 223
0.00931546 0.759 0.02262326 1.0660124e-38 327 223
0.01064624 0.759 0.02262326 1.1027818e-38 328 223
0.01197702 0.759 0.02262326 1.1211849e-38 329 223
0.013342866 0.76099998 0.022682872 1.1671383e-38 330 223
0.014638579 0.759 0.02262326 1.1671383e-38 331 223
0.015969358 0.759 0.02262326 1.2038726e-38 332 223
0.017345725 0.76099998 0.022682872 1.2314954e-38 333 223
0.01870456 0.76200002 0.02271268 1.2131286e-38 334 223
0.0200406 0.76200002 0.02271268 1.222384e-38 335 223
0.02137664 0.76200002 0.02271268 1.1766102e-38 336 223
0.022772292 0.764 0.022772292 1.1673906e-38 337 223
0.024111839 0.764 0.022772292 1.1212572e-38 338 223
0.025518013 0.76599997 0.022831906 1.0382812e-38 339 223
0.026861066 0.76599997 0.022831906 9.0971133e-39 340 223
0.028204117 0.76599997 0.022831906 8.4517439e-39 341 223
0.029547172 0.76599997 0.022831906 8.738053e-39 342 223
0.030890226 0.76599997 0.022831906 1.4085758e-38 343 223
-0.049233593 0.77999997 0.021881599 1.7423529e-38 284 224
-0.047865998 0.77999997 0.021881599 1.7239138e-38 285 224
-0.046259947 0.77600002 0.021769386 1.5305195e-38 286 224
-0.044783637 0.77399999 0.021713279 8.4827168e-39 287 224
-0.043370452 0.773 0.021685226 8.4744449e-39 288 224
-0.04190642 0.77100003 0.021629119 6.1691941e-39 289 224
-0.040344197 0.76700002 0.021516906 6.4357014e-39 290 224
-0.038948543 0.76599997 0.021488851 5.8825276e-39 291 224
-0.037507307 0.764 0.021432746 7.0745898e-39 292 224
-0.036073081 0.76200002 0.02137664 7.3511781e-39 293 224
-0.034691449 0.76099998 0.021348584 8.4553579e-39 294 224
-0.033269498 0.759 0.02129248 8.5475535e-39 295 224
-0.031938717 0.759 0.02129248 9.2807899e-39 296 224
-0.030607941 0.759 0.02129248 9.2807899e-39 297 224
-0.029277159 0.759 0.02129248 9.7392569e-39 298 224
-0.027872739 0.75700003 0.021236373 9.9240069e-39 299 224
-0.026545467 0.75700003 0.021236373 1.0111269e-38 300 224
-0.025218192 0.75700003 0.021236373 1.0848834e-38 301 224
-0.023827799 0.755 0.021180267 1.2322144e-38 302 224
-0.022504034 0.755 0.021180267 1.2690927e-38 303 224
-0.021236373 0.75700003 0.021236373 1.2967494e-38 304 224
-0.019909101 0.75700003 0.021236373 1.2690907e-38 305 224
-0.018532733 0.755 0.021180267 1.3056443e-38 306 224
-0.017208965 0.755 0.021180267 1.2595825e-38 307 224
-0.015885198 0.755 0.021180267 1.2500768e-38 308 224
-0.014600007 0.75700003 0.021236373 1.204015e-38 309 224
-0.013272733 0.75700003 0.021236373 1.1670667e-38 310 224
-0.01194546 0.75700003 0.021236373 1.1578471e-38 311 224
-0.010590133 0.755 0.021180267 1.066084e-38 312 224
-0.0092663663 0.755 0.021180267 1.0476809e-38 313 224
-0.0079425992 0.755 0.021180267 9.7414107e-39 314 224
-0.0066188332 0.755 0.021180267 9.6492151e-39 315 224
-0.0052880533 0.75400001 0.021152213 9.0045856e-39 316 224
-0.00396604 0.75400001 0.021152213 8.8201929e-39 317 224
-0.0026440267 0.75400001 0.021152213 9.0020731e-39 318 224
-0.0013220133 0.75400001 0.021152213 9.2782998e-39 319 224
0 0.75400001 0.021152213 9.7371074e-39 320 224
0.0013220133 0.75400001 0.021152213 9.829303e-39 321 224
0.0026440267 0.75400001 0.021152213 1.0106598e-38 322 224
0.00396604 0.75400001 0.021152213 1.0475379e-38 323 224
0.0052950666 0.755 0.021180267 1.0842718e-38 324 224
0.0066188332 0.755 0.021180267 1.0934913e-38 325 224
0.0079425992 0.755 0.021180267 1.0752673e-38 326 224
0.0092909131 0.75700003 0.021236373 1.0752673e-38 327 224
0.01064624 0.759 0.02129248 1.1395875e-38 328 224
0.01197702 0.759 0.02129248 1.1395875e-38 329 224
0.0133078 0.759 0.02129248 1.1854695e-38 330 224
0.014638579 0.759 0.02129248 1.1854695e-38 331 224
0.015969358 0.759 0.02129248 1.212949e-38 332 224
0.017345725 0.76099998 0.021348584 1.212949e-38 333 224
0.018680012 0.76099998 0.021348584 1.2039096e-38 334 224
0.0200406 0.76200002 0.02137664 1.2039096e-38 335 224
0.02137664 0.76200002 0.02137664 1.1398043e-38 336 224
0.022772292 0.764 0.021432746 1.1213291e-38 337 224
0.024111839 0.764 0.021432746 1.0935632e-38 338 224
0.025518013 0.76599997 0.021488851 1.0198067e-38 339 224
0.026861066 0.76599997 0.021488851 9.4641022e-39 340 224
0.02824094 0.76700002 0.021516906 8.1733634e-39 341 224
0.029547172 0.76599997 0.021488851 8.732651e-39 342 224
0.030890226 0.76599997 0.021488851 1.4540976e-38 343 224
0.032233275 0.76599997 0.021488851 1.5390164e-38 344 224
-0.049233593 0.77999997 0.020513998 1.7423529e-38 284 225
-0.047865998 0.77999997 0.020513998 1.696255e-38 285 225
-0.046140719 0.77399999 0.020356199 1.4661982e-38 286 225
-0.044725779 0.773 0.0203299 8.392319e-39 287 225
-0.043370452 0.773 0.0203299 8.5652056e-39 288 225
-0.041797712 0.76899999 0.0202247 5.6153042e-39 289 225
-0.040344197 0.76700002 0.020172099 6.436786e-39 290 225
-0.038948543 0.76599997 0.020145798 6.0676448e-39 291 225
-0.037507307 0.764 0.020093199 7.0756702e-39 292 225
-0.036073081 0.76200002 0.0200406 7.6288426e-39 293 225
-0.034737039 0.76200002 0.0200406 8.7312217e-39 294 225
-0.033357166 0.76099998 0.020014299 8.9156129e-39 295 225
-0.031938717 0.759 0.0199617 9.5570167e-39 296 225
-0.030607941 0.759 0.0199617 9.464821e-39 297 225
-0.029200014 0.75700003 0.019909101 9.7388912e-39 298 225
-0.027872739 0.75700003 0.019909101 9.7388912e-39 299 225
-0.026475333 0.755 0.0198565 1.0289544e-38 300 225
-0.025151566 0.755 0.0198565 1.038174e-38 301 225
-0.023827799 0.755 0.0198565 1.1118215e-38 302 225
-0.022504034 0.755 0.0198565 1.2039812e-38 303 225
-0.021236373 0.75700003 0.019909101 1.305287e-38 304 225
-0.019909101 0.75700003 0.019909101 1.4159217e-38 305 225
-0.018532733 0.755 0.0198565 1.3241204e-38 306 225
-0.017208965 0.755 0.0198565 1.2688389e-38 307 225
-0.015885198 0.755 0.0198565 1.2410371e-38 308 225
-0.014600007 0.75700003 0.019909101 1.1396578e-38 309 225
-0.013237666 0.755 0.0198565 1.1575953e-38 310 225
-0.011913899 0.755 0.0198565 1.1483398e-38 311 225
-0.010590133 0.755 0.0198565 1.0657606e-38 312 225
-0.0092663663 0.755 0.0198565 1.0657606e-38 313 225
-0.0079425992 0.755 0.0198565 9.646341e-39 314 225
-0.0066188332 0.755 0.0198565 9.3697542e-39 315 225
-0.0052880533 0.75400001 0.019830201 8.7258295e-39 316 225
-0.0039555198 0.75199997 0.0197776 8.3574071e-39 317 225
-0.0026370131 0.75199997 0.0197776 9.0013248e-39 318 225
-0.0013185065 0.75199997 0.0197776 1.0199868e-38 319 225
0 0.75400001 0.019830201 9.7421114e-39 320 225
0.0013220133 0.75400001 0.019830201 9.7421114e-39 321 225
0.0026440267 0.75400001 0.019830201 1.0477513e-38 322 225
0.00396604 0.75400001 0.019830201 1.0661544e-38 323 225
0.0052950666 0.755 0.0198565 1.0753021e-38 324 225
0.0066188332 0.755 0.0198565 1.0845575e-38 325 225
0.0079425992 0.755 0.0198565 1.1120727e-38 326 225
0.0092663663 0.755 0.0198565 1.1213281e-38 327 225
0.010618187 0.75700003 0.019909101 1.1488786e-38 328 225
0.01194546 0.75700003 0.019909101 1.1581342e-38 329 225
0.013272733 0.75700003 0.019909101 1.1854695e-38 330 225
0.014638579 0.759 0.0199617 1.1670664e-38 331 225
0.015969358 0.759 0.0199617 1.1946175e-38 332 225
0.017345725 0.76099998 0.020014299 1.1946175e-38 333 225
0.018680012 0.76099998 0.020014299 1.1763578e-38 334 225
0.020014299 0.76099998 0.020014299 1.1856134e-38 335 225
0.02137664 0.76200002 0.0200406 1.1306197e-38 336 225
0.02271268 0.76200002 0.0200406 1.0845219e-38 337 225
0.024111839 0.764 0.020093199 1.0475013e-38 338 225
0.025451386 0.764 0.020093199 1.0014036e-38 339 225
0.026861066 0.76599997 0.020145798 9.2793536e-39 340 225
0.02824094 0.76700002 0.020172099 7.989691e-39 341 225
0.029585747 0.76700002 0.020172099 9.5606138e-39 342 225
0.030930554 0.76700002 0.020172099 1.5091991e-38 343 225
0.03227536 0.76700002 0.020172099 1.5297252e-38 344 225
-0.046140719 0.77399999 0.018999118 1.4844929e-38 286 226
-0.044725779 0.773 0.018974574 8.7596582e-39 287 226
-0.043258239 0.77100003 0.018925481 8.5634064e-39 288 226
-0.041797712 0.76899999 0.018876385 5.3365593e-39 289 226
-0.040344197 0.76700002 0.018827293 6.6183004e-39 290 226
-0.038948543 0.76599997 0.018802745 6.5257461e-39 291 226
-0.037507307 0.764 0.018753653 6.9849165e-39 292 226
-0.036073081 0.76200002 0.01870456 7.3536976e-39 293 226
-0.034737039 0.76200002 0.01870456 8.3649601e-39 294 226
-0.033357166 0.76099998 0.018680012 8.3649601e-39 295 226
-0.031938717 0.759 0.01863092 9.3744205e-39 296 226
-0.030607941 0.759 0.01863092 9.2822248e-39 297 226
-0.029200014 0.75700003 0.018581826 9.9225566e-39 298 226
-0.027799098 0.755 0.018532733 9.8303596e-39 299 226
-0.026475333 0.755 0.018532733 1.0196998e-38 300 226
-0.025151566 0.755 0.018532733 1.0012605e-38 301 226
-0.023827799 0.755 0.018532733 1.065368e-38 302 226
-0.022504034 0.755 0.018532733 1.1114657e-38 303 226
-0.021180267 0.755 0.018532733 1.1579579e-38 304 226
-0.0198565 0.755 0.018532733 1.3239099e-38 305 226
-0.018532733 0.755 0.018532733 1.2874598e-38 306 226
-0.017208965 0.755 0.018532733 1.2597652e-38 307 226
-0.015885198 0.755 0.018532733 1.2500768e-38 308 226
-0.014561433 0.755 0.018532733 1.1486976e-38 309 226
-0.013237666 0.755 0.018532733 1.1574149e-38 310 226
-0.011913899 0.755 0.018532733 1.1481954e-38 311 226
-0.010590133 0.755 0.018532733 1.0655088e-38 312 226
-0.0092663663 0.755 0.018532733 1.0470338e-38 313 226
-0.00793208 0.75400001 0.018508185 9.7345738e-39 314 226
-0.0066100666 0.75400001 0.018508185 9.7345738e-39 315 226
-0.0052880533 0.75400001 0.018508185 9.0924386e-39 316 226
-0.0039555198 0.75199997 0.018459093 9.27719e-39 317 226
-0.0026370131 0.75199997 0.018459093 9.7399464e-39 318 226
-0.001315 0.75 0.018409999 1.075374e-38 319 226
0 0.75 0.018409999 1.0478215e-38 320 226
0.001315 0.75 0.018409999 1.0662603e-38 321 226
0.00263 0.75 0.018409999 1.0846992e-38 322 226
0.00396604 0.75400001 0.018508185 1.0939187e-38 323 226
0.0052880533 0.75400001 0.018508185 1.1306534e-38 324 226
0.0066100666 0.75400001 0.018508185 1.1490565e-38 325 226
0.00793208 0.75400001 0.018508185 1.1582409e-38 326 226
0.0092663663 0.755 0.018532733 1.1582409e-38 327 226
0.010590133 0.755 0.018532733 1.1673532e-38 328 226
0.011913899 0.755 0.018532733 1.1581337e-38 329 226
0.013272733 0.75700003 0.018581826 1.1947244e-38 330 226
0.014600007 0.75700003 0.018581826 1.1947244e-38 331 226
0.015927281 0.75700003 0.018581826 1.1855051e-38 332 226
0.017300138 0.759 0.01863092 1.1947246e-38 333 226
0.018680012 0.76099998 0.018680012 1.1396594e-38 334 226
0.020014299 0.76099998 0.018680012 1.1396594e-38 335 226
0.02137664 0.76200002 0.01870456 1.0937064e-38 336 226
0.02271268 0.76200002 0.01870456 1.0475726e-38 337 226
0.02404872 0.76200002 0.01870456 1.0197717e-38 338 226
0.025451386 0.764 0.018753653 9.7367388e-39 339 226
0.026861066 0.76599997 0.018802745 8.8208992e-39 340 226
0.028204117 0.76599997 0.018802745 8.2677254e-39 341 226
0.029585747 0.76700002 0.018827293 1.0115951e-38 342 226
0.030930554 0.76700002 0.018827293 1.5094515e-38 343 226
0.03227536 0.76700002 0.018827293 1.4836638e-38 344 226
0.033620168 0.76700002 0.018827293 1.6865301e-38 345 226
-0.044725779 0.773 0.017619247 9.1273646e-39 287 227
-0.043258239 0.77100003 0.01757366 8.2875328e-39 288 227
-0.041797712 0.76899999 0.017528072 4.9684901e-39 289 227
-0.040344197 0.76700002 0.017482487 6.2516703e-39 290 227
-0.038948543 0.76599997 0.017459691 6.2516703e-39 291 227
-0.037507307 0.764 0.017414106 6.8927237e-39 292 227
-0.036073081 0.76200002 0.01736852 7.2611461e-39 293 227
-0.034737039 0.76200002 0.01736852 8.3628077e-39 294 227
-0.033357166 0.76099998 0.017345725 8.9159815e-39 295 227
-0.031938717 0.759 0.017300138 9.2825976e-39 296 227
-0.030607941 0.759 0.017300138 9.2825976e-39 297 227
-0.029200014 0.75700003 0.017254554 1.0016556e-38 298 227
-0.027799098 0.755 0.017208965 9.9240013e-39 299 227
-0.026475333 0.755 0.017208965 1.0472491e-38 300 227
-0.025151566 0.755 0.017208965 1.0380294e-38 301 227
-0.023827799 0.755 0.017208965 1.0928798e-38 302 227
-0.022504034 0.755 0.017208965 1.1113189e-38 303 227
-0.021180267 0.755 0.017208965 1.1023515e-38 304 227
-0.0198565 0.755 0.017208965 1.1576689e-38 305 227
-0.018532733 0.755 0.017208965 1.240356e-38 306 227
-0.017208965 0.755 0.017208965 1.4155277e-38 307 227
-0.015885198 0.755 0.017208965 1.2317105e-38 308 227
-0.014561433 0.755 0.017208965 1.157954e-38 309 227
-0.013237666 0.755 0.017208965 1.1206809e-38 310 227
-0.011913899 0.755 0.017208965 1.0838385e-38 311 227
-0.010590133 0.755 0.017208965 1.0288098e-38 312 227
-0.0092540924 0.75400001 0.017186172 1.0103707e-38 313 227
-0.00793208 0.75400001 0.017186172 9.3675835e-39 314 227
-0.0066100666 0.75400001 0.017186172 9.9207573e-39 315 227
-0.0052880533 0.75400001 0.017186172 9.1885873e-39 316 227
-0.0039555198 0.75199997 0.017140586 1.0110185e-38 317 227
-0.0026370131 0.75199997 0.017140586 1.0205959e-38 318 227
-0.001315 0.75 0.017095 9.9293739e-39 319 227
0 0.75 0.017095 1.06619e-38 320 227
0.001315 0.75 0.017095 1.06619e-38 321 227
0.00263 0.75 0.017095 1.0939208e-38 322 227
0.0039555198 0.75199997 0.017140586 1.1400188e-38 323 227
0.0052880533 0.75400001 0.017186172 1.1494885e-38 324 227
0.0066100666 0.75400001 0.017186172 1.1587081e-38 325 227
0.00793208 0.75400001 0.017186172 1.1768954e-38 326 227
0.0092540924 0.75400001 0.017186172 1.1676758e-38 327 227
0.010590133 0.755 0.017208965 1.1857569e-38 328 227
0.011913899 0.755 0.017208965 1.1673538e-38 329 227
0.013237666 0.755 0.017208965 1.1855778e-38 330 227
0.014600007 0.75700003 0.017254554 1.2039809e-38 331 227
0.015927281 0.75700003 0.017254554 1.1764301e-38 332 227
0.017254554 0.75700003 0.017254554 1.1395519e-38 333 227
0.01863092 0.759 0.017300138 1.1396243e-38 334 227
0.020014299 0.76099998 0.017345725 1.1303689e-38 335 227
0.02137664 0.76200002 0.01736852 1.0843437e-38 336 227
0.02271268 0.76200002 0.01736852 1.0475013e-38 337 227
0.02404872 0.76200002 0.01736852 9.463026e-39 338 227
0.025451386 0.764 0.017414106 9.3708304e-39 339 227
0.026861066 0.76599997 0.017459691 8.9116473e-39 340 227
0.028204117 0.76599997 0.017459691 8.8194516e-39 341 227
0.029585747 0.76700002 0.017482487 1.076312e-38 342 227
0.031011207 0.76899999 0.017528072 1.518851e-38 343 227
0.032359518 0.76899999 0.017528072 1.4378184e-38 344 227
0.033707831 0.76899999 0.017528072 1.6314292e-38 345 227
-0.049233593 0.77999997 0.016411198 1.7331336e-38 284 228
-0.047865998 0.77999997 0.016411198 1.6778163e-38 285 228
-0.046259947 0.77600002 0.01632704 1.5395581e-38 286 228
-0.044725779 0.773 0.016263919 9.5872567e-39 287 228
-0.043258239 0.77100003 0.016221842 8.2886019e-39 288 228
-0.041797712 0.76899999 0.016179759 5.1539505e-39 289 228
-0.040344197 0.76700002 0.01613768 6.6186479e-39 290 228
-0.038948543 0.76599997 0.016116638 6.5264523e-39 291 228
-0.037507307 0.764 0.016074561 6.7079751e-39 292 228
-0.036073081 0.76200002 0.01603248 6.8001721e-39 293 228
-0.034691449 0.76099998 0.016011439 7.902931e-39 294 228
-0.033269498 0.759 0.015969358 9.1011154e-39 295 228
-0.031938717 0.759 0.015969358 9.6578667e-39 296 228
-0.030607941 0.759 0.015969358 9.1968886e-39 297 228
-0.029200014 0.75700003 0.015927281 1.0204534e-38 298 228
-0.027799098 0.755 0.015885198 9.6513605e-39 299 228
-0.026475333 0.755 0.015885198 1.0473565e-38 300 228
-0.025151566 0.755 0.015885198 9.828196e-39 301 228
-0.023827799 0.755 0.015885198 1.0286673e-38 302 228
-0.022504034 0.755 0.015885198 1.0655455e-38 303 228
-0.021180267 0.755 0.015885198 1.0654032e-38 304 228
-0.0198565 0.755 0.015885198 1.0377445e-38 305 228
-0.018532733 0.755 0.015885198 1.0288843e-38 306 228
-0.017208965 0.755 0.015885198 1.1487387e-38 307 228
-0.015885198 0.755 0.015885198 1.1763951e-38 308 228
-0.014561433 0.755 0.015885198 1.1210777e-38 309 228
-0.013237666 0.755 0.015885198 1.1116048e-38 310 228
-0.01189812 0.75400001 0.01586416 1.1116048e-38 311 228
-0.010576107 0.75400001 0.01586416 1.0565392e-38 312 228
-0.0092540924 0.75400001 0.01586416 1.0565392e-38 313 228
-0.00793208 0.75400001 0.01586416 9.9229055e-39 314 228
-0.0066100666 0.75400001 0.01586416 1.0015103e-38 315 228
-0.0052740262 0.75199997 0.015822079 1.0110171e-38 316 228
-0.0039555198 0.75199997 0.015822079 1.075554e-38 317 228
-0.0026370131 0.75199997 0.015822079 1.0665847e-38 318 228
-0.001315 0.75 0.01578 1.0573652e-38 319 228
0 0.75 0.01578 1.1028519e-38 320 228
0.001315 0.75 0.01578 1.1304746e-38 321 228
0.0026370131 0.75199997 0.015822079 1.0665497e-38 322 228
0.0039555198 0.75199997 0.015822079 1.1310866e-38 323 228
0.0052880533 0.75400001 0.01586416 1.1589229e-38 324 228
0.0066100666 0.75400001 0.01586416 1.1681424e-38 325 228
0.00793208 0.75400001 0.01586416 1.1955134e-38 326 228
0.0092540924 0.75400001 0.01586416 1.1678908e-38 327 228
0.010576107 0.75400001 0.01586416 1.1951197e-38 328 228
0.011913899 0.755 0.015885198 1.1766805e-38 329 228
0.013237666 0.755 0.015885198 1.1856497e-38 330 228
0.014561433 0.755 0.015885198 1.1672104e-38 331 228
0.015927281 0.75700003 0.015927281 1.148772e-38 332 228
0.017254554 0.75700003 0.015927281 1.1303329e-38 333 228
0.01863092 0.759 0.015969358 1.1027109e-38 334 228
0.0199617 0.759 0.015969358 1.0842718e-38 335 228
0.021348584 0.76099998 0.016011439 1.00162e-38 336 228
0.022682872 0.76099998 0.016011439 9.7396129e-39 337 228
0.02404872 0.76200002 0.01603248 9.0956882e-39 338 228
0.02538476 0.76200002 0.01603248 8.8191013e-39 339 228
0.026861066 0.76599997 0.016116638 7.5348295e-39 340 228
0.028204117 0.76599997 0.016116638 8.7333727e-39 341 228
0.029585747 0.76700002 0.01613768 1.1502123e-38 342 228
0.031011207 0.76899999 0.016179759 1.5374339e-38 343 228
0.032359518 0.76899999 0.016179759 1.3826451e-38 344 228
0.033707831 0.76899999 0.016179759 1.5854755e-38 345 228
0.035056144 0.76899999 0.016179759 1.6221376e-38 346 228
-0.050666075 0.78100002 0.015062887 1.7239138e-38 283 229
-0.049233593 0.77999997 0.0150436 1.6963274e-38 284 229
-0.047865998 0.77999997 0.0150436 1.6686686e-38 285 229
-0.046259947 0.77600002 0.014966453 1.5671811e-38 286 229
-0.044725779 0.773 0.014908593 9.4025095e-39 287 229
-0.043258239 0.77100003 0.01487002 8.1956874e-39 288 229
-0.041797712 0.76899999 0.014831445 5.9826322e-39 289 229
-0.040344197 0.76700002 0.014792874 6.7126428e-39 290 229
-0.038948543 0.76599997 0.014773586 6.1598278e-39 291 229
-0.037507307 0.764 0.014735013 6.522865e-39 292 229
-0.036073081 0.76200002 0.01469644 6.522865e-39 293 229
-0.034691449 0.76099998 0.014677152 7.4412438e-39 294 229
-0.033269498 0.759 0.014638579 1.0760286e-38 295 229
-0.031938717 0.759 0.014638579 1.1785594e-38 296 229
-0.030607941 0.759 0.014638579 1.1048029e-38 297 229
-0.029200014 0.75700003 0.014600007 1.039941e-38 298 229
-0.027799098 0.755 0.014561433 8.8324445e-39 299 229
-0.026475333 0.755 0.014561433 9.6481459e-39 300 229
-0.025151566 0.755 0.014561433 7.9896994e-39 301 229
-0.023827799 0.755 0.014561433 9.4590589e-39 302 229
-0.022504034 0.755 0.014561433 1.0287026e-38 303 229
-0.021180267 0.755 0.014561433 1.0194124e-38 304 229
-0.0198565 0.755 0.014561433 9.9182532e-39 305 229
-0.018532733 0.755 0.014561433 9.2754103e-39 306 229
-0.017208965 0.755 0.014561433 9.9197035e-39 307 229
-0.015885198 0.755 0.014561433 1.1114638e-38 308 229
-0.014561433 0.755 0.014561433 1.1575617e-38 309 229
-0.013237666 0.755 0.014561433 1.0750152e-38 310 229
-0.01189812 0.75400001 0.014542146 1.0750152e-38 311 229
-0.010576107 0.75400001 0.014542146 1.0476079e-38 312 229
-0.0092540924 0.75400001 0.014542146 1.0476079e-38 313 229
-0.00793208 0.75400001 0.014542146 1.0016903e-38 314 229
-0.0066100666 0.75400001 0.014542146 9.9247076e-39 315 229
-0.0052740262 0.75199997 0.014503572 1.0016906e-38 316 229
-0.0039555198 0.75199997 0.014503572 1.057008e-38 317 229
-0.00263 0.75 0.014465 1.0755543e-38 318 229
-0.001315 0.75 0.014465 1.1216162e-38 319 229
0 0.75 0.014465 1.0938853e-38 320 229
0.001315 0.75 0.014465 1.0754821e-38 321 229
0.00263 0.75 0.014465 1.075734e-38 322 229
0.003945 0.75 0.014465 1.1494905e-38 323 229
0.0052880533 0.75400001 0.014542146 1.1499201e-38 324 229
0.0066100666 0.75400001 0.014542146 1.1591397e-38 325 229
0.00793208 0.75400001 0.014542146 1.1956936e-38 326 229
0.0092540924 0.75400001 0.014542146 1.1772544e-38 327 229
0.010576107 0.75400001 0.014542146 1.1951917e-38 328 229
0.011913899 0.755 0.014561433 1.1583135e-38 329 229
0.013237666 0.755 0.014561433 1.1764301e-38 330 229
0.014561433 0.755 0.014561433 1.1488073e-38 331 229
0.015885198 0.755 0.014561433 1.1302973e-38 332 229
0.017254554 0.75700003 0.014600007 1.1118582e-38 333 229
0.01863092 0.759 0.014638579 1.0566853e-38 334 229
0.0199617 0.759 0.014638579 1.0382461e-38 335 229
0.021348584 0.76099998 0.014677152 9.4637491e-39 336 229
0.022682872 0.76099998 0.014677152 9.2793564e-39 337 229
0.02404872 0.76200002 0.01469644 8.6354303e-39 338 229
0.02538476 0.76200002 0.01469644 8.358842e-39 339 229
0.026861066 0.76599997 0.014773586 6.7979791e-39 340 229
0.02824094 0.76700002 0.014792874 9.6564024e-39 341 229
0.029585747 0.76700002 0.014792874 1.1875581e-38 342 229
0.031011207 0.76899999 0.014831445 1.4918037e-38 343 229
0.032359518 0.76899999 0.014831445 1.364242e-38 344 229
0.033707831 0.76899999 0.014831445 1.5301581e-38 345 229
-0.050666075 0.78100002 0.013693534 1.7146942e-38 283 230
-0.049233593 0.77999997 0.013675999 1.6871435e-38 284 230
-0.047743265 0.778 0.013640933 1.6778879e-38 285 230
-0.046140719 0.77399999 0.013570799 1.5580696e-38 286 230
-0.044725779 0.773 0.013553266 8.9422502e-39 287 230
-0.043258239 0.77100003 0.013518199 8.1946127e-39 288 230
-0.041797712 0.76899999 0.013483133 6.7194812e-39 289 230
-0.040344197 0.76700002 0.013448066 6.8051972e-39 290 230
-0.038948543 0.76599997 0.013430533 6.0672734e-39 291 230
-0.037507307 0.764 0.013395466 6.2480732e-39 292 230
-0.036073081 0.76200002 0.0133604 6.1558775e-39 293 230
-0.034691449 0.76099998 0.013342866 6.7051235e-39 294 230
-0.033357166 0.76099998 0.013342866 1.0024166e-38 295 230
-0.031938717 0.759 0.0133078 1.1603736e-38 296 230
-0.030607941 0.759 0.0133078 1.2894475e-38 297 230
-0.029200014 0.75700003 0.013272733 1.1794949e-38 298 230
-0.027872739 0.75700003 0.013272733 1.1425807e-38 299 230
-0.026475333 0.755 0.013237666 1.1599738e-38 300 230
-0.025151566 0.755 0.013237666 8.9260652e-39 301 230
-0.023827799 0.755 0.013237666 9.2811529e-39 302 230
-0.022504034 0.755 0.013237666 8.4513908e-39 303 230
-0.021180267 0.755 0.013237666 9.0920911e-39 304 230
-0.0198565 0.755 0.013237666 8.9080599e-39 305 230
-0.018532733 0.755 0.013237666 9.1835846e-39 306 230
-0.017208965 0.755 0.013237666 9.3672598e-39 307 230
-0.015885198 0.755 0.013237666 9.7381878e-39 308 230
-0.014561433 0.755 0.013237666 1.0106969e-38 309 230
-0.013237666 0.755 0.013237666 1.0383533e-38 310 230
-0.01189812 0.75400001 0.013220133 1.0383533e-38 311 230
-0.010576107 0.75400001 0.013220133 1.0108023e-38 312 230
-0.0092540924 0.75400001 0.013220133 1.0108023e-38 313 230
-0.00793208 0.75400001 0.013220133 9.8300064e-39 314 230
-0.0065925326 0.75199997 0.013185065 9.5537797e-39 315 230
-0.00526 0.75 0.01315 9.6474172e-39 316 230
-0.003945 0.75 0.01315 1.0477178e-38 317 230
-0.00263 0.75 0.01315 1.1125051e-38 318 230
-0.001315 0.75 0.01315 1.140128e-38 319 230
0 0.75 0.01315 1.0938855e-38 320 230
0.001315 0.75 0.01315 1.0570074e-38 321 230
0.0026264933 0.74900001 0.013132467 1.0571872e-38 322 230
0.0039397399 0.74900001 0.013132467 1.1217241e-38 323 230
0.00526 0.75 0.01315 1.131338e-38 324 230
0.006575 0.75 0.01315 1.1498132e-38 325 230
0.0079110395 0.75199997 0.013185065 1.1681074e-38 326 230
0.0092540924 0.75400001 0.013220133 1.1496683e-38 327 230
0.010576107 0.75400001 0.013220133 1.1951917e-38 328 230
0.01189812 0.75400001 0.013220133 1.1398743e-38 329 230
