# .PCD v.7 - Point Cloud Data file format
FIELDS x y z rgb imX imY
SIZE 4 4 4 4 4 4
TYPE F F F F F F
COUNT 1 1 1 1 1 1
WIDTH 846
HEIGHT 1
VIEWPOINT 0 0 0 1 0 0 0
POINTS 846
DATA ascii
0.006575 0.75 0.00789 1.2039076e-38 325 234
0.00789 0.75 0.00789 1.139409e-38 326 234
0.0092049995 0.75 0.00789 1.0933111e-38 327 234
0.01052 0.75 0.00789 1.0014405e-38 328 234
0.011835 0.75 0.00789 9.7374577e-39 329 234
0.01315 0.75 0.00789 8.4521181e-39 330 234
0.014465 0.75 0.00789 8.3599224e-39 331 234
0.01578 0.75 0.00789 7.1667826e-39 332 234
0.017095 0.75 0.00789 7.074587e-39 333 234
0.018459093 0.75199997 0.0079110395 6.5250132e-39 334 234
0.019830201 0.75400001 0.00793208 6.2484263e-39 335 234
0.021152213 0.75400001 0.00793208 5.9725597e-39 336 234
0.022504034 0.755 0.0079425992 5.880364e-39 337 234
0.02389092 0.75700003 0.0079636406 5.4226257e-39 338 234
0.025218192 0.75700003 0.0079636406 6.2523864e-39 339 234
0.026615599 0.759 0.0079846792 6.8145509e-39 340 234
0.027946379 0.759 0.0079846792 1.3728864e-38 341 234
0.029354304 0.76099998 0.0080057196 1.5577446e-38 342 234
0.030688593 0.76099998 0.0080057196 1.6499402e-38 343 234
-0.048349917 0.76599997 0.0067152665 1.7330257e-38 284 235
-0.046884131 0.764 0.006697733 1.5762932e-38 285 235
-0.045544583 0.764 0.006697733 1.3366571e-38 286 235
-0.044089317 0.76200002 0.0066801999 6.4515389e-39 287 235
-0.042697169 0.76099998 0.0066714329 7.4505638e-39 288 235
-0.041362885 0.76099998 0.0066714329 6.5286061e-39 289 235
-0.0399234 0.759 0.0066538998 9.1925572e-39 290 235
-0.038389232 0.755 0.0066188332 1.0114153e-38 291 235
-0.037016369 0.75400001 0.0066100666 1.1950513e-38 292 235
-0.035599679 0.75199997 0.0065925326 1.2503328e-38 293 235
-0.034189999 0.75 0.006575 1.2688794e-38 294 235
-0.032831166 0.74900001 0.0065662335 1.2228175e-38 295 235
-0.031517919 0.74900001 0.0065662335 1.0384626e-38 296 235
-0.030124018 0.74699998 0.0065486995 9.6470613e-39 297 235
-0.028814279 0.74699998 0.0065486995 8.9094921e-39 298 235
-0.027504537 0.74699998 0.0065486995 8.3570372e-39 299 235
-0.026159734 0.74599999 0.0065399334 7.8978597e-39 300 235
-0.024851745 0.74599999 0.0065399334 7.8978597e-39 301 235
-0.023543758 0.74599999 0.0065399334 7.7141971e-39 302 235
-0.022235774 0.74599999 0.0065399334 7.9897092e-39 303 235
-0.020927785 0.74599999 0.0065399334 8.1758927e-39 304 235
-0.019619798 0.74599999 0.0065399334 8.637231e-39 305 235
-0.018311813 0.74599999 0.0065399334 8.7305e-39 306 235
-0.017003827 0.74599999 0.0065399334 8.7305e-39 307 235
-0.015695838 0.74599999 0.0065399334 8.7312189e-39 308 235
-0.014387853 0.74599999 0.0065399334 8.4549907e-39 309 235
-0.013079867 0.74599999 0.0065399334 8.3635084e-39 310 235
-0.011771879 0.74599999 0.0065399334 8.2713127e-39 311 235
-0.010477919 0.74699998 0.0065486995 8.1801961e-39 312 235
-0.0091681797 0.74699998 0.0065486995 8.1801961e-39 313 235
-0.0078584393 0.74699998 0.0065486995 8.5468318e-39 314 235
-0.0065662335 0.74900001 0.0065662335 8.8234173e-39 315 235
-0.0052529867 0.74900001 0.0065662335 9.5584614e-39 316 235
-0.0039397399 0.74900001 0.0065662335 1.001944e-38 317 235
-0.0026264933 0.74900001 0.0065662335 1.112038e-38 318 235
-0.0013132467 0.74900001 0.0065662335 1.1212575e-38 319 235
0 0.74900001 0.0065662335 1.1855048e-38 320 235
0.0013132467 0.74900001 0.0065662335 1.2039799e-38 321 235
0.0026264933 0.74900001 0.0065662335 1.2224544e-38 322 235
0.0039397399 0.74900001 0.0065662335 1.1947597e-38 323 235
0.0052529867 0.74900001 0.0065662335 1.1577036e-38 324 235
0.006575 0.75 0.006575 1.1300808e-38 325 235
0.00789 0.75 0.006575 1.0933117e-38 326 235
0.0092049995 0.75 0.006575 1.0748367e-38 327 235
0.01052 0.75 0.006575 9.188237e-39 328 235
0.011835 0.75 0.006575 8.9116501e-39 329 235
0.01315 0.75 0.006575 8.3599224e-39 330 235
0.014465 0.75 0.006575 8.3599224e-39 331 235
0.01578 0.75 0.006575 7.1671386e-39 332 235
0.017095 0.75 0.006575 7.1671386e-39 333 235
0.018459093 0.75199997 0.0065925326 6.1573097e-39 334 235
0.019830201 0.75400001 0.0066100666 5.880364e-39 335 235
0.021152213 0.75400001 0.0066100666 5.5126689e-39 336 235
0.022504034 0.755 0.0066188332 5.6974203e-39 337 235
0.02389092 0.75700003 0.0066363667 5.6070169e-39 338 235
0.025284819 0.759 0.0066538998 5.6995713e-39 339 235
0.026615599 0.759 0.0066538998 6.074818e-39 340 235
0.028020019 0.76099998 0.0066714329 1.3634501e-38 341 235
0.029354304 0.76099998 0.0066714329 1.5023909e-38 342 235
0.030688593 0.76099998 0.0066714329 1.6590875e-38 343 235
-0.048349917 0.76599997 0.0053722127 1.7238788e-38 284 236
-0.046884131 0.764 0.0053581866 1.5302679e-38 285 236
-0.045544583 0.764 0.0053581866 1.2907032e-38 286 236
-0.044089317 0.76200002 0.0053441599 6.3611425e-39 287 236
-0.042697169 0.76099998 0.0053371461 7.6367487e-39 288 236
-0.041362885 0.76099998 0.0053371461 6.4382055e-39 289 236
-0.0399234 0.759 0.0053231199 8.4575089e-39 290 236
-0.038338386 0.75400001 0.0052880533 9.1950739e-39 291 236
-0.036918186 0.75199997 0.0052740262 1.1857961e-38 292 236
-0.035505001 0.75 0.00526 1.3425646e-38 293 236
-0.034144413 0.74900001 0.0052529867 1.2874987e-38 294 236
-0.032831166 0.74900001 0.0052529867 1.2321814e-38 295 236
-0.031433757 0.74699998 0.0052389596 1.1121828e-38 296 236
-0.030124018 0.74699998 0.0052389596 1.0384263e-38 297 236
-0.028775707 0.74599999 0.0052319462 9.3704576e-39 298 236
-0.027467718 0.74599999 0.0052319462 8.7250896e-39 299 236
-0.026089599 0.74400002 0.0052179201 7.8060172e-39 300 236
-0.02478512 0.74400002 0.0052179201 8.0815237e-39 301 236
-0.023480639 0.74400002 0.0052179201 7.9896882e-39 302 236
-0.022176161 0.74400002 0.0052179201 8.5414228e-39 303 236
-0.02087168 0.74400002 0.0052179201 8.4538963e-39 304 236
-0.019567199 0.74400002 0.0052179201 9.098907e-39 305 236
-0.01826272 0.74400002 0.0052179201 9.0085092e-39 306 236
-0.016912652 0.74199998 0.0052038929 8.824118e-39 307 236
-0.015611678 0.74199998 0.0052038929 8.9141626e-39 308 236
-0.014387853 0.74599999 0.0052319462 8.6379344e-39 309 236
-0.0130448 0.74400002 0.0052179201 8.4539089e-39 310 236
-0.011740319 0.74400002 0.0052179201 8.4539089e-39 311 236
-0.010463892 0.74599999 0.0052319462 8.4539089e-39 312 236
-0.0091559067 0.74599999 0.0052319462 8.2698778e-39 313 236
-0.0078479191 0.74599999 0.0052319462 8.7287007e-39 314 236
-0.0065399334 0.74599999 0.0052319462 8.8208964e-39 315 236
-0.0052389596 0.74699998 0.0052389596 9.371552e-39 316 236
-0.0039292197 0.74699998 0.0052389596 9.8321714e-39 317 236
-0.0026194798 0.74699998 0.0052389596 1.102603e-38 318 236
-0.0013097399 0.74699998 0.0052389596 1.1487367e-38 319 236
0 0.74699998 0.0052389596 1.1764655e-38 320 236
0.0013132467 0.74900001 0.0052529867 1.185685e-38 321 236
0.0026264933 0.74900001 0.0052529867 1.2039799e-38 322 236
0.0039397399 0.74900001 0.0052529867 1.139443e-38 323 236
0.0052529867 0.74900001 0.0052529867 1.1391925e-38 324 236
0.0065662335 0.74900001 0.0052529867 1.1115698e-38 325 236
0.0078794798 0.74900001 0.0052529867 1.0289544e-38 326 236
0.0092049995 0.75 0.00526 1.0105151e-38 327 236
0.01052 0.75 0.00526 9.1871552e-39 328 236
0.011835 0.75 0.00526 8.9109284e-39 329 236
0.01315 0.75 0.00526 7.9925776e-39 330 236
0.014465 0.75 0.00526 8.0851334e-39 331 236
0.01578 0.75 0.00526 7.0763863e-39 332 236
0.017140586 0.75199997 0.0052740262 6.9841907e-39 333 236
0.018459093 0.75199997 0.0052740262 6.0647553e-39 334 236
0.019830201 0.75400001 0.0052880533 5.880364e-39 335 236
0.021152213 0.75400001 0.0052880533 5.3304301e-39 336 236
0.022504034 0.755 0.0052950666 5.3304301e-39 337 236
0.023954039 0.759 0.0053231199 5.3343831e-39 338 236
0.025284819 0.759 0.0053231199 5.1496317e-39 339 236
0.026685731 0.76099998 0.0053371461 5.7953543e-39 340 236
0.028020019 0.76099998 0.0053371461 1.3816374e-38 341 236
0.029354304 0.76099998 0.0053371461 1.4931354e-38 342 236
0.030688593 0.76099998 0.0053371461 1.6406844e-38 343 236
-0.048349917 0.76599997 0.0040291594 1.6778884e-38 284 237
-0.046884131 0.764 0.0040186401 1.4381799e-38 285 237
-0.045425359 0.76200002 0.0040081199 1.244641e-38 286 237
-0.044089317 0.76200002 0.0040081199 6.4536941e-39 287 237
-0.042697169 0.76099998 0.0040028598 7.5477943e-39 288 237
-0.041254178 0.759 0.0039923396 6.3496098e-39 289 237
-0.039818201 0.75700003 0.0039818203 8.3649601e-39 290 237
-0.038338386 0.75400001 0.00396604 8.5493514e-39 291 237
-0.036918186 0.75199997 0.0039555198 1.0661938e-38 292 237
-0.035505001 0.75 0.003945 1.14917e-38 293 237
-0.034144413 0.74900001 0.0039397399 1.2408617e-38 294 237
-0.032743499 0.74699998 0.0039292197 1.2316421e-38 295 237
-0.031433757 0.74699998 0.0039292197 1.1212945e-38 296 237
-0.030124018 0.74699998 0.0039292197 1.0659771e-38 297 237
-0.028775707 0.74599999 0.0039239596 9.6473976e-39 298 237
-0.027467718 0.74599999 0.0039239596 8.9098368e-39 299 237
-0.026089599 0.74400002 0.0039134403 8.2651947e-39 300 237
-0.02478512 0.74400002 0.0039134403 8.3573889e-39 301 237
-0.023480639 0.74400002 0.0039134403 8.2666296e-39 302 237
-0.022176161 0.74400002 0.0039134403 8.9119976e-39 303 237
-0.02087168 0.74400002 0.0039134403 8.6411588e-39 304 237
-0.019567199 0.74400002 0.0039134403 9.1017768e-39 305 237
-0.01826272 0.74400002 0.0039134403 9.3769246e-39 306 237
-0.016912652 0.74199998 0.0039029196 9.284729e-39 307 237
-0.015611678 0.74199998 0.0039029196 8.8244739e-39 308 237
-0.01434928 0.74400002 0.0039134403 8.8244739e-39 309 237
-0.013009733 0.74199998 0.0039029196 8.5486073e-39 310 237
-0.01170876 0.74199998 0.0039029196 8.4564102e-39 311 237
-0.010463892 0.74599999 0.0039239596 8.3631426e-39 312 237
-0.0091559067 0.74599999 0.0039239596 8.270947e-39 313 237
-0.0078479191 0.74599999 0.0039239596 8.7286979e-39 314 237
-0.0065399334 0.74599999 0.0039239596 8.7286979e-39 315 237
-0.0052319462 0.74599999 0.0039239596 9.3708304e-39 316 237
-0.0039239596 0.74599999 0.0039239596 9.8318085e-39 317 237
-0.0026159731 0.74599999 0.0039239596 1.0567203e-38 318 237
-0.0013097399 0.74699998 0.0039292197 1.1028181e-38 319 237
0 0.74699998 0.0039292197 1.1856131e-38 320 237
0.0013097399 0.74699998 0.0039292197 1.1856131e-38 321 237
0.0026194798 0.74699998 0.0039292197 1.1945446e-38 322 237
0.0039292197 0.74699998 0.0039292197 1.1669219e-38 323 237
0.0052529867 0.74900001 0.0039397399 1.1209328e-38 324 237
0.0065662335 0.74900001 0.0039397399 1.0840906e-38 325 237
0.0078794798 0.74900001 0.0039397399 9.8303596e-39 326 237
0.0091927266 0.74900001 0.0039397399 9.5541328e-39 327 237
0.01052 0.75 0.003945 8.6357834e-39 328 237
0.011835 0.75 0.003945 8.5435878e-39 329 237
0.01315 0.75 0.003945 7.5344792e-39 330 237
0.014465 0.75 0.003945 7.4419248e-39 331 237
0.015822079 0.75199997 0.0039555198 6.7086786e-39 332 237
0.017140586 0.75199997 0.0039555198 6.6164829e-39 333 237
0.018459093 0.75199997 0.0039555198 5.9736345e-39 334 237
0.019830201 0.75400001 0.00396604 5.6048519e-39 335 237
0.021180267 0.755 0.0039712996 5.3304273e-39 336 237
0.022504034 0.755 0.0039712996 5.5151772e-39 337 237
0.023954039 0.759 0.0039923396 5.2439798e-39 338 237
0.025284819 0.759 0.0039923396 4.8751958e-39 339 237
0.026685731 0.76099998 0.0040028598 6.4392789e-39 340 237
0.028020019 0.76099998 0.0040028598 1.4184072e-38 341 237
0.029354304 0.76099998 0.0040028598 1.4839514e-38 342 237
-0.048349917 0.76599997 0.0026861064 1.6593766e-38 284 238
-0.046884131 0.764 0.0026790933 1.4288874e-38 285 238
-0.045425359 0.76200002 0.00267208 1.2441725e-38 286 238
-0.044031456 0.76099998 0.0026685731 7.1865746e-39 287 238
-0.042697169 0.76099998 0.0026685731 7.6407116e-39 288 238
-0.041254178 0.759 0.00266156 6.5343654e-39 289 238
-0.039818201 0.75700003 0.0026545466 7.8135884e-39 290 238
-0.038389232 0.755 0.0026475333 7.5366414e-39 291 238
-0.036918186 0.75199997 0.0026370131 9.2808053e-39 292 238
-0.03545766 0.74900001 0.0026264933 9.8336204e-39 293 238
-0.034053236 0.74699998 0.0026194798 1.1209355e-38 294 238
-0.032743499 0.74699998 0.0026194798 1.1393386e-38 295 238
-0.031433757 0.74699998 0.0026194798 1.0934913e-38 296 238
-0.03008369 0.74599999 0.0026159731 1.0842718e-38 297 238
-0.028775707 0.74599999 0.0026159731 1.0291322e-38 298 238
-0.027467718 0.74599999 0.0026159731 9.7381499e-39 299 238
-0.026089599 0.74400002 0.00260896 9.3704492e-39 300 238
-0.02478512 0.74400002 0.00260896 9.3704492e-39 301 238
-0.023480639 0.74400002 0.00260896 8.8215886e-39 302 238
-0.022116546 0.74199998 0.0026019465 9.3744023e-39 303 238
-0.020815572 0.74199998 0.0026019465 9.1936095e-39 304 238
-0.019567199 0.74400002 0.00260896 9.3776421e-39 305 238
-0.01826272 0.74400002 0.00260896 9.5613145e-39 306 238
-0.016912652 0.74199998 0.0026019465 9.4691188e-39 307 238
-0.015611678 0.74199998 0.0026019465 9.1939627e-39 308 238
-0.014310705 0.74199998 0.0026019465 9.1939627e-39 309 238
-0.013009733 0.74199998 0.0026019465 8.8269752e-39 310 238
-0.01170876 0.74199998 0.0026019465 8.6422252e-39 311 238
-0.01043584 0.74400002 0.00260896 8.5489604e-39 312 238
-0.0091313599 0.74400002 0.00260896 8.3645677e-39 313 238
-0.0078268806 0.74400002 0.00260896 8.6379344e-39 314 238
-0.0065223998 0.74400002 0.00260896 8.6379344e-39 315 238
-0.0052319462 0.74599999 0.0026159731 9.1893104e-39 316 238
-0.0039239596 0.74599999 0.0026159731 9.3737016e-39 317 238
-0.0026159731 0.74599999 0.0026159731 1.0108023e-38 318 238
-0.0013079866 0.74599999 0.0026159731 1.0476807e-38 319 238
0 0.74699998 0.0026194798 1.1211493e-38 320 238
0.0013097399 0.74699998 0.0026194798 1.1027462e-38 321 238
0.0026194798 0.74699998 0.0026194798 1.1393724e-38 322 238
0.0039292197 0.74699998 0.0026194798 1.1301527e-38 323 238
0.0052389596 0.74699998 0.0026194798 1.0841625e-38 324 238
0.0065662335 0.74900001 0.0026264933 1.0565039e-38 325 238
0.0078794798 0.74900001 0.0026264933 9.5548517e-39 326 238
0.0091927266 0.74900001 0.0026264933 9.3701017e-39 327 238
0.01052 0.75 0.00263 8.1773262e-39 328 238
0.011835 0.75 0.00263 7.9929336e-39 329 238
0.01315 0.75 0.00263 7.2582594e-39 330 238
0.014465 0.75 0.00263 7.1660638e-39 331 238
0.01578 0.75 0.00263 6.4328147e-39 332 238
0.017140586 0.75199997 0.0026370131 6.2484235e-39 333 238
0.018459093 0.75199997 0.0026370131 5.8810829e-39 334 238
0.019830201 0.75400001 0.0026440267 5.6048547e-39 335 238
0.021180267 0.755 0.0026475333 5.1471178e-39 336 238
0.022563647 0.75700003 0.0026545466 5.6077358e-39 337 238
0.023954039 0.759 0.00266156 5.2443455e-39 338 238
0.025284819 0.759 0.00266156 5.2443455e-39 339 238
0.026685731 0.76099998 0.0026685731 6.5336382e-39 340 238
0.028020019 0.76099998 0.0026685731 1.390929e-38 341 238
0.029354304 0.76099998 0.0026685731 1.5022107e-38 342 238
-0.048349917 0.76599997 0.0013430532 1.6777437e-38 284 239
-0.046761397 0.76200002 0.00133604 1.4749133e-38 285 239
-0.045365743 0.76099998 0.0013342865 1.3087098e-38 286 239
-0.044031456 0.76099998 0.0013342865 6.9096304e-39 287 239
-0.042584959 0.759 0.00133078 7.2719361e-39 288 239
-0.041254178 0.759 0.00133078 6.3496211e-39 289 239
-0.039818201 0.75700003 0.0013272733 7.4458919e-39 290 239
-0.038389232 0.755 0.0013237667 6.5239342e-39 291 239
-0.036918186 0.75199997 0.0013185065 8.3577728e-39 292 239
-0.035362978 0.74699998 0.0013097399 8.6343611e-39 293 239
-0.034053236 0.74699998 0.0013097399 1.0012252e-38 294 239
-0.032743499 0.74699998 0.0013097399 1.0288841e-38 295 239
-0.031391677 0.74599999 0.0013079866 1.0932042e-38 296 239
-0.03008369 0.74599999 0.0013079866 1.1208628e-38 297 239
-0.028775707 0.74599999 0.0013079866 1.0292414e-38 298 239
-0.027394081 0.74400002 0.00130448 1.0200218e-38 299 239
-0.026089599 0.74400002 0.00130448 9.4655245e-39 300 239
-0.02478512 0.74400002 0.00130448 9.4655245e-39 301 239
-0.023480639 0.74400002 0.00130448 9.1900096e-39 302 239
-0.022116546 0.74199998 0.0013009732 9.4669566e-39 303 239
-0.020815572 0.74199998 0.0013009732 9.6509878e-39 304 239
-0.0195146 0.74199998 0.0013009732 9.7431834e-39 305 239
-0.018213626 0.74199998 0.0013009732 9.5598837e-39 306 239
-0.016912652 0.74199998 0.0013009732 9.7442764e-39 307 239
-0.015611678 0.74199998 0.0013009732 9.2861723e-39 308 239
-0.014310705 0.74199998 0.0013009732 9.3783679e-39 309 239
-0.013009733 0.74199998 0.0013009732 9.1017768e-39 310 239
-0.01170876 0.74199998 0.0013009732 8.7333545e-39 311 239
-0.010407786 0.74199998 0.0013009732 8.7319195e-39 312 239
-0.009106813 0.74199998 0.0013009732 8.547887e-39 313 239
-0.0078058392 0.74199998 0.0013009732 8.6361338e-39 314 239
-0.0065048663 0.74199998 0.0013009732 8.7283294e-39 315 239
-0.0052179201 0.74400002 0.00130448 9.1871552e-39 316 239
-0.0039134403 0.74400002 0.00130448 9.3719051e-39 317 239
-0.00260896 0.74400002 0.00130448 9.4633819e-39 318 239
-0.00130448 0.74400002 0.00130448 9.7396101e-39 319 239
0 0.74599999 0.0013079866 1.0747285e-38 320 239
0.0013097399 0.74699998 0.0013097399 1.1207903e-38 321 239
0.0026159731 0.74599999 0.0013079866 1.1299373e-38 322 239
0.0039239596 0.74599999 0.0013079866 1.1299373e-38 323 239
0.0052389596 0.74699998 0.0013097399 1.0198064e-38 324 239
0.0065486995 0.74699998 0.0013097399 1.0014033e-38 325 239
0.0078794798 0.74900001 0.0013132467 9.0038457e-39 326 239
0.0091927266 0.74900001 0.0013132467 8.9116501e-39 327 239
0.010505973 0.74900001 0.0013132467 7.5344764e-39 328 239
0.01181922 0.74900001 0.0013132467 7.5344764e-39 329 239
0.01315 0.75 0.001315 6.8919936e-39 330 239
0.014465 0.75 0.001315 6.7079625e-39 331 239
0.01578 0.75 0.001315 6.1573097e-39 332 239
0.017140586 0.75199997 0.0013185065 5.880364e-39 333 239
0.018508185 0.75400001 0.0013220133 5.6048547e-39 334 239
0.019830201 0.75400001 0.0013220133 5.5126591e-39 335 239
0.021236373 0.75700003 0.0013272733 5.4226229e-39 336 239
0.02262326 0.759 0.00133078 5.7917641e-39 337 239
0.024017159 0.76099998 0.0013342865 5.8882716e-39 338 239
0.025351444 0.76099998 0.0013342865 5.3350992e-39 339 239
0.026685731 0.76099998 0.0013342865 6.5350717e-39 340 239
0.028020019 0.76099998 0.0013342865 1.4002558e-38 341 239
-0.046761397 0.76200002 -0 1.5578894e-38 285 240
-0.045365743 0.76099998 -0 1.3733186e-38 286 240
-0.044031456 0.76099998 -0 7.0025449e-39 287 240
-0.042584959 0.759 -0 7.4555987e-39 288 240
-0.041254178 0.759 -0 6.9024249e-39 289 240
-0.039818201 0.75700003 -0 7.2636488e-39 290 240
-0.038338386 0.75400001 -0 6.4338867e-39 291 240
-0.036918186 0.75199997 -0 6.9809663e-39 292 240
-0.035362978 0.74699998 -0 7.1657163e-39 293 240
-0.034053236 0.74699998 -0 8.9084397e-39 294 240
-0.032743499 0.74699998 -0 9.2775809e-39 295 240
-0.031391677 0.74599999 -0 1.0014405e-38 296 240
-0.03008369 0.74599999 -0 1.0382827e-38 297 240
-0.02869856 0.74400002 -0 1.0475729e-38 298 240
-0.027394081 0.74400002 -0 1.0199502e-38 299 240
-0.026089599 0.74400002 -0 9.7399604e-39 300 240
-0.024718491 0.74199998 -0 9.3715366e-39 301 240
-0.023417519 0.74199998 -0 8.9116501e-39 302 240
-0.022116546 0.74199998 -0 8.9116501e-39 303 240
-0.020815572 0.74199998 -0 8.5457542e-39 304 240
-0.0195146 0.74199998 -0 8.8223425e-39 305 240
-0.018213626 0.74199998 -0 8.9163346e-39 306 240
-0.016912652 0.74199998 -0 9.0085302e-39 307 240
-0.015611678 0.74199998 -0 9.2858248e-39 308 240
-0.014310705 0.74199998 -0 9.1010748e-39 309 240
-0.013009733 0.74199998 -0 9.5595152e-39 310 240
-0.01170876 0.74199998 -0 9.3751239e-39 311 240
-0.010407786 0.74199998 -0 9.1896593e-39 312 240
-0.009106813 0.74199998 -0 8.7286825e-39 313 240
-0.0078058392 0.74199998 -0 8.6357834e-39 314 240
-0.0065048663 0.74199998 -0 8.6357834e-39 315 240
-0.0052038929 0.74199998 -0 8.6361492e-39 316 240
-0.0039029196 0.74199998 -0 8.6361492e-39 317 240
-0.0026019465 0.74199998 -0 9.0034954e-39 318 240
-0.00130448 0.74400002 -0 9.095691e-39 319 240
0 0.74400002 -0 9.4626785e-39 320 240
0.0013079866 0.74599999 -0 9.4626785e-39 321 240
0.0026159731 0.74599999 -0 9.8307365e-39 322 240
0.0039239596 0.74599999 -0 9.8307365e-39 323 240
0.0052319462 0.74599999 -0 9.9222063e-39 324 240
0.0065486995 0.74699998 -0 9.7378136e-39 325 240
0.0078584393 0.74699998 -0 9.1868048e-39 326 240
0.0091927266 0.74900001 -0 8.9105781e-39 327 240
0.010505973 0.74900001 -0 7.5341232e-39 328 240
0.01181922 0.74900001 -0 7.4419276e-39 329 240
0.013132467 0.74900001 -0 6.616127e-39 330 240
0.014465 0.75 -0 6.616127e-39 331 240
0.01578 0.75 -0 5.7899663e-39 332 240
0.017140586 0.75199997 -0 5.6977706e-39 333 240
0.018508185 0.75400001 -0 5.513378e-39 334 240
0.019830201 0.75400001 -0 5.605575e-39 335 240
0.02129248 0.759 -0 5.3315119e-39 336 240
0.02262326 0.759 -0 5.8843269e-39 337 240
0.024017159 0.76099998 -0 5.5212953e-39 338 240
0.025351444 0.76099998 -0 5.7053264e-39 339 240
0.026685731 0.76099998 -0 6.9038528e-39 340 240
-0.046761397 0.76200002 -0.00133604 1.6039519e-38 285 241
-0.045425359 0.76200002 -0.00133604 1.4195603e-38 286 241
-0.044031456 0.76099998 -0.0013342865 7.0968985e-39 287 241
-0.042584959 0.759 -0.00133078 7.4573965e-39 288 241
-0.041254178 0.759 -0.00133078 6.7198315e-39 289 241
-0.039818201 0.75700003 -0.0013272733 6.898462e-39 290 241
-0.038338386 0.75400001 -0.0013220133 6.0687014e-39 291 241
-0.036918186 0.75199997 -0.0013185065 6.8905559e-39 292 241
-0.035362978 0.74699998 -0.0013097399 6.6136103e-39 293 241
-0.034053236 0.74699998 -0.0013097399 7.7149216e-39 294 241
-0.032699663 0.74599999 -0.0013079866 8.1758997e-39 295 241
-0.031391677 0.74599999 -0.0013079866 9.7367388e-39 296 241
-0.03008369 0.74599999 -0.0013079866 1.0289913e-38 297 241
-0.02869856 0.74400002 -0.00130448 9.9243545e-39 298 241
-0.027394081 0.74400002 -0.00130448 9.8321588e-39 299 241
-0.026019465 0.74199998 -0.0013009732 9.2786347e-39 300 241
-0.024718491 0.74199998 -0.0013009732 8.7254609e-39 301 241
-0.023385961 0.741 -0.0012992199 8.5407138e-39 302 241
-0.02208674 0.741 -0.0012992199 8.6325521e-39 303 241
-0.020815572 0.74199998 -0.0013009732 8.6329178e-39 304 241
-0.0195146 0.74199998 -0.0013009732 9.1857328e-39 305 241
-0.018213626 0.74199998 -0.0013009732 8.8205461e-39 306 241
-0.016912652 0.74199998 -0.0013009732 9.2815242e-39 307 241
-0.015611678 0.74199998 -0.0013009732 9.191474e-39 308 241
-0.014310705 0.74199998 -0.0013009732 9.468421e-39 309 241
-0.013009733 0.74199998 -0.0013009732 9.4691216e-39 310 241
-0.01170876 0.74199998 -0.0013009732 9.4691216e-39 311 241
-0.010407786 0.74199998 -0.0013009732 9.099616e-39 312 241
-0.009106813 0.74199998 -0.0013009732 8.6386379e-39 313 241
-0.0078058392 0.74199998 -0.0013009732 8.819802e-39 314 241
-0.0065048663 0.74199998 -0.0013009732 8.6357708e-39 315 241
-0.0052038929 0.74199998 -0.0013009732 8.6354177e-39 316 241
-0.0039029196 0.74199998 -0.0013009732 8.8194488e-39 317 241
-0.0026019465 0.74199998 -0.0013009732 9.003124e-39 318 241
-0.00130448 0.74400002 -0.00130448 9.003124e-39 319 241
0 0.74400002 -0.00130448 9.5537797e-39 320 241
0.0013079866 0.74599999 -0.0013079866 9.7378108e-39 321 241
0.0026159731 0.74599999 -0.0013079866 9.7378108e-39 322 241
0.0039239596 0.74599999 -0.0013079866 9.8300064e-39 323 241
0.0052319462 0.74599999 -0.0013079866 9.3708332e-39 324 241
0.0065486995 0.74699998 -0.0013097399 9.2786375e-39 325 241
0.0078584393 0.74699998 -0.0013097399 8.4528397e-39 326 241
0.0091927266 0.74900001 -0.0013132467 8.3606441e-39 327 241
0.010505973 0.74900001 -0.0013132467 7.0760191e-39 328 241
0.01181922 0.74900001 -0.0013132467 6.9838235e-39 329 241
0.013132467 0.74900001 -0.0013132467 6.4331707e-39 330 241
0.014465 0.75 -0.001315 6.2484207e-39 331 241
0.01578 0.75 -0.001315 5.6977678e-39 332 241
0.017140586 0.75199997 -0.0013185065 5.5133752e-39 333 241
0.018508185 0.75400001 -0.0013220133 5.3289881e-39 334 241
0.0198565 0.755 -0.0013237667 5.605575e-39 335 241
0.021236373 0.75700003 -0.0013272733 5.1485597e-39 336 241
0.02262326 0.759 -0.00133078 5.6095379e-39 337 241
0.024017159 0.76099998 -0.0013342865 6.347456e-39 338 241
0.025351444 0.76099998 -0.0013342865 6.5318473e-39 339 241
0.026685731 0.76099998 -0.0013342865 7.5492222e-39 340 241
-0.045425359 0.76200002 -0.00267208 1.4381072e-38 286 242
-0.044031456 0.76099998 -0.0026685731 7.742628e-39 287 242
-0.042584959 0.759 -0.00266156 7.8265322e-39 288 242
-0.041254178 0.759 -0.00266156 7.0886084e-39 289 242
-0.039712999 0.755 -0.0026475333 7.0839253e-39 290 242
-0.038338386 0.75400001 -0.0026440267 6.0701335e-39 291 242
-0.036918186 0.75199997 -0.0026370131 5.9732785e-39 292 242
-0.035362978 0.74699998 -0.0026194798 5.6970518e-39 293 242
-0.034053236 0.74699998 -0.0026194798 6.8884077e-39 294 242
-0.032699663 0.74599999 -0.0026159731 7.4412213e-39 295 242
-0.031391677 0.74599999 -0.0026159731 8.5457542e-39 296 242
-0.03008369 0.74599999 -0.0026159731 8.9148969e-39 297 242
-0.02869856 0.74400002 -0.00260896 9.4666161e-39 298 242
-0.027320439 0.74199998 -0.0026019465 9.2822248e-39 299 242
-0.026019465 0.74199998 -0.0026019465 9.186802e-39 300 242
-0.024718491 0.74199998 -0.0026019465 8.3574015e-39 301 242
-0.023385961 0.741 -0.0025984398 8.0815405e-39 302 242
-0.02208674 0.741 -0.0025984398 8.1733774e-39 303 242
-0.020815572 0.74199998 -0.0026019465 7.80712e-39 304 242
-0.0195146 0.74199998 -0.0026019465 7.9915113e-39 305 242
-0.018213626 0.74199998 -0.0026019465 8.1766256e-39 306 242
-0.016912652 0.74199998 -0.0026019465 8.4528523e-39 307 242
-0.015611678 0.74199998 -0.0026019465 8.8223425e-39 308 242
-0.014310705 0.74199998 -0.0026019465 9.2833193e-39 309 242
-0.013009733 0.74199998 -0.0026019465 9.7467833e-39 310 242
-0.01170876 0.74199998 -0.0026019465 9.7467833e-39 311 242
-0.010407786 0.74199998 -0.0026019465 9.8382475e-39 312 242
-0.009106813 0.74199998 -0.0026019465 9.1928781e-39 313 242
-0.0078058392 0.74199998 -0.0026019465 9.0978168e-39 314 242
-0.0065048663 0.74199998 -0.0026019465 8.7290357e-39 315 242
-0.0052038929 0.74199998 -0.0026019465 8.6368526e-39 316 242
-0.0039029196 0.74199998 -0.0026019465 8.6368526e-39 317 242
-0.0026019465 0.74199998 -0.0026019465 8.728335e-39 318 242
-0.0013009732 0.74199998 -0.0026019465 8.728335e-39 319 242
0 0.74400002 -0.00260896 8.9112941e-39 320 242
0.0013079866 0.74599999 -0.0026159731 8.9112941e-39 321 242
0.0026159731 0.74599999 -0.0026159731 9.0034926e-39 322 242
0.0039239596 0.74599999 -0.0026159731 9.0034926e-39 323 242
0.0052319462 0.74599999 -0.0026159731 9.0027765e-39 324 242
0.0065486995 0.74699998 -0.0026194798 9.0027765e-39 325 242
0.0078584393 0.74699998 -0.0026194798 8.1769731e-39 326 242
0.0091681797 0.74699998 -0.0026194798 8.0847775e-39 327 242
0.010477919 0.74699998 -0.0026194798 6.891272e-39 328 242
0.01181922 0.74900001 -0.0026264933 6.891272e-39 329 242
0.013132467 0.74900001 -0.0026264933 5.9736345e-39 330 242
0.014465 0.75 -0.00263 5.8810801e-39 331 242
0.01578 0.75 -0.00263 5.3289881e-39 332 242
0.017140586 0.75199997 -0.0026370131 5.513378e-39 333 242
0.018508185 0.75400001 -0.0026440267 5.1460416e-39 334 242
0.0198565 0.755 -0.0026475333 5.5148241e-39 335 242
0.021236373 0.75700003 -0.0026545466 4.9659691e-39 336 242
0.02262326 0.759 -0.00266156 5.6113386e-39 337 242
0.024017159 0.76099998 -0.0026685731 6.5329193e-39 338 242
0.025351444 0.76099998 -0.0026685731 7.2704843e-39 339 242
0.026685731 0.76099998 -0.0026685731 9.5742835e-39 340 242
-0.045425359 0.76200002 -0.0040081199 1.4749856e-38 286 243
-0.044031456 0.76099998 -0.0040028598 8.8493357e-39 287 243
-0.042584959 0.759 -0.0039923396 8.1949658e-39 288 243
-0.041145474 0.75700003 -0.0039818203 7.0882581e-39 289 243
-0.039712999 0.755 -0.0039712996 6.6251149e-39 290 243
-0.038338386 0.75400001 -0.00396604 5.7031586e-39 291 243
-0.036918186 0.75199997 -0.0039555198 5.6073701e-39 292 243
-0.035362978 0.74699998 -0.0039292197 5.3307832e-39 293 243
-0.034053236 0.74699998 -0.0039292197 6.3377479e-39 294 243
-0.032699663 0.74599999 -0.0039239596 6.798726e-39 295 243
-0.031391677 0.74599999 -0.0039239596 7.535575e-39 296 243
-0.030003037 0.74400002 -0.0039134403 8.4571711e-39 297 243
-0.02869856 0.74400002 -0.0039134403 8.8270299e-39 298 243
-0.027320439 0.74199998 -0.0039029196 8.0894648e-39 299 243
-0.026019465 0.74199998 -0.0039029196 8.2680925e-39 300 243
-0.024718491 0.74199998 -0.0039029196 7.8071144e-39 301 243
-0.023385961 0.741 -0.0038976599 7.7152691e-39 302 243
-0.02208674 0.741 -0.0038976599 7.9000191e-39 303 243
-0.020815572 0.74199998 -0.0039029196 7.8078234e-39 304 243
-0.0195146 0.74199998 -0.0039029196 7.9000191e-39 305 243
-0.018213626 0.74199998 -0.0039029196 7.8078333e-39 306 243
-0.016912652 0.74199998 -0.0039029196 7.9925832e-39 307 243
-0.015611678 0.74199998 -0.0039029196 8.0865753e-39 308 243
-0.014310705 0.74199998 -0.0039029196 8.9163346e-39 309 243
-0.013009733 0.74199998 -0.0039029196 9.5620487e-39 310 243
-0.01170876 0.74199998 -0.0039029196 9.8389958e-39 311 243
-0.010407786 0.74199998 -0.0039029196 9.5645543e-39 312 243
-0.009106813 0.74199998 -0.0039029196 9.1035761e-39 313 243
-0.0078058392 0.74199998 -0.0039029196 9.0070645e-39 314 243
-0.0065048663 0.74199998 -0.0039029196 8.9148675e-39 315 243
-0.0052038929 0.74199998 -0.0039029196 8.4542592e-39 316 243
-0.0039029196 0.74199998 -0.0039029196 8.2702281e-39 317 243
-0.0026019465 0.74199998 -0.0039029196 8.6357834e-39 318 243
-0.0013009732 0.74199998 -0.0039029196 8.5435878e-39 319 243
0 0.74199998 -0.0039029196 8.5435878e-39 320 243
0.00130448 0.74400002 -0.0039134403 8.5435878e-39 321 243
0.0026159731 0.74599999 -0.0039239596 8.6357862e-39 322 243
0.0039239596 0.74599999 -0.0039239596 8.6357862e-39 323 243
0.0052319462 0.74599999 -0.0039239596 8.4521209e-39 324 243
0.0065486995 0.74699998 -0.0039292197 8.3599252e-39 325 243
0.0078584393 0.74699998 -0.0039292197 7.5341232e-39 326 243
0.0091681797 0.74699998 -0.0039292197 7.349732e-39 327 243
0.010477919 0.74699998 -0.0039292197 6.5239342e-39 328 243
0.01181922 0.74900001 -0.0039397399 6.339903e-39 329 243
0.013132467 0.74900001 -0.0039397399 5.6970518e-39 330 243
0.014465 0.75 -0.003945 5.6048547e-39 331 243
0.015822079 0.75199997 -0.0039555198 5.2367925e-39 332 243
0.017186172 0.75400001 -0.00396604 5.3289881e-39 333 243
0.018532733 0.755 -0.0039712996 5.1467619e-39 334 243
0.0198565 0.755 -0.0039712996 5.4237075e-39 335 243
0.021236373 0.75700003 -0.0039818203 5.2414798e-39 336 243
0.02262326 0.759 -0.0039923396 5.8868492e-39 337 243
0.024017159 0.76099998 -0.0040028598 5.8922218e-39 338 243
0.025351444 0.76099998 -0.0040028598 7.6435801e-39 339 243
0.026685731 0.76099998 -0.0040028598 1.1051206e-38 340 243
-0.045425359 0.76200002 -0.0053441599 1.5210113e-38 286 244
-0.043915741 0.759 -0.0053231199 1.0231547e-38 287 244
-0.042584959 0.759 -0.0053231199 8.6566586e-39 288 244
-0.041145474 0.75700003 -0.0053090933 7.089693e-39 289 244
-0.039712999 0.755 -0.0052950666 6.625838e-39 290 244
-0.038338386 0.75400001 -0.0052880533 5.5194904e-39 291 244
-0.036918186 0.75199997 -0.0052740262 5.4254983e-39 292 244
-0.03545766 0.74900001 -0.0052529867 4.872326e-39 293 244
-0.034053236 0.74699998 -0.0052389596 5.8800137e-39 294 244
-0.032743499 0.74699998 -0.0052389596 6.1566006e-39 295 244
-0.031391677 0.74599999 -0.0052319462 7.5359533e-39 296 244
-0.030003037 0.74400002 -0.0052179201 1.0578769e-38 297 244
-0.02869856 0.74400002 -0.0052179201 9.9459947e-39 298 244
-0.027320439 0.74199998 -0.0052038929 9.9459947e-39 299 244
-0.026019465 0.74199998 -0.0052038929 1.0119939e-38 300 244
-0.024718491 0.74199998 -0.0052038929 8.0912767e-39 301 244
-0.023385961 0.741 -0.0051968796 7.7210354e-39 302 244
-0.02208674 0.741 -0.0051968796 7.4444485e-39 303 244
-0.020815572 0.74199998 -0.0052038929 7.5351994e-39 304 244
-0.0195146 0.74199998 -0.0052038929 7.4426437e-39 305 244
-0.018213626 0.74199998 -0.0052038929 7.2589797e-39 306 244
-0.016912652 0.74199998 -0.0052038929 7.1667826e-39 307 244
-0.015611678 0.74199998 -0.0052038929 7.6263259e-39 308 244
-0.014310705 0.74199998 -0.0052038929 7.9947483e-39 309 244
-0.013009733 0.74199998 -0.0052038929 8.4553579e-39 310 244
-0.01170876 0.74199998 -0.0052038929 8.6397491e-39 311 244
-0.010407786 0.74199998 -0.0052038929 9.0081617e-39 312 244
-0.009106813 0.74199998 -0.0052038929 8.8237704e-39 313 244
-0.0078058392 0.74199998 -0.0052038929 8.7308531e-39 314 244
-0.0065048663 0.74199998 -0.0052038929 8.5461017e-39 315 244
-0.0052038929 0.74199998 -0.0052038929 8.4531901e-39 316 244
-0.0039029196 0.74199998 -0.0052038929 8.2687988e-39 317 244
-0.0026019465 0.74199998 -0.0052038929 8.3599224e-39 318 244
-0.0013009732 0.74199998 -0.0052038929 8.2677254e-39 319 244
0 0.74199998 -0.0052038929 8.2677226e-39 320 244
0.00130448 0.74400002 -0.0052179201 8.3599196e-39 321 244
0.00260896 0.74400002 -0.0052179201 8.3599196e-39 322 244
0.0039134403 0.74400002 -0.0052179201 8.3599196e-39 323 244
0.0052319462 0.74599999 -0.0052319462 7.8092682e-39 324 244
0.0065399334 0.74599999 -0.0052319462 7.8092682e-39 325 244
0.0078584393 0.74699998 -0.0052389596 6.8916377e-39 326 244
0.0091681797 0.74699998 -0.0052389596 6.6154109e-39 327 244
0.010477919 0.74699998 -0.0052389596 6.0647609e-39 328 244
0.01181922 0.74900001 -0.0052529867 5.9722065e-39 329 244
0.013132467 0.74900001 -0.0052529867 5.6045016e-39 330 244
0.014465 0.75 -0.00526 5.512306e-39 331 244
0.015822079 0.75199997 -0.0052740262 5.1460416e-39 332 244
0.017186172 0.75400001 -0.0052880533 5.3304329e-39 333 244
0.018532733 0.755 -0.0052950666 4.9648873e-39 334 244
0.0198565 0.755 -0.0052950666 5.33403e-39 335 244
0.021236373 0.75700003 -0.0053090933 5.5184241e-39 336 244
0.02262326 0.759 -0.0053231199 6.4400202e-39 337 244
0.024017159 0.76099998 -0.0053371461 6.0766117e-39 338 244
0.025351444 0.76099998 -0.0053371461 9.4878486e-39 339 244
0.026685731 0.76099998 -0.0053371461 1.2804005e-38 340 244
-0.045425359 0.76200002 -0.0066801999 1.5487777e-38 286 245
-0.043915741 0.759 -0.0066538998 1.1338615e-38 287 245
-0.042584959 0.759 -0.0066538998 9.394581e-39 288 245
-0.041145474 0.75700003 -0.0066363667 7.5506684e-39 289 245
-0.039712999 0.755 -0.0066188332 6.8098761e-39 290 245
-0.038389232 0.755 -0.0066188332 5.6116917e-39 291 245
-0.036918186 0.75199997 -0.0065925326 5.2411141e-39 292 245
-0.03545766 0.74900001 -0.0065662335 4.9641685e-39 293 245
-0.034053236 0.74699998 -0.0065486995 5.3290035e-39 294 245
-0.032743499 0.74699998 -0.0065486995 5.6059506e-39 295 245
-0.031391677 0.74599999 -0.0065399334 6.8956356e-39 296 245
-0.030003037 0.74400002 -0.0065223998 1.1413221e-38 297 245
-0.02869856 0.74400002 -0.0065223998 1.188681e-38 298 245
-0.027320439 0.74199998 -0.0065048663 1.2532179e-38 299 245
-0.026019465 0.74199998 -0.0065048663 1.1246466e-38 300 245
-0.024718491 0.74199998 -0.0065048663 6.3597384e-39 301 245
-0.023385961 0.741 -0.0064960998 8.0927088e-39 302 245
-0.02208674 0.741 -0.0064960998 7.4473394e-39 303 245
-0.020815572 0.74199998 -0.0065048663 7.5377106e-39 304 245
-0.0195146 0.74199998 -0.0065048663 7.1692882e-39 305 245
-0.018213626 0.74199998 -0.0065048663 6.8934244e-39 306 245
-0.016912652 0.74199998 -0.0065048663 6.8934244e-39 307 245
-0.015611678 0.74199998 -0.0065048663 6.8919936e-39 308 245
-0.014310705 0.74199998 -0.0065048663 6.9841907e-39 309 245
-0.013009733 0.74199998 -0.0065048663 7.1678687e-39 310 245
-0.01170876 0.74199998 -0.0065048663 7.1678687e-39 311 245
-0.010407786 0.74199998 -0.0065048663 7.6266888e-39 312 245
-0.009106813 0.74199998 -0.0065048663 7.6266888e-39 313 245
-0.0078058392 0.74199998 -0.0065048663 7.9021869e-39 314 245
-0.0065048663 0.74199998 -0.0065048663 7.9021869e-39 315 245
-0.0052038929 0.74199998 -0.0065048663 7.8092682e-39 316 245
-0.0039029196 0.74199998 -0.0065048663 7.8092682e-39 317 245
-0.0026019465 0.74199998 -0.0065048663 7.9918644e-39 318 245
-0.0013009732 0.74199998 -0.0065048663 8.1758955e-39 319 245
0 0.74199998 -0.0065048663 7.9918616e-39 320 245
0.0013009732 0.74199998 -0.0065048663 7.9918616e-39 321 245
0.00260896 0.74400002 -0.0065223998 7.9918616e-39 322 245
0.0039134403 0.74400002 -0.0065223998 7.8996659e-39 323 245
0.0052319462 0.74599999 -0.0065399334 7.4419304e-39 324 245
0.0065399334 0.74599999 -0.0065399334 7.349376e-39 325 245
0.0078479191 0.74599999 -0.0065399334 6.6161326e-39 326 245
0.0091681797 0.74699998 -0.0065486995 6.3395471e-39 327 245
0.010477919 0.74699998 -0.0065486995 5.6052247e-39 328 245
0.01181922 0.74900001 -0.0065662335 5.5126689e-39 329 245
0.013132467 0.74900001 -0.0065662335 5.3286378e-39 330 245
0.014465 0.75 -0.006575 5.5126689e-39 331 245
0.015822079 0.75199997 -0.0065925326 5.2393134e-39 332 245
0.017186172 0.75400001 -0.0066100666 5.3315091e-39 333 245
0.018532733 0.755 -0.0066188332 5.0585179e-39 334 245
0.0198565 0.755 -0.0066188332 5.4269417e-39 335 245
0.021236373 0.75700003 -0.0066363667 5.8886457e-39 336 245
0.02262326 0.759 -0.0066538998 6.6262107e-39 337 245
0.024017159 0.76099998 -0.0066714329 7.4545057e-39 338 245
0.02538476 0.76200002 -0.0066801999 1.224868e-38 339 245
-0.045425359 0.76200002 -0.0080162399 1.6039516e-38 286 246
-0.043915741 0.759 -0.0079846792 1.2628638e-38 287 246
-0.042584959 0.759 -0.0079846792 1.0594569e-38 288 246
-0.041145474 0.75700003 -0.0079636406 7.8287e-39 289 246
-0.039712999 0.755 -0.0079425992 7.2704899e-39 290 246
-0.038389232 0.755 -0.0079425992 5.9797525e-39 291 246
-0.036918186 0.75199997 -0.0079110395 5.3343929e-39 292 246
-0.035505001 0.75 -0.00789 4.3205997e-39 293 246
-0.034053236 0.74699998 -0.0078584393 5.3272057e-39 294 246
-0.032743499 0.74699998 -0.0078584393 5.5119557e-39 295 246
-0.031391677 0.74599999 -0.0078479191 6.2499103e-39 296 246
-0.030003037 0.74400002 -0.0078268806 1.132067e-38 297 246
-0.02869856 0.74400002 -0.0078268806 1.2346363e-38 298 246
-0.027320439 0.74199998 -0.0078058392 1.2438559e-38 299 246
-0.026019465 0.74199998 -0.0078058392 1.1709256e-38 300 246
-0.024718491 0.74199998 -0.0078058392 6.8228872e-39 301 246
-0.023385961 0.741 -0.0077953199 8.0952452e-39 302 246
-0.02208674 0.741 -0.0077953199 7.081452e-39 303 246
-0.020815572 0.74199998 -0.0078058392 7.2640202e-39 304 246
-0.0195146 0.74199998 -0.0078058392 7.079989e-39 305 246
-0.018213626 0.74199998 -0.0078058392 6.7126456e-39 306 246
-0.016912652 0.74199998 -0.0078058392 6.4360573e-39 307 246
-0.015611678 0.74199998 -0.0078058392 6.8012441e-39 308 246
-0.014310705 0.74199998 -0.0078058392 6.7090485e-39 309 246
-0.013009733 0.74199998 -0.0078058392 6.9831173e-39 310 246
-0.01170876 0.74199998 -0.0078058392 6.9831173e-39 311 246
-0.010407786 0.74199998 -0.0078058392 7.4412115e-39 312 246
-0.009106813 0.74199998 -0.0078058392 7.2564615e-39 313 246
-0.0077953199 0.741 -0.0077953199 7.8074703e-39 314 246
-0.0064960998 0.741 -0.0077953199 7.8996659e-39 315 246
-0.0052038929 0.74199998 -0.0078058392 7.8996659e-39 316 246
-0.0039029196 0.74199998 -0.0078058392 7.8996659e-39 317 246
-0.0025984398 0.741 -0.0077953199 8.0826251e-39 318 246
-0.0012992199 0.741 -0.0077953199 8.0826251e-39 319 246
0 0.74199998 -0.0078058392 7.9000317e-39 320 246
0.0013009732 0.74199998 -0.0078058392 7.8078361e-39 321 246
0.00260896 0.74400002 -0.0078268806 7.8078333e-39 322 246
0.0039134403 0.74400002 -0.0078268806 7.8078333e-39 323 246
0.0052319462 0.74599999 -0.0078479191 6.7990763e-39 324 246
0.0065399334 0.74599999 -0.0078479191 6.891272e-39 325 246
0.0078479191 0.74599999 -0.0078479191 5.9732813e-39 326 246
0.0091681797 0.74699998 -0.0078584393 5.8810857e-39 327 246
0.010477919 0.74699998 -0.0078584393 5.5119529e-39 328 246
0.01181922 0.74900001 -0.0078794798 5.5119529e-39 329 246
0.013132467 0.74900001 -0.0078794798 5.3286378e-39 330 246
0.014465 0.75 -0.00789 5.6052247e-39 331 246
0.015822079 0.75199997 -0.0079110395 5.2396764e-39 332 246
0.017186172 0.75400001 -0.00793208 5.608819e-39 333 246
0.018532733 0.755 -0.0079425992 5.3347461e-39 334 246
0.0198565 0.755 -0.0079425992 5.9801155e-39 335 246
0.02129248 0.759 -0.0079846792 6.2585044e-39 336 246
0.022682872 0.76099998 -0.0080057196 7.272655e-39 337 246
0.02404872 0.76200002 -0.0080162399 8.3761102e-39 338 246
0.025451386 0.764 -0.0080372803 1.3723815e-38 339 246
-0.044031456 0.76099998 -0.0093400059 1.3552035e-38 287 247
-0.042584959 0.759 -0.00931546 1.2069699e-38 288 247
-0.041145474 0.75700003 -0.0092909131 8.2896781e-39 289 247
-0.039712999 0.755 -0.0092663663 7.7314625e-39 290 247
-0.038338386 0.75400001 -0.0092540924 6.348528e-39 291 247
-0.036918186 0.75199997 -0.0092295464 5.7928333e-39 292 247
-0.035505001 0.75 -0.0092049995 5.3322153e-39 293 247
-0.034144413 0.74900001 -0.0091927266 4.8687386e-39 294 247
-0.032743499 0.74699998 -0.0091681797 5.0527698e-39 295 247
-0.031391677 0.74599999 -0.0091559067 4.7773137e-39 296 247
-0.030003037 0.74400002 -0.0091313599 9.0186714e-39 297 247
-0.02869856 0.74400002 -0.0091313599 1.1148176e-38 298 247
-0.027320439 0.74199998 -0.009106813 1.2715141e-38 299 247
-0.026019465 0.74199998 -0.009106813 1.2438539e-38 300 247
-0.024718491 0.74199998 -0.009106813 7.6443662e-39 301 247
-0.023385961 0.741 -0.0090945391 7.9122959e-39 302 247
-0.02208674 0.741 -0.0090945391 6.9906997e-39 303 247
-0.020815572 0.74199998 -0.009106813 7.2650992e-39 304 247
-0.0195146 0.74199998 -0.009106813 7.0807079e-39 305 247
-0.018213626 0.74199998 -0.009106813 6.8963096e-39 306 247
-0.016912652 0.74199998 -0.009106813 6.804114e-39 307 247
-0.015611678 0.74199998 -0.009106813 7.1696567e-39 308 247
-0.014310705 0.74199998 -0.009106813 6.9856256e-39 309 247
-0.013009733 0.74199998 -0.009106813 6.9841907e-39 310 247
-0.01170876 0.74199998 -0.009106813 6.7079625e-39 311 247
-0.010407786 0.74199998 -0.009106813 6.7980043e-39 312 247
-0.009106813 0.74199998 -0.009106813 6.7058087e-39 313 247
-0.0077953199 0.741 -0.0090945391 6.6128956e-39 314 247
-0.0064960998 0.741 -0.0090945391 6.7969281e-39 315 247
-0.0052038929 0.74199998 -0.009106813 7.0727962e-39 316 247
-0.0039029196 0.74199998 -0.009106813 7.2568273e-39 317 247
-0.0025984398 0.741 -0.0090945391 7.4408584e-39 318 247
-0.0012992199 0.741 -0.0090945391 7.6248895e-39 319 247
0 0.74199998 -0.009106813 7.7167194e-39 320 247
0.0013009732 0.74199998 -0.009106813 7.7167194e-39 321 247
0.0026019465 0.74199998 -0.009106813 7.2586125e-39 322 247
0.0039134403 0.74400002 -0.0091313599 7.2586125e-39 323 247
0.0052319462 0.74599999 -0.0091559067 6.616127e-39 324 247
0.0065399334 0.74599999 -0.0091559067 6.3399002e-39 325 247
0.0078584393 0.74699998 -0.0091681797 5.8807298e-39 326 247
0.0091681797 0.74699998 -0.0091681797 5.6045016e-39 327 247
0.010505973 0.74900001 -0.0091927266 5.4197544e-39 328 247
0.01181922 0.74900001 -0.0091927266 5.5119501e-39 329 247
0.01315 0.75 -0.0092049995 5.3297098e-39 330 247
0.014503572 0.75199997 -0.0092295464 5.5141025e-39 331 247
0.01586416 0.75400001 -0.0092540924 5.4247795e-39 332 247
0.017186172 0.75400001 -0.0092540924 5.7932033e-39 333 247
0.018532733 0.755 -0.0092663663 5.7046048e-39 334 247
0.0198565 0.755 -0.0092663663 6.2577772e-39 335 247
0.021180267 0.755 -0.0092663663 6.4446893e-39 336 247
0.022682872 0.76099998 -0.0093400059 7.5510369e-39 337 247
0.02404872 0.76200002 -0.0093522798 1.0309703e-38 338 247
-0.042584959 0.759 -0.01064624 1.2810138e-38 288 248
-0.041145474 0.75700003 -0.010618187 9.0301172e-39 289 248
-0.039712999 0.755 -0.010590133 8.4690247e-39 290 248
-0.038338386 0.75400001 -0.010576107 7.0860903e-39 291 248
-0.036918186 0.75199997 -0.010548052 5.8904212e-39 292 248
-0.035505001 0.75 -0.01052 4.5074867e-39 293 248
-0.034144413 0.74900001 -0.010505973 4.7794101e-39 294 248
-0.032743499 0.74699998 -0.010477919 4.3184333e-39 295 248
-0.031391677 0.74599999 -0.010463892 4.7754962e-39 296 248
-0.03008369 0.74599999 -0.010463892 6.4353777e-39 297 248
-0.02869856 0.74400002 -0.01043584 6.535876e-39 298 248
-0.027320439 0.74199998 -0.010407786 7.4574736e-39 299 248
-0.026019465 0.74199998 -0.010407786 8.2811036e-39 300 248
-0.024718491 0.74199998 -0.010407786 7.4513429e-39 301 248
-0.023385961 0.741 -0.010393759 6.7148275e-39 302 248
-0.02208674 0.741 -0.010393759 6.4386007e-39 303 248
-0.020815572 0.74199998 -0.010407786 7.1721973e-39 304 248
-0.019567199 0.74400002 -0.01043584 7.0800016e-39 305 248
-0.01826272 0.74400002 -0.01043584 6.9881591e-39 306 248
-0.016958239 0.74400002 -0.01043584 6.9881591e-39 307 248
-0.015653761 0.74400002 -0.01043584 6.9877906e-39 308 248
-0.014310705 0.74199998 -0.010407786 6.8955936e-39 309 248
-0.013009733 0.74199998 -0.010407786 6.8934398e-39 310 248
-0.01170876 0.74199998 -0.010407786 6.7090485e-39 311 248
-0.010407786 0.74199998 -0.010407786 6.4306638e-39 312 248
-0.009106813 0.74199998 -0.010407786 6.3384681e-39 313 248
-0.0078058392 0.74199998 -0.010407786 6.6121697e-39 314 248
-0.0065048663 0.74199998 -0.010407786 6.7040066e-39 315 248
-0.0052038929 0.74199998 -0.010407786 6.9795173e-39 316 248
-0.0039029196 0.74199998 -0.010407786 7.1642687e-39 317 248
-0.0025984398 0.741 -0.010393759 7.2568273e-39 318 248
-0.0012992199 0.741 -0.010393759 7.2568273e-39 319 248
0 0.74199998 -0.010407786 7.3493788e-39 320 248
0.0013009732 0.74199998 -0.010407786 7.3493788e-39 321 248
0.0026019465 0.74199998 -0.010407786 6.8909188e-39 322 248
0.0039134403 0.74400002 -0.01043584 6.8909188e-39 323 248
0.0052319462 0.74599999 -0.010463892 6.0647609e-39 324 248
0.0065486995 0.74699998 -0.010477919 5.8800109e-39 325 248
0.0078584393 0.74699998 -0.010477919 5.5119529e-39 326 248
0.0091927266 0.74900001 -0.010505973 5.4197572e-39 327 248
0.010505973 0.74900001 -0.010505973 5.2364394e-39 328 248
0.01181922 0.74900001 -0.010505973 5.3289937e-39 329 248
0.01315 0.75 -0.01052 5.2393106e-39 330 248
0.014503572 0.75199997 -0.010548052 5.4240606e-39 331 248
0.01586416 0.75400001 -0.010576107 5.5173395e-39 332 248
0.017186172 0.75400001 -0.010576107 6.0705118e-39 333 248
0.018532733 0.755 -0.010590133 5.7985983e-39 334 248
0.0198565 0.755 -0.010590133 6.7205532e-39 335 248
0.021180267 0.755 -0.010590133 7.1811628e-39 336 248
0.024471272 0.82099998 -0.011515893 9.3016623e-39 337 248
0.025910759 0.82099998 -0.011515893 1.2066452e-38 338 248
-0.042584959 0.759 -0.01197702 1.3825013e-38 288 249
-0.041145474 0.75700003 -0.01194546 1.0321578e-38 289 249
-0.039712999 0.755 -0.011913899 9.1161962e-39 290 249
-0.038389232 0.755 -0.011913899 7.2722836e-39 291 249
-0.037016369 0.75400001 -0.01189812 6.1648444e-39 292 249
-0.035505001 0.75 -0.011835 5.4272794e-39 293 249
-0.034144413 0.74900001 -0.01181922 4.9641517e-39 294 249
-0.032743499 0.74699998 -0.011787659 4.5950104e-39 295 249
-0.031433757 0.74699998 -0.011787659 4.7758368e-39 296 249
-0.03008369 0.74599999 -0.011771879 5.3290091e-39 297 249
-0.028775707 0.74599999 -0.011771879 5.517736e-39 298 249
-0.027394081 0.74400002 -0.011740319 6.1631054e-39 299 249
-0.026019465 0.74199998 -0.01170876 6.8059553e-39 300 249
-0.024718491 0.74199998 -0.01170876 6.6215626e-39 301 249
-0.023417519 0.74199998 -0.01170876 6.7137429e-39 302 249
-0.022116546 0.74199998 -0.01170876 6.7137429e-39 303 249
-0.020815572 0.74199998 -0.01170876 7.0807233e-39 304 249
-0.019567199 0.74400002 -0.011740319 7.0807233e-39 305 249
-0.01826272 0.74400002 -0.011740319 7.0807177e-39 306 249
-0.016958239 0.74400002 -0.011740319 6.8966866e-39 307 249
-0.015653761 0.74400002 -0.011740319 7.0807079e-39 308 249
-0.01434928 0.74400002 -0.011740319 6.9881535e-39 309 249
-0.013009733 0.74199998 -0.01170876 6.8033979e-39 310 249
-0.01170876 0.74199998 -0.01170876 6.5264523e-39 311 249
-0.010407786 0.74199998 -0.01170876 6.5239342e-39 312 249
-0.009106813 0.74199998 -0.01170876 6.062956e-39 313 249
-0.0078058392 0.74199998 -0.01170876 5.9700415e-39 314 249
-0.0065048663 0.74199998 -0.01170876 5.9700415e-39 315 249
-0.0052038929 0.74199998 -0.01170876 6.4292204e-39 316 249
-0.0039029196 0.74199998 -0.01170876 6.6136131e-39 317 249
-0.0026019465 0.74199998 -0.01170876 6.6143347e-39 318 249
-0.0013009732 0.74199998 -0.01170876 6.7065304e-39 319 249
0 0.74199998 -0.01170876 6.6154137e-39 320 249
0.0013009732 0.74199998 -0.01170876 6.6154137e-39 321 249
0.0026019465 0.74199998 -0.01170876 6.0647553e-39 322 249
0.0039029196 0.74199998 -0.01170876 6.0647553e-39 323 249
0.0052319462 0.74599999 -0.011771879 5.5126689e-39 324 249
0.0065486995 0.74699998 -0.011787659 5.1442465e-39 325 249
0.0078584393 0.74699998 -0.011787659 4.8683855e-39 326 249
0.0091927266 0.74900001 -0.01181922 4.7761899e-39 327 249
0.010505973 0.74900001 -0.01181922 4.6857865e-39 328 249
0.011835 0.75 -0.011835 5.0545676e-39 329 249
0.013185065 0.75199997 -0.011866559 5.1478367e-39 330 249
