# .PCD v.7 - Point Cloud Data file format
FIELDS x y z rgb imX imY
SIZE 4 4 4 4 4 4
TYPE F F F F F F
COUNT 1 1 1 1 1 1
WIDTH 844
HEIGHT 1
VIEWPOINT 0 0 0 1 0 0 0
POINTS 844
DATA ascii
-0.035466425 0.778 0.0013640933 1.2448855e-38 294 239
-0.034014668 0.77600002 0.0013605866 1.2264463e-38 295 239
-0.032654081 0.77600002 0.0013605866 1.1989623e-38 296 239
-0.031293493 0.77600002 0.0013605866 1.1989623e-38 297 239
-0.029855758 0.77399999 0.0013570799 1.1440014e-38 298 239
-0.028498679 0.77399999 0.0013570799 1.0241471e-38 299 239
-0.027106533 0.773 0.0013553266 1.0429528e-38 300 239
-0.02568458 0.77100003 0.00135182 1.4670529e-38 301 239
-0.02433276 0.77100003 0.00135182 1.4576267e-38 302 239
-0.022921326 0.76899999 0.0013483133 1.3930898e-38 303 239
-0.021573013 0.76899999 0.0013483133 1.3559983e-38 304 239
-0.0202247 0.76899999 0.0013483133 1.3559983e-38 305 239
-0.018876385 0.76899999 0.0013483133 1.4209318e-38 306 239
-0.017482487 0.76700002 0.0013448066 1.4301513e-38 307 239
-0.01613768 0.76700002 0.0013448066 1.3565018e-38 308 239
-0.014773586 0.76599997 0.0013430532 1.3012204e-38 309 239
-0.013430533 0.76599997 0.0013430532 1.3744727e-38 310 239
-0.01205592 0.764 0.0013395466 1.3836924e-38 311 239
-0.01068832 0.76200002 0.00133604 1.4572652e-38 312 239
-0.0093522798 0.76200002 0.00133604 1.3835086e-38 313 239
-0.0080162399 0.76200002 0.00133604 1.1534417e-38 314 239
-0.0066801999 0.76200002 0.00133604 1.0520264e-38 315 239
-0.0053441599 0.76200002 0.00133604 1.1349235e-38 316 239
-0.0040081199 0.76200002 0.00133604 1.1441431e-38 317 239
-0.00267208 0.76200002 0.00133604 1.1625812e-38 318 239
-0.00133604 0.76200002 0.00133604 1.1625812e-38 319 239
0 0.76200002 0.00133604 1.1993516e-38 320 239
0.0013395466 0.764 0.0013395466 1.2177907e-38 321 239
0.00267208 0.76200002 0.00133604 1.2360499e-38 322 239
0.0040081199 0.76200002 0.00133604 1.2176468e-38 323 239
0.0053441599 0.76200002 0.00133604 1.2267229e-38 324 239
0.0066801999 0.76200002 0.00133604 1.2082838e-38 325 239
0.0080162399 0.76200002 0.00133604 1.1806604e-38 326 239
0.0093522798 0.76200002 0.00133604 1.1530018e-38 327 239
0.01068832 0.76200002 0.00133604 1.1530018e-38 328 239
0.01202436 0.76200002 0.00133604 1.1530018e-38 329 239
0.0133604 0.76200002 0.00133604 1.1529313e-38 330 239
0.01469644 0.76200002 0.00133604 1.1253087e-38 331 239
0.016074561 0.764 0.0013395466 1.1068702e-38 332 239
0.017414106 0.764 0.0013395466 1.0608083e-38 333 239
0.018753653 0.764 0.0013395466 1.0605931e-38 334 239
0.020145798 0.76599997 0.0013430532 9.8683698e-39 335 239
0.021488851 0.76599997 0.0013430532 9.4059665e-39 336 239
0.022861714 0.76700002 0.0013448066 9.682552e-39 337 239
0.024206521 0.76700002 0.0013448066 9.4985307e-39 338 239
0.025617953 0.76899999 0.0013483133 9.4063351e-39 339 239
0.026966266 0.76899999 0.0013483133 9.4992495e-39 340 239
0.028388219 0.77100003 0.00135182 9.6836408e-39 341 239
0.029740039 0.77100003 0.00135182 9.7762064e-39 342 239
0.03117251 0.773 0.0013553266 9.9609564e-39 343 239
0.032569919 0.77399999 0.0013570799 1.032724e-38 344 239
0.033927001 0.77399999 0.0013570799 1.0603469e-38 345 239
0.03528408 0.77399999 0.0013570799 1.2352708e-38 346 239
0.036735836 0.77600002 0.0013605866 1.4012231e-38 347 239
-0.035466425 0.778 -0 1.3093874e-38 294 240
-0.034014668 0.77600002 -0 1.2171558e-38 295 240
-0.032654081 0.77600002 -0 1.2081103e-38 296 240
-0.031293493 0.77600002 -0 1.2081103e-38 297 240
-0.029855758 0.77399999 -0 1.1440014e-38 298 240
-0.028498679 0.77399999 -0 1.005708e-38 299 240
-0.027106533 0.773 -0 1.0890157e-38 300 240
-0.025751207 0.773 -0 1.4854569e-38 301 240
-0.02433276 0.77100003 -0 1.5489957e-38 302 240
-0.022921326 0.76899999 -0 1.4107023e-38 303 240
-0.021573013 0.76899999 -0 1.3097563e-38 304 240
-0.0202247 0.76899999 -0 1.2452193e-38 305 240
-0.018876385 0.76899999 -0 1.3655795e-38 306 240
-0.017528072 0.76899999 -0 1.5684099e-38 307 240
-0.01613768 0.76700002 -0 1.5959963e-38 308 240
-0.014773586 0.76599997 -0 1.4484833e-38 309 240
-0.013430533 0.76599997 -0 1.4020605e-38 310 240
-0.01205592 0.764 -0 1.4297551e-38 311 240
-0.01068832 0.76200002 -0 1.5033299e-38 312 240
-0.0093522798 0.76200002 -0 1.5033299e-38 313 240
-0.0080162399 0.76200002 -0 1.3468783e-38 314 240
-0.0066801999 0.76200002 -0 1.0979501e-38 315 240
-0.0053441599 0.76200002 -0 1.1441473e-38 316 240
-0.0040081199 0.76200002 -0 1.125708e-38 317 240
-0.00267208 0.76200002 -0 1.1533632e-38 318 240
-0.00133604 0.76200002 -0 1.1625828e-38 319 240
0 0.76200002 -0 1.1718025e-38 320 240
0.00133604 0.76200002 -0 1.1718025e-38 321 240
0.00267208 0.76200002 -0 1.190062e-38 322 240
0.0040081199 0.76200002 -0 1.1716228e-38 323 240
0.0053441599 0.76200002 -0 1.1623311e-38 324 240
0.0066801999 0.76200002 -0 1.1531116e-38 325 240
0.0080162399 0.76200002 -0 1.1255247e-38 326 240
0.0093522798 0.76200002 -0 1.1070856e-38 327 240
0.01068832 0.76200002 -0 1.1070503e-38 328 240
0.01202436 0.76200002 -0 1.0978307e-38 329 240
0.0133604 0.76200002 -0 1.0977235e-38 330 240
0.01469644 0.76200002 -0 1.088504e-38 331 240
0.016074561 0.764 -0 1.0608452e-38 332 240
0.017414106 0.764 -0 1.023967e-38 333 240
0.018753653 0.764 -0 9.224092e-39 334 240
0.020145798 0.76599997 -0 8.8553095e-39 335 240
0.021516906 0.76700002 -0 9.2215935e-39 336 240
0.022861714 0.76700002 -0 9.0372022e-39 337 240
0.024206521 0.76700002 -0 9.0379281e-39 338 240
0.025617953 0.76899999 -0 9.314515e-39 339 240
0.026966266 0.76899999 -0 9.040442e-39 340 240
0.028388219 0.77100003 -0 9.2248347e-39 341 240
0.029817186 0.773 -0 9.5925466e-39 342 240
0.031212838 0.77399999 -0 9.960969e-39 343 240
0.032654081 0.77600002 -0 1.0235413e-38 344 240
0.034014668 0.77600002 -0 1.0512002e-38 345 240
0.035375252 0.77600002 -0 1.2906609e-38 346 240
0.036830518 0.778 -0 1.4105151e-38 347 240
-0.035466425 0.778 -0.0013640933 1.3646341e-38 294 241
-0.034102332 0.778 -0.0013640933 1.263183e-38 295 241
-0.032738242 0.778 -0.0013640933 1.1713059e-38 296 241
-0.031293493 0.77600002 -0.0013605866 1.1805614e-38 297 241
-0.029932907 0.77600002 -0.0013605866 1.144003e-38 298 241
-0.028498679 0.77399999 -0.0013570799 1.0518075e-38 299 241
-0.027141599 0.77399999 -0.0013570799 1.0980911e-38 300 241
-0.025751207 0.773 -0.0013553266 1.3377639e-38 301 241
-0.02433276 0.77100003 -0.00135182 1.3912905e-38 302 241
-0.022921326 0.76899999 -0.0013483133 1.3083145e-38 303 241
-0.021573013 0.76899999 -0.0013483133 1.3465616e-38 304 241
-0.0202247 0.76899999 -0.0013483133 1.420354e-38 305 241
-0.018876385 0.76899999 -0.0013483133 1.273239e-38 306 241
-0.017528072 0.76899999 -0.0013483133 1.3008977e-38 307 241
-0.01613768 0.76700002 -0.0013448066 1.4389749e-38 308 241
-0.014773586 0.76599997 -0.0013430532 1.374438e-38 309 241
-0.013430533 0.76599997 -0.0013430532 1.2822771e-38 310 241
-0.01205592 0.764 -0.0013395466 1.2730575e-38 311 241
-0.010716373 0.764 -0.0013395466 1.3558885e-38 312 241
-0.0093522798 0.76200002 -0.00133604 1.4573396e-38 313 241
-0.0080162399 0.76200002 -0.00133604 1.3284025e-38 314 241
-0.0066801999 0.76200002 -0.00133604 1.0794744e-38 315 241
-0.0053441599 0.76200002 -0.00133604 1.1165615e-38 316 241
-0.0040081199 0.76200002 -0.00133604 1.1165615e-38 317 241
-0.00267208 0.76200002 -0.00133604 1.1625138e-38 318 241
-0.00133604 0.76200002 -0.00133604 1.1625138e-38 319 241
0 0.76200002 -0.00133604 1.1900637e-38 320 241
0.00133604 0.76200002 -0.00133604 1.1808439e-38 321 241
0.00267208 0.76200002 -0.00133604 1.162368e-38 322 241
0.0040081199 0.76200002 -0.00133604 1.1531125e-38 323 241
0.0053441599 0.76200002 -0.00133604 1.1255603e-38 324 241
0.0066801999 0.76200002 -0.00133604 1.1163408e-38 325 241
0.0080162399 0.76200002 -0.00133604 1.0795346e-38 326 241
0.0093522798 0.76200002 -0.00133604 1.0795346e-38 327 241
0.01068832 0.76200002 -0.00133604 1.0702081e-38 328 241
0.01202436 0.76200002 -0.00133604 1.0702081e-38 329 241
0.0133604 0.76200002 -0.00133604 1.0700644e-38 330 241
0.01469644 0.76200002 -0.00133604 1.0608449e-38 331 241
0.016074561 0.764 -0.0013395466 1.0331519e-38 332 241
0.017414106 0.764 -0.0013395466 1.0054572e-38 333 241
0.018802745 0.76599997 -0.0013430532 8.66877e-39 334 241
0.020145798 0.76599997 -0.0013430532 8.7609656e-39 335 241
0.021516906 0.76700002 -0.0013448066 9.1279531e-39 336 241
0.022861714 0.76700002 -0.0013448066 9.1279531e-39 337 241
0.024206521 0.76700002 -0.0013448066 9.1286748e-39 338 241
0.025617953 0.76899999 -0.0013483133 9.4052631e-39 339 241
0.026966266 0.76899999 -0.0013483133 9.316303e-39 340 241
0.028388219 0.77100003 -0.00135182 9.4084987e-39 341 241
0.029817186 0.773 -0.0013553266 9.8680545e-39 342 241
0.031212838 0.77399999 -0.0013570799 1.0145002e-38 343 241
0.032654081 0.77600002 -0.0013605866 1.0327254e-38 344 241
0.034014668 0.77600002 -0.0013605866 1.0880427e-38 345 241
0.035375252 0.77600002 -0.0013605866 1.3459428e-38 346 241
-0.035466425 0.778 -0.0027281865 1.3923297e-38 294 242
-0.034102332 0.778 -0.0027281865 1.3001341e-38 295 242
-0.032822397 0.77999997 -0.0027351999 1.1805624e-38 296 242
-0.031454798 0.77999997 -0.0027351999 1.1621593e-38 297 242
-0.03001005 0.778 -0.0027281865 1.1531156e-38 298 242
-0.028572321 0.77600002 -0.0027211732 1.0977982e-38 299 242
-0.027141599 0.77399999 -0.0027141599 1.0612119e-38 300 242
-0.025751207 0.773 -0.0027106532 1.144224e-38 301 242
-0.024395877 0.773 -0.0027106532 1.2451432e-38 302 242
-0.022921326 0.76899999 -0.0026966266 1.2912052e-38 303 242
-0.021573013 0.76899999 -0.0026966266 1.420354e-38 304 242
-0.020277301 0.77100003 -0.0027036399 1.484891e-38 305 242
-0.018876385 0.76899999 -0.0026966266 1.3007531e-38 306 242
-0.017528072 0.76899999 -0.0026966266 1.1901184e-38 307 242
-0.01613768 0.76700002 -0.0026896133 1.2271765e-38 308 242
-0.014792874 0.76700002 -0.0026896133 1.2917134e-38 309 242
-0.013430533 0.76599997 -0.0026861064 1.2822405e-38 310 242
-0.012087479 0.76599997 -0.0026861064 1.2453262e-38 311 242
-0.010716373 0.764 -0.0026790933 1.2729111e-38 312 242
-0.0093768267 0.764 -0.0026790933 1.2913502e-38 313 242
-0.0080372803 0.764 -0.0026790933 1.1718489e-38 314 242
-0.006697733 0.764 -0.0026790933 1.0335554e-38 315 242
-0.0053441599 0.76200002 -0.00267208 1.1073415e-38 316 242
-0.0040081199 0.76200002 -0.00267208 1.1165612e-38 317 242
-0.00267208 0.76200002 -0.00267208 1.1349277e-38 318 242
-0.00133604 0.76200002 -0.00267208 1.125708e-38 319 242
0 0.76200002 -0.00267208 1.1532578e-38 320 242
0.00133604 0.76200002 -0.00267208 1.1347828e-38 321 242
0.00267208 0.76200002 -0.00267208 1.1072305e-38 322 242
0.0040081199 0.76200002 -0.00267208 1.0980108e-38 323 242
0.0053441599 0.76200002 -0.00267208 1.0796067e-38 324 242
0.0066801999 0.76200002 -0.00267208 1.0519482e-38 325 242
0.0080162399 0.76200002 -0.00267208 1.0426933e-38 326 242
0.0093522798 0.76200002 -0.00267208 1.0334736e-38 327 242
0.01068832 0.76200002 -0.00267208 1.0333667e-38 328 242
0.01202436 0.76200002 -0.00267208 1.0333667e-38 329 242
0.0133604 0.76200002 -0.00267208 1.0424783e-38 330 242
0.014735013 0.764 -0.0026790933 1.0240392e-38 331 242
0.016074561 0.764 -0.0026790933 9.8723284e-39 332 242
0.017459691 0.76599997 -0.0026861064 9.2269604e-39 333 242
0.018802745 0.76599997 -0.0026861064 8.8538745e-39 334 242
0.020172099 0.76700002 -0.0026896133 8.5772918e-39 335 242
0.021516906 0.76700002 -0.0026896133 8.7602454e-39 336 242
0.022861714 0.76700002 -0.0026896133 9.0368295e-39 337 242
0.024269639 0.76899999 -0.0026966266 9.0375553e-39 338 242
0.025617953 0.76899999 -0.0026966266 9.4063379e-39 339 242
0.027036399 0.77100003 -0.0027036399 9.316303e-39 340 242
0.028461859 0.773 -0.0027106532 9.5006957e-39 341 242
0.029855758 0.77399999 -0.0027141599 9.6847422e-39 342 242
0.031293493 0.77600002 -0.0027211732 1.0053166e-38 343 242
0.032654081 0.77600002 -0.0027211732 1.0512373e-38 344 242
0.034014668 0.77600002 -0.0027211732 1.1342134e-38 345 242
0.035375252 0.77600002 -0.0027211732 1.3736385e-38 346 242
-0.034189999 0.77999997 -0.0041027996 1.3185735e-38 295 243
-0.032822397 0.77999997 -0.0041027996 1.217297e-38 296 243
-0.031454798 0.77999997 -0.0041027996 1.1804188e-38 297 243
-0.030087199 0.77999997 -0.0041027996 1.1346056e-38 298 243
-0.028572321 0.77600002 -0.0040817601 1.1161665e-38 299 243
-0.027141599 0.77399999 -0.0040712398 1.0334793e-38 300 243
-0.025751207 0.773 -0.0040659797 1.0242598e-38 301 243
-0.024395877 0.773 -0.0040659797 1.2087296e-38 302 243
-0.02298094 0.77100003 -0.0040554604 1.41156e-38 303 243
-0.021629119 0.77100003 -0.0040554604 1.4664144e-38 304 243
-0.020277301 0.77100003 -0.0040554604 1.4479752e-38 305 243
-0.018876385 0.76899999 -0.0040449398 1.3468491e-38 306 243
-0.017528072 0.76899999 -0.0040449398 1.263873e-38 307 243
-0.01613768 0.76700002 -0.00403442 1.2179919e-38 308 243
-0.014792874 0.76700002 -0.00403442 1.300968e-38 309 243
-0.013430533 0.76599997 -0.0040291594 1.2638007e-38 310 243
-0.012087479 0.76599997 -0.0040291594 1.2084834e-38 311 243
-0.010716373 0.764 -0.0040186401 1.2084792e-38 312 243
-0.0093768267 0.764 -0.0040186401 1.1070999e-38 313 243
-0.0080372803 0.764 -0.0040186401 1.0152943e-38 314 243
-0.006697733 0.764 -0.0040186401 1.0152943e-38 315 243
-0.0053581866 0.764 -0.0040186401 1.0797557e-38 316 243
-0.0040081199 0.76200002 -0.0040081199 1.0797557e-38 317 243
-0.00267208 0.76200002 -0.0040081199 1.0981219e-38 318 243
-0.00133604 0.76200002 -0.0040081199 1.0889024e-38 319 243
0 0.76200002 -0.0040081199 1.11638e-38 320 243
0.00133604 0.76200002 -0.0040081199 1.1071605e-38 321 243
0.00267208 0.76200002 -0.0040081199 1.088791e-38 322 243
0.0040081199 0.76200002 -0.0040081199 1.0703518e-38 323 243
0.0053441599 0.76200002 -0.0040081199 1.0335086e-38 324 243
0.0066801999 0.76200002 -0.0040081199 1.0242891e-38 325 243
0.0080162399 0.76200002 -0.0040081199 9.9670324e-39 326 243
0.0093522798 0.76200002 -0.0040081199 9.8748368e-39 327 243
0.01068832 0.76200002 -0.0040081199 9.8734088e-39 328 243
0.01202436 0.76200002 -0.0040081199 9.8734088e-39 329 243
0.013395466 0.764 -0.0040186401 9.9645283e-39 330 243
0.014735013 0.764 -0.0040186401 9.8723327e-39 331 243
0.016116638 0.76599997 -0.0040291594 9.6872155e-39 332 243
0.017459691 0.76599997 -0.0040291594 9.1340445e-39 333 243
0.018827293 0.76700002 -0.00403442 9.3144869e-39 334 243
0.020172099 0.76700002 -0.00403442 8.8535158e-39 335 243
0.021516906 0.76700002 -0.00403442 8.8531571e-39 336 243
0.022921326 0.76899999 -0.0040449398 9.129381e-39 337 243
0.024269639 0.76899999 -0.0040449398 9.1308216e-39 338 243
0.025617953 0.76899999 -0.0040449398 9.4996027e-39 339 243
0.027106533 0.773 -0.0040659797 9.4088546e-39 340 243
0.028498679 0.77399999 -0.0040712398 9.5932472e-39 341 243
0.029855758 0.77399999 -0.0040712398 9.9602501e-39 342 243
0.031374145 0.778 -0.0040922803 9.9602501e-39 343 243
0.032822397 0.77999997 -0.0041027996 1.1063753e-38 344 243
0.034189999 0.77999997 -0.0041027996 1.2538523e-38 345 243
0.035557598 0.77999997 -0.0041027996 1.456507e-38 346 243
-0.034189999 0.77999997 -0.0054703997 1.3554164e-38 295 244
-0.032822397 0.77999997 -0.0054703997 1.2725072e-38 296 244
-0.031454798 0.77999997 -0.0054703997 1.1987147e-38 297 244
-0.030087199 0.77999997 -0.0054703997 1.1528652e-38 298 244
-0.028645959 0.778 -0.0054563731 1.1528652e-38 299 244
-0.027141599 0.77399999 -0.0054283198 1.0702484e-38 300 244
-0.025751207 0.773 -0.0054213065 1.0425897e-38 301 244
-0.024395877 0.773 -0.0054213065 9.784886e-39 302 244
-0.02298094 0.77100003 -0.0054072798 1.033806e-38 303 244
-0.021629119 0.77100003 -0.0054072798 1.042598e-38 304 244
-0.020277301 0.77100003 -0.0054072798 1.0702208e-38 305 244
-0.018876385 0.76899999 -0.0053932532 1.0983489e-38 306 244
-0.017528072 0.76899999 -0.0053932532 1.1444107e-38 307 244
-0.01613768 0.76700002 -0.0053792265 1.2362846e-38 308 244
-0.014792874 0.76700002 -0.0053792265 1.2270651e-38 309 244
-0.013430533 0.76599997 -0.0053722127 1.0888067e-38 310 244
-0.012087479 0.76599997 -0.0053722127 1.0519643e-38 311 244
-0.010744425 0.76599997 -0.0053722127 1.0337722e-38 312 244
-0.0093768267 0.764 -0.0053581866 9.8771027e-39 313 244
-0.0080372803 0.764 -0.0053581866 1.0336598e-38 314 244
-0.006697733 0.764 -0.0053581866 1.0612825e-38 315 244
-0.0053581866 0.764 -0.0053581866 1.0705002e-38 316 244
-0.0040081199 0.76200002 -0.0053441599 1.0612807e-38 317 244
-0.00267208 0.76200002 -0.0053441599 1.0888658e-38 318 244
-0.00133604 0.76200002 -0.0053441599 1.0888658e-38 319 244
0 0.76200002 -0.0053441599 1.1071599e-38 320 244
0.00133604 0.76200002 -0.0053441599 1.0887206e-38 321 244
0.00267208 0.76200002 -0.0053441599 1.0703518e-38 322 244
0.0040081199 0.76200002 -0.0053441599 1.0334736e-38 323 244
0.0053581866 0.764 -0.0053581866 1.0241821e-38 324 244
0.006697733 0.764 -0.0053581866 1.0149626e-38 325 244
0.0080372803 0.764 -0.0053581866 9.7815691e-39 326 244
0.0093768267 0.764 -0.0053581866 9.7815691e-39 327 244
0.010716373 0.764 -0.0053581866 9.6890162e-39 328 244
0.01205592 0.764 -0.0053581866 9.6890162e-39 329 244
0.013430533 0.76599997 -0.0053722127 9.6882973e-39 330 244
0.014773586 0.76599997 -0.0053722127 9.5961017e-39 331 244
0.016116638 0.76599997 -0.0053722127 9.5042592e-39 332 244
0.017482487 0.76700002 -0.0053792265 8.8588968e-39 333 244
0.018827293 0.76700002 -0.0053792265 9.2230102e-39 334 244
0.020172099 0.76700002 -0.0053792265 8.8542333e-39 335 244
0.021573013 0.76899999 -0.0053932532 8.6705623e-39 336 244
0.022921326 0.76899999 -0.0053932532 9.0393392e-39 337 244
0.024269639 0.76899999 -0.0053932532 9.0407797e-39 338 244
0.02568458 0.77100003 -0.0054072798 9.4092021e-39 339 244
0.027141599 0.77399999 -0.0054283198 9.5932501e-39 340 244
0.028572321 0.77600002 -0.0054423464 9.7776413e-39 341 244
0.029932907 0.77600002 -0.0054423464 9.9602529e-39 342 244
0.031374145 0.778 -0.0054563731 1.0052449e-38 343 244
0.032822397 0.77999997 -0.0054703997 1.2076832e-38 344 244
0.034189999 0.77999997 -0.0054703997 1.3643797e-38 345 244
-0.034189999 0.77999997 -0.0068379994 1.3554893e-38 295 245
-0.032822397 0.77999997 -0.0068379994 1.3001672e-38 296 245
-0.031454798 0.77999997 -0.0068379994 1.2171911e-38 297 245
-0.030087199 0.77999997 -0.0068379994 1.2171506e-38 298 245
-0.028645959 0.778 -0.0068204664 1.1986756e-38 299 245
-0.027141599 0.77399999 -0.0067853997 1.0977985e-38 300 245
-0.025751207 0.773 -0.0067766332 1.0608844e-38 301 245
-0.024395877 0.773 -0.0067766332 9.2305758e-39 302 245
-0.02298094 0.77100003 -0.0067590997 8.4930108e-39 303 245
-0.021629119 0.77100003 -0.0067590997 7.6650451e-39 304 245
-0.020277301 0.77100003 -0.0067590997 7.388817e-39 305 245
-0.018925481 0.77100003 -0.0067590997 8.5881211e-39 306 245
-0.017528072 0.76899999 -0.0067415666 1.0063251e-38 307 245
-0.01613768 0.76700002 -0.006724033 1.1165322e-38 308 245
-0.014792874 0.76700002 -0.006724033 1.0704344e-38 309 245
-0.013430533 0.76599997 -0.0067152665 9.4150273e-39 310 245
-0.012087479 0.76599997 -0.0067152665 9.1384404e-39 311 245
-0.010744425 0.76599997 -0.0067152665 9.1409389e-39 312 245
-0.0093768267 0.764 -0.006697733 9.6941127e-39 313 245
-0.0080372803 0.764 -0.006697733 9.7859398e-39 314 245
-0.006697733 0.764 -0.006697733 9.8781354e-39 315 245
-0.0053581866 0.764 -0.006697733 1.0245819e-38 316 245
-0.0040081199 0.76200002 -0.0066801999 1.0061788e-38 317 245
-0.00267208 0.76200002 -0.0066801999 1.0337646e-38 318 245
-0.00133604 0.76200002 -0.0066801999 1.0337646e-38 319 245
0 0.76200002 -0.0066801999 1.0428749e-38 320 245
0.00133604 0.76200002 -0.0066801999 1.0152162e-38 321 245
0.00267208 0.76200002 -0.0066801999 1.0151071e-38 322 245
0.0040081199 0.76200002 -0.0066801999 9.8744836e-39 323 245
0.0053581866 0.764 -0.006697733 9.7815691e-39 324 245
0.006697733 0.764 -0.006697733 9.7815691e-39 325 245
0.0080372803 0.764 -0.006697733 9.4138726e-39 326 245
0.0093768267 0.764 -0.006697733 9.3216756e-39 327 245
0.010744425 0.76599997 -0.0067152665 9.3213127e-39 328 245
0.012087479 0.76599997 -0.0067152665 9.3213127e-39 329 245
0.013430533 0.76599997 -0.0067152665 9.2298331e-39 330 245
0.014773586 0.76599997 -0.0067152665 9.045802e-39 331 245
0.01613768 0.76700002 -0.006724033 9.4120622e-39 332 245
0.017482487 0.76700002 -0.006724033 8.8588968e-39 333 245
0.018827293 0.76700002 -0.006724033 9.0396979e-39 334 245
0.0202247 0.76899999 -0.0067415666 8.9475037e-39 335 245
0.021573013 0.76899999 -0.0067415666 8.8560269e-39 336 245
0.022921326 0.76899999 -0.0067415666 9.1322509e-39 337 245
0.02433276 0.77100003 -0.0067590997 9.4092049e-39 338 245
0.02568458 0.77100003 -0.0067590997 9.5935976e-39 339 245
0.027211733 0.77600002 -0.0068029333 9.6850926e-39 340 245
0.028572321 0.77600002 -0.0068029333 9.9613193e-39 341 245
0.029932907 0.77600002 -0.0068029333 1.0144295e-38 342 245
0.031374145 0.778 -0.0068204664 1.0605272e-38 343 245
0.032822397 0.77999997 -0.0068379994 1.2814409e-38 344 245
-0.034189999 0.77999997 -0.0082055992 1.3554903e-38 295 246
-0.032822397 0.77999997 -0.0082055992 1.3094609e-38 296 246
-0.031454798 0.77999997 -0.0082055992 1.2449239e-38 297 246
-0.030087199 0.77999997 -0.0082055992 1.189746e-38 298 246
-0.028645959 0.778 -0.0081845606 1.0975143e-38 299 246
-0.027141599 0.77399999 -0.0081424797 1.0975125e-38 300 246
-0.025784519 0.77399999 -0.0081424797 1.0882929e-38 301 246
-0.024395877 0.773 -0.0081319595 9.965994e-39 302 246
-0.023040552 0.773 -0.0081319595 9.8734397e-39 303 246
-0.021685226 0.773 -0.0081319595 9.139106e-39 304 246
-0.0203299 0.773 -0.0081319595 8.9547148e-39 305 246
-0.018925481 0.77100003 -0.0081109209 8.5866567e-39 306 246
-0.017528072 0.76899999 -0.0080898795 8.6788524e-39 307 246
-0.016179759 0.76899999 -0.0080898795 8.4955541e-39 308 246
-0.014792874 0.76700002 -0.00806884 8.5877497e-39 309 246
-0.013448066 0.76700002 -0.00806884 9.231687e-39 310 246
-0.01210326 0.76700002 -0.00806884 9.416437e-39 311 246
-0.010758453 0.76700002 -0.00806884 9.508983e-39 312 246
-0.0094013726 0.76599997 -0.0080583189 9.508983e-39 313 246
-0.0080583189 0.76599997 -0.0080583189 9.6015289e-39 314 246
-0.0067152665 0.76599997 -0.0080583189 9.8781144e-39 315 246
-0.0053581866 0.764 -0.0080372803 9.8773899e-39 316 246
-0.0040186401 0.764 -0.0080372803 9.8773899e-39 317 246
-0.0026790933 0.764 -0.0080372803 1.0428402e-38 318 246
-0.0013395466 0.764 -0.0080372803 1.0243652e-38 319 246
0 0.76200002 -0.0080162399 1.0426951e-38 320 246
0.00133604 0.76200002 -0.0080162399 9.965973e-39 321 246
0.00267208 0.76200002 -0.0080162399 1.014927e-38 322 246
0.0040186401 0.764 -0.0080372803 9.9648786e-39 323 246
0.0053581866 0.764 -0.0080372803 9.5057011e-39 324 246
0.006697733 0.764 -0.0080372803 9.4135055e-39 325 246
0.0080372803 0.764 -0.0080372803 9.2287611e-39 326 246
0.0094013726 0.76599997 -0.0080583189 9.3209567e-39 327 246
0.010744425 0.76599997 -0.0080583189 9.2287583e-39 328 246
0.012087479 0.76599997 -0.0080583189 9.2287583e-39 329 246
0.013430533 0.76599997 -0.0080583189 8.9532476e-39 330 246
0.014792874 0.76700002 -0.00806884 8.861052e-39 331 246
0.01613768 0.76700002 -0.00806884 9.0436482e-39 332 246
0.017482487 0.76700002 -0.00806884 8.7670613e-39 333 246
0.018827293 0.76700002 -0.00806884 8.9492974e-39 334 246
0.0202247 0.76899999 -0.0080898795 8.6730734e-39 335 246
0.021573013 0.76899999 -0.0080898795 8.9493002e-39 336 246
0.02298094 0.77100003 -0.0081109209 9.225887e-39 337 246
0.02433276 0.77100003 -0.0081109209 9.4099322e-39 338 246
0.025751207 0.773 -0.0081319595 9.5939633e-39 339 246
0.027211733 0.77600002 -0.0081635201 9.9613193e-39 340 246
0.028572321 0.77600002 -0.0081635201 1.0053874e-38 341 246
0.029932907 0.77600002 -0.0081635201 1.0696761e-38 342 246
0.031374145 0.778 -0.0081845606 1.1526882e-38 343 246
-0.032822397 0.77999997 -0.0095731998 1.2910956e-38 296 247
-0.031454798 0.77999997 -0.0095731998 1.2265586e-38 297 247
-0.030125774 0.78100002 -0.0095854728 1.1713807e-38 298 247
-0.028719598 0.77999997 -0.0095731998 1.0791851e-38 299 247
-0.027141599 0.77399999 -0.0094995592 1.1157374e-38 300 247
-0.025784519 0.77399999 -0.0094995592 1.0972624e-38 301 247
-0.024395877 0.773 -0.0094872871 9.9645661e-39 302 247
-0.023040552 0.773 -0.0094872871 9.9645661e-39 303 247
-0.021685226 0.773 -0.0094872871 9.5068124e-39 304 247
-0.0203299 0.773 -0.0094872871 9.5068124e-39 305 247
-0.018974574 0.773 -0.0094872871 9.415323e-39 306 247
-0.01757366 0.77100003 -0.0094627403 8.8621492e-39 307 247
-0.016179759 0.76899999 -0.0094381925 8.5855595e-39 308 247
-0.014831445 0.76899999 -0.0094381925 8.8621464e-39 309 247
-0.013448066 0.76700002 -0.0094136465 8.7724899e-39 310 247
-0.01210326 0.76700002 -0.0094136465 8.8646856e-39 311 247
-0.010758453 0.76700002 -0.0094136465 8.9572511e-39 312 247
-0.0094013726 0.76599997 -0.0094013726 8.9572511e-39 313 247
-0.0080583189 0.76599997 -0.0094013726 9.0494468e-39 314 247
-0.0067152665 0.76599997 -0.0094013726 9.1416424e-39 315 247
-0.0053722127 0.76599997 -0.0094013726 9.233122e-39 316 247
-0.0040186401 0.764 -0.0093768267 9.1409263e-39 317 247
-0.0026790933 0.764 -0.0093768267 9.048372e-39 318 247
-0.0013395466 0.764 -0.0093768267 9.048372e-39 319 247
0 0.764 -0.0093768267 9.322068e-39 320 247
0.00133604 0.76200002 -0.0093522798 9.2298723e-39 321 247
0.00267208 0.76200002 -0.0093522798 9.1376599e-39 322 247
0.0040186401 0.764 -0.0093768267 9.0454643e-39 323 247
0.0053581866 0.764 -0.0093768267 8.9532658e-39 324 247
0.006697733 0.764 -0.0093768267 8.9532658e-39 325 247
0.0080583189 0.76599997 -0.0094013726 8.952547e-39 326 247
0.0094013726 0.76599997 -0.0094013726 8.952547e-39 327 247
0.010744425 0.76599997 -0.0094013726 8.953619e-39 328 247
0.01210326 0.76700002 -0.0094136465 8.8614233e-39 329 247
0.013448066 0.76700002 -0.0094136465 9.0440167e-39 330 247
0.014792874 0.76700002 -0.0094136465 8.8599856e-39 331 247
0.01613768 0.76700002 -0.0094136465 8.8589024e-39 332 247
0.017482487 0.76700002 -0.0094136465 8.7667068e-39 333 247
0.018876385 0.76899999 -0.0094381925 9.0411329e-39 334 247
0.0202247 0.76899999 -0.0094381925 9.1336858e-39 335 247
0.021629119 0.77100003 -0.0094627403 9.3170037e-39 336 247
0.02298094 0.77100003 -0.0094627403 9.5017551e-39 337 247
0.02442744 0.77399999 -0.0094995592 9.5939689e-39 338 247
0.025851147 0.77600002 -0.009524107 9.7783602e-39 339 247
0.027281865 0.778 -0.0095486529 1.0052816e-38 340 247
0.028719598 0.77999997 -0.0095731998 1.0237566e-38 341 247
-0.031495128 0.78100002 -0.010954826 1.2266317e-38 297 248
-0.030125774 0.78100002 -0.010954826 1.2173713e-38 298 248
-0.028756421 0.78100002 -0.010954826 1.0329801e-38 299 248
-0.027351998 0.77999997 -0.010940799 1.0879708e-38 300 248
-0.025917772 0.778 -0.010912746 1.0787512e-38 301 248
-0.02442744 0.77399999 -0.01085664 1.0054979e-38 302 248
-0.02307036 0.77399999 -0.01085664 1.0147534e-38 303 248
-0.021713279 0.77399999 -0.01085664 9.6901302e-39 304 248
-0.0203299 0.773 -0.010842613 9.6901302e-39 305 248
-0.018974574 0.773 -0.010842613 9.4156761e-39 306 248
-0.01757366 0.77100003 -0.01081456 9.2309261e-39 307 248
-0.016179759 0.76899999 -0.010786506 9.0468838e-39 308 248
-0.014831445 0.76899999 -0.010786506 8.8628527e-39 309 248
-0.013448066 0.76700002 -0.010758453 9.0465335e-39 310 248
-0.01210326 0.76700002 -0.010758453 9.0465335e-39 311 248
-0.010758453 0.76700002 -0.010758453 8.9554336e-39 312 248
-0.0094136465 0.76700002 -0.010758453 9.0476293e-39 313 248
-0.00806884 0.76700002 -0.010758453 9.1394718e-39 314 248
-0.006724033 0.76700002 -0.010758453 9.1394718e-39 315 248
-0.0053722127 0.76599997 -0.010744425 9.1391088e-39 316 248
-0.0040291594 0.76599997 -0.010744425 8.9547176e-39 317 248
-0.0026861064 0.76599997 -0.010744425 9.0465363e-39 318 248
-0.0013430532 0.76599997 -0.010744425 8.6777551e-39 319 248
0 0.76599997 -0.010744425 8.8599856e-39 320 248
0.0013395466 0.764 -0.010716373 9.228408e-39 321 248
0.0026790933 0.764 -0.010716373 9.0436608e-39 322 248
0.0040291594 0.76599997 -0.010744425 9.0436608e-39 323 248
0.0053722127 0.76599997 -0.010744425 8.8599856e-39 324 248
0.0067152665 0.76599997 -0.010744425 8.8599856e-39 325 248
0.00806884 0.76700002 -0.010758453 8.8607045e-39 326 248
0.0094136465 0.76700002 -0.010758453 8.8607045e-39 327 248
0.010758453 0.76700002 -0.010758453 8.8603485e-39 328 248
0.01210326 0.76700002 -0.010758453 8.8603485e-39 329 248
0.013448066 0.76700002 -0.010758453 9.0432979e-39 330 248
0.014792874 0.76700002 -0.010758453 8.9511008e-39 331 248
0.01613768 0.76700002 -0.010758453 8.8588996e-39 332 248
0.017528072 0.76899999 -0.010786506 8.8588996e-39 333 248
0.018876385 0.76899999 -0.010786506 8.8581835e-39 334 248
0.020277301 0.77100003 -0.01081456 8.9503792e-39 335 248
0.021629119 0.77100003 -0.01081456 9.2255395e-39 336 248
0.02307036 0.77399999 -0.01085664 9.5939633e-39 337 248
0.024490559 0.77600002 -0.010884693 9.7772882e-39 338 248
0.025851147 0.77600002 -0.010884693 1.0053874e-38 339 248
-0.030125774 0.78100002 -0.01232418 1.2265921e-38 298 249
-0.028756421 0.78100002 -0.01232418 1.0882987e-38 299 249
-0.027281865 0.778 -0.012276839 1.1247416e-38 300 249
-0.025917772 0.778 -0.012276839 1.0602046e-38 301 249
-0.024553679 0.778 -0.012276839 1.0237931e-38 302 249
-0.02307036 0.77399999 -0.01221372 1.0330127e-38 303 249
-0.021713279 0.77399999 -0.01221372 9.964922e-39 304 249
-0.020356199 0.77399999 -0.01221372 9.964922e-39 305 249
-0.018999118 0.77399999 -0.01221372 9.5979164e-39 306 249
-0.017619247 0.773 -0.012197939 9.5057207e-39 307 249
-0.016221842 0.77100003 -0.01216638 9.3216756e-39 308 249
-0.014831445 0.76899999 -0.012134819 9.22948e-39 309 249
-0.013483133 0.76899999 -0.012134819 9.138013e-39 310 249
-0.012134819 0.76899999 -0.012134819 9.0458174e-39 311 249
-0.010758453 0.76700002 -0.01210326 9.04583e-39 312 249
-0.0094136465 0.76700002 -0.01210326 9.04583e-39 313 249
-0.00806884 0.76700002 -0.01210326 8.9543616e-39 314 249
-0.006724033 0.76700002 -0.01210326 8.9543616e-39 315 249
-0.0053792265 0.76700002 -0.01210326 8.6792027e-39 316 249
-0.00403442 0.76700002 -0.01210326 8.5870071e-39 317 249
-0.0026896133 0.76700002 -0.01210326 8.8614205e-39 318 249
-0.0013448066 0.76700002 -0.01210326 8.4929967e-39 319 249
0 0.76599997 -0.012087479 8.7677858e-39 320 249
0.0013430532 0.76599997 -0.012087479 8.7677858e-39 321 249
0.0026861064 0.76599997 -0.012087479 8.7674354e-39 322 249
0.00403442 0.76700002 -0.01210326 8.7674354e-39 323 249
0.0053792265 0.76700002 -0.01210326 8.6759587e-39 324 249
0.006724033 0.76700002 -0.01210326 8.6759587e-39 325 249
0.00806884 0.76700002 -0.01210326 8.4008109e-39 326 249
0.0094136465 0.76700002 -0.01210326 8.4930079e-39 327 249
0.010758453 0.76700002 -0.01210326 8.8596325e-39 328 249
0.012134819 0.76899999 -0.012134819 9.0436636e-39 329 249
0.013483133 0.76899999 -0.012134819 8.9507449e-39 330 249
0.014831445 0.76899999 -0.012134819 8.9507449e-39 331 249
0.016179759 0.76899999 -0.012134819 8.950382e-39 332 249
0.017528072 0.76899999 -0.012134819 8.8581863e-39 333 249
0.018925481 0.77100003 -0.01216638 9.133697e-39 334 249
0.020277301 0.77100003 -0.01216638 9.2258927e-39 335 249
0.021713279 0.77399999 -0.01221372 9.3173834e-39 336 249
0.023129974 0.77600002 -0.01224528 9.5939689e-39 337 249
0.024553679 0.778 -0.012276839 9.8698538e-39 338 249
-0.028645959 0.778 -0.013640933 1.162057e-38 299 250
-0.027281865 0.778 -0.013640933 1.1342134e-38 300 250
-0.025917772 0.778 -0.013640933 1.0235787e-38 301 250
-0.024616797 0.77999997 -0.013675999 1.023756e-38 302 250
-0.023189586 0.778 -0.013640933 1.0606341e-38 303 250
-0.021825492 0.778 -0.013640933 1.0148237e-38 304 250
-0.0204088 0.77600002 -0.013605867 1.0055683e-38 305 250
-0.018999118 0.77399999 -0.013570799 9.7808811e-39 306 250
-0.01764204 0.77399999 -0.013570799 9.6883267e-39 307 250
-0.016263919 0.773 -0.013553266 9.5050019e-39 308 250
-0.01487002 0.77100003 -0.013518199 9.4128048e-39 309 250
-0.013483133 0.76899999 -0.013483133 9.3206036e-39 310 250
-0.012134819 0.76899999 -0.013483133 9.3206036e-39 311 250
-0.010758453 0.76700002 -0.013448066 9.3206064e-39 312 250
-0.0094136465 0.76700002 -0.013448066 9.2284108e-39 313 250
-0.00806884 0.76700002 -0.013448066 9.0454643e-39 314 250
-0.006724033 0.76700002 -0.013448066 8.9532686e-39 315 250
-0.0053792265 0.76700002 -0.013448066 8.6777579e-39 316 250
-0.00403442 0.76700002 -0.013448066 8.5855623e-39 317 250
-0.0026896133 0.76700002 -0.013448066 8.8607017e-39 318 250
-0.0013448066 0.76700002 -0.013448066 8.676309e-39 319 250
0 0.76700002 -0.013448066 8.6759433e-39 320 250
0.0013448066 0.76700002 -0.013448066 8.583749e-39 321 250
0.0026896133 0.76700002 -0.013448066 8.6759433e-39 322 250
0.00403442 0.76700002 -0.013448066 8.5833903e-39 323 250
0.0053792265 0.76700002 -0.013448066 8.6759559e-39 324 250
0.0067415666 0.76899999 -0.013483133 8.6759559e-39 325 250
0.0080898795 0.76899999 -0.013483133 8.6759587e-39 326 250
0.0094381925 0.76899999 -0.013483133 8.6759587e-39 327 250
0.010786506 0.76899999 -0.013483133 8.7674354e-39 328 250
0.012134819 0.76899999 -0.013483133 8.8596325e-39 329 250
0.013483133 0.76899999 -0.013483133 9.0429419e-39 330 250
0.014831445 0.76899999 -0.013483133 8.9507449e-39 331 250
0.016179759 0.76899999 -0.013483133 8.9511008e-39 332 250
0.017528072 0.76899999 -0.013483133 8.9511008e-39 333 250
0.018925481 0.77100003 -0.013518199 9.1340628e-39 334 250
0.0203299 0.773 -0.013553266 9.2262598e-39 335 250
-0.027351998 0.77999997 -0.0150436 1.1987167e-38 300 251
-0.025984399 0.77999997 -0.0150436 1.1157766e-38 301 251
-0.024616797 0.77999997 -0.0150436 1.0789665e-38 302 251
-0.023189586 0.778 -0.015005025 1.0697468e-38 303 251
-0.021825492 0.778 -0.015005025 1.0148237e-38 304 251
-0.0204088 0.77600002 -0.014966453 9.8716516e-39 305 251
-0.019048214 0.77600002 -0.014966453 9.7805252e-39 306 251
-0.01764204 0.77399999 -0.014927879 9.5042984e-39 307 251
-0.016263919 0.773 -0.014908593 9.413172e-39 308 251
-0.014908593 0.773 -0.014908593 9.413172e-39 309 251
-0.013553266 0.773 -0.014908593 9.3213281e-39 310 251
-0.012134819 0.76899999 -0.014831445 9.2287737e-39 311 251
-0.010786506 0.76899999 -0.014831445 9.2280549e-39 312 251
-0.0094381925 0.76899999 -0.014831445 9.2280549e-39 313 251
-0.0080898795 0.76899999 -0.014831445 9.0447426e-39 314 251
-0.0067415666 0.76899999 -0.014831445 8.952547e-39 315 251
-0.0053932532 0.76899999 -0.014831445 8.6777523e-39 316 251
-0.00403442 0.76700002 -0.014792874 8.5855567e-39 317 251
-0.0026896133 0.76700002 -0.014792874 8.8606989e-39 318 251
-0.0013448066 0.76700002 -0.014792874 8.6763062e-39 319 251
0 0.76700002 -0.014792874 8.6759433e-39 320 251
0.0013448066 0.76700002 -0.014792874 8.6759433e-39 321 251
0.0026896133 0.76700002 -0.014792874 8.4000794e-39 322 251
0.0040449398 0.76899999 -0.014831445 8.5841106e-39 323 251
0.0053932532 0.76899999 -0.014831445 8.6756027e-39 324 251
0.0067415666 0.76899999 -0.014831445 8.5834071e-39 325 251
0.0080898795 0.76899999 -0.014831445 8.6756055e-39 326 251
0.0094381925 0.76899999 -0.014831445 8.6756055e-39 327 251
0.010786506 0.76899999 -0.014831445 8.8596353e-39 328 251
0.012134819 0.76899999 -0.014831445 8.8596353e-39 329 251
0.013483133 0.76899999 -0.014831445 9.3184526e-39 330 251
0.014831445 0.76899999 -0.014831445 9.226257e-39 331 251
0.016179759 0.76899999 -0.014831445 8.8596325e-39 332 251
0.01757366 0.77100003 -0.01487002 8.7674354e-39 333 251
0.018925481 0.77100003 -0.01487002 9.0425944e-39 334 251
0.020277301 0.77100003 -0.01487002 9.0425944e-39 335 251
0.021769386 0.77600002 -0.014966453 9.6847394e-39 336 251
-0.026017714 0.78100002 -0.016432239 1.1620204e-38 301 252
-0.024616797 0.77999997 -0.016411198 1.1435403e-38 302 252
-0.023189586 0.778 -0.016369121 1.0974424e-38 303 252
-0.021825492 0.778 -0.016369121 1.079144e-38 304 252
-0.020461399 0.778 -0.016369121 1.0422658e-38 305 252
-0.019048214 0.77600002 -0.01632704 1.005567e-38 306 252
-0.017687626 0.77600002 -0.01632704 9.9634745e-39 307 252
-0.016284959 0.77399999 -0.016284959 9.4128189e-39 308 252
-0.014927879 0.77399999 -0.016284959 9.4128189e-39 309 252
-0.013553266 0.773 -0.016263919 9.320975e-39 310 252
-0.01216638 0.77100003 -0.016221842 9.2287793e-39 311 252
-0.01081456 0.77100003 -0.016221842 9.2280577e-39 312 252
-0.0094627403 0.77100003 -0.016221842 9.2280577e-39 313 252
-0.0080898795 0.76899999 -0.016179759 8.8614233e-39 314 252
-0.0067415666 0.76899999 -0.016179759 8.8614233e-39 315 252
-0.0053932532 0.76899999 -0.016179759 8.4947932e-39 316 252
-0.0040449398 0.76899999 -0.016179759 8.4025976e-39 317 252
-0.0026966266 0.76899999 -0.016179759 8.8606904e-39 318 252
-0.0013483133 0.76899999 -0.016179759 8.7681375e-39 319 252
0 0.76899999 -0.016179759 8.7681375e-39 320 252
0.0013483133 0.76899999 -0.016179759 8.6759433e-39 321 252
0.0026966266 0.76899999 -0.016179759 8.5841134e-39 322 252
0.0040554604 0.77100003 -0.016221842 8.5841134e-39 323 252
0.0054072798 0.77100003 -0.016221842 8.5834099e-39 324 252
0.0067590997 0.77100003 -0.016221842 8.6756055e-39 325 252
0.0081109209 0.77100003 -0.016221842 8.6752496e-39 326 252
0.0094627403 0.77100003 -0.016221842 8.7678054e-39 327 252
0.01081456 0.77100003 -0.016221842 9.0425916e-39 328 252
0.012134819 0.76899999 -0.016179759 9.1347872e-39 329 252
0.013483133 0.76899999 -0.016179759 9.4106511e-39 330 252
0.014831445 0.76899999 -0.016179759 9.3184554e-39 331 252
0.016179759 0.76899999 -0.016179759 9.1351432e-39 332 252
0.01757366 0.77100003 -0.016221842 9.0429475e-39 333 252
0.018925481 0.77100003 -0.016221842 9.409935e-39 334 252
0.020277301 0.77100003 -0.016221842 9.5939661e-39 335 252
0.021769386 0.77600002 -0.01632704 9.8698566e-39 336 252
-0.026017714 0.78100002 -0.017801592 1.1989728e-38 301 253
-0.024616797 0.77999997 -0.017778799 1.189605e-38 302 253
-0.023189586 0.778 -0.017733213 1.1342876e-38 303 253
-0.021825492 0.778 -0.017733213 1.1158443e-38 304 253
-0.020513998 0.77999997 -0.017778799 1.0697465e-38 305 253
-0.019097306 0.778 -0.017733213 9.9652752e-39 306 253
-0.017733213 0.778 -0.017733213 9.6883296e-39 307 253
-0.01632704 0.77600002 -0.017687626 9.4131748e-39 308 253
-0.014927879 0.77399999 -0.01764204 9.4131748e-39 309 253
-0.013570799 0.77399999 -0.01764204 9.1373096e-39 310 253
-0.012197939 0.773 -0.017619247 9.0451139e-39 311 253
-0.010842613 0.773 -0.017619247 9.0443951e-39 312 253
-0.0094627403 0.77100003 -0.01757366 9.0443951e-39 313 253
-0.0081109209 0.77100003 -0.01757366 8.677402e-39 314 253
-0.0067590997 0.77100003 -0.01757366 8.677402e-39 315 253
-0.0054072798 0.77100003 -0.01757366 8.6777523e-39 316 253
-0.0040554604 0.77100003 -0.01757366 8.5855567e-39 317 253
-0.0027036399 0.77100003 -0.01757366 8.8606989e-39 318 253
-0.00135182 0.77100003 -0.01757366 8.7685032e-39 319 253
0 0.77100003 -0.01757366 8.5851938e-39 320 253
0.00135182 0.77100003 -0.01757366 8.4929967e-39 321 253
0.0027106532 0.773 -0.017619247 8.5834043e-39 322 253
0.0040659797 0.773 -0.017619247 8.5834043e-39 323 253
0.0054213065 0.773 -0.017619247 8.6748867e-39 324 253
0.0067766332 0.773 -0.017619247 8.6748867e-39 325 253
0.0081109209 0.77100003 -0.01757366 8.7670851e-39 326 253
0.0094627403 0.77100003 -0.01757366 8.8592821e-39 327 253
0.01081456 0.77100003 -0.01757366 9.1344369e-39 328 253
0.01216638 0.77100003 -0.01757366 9.1344369e-39 329 253
0.013518199 0.77100003 -0.01757366 9.2266353e-39 330 253
0.01487002 0.77100003 -0.01757366 9.4106665e-39 331 253
0.016221842 0.77100003 -0.01757366 9.2273542e-39 332 253
0.01757366 0.77100003 -0.01757366 9.2273542e-39 333 253
0.018925481 0.77100003 -0.01757366 9.4095945e-39 334 253
0.0203299 0.773 -0.017619247 9.8705726e-39 335 253
-0.024616797 0.77999997 -0.0191464 1.1897514e-38 302 254
-0.023189586 0.778 -0.019097306 1.1620926e-38 303 254
-0.021825492 0.778 -0.019097306 1.1344639e-38 304 254
-0.020513998 0.77999997 -0.0191464 1.0975496e-38 305 254
-0.019097306 0.778 -0.019097306 1.0607395e-38 306 254
-0.017733213 0.778 -0.019097306 1.0423364e-38 307 254
-0.01632704 0.77600002 -0.019048214 9.413172e-39 308 254
-0.014966453 0.77600002 -0.019048214 9.413172e-39 309 254
-0.013605867 0.77600002 -0.019048214 9.320619e-39 310 254
-0.01221372 0.77399999 -0.018999118 9.2284234e-39 311 254
-0.01085664 0.77399999 -0.018999118 9.0443895e-39 312 254
-0.0094872871 0.773 -0.018974574 9.0443895e-39 313 254
-0.0081319595 0.773 -0.018974574 8.8607143e-39 314 254
-0.0067766332 0.773 -0.018974574 8.8607143e-39 315 254
-0.0054213065 0.773 -0.018974574 8.5855595e-39 316 254
-0.0040659797 0.773 -0.018974574 8.5855595e-39 317 254
-0.0027106532 0.773 -0.018974574 8.8606989e-39 318 254
-0.0013553266 0.773 -0.018974574 8.7685032e-39 319 254
0 0.773 -0.018974574 9.043651e-39 320 254
0.0013553266 0.773 -0.018974574 8.9510952e-39 321 254
0.0027141599 0.77399999 -0.018999118 8.8585493e-39 322 254
0.0040712398 0.77399999 -0.018999118 8.9507449e-39 323 254
0.0054283198 0.77399999 -0.018999118 8.8581961e-39 324 254
0.0067766332 0.773 -0.018974574 8.9507505e-39 325 254
0.0081319595 0.773 -0.018974574 8.7667292e-39 326 254
0.0094872871 0.773 -0.018974574 8.8589262e-39 327 254
0.010842613 0.773 -0.018974574 9.0429629e-39 328 254
0.012197939 0.773 -0.018974574 9.1351586e-39 329 254
0.013553266 0.773 -0.018974574 9.4106665e-39 330 254
0.01487002 0.77100003 -0.018925481 9.4106665e-39 331 254
0.016221842 0.77100003 -0.018925481 9.5946976e-39 332 254
0.01757366 0.77100003 -0.018925481 9.6868946e-39 333 254
0.018925481 0.77100003 -0.018925481 9.9616991e-39 334 254
-0.023249198 0.77999997 -0.020513998 1.1713499e-38 303 255
-0.021881599 0.77999997 -0.020513998 1.1345394e-38 304 255
-0.020513998 0.77999997 -0.020513998 1.1068806e-38 305 255
-0.019097306 0.778 -0.020461399 1.1067326e-38 306 255
-0.017733213 0.778 -0.020461399 1.0790381e-38 307 255
-0.01632704 0.77600002 -0.0204088 9.6897645e-39 308 255
-0.014966453 0.77600002 -0.0204088 9.5050145e-39 309 255
-0.013605867 0.77600002 -0.0204088 9.4124517e-39 310 255
-0.01224528 0.77600002 -0.0204088 9.4124517e-39 311 255
-0.010884693 0.77600002 -0.0204088 9.2287793e-39 312 255
-0.009524107 0.77600002 -0.0204088 9.0443895e-39 313 255
-0.0081424797 0.77399999 -0.020356199 9.1355061e-39 314 255
-0.0067853997 0.77399999 -0.020356199 9.1355061e-39 315 255
-0.0054423464 0.77600002 -0.0204088 8.6766831e-39 316 255
-0.0040712398 0.77399999 -0.020356199 8.8607143e-39 317 255
-0.0027141599 0.77399999 -0.020356199 8.9525498e-39 318 255
-0.0013570799 0.77399999 -0.020356199 8.9525498e-39 319 255
0 0.77399999 -0.020356199 9.0436664e-39 320 255
0.0013570799 0.77399999 -0.020356199 8.8596353e-39 321 255
0.0027141599 0.77399999 -0.020356199 9.0429475e-39 322 255
0.0040712398 0.77399999 -0.020356199 8.9507505e-39 323 255
0.0054283198 0.77399999 -0.020356199 8.9507477e-39 324 255
0.0067853997 0.77399999 -0.020356199 8.9507477e-39 325 255
0.0081424797 0.77399999 -0.020356199 9.0425916e-39 326 255
0.0094872871 0.773 -0.0203299 9.0425916e-39 327 255
0.010842613 0.773 -0.0203299 9.1344397e-39 328 255
0.01221372 0.77399999 -0.020356199 9.2266353e-39 329 255
0.013570799 0.77399999 -0.020356199 9.5021488e-39 330 255
0.014927879 0.77399999 -0.020356199 9.5943445e-39 331 255
0.016284959 0.77399999 -0.020356199 9.5032418e-39 332 255
0.01764204 0.77399999 -0.020356199 9.7798273e-39 333 255
0.019048214 0.77600002 -0.0204088 1.0146128e-38 334 255
-0.021881599 0.77999997 -0.021881599 1.1530527e-38 304 256
-0.020461399 0.778 -0.021825492 1.1161744e-38 305 256
-0.019097306 0.778 -0.021825492 1.1162058e-38 306 256
-0.017687626 0.77600002 -0.021769386 1.0608885e-38 307 256
-0.01632704 0.77600002 -0.021769386 1.0607772e-38 308 256
-0.014966453 0.77600002 -0.021769386 1.0423379e-38 309 256
-0.013605867 0.77600002 -0.021769386 9.7808783e-39 310 256
-0.01224528 0.77600002 -0.021769386 9.6886827e-39 311 256
-0.010912746 0.778 -0.021825492 9.6879638e-39 312 256
-0.009524107 0.77600002 -0.021769386 9.5035712e-39 313 256
-0.0081635201 0.77600002 -0.021769386 9.2277073e-39 314 256
-0.0068029333 0.77600002 -0.021769386 9.1355117e-39 315 256
-0.0054563731 0.778 -0.021825492 8.9518407e-39 316 256
-0.0040922803 0.778 -0.021825492 9.0443951e-39 317 256
-0.0027211732 0.77600002 -0.021769386 8.9518407e-39 318 256
-0.0013605866 0.77600002 -0.021769386 8.9518407e-39 319 256
0 0.77600002 -0.021769386 9.2269857e-39 320 256
0.0013570799 0.77399999 -0.021713279 9.2269857e-39 321 256
0.0027141599 0.77399999 -0.021713279 9.1347872e-39 322 256
0.0040712398 0.77399999 -0.021713279 9.1347872e-39 323 256
0.0054283198 0.77399999 -0.021713279 9.3184554e-39 324 256
0.0067853997 0.77399999 -0.021713279 9.3184554e-39 325 256
0.0081424797 0.77399999 -0.021713279 9.3181051e-39 326 256
0.0094995592 0.77399999 -0.021713279 9.4103007e-39 327 256
0.01085664 0.77399999 -0.021713279 9.2270011e-39 328 256
0.01224528 0.77600002 -0.021769386 9.3191967e-39 329 256
0.013570799 0.77399999 -0.021713279 9.5943613e-39 330 256
0.014927879 0.77399999 -0.021713279 9.7787525e-39 331 256
0.016369121 0.778 -0.021825492 1.0055362e-38 332 256
0.017778799 0.77999997 -0.021881599 1.0331589e-38 333 256
-0.020461399 0.778 -0.023189586 1.1438357e-38 305 257
-0.019048214 0.77600002 -0.023129974 1.1437974e-38 306 257
-0.017687626 0.77600002 -0.023129974 1.0977356e-38 307 257
-0.016284959 0.77399999 -0.02307036 1.0976945e-38 308 257
-0.014927879 0.77399999 -0.02307036 1.0515967e-38 309 257
-0.013605867 0.77600002 -0.023129974 1.0240783e-38 310 257
-0.01224528 0.77600002 -0.023129974 1.0056392e-38 311 257
-0.010884693 0.77600002 -0.023129974 1.005567e-38 312 257
-0.0095486529 0.778 -0.023189586 9.8712789e-39 313 257
-0.0081845606 0.778 -0.023189586 9.6872463e-39 314 257
-0.0068204664 0.778 -0.023189586 9.594692e-39 315 257
-0.0054563731 0.778 -0.023189586 9.503218e-39 316 257
-0.0040922803 0.778 -0.023189586 9.503218e-39 317 257
-0.0027281865 0.778 -0.023189586 9.2273514e-39 318 257
-0.0013640933 0.778 -0.023189586 9.2273514e-39 319 257
0 0.77600002 -0.023129974 9.319903e-39 320 257
0.0013605866 0.77600002 -0.023129974 9.2277073e-39 321 257
0.0027211732 0.77600002 -0.023129974 9.4113727e-39 322 257
0.0040712398 0.77399999 -0.02307036 9.4113727e-39 323 257
0.0054283198 0.77399999 -0.02307036 9.5028523e-39 324 257
0.0067853997 0.77399999 -0.02307036 9.4102979e-39 325 257
0.0081424797 0.77399999 -0.02307036 9.4106665e-39 326 257
0.0094995592 0.77399999 -0.02307036 9.4106665e-39 327 257
0.01085664 0.77399999 -0.02307036 9.4110434e-39 328 257
0.012308398 0.77999997 -0.023249198 9.5035978e-39 329 257
0.013693534 0.78100002 -0.023279008 9.686222e-39 330 257
0.015062887 0.78100002 -0.023279008 1.0055365e-38 331 257
0.016432239 0.78100002 -0.023279008 1.0331633e-38 332 257
-0.019048214 0.77600002 -0.024490559 1.1255404e-38 306 258
-0.01764204 0.77399999 -0.02442744 1.0978816e-38 307 258
-0.016284959 0.77399999 -0.02442744 1.1252848e-38 308 258
-0.014927879 0.77399999 -0.02442744 1.0975901e-38 309 258
-0.013570799 0.77399999 -0.02442744 1.0792194e-38 310 258
-0.01221372 0.77399999 -0.02442744 1.0423772e-38 311 258
-0.01085664 0.77399999 -0.02442744 1.0331207e-38 312 258
-0.0095486529 0.778 -0.024553679 1.023901e-38 313 258
-0.0081845606 0.778 -0.024553679 9.8713041e-39 314 258
-0.0068204664 0.778 -0.024553679 9.7791085e-39 315 258
-0.0054703997 0.77999997 -0.024616797 9.5035922e-39 316 258
-0.0041027996 0.77999997 -0.024616797 9.4113965e-39 317 258
-0.0027281865 0.778 -0.024553679 9.4117525e-39 318 258
-0.0013640933 0.778 -0.024553679 9.4117525e-39 319 258
0 0.77600002 -0.024490559 9.319917e-39 320 258
0.0013605866 0.77600002 -0.024490559 9.319917e-39 321 258
0.0027211732 0.77600002 -0.024490559 9.5039481e-39 322 258
0.0040712398 0.77399999 -0.02442744 9.4117525e-39 323 258
0.0054213065 0.773 -0.024395877 9.4113993e-39 324 258
0.0067766332 0.773 -0.024395877 9.4113993e-39 325 258
0.0081424797 0.77399999 -0.02442744 9.3202953e-39 326 258
0.0094995592 0.77399999 -0.02442744 9.3202953e-39 327 258
0.012355739 0.78299999 -0.024711479 9.689466e-39 329 258
0.013728599 0.78299999 -0.024711479 1.0056842e-38 330 258
-0.01764204 0.77399999 -0.025784519 1.1805713e-38 307 259
-0.016284959 0.77399999 -0.025784519 1.1622022e-38 308 259
-0.014927879 0.77399999 -0.025784519 1.1253239e-38 309 259
-0.013570799 0.77399999 -0.025784519 1.0977339e-38 310 259
-0.01221372 0.77399999 -0.025784519 1.0792589e-38 311 259
-0.01085664 0.77399999 -0.025784519 1.0791481e-38 312 259
