# .PCD v.7 - Point Cloud Data file format
FIELDS x y z rgb imX imY
SIZE 4 4 4 4 4 4
TYPE F F F F F F
COUNT 1 1 1 1 1 1
WIDTH 840
HEIGHT 1
VIEWPOINT 0 0 0 1 0 0 0
POINTS 840
DATA ascii
-0.010001013 0.713 -0.055005573 7.4655829e-39 312 284
-0.0087263398 0.71100003 -0.054851279 7.2811917e-39 313 284
-0.0074691991 0.70999998 -0.054774132 7.189359e-39 314 284
-0.0061980332 0.70700002 -0.054542694 7.0053278e-39 315 284
-0.0049584266 0.70700002 -0.054542694 7.0960913e-39 316 284
-0.0037135598 0.70599997 -0.054465543 6.8198632e-39 317 284
-0.0024757064 0.70599997 -0.054465543 6.7280361e-39 318 284
-0.0012378532 0.70599997 -0.054465543 6.8202317e-39 319 284
0 0.704 -0.054311249 6.8198786e-39 320 284
0.0012343467 0.704 -0.054311249 6.727683e-39 321 284
0.0024651866 0.70300001 -0.054234106 7.0031937e-39 322 284
0.0036872597 0.70099998 -0.054079808 7.1875863e-39 323 284
0.0049163462 0.70099998 -0.054079808 7.1883052e-39 324 284
0.0061366665 0.69999999 -0.054002665 7.2805008e-39 325 284
0.0073639993 0.69999999 -0.054002665 7.005709e-39 326 284
0.0085913334 0.69999999 -0.054002665 6.8216779e-39 327 284
0.0098186666 0.69999999 -0.054002665 6.6394376e-39 328 284
0.011045999 0.69999999 -0.054002665 6.6394376e-39 329 284
0.012273333 0.69999999 -0.054002665 6.6394348e-39 330 284
0.013500666 0.69999999 -0.054002665 6.6394348e-39 331 284
0.014727999 0.69999999 -0.054002665 6.5476021e-39 332 284
0.015955333 0.69999999 -0.054002665 6.4554065e-39 333 284
0.017182667 0.69999999 -0.054002665 6.5472392e-39 334 284
0.0183574 0.69800001 -0.053848371 6.3628479e-39 335 284
0.019581227 0.69800001 -0.053848371 6.0866141e-39 336 284
0.020805053 0.69800001 -0.053848371 5.9022243e-39 337 284
0.02199732 0.69700003 -0.053771228 5.7174771e-39 338 284
0.023219392 0.69700003 -0.053771228 5.6252829e-39 339 284
0.024441468 0.69700003 -0.053771228 5.8997132e-39 340 284
0.025663542 0.69700003 -0.053771228 5.8997132e-39 341 284
0.026924185 0.69800001 -0.053848371 5.5330886e-39 342 284
0.028148014 0.69800001 -0.053848371 5.5330886e-39 343 284
0.029371841 0.69800001 -0.053848371 5.5323712e-39 344 284
0.030683333 0.69999999 -0.054002665 5.4398182e-39 345 284
0.031910665 0.69999999 -0.054002665 5.7156834e-39 346 284
0.033137999 0.69999999 -0.054002665 5.5316537e-39 347 284
0.034414422 0.70099998 -0.054079808 5.347624e-39 348 284
0.035643511 0.70099998 -0.054079808 5.347624e-39 349 284
0.036872596 0.70099998 -0.054079808 5.4391008e-39 350 284
0.038210396 0.70300001 -0.054234106 5.3469065e-39 351 284
0.039442986 0.70300001 -0.054234106 5.5305775e-39 352 284
0.040733438 0.704 -0.054311249 5.5305775e-39 353 284
0.042087011 0.70599997 -0.054465543 5.6227717e-39 354 284
0.043324865 0.70599997 -0.054465543 5.714966e-39 355 284
0.044625837 0.70700002 -0.054542694 5.9000719e-39 356 284
0.046060063 0.70999998 -0.054774132 5.9922661e-39 357 284
0.047304932 0.70999998 -0.054774132 6.5432889e-39 358 284
0.048618179 0.71100003 -0.054851279 6.8198758e-39 359 284
0.050005067 0.713 -0.055005573 7.4627313e-39 360 284
0.05132708 0.71399999 -0.05508272 8.0159051e-39 361 284
-0.018935999 0.72000003 -0.056808002 1.2807595e-38 305 285
-0.017649053 0.71899998 -0.056729097 1.0872893e-38 306 285
-0.016342819 0.71700001 -0.056571297 1.013497e-38 307 285
-0.015085679 0.71700001 -0.056571297 9.4009625e-39 308 285
-0.013828539 0.71700001 -0.056571297 8.8477887e-39 309 285
-0.012553867 0.71600002 -0.056492399 8.2049276e-39 310 285
-0.011266919 0.71399999 -0.0563346 7.9279862e-39 311 285
-0.010001013 0.713 -0.056255698 7.5588505e-39 312 285
-0.0087263398 0.71100003 -0.056097899 7.2822679e-39 313 285
-0.0074691991 0.70999998 -0.056018997 7.0985983e-39 314 285
-0.0061980332 0.70700002 -0.055782299 6.9138497e-39 315 285
-0.0049584266 0.70700002 -0.055782299 6.637267e-39 316 285
-0.0037135598 0.70599997 -0.055703394 6.5450728e-39 317 285
-0.0024757064 0.70599997 -0.055703394 6.5447182e-39 318 285
-0.0012378532 0.70599997 -0.055703394 6.5447182e-39 319 285
0 0.704 -0.055545598 6.5443707e-39 320 285
0.0012343467 0.704 -0.055545598 6.5443707e-39 321 285
0.0024651866 0.70300001 -0.0554667 6.6362146e-39 322 285
0.0036872597 0.70099998 -0.055308893 6.8202457e-39 323 285
0.0049163462 0.70099998 -0.055308893 6.6372866e-39 324 285
0.0061454331 0.70099998 -0.055308893 6.7294822e-39 325 285
0.0073745195 0.70099998 -0.055308893 6.6379999e-39 326 285
0.0085913334 0.69999999 -0.055229999 6.6379999e-39 327 285
0.0098186666 0.69999999 -0.055229999 6.4557596e-39 328 285
0.011045999 0.69999999 -0.055229999 6.4557596e-39 329 285
0.012273333 0.69999999 -0.055229999 6.4557596e-39 330 285
0.013500666 0.69999999 -0.055229999 6.2717285e-39 331 285
0.014727999 0.69999999 -0.055229999 6.2713754e-39 332 285
0.015955333 0.69999999 -0.055229999 6.1791797e-39 333 285
0.017182667 0.69999999 -0.055229999 6.1791797e-39 334 285
0.018409999 0.69999999 -0.055229999 6.0869827e-39 335 285
0.019581227 0.69800001 -0.0550722 5.9025858e-39 336 285
0.020805053 0.69800001 -0.0550722 5.6263591e-39 337 285
0.02202888 0.69800001 -0.0550722 5.7167596e-39 338 285
0.023252707 0.69800001 -0.0550722 5.5323712e-39 339 285
0.024476532 0.69800001 -0.0550722 5.7156834e-39 340 285
0.025700359 0.69800001 -0.0550722 5.7156834e-39 341 285
0.026924185 0.69800001 -0.0550722 5.5323712e-39 342 285
0.028148014 0.69800001 -0.0550722 5.5323712e-39 343 285
0.029371841 0.69800001 -0.0550722 5.531295e-39 344 285
0.030683333 0.69999999 -0.055229999 5.4391008e-39 345 285
0.031910665 0.69999999 -0.055229999 5.4391008e-39 346 285
0.03318534 0.70099998 -0.055308893 5.4391008e-39 347 285
0.034414422 0.70099998 -0.055308893 5.5302188e-39 348 285
0.035643511 0.70099998 -0.055308893 5.622413e-39 349 285
0.036872596 0.70099998 -0.055308893 5.1635943e-39 350 285
0.038210396 0.70300001 -0.0554667 5.1635943e-39 351 285
0.039442986 0.70300001 -0.0554667 5.3465478e-39 352 285
0.040733438 0.704 -0.055545598 5.5305775e-39 353 285
0.042087011 0.70599997 -0.055703394 5.4391008e-39 354 285
0.043386232 0.70700002 -0.055782299 5.531295e-39 355 285
0.044688959 0.708 -0.055861197 5.8075217e-39 356 285
0.046060063 0.70999998 -0.056018997 6.08411e-39 357 285
0.047304932 0.70999998 -0.056018997 6.542933e-39 358 285
0.048618179 0.71100003 -0.056097899 6.8198786e-39 359 285
0.050005067 0.713 -0.056255698 7.4630942e-39 360 285
0.051542737 0.71700001 -0.056571297 8.016268e-39 361 285
-0.017649053 0.71899998 -0.057989739 1.1332439e-38 306 286
-0.016388407 0.71899998 -0.057989739 1.0318648e-38 307 286
-0.015085679 0.71700001 -0.057828441 9.3102144e-39 308 286
-0.013828539 0.71700001 -0.057828441 8.7570406e-39 309 286
-0.012553867 0.71600002 -0.057747785 8.2049402e-39 310 286
-0.01129848 0.71600002 -0.057747785 7.8361577e-39 311 286
-0.010001013 0.713 -0.057505824 7.2837084e-39 312 286
-0.0087263398 0.71100003 -0.057344519 7.1915128e-39 313 286
-0.0074691991 0.70999998 -0.057263866 6.8234505e-39 314 286
-0.0061980332 0.70700002 -0.057021905 6.7312549e-39 315 286
-0.0049584266 0.70700002 -0.057021905 6.6376257e-39 316 286
-0.0037135598 0.70599997 -0.056941248 6.4532373e-39 317 286
-0.0024757064 0.70599997 -0.056941248 6.4528785e-39 318 286
-0.0012378532 0.70599997 -0.056941248 6.4528785e-39 319 286
0 0.70599997 -0.056941248 6.360327e-39 320 286
0.0012343467 0.704 -0.056779943 6.360327e-39 321 286
0.0024651866 0.70300001 -0.056699295 6.5436392e-39 322 286
0.0036872597 0.70099998 -0.056537982 6.5436392e-39 323 286
0.0049163462 0.70099998 -0.056537982 6.3614018e-39 324 286
0.0061454331 0.70099998 -0.056537982 6.453596e-39 325 286
0.0073745195 0.70099998 -0.056537982 6.0884064e-39 326 286
0.0085913334 0.69999999 -0.056457333 6.0884064e-39 327 286
0.0098186666 0.69999999 -0.056457333 6.4561127e-39 328 286
0.011045999 0.69999999 -0.056457333 6.4561127e-39 329 286
0.012273333 0.69999999 -0.056457333 6.3628451e-39 330 286
0.013500666 0.69999999 -0.056457333 6.2706481e-39 331 286
0.014727999 0.69999999 -0.056457333 6.2699292e-39 332 286
0.015955333 0.69999999 -0.056457333 6.2699292e-39 333 286
0.017182667 0.69999999 -0.056457333 6.0866141e-39 334 286
0.018409999 0.69999999 -0.056457333 6.0866141e-39 335 286
0.019581227 0.69800001 -0.056296028 5.8103888e-39 336 286
0.020805053 0.69800001 -0.056296028 5.4419706e-39 337 286
0.02202888 0.69800001 -0.056296028 5.6245654e-39 338 286
0.023252707 0.69800001 -0.056296028 5.5323712e-39 339 286
0.024476532 0.69800001 -0.056296028 5.5316537e-39 340 286
0.025700359 0.69800001 -0.056296028 5.5316537e-39 341 286
0.026924185 0.69800001 -0.056296028 5.7160422e-39 342 286
0.028148014 0.69800001 -0.056296028 5.5316537e-39 343 286
0.029455997 0.69999999 -0.056457333 5.4391008e-39 344 286
0.030683333 0.69999999 -0.056457333 5.4391008e-39 345 286
0.031910665 0.69999999 -0.056457333 5.622413e-39 346 286
0.03318534 0.70099998 -0.056537982 5.5302188e-39 347 286
0.034414422 0.70099998 -0.056537982 5.5302188e-39 348 286
0.035643511 0.70099998 -0.056537982 5.5302188e-39 349 286
0.036977798 0.70300001 -0.056699295 5.1635943e-39 350 286
0.038264744 0.704 -0.056779943 5.1635943e-39 351 286
0.039499093 0.704 -0.056779943 5.163953e-39 352 286
0.040733438 0.704 -0.056779943 5.163953e-39 353 286
0.042087011 0.70599997 -0.056941248 5.4391008e-39 354 286
0.043386232 0.70700002 -0.057021905 5.7153247e-39 355 286
0.044688959 0.708 -0.057102561 5.8989957e-39 356 286
0.046060063 0.70999998 -0.057263866 6.2677782e-39 357 286
0.047371563 0.71100003 -0.057344519 6.6354817e-39 358 286
0.048754938 0.713 -0.057505824 6.9124288e-39 359 286
0.050075196 0.71399999 -0.057586476 7.4630844e-39 360 286
0.051542737 0.71700001 -0.057828441 8.2006494e-39 361 286
0.052799881 0.71700001 -0.057828441 1.0777824e-38 362 286
-0.017649053 0.71899998 -0.059250388 1.1517554e-38 306 287
-0.016388407 0.71899998 -0.059250388 1.0226815e-38 307 287
-0.015085679 0.71700001 -0.059085581 9.4920861e-39 308 287
-0.013828539 0.71700001 -0.059085581 9.2154978e-39 309 287
-0.012553867 0.71600002 -0.059003171 8.6633946e-39 310 287
-0.01129848 0.71600002 -0.059003171 8.2027752e-39 311 287
-0.010001013 0.713 -0.058755953 7.7421656e-39 312 287
-0.0087263398 0.71100003 -0.058591139 7.4655801e-39 313 287
-0.0074691991 0.70999998 -0.058508728 7.0993143e-39 314 287
-0.0062067998 0.708 -0.058343921 6.7305374e-39 315 287
-0.0049584266 0.70700002 -0.05826151 6.6379845e-39 316 287
-0.0037135598 0.70599997 -0.058179103 6.5454315e-39 317 287
-0.0024757064 0.70599997 -0.058179103 6.4532373e-39 318 287
-0.0012378532 0.70599997 -0.058179103 6.4532373e-39 319 287
0 0.70599997 -0.058179103 6.6354733e-39 320 287
0.0012378532 0.70599997 -0.058179103 6.6354733e-39 321 287
0.0024686933 0.704 -0.058014292 6.2681313e-39 322 287
0.0037030398 0.704 -0.058014292 6.4525198e-39 323 287
0.0049163462 0.70099998 -0.057767071 6.2702837e-39 324 287
0.0061454331 0.70099998 -0.057767071 6.362478e-39 325 287
0.0073745195 0.70099998 -0.057767071 6.0873302e-39 326 287
0.0085913334 0.69999999 -0.05768466 6.179886e-39 327 287
0.0098186666 0.69999999 -0.05768466 6.0880533e-39 328 287
0.011045999 0.69999999 -0.05768466 6.1802489e-39 329 287
0.012273333 0.69999999 -0.05768466 6.0869799e-39 330 287
0.013500666 0.69999999 -0.05768466 5.9947843e-39 331 287
0.014727999 0.69999999 -0.05768466 5.7192764e-39 332 287
0.015955333 0.69999999 -0.05768466 5.811472e-39 333 287
0.017182667 0.69999999 -0.05768466 5.8118251e-39 334 287
0.018409999 0.69999999 -0.05768466 5.6270765e-39 335 287
0.019637333 0.69999999 -0.05768466 5.535241e-39 336 287
0.020805053 0.69800001 -0.057519849 5.2586584e-39 337 287
0.02202888 0.69800001 -0.057519849 5.5330886e-39 338 287
0.023252707 0.69800001 -0.057519849 5.1646705e-39 339 287
0.024546666 0.69999999 -0.05768466 5.4391008e-39 340 287
0.025773998 0.69999999 -0.05768466 5.4391008e-39 341 287
0.027001332 0.69999999 -0.05768466 5.347624e-39 342 287
0.028228667 0.69999999 -0.05768466 5.4398182e-39 343 287
0.029455997 0.69999999 -0.05768466 5.4391008e-39 344 287
0.030727165 0.70099998 -0.057767071 5.4391008e-39 345 287
0.031956252 0.70099998 -0.057767071 5.3469065e-39 346 287
0.03318534 0.70099998 -0.057767071 5.3469065e-39 347 287
0.034512613 0.70300001 -0.057931885 5.3472653e-39 348 287
0.035745207 0.70300001 -0.057931885 5.3472653e-39 349 287
0.037030395 0.704 -0.058014292 5.163953e-39 350 287
0.038264744 0.704 -0.058014292 5.163953e-39 351 287
0.039499093 0.704 -0.058014292 5.3472653e-39 352 287
0.040849157 0.70599997 -0.058179103 5.4394595e-39 353 287
0.042087011 0.70599997 -0.058179103 5.531295e-39 354 287
0.043386232 0.70700002 -0.05826151 5.7153247e-39 355 287
0.044815198 0.70999998 -0.058508728 5.7164051e-39 356 287
0.046060063 0.70999998 -0.058508728 5.8086021e-39 357 287
0.047371563 0.71100003 -0.058591139 6.4518164e-39 358 287
0.048754938 0.713 -0.058755953 6.8205989e-39 359 287
0.050005067 0.713 -0.058755953 7.8322341e-39 360 287
0.051542737 0.71700001 -0.059085581 8.6619933e-39 361 287
0.052799881 0.71700001 -0.059085581 1.1239162e-38 362 287
-0.017673599 0.72000003 -0.060595199 1.1518636e-38 306 288
-0.0164112 0.72000003 -0.060595199 1.0411928e-38 307 288
-0.015085679 0.71700001 -0.060342718 9.2169496e-39 308 288
-0.013828539 0.71700001 -0.060342718 9.0321996e-39 309 288
-0.012553867 0.71600002 -0.06025856 8.2967827e-39 310 288
-0.01129848 0.71600002 -0.06025856 7.8361633e-39 311 288
-0.010001013 0.713 -0.060006075 7.6507001e-39 312 288
-0.0087263398 0.71100003 -0.059837762 7.4659487e-39 313 288
-0.0074691991 0.70999998 -0.059753593 6.9156489e-39 314 288
-0.0062243328 0.70999998 -0.059753593 6.8234533e-39 315 288
-0.0049584266 0.70700002 -0.059501119 6.8230904e-39 316 288
-0.0037188199 0.70700002 -0.059501119 6.7305374e-39 317 288
-0.0024757064 0.70599997 -0.059416957 6.8216554e-39 318 288
-0.0012378532 0.70599997 -0.059416957 6.4532373e-39 319 288
0 0.70599997 -0.059416957 6.5439966e-39 320 288
0.0012378532 0.70599997 -0.059416957 6.5439966e-39 321 288
0.0024686933 0.704 -0.059248637 6.3606843e-39 322 288
0.0037030398 0.704 -0.059248637 6.4528785e-39 323 288
0.0049303733 0.70300001 -0.059164476 6.2702837e-39 324 288
0.0061454331 0.70099998 -0.058996156 6.2702837e-39 325 288
0.0073745195 0.70099998 -0.058996156 6.0866127e-39 326 288
0.0085913334 0.69999999 -0.058911994 6.2710012e-39 327 288
0.0098186666 0.69999999 -0.058911994 6.0880533e-39 328 288
0.011045999 0.69999999 -0.058911994 6.0880533e-39 329 288
0.012273333 0.69999999 -0.058911994 5.9040208e-39 330 288
0.013500666 0.69999999 -0.058911994 5.8118251e-39 331 288
0.014727999 0.69999999 -0.058911994 5.720347e-39 332 288
0.015955333 0.69999999 -0.058911994 5.6281527e-39 333 288
0.017182667 0.69999999 -0.058911994 5.8111063e-39 334 288
0.018409999 0.69999999 -0.058911994 5.6267178e-39 335 288
0.019637333 0.69999999 -0.058911994 5.5345236e-39 336 288
0.020864666 0.69999999 -0.058911994 5.3501351e-39 337 288
0.022091998 0.69999999 -0.058911994 5.3490589e-39 338 288
0.023319334 0.69999999 -0.058911994 5.2568647e-39 339 288
0.024546666 0.69999999 -0.058911994 5.3469065e-39 340 288
0.025773998 0.69999999 -0.058911994 5.3469065e-39 341 288
0.027001332 0.69999999 -0.058911994 5.4391008e-39 342 288
0.028228667 0.69999999 -0.058911994 5.4391008e-39 343 288
0.029455997 0.69999999 -0.058911994 5.4394595e-39 344 288
0.030727165 0.70099998 -0.058996156 5.3472653e-39 345 288
0.031956252 0.70099998 -0.058996156 5.347624e-39 346 288
0.033280019 0.70300001 -0.059164476 5.347624e-39 347 288
0.034512613 0.70300001 -0.059164476 5.4391008e-39 348 288
0.035796054 0.704 -0.059248637 5.4391008e-39 349 288
0.037030395 0.704 -0.059248637 5.347624e-39 350 288
0.038264744 0.704 -0.059248637 5.4398182e-39 351 288
0.039499093 0.704 -0.059248637 5.5316537e-39 352 288
0.040849157 0.70599997 -0.059416957 5.5316537e-39 353 288
0.042087011 0.70599997 -0.059416957 5.714966e-39 354 288
0.043386232 0.70700002 -0.059501119 5.8071602e-39 355 288
0.044815198 0.70999998 -0.059753593 5.8989985e-39 356 288
0.046124939 0.71100003 -0.059837762 6.1752267e-39 357 288
0.047371563 0.71100003 -0.059837762 6.6354845e-39 358 288
0.048754938 0.713 -0.060006075 7.0046272e-39 359 288
0.050005067 0.713 -0.060006075 7.9229892e-39 360 288
0.051255193 0.713 -0.060006075 9.1211736e-39 361 288
-0.0164112 0.72000003 -0.061857603 1.0413011e-38 307 289
-0.01512776 0.71899998 -0.061771683 9.4921015e-39 308 289
-0.013828539 0.71700001 -0.061599858 9.3077103e-39 309 289
-0.0125714 0.71700001 -0.061599858 8.2967827e-39 310 289
-0.01129848 0.71600002 -0.061513945 7.9283589e-39 311 289
-0.01001504 0.71399999 -0.061342116 7.8347312e-39 312 289
-0.0087263398 0.71100003 -0.061084379 7.6507001e-39 313 289
-0.0074797203 0.71100003 -0.061084379 7.1911568e-39 314 289
-0.0062243328 0.70999998 -0.060998458 7.1911568e-39 315 289
-0.0049794666 0.70999998 -0.060998458 7.0993143e-39 316 289
-0.00372408 0.708 -0.060826641 7.0071201e-39 317 289
-0.0024757064 0.70599997 -0.060654808 7.0056852e-39 318 289
-0.0012378532 0.70599997 -0.060654808 6.8212967e-39 319 289
0 0.70599997 -0.060654808 6.7280263e-39 320 289
0.0012378532 0.70599997 -0.060654808 6.8202205e-39 321 289
0.0024686933 0.704 -0.060482983 6.453596e-39 322 289
0.0037030398 0.704 -0.060482983 6.453596e-39 323 289
0.0049303733 0.70300001 -0.06039707 6.0866127e-39 324 289
0.0061629666 0.70300001 -0.06039707 6.2710012e-39 325 289
0.0073955595 0.70300001 -0.06039707 6.0866141e-39 326 289
0.0086036054 0.70099998 -0.060225245 6.2706453e-39 327 289
0.0098326923 0.70099998 -0.060225245 6.0873302e-39 328 289
0.011061779 0.70099998 -0.060225245 6.0873302e-39 329 289
0.012273333 0.69999999 -0.060139328 5.8118237e-39 330 289
0.013500666 0.69999999 -0.060139328 5.8118237e-39 331 289
0.014727999 0.69999999 -0.060139328 5.7196295e-39 332 289
0.015955333 0.69999999 -0.060139328 5.7196295e-39 333 289
0.017182667 0.69999999 -0.060139328 5.6267178e-39 334 289
0.018409999 0.69999999 -0.060139328 5.5345236e-39 335 289
0.019637333 0.69999999 -0.060139328 5.5345236e-39 336 289
0.020864666 0.69999999 -0.060139328 5.3497764e-39 337 289
0.022091998 0.69999999 -0.060139328 5.2568647e-39 338 289
0.023319334 0.69999999 -0.060139328 5.1646705e-39 339 289
0.024546666 0.69999999 -0.060139328 5.347624e-39 340 289
0.025773998 0.69999999 -0.060139328 5.1635943e-39 341 289
0.027001332 0.69999999 -0.060139328 5.3472653e-39 342 289
0.028228667 0.69999999 -0.060139328 5.3472653e-39 343 289
0.029498078 0.70099998 -0.060225245 5.3472667e-39 344 289
0.030727165 0.70099998 -0.060225245 5.3472667e-39 345 289
0.032047424 0.70300001 -0.06039707 5.3472653e-39 346 289
0.033280019 0.70300001 -0.06039707 5.3472653e-39 347 289
0.034512613 0.70300001 -0.06039707 5.4391008e-39 348 289
0.035796054 0.704 -0.060482983 5.4391008e-39 349 289
0.037030395 0.704 -0.060482983 5.4391008e-39 350 289
0.038373452 0.70599997 -0.060654808 5.531295e-39 351 289
0.039611302 0.70599997 -0.060654808 5.7146072e-39 352 289
0.040907022 0.70700002 -0.060740728 5.7146072e-39 353 289
0.042206239 0.708 -0.060826641 5.8979195e-39 354 289
0.043447599 0.708 -0.060826641 5.9901137e-39 355 289
0.044878319 0.71100003 -0.061084379 5.8989985e-39 356 289
0.046124939 0.71100003 -0.061084379 6.2674223e-39 357 289
0.047371563 0.71100003 -0.061084379 6.5440148e-39 358 289
0.048754938 0.713 -0.061256204 7.0049929e-39 359 289
0.050075196 0.71399999 -0.061342116 8.3832583e-39 360 289
0.05132708 0.71399999 -0.061342116 9.7661927e-39 361 289
-0.015211919 0.72299999 -0.063382991 9.4006346e-39 308 290
-0.013867113 0.71899998 -0.063032329 9.0318521e-39 309 290
-0.0125714 0.71700001 -0.062856995 8.4811768e-39 310 290
-0.01129848 0.71600002 -0.062769331 8.1123929e-39 311 290
-0.01001504 0.71399999 -0.062593997 8.0191196e-39 312 290
-0.0087263398 0.71100003 -0.062331002 7.6506973e-39 313 290
-0.0074797203 0.71100003 -0.062331002 7.2840755e-39 314 290
-0.0062243328 0.70999998 -0.062243331 7.1000444e-39 315 290
-0.0049794666 0.70999998 -0.062243331 7.2833539e-39 316 290
-0.0037345996 0.70999998 -0.062243331 7.1911568e-39 317 290
-0.0024897333 0.70999998 -0.062243331 7.0985983e-39 318 290
-0.00124136 0.708 -0.062068 7.0060439e-39 319 290
0 0.708 -0.062068 6.7305388e-39 320 290
0.0012396066 0.70700002 -0.061980337 6.6379845e-39 321 290
0.0024757064 0.70599997 -0.061892662 6.4546722e-39 322 290
0.0037135598 0.70599997 -0.061892662 6.4546722e-39 323 290
0.0049373866 0.704 -0.061717331 6.3631954e-39 324 290
0.0061717331 0.704 -0.061717331 6.2710012e-39 325 290
0.0074060797 0.704 -0.061717331 6.2710012e-39 326 290
0.0086281532 0.70300001 -0.061629668 6.2710012e-39 327 290
0.0098326923 0.70099998 -0.06145433 6.0876889e-39 328 290
0.011061779 0.70099998 -0.06145433 5.9029418e-39 329 290
0.012290866 0.70099998 -0.06145433 5.9022243e-39 330 290
0.013519952 0.70099998 -0.06145433 5.9022243e-39 331 290
0.014727999 0.69999999 -0.061366666 5.6274353e-39 332 290
0.015955333 0.69999999 -0.061366666 5.535241e-39 333 290
0.017182667 0.69999999 -0.061366666 5.6267178e-39 334 290
0.018409999 0.69999999 -0.061366666 5.5345236e-39 335 290
0.019637333 0.69999999 -0.061366666 5.6256416e-39 336 290
0.020864666 0.69999999 -0.061366666 5.5330886e-39 337 290
0.022091998 0.69999999 -0.061366666 5.440177e-39 338 290
0.023352645 0.70099998 -0.06145433 5.3479827e-39 339 290
0.024546666 0.69999999 -0.061366666 5.3472653e-39 340 290
0.025773998 0.69999999 -0.061366666 5.3472653e-39 341 290
0.027039904 0.70099998 -0.06145433 5.1635943e-39 342 290
0.028268991 0.70099998 -0.06145433 5.347624e-39 343 290
0.029498078 0.70099998 -0.06145433 5.3472667e-39 344 290
0.030814834 0.70300001 -0.061629668 5.3472667e-39 345 290
0.032047424 0.70300001 -0.061629668 5.4394651e-39 346 290
0.033280019 0.70300001 -0.061629668 5.3469107e-39 347 290
0.034561705 0.704 -0.061717331 5.3472667e-39 348 290
0.035796054 0.704 -0.061717331 5.3472667e-39 349 290
0.037135597 0.70599997 -0.061892662 5.438742e-39 350 290
0.038373452 0.70599997 -0.061892662 5.438742e-39 351 290
0.039611302 0.70599997 -0.061892662 5.7138898e-39 352 290
0.040907022 0.70700002 -0.061980337 5.7138898e-39 353 290
0.042206239 0.708 -0.062068 5.7138898e-39 354 290
0.043570329 0.70999998 -0.062243331 5.9901151e-39 355 290
0.044878319 0.71100003 -0.062331002 6.1745092e-39 356 290
0.046254687 0.713 -0.062506333 6.3589019e-39 357 290
0.047504812 0.713 -0.062506333 6.9117225e-39 358 290
0.048960082 0.71600002 -0.062769331 7.4648949e-39 359 290
0.050215468 0.71600002 -0.062769331 9.0279088e-39 360 290
0.051470853 0.71600002 -0.062769331 1.0318648e-38 361 290
-0.015211919 0.72299999 -0.064650662 9.8612596e-39 308 291
-0.013924973 0.722 -0.064561233 9.4006402e-39 309 291
-0.0125714 0.71700001 -0.064114138 8.4815425e-39 310 291
-0.01129848 0.71600002 -0.064024724 8.0209245e-39 311 291
-0.010043093 0.71600002 -0.064024724 7.9280058e-39 312 291
-0.0087263398 0.71100003 -0.063577622 7.7436146e-39 313 291
-0.0074797203 0.71100003 -0.063577622 7.4677507e-39 314 291
-0.0062243328 0.70999998 -0.063488193 7.4677507e-39 315 291
-0.0049794666 0.70999998 -0.063488193 7.5588674e-39 316 291
-0.0037345996 0.70999998 -0.063488193 7.4666717e-39 317 291
-0.0024897333 0.70999998 -0.063488193 7.2826392e-39 318 291
-0.00124136 0.708 -0.063309364 7.1904436e-39 319 291
0 0.708 -0.063309364 6.8230974e-39 320 291
0.0012396066 0.70700002 -0.063219935 6.8230974e-39 321 291
0.0024792133 0.70700002 -0.063219935 6.6401383e-39 322 291
0.0037188199 0.70700002 -0.063219935 6.6401383e-39 323 291
0.0049514128 0.70599997 -0.063130513 6.4557484e-39 324 291
0.0061892662 0.70599997 -0.063130513 6.4557484e-39 325 291
0.0074060797 0.704 -0.062951677 6.1798832e-39 326 291
0.0086281532 0.70300001 -0.062862262 6.1798832e-39 327 291
0.0098607466 0.70300001 -0.062862262 6.0873302e-39 328 291
0.011061779 0.70099998 -0.062683418 5.9029418e-39 329 291
0.012290866 0.70099998 -0.062683418 5.9022243e-39 330 291
0.013519952 0.70099998 -0.062683418 5.9022243e-39 331 291
0.014749039 0.70099998 -0.062683418 5.6270765e-39 332 291
0.015978126 0.70099998 -0.062683418 5.6270765e-39 333 291
0.017207211 0.70099998 -0.062683418 5.6274353e-39 334 291
0.018436298 0.70099998 -0.062683418 5.535241e-39 335 291
0.019665385 0.70099998 -0.062683418 5.5345236e-39 336 291
0.020894472 0.70099998 -0.062683418 5.3497764e-39 337 291
0.022123558 0.70099998 -0.062683418 5.3490589e-39 338 291
0.023419274 0.70300001 -0.062862262 5.2568647e-39 339 291
0.024651866 0.70300001 -0.062862262 5.4391008e-39 340 291
0.025884461 0.70300001 -0.062862262 5.3469065e-39 341 291
0.027039904 0.70099998 -0.062683418 5.347624e-39 342 291
0.028268991 0.70099998 -0.062683418 5.4398182e-39 343 291
0.029582238 0.70300001 -0.062862262 5.3472667e-39 344 291
0.030814834 0.70300001 -0.062862262 5.3472667e-39 345 291
0.032093015 0.704 -0.062951677 5.4394651e-39 346 291
0.03332736 0.704 -0.062951677 5.3469107e-39 347 291
0.034561705 0.704 -0.062951677 5.4387462e-39 348 291
0.035897743 0.70599997 -0.063130513 5.3461919e-39 349 291
0.037135597 0.70599997 -0.063130513 5.4387462e-39 350 291
0.038373452 0.70599997 -0.063130513 5.4387462e-39 351 291
0.039667413 0.70700002 -0.063219935 5.7142513e-39 352 291
0.040964879 0.708 -0.063309364 5.7142513e-39 353 291
0.042325463 0.70999998 -0.063488193 5.7142513e-39 354 291
0.043570329 0.70999998 -0.063488193 5.8990013e-39 355 291
0.044878319 0.71100003 -0.063577622 6.266709e-39 356 291
0.046254687 0.713 -0.063756458 6.6351314e-39 357 291
0.047504812 0.713 -0.063756458 7.0039181e-39 358 291
0.048960082 0.71600002 -0.064024724 7.5570919e-39 359 291
0.050215468 0.71600002 -0.064024724 9.6739999e-39 360 291
0.051470853 0.71600002 -0.064024724 1.0595956e-38 361 291
-0.016525166 0.72500002 -0.066100664 1.1611567e-38 307 292
-0.015211919 0.72299999 -0.065918319 1.0596674e-38 308 292
-0.01394426 0.72299999 -0.065918319 9.8591072e-39 309 292
-0.012659066 0.722 -0.065827139 8.5737424e-39 310 292
-0.01131426 0.71700001 -0.065371275 8.2053186e-39 311 292
-0.010043093 0.71600002 -0.06528011 8.2042368e-39 312 292
-0.0087508867 0.713 -0.065006584 7.835813e-39 313 292
-0.0074797203 0.71100003 -0.064824238 7.5599464e-39 314 292
-0.0062330998 0.71100003 -0.064824238 7.5599464e-39 315 292
-0.0049864799 0.71100003 -0.064824238 7.375918e-39 316 292
-0.0037345996 0.70999998 -0.064733058 7.0996913e-39 317 292
-0.0024897333 0.70999998 -0.064733058 7.4663158e-39 318 292
-0.0012448666 0.70999998 -0.064733058 7.4663158e-39 319 292
0 0.70999998 -0.064733058 7.1007633e-39 320 292
0.00124136 0.708 -0.06455072 6.9163706e-39 321 292
0.0024792133 0.70700002 -0.064459547 6.8256043e-39 322 292
0.0037188199 0.70700002 -0.064459547 6.7334087e-39 323 292
0.0049514128 0.70599997 -0.064368367 6.9160021e-39 324 292
0.0061892662 0.70599997 -0.064368367 6.7316136e-39 325 292
0.0074060797 0.704 -0.064186029 6.5479426e-39 326 292
0.0086404262 0.704 -0.064186029 6.3635542e-39 327 292
0.0098607466 0.70300001 -0.064094849 6.0869715e-39 328 292
0.01109334 0.70300001 -0.064094849 5.9947773e-39 329 292
0.012325933 0.70300001 -0.064094849 5.9022243e-39 330 292
0.013519952 0.70099998 -0.063912503 5.9022243e-39 331 292
0.014749039 0.70099998 -0.063912503 5.9029418e-39 332 292
0.015978126 0.70099998 -0.063912503 5.9029418e-39 333 292
0.017207211 0.70099998 -0.063912503 5.9947773e-39 334 292
0.018436298 0.70099998 -0.063912503 5.9022243e-39 335 292
0.019665385 0.70099998 -0.063912503 5.8100301e-39 336 292
0.020954086 0.70300001 -0.064094849 5.6256416e-39 337 292
0.02218668 0.70300001 -0.064094849 5.8082364e-39 338 292
0.023419274 0.70300001 -0.064094849 5.5316537e-39 339 292
0.024651866 0.70300001 -0.064094849 5.5316537e-39 340 292
0.025884461 0.70300001 -0.064094849 5.4391008e-39 341 292
0.027117053 0.70300001 -0.064094849 5.4398182e-39 342 292
0.028349647 0.70300001 -0.064094849 5.4398182e-39 343 292
0.029624319 0.704 -0.064186029 5.438742e-39 344 292
0.030858666 0.704 -0.064186029 5.5309362e-39 345 292
0.032093015 0.704 -0.064186029 5.622413e-39 346 292
0.03332736 0.704 -0.064186029 5.622413e-39 347 292
0.034659892 0.70599997 -0.064368367 5.3472667e-39 348 292
0.035897743 0.70599997 -0.064368367 5.1632355e-39 349 292
0.037188202 0.70700002 -0.064459547 5.3461919e-39 350 292
0.038427804 0.70700002 -0.064459547 5.4387462e-39 351 292
0.039723519 0.708 -0.06455072 5.3469107e-39 352 292
0.040964879 0.708 -0.06455072 5.5316607e-39 353 292
0.042325463 0.70999998 -0.064733058 5.8064525e-39 354 292
0.043570329 0.70999998 -0.064733058 5.9908452e-39 355 292
0.044878319 0.71100003 -0.064824238 6.3592676e-39 356 292
0.046254687 0.713 -0.065006584 6.6362146e-39 357 292
0.047504812 0.713 -0.065006584 7.4638229e-39 358 292
0.048823316 0.71399999 -0.065097757 8.0169967e-39 359 292
0.050215468 0.71600002 -0.06528011 1.0134269e-38 360 292
-0.016525166 0.72500002 -0.067371838 1.1426458e-38 307 293
-0.015211919 0.72299999 -0.067185976 1.1057653e-38 308 293
-0.01394426 0.72299999 -0.067185976 1.0043503e-38 309 293
-0.012659066 0.722 -0.067093052 8.572669e-39 310 293
-0.01131426 0.71700001 -0.066628419 8.4804733e-39 311 293
-0.010043093 0.71600002 -0.066535495 8.0205686e-39 312 293
-0.0087631596 0.71399999 -0.066349633 7.8361759e-39 313 293
-0.0075007593 0.713 -0.066256717 7.3773558e-39 314 293
-0.0062506334 0.713 -0.066256717 7.2848014e-39 315 293
-0.0049864799 0.71100003 -0.066070862 7.1926086e-39 316 293
-0.0037398601 0.71100003 -0.066070862 7.1004129e-39 317 293
-0.0024897333 0.70999998 -0.065977924 7.4663158e-39 318 293
-0.0012448666 0.70999998 -0.065977924 7.5588702e-39 319 293
0 0.70999998 -0.065977924 6.9174482e-39 320 293
0.00124136 0.708 -0.065792084 7.1014793e-39 321 293
0.00248272 0.708 -0.065792084 6.8259686e-39 322 293
0.0037188199 0.70700002 -0.065699153 6.7337716e-39 323 293
0.0049514128 0.70599997 -0.065606222 6.7326996e-39 324 293
0.0061892662 0.70599997 -0.065606222 6.5483084e-39 325 293
0.0074271196 0.70599997 -0.065606222 6.4561127e-39 326 293
0.0086404262 0.704 -0.065420374 6.2720816e-39 327 293
0.0098747732 0.704 -0.065420374 5.904018e-39 328 293
0.01109334 0.70300001 -0.065327443 5.8118237e-39 329 293
0.012325933 0.70300001 -0.065327443 5.9029418e-39 330 293
0.013558527 0.70300001 -0.065327443 5.995136e-39 331 293
0.014791119 0.70300001 -0.065327443 5.9029418e-39 332 293
0.015978126 0.70099998 -0.065141588 5.995136e-39 333 293
0.017207211 0.70099998 -0.065141588 5.8118237e-39 334 293
0.018488899 0.70300001 -0.065327443 5.7196295e-39 335 293
0.019721493 0.70300001 -0.065327443 5.6267178e-39 336 293
0.020954086 0.70300001 -0.065327443 5.6267178e-39 337 293
0.02218668 0.70300001 -0.065327443 5.7174771e-39 338 293
0.023419274 0.70300001 -0.065327443 5.5330886e-39 339 293
0.024686933 0.704 -0.065420374 5.5320124e-39 340 293
0.02592128 0.704 -0.065420374 5.4398182e-39 341 293
0.027155625 0.704 -0.065420374 5.4398182e-39 342 293
0.028389972 0.704 -0.065420374 5.4398182e-39 343 293
0.029624319 0.704 -0.065420374 5.5323712e-39 344 293
0.030858666 0.704 -0.065420374 5.347624e-39 345 293
0.032184184 0.70599997 -0.065606222 5.4391008e-39 346 293
0.033422034 0.70599997 -0.065606222 5.4391008e-39 347 293
0.034708988 0.70700002 -0.065699153 5.4387434e-39 348 293
0.035948593 0.70700002 -0.065699153 5.3465478e-39 349 293
0.0372408 0.708 -0.065792084 5.4387434e-39 350 293
0.038482159 0.708 -0.065792084 5.4387434e-39 351 293
0.039723519 0.708 -0.065792084 5.5316551e-39 352 293
0.041080594 0.70999998 -0.065977924 5.6242095e-39 353 293
0.042325463 0.70999998 -0.065977924 5.9911969e-39 354 293
0.043570329 0.70999998 -0.065977924 6.1752295e-39 355 293
0.044878319 0.71100003 -0.066070862 6.6351342e-39 356 293
0.046254687 0.713 -0.066256717 7.188308e-39 357 293
0.047504812 0.713 -0.066256717 7.923006e-39 358 293
0.048823316 0.71399999 -0.066349633 8.8449623e-39 359 293
-0.017869972 0.72799999 -0.068927035 1.1703044e-38 306 294
-0.01647958 0.72299999 -0.06845364 1.1518651e-38 307 294
-0.015211919 0.72299999 -0.06845364 1.1059452e-38 308 294
-0.01394426 0.72299999 -0.06845364 1.0045301e-38 309 294
-0.012659066 0.722 -0.068358958 8.9414515e-39 310 294
-0.01134582 0.71899998 -0.068074919 8.572669e-39 311 294
-0.01005712 0.71700001 -0.067885563 8.2960695e-39 312 294
-0.0087877065 0.71600002 -0.067790881 8.1113181e-39 313 294
-0.0075112795 0.71399999 -0.067601517 7.6528609e-39 314 294
-0.0062506334 0.713 -0.067506835 7.4684696e-39 315 294
-0.0050005065 0.713 -0.067506835 7.4677535e-39 316 294
-0.0037398601 0.71100003 -0.067317478 7.3751992e-39 317 294
-0.0024897333 0.70999998 -0.067222796 7.3755551e-39 318 294
-0.0012448666 0.70999998 -0.067222796 7.4677507e-39 319 294
0 0.70999998 -0.067222796 7.1940309e-39 320 294
0.0012448666 0.70999998 -0.067222796 7.1018353e-39 321 294
0.00248272 0.708 -0.067033432 7.1011164e-39 322 294
0.0037188199 0.70700002 -0.066938758 7.0085606e-39 323 294
0.0049584266 0.70700002 -0.066938758 7.0078418e-39 324 294
0.0061892662 0.70599997 -0.066844068 6.8234505e-39 325 294
0.0074271196 0.70599997 -0.066844068 6.7312549e-39 326 294
0.0086404262 0.704 -0.066654719 6.6390607e-39 327 294
0.0098747732 0.704 -0.066654719 6.1798832e-39 328 294
0.011109119 0.704 -0.066654719 6.0876889e-39 329 294
0.012343466 0.704 -0.066654719 5.9947773e-39 330 294
0.013558527 0.70300001 -0.066560037 6.0869715e-39 331 294
0.014791119 0.70300001 -0.066560037 6.2710012e-39 332 294
0.016023712 0.70300001 -0.066560037 6.2710012e-39 333 294
0.017256306 0.70300001 -0.066560037 6.0866127e-39 334 294
0.018488899 0.70300001 -0.066560037 5.9944185e-39 335 294
0.019749546 0.704 -0.066654719 5.9022243e-39 336 294
0.020983893 0.704 -0.066654719 5.7174771e-39 337 294
0.022218239 0.704 -0.066654719 5.7167596e-39 338 294
0.023452586 0.704 -0.066654719 5.6245654e-39 339 294
0.024686933 0.704 -0.066654719 5.8082364e-39 340 294
0.02592128 0.704 -0.066654719 5.7160422e-39 341 294
0.027155625 0.704 -0.066654719 5.5323712e-39 342 294
0.028389972 0.704 -0.066654719 5.5323712e-39 343 294
0.029708479 0.70599997 -0.066844068 5.7153247e-39 344 294
0.030946331 0.70599997 -0.066844068 5.7153247e-39 345 294
0.032184184 0.70599997 -0.066844068 5.4391008e-39 346 294
0.033422034 0.70599997 -0.066844068 5.4391008e-39 347 294
0.034708988 0.70700002 -0.066938758 5.438742e-39 348 294
0.03599944 0.708 -0.067033432 5.438742e-39 349 294
0.0372408 0.708 -0.067033432 5.3472653e-39 350 294
0.038482159 0.708 -0.067033432 5.4394595e-39 351 294
0.039835732 0.70999998 -0.067222796 5.5316579e-39 352 294
0.041080594 0.70999998 -0.067222796 5.6238535e-39 353 294
0.042325463 0.70999998 -0.067222796 5.9908424e-39 354 294
0.043631699 0.71100003 -0.067317478 6.3596235e-39 355 294
0.045004558 0.713 -0.067506835 6.8195297e-39 356 294
0.046254687 0.713 -0.067506835 7.3727021e-39 357 294
0.047504812 0.713 -0.067506835 8.0166463e-39 358 294
-0.01647958 0.72299999 -0.069721296 1.1703049e-38 307 295
-0.015211919 0.72299999 -0.069721296 1.1244215e-38 308 295
-0.013924973 0.722 -0.069624864 1.032226e-38 309 295
-0.012659066 0.722 -0.069624864 9.6761453e-39 310 295
-0.011361601 0.72000003 -0.069432005 9.3073627e-39 311 295
-0.010085173 0.71899998 -0.069335558 8.388984e-39 312 295
-0.0087999795 0.71700001 -0.069142699 8.204234e-39 313 295
-0.00753232 0.71600002 -0.069046266 7.836529e-39 314 295
-0.0062593995 0.71399999 -0.068853401 7.5603023e-39 315 295
-0.0050075199 0.71399999 -0.068853401 7.4677507e-39 316 295
-0.0037503797 0.713 -0.068756968 7.4677507e-39 317 295
-0.0024932399 0.71100003 -0.068564095 7.3762712e-39 318 295
-0.00124662 0.71100003 -0.068564095 7.3762712e-39 319 295
0 0.70999998 -0.068467662 7.193675e-39 320 295
0.0012448666 0.70999998 -0.068467662 7.1014793e-39 321 295
0.00248272 0.708 -0.068274796 6.9174482e-39 322 295
0.00372408 0.708 -0.068274796 6.9174482e-39 323 295
0.0049584266 0.70700002 -0.068178371 7.0078446e-39 324 295
0.0061980332 0.70700002 -0.068178371 6.9156489e-39 325 295
0.0074271196 0.70599997 -0.06808193 6.5479426e-39 326 295
0.0086649731 0.70599997 -0.06808193 6.4557484e-39 327 295
0.0099028256 0.70599997 -0.06808193 6.0876889e-39 328 295
0.011109119 0.704 -0.067889065 6.0876889e-39 329 295
0.012343466 0.704 -0.067889065 6.0866127e-39 330 295
0.013577812 0.704 -0.067889065 6.0866127e-39 331 295
0.014812159 0.704 -0.067889065 6.2699264e-39 332 295
0.016046507 0.704 -0.067889065 6.2699264e-39 333 295
0.017280852 0.704 -0.067889065 6.086617e-39 334 295
0.018515198 0.704 -0.067889065 5.9940626e-39 335 295
0.019749546 0.704 -0.067889065 5.8096741e-39 336 295
0.020983893 0.704 -0.067889065 5.7174785e-39 337 295
0.022218239 0.704 -0.067889065 5.8089553e-39 338 295
0.023452586 0.704 -0.067889065 5.7167596e-39 339 295
0.024686933 0.704 -0.067889065 5.7167596e-39 340 295
0.02592128 0.704 -0.067889065 5.6245654e-39 341 295
0.027155625 0.704 -0.067889065 5.7160422e-39 342 295
0.028470624 0.70599997 -0.06808193 5.7160422e-39 343 295
0.029708479 0.70599997 -0.06808193 5.714966e-39 344 295
0.030946331 0.70599997 -0.06808193 5.6227717e-39 345 295
0.032229774 0.70700002 -0.068178371 5.4391008e-39 346 295
0.033469379 0.70700002 -0.068178371 5.4391008e-39 347 295
0.034758076 0.708 -0.068274796 5.438742e-39 348 295
0.036101133 0.70999998 -0.068467662 5.438742e-39 349 295
0.037345998 0.70999998 -0.068467662 5.5309362e-39 350 295
0.038590867 0.70999998 -0.068467662 5.5309362e-39 351 295
0.039835732 0.70999998 -0.068467662 5.8075217e-39 352 295
0.041138459 0.71100003 -0.068564095 5.9919144e-39 353 295
0.042385083 0.71100003 -0.068564095 6.5422141e-39 354 295
0.043631699 0.71100003 -0.068564095 6.7269641e-39 355 295
0.045004558 0.713 -0.068756968 7.0039181e-39 356 295
0.046254687 0.713 -0.068756968 7.6492875e-39 357 295
0.047504812 0.713 -0.068756968 8.3854261e-39 358 295
-0.015211919 0.72299999 -0.070988953 1.1242787e-38 308 296
-0.013924973 0.722 -0.070890769 1.0689972e-38 309 296
-0.012659066 0.722 -0.070890769 9.953458e-39 310 296
-0.011361601 0.72000003 -0.070694394 9.3080886e-39 311 296
-0.010085173 0.71899998 -0.070596211 8.7559686e-39 312 296
-0.0087999795 0.71700001 -0.070399836 8.663773e-39 313 296
-0.00753232 0.71600002 -0.070301652 8.1120383e-39 314 296
-0.0062593995 0.71399999 -0.070105277 7.8358102e-39 315 296
-0.0050075199 0.71399999 -0.070105277 7.5599464e-39 316 296
-0.0037503797 0.713 -0.070007093 7.5599464e-39 317 296
-0.0024932399 0.71100003 -0.069810718 7.4684668e-39 318 296
-0.00124662 0.71100003 -0.069810718 7.4684668e-39 319 296
0 0.70999998 -0.069712527 7.193675e-39 320 296
0.0012448666 0.70999998 -0.069712527 7.1014793e-39 321 296
0.0024897333 0.70999998 -0.069712527 7.1929561e-39 322 296
0.00372408 0.708 -0.069516152 7.1007605e-39 323 296
0.0049584266 0.70700002 -0.069417976 6.916365e-39 324 296
0.0061980332 0.70700002 -0.069417976 6.7323339e-39 325 296
0.0074271196 0.70599997 -0.069319785 6.7312577e-39 326 296
0.0086649731 0.70599997 -0.069319785 6.4546722e-39 327 296
0.0099028256 0.70599997 -0.069319785 6.2710012e-39 328 296
0.011140679 0.70599997 -0.069319785 6.2710012e-39 329 296
0.012343466 0.704 -0.06912341 6.2702837e-39 330 296
0.013577812 0.704 -0.06912341 6.2702837e-39 331 296
0.014812159 0.704 -0.06912341 6.4532387e-39 332 296
0.016046507 0.704 -0.06912341 6.4532387e-39 333 296
0.017280852 0.704 -0.06912341 6.2699292e-39 334 296
0.018515198 0.704 -0.06912341 6.0851792e-39 335 296
0.019749546 0.704 -0.06912341 5.9929836e-39 336 296
0.020983893 0.704 -0.06912341 5.8089539e-39 337 296
0.022218239 0.704 -0.06912341 5.9000719e-39 338 296
0.023519212 0.70599997 -0.069319785 5.9000719e-39 339 296
0.024757065 0.70599997 -0.069319785 5.9000719e-39 340 296
0.025994917 0.70599997 -0.069319785 5.8078777e-39 341 296
0.027232772 0.70599997 -0.069319785 5.7156834e-39 342 296
0.028470624 0.70599997 -0.069319785 5.7156834e-39 343 296
0.029708479 0.70599997 -0.069319785 5.4391008e-39 344 296
0.030946331 0.70599997 -0.069319785 5.4391008e-39 345 296
0.032229774 0.70700002 -0.069417976 5.4391008e-39 346 296
0.033469379 0.70700002 -0.069417976 5.4391008e-39 347 296
0.034758076 0.708 -0.069516152 5.622413e-39 348 296
0.036101133 0.70999998 -0.069712527 5.622413e-39 349 296
0.037345998 0.70999998 -0.069712527 5.7153261e-39 350 296
0.038645219 0.71100003 -0.069810718 5.8075217e-39 351 296
0.039891839 0.71100003 -0.069810718 5.8997174e-39 352 296
0.041138459 0.71100003 -0.069810718 6.08411e-39 353 296
0.042385083 0.71100003 -0.069810718 6.6354873e-39 354 296
0.043754432 0.713 -0.070007093 7.0042713e-39 355 296
0.045067675 0.71399999 -0.070105277 7.4648991e-39 356 296
0.046319555 0.71399999 -0.070105277 8.0180715e-39 357 296
-0.01394426 0.72299999 -0.072256617 1.0872934e-38 309 297
-0.012659066 0.722 -0.072156675 9.6794089e-39 310 297
-0.011361601 0.72000003 -0.071956798 8.9418438e-39 311 297
-0.010085173 0.71899998 -0.071856856 9.0318521e-39 312 297
-0.0087999795 0.71700001 -0.07165698 8.6630695e-39 313 297
-0.0075428397 0.71700001 -0.07165698 8.2957135e-39 314 297
-0.0062769335 0.71600002 -0.071557038 8.1113209e-39 315 297
-0.0050215465 0.71600002 -0.071557038 7.7439775e-39 316 297
-0.0037556398 0.71399999 -0.071357153 7.5599464e-39 317 297
-0.0025002533 0.713 -0.071257219 7.2851573e-39 318 297
-0.0012501266 0.713 -0.071257219 7.2851573e-39 319 297
0 0.71100003 -0.071057342 7.1929589e-39 320 297
0.0012448666 0.70999998 -0.070957392 7.1929589e-39 321 297
0.0024897333 0.70999998 -0.070957392 6.9181699e-39 322 297
0.0037345996 0.70999998 -0.070957392 6.8256155e-39 323 297
0.0049794666 0.70999998 -0.070957392 7.0082117e-39 324 297
0.0062067998 0.708 -0.070757516 6.7319836e-39 325 297
0.0074376399 0.70700002 -0.070657574 6.7309046e-39 326 297
0.0086649731 0.70599997 -0.070557632 6.4543191e-39 327 297
0.0099028256 0.70599997 -0.070557632 6.362478e-39 328 297
0.011140679 0.70599997 -0.070557632 6.362478e-39 329 297
0.012378532 0.70599997 -0.070557632 6.2710012e-39 330 297
0.013616386 0.70599997 -0.070557632 6.2710012e-39 331 297
0.014854239 0.70599997 -0.070557632 6.1777336e-39 332 297
0.016092092 0.70599997 -0.070557632 6.1777336e-39 333 297
0.017329946 0.70599997 -0.070557632 6.1773805e-39 334 297
0.018567799 0.70599997 -0.070557632 6.0851848e-39 335 297
0.019805651 0.70599997 -0.070557632 5.9929892e-39 336 297
0.021043506 0.70599997 -0.070557632 5.8085993e-39 337 297
0.022281358 0.70599997 -0.070557632 5.8085993e-39 338 297
0.023519212 0.70599997 -0.070557632 5.7164023e-39 339 297
0.024757065 0.70599997 -0.070557632 5.8075189e-39 340 297
0.025994917 0.70599997 -0.070557632 5.7153247e-39 341 297
0.027232772 0.70599997 -0.070557632 5.7153247e-39 342 297
0.028510952 0.70700002 -0.070657574 5.531295e-39 343 297
0.029750559 0.70700002 -0.070657574 5.7153247e-39 344 297
0.030990168 0.70700002 -0.070657574 5.531295e-39 345 297
0.032229774 0.70700002 -0.070657574 5.531295e-39 346 297
0.033516716 0.708 -0.070757516 5.531295e-39 347 297
0.034856264 0.70999998 -0.070957392 5.7146072e-39 348 297
0.036151983 0.71100003 -0.071057342 5.7146072e-39 349 297
0.037398599 0.71100003 -0.071057342 5.7153261e-39 350 297
0.038645219 0.71100003 -0.071057342 5.8997174e-39 351 297
0.039891839 0.71100003 -0.071057342 5.9919172e-39 352 297
0.041254178 0.713 -0.071257219 6.1763085e-39 353 297
0.042504307 0.713 -0.071257219 6.5447379e-39 354 297
0.043815799 0.71399999 -0.071357153 7.0053559e-39 355 297
0.045067675 0.71399999 -0.071357153 7.64894e-39 356 297
-0.012676599 0.72299999 -0.073524274 9.6790586e-39 310 298
-0.01139316 0.722 -0.073422581 9.0336892e-39 311 298
-0.010099201 0.72000003 -0.073219202 9.1236974e-39 312 298
-0.0088367993 0.72000003 -0.073219202 8.938946e-39 313 298
-0.0075638802 0.71899998 -0.073117502 8.2964352e-39 314 298
-0.0062857 0.71700001 -0.072914116 8.1116852e-39 315 298
-0.0050215465 0.71600002 -0.072812423 7.6532168e-39 316 298
-0.00376616 0.71600002 -0.072812423 7.5610212e-39 317 298
-0.0025037599 0.71399999 -0.072609037 7.2851545e-39 318 298
-0.00125188 0.71399999 -0.072609037 7.1929589e-39 319 298
0 0.71100003 -0.072303966 7.3766271e-39 320 298
0.00124662 0.71100003 -0.072303966 7.2840727e-39 321 298
0.0024897333 0.70999998 -0.072202265 6.9174482e-39 322 298
0.0037345996 0.70999998 -0.072202265 6.8252526e-39 323 298
0.0049794666 0.70999998 -0.072202265 6.7326996e-39 324 298
0.0062067998 0.708 -0.071998879 6.5483084e-39 325 298
0.0074376399 0.70700002 -0.071897186 6.6387089e-39 326 298
0.008677247 0.70700002 -0.071897186 6.6387089e-39 327 298
0.0099168532 0.70700002 -0.071897186 6.362478e-39 328 298
0.011140679 0.70599997 -0.071795486 6.454675e-39 329 298
0.012378532 0.70599997 -0.071795486 6.0873302e-39 330 298
0.013616386 0.70599997 -0.071795486 5.995136e-39 331 298
0.014854239 0.70599997 -0.071795486 6.1773777e-39 332 298
0.016092092 0.70599997 -0.071795486 6.085182e-39 333 298
0.017329946 0.70599997 -0.071795486 6.1766616e-39 334 298
0.018567799 0.70599997 -0.071795486 6.084466e-39 335 298
0.019805651 0.70599997 -0.071795486 5.9929892e-39 336 298
0.021043506 0.70599997 -0.071795486 5.8085993e-39 337 298
0.022312919 0.70700002 -0.071897186 5.7164023e-39 338 298
0.023552528 0.70700002 -0.071897186 5.7164023e-39 339 298
0.024792133 0.70700002 -0.071897186 5.7167596e-39 340 298
0.02603174 0.70700002 -0.071897186 5.6242067e-39 341 298
0.027271347 0.70700002 -0.071897186 5.6245654e-39 342 298
0.028510952 0.70700002 -0.071897186 5.5323712e-39 343 298
0.029750559 0.70700002 -0.071897186 5.5323712e-39 344 298
0.031034 0.708 -0.071998879 5.4398182e-39 345 298
0.03227536 0.708 -0.071998879 5.7153247e-39 346 298
0.033611398 0.70999998 -0.072202265 5.7153247e-39 347 298
0.034856264 0.70999998 -0.072202265 5.8071602e-39 348 298
0.036151983 0.71100003 -0.072303966 5.8993544e-39 349 298
0.037398599 0.71100003 -0.072303966 5.8997146e-39 350 298
0.038753927 0.713 -0.072507344 6.084466e-39 351 298
0.040004052 0.713 -0.072507344 6.4521723e-39 352 298
0.041254178 0.713 -0.072507344 6.5443679e-39 353 298
0.042563915 0.71399999 -0.072609037 6.7291319e-39 354 298
0.043815799 0.71399999 -0.072609037 7.1897513e-39 355 298
-0.01139316 0.722 -0.074688487 9.3102718e-39 311 299
-0.010127253 0.722 -0.074688487 9.4002842e-39 312 299
-0.0088613462 0.722 -0.074688487 8.938946e-39 313 299
-0.0075743999 0.72000003 -0.074481606 8.388628e-39 314 299
-0.0063032326 0.71899998 -0.074378148 8.1120411e-39 315 299
-0.0050285598 0.71700001 -0.07417126 7.6532112e-39 316 299
-0.00376616 0.71600002 -0.074067809 7.5610156e-39 317 299
-0.0025107733 0.71600002 -0.074067809 7.4688199e-39 318 299
-0.0012553866 0.71600002 -0.074067809 7.4688199e-39 319 299
0 0.713 -0.07375747 7.2844287e-39 320 299
0.00124662 0.71100003 -0.073550582 7.2844287e-39 321 299
0.0024932399 0.71100003 -0.073550582 7.1011164e-39 322 299
0.0037398601 0.71100003 -0.073550582 7.0085606e-39 323 299
0.0049864799 0.71100003 -0.073550582 7.0078446e-39 324 299
0.0062243328 0.70999998 -0.073447131 6.8234533e-39 325 299
0.0074481601 0.708 -0.073240235 6.8234533e-39 326 299
0.008689519 0.708 -0.073240235 6.6387033e-39 327 299
0.0099168532 0.70700002 -0.073136792 6.4546722e-39 328 299
0.011156459 0.70700002 -0.073136792 6.362478e-39 329 299
0.012396066 0.70700002 -0.073136792 5.9954947e-39 330 299
0.013635674 0.70700002 -0.073136792 5.9954947e-39 331 299
0.01487528 0.70700002 -0.073136792 5.9944185e-39 332 299
0.016114887 0.70700002 -0.073136792 5.9944185e-39 333 299
0.017379038 0.708 -0.073240235 6.085182e-39 334 299
0.0186204 0.708 -0.073240235 6.085182e-39 335 299
0.019833706 0.70700002 -0.073136792 5.8096741e-39 336 299
0.021073313 0.70700002 -0.073136792 5.7174785e-39 337 299
0.022344479 0.708 -0.073240235 5.6252829e-39 338 299
0.023585839 0.708 -0.073240235 5.6252829e-39 339 299
0.024792133 0.70700002 -0.073136792 5.7167596e-39 340 299
0.02603174 0.70700002 -0.073136792 5.7167596e-39 341 299
0.027309919 0.708 -0.073240235 5.8997132e-39 342 299
0.02855128 0.708 -0.073240235 5.8997132e-39 343 299
0.02979264 0.708 -0.073240235 5.8071602e-39 344 299
0.031121666 0.70999998 -0.073447131 5.8071602e-39 345 299
0.032366529 0.70999998 -0.073447131 5.9904725e-39 346 299
0.033658739 0.71100003 -0.073550582 5.9904725e-39 347 299
0.034905359 0.71100003 -0.073550582 5.8071602e-39 348 299
0.036253672 0.713 -0.07375747 5.8993544e-39 349 299
0.037503798 0.713 -0.07375747 6.084466e-39 350 299
0.038808275 0.71399999 -0.073860914 6.1766616e-39 351 299
0.040060159 0.71399999 -0.073860914 6.269223e-39 352 299
0.041427758 0.71600002 -0.074067809 6.6380055e-39 353 299
0.042683143 0.71600002 -0.074067809 6.9138889e-39 354 299
