# .PCD v.7 - Point Cloud Data file format
FIELDS x y z rgb imX imY
SIZE 4 4 4 4 4 4
TYPE F F F F F F
COUNT 1 1 1 1 1 1
WIDTH 829
HEIGHT 1
VIEWPOINT 0 0 0 1 0 0 0
POINTS 829
DATA ascii
0.0098326923 0.70099998 -0.013519952 1.1883741e-38 328 251
0.011061779 0.70099998 -0.013519952 1.1883741e-38 329 251
0.012343466 0.704 -0.013577812 1.1883744e-38 330 251
0.013577812 0.704 -0.013577812 1.1975941e-38 331 251
0.014854239 0.70599997 -0.013616386 1.1975585e-38 332 251
0.016092092 0.70599997 -0.013616386 1.1975585e-38 333 251
0.017354494 0.70700002 -0.013635674 1.1236969e-38 334 251
0.0186204 0.708 -0.013654959 1.2712099e-38 335 251
0.01986176 0.708 -0.013654959 1.5022439e-38 336 251
0.021162732 0.70999998 -0.013693533 1.603659e-38 337 251
0.022407599 0.70999998 -0.013693533 1.6127013e-38 338 251
-0.057828441 0.71700001 -0.015085679 1.6403594e-38 274 252
-0.0563346 0.71399999 -0.015022559 1.649579e-38 275 252
-0.05508272 0.71399999 -0.015022559 1.5113892e-38 276 252
-0.053830836 0.71399999 -0.015022559 1.3454012e-38 277 252
-0.052505318 0.713 -0.015001519 1.400604e-38 278 252
-0.051111419 0.71100003 -0.014959441 1.419043e-38 279 252
-0.049864799 0.71100003 -0.014959441 1.4191837e-38 280 252
-0.048413038 0.708 -0.01489632 1.4284032e-38 281 252
-0.047038425 0.70599997 -0.014854239 1.4559539e-38 282 252
-0.045670826 0.704 -0.014812159 1.4559539e-38 283 252
-0.044247117 0.70099998 -0.014749039 1.4468422e-38 284 252
-0.042956665 0.69999999 -0.014727999 1.4468422e-38 285 252
-0.041610107 0.69800001 -0.01468592 1.4651737e-38 286 252
-0.040328421 0.69700003 -0.01466488 1.4651737e-38 287 252
-0.039106347 0.69700003 -0.01466488 1.456027e-38 288 252
-0.037884273 0.69700003 -0.01466488 1.4652466e-38 289 252
-0.036609598 0.69599998 -0.014643839 1.4469172e-38 290 252
-0.035389278 0.69599998 -0.014643839 1.4653203e-38 291 252
-0.034070771 0.69400001 -0.01460176 1.4651778e-38 292 252
-0.032853961 0.69400001 -0.01460176 1.4651778e-38 293 252
-0.031591557 0.69300002 -0.014580719 1.4651778e-38 294 252
-0.0303765 0.69300002 -0.014580719 1.4559582e-38 295 252
-0.029161438 0.69300002 -0.014580719 1.4559579e-38 296 252
-0.027865725 0.69099998 -0.014538639 1.4467384e-38 297 252
-0.026654173 0.69099998 -0.014538639 1.4557416e-38 298 252
-0.025442619 0.69099998 -0.014538639 1.4465219e-38 299 252
-0.024231065 0.69099998 -0.014538639 1.4189705e-38 300 252
-0.023019511 0.69099998 -0.014538639 1.4005314e-38 301 252
-0.021807959 0.69099998 -0.014538639 1.3913101e-38 302 252
-0.020656019 0.69300002 -0.014580719 1.3820906e-38 303 252
-0.01944096 0.69300002 -0.014580719 1.3453197e-38 304 252
-0.0181733 0.69099998 -0.014538639 1.3268805e-38 305 252
-0.0169372 0.69 -0.014517599 1.308477e-38 306 252
-0.015727401 0.69 -0.014517599 1.2992575e-38 307 252
-0.014517599 0.69 -0.014517599 1.3175168e-38 308 252
-0.0133078 0.69 -0.014517599 1.3175168e-38 309 252
-0.012097999 0.69 -0.014517599 1.2990421e-38 310 252
-0.010888199 0.69 -0.014517599 1.2898225e-38 311 252
-0.0096783992 0.69 -0.014517599 1.2990777e-38 312 252
-0.0084686 0.69 -0.014517599 1.2898224e-38 313 252
-0.0072693196 0.69099998 -0.014538639 1.2806029e-38 314 252
-0.0060753003 0.69300002 -0.014580719 1.2529806e-38 315 252
-0.00486024 0.69300002 -0.014580719 1.271276e-38 316 252
-0.0036451798 0.69300002 -0.014580719 1.2620565e-38 317 252
-0.0024336267 0.69400001 -0.01460176 1.2344348e-38 318 252
-0.0012168133 0.69400001 -0.01460176 1.2344348e-38 319 252
0 0.69400001 -0.01460176 1.2252155e-38 320 252
0.0012168133 0.69400001 -0.01460176 1.2159959e-38 321 252
0.0024336267 0.69400001 -0.01460176 1.1791899e-38 322 252
0.0036609597 0.69599998 -0.014643839 1.1791899e-38 323 252
0.0048953067 0.69800001 -0.01468592 1.1884094e-38 324 252
0.006119133 0.69800001 -0.01468592 1.1791899e-38 325 252
0.0073429602 0.69800001 -0.01468592 1.1791543e-38 326 252
0.0085913334 0.69999999 -0.014727999 1.1699347e-38 327 252
0.0098326923 0.70099998 -0.014749039 1.1516038e-38 328 252
0.01109334 0.70300001 -0.014791119 1.1516038e-38 329 252
0.012343466 0.704 -0.014812159 1.1791548e-38 330 252
0.013577812 0.704 -0.014812159 1.1883744e-38 331 252
0.014854239 0.70599997 -0.014854239 1.1700078e-38 332 252
0.016092092 0.70599997 -0.014854239 1.1792276e-38 333 252
0.017354494 0.70700002 -0.01487528 1.142136e-38 334 252
0.0186204 0.708 -0.01489632 1.2527708e-38 335 252
0.01986176 0.708 -0.01489632 1.4745848e-38 336 252
0.021103119 0.708 -0.01489632 1.5852196e-38 337 252
-0.057828441 0.71700001 -0.016342819 1.6403594e-38 274 253
-0.0563346 0.71399999 -0.016274439 1.649579e-38 275 253
-0.05508272 0.71399999 -0.016274439 1.5390126e-38 276 253
-0.053830836 0.71399999 -0.016274439 1.3730605e-38 277 253
-0.052505318 0.713 -0.016251646 1.4006045e-38 278 253
-0.051111419 0.71100003 -0.01620606 1.4006045e-38 279 253
-0.049864799 0.71100003 -0.01620606 1.4283313e-38 280 253
-0.048413038 0.708 -0.01613768 1.4283313e-38 281 253
-0.047038425 0.70599997 -0.016092092 1.4466976e-38 282 253
-0.045670826 0.704 -0.016046507 1.4559172e-38 283 253
-0.044247117 0.70099998 -0.015978126 1.4651367e-38 284 253
-0.042956665 0.69999999 -0.015955333 1.4651367e-38 285 253
-0.041610107 0.69800001 -0.015909746 1.455989e-38 286 253
-0.040328421 0.69700003 -0.015886955 1.455989e-38 287 253
-0.039106347 0.69700003 -0.015886955 1.4652093e-38 288 253
-0.037884273 0.69700003 -0.015886955 1.4652093e-38 289 253
-0.036609598 0.69599998 -0.015864158 1.4651384e-38 290 253
-0.035389278 0.69599998 -0.015864158 1.4651384e-38 291 253
-0.034070771 0.69400001 -0.015818574 1.4650315e-38 292 253
-0.032853961 0.69400001 -0.015818574 1.4650315e-38 293 253
-0.031591557 0.69300002 -0.015795778 1.4558121e-38 294 253
-0.0303765 0.69300002 -0.015795778 1.4558121e-38 295 253
-0.029161438 0.69300002 -0.015795778 1.4558121e-38 296 253
-0.027865725 0.69099998 -0.015750192 1.4373371e-38 297 253
-0.026654173 0.69099998 -0.015750192 1.4372652e-38 298 253
-0.025442619 0.69099998 -0.015750192 1.4280456e-38 299 253
-0.024231065 0.69099998 -0.015750192 1.4004948e-38 300 253
-0.023019511 0.69099998 -0.015750192 1.3912751e-38 301 253
-0.021807959 0.69099998 -0.015750192 1.382055e-38 302 253
-0.020656019 0.69300002 -0.015795778 1.3728354e-38 303 253
-0.01944096 0.69300002 -0.015795778 1.34532e-38 304 253
-0.018225901 0.69300002 -0.015795778 1.326845e-38 305 253
-0.016961746 0.69099998 -0.015750192 1.3268803e-38 306 253
-0.015750192 0.69099998 -0.015750192 1.2900379e-38 307 253
-0.014538639 0.69099998 -0.015750192 1.3175171e-38 308 253
-0.013327086 0.69099998 -0.015750192 1.3082616e-38 309 253
-0.012097999 0.69 -0.015727401 1.2898225e-38 310 253
-0.010888199 0.69 -0.015727401 1.2898225e-38 311 253
-0.0096783992 0.69 -0.015727401 1.2806029e-38 312 253
-0.008480873 0.69099998 -0.015750192 1.2806029e-38 313 253
-0.0072693196 0.69099998 -0.015750192 1.2529447e-38 314 253
-0.0060753003 0.69300002 -0.015795778 1.2437253e-38 315 253
-0.00486024 0.69300002 -0.015795778 1.2528371e-38 316 253
-0.0036451798 0.69300002 -0.015795778 1.2528371e-38 317 253
-0.0024336267 0.69400001 -0.015818574 1.2344704e-38 318 253
-0.0012168133 0.69400001 -0.015818574 1.2252508e-38 319 253
0 0.69400001 -0.015818574 1.2159959e-38 320 253
0.0012168133 0.69400001 -0.015818574 1.1883373e-38 321 253
0.0024406398 0.69599998 -0.015864158 1.1791899e-38 322 253
0.0036609597 0.69599998 -0.015864158 1.1699703e-38 323 253
0.0048882933 0.69700003 -0.015886955 1.1699347e-38 324 253
0.006119133 0.69800001 -0.015909746 1.1699347e-38 325 253
0.0073429602 0.69800001 -0.015909746 1.1515316e-38 326 253
0.0085913334 0.69999999 -0.015955333 1.1515316e-38 327 253
0.0098326923 0.70099998 -0.015978126 1.1699347e-38 328 253
0.01109334 0.70300001 -0.016023712 1.1699347e-38 329 253
0.012343466 0.704 -0.016046507 1.1791543e-38 330 253
0.013577812 0.704 -0.016046507 1.1791543e-38 331 253
0.014854239 0.70599997 -0.016092092 1.1700076e-38 332 253
0.016092092 0.70599997 -0.016092092 1.1700076e-38 333 253
0.017354494 0.70700002 -0.016114887 1.1604672e-38 334 253
0.018594101 0.70700002 -0.016114887 1.2803216e-38 335 253
0.01986176 0.708 -0.01613768 1.4652934e-38 336 253
0.021103119 0.708 -0.01613768 1.5667084e-38 337 253
-0.057828441 0.71700001 -0.017599959 1.6495074e-38 274 254
-0.056492399 0.71600002 -0.017575413 1.6495074e-38 275 254
-0.055237014 0.71600002 -0.017575413 1.5481966e-38 276 254
-0.053830836 0.71399999 -0.017526319 1.4099031e-38 277 254
-0.052578956 0.71399999 -0.017526319 1.4189721e-38 278 254
-0.051255193 0.713 -0.017501773 1.4189721e-38 279 254
-0.049864799 0.71100003 -0.01745268 1.4008171e-38 280 254
-0.048549797 0.70999998 -0.017428132 1.4008171e-38 281 254
-0.047038425 0.70599997 -0.017329946 1.4191837e-38 282 254
-0.045670826 0.704 -0.017280852 1.4284032e-38 283 254
-0.044247117 0.70099998 -0.017207211 1.4284029e-38 284 254
-0.042956665 0.69999999 -0.017182667 1.4284029e-38 285 254
-0.041610107 0.69800001 -0.017133573 1.4559541e-38 286 254
-0.040386278 0.69800001 -0.017133573 1.4559541e-38 287 254
-0.039106347 0.69700003 -0.017109027 1.4375876e-38 288 254
-0.037884273 0.69700003 -0.017109027 1.4375876e-38 289 254
-0.036662199 0.69700003 -0.017109027 1.4283329e-38 290 254
-0.035389278 0.69599998 -0.017084479 1.4283329e-38 291 254
-0.034070771 0.69400001 -0.017035386 1.4189708e-38 292 254
-0.032853961 0.69400001 -0.017035386 1.4189708e-38 293 254
-0.031637147 0.69400001 -0.017035386 1.4372667e-38 294 254
-0.0303765 0.69300002 -0.01701084 1.4465221e-38 295 254
-0.029161438 0.69300002 -0.01701084 1.4189708e-38 296 254
-0.027946379 0.69300002 -0.01701084 1.4005317e-38 297 254
-0.026654173 0.69099998 -0.016961746 1.3728731e-38 298 254
-0.025442619 0.69099998 -0.016961746 1.3728731e-38 299 254
-0.024231065 0.69099998 -0.016961746 1.3913121e-38 300 254
-0.023019511 0.69099998 -0.016961746 1.3728731e-38 301 254
-0.021807959 0.69099998 -0.016961746 1.3912029e-38 302 254
-0.020656019 0.69300002 -0.01701084 1.3819834e-38 303 254
-0.01944096 0.69300002 -0.01701084 1.3360645e-38 304 254
-0.018225901 0.69300002 -0.01701084 1.3084417e-38 305 254
-0.016961746 0.69099998 -0.016961746 1.308477e-38 306 254
-0.015750192 0.69099998 -0.016961746 1.2900379e-38 307 254
-0.014538639 0.69099998 -0.016961746 1.3082616e-38 308 254
-0.013327086 0.69099998 -0.016961746 1.3082616e-38 309 254
-0.012097999 0.69 -0.0169372 1.2898228e-38 310 254
-0.010888199 0.69 -0.0169372 1.2806031e-38 311 254
-0.0096783992 0.69 -0.0169372 1.2621644e-38 312 254
-0.008480873 0.69099998 -0.016961746 1.2529448e-38 313 254
-0.0072693196 0.69099998 -0.016961746 1.2436899e-38 314 254
-0.0060753003 0.69300002 -0.01701084 1.2344704e-38 315 254
-0.00486024 0.69300002 -0.01701084 1.252766e-38 316 254
-0.0036451798 0.69300002 -0.01701084 1.2343629e-38 317 254
-0.0024336267 0.69400001 -0.017035386 1.206884e-38 318 254
-0.0012168133 0.69400001 -0.017035386 1.206884e-38 319 254
0 0.69400001 -0.017035386 1.1884447e-38 320 254
0.0012168133 0.69400001 -0.017035386 1.1884447e-38 321 254
0.0024406398 0.69599998 -0.017084479 1.1699703e-38 322 254
0.0036609597 0.69599998 -0.017084479 1.1699703e-38 323 254
0.0048882933 0.69700003 -0.017109027 1.1515319e-38 324 254
0.006119133 0.69800001 -0.017133573 1.1515319e-38 325 254
0.0073429602 0.69800001 -0.017133573 1.1515319e-38 326 254
0.0085913334 0.69999999 -0.017182667 1.1515319e-38 327 254
0.0098607466 0.70300001 -0.017256306 1.1516038e-38 328 254
0.01109334 0.70300001 -0.017256306 1.1608233e-38 329 254
0.012343466 0.704 -0.017280852 1.1791545e-38 330 254
0.013577812 0.704 -0.017280852 1.1883741e-38 331 254
0.014854239 0.70599997 -0.017329946 1.1792276e-38 332 254
0.016092092 0.70599997 -0.017329946 1.1700078e-38 333 254
0.017354494 0.70700002 -0.017354494 1.1604672e-38 334 254
0.018594101 0.70700002 -0.017354494 1.2895411e-38 335 254
0.01986176 0.708 -0.017379038 1.4652931e-38 336 254
0.021103119 0.708 -0.017379038 1.548305e-38 337 254
-0.057989739 0.71899998 -0.018909698 1.6402877e-38 274 255
-0.056492399 0.71600002 -0.0188308 1.6495074e-38 275 255
-0.055237014 0.71600002 -0.0188308 1.5574164e-38 276 255
-0.053981625 0.71600002 -0.0188308 1.4375621e-38 277 255
-0.052578956 0.71399999 -0.018778199 1.4189726e-38 278 255
-0.051255193 0.713 -0.018751899 1.4005695e-38 279 255
-0.049864799 0.71100003 -0.0186993 1.4007096e-38 280 255
-0.048549797 0.70999998 -0.018672999 1.4191128e-38 281 255
-0.047038425 0.70599997 -0.018567799 1.4191118e-38 282 255
-0.045670826 0.704 -0.018515198 1.4283313e-38 283 255
-0.044247117 0.70099998 -0.018436298 1.4283311e-38 284 255
-0.042956665 0.69999999 -0.018409999 1.4283311e-38 285 255
-0.041610107 0.69800001 -0.0183574 1.4466628e-38 286 255
-0.040386278 0.69800001 -0.0183574 1.4466628e-38 287 255
-0.039106347 0.69700003 -0.018331099 1.4466275e-38 288 255
-0.037884273 0.69700003 -0.018331099 1.437408e-38 289 255
-0.036662199 0.69700003 -0.018331099 1.4373724e-38 290 255
-0.035389278 0.69599998 -0.018304799 1.4189693e-38 291 255
-0.034070771 0.69400001 -0.0182522 1.4188258e-38 292 255
-0.032853961 0.69400001 -0.0182522 1.4188258e-38 293 255
-0.031637147 0.69400001 -0.0182522 1.4095359e-38 294 255
-0.0303765 0.69300002 -0.018225901 1.4372304e-38 295 255
-0.029161438 0.69300002 -0.018225901 1.4189373e-38 296 255
-0.027946379 0.69300002 -0.018225901 1.3083027e-38 297 255
-0.026654173 0.69099998 -0.0181733 1.2344405e-38 298 255
-0.025442619 0.69099998 -0.0181733 1.3358916e-38 299 255
-0.024231065 0.69099998 -0.0181733 1.3730567e-38 300 255
-0.023019511 0.69099998 -0.0181733 1.3269589e-38 301 255
-0.021807959 0.69099998 -0.0181733 1.3727298e-38 302 255
-0.020656019 0.69300002 -0.018225901 1.3543267e-38 303 255
-0.01944096 0.69300002 -0.018225901 1.3268099e-38 304 255
-0.018225901 0.69300002 -0.018225901 1.2991871e-38 305 255
-0.016961746 0.69099998 -0.0181733 1.3083338e-38 306 255
-0.015750192 0.69099998 -0.0181733 1.2991142e-38 307 255
-0.014538639 0.69099998 -0.0181733 1.2990068e-38 308 255
-0.013327086 0.69099998 -0.0181733 1.2897872e-38 309 255
-0.012097999 0.69 -0.018146999 1.2988268e-38 310 255
-0.010888199 0.69 -0.018146999 1.2804237e-38 311 255
-0.0096924258 0.69099998 -0.0181733 1.2712763e-38 312 255
-0.008480873 0.69099998 -0.0181733 1.2528013e-38 313 255
-0.0072903596 0.69300002 -0.018225901 1.252766e-38 314 255
-0.0060753003 0.69300002 -0.018225901 1.2343629e-38 315 255
-0.00486024 0.69300002 -0.018225901 1.2251433e-38 316 255
-0.0036504399 0.69400001 -0.0182522 1.2251433e-38 317 255
-0.0024336267 0.69400001 -0.0182522 1.2159235e-38 318 255
-0.0012168133 0.69400001 -0.0182522 1.2159235e-38 319 255
0 0.69599998 -0.018304799 1.1975923e-38 320 255
0.0012203199 0.69599998 -0.018304799 1.1883728e-38 321 255
0.0024406398 0.69599998 -0.018304799 1.16997e-38 322 255
0.0036609597 0.69599998 -0.018304799 1.16997e-38 323 255
0.0048882933 0.69700003 -0.018331099 1.1515316e-38 324 255
0.006119133 0.69800001 -0.0183574 1.1515316e-38 325 255
0.0073429602 0.69800001 -0.0183574 1.1423483e-38 326 255
0.0085913334 0.69999999 -0.018409999 1.1423483e-38 327 255
0.0098607466 0.70300001 -0.018488899 1.1515319e-38 328 255
0.01109334 0.70300001 -0.018488899 1.169935e-38 329 255
0.012343466 0.704 -0.018515198 1.1791545e-38 330 255
0.013577812 0.704 -0.018515198 1.1791545e-38 331 255
0.014854239 0.70599997 -0.018567799 1.1791192e-38 332 255
0.016092092 0.70599997 -0.018567799 1.1975585e-38 333 255
0.017354494 0.70700002 -0.018594101 1.1605028e-38 334 255
0.0186204 0.708 -0.0186204 1.2803213e-38 335 255
0.01994592 0.71100003 -0.0186993 1.4835883e-38 336 255
0.021192541 0.71100003 -0.0186993 1.5757479e-38 337 255
-0.056492399 0.71600002 -0.020086186 1.6403241e-38 275 256
-0.055237014 0.71600002 -0.020086186 1.5941871e-38 276 256
-0.053981625 0.71600002 -0.020086186 1.4835883e-38 277 256
-0.052578956 0.71399999 -0.020030079 1.4464518e-38 278 256
-0.051255193 0.713 -0.020002026 1.4187933e-38 279 256
-0.049864799 0.71100003 -0.01994592 1.4007096e-38 280 256
-0.048549797 0.70999998 -0.019917866 1.4007096e-38 281 256
-0.047105055 0.70700002 -0.019833706 1.4283313e-38 282 256
-0.04580057 0.70599997 -0.019805651 1.4283313e-38 283 256
-0.044436477 0.704 -0.019749546 1.437443e-38 284 256
-0.043018032 0.70099998 -0.019665385 1.437443e-38 285 256
-0.041729331 0.69999999 -0.019637333 1.4465554e-38 286 256
-0.040386278 0.69800001 -0.019581227 1.4373358e-38 287 256
-0.039106347 0.69700003 -0.019553173 1.4189693e-38 288 256
-0.037884273 0.69700003 -0.019553173 1.4189693e-38 289 256
-0.036662199 0.69700003 -0.019553173 1.4280809e-38 290 256
-0.035389278 0.69599998 -0.019525118 1.4188614e-38 291 256
-0.034168959 0.69599998 -0.019525118 1.4096063e-38 292 256
-0.032853961 0.69400001 -0.019469013 1.4096063e-38 293 256
-0.031637147 0.69400001 -0.019469013 1.3819146e-38 294 256
-0.0303765 0.69300002 -0.01944096 1.4556712e-38 295 256
-0.029161438 0.69300002 -0.01944096 1.4191918e-38 296 256
-0.027946379 0.69300002 -0.01944096 1.2532036e-38 297 256
-0.026654173 0.69099998 -0.019384852 1.2152852e-38 298 256
-0.025442619 0.69099998 -0.019384852 1.4549938e-38 299 256
-0.024231065 0.69099998 -0.019384852 1.4006822e-38 300 256
-0.023019511 0.69099998 -0.019384852 1.3269257e-38 301 256
-0.021807959 0.69099998 -0.019384852 1.3635483e-38 302 256
-0.020656019 0.69300002 -0.01944096 1.3450733e-38 303 256
-0.01944096 0.69300002 -0.01944096 1.3083362e-38 304 256
-0.018225901 0.69300002 -0.01944096 1.2898969e-38 305 256
-0.01701084 0.69300002 -0.01944096 1.2806402e-38 306 256
-0.015795778 0.69300002 -0.01944096 1.2714207e-38 307 256
-0.014538639 0.69099998 -0.019384852 1.271456e-38 308 256
-0.013327086 0.69099998 -0.019384852 1.2622363e-38 309 256
-0.012115533 0.69099998 -0.019384852 1.2712759e-38 310 256
-0.01090398 0.69099998 -0.019384852 1.2620565e-38 311 256
-0.0096924258 0.69099998 -0.019384852 1.2528013e-38 312 256
-0.008480873 0.69099998 -0.019384852 1.2343982e-38 313 256
-0.0072903596 0.69300002 -0.01944096 1.2251433e-38 314 256
-0.0060753003 0.69300002 -0.01944096 1.2251433e-38 315 256
-0.0048672534 0.69400001 -0.019469013 1.2251433e-38 316 256
-0.0036504399 0.69400001 -0.019469013 1.2159236e-38 317 256
-0.0024336267 0.69400001 -0.019469013 1.1975923e-38 318 256
-0.0012203199 0.69599998 -0.019525118 1.1975923e-38 319 256
0 0.69599998 -0.019525118 1.1976281e-38 320 256
0.0012203199 0.69599998 -0.019525118 1.1883728e-38 321 256
0.0024441467 0.69700003 -0.019553173 1.1791534e-38 322 256
0.00366622 0.69700003 -0.019553173 1.1791534e-38 323 256
0.0048953067 0.69800001 -0.019581227 1.1515313e-38 324 256
0.006119133 0.69800001 -0.019581227 1.1515313e-38 325 256
0.0073429602 0.69800001 -0.019581227 1.1515319e-38 326 256
0.0085913334 0.69999999 -0.019637333 1.1515319e-38 327 256
0.0098607466 0.70300001 -0.019721493 1.1515319e-38 328 256
0.01109334 0.70300001 -0.019721493 1.1515319e-38 329 256
0.012343466 0.704 -0.019749546 1.1514963e-38 330 256
0.013577812 0.704 -0.019749546 1.1698994e-38 331 256
0.014854239 0.70599997 -0.019805651 1.1790839e-38 332 256
0.016092092 0.70599997 -0.019805651 1.1975591e-38 333 256
0.017329946 0.70599997 -0.019805651 1.1696868e-38 334 256
0.0186204 0.708 -0.01986176 1.2987607e-38 335 256
0.01994592 0.71100003 -0.01994592 1.4926997e-38 336 256
0.021192541 0.71100003 -0.01994592 1.5756758e-38 337 256
-0.053981625 0.71600002 -0.021341572 1.4928798e-38 277 257
-0.052578956 0.71399999 -0.021281958 1.4556712e-38 278 257
-0.051255193 0.713 -0.021252153 1.4188288e-38 279 257
-0.049864799 0.71100003 -0.021192541 1.4191128e-38 280 257
-0.048549797 0.70999998 -0.021162732 1.4191128e-38 281 257
-0.047105055 0.70700002 -0.021073313 1.4374074e-38 282 257
-0.045865446 0.70700002 -0.021073313 1.4374074e-38 283 257
-0.044562716 0.70599997 -0.021043506 1.4465907e-38 284 257
-0.043018032 0.70099998 -0.020894472 1.4373711e-38 285 257
-0.041729331 0.69999999 -0.020864666 1.4373711e-38 286 257
-0.040386278 0.69800001 -0.020805053 1.4281515e-38 287 257
-0.039162453 0.69800001 -0.020805053 1.4188964e-38 288 257
-0.037884273 0.69700003 -0.020775247 1.4188964e-38 289 257
-0.036662199 0.69700003 -0.020775247 1.4188246e-38 290 257
-0.035440128 0.69700003 -0.020775247 1.4096051e-38 291 257
-0.034168959 0.69599998 -0.020745439 1.3912032e-38 292 257
-0.032948639 0.69599998 -0.020745439 1.4096063e-38 293 257
-0.031637147 0.69400001 -0.020685827 1.3727693e-38 294 257
-0.030420333 0.69400001 -0.020685827 1.4926236e-38 295 257
-0.029161438 0.69300002 -0.020656019 1.4561454e-38 296 257
-0.027946379 0.69300002 -0.020656019 1.2902292e-38 297 257
-0.026654173 0.69099998 -0.020596405 1.2337631e-38 298 257
-0.025442619 0.69099998 -0.020596405 1.4365935e-38 299 257
-0.024231065 0.69099998 -0.020596405 1.4191978e-38 300 257
-0.023019511 0.69099998 -0.020596405 1.3915031e-38 301 257
-0.021807959 0.69099998 -0.020596405 1.3821724e-38 302 257
-0.020656019 0.69300002 -0.020656019 1.2900128e-38 303 257
-0.01944096 0.69300002 -0.020656019 1.2347979e-38 304 257
-0.018225901 0.69300002 -0.020656019 1.2071752e-38 305 257
-0.01701084 0.69300002 -0.020656019 1.2714209e-38 306 257
-0.015795778 0.69300002 -0.020656019 1.2622012e-38 307 257
-0.014580719 0.69300002 -0.020656019 1.2529811e-38 308 257
-0.01336566 0.69300002 -0.020656019 1.2529811e-38 309 257
-0.012115533 0.69099998 -0.020596405 1.2620565e-38 310 257
-0.01090398 0.69099998 -0.020596405 1.2528371e-38 311 257
-0.0096924258 0.69099998 -0.020596405 1.2527297e-38 312 257
-0.008480873 0.69099998 -0.020596405 1.24351e-38 313 257
-0.0072903596 0.69300002 -0.020656019 1.2342549e-38 314 257
-0.0060753003 0.69300002 -0.020656019 1.2158517e-38 315 257
-0.0048672534 0.69400001 -0.020685827 1.2067041e-38 316 257
-0.0036504399 0.69400001 -0.020685827 1.2067041e-38 317 257
-0.0024336267 0.69400001 -0.020685827 1.1883728e-38 318 257
-0.0012203199 0.69599998 -0.020745439 1.1883728e-38 319 257
0 0.69599998 -0.020745439 1.1883728e-38 320 257
0.0012220733 0.69700003 -0.020775247 1.1791534e-38 321 257
0.0024441467 0.69700003 -0.020775247 1.1791175e-38 322 257
0.00366622 0.69700003 -0.020775247 1.1791175e-38 323 257
0.0048953067 0.69800001 -0.020805053 1.1515313e-38 324 257
0.006119133 0.69800001 -0.020805053 1.1423117e-38 325 257
0.0073429602 0.69800001 -0.020805053 1.1515319e-38 326 257
0.0085913334 0.69999999 -0.020864666 1.1422764e-38 327 257
0.0098607466 0.70300001 -0.020954086 1.1606435e-38 328 257
0.011109119 0.704 -0.020983893 1.1606435e-38 329 257
0.012343466 0.704 -0.020983893 1.1514963e-38 330 257
0.013616386 0.70599997 -0.021043506 1.1698994e-38 331 257
0.014854239 0.70599997 -0.021043506 1.1790842e-38 332 257
0.016092092 0.70599997 -0.021043506 1.1975235e-38 333 257
0.017329946 0.70599997 -0.021043506 1.1696874e-38 334 257
0.0186204 0.708 -0.021103119 1.3079808e-38 335 257
0.01994592 0.71100003 -0.021192541 1.5019193e-38 336 257
0.021192541 0.71100003 -0.021192541 1.5572366e-38 337 257
-0.052578956 0.71399999 -0.022533838 1.4741109e-38 278 258
-0.051255193 0.713 -0.022502279 1.4464162e-38 279 258
-0.049864799 0.71100003 -0.022439159 1.4283682e-38 280 258
-0.048549797 0.70999998 -0.022407599 1.4007096e-38 281 258
-0.047105055 0.70700002 -0.022312919 1.4374074e-38 282 258
-0.045865446 0.70700002 -0.022312919 1.4374074e-38 283 258
-0.044436477 0.704 -0.022218239 1.4373355e-38 284 258
-0.043202132 0.704 -0.022218239 1.4373355e-38 285 258
-0.041729331 0.69999999 -0.022091998 1.4281513e-38 286 258
-0.040386278 0.69800001 -0.02202888 1.4281513e-38 287 258
-0.039162453 0.69800001 -0.02202888 1.4280797e-38 288 258
-0.037884273 0.69700003 -0.02199732 1.4188241e-38 289 258
-0.036662199 0.69700003 -0.02199732 1.4095695e-38 290 258
-0.035440128 0.69700003 -0.02199732 1.4187891e-38 291 258
-0.034218054 0.69700003 -0.02199732 1.3819499e-38 292 258
-0.032948639 0.69599998 -0.021965759 1.4188642e-38 293 258
-0.031728316 0.69599998 -0.021965759 1.4008268e-38 294 258
-0.030420333 0.69400001 -0.021902639 1.4561442e-38 295 258
-0.029203519 0.69400001 -0.021902639 1.4653677e-38 296 258
-0.027946379 0.69300002 -0.021871079 1.391611e-38 297 258
-0.02673132 0.69300002 -0.021871079 1.3174951e-38 298 258
-0.025442619 0.69099998 -0.021807959 1.3912516e-38 299 258
-0.024231065 0.69099998 -0.021807959 1.373244e-38 300 258
-0.023019511 0.69099998 -0.021807959 1.3548051e-38 301 258
-0.021807959 0.69099998 -0.021807959 1.2996305e-38 302 258
-0.020656019 0.69300002 -0.021871079 1.225874e-38 303 258
-0.01944096 0.69300002 -0.021871079 1.2073229e-38 304 258
-0.018225901 0.69300002 -0.021871079 1.1612609e-38 305 258
-0.01701084 0.69300002 -0.021871079 1.2438008e-38 306 258
-0.015795778 0.69300002 -0.021871079 1.2253615e-38 307 258
-0.014580719 0.69300002 -0.021871079 1.2529098e-38 308 258
-0.01336566 0.69300002 -0.021871079 1.2436543e-38 309 258
-0.012150601 0.69300002 -0.021871079 1.261949e-38 310 258
-0.010935539 0.69300002 -0.021871079 1.24351e-38 311 258
-0.0097204801 0.69300002 -0.021871079 1.2342906e-38 312 258
-0.0085054198 0.69300002 -0.021871079 1.2342906e-38 313 258
-0.0072903596 0.69300002 -0.021871079 1.2158517e-38 314 258
-0.0060753003 0.69300002 -0.021871079 1.2342906e-38 315 258
-0.0048672534 0.69400001 -0.021902639 1.2158876e-38 316 258
-0.0036504399 0.69400001 -0.021902639 1.2158876e-38 317 258
-0.0024336267 0.69400001 -0.021902639 1.1883728e-38 318 258
-0.0012203199 0.69599998 -0.021965759 1.1791534e-38 319 258
0 0.69599998 -0.021965759 1.1791534e-38 320 258
0.0012220733 0.69700003 -0.02199732 1.1791534e-38 321 258
0.0024441467 0.69700003 -0.02199732 1.1698981e-38 322 258
0.00366622 0.69700003 -0.02199732 1.1698981e-38 323 258
0.0048953067 0.69800001 -0.02202888 1.142312e-38 324 258
0.006119133 0.69800001 -0.02202888 1.142312e-38 325 258
0.0073639993 0.69999999 -0.022091998 1.1606432e-38 326 258
0.0086036054 0.70099998 -0.022123558 1.1606432e-38 327 258
0.0098607466 0.70300001 -0.02218668 1.1422764e-38 328 258
0.011109119 0.704 -0.022218239 1.1422764e-38 329 258
0.012343466 0.704 -0.022218239 1.1422767e-38 330 258
0.013616386 0.70599997 -0.022281358 1.1514963e-38 331 258
0.014854239 0.70599997 -0.022281358 1.1698646e-38 332 258
0.016092092 0.70599997 -0.022281358 1.1975235e-38 333 258
0.017354494 0.70700002 -0.022312919 1.1789069e-38 334 258
0.0186204 0.708 -0.022344479 1.3079808e-38 335 258
0.01994592 0.71100003 -0.022439159 1.4926994e-38 336 258
0.021371379 0.71700001 -0.02262852 1.5388331e-38 337 258
0.02262852 0.71700001 -0.02262852 1.5295435e-38 338 258
-0.052578956 0.71399999 -0.02378572 1.4650709e-38 278 259
-0.05132708 0.71399999 -0.02378572 1.4466317e-38 279 259
-0.049864799 0.71100003 -0.023685781 1.4466626e-38 280 259
-0.048549797 0.70999998 -0.023652466 1.437443e-38 281 259
-0.047105055 0.70700002 -0.023552528 1.4190046e-38 282 259
-0.04580057 0.70599997 -0.023519212 1.4190046e-38 283 259
-0.044436477 0.704 -0.023452586 1.4373355e-38 284 259
-0.043202132 0.704 -0.023452586 1.428116e-38 285 259
-0.041788943 0.70099998 -0.023352645 1.428151e-38 286 259
-0.040502001 0.69999999 -0.023319334 1.428151e-38 287 259
-0.039162453 0.69800001 -0.023252707 1.4188597e-38 288 259
-0.037938625 0.69800001 -0.023252707 1.4096401e-38 289 259
-0.036662199 0.69700003 -0.023219392 1.4187896e-38 290 259
-0.035440128 0.69700003 -0.023219392 1.4187896e-38 291 259
-0.034218054 0.69700003 -0.023219392 1.3912087e-38 292 259
-0.032948639 0.69599998 -0.023186078 1.4557456e-38 293 259
-0.031728316 0.69599998 -0.023186078 1.3733874e-38 294 259
-0.030420333 0.69400001 -0.023119451 1.382607e-38 295 259
-0.029203519 0.69400001 -0.023119451 1.3458023e-38 296 259
-0.027946379 0.69300002 -0.02308614 1.327363e-38 297 259
-0.02673132 0.69300002 -0.02308614 1.3180713e-38 298 259
-0.02551626 0.69300002 -0.02308614 1.2719735e-38 299 259
-0.024301201 0.69300002 -0.02308614 1.2535346e-38 300 259
-0.023019511 0.69099998 -0.023019511 1.2443151e-38 301 259
-0.021807959 0.69099998 -0.023019511 1.2167284e-38 302 259
-0.020656019 0.69300002 -0.02308614 1.2075087e-38 303 259
-0.01944096 0.69300002 -0.02308614 1.1889959e-38 304 259
-0.018225901 0.69300002 -0.02308614 1.1797763e-38 305 259
-0.01701084 0.69300002 -0.02308614 1.2163963e-38 306 259
-0.015795778 0.69300002 -0.02308614 1.1702986e-38 307 259
-0.014580719 0.69300002 -0.02308614 1.2345067e-38 308 259
-0.01336566 0.69300002 -0.02308614 1.2161036e-38 309 259
-0.012150601 0.69300002 -0.02308614 1.2527294e-38 310 259
-0.010935539 0.69300002 -0.02308614 1.24351e-38 311 259
-0.0097204801 0.69300002 -0.02308614 1.2342906e-38 312 259
-0.0085054198 0.69300002 -0.02308614 1.2342906e-38 313 259
-0.0072903596 0.69300002 -0.02308614 1.2342906e-38 314 259
-0.0060840664 0.69400001 -0.023119451 1.2158876e-38 315 259
-0.0048672534 0.69400001 -0.023119451 1.2067399e-38 316 259
-0.0036504399 0.69400001 -0.023119451 1.2067399e-38 317 259
-0.0024336267 0.69400001 -0.023119451 1.1792252e-38 318 259
-0.0012203199 0.69599998 -0.023186078 1.1700057e-38 319 259
0 0.69599998 -0.023186078 1.1515669e-38 320 259
0.0012220733 0.69700003 -0.023219392 1.1515669e-38 321 259
0.0024441467 0.69700003 -0.023219392 1.142312e-38 322 259
0.00366622 0.69700003 -0.023219392 1.1515316e-38 323 259
0.0048953067 0.69800001 -0.023252707 1.1422764e-38 324 259
0.006119133 0.69800001 -0.023252707 1.1422764e-38 325 259
0.0073639993 0.69999999 -0.023319334 1.142312e-38 326 259
0.0086036054 0.70099998 -0.023352645 1.1330925e-38 327 259
0.0098747732 0.704 -0.023452586 1.142312e-38 328 259
0.011109119 0.704 -0.023452586 1.1330925e-38 329 259
0.012378532 0.70599997 -0.023519212 1.1514966e-38 330 259
0.013616386 0.70599997 -0.023519212 1.1514966e-38 331 259
0.014854239 0.70599997 -0.023519212 1.1515697e-38 332 259
0.016114887 0.70700002 -0.023552528 1.1700448e-38 333 259
0.017379038 0.708 -0.023585839 1.1789788e-38 334 259
0.018672999 0.70999998 -0.023652466 1.326492e-38 335 259
0.020086186 0.71600002 -0.023852346 1.5111741e-38 336 259
0.021371379 0.71700001 -0.02388566 1.5388687e-38 337 259
0.02262852 0.71700001 -0.02388566 1.538763e-38 338 259
-0.051470853 0.71600002 -0.025107734 1.4189753e-38 279 260
-0.050075196 0.71399999 -0.025037598 1.4375175e-38 280 260
-0.048618179 0.71100003 -0.024932399 1.3914197e-38 281 260
-0.047105055 0.70700002 -0.024792133 1.418969e-38 282 260
-0.04580057 0.70599997 -0.024757065 1.4097494e-38 283 260
-0.044436477 0.704 -0.024686933 1.4280797e-38 284 260
-0.043202132 0.704 -0.024686933 1.4464828e-38 285 260
-0.041788943 0.70099998 -0.024581732 1.4281515e-38 286 260
-0.040502001 0.69999999 -0.024546666 1.4188961e-38 287 260
-0.039274666 0.69999999 -0.024546666 1.4371559e-38 288 260
-0.037938625 0.69800001 -0.024476532 1.4371559e-38 289 260
-0.036662199 0.69700003 -0.024441468 1.4093919e-38 290 260
-0.035440128 0.69700003 -0.024441468 1.4370506e-38 291 260
-0.034218054 0.69700003 -0.024441468 1.4467091e-38 292 260
-0.03299598 0.69700003 -0.024441468 1.4651841e-38 293 260
-0.031728316 0.69599998 -0.0244064 1.1246405e-38 294 260
-0.030507999 0.69599998 -0.0244064 9.3102985e-39 295 260
-0.029203519 0.69400001 -0.024336265 8.4780197e-39 296 260
-0.027986705 0.69400001 -0.024336265 8.846442e-39 297 260
-0.02673132 0.69300002 -0.024301201 8.4812553e-39 298 260
-0.02551626 0.69300002 -0.024301201 8.7578436e-39 299 260
-0.024301201 0.69300002 -0.024301201 1.0137912e-38 300 260
-0.02308614 0.69300002 -0.024301201 1.0506336e-38 301 260
-0.021871079 0.69300002 -0.024301201 1.0322668e-38 302 260
-0.020685827 0.69400001 -0.024336265 1.0691449e-38 303 260
-0.019469013 0.69400001 -0.024336265 1.1611592e-38 304 260
-0.0182522 0.69400001 -0.024336265 1.207257e-38 305 260
-0.017035386 0.69400001 -0.024336265 1.2440588e-38 306 260
-0.015818574 0.69400001 -0.024336265 1.1795218e-38 307 260
-0.014580719 0.69300002 -0.024301201 1.2344016e-38 308 260
-0.01336566 0.69300002 -0.024301201 1.2159985e-38 309 260
-0.012150601 0.69300002 -0.024301201 1.2343985e-38 310 260
-0.010935539 0.69300002 -0.024301201 1.2251788e-38 311 260
-0.0097204801 0.69300002 -0.024301201 1.2343265e-38 312 260
-0.0085054198 0.69300002 -0.024301201 1.2343265e-38 313 260
-0.0072903596 0.69300002 -0.024301201 1.2158876e-38 314 260
-0.0060840664 0.69400001 -0.024336265 1.2158876e-38 315 260
-0.0048672534 0.69400001 -0.024336265 1.1974846e-38 316 260
-0.0036504399 0.69400001 -0.024336265 1.2067041e-38 317 260
-0.0024336267 0.69400001 -0.024336265 1.1792252e-38 318 260
-0.0012203199 0.69599998 -0.0244064 1.1700057e-38 319 260
0 0.69599998 -0.0244064 1.1515669e-38 320 260
0.0012220733 0.69700003 -0.024441468 1.1515669e-38 321 260
0.0024441467 0.69700003 -0.024441468 1.1515316e-38 322 260
0.00366622 0.69700003 -0.024441468 1.142312e-38 323 260
0.0048953067 0.69800001 -0.024476532 1.1423117e-38 324 260
0.0061366665 0.69999999 -0.024546666 1.1423117e-38 325 260
0.0073745195 0.70099998 -0.024581732 1.1514593e-38 326 260
0.0086036054 0.70099998 -0.024581732 1.1514593e-38 327 260
0.0098747732 0.704 -0.024686933 1.142312e-38 328 260
0.011109119 0.704 -0.024686933 1.1330925e-38 329 260
0.012378532 0.70599997 -0.024757065 1.1514963e-38 330 260
0.013616386 0.70599997 -0.024757065 1.1698994e-38 331 260
0.01487528 0.70700002 -0.024792133 1.160753e-38 332 260
0.016114887 0.70700002 -0.024792133 1.1791922e-38 333 260
0.017428132 0.70999998 -0.024897331 1.1789788e-38 334 260
0.0186993 0.71100003 -0.024932399 1.3541865e-38 335 260
0.020086186 0.71600002 -0.025107734 1.5296489e-38 336 260
0.021371379 0.71700001 -0.0251428 1.5296489e-38 337 260
-0.051470853 0.71600002 -0.026363119 1.4466359e-38 279 261
-0.050075196 0.71399999 -0.026289478 1.4557416e-38 280 261
-0.048618179 0.71100003 -0.026179021 1.4373023e-38 281 261
-0.047171678 0.708 -0.026068559 1.4281162e-38 282 261
-0.045865446 0.70700002 -0.02603174 1.4281162e-38 283 261
-0.044436477 0.704 -0.02592128 1.4280441e-38 284 261
-0.043202132 0.704 -0.02592128 1.4188244e-38 285 261
-0.041788943 0.70099998 -0.025810819 1.4280797e-38 286 261
-0.040559858 0.70099998 -0.025810819 1.4188241e-38 287 261
-0.039274666 0.69999999 -0.025773998 1.4371559e-38 288 261
-0.037938625 0.69800001 -0.025700359 1.4279363e-38 289 261
-0.0367148 0.69800001 -0.025700359 1.4002095e-38 290 261
-0.035490975 0.69800001 -0.025700359 1.4462715e-38 291 261
-0.034218054 0.69700003 -0.025663542 1.3731701e-38 292 261
-0.03299598 0.69700003 -0.025663542 1.4100482e-38 293 261
-0.03177391 0.69700003 -0.025663542 1.1614116e-38 294 261
-0.030507999 0.69599998 -0.025626717 1.0323377e-38 295 261
-0.029203519 0.69400001 -0.025553079 9.6780076e-39 296 261
-0.027986705 0.69400001 -0.025553079 9.5854532e-39 297 261
-0.02673132 0.69300002 -0.02551626 9.4939793e-39 298 261
-0.02551626 0.69300002 -0.02551626 9.6783705e-39 299 261
-0.024301201 0.69300002 -0.02551626 1.0505264e-38 300 261
-0.02308614 0.69300002 -0.02551626 1.078185e-38 301 261
-0.021871079 0.69300002 -0.02551626 1.0322323e-38 302 261
-0.020685827 0.69400001 -0.025553079 1.0229769e-38 303 261
-0.019469013 0.69400001 -0.025553079 1.0047879e-38 304 261
-0.0182522 0.69400001 -0.025553079 1.1154226e-38 305 261
-0.017035386 0.69400001 -0.025553079 1.2352355e-38 306 261
-0.015818574 0.69400001 -0.025553079 1.1706985e-38 307 261
-0.014580719 0.69300002 -0.02551626 1.1794442e-38 308 261
-0.01336566 0.69300002 -0.02551626 1.1702246e-38 309 261
-0.012150601 0.69300002 -0.02551626 1.2159952e-38 310 261
-0.010935539 0.69300002 -0.02551626 1.1975923e-38 311 261
-0.0097204801 0.69300002 -0.02551626 1.2159594e-38 312 261
-0.0085054198 0.69300002 -0.02551626 1.2067399e-38 313 261
-0.0073008798 0.69400001 -0.025553079 1.2066323e-38 314 261
-0.0060840664 0.69400001 -0.025553079 1.2066323e-38 315 261
-0.0048672534 0.69400001 -0.025553079 1.1974846e-38 316 261
-0.0036504399 0.69400001 -0.025553079 1.1974846e-38 317 261
-0.0024336267 0.69400001 -0.025553079 1.1700057e-38 318 261
-0.0012203199 0.69599998 -0.025626717 1.1516028e-38 319 261
0 0.69599998 -0.025626717 1.1515669e-38 320 261
0.0012220733 0.69700003 -0.025663542 1.1515669e-38 321 261
0.0024441467 0.69700003 -0.025663542 1.1515313e-38 322 261
0.00366622 0.69700003 -0.025663542 1.1423117e-38 323 261
0.0048953067 0.69800001 -0.025700359 1.1514593e-38 324 261
0.0061366665 0.69999999 -0.025773998 1.1606787e-38 325 261
0.0073955595 0.70300001 -0.025884461 1.1331281e-38 326 261
0.0086281532 0.70300001 -0.025884461 1.1331281e-38 327 261
0.0098747732 0.704 -0.02592128 1.1423117e-38 328 261
0.011109119 0.704 -0.02592128 1.1423117e-38 329 261
0.012378532 0.70599997 -0.025994917 1.1423486e-38 330 261
0.013635674 0.70700002 -0.02603174 1.1607877e-38 331 261
0.01487528 0.70700002 -0.02603174 1.1607897e-38 332 261
0.016114887 0.70700002 -0.02603174 1.1792288e-38 333 261
0.017428132 0.70999998 -0.026142199 1.2067101e-38 334 261
0.0186993 0.71100003 -0.026179021 1.3634428e-38 335 261
0.01994592 0.71100003 -0.026179021 1.5296135e-38 336 261
-0.051470853 0.71600002 -0.027618507 1.4466725e-38 279 262
-0.050075196 0.71399999 -0.02754136 1.4282274e-38 280 262
-0.048754938 0.713 -0.027502786 1.4006045e-38 281 262
-0.047171678 0.708 -0.027309919 1.4189693e-38 282 262
-0.045865446 0.70700002 -0.027271347 1.4097497e-38 283 262
-0.044436477 0.704 -0.027155625 1.4280088e-38 284 262
-0.043202132 0.704 -0.027155625 1.4187891e-38 285 262
-0.041967787 0.704 -0.027155625 1.4371559e-38 286 262
-0.040559858 0.70099998 -0.027039904 1.4279363e-38 287 262
-0.039274666 0.69999999 -0.027001332 1.4094979e-38 288 262
-0.037938625 0.69800001 -0.026924185 1.4094979e-38 289 262
-0.0367148 0.69800001 -0.026924185 1.4001742e-38 290 262
-0.035490975 0.69800001 -0.026924185 1.427833e-38 291 262
-0.034218054 0.69700003 -0.026885614 1.3085251e-38 292 262
-0.03299598 0.69700003 -0.026885614 1.2624633e-38 293 262
-0.03177391 0.69700003 -0.026885614 1.2074385e-38 294 262
-0.030507999 0.69599998 -0.026847038 1.1613407e-38 295 262
-0.029287677 0.69599998 -0.026847038 1.0875842e-38 296 262
-0.027986705 0.69400001 -0.026769891 1.0875842e-38 297 262
-0.02673132 0.69300002 -0.02673132 1.041701e-38 298 262
-0.02551626 0.69300002 -0.02673132 1.0140425e-38 299 262
-0.024301201 0.69300002 -0.02673132 1.0413772e-38 300 262
-0.02308614 0.69300002 -0.02673132 9.7684025e-39 301 262
-0.021871079 0.69300002 -0.02673132 9.3989096e-39 302 262
-0.020685827 0.69400001 -0.026769891 8.9382902e-39 303 262
-0.019469013 0.69400001 -0.026769891 7.742984e-39 304 262
-0.0182522 0.69400001 -0.026769891 8.9418873e-39 305 262
-0.017035386 0.69400001 -0.026769891 1.0695374e-38 306 262
-0.015818574 0.69400001 -0.026769891 1.0603178e-38 307 262
-0.014580719 0.69300002 -0.02673132 1.1610087e-38 308 262
-0.01336566 0.69300002 -0.02673132 1.1425694e-38 309 262
-0.012150601 0.69300002 -0.02673132 1.2251452e-38 310 262
-0.010935539 0.69300002 -0.02673132 1.1974865e-38 311 262
-0.0097204801 0.69300002 -0.02673132 1.2158517e-38 312 262
-0.0085054198 0.69300002 -0.02673132 1.2066323e-38 313 262
-0.0073008798 0.69400001 -0.026769891 1.2249637e-38 314 262
-0.0060840664 0.69400001 -0.026769891 1.2249637e-38 315 262
-0.0048672534 0.69400001 -0.026769891 1.1974489e-38 316 262
-0.0036609597 0.69599998 -0.026847038 1.1974489e-38 317 262
-0.0024406398 0.69599998 -0.026847038 1.1699699e-38 318 262
-0.0012203199 0.69599998 -0.026847038 1.1515669e-38 319 262
0 0.69700003 -0.026885614 1.1515313e-38 320 262
0.0012220733 0.69700003 -0.026885614 1.1515313e-38 321 262
0.0024441467 0.69700003 -0.026885614 1.1606432e-38 322 262
0.0036714801 0.69800001 -0.026924185 1.1606432e-38 323 262
0.0049093333 0.69999999 -0.027001332 1.1605711e-38 324 262
0.0061366665 0.69999999 -0.027001332 1.1605711e-38 325 262
0.0073955595 0.70300001 -0.027117053 1.1514593e-38 326 262
0.0086404262 0.704 -0.027155625 1.1514593e-38 327 262
0.0098747732 0.704 -0.027155625 1.1606787e-38 328 262
0.011109119 0.704 -0.027155625 1.1698981e-38 329 262
0.012378532 0.70599997 -0.027232772 1.1515682e-38 330 262
0.013635674 0.70700002 -0.027271347 1.1607877e-38 331 262
0.01487528 0.70700002 -0.027271347 1.1699376e-38 332 262
0.01613768 0.708 -0.027309919 1.2067799e-38 333 262
0.017428132 0.70999998 -0.027387066 1.2435535e-38 334 262
0.018672999 0.70999998 -0.027387066 1.418725e-38 335 262
0.019917866 0.70999998 -0.027387066 1.5296501e-38 336 262
-0.051470853 0.71600002 -0.028873893 1.4651838e-38 279 263
-0.050075196 0.71399999 -0.028793238 1.4373397e-38 280 263
-0.048754938 0.713 -0.028752912 1.42812e-38 281 263
-0.047304932 0.70999998 -0.028631933 1.4373008e-38 282 263
-0.045930319 0.708 -0.02855128 1.4188258e-38 283 263
-0.044625837 0.70700002 -0.028510952 1.4371203e-38 284 263
-0.043324865 0.70599997 -0.028470624 1.4371203e-38 285 263
-0.041967787 0.704 -0.028389972 1.4370843e-38 286 263
-0.040559858 0.70099998 -0.028268991 1.4278288e-38 287 263
-0.039274666 0.69999999 -0.028228667 1.446125e-38 288 263
-0.037938625 0.69800001 -0.028148014 1.4277219e-38 289 263
-0.0367148 0.69800001 -0.028148014 1.4001026e-38 290 263
-0.035490975 0.69800001 -0.028148014 1.4553841e-38 291 263
-0.034267146 0.69800001 -0.028148014 1.3267844e-38 292 263
-0.03299598 0.69700003 -0.028107686 1.2161857e-38 293 263
-0.03177391 0.69700003 -0.028107686 1.1706677e-38 294 263
-0.030551834 0.69700003 -0.028107686 1.1061308e-38 295 263
-0.029287677 0.69599998 -0.028067358 8.5741936e-39 296 263
-0.028067358 0.69599998 -0.028067358 8.9429761e-39 297 263
-0.026769891 0.69400001 -0.027986705 9.0351717e-39 298 263
-0.025553079 0.69400001 -0.027986705 9.1273674e-39 299 263
-0.024336265 0.69400001 -0.027986705 9.1259184e-39 300 263
-0.02308614 0.69300002 -0.027946379 7.1898102e-39 301 263
-0.021871079 0.69300002 -0.027946379 7.2787702e-39 302 263
-0.020685827 0.69400001 -0.027986705 7.554997e-39 303 263
-0.019469013 0.69400001 -0.027986705 7.3727595e-39 304 263
-0.0182522 0.69400001 -0.027986705 8.6634983e-39 305 263
-0.017035386 0.69400001 -0.027986705 1.1429349e-38 306 263
-0.015818574 0.69400001 -0.027986705 1.161338e-38 307 263
-0.01460176 0.69400001 -0.027986705 1.1979598e-38 308 263
-0.013384946 0.69400001 -0.027986705 1.1242032e-38 309 263
-0.012168133 0.69400001 -0.027986705 1.2341492e-38 310 263
-0.01095132 0.69400001 -0.027986705 1.2157461e-38 311 263
-0.0097345067 0.69400001 -0.027986705 1.2341477e-38 312 263
-0.0085176928 0.69400001 -0.027986705 1.2249281e-38 313 263
-0.0073008798 0.69400001 -0.027986705 1.2157088e-38 314 263
-0.0060840664 0.69400001 -0.027986705 1.2157088e-38 315 263
-0.0048812795 0.69599998 -0.028067358 1.1882296e-38 316 263
-0.0036609597 0.69599998 -0.028067358 1.1882296e-38 317 263
-0.0024406398 0.69599998 -0.028067358 1.1698981e-38 318 263
-0.0012220733 0.69700003 -0.028107686 1.1698981e-38 319 263
0 0.69700003 -0.028107686 1.1698981e-38 320 263
0.0012220733 0.69700003 -0.028107686 1.1791177e-38 321 263
0.0024476533 0.69800001 -0.028148014 1.1974492e-38 322 263
0.0036714801 0.69800001 -0.028148014 1.1698265e-38 323 263
0.0049093333 0.69999999 -0.028228667 1.1789382e-38 324 263
0.0061454331 0.70099998 -0.028268991 1.1789382e-38 325 263
0.0073955595 0.70300001 -0.028349647 1.1514593e-38 326 263
0.0086404262 0.704 -0.028389972 1.1514593e-38 327 263
0.0098747732 0.704 -0.028389972 1.1423117e-38 328 263
0.011109119 0.704 -0.028389972 1.1515313e-38 329 263
0.012378532 0.70599997 -0.028470624 1.1698994e-38 330 263
0.013635674 0.70700002 -0.028510952 1.1791548e-38 331 263
0.01489632 0.708 -0.02855128 1.1791569e-38 332 263
0.01613768 0.708 -0.02855128 1.1791569e-38 333 263
0.017428132 0.70999998 -0.028631933 1.3080904e-38 334 263
0.018672999 0.70999998 -0.028631933 1.464787e-38 335 263
0.019917866 0.70999998 -0.028631933 1.5572013e-38 336 263
-0.051470853 0.71600002 -0.03012928 1.4928432e-38 279 264
-0.050215468 0.71600002 -0.03012928 1.4371964e-38 280 264
-0.048823316 0.71399999 -0.030045118 1.4371964e-38 281 264
-0.047371563 0.71100003 -0.029918881 1.4463768e-38 282 264
-0.046060063 0.70999998 -0.029876797 1.4279737e-38 283 264
-0.044688959 0.708 -0.02979264 1.427901e-38 284 264
-0.043386232 0.70700002 -0.029750559 1.4094979e-38 285 264
-0.041967787 0.704 -0.029624319 1.4278288e-38 286 264
-0.040675577 0.70300001 -0.029582238 1.4186093e-38 287 264
-0.039274666 0.69999999 -0.029455997 1.4185023e-38 288 264
-0.038047329 0.69999999 -0.029455997 1.4092828e-38 289 264
-0.0367148 0.69800001 -0.029371841 1.3998869e-38 290 264
-0.035490975 0.69800001 -0.029371841 1.4644239e-38 291 264
-0.034267146 0.69800001 -0.029371841 1.3360396e-38 292 264
-0.033043321 0.69800001 -0.029371841 1.2346604e-38 293 264
-0.03177391 0.69700003 -0.02932976 1.1982172e-38 294 264
-0.030551834 0.69700003 -0.02932976 1.1428999e-38 295 264
-0.02932976 0.69700003 -0.02932976 8.572746e-39 296 264
-0.028067358 0.69599998 -0.029287677 8.3883534e-39 297 264
-0.026847038 0.69599998 -0.029287677 8.3898023e-39 298 264
-0.025626717 0.69599998 -0.029287677 9.1273674e-39 299 264
-0.024336265 0.69400001 -0.029203519 9.6780076e-39 300 264
-0.023119451 0.69400001 -0.029203519 8.2950731e-39 301 264
-0.021902639 0.69400001 -0.029203519 8.2021516e-39 302 264
-0.020745439 0.69599998 -0.029287677 8.7553254e-39 303 264
-0.019469013 0.69400001 -0.029203519 8.7556912e-39 304 264
-0.0182522 0.69400001 -0.029203519 9.3088649e-39 305 264
-0.017035386 0.69400001 -0.029203519 1.161411e-38 306 264
-0.015818574 0.69400001 -0.029203519 1.2167284e-38 307 264
-0.01460176 0.69400001 -0.029203519 1.2440232e-38 308 264
-0.013384946 0.69400001 -0.029203519 1.1149493e-38 309 264
-0.012168133 0.69400001 -0.029203519 1.2157111e-38 310 264
-0.01095132 0.69400001 -0.029203519 1.2157111e-38 311 264
-0.0097345067 0.69400001 -0.029203519 1.2157085e-38 312 264
-0.0085176928 0.69400001 -0.029203519 1.2157085e-38 313 264
-0.0073008798 0.69400001 -0.029203519 1.206489e-38 314 264
-0.0060840664 0.69400001 -0.029203519 1.206489e-38 315 264
-0.0048812795 0.69599998 -0.029287677 1.197377e-38 316 264
-0.00366622 0.69700003 -0.02932976 1.197377e-38 317 264
-0.0024441467 0.69700003 -0.02932976 1.169934e-38 318 264
-0.0012220733 0.69700003 -0.02932976 1.169934e-38 319 264
0 0.69700003 -0.02932976 1.1974846e-38 320 264
0.0012238267 0.69800001 -0.029371841 1.1974846e-38 321 264
0.0024476533 0.69800001 -0.029371841 1.2065966e-38 322 264
0.0036714801 0.69800001 -0.029371841 1.197377e-38 323 264
0.0049093333 0.69999999 -0.029455997 1.1880859e-38 324 264
0.0061454331 0.70099998 -0.029498078 1.2064888e-38 325 264
0.0074060797 0.704 -0.029624319 1.1698264e-38 326 264
0.0086404262 0.704 -0.029624319 1.1698264e-38 327 264
0.0098747732 0.704 -0.029624319 1.1515316e-38 328 264
0.011140679 0.70599997 -0.029708479 1.1515316e-38 329 264
0.012378532 0.70599997 -0.029708479 1.1698999e-38 330 264
0.013635674 0.70700002 -0.029750559 1.1791195e-38 331 264
0.01489632 0.708 -0.02979264 1.1699739e-38 332 264
0.01613768 0.708 -0.02979264 1.1884489e-38 333 264
0.01745268 0.71100003 -0.029918881 1.3542248e-38 334 264
0.0186993 0.71100003 -0.029918881 1.4648954e-38 335 264
0.01994592 0.71100003 -0.029918881 1.5295788e-38 336 264
-0.051542737 0.71700001 -0.031428497 1.5296504e-38 279 265
-0.050215468 0.71600002 -0.031384666 1.4739321e-38 280 265
-0.048823316 0.71399999 -0.031296998 1.455529e-38 281 265
-0.047504812 0.713 -0.031253166 1.455597e-38 282 265
-0.046124939 0.71100003 -0.031165501 1.4187187e-38 283 265
-0.044815198 0.70999998 -0.031121666 1.4370134e-38 284 265
-0.043447599 0.708 -0.031034 1.4370134e-38 285 265
-0.042087011 0.70599997 -0.030946331 1.4278294e-38 286 265
-0.040733438 0.704 -0.030858666 1.4278294e-38 287 265
-0.039330769 0.70099998 -0.030727165 1.4092828e-38 288 265
-0.038047329 0.69999999 -0.030683333 1.4000631e-38 289 265
-0.036819998 0.69999999 -0.030683333 1.399742e-38 290 265
-0.035592664 0.69999999 -0.030683333 1.4550594e-38 291 265
-0.034365334 0.69999999 -0.030683333 1.3821003e-38 292 265
-0.033043321 0.69800001 -0.030595668 1.3452579e-38 293 265
-0.031819493 0.69800001 -0.030595668 1.2720454e-38 294 265
-0.030551834 0.69700003 -0.030551834 1.2720454e-38 295 265
-0.02932976 0.69700003 -0.030551834 1.2071864e-38 296 265
-0.028107686 0.69700003 -0.030551834 1.0965875e-38 297 265
-0.026847038 0.69599998 -0.030507999 9.9549672e-39 298 265
-0.025626717 0.69599998 -0.030507999 1.0507781e-38 299 265
-0.024336265 0.69400001 -0.030420333 1.0415936e-38 300 265
-0.023119451 0.69400001 -0.030420333 9.7705662e-39 301 265
-0.021902639 0.69400001 -0.030420333 1.0136831e-38 302 265
-0.020745439 0.69599998 -0.030507999 1.0321222e-38 303 265
