# .PCD v.7 - Point Cloud Data file format
FIELDS x y z rgb imX imY
SIZE 4 4 4 4 4 4
TYPE F F F F F F
COUNT 1 1 1 1 1 1
WIDTH 831
HEIGHT 1
VIEWPOINT 0 0 0 1 0 0 0
POINTS 831
DATA ascii
-0.019300694 0.68800002 -0.010856641 6.9896039e-39 304 249
-0.0180944 0.68800002 -0.010856641 6.2520388e-39 305 249
-0.016888106 0.68800002 -0.010856641 7.1685819e-39 306 249
-0.015681813 0.68800002 -0.010856641 6.9841907e-39 307 249
-0.014475521 0.68800002 -0.010856641 7.2593342e-39 308 249
-0.013249939 0.68699998 -0.010840859 7.0745842e-39 309 249
-0.012045399 0.68699998 -0.010840859 7.2582594e-39 310 249
-0.010840859 0.68699998 -0.010840859 7.2582594e-39 311 249
-0.0096363192 0.68699998 -0.010840859 7.5341232e-39 312 249
-0.0084317802 0.68699998 -0.010840859 7.6263203e-39 313 249
-0.0072272392 0.68699998 -0.010840859 7.7177886e-39 314 249
-0.0060226996 0.68699998 -0.010840859 7.7177886e-39 315 249
-0.0048111463 0.68599999 -0.010825079 7.9014624e-39 316 249
-0.00360836 0.68599999 -0.010825079 7.8092654e-39 317 249
-0.0024090798 0.68699998 -0.010840859 7.9014624e-39 318 249
-0.0012045399 0.68699998 -0.010840859 8.1780479e-39 319 249
0 0.68699998 -0.010840859 8.7286979e-39 320 249
0.0012045399 0.68699998 -0.010840859 8.8208936e-39 321 249
0.0024090798 0.68699998 -0.010840859 8.8208936e-39 322 249
0.0036136196 0.68699998 -0.010840859 8.8208936e-39 323 249
0.0048181596 0.68699998 -0.010840859 8.3624392e-39 324 249
0.0060314666 0.68800002 -0.010856641 8.3624392e-39 325 249
0.0072377604 0.68800002 -0.010856641 7.9043379e-39 326 249
0.0084440531 0.68800002 -0.010856641 7.8117835e-39 327 249
0.0096783992 0.69 -0.010888199 7.2618495e-39 328 249
0.010888199 0.69 -0.010888199 6.9856228e-39 329 249
0.012115533 0.69099998 -0.01090398 6.8937901e-39 330 249
0.01336566 0.69300002 -0.010935539 6.8937901e-39 331 249
0.01460176 0.69400001 -0.01095132 6.7104778e-39 332 249
0.015864158 0.69599998 -0.010982879 6.6182822e-39 333 249
0.017109027 0.69700003 -0.01099866 6.2509374e-39 334 249
0.018331099 0.69700003 -0.01099866 6.2509374e-39 335 249
0.019581227 0.69800001 -0.01101444 6.1587446e-39 336 249
0.020864666 0.69999999 -0.011045999 5.8825178e-39 337 249
0.022123558 0.70099998 -0.011061779 5.8825178e-39 338 249
0.023352645 0.70099998 -0.011061779 5.9747135e-39 339 249
0.024581732 0.70099998 -0.011061779 5.7935536e-39 340 249
0.025994917 0.70599997 -0.011140679 4.3187837e-39 341 249
0.027232772 0.70599997 -0.011140679 6.7176679e-39 342 249
-0.043202132 0.704 -0.012343466 1.0136465e-38 285 250
-0.041967787 0.704 -0.012343466 5.887917e-39 286 250
-0.040559858 0.70099998 -0.012290866 4.7819282e-39 287 250
-0.039274666 0.69999999 -0.012273333 6.7108436e-39 288 250
-0.037938625 0.69800001 -0.012238266 6.2502242e-39 289 250
-0.036662199 0.69700003 -0.012220734 5.6070169e-39 290 250
-0.035440128 0.69700003 -0.012220734 5.6070169e-39 291 250
-0.034168959 0.69599998 -0.0122032 5.3315119e-39 292 250
-0.032853961 0.69400001 -0.012168133 5.3315119e-39 293 250
-0.031637147 0.69400001 -0.012168133 5.6070226e-39 294 250
-0.0303765 0.69300002 -0.012150601 6.067642e-39 295 250
-0.029077278 0.69099998 -0.012115533 5.9786931e-39 296 250
-0.027865725 0.69099998 -0.012115533 6.7162582e-39 297 250
-0.026654173 0.69099998 -0.012115533 7.54963e-39 298 250
-0.025405798 0.69 -0.012097999 1.1698435e-38 299 250
-0.024125867 0.68800002 -0.012062933 1.271798e-38 300 250
-0.022919573 0.68800002 -0.012062933 1.2533589e-38 301 250
-0.021713281 0.68800002 -0.012062933 9.7644775e-39 302 250
-0.020506985 0.68800002 -0.012062933 4.9703048e-39 303 250
-0.019300694 0.68800002 -0.012062933 6.710496e-39 304 250
-0.0180944 0.68800002 -0.012062933 6.8948873e-39 305 250
-0.016888106 0.68800002 -0.012062933 6.8937901e-39 306 250
-0.015681813 0.68800002 -0.012062933 6.5253663e-39 307 250
-0.014475521 0.68800002 -0.012062933 6.7079597e-39 308 250
-0.013249939 0.68699998 -0.012045399 6.5235684e-39 309 250
-0.012045399 0.68699998 -0.012045399 6.6157669e-39 310 250
-0.010840859 0.68699998 -0.012045399 6.6157669e-39 311 250
-0.0096363192 0.68699998 -0.012045399 7.074587e-39 312 250
-0.0084317802 0.68699998 -0.012045399 7.1667826e-39 313 250
-0.0072167199 0.68599999 -0.012027865 7.2596873e-39 314 250
-0.0060139326 0.68599999 -0.012027865 7.2596873e-39 315 250
-0.0048111463 0.68599999 -0.012027865 7.9018183e-39 316 250
-0.00360836 0.68599999 -0.012027865 7.9018183e-39 317 250
-0.0024090798 0.68699998 -0.012045399 8.4524712e-39 318 250
-0.0012045399 0.68699998 -0.012045399 8.9134479e-39 319 250
0 0.68699998 -0.012045399 9.1893076e-39 320 250
0.0012045399 0.68699998 -0.012045399 9.2815032e-39 321 250
0.0024090798 0.68699998 -0.012045399 9.2818591e-39 322 250
0.0036136196 0.68699998 -0.012045399 9.2818591e-39 323 250
0.0048181596 0.68699998 -0.012045399 9.006361e-39 324 250
0.0060314666 0.68800002 -0.012062933 8.9141654e-39 325 250
0.0072377604 0.68800002 -0.012062933 7.9043379e-39 326 250
0.0084440531 0.68800002 -0.012062933 7.9043379e-39 327 250
0.0096783992 0.69 -0.012097999 7.1696539e-39 328 250
0.010888199 0.69 -0.012097999 6.9856228e-39 329 250
0.012115533 0.69099998 -0.012115533 6.7104778e-39 330 250
0.01336566 0.69300002 -0.012150601 6.6182822e-39 331 250
0.01460176 0.69400001 -0.012168133 6.6182822e-39 332 250
0.015864158 0.69599998 -0.0122032 6.5260852e-39 333 250
0.017109027 0.69700003 -0.012220734 6.1580257e-39 334 250
0.018331099 0.69700003 -0.012220734 6.0658301e-39 335 250
0.019581227 0.69800001 -0.012238266 5.606654e-39 336 250
0.020864666 0.69999999 -0.012273333 5.5144584e-39 337 250
0.022123558 0.70099998 -0.012290866 5.6066512e-39 338 250
0.023352645 0.70099998 -0.012290866 5.9754323e-39 339 250
0.024581732 0.70099998 -0.012290866 5.7939095e-39 340 250
0.025994917 0.70599997 -0.012378532 4.3191382e-39 341 250
0.027232772 0.70599997 -0.012378532 7.0857273e-39 342 250
0.028470624 0.70599997 -0.012378532 1.4369182e-38 343 250
-0.043202132 0.704 -0.013577812 1.0504524e-38 285 251
-0.041788943 0.70099998 -0.013519952 5.8875527e-39 286 251
-0.040502001 0.69999999 -0.013500666 4.5046182e-39 287 251
-0.039274666 0.69999999 -0.013500666 6.2498682e-39 288 251
-0.037938625 0.69800001 -0.013462093 6.065477e-39 289 251
-0.036662199 0.69700003 -0.013442807 5.6063009e-39 290 251
-0.035440128 0.69700003 -0.013442807 5.5141053e-39 291 251
-0.034168959 0.69599998 -0.013423519 5.5141053e-39 292 251
-0.032853961 0.69400001 -0.013384946 5.5141053e-39 293 251
-0.031637147 0.69400001 -0.013384946 5.6063009e-39 294 251
-0.0303765 0.69300002 -0.01336566 5.975082e-39 295 251
-0.029077278 0.69099998 -0.013327086 5.8861276e-39 296 251
-0.027865725 0.69099998 -0.013327086 6.7155281e-39 297 251
-0.026654173 0.69099998 -0.013327086 7.363794e-39 298 251
-0.025405798 0.69 -0.0133078 1.0775034e-38 299 251
-0.024125867 0.68800002 -0.013269227 1.1327857e-38 300 251
-0.022919573 0.68800002 -0.013269227 1.0037118e-38 301 251
-0.021713281 0.68800002 -0.013269227 7.6389362e-39 302 251
-0.020506985 0.68800002 -0.013269227 4.9652629e-39 303 251
-0.019300694 0.68800002 -0.013269227 7.1689505e-39 304 251
-0.0180944 0.68800002 -0.013269227 7.1689505e-39 305 251
-0.016888106 0.68800002 -0.013269227 6.8015973e-39 306 251
-0.015659019 0.68699998 -0.013249939 6.4328147e-39 307 251
-0.014454478 0.68699998 -0.013249939 6.340975e-39 308 251
-0.013249939 0.68699998 -0.013249939 6.1562251e-39 309 251
-0.012045399 0.68699998 -0.013249939 6.2477018e-39 310 251
-0.010840859 0.68699998 -0.013249939 6.3402562e-39 311 251
-0.0096363192 0.68699998 -0.013249939 6.7079597e-39 312 251
-0.0084317802 0.68699998 -0.013249939 6.5235684e-39 313 251
-0.0072167199 0.68599999 -0.013230653 6.7972785e-39 314 251
-0.0060139326 0.68599999 -0.013230653 7.4426465e-39 315 251
-0.0048111463 0.68599999 -0.013230653 8.3642412e-39 316 251
-0.00360836 0.68599999 -0.013230653 8.7326636e-39 317 251
-0.0024090798 0.68699998 -0.013249939 1.0109116e-38 318 251
-0.0012045399 0.68699998 -0.013249939 1.020167e-38 319 251
0 0.68699998 -0.013249939 9.5609669e-39 320 251
0.0012045399 0.68699998 -0.013249939 9.5609669e-39 321 251
0.0024090798 0.68699998 -0.013249939 9.5609669e-39 322 251
0.0036136196 0.68699998 -0.013249939 9.5609669e-39 323 251
0.0048181596 0.68699998 -0.013249939 9.469137e-39 324 251
0.0060314666 0.68800002 -0.013269227 9.1929103e-39 325 251
0.0072377604 0.68800002 -0.013269227 8.3642384e-39 326 251
0.0084440531 0.68800002 -0.013269227 7.9954545e-39 327 251
0.0096783992 0.69 -0.0133078 6.9841865e-39 328 251
0.010888199 0.69 -0.0133078 7.1689378e-39 329 251
0.012115533 0.69099998 -0.013327086 6.8015945e-39 330 251
0.01336566 0.69300002 -0.01336566 6.7093974e-39 331 251
0.014580719 0.69300002 -0.01336566 6.7093974e-39 332 251
0.015864158 0.69599998 -0.013423519 6.5253663e-39 333 251
0.017109027 0.69700003 -0.013442807 5.7906823e-39 334 251
0.018331099 0.69700003 -0.013442807 5.4222599e-39 335 251
0.019581227 0.69800001 -0.013462093 5.5133752e-39 336 251
0.020864666 0.69999999 -0.013500666 5.5133752e-39 337 251
0.022123558 0.70099998 -0.013519952 5.422976e-39 338 251
0.023452586 0.704 -0.013577812 5.6999216e-39 339 251
0.024686933 0.704 -0.013577812 5.7939067e-39 340 251
0.02592128 0.704 -0.013577812 4.3191382e-39 341 251
0.027271347 0.70700002 -0.013635674 7.453784e-39 342 251
-0.041788943 0.70099998 -0.014749039 6.8981089e-39 286 252
-0.040502001 0.69999999 -0.014727999 5.0541963e-39 287 252
-0.039274666 0.69999999 -0.014727999 5.3322279e-39 288 252
-0.037938625 0.69800001 -0.01468592 5.2400323e-39 289 252
-0.036662199 0.69700003 -0.01466488 5.6062981e-39 290 252
-0.035440128 0.69700003 -0.01466488 5.5141025e-39 291 252
-0.034168959 0.69599998 -0.014643839 5.6974147e-39 292 252
-0.032853961 0.69400001 -0.01460176 5.6974147e-39 293 252
-0.031637147 0.69400001 -0.01460176 5.5137493e-39 294 252
-0.0303765 0.69300002 -0.014580719 5.9747261e-39 295 252
-0.029161438 0.69300002 -0.014580719 5.7932285e-39 296 252
-0.027865725 0.69099998 -0.014538639 6.5307935e-39 297 252
-0.026654173 0.69099998 -0.014538639 7.2701761e-39 298 252
-0.025405798 0.69 -0.014517599 9.2062843e-39 299 252
-0.024195999 0.69 -0.014517599 1.0034953e-38 300 252
-0.022919573 0.68800002 -0.014475521 7.7297025e-39 301 252
-0.021713281 0.68800002 -0.014475521 6.4364301e-39 302 252
-0.020506985 0.68800002 -0.014475521 6.1598432e-39 303 252
-0.019300694 0.68800002 -0.014475521 6.9852851e-39 304 252
-0.0180944 0.68800002 -0.014475521 6.7086982e-39 305 252
-0.016888106 0.68800002 -0.014475521 6.7083254e-39 306 252
-0.015659019 0.68699998 -0.014454478 6.6161298e-39 307 252
-0.014454478 0.68699998 -0.014454478 6.5242873e-39 308 252
-0.013249939 0.68699998 -0.014454478 6.2477018e-39 309 252
-0.012045399 0.68699998 -0.014454478 6.155509e-39 310 252
-0.010840859 0.68699998 -0.014454478 6.2477046e-39 311 252
-0.0096363192 0.68699998 -0.014454478 6.2487766e-39 312 252
-0.0084317802 0.68699998 -0.014454478 6.3409722e-39 313 252
-0.0072272392 0.68699998 -0.014454478 6.7990763e-39 314 252
-0.0060226996 0.68699998 -0.014454478 8.0898151e-39 315 252
-0.0048111463 0.68599999 -0.01443344 9.1950893e-39 316 252
-0.00360836 0.68599999 -0.01443344 9.6560675e-39 317 252
-0.0024055731 0.68599999 -0.01443344 1.0757705e-38 318 252
-0.0012027866 0.68599999 -0.01443344 1.085026e-38 319 252
0 0.68699998 -0.014454478 1.0853466e-38 320 252
0.0012045399 0.68699998 -0.014454478 1.0668714e-38 321 252
0.0024090798 0.68699998 -0.014454478 1.076128e-38 322 252
0.0036136196 0.68699998 -0.014454478 1.0485052e-38 323 252
0.0048181596 0.68699998 -0.014454478 1.0208853e-38 324 252
0.0060314666 0.68800002 -0.014475521 9.8397118e-39 325 252
0.0072377604 0.68800002 -0.014475521 8.6419029e-39 326 252
0.0084440531 0.68800002 -0.014475521 7.6273923e-39 327 252
0.0096783992 0.69 -0.014517599 7.2593314e-39 328 252
0.010888199 0.69 -0.014517599 7.2593314e-39 329 252
0.012115533 0.69099998 -0.014538639 6.7093974e-39 330 252
0.013327086 0.69099998 -0.014538639 6.5253663e-39 331 252
0.014580719 0.69300002 -0.014580719 6.4335336e-39 332 252
0.015818574 0.69400001 -0.01460176 6.1573069e-39 333 252
0.017109027 0.69700003 -0.01466488 5.6977678e-39 334 252
0.018331099 0.69700003 -0.01466488 5.3293441e-39 335 252
0.019581227 0.69800001 -0.01468592 5.1453157e-39 336 252
0.020864666 0.69999999 -0.014727999 5.329707e-39 337 252
0.022123558 0.70099998 -0.014749039 5.147115e-39 338 252
0.023452586 0.704 -0.014812159 5.7002874e-39 339 252
0.024686933 0.704 -0.014812159 5.6095183e-39 340 252
0.02592128 0.704 -0.014812159 4.5953663e-39 341 252
0.027271347 0.70700002 -0.01487528 8.0966367e-39 342 252
0.028510952 0.70700002 -0.01487528 1.5195699e-38 343 252
-0.041788943 0.70099998 -0.015978126 8.2813993e-39 286 253
-0.040502001 0.69999999 -0.015955333 5.0545522e-39 287 253
-0.039274666 0.69999999 -0.015955333 5.1478339e-39 288 253
-0.037938625 0.69800001 -0.015909746 5.4247795e-39 289 253
-0.036662199 0.69700003 -0.015886955 5.6974147e-39 290 253
-0.035440128 0.69700003 -0.015886955 5.6974147e-39 291 253
-0.034168959 0.69599998 -0.015864158 5.6062981e-39 292 253
-0.032853961 0.69400001 -0.015818574 5.6062981e-39 293 253
-0.031637147 0.69400001 -0.015818574 5.6063009e-39 294 253
-0.0303765 0.69300002 -0.015795778 5.790332e-39 295 253
-0.029161438 0.69300002 -0.015795778 6.067642e-39 296 253
-0.027865725 0.69099998 -0.015750192 6.6208157e-39 297 253
-0.026654173 0.69099998 -0.015750192 6.7133869e-39 298 253
-0.025405798 0.69 -0.015727401 7.2665607e-39 299 253
-0.024195999 0.69 -0.015727401 7.0796513e-39 300 253
-0.022919573 0.68800002 -0.015681813 5.9733038e-39 301 253
-0.021713281 0.68800002 -0.015681813 6.8923678e-39 302 253
-0.020506985 0.68800002 -0.015681813 6.8923678e-39 303 253
-0.019300694 0.68800002 -0.015681813 6.6179319e-39 304 253
-0.0180944 0.68800002 -0.015681813 6.5257362e-39 305 253
-0.016888106 0.68800002 -0.015681813 6.8008742e-39 306 253
-0.015659019 0.68699998 -0.015659019 6.7086786e-39 307 253
-0.014454478 0.68699998 -0.015659019 6.340975e-39 308 253
-0.013249939 0.68699998 -0.015659019 6.2484207e-39 309 253
-0.012045399 0.68699998 -0.015659019 6.2477046e-39 310 253
-0.010840859 0.68699998 -0.015659019 5.9711163e-39 311 253
-0.0096363192 0.68699998 -0.015659019 5.4183041e-39 312 253
-0.0084317802 0.68699998 -0.015659019 8.552238e-39 313 253
-0.0072272392 0.68699998 -0.015659019 8.9292994e-39 314 253
-0.0060226996 0.68699998 -0.015659019 1.0036007e-38 315 253
-0.0048111463 0.68599999 -0.015636226 1.1324947e-38 316 253
-0.00360836 0.68599999 -0.015636226 1.1232751e-38 317 253
-0.0024055731 0.68599999 -0.015636226 1.1228783e-38 318 253
-0.0012027866 0.68599999 -0.015636226 1.1320978e-38 319 253
0 0.68699998 -0.015659019 1.1230215e-38 320 253
0.0012045399 0.68699998 -0.015659019 1.1414246e-38 321 253
0.0024090798 0.68699998 -0.015659019 1.0955789e-38 322 253
0.0036136196 0.68699998 -0.015659019 1.1047986e-38 323 253
0.0048181596 0.68699998 -0.015659019 1.0862874e-38 324 253
0.0060314666 0.68800002 -0.015681813 1.0586287e-38 325 253
0.0072377604 0.68800002 -0.015681813 1.0309703e-38 326 253
0.0084440531 0.68800002 -0.015681813 1.0217507e-38 327 253
0.0096783992 0.69 -0.015727401 9.7504127e-39 328 253
0.010888199 0.69 -0.015727401 7.8143045e-39 329 253
0.012115533 0.69099998 -0.015750192 6.5282376e-39 330 253
0.013327086 0.69099998 -0.015750192 6.3434876e-39 331 253
0.014580719 0.69300002 -0.015795778 6.3409722e-39 332 253
0.015818574 0.69400001 -0.015818574 6.156581e-39 333 253
0.017084479 0.69599998 -0.015864158 5.5133724e-39 334 253
0.018331099 0.69700003 -0.015886955 5.14495e-39 335 253
0.019581227 0.69800001 -0.015909746 5.0531173e-39 336 253
0.020864666 0.69999999 -0.015955333 5.1453129e-39 337 253
0.022123558 0.70099998 -0.015978126 5.1467507e-39 338 253
0.023452586 0.704 -0.016046507 5.6073701e-39 339 253
0.024686933 0.704 -0.016046507 6.0697775e-39 340 253
0.02592128 0.704 -0.016046507 5.0556242e-39 341 253
0.027232772 0.70599997 -0.016092092 8.6498062e-39 342 253
0.028470624 0.70599997 -0.016092092 1.5564478e-38 343 253
0.029708479 0.70599997 -0.016092092 1.6126287e-38 344 253
-0.054567236 0.81900001 -0.020103719 1.6679834e-38 282 254
-0.052612271 0.81099999 -0.019907346 1.6956062e-38 283 254
-0.041788943 0.70099998 -0.017207211 9.0200363e-39 286 254
-0.040502001 0.69999999 -0.017182667 4.5946475e-39 287 254
-0.039274666 0.69999999 -0.017182667 5.2378645e-39 288 254
-0.037938625 0.69800001 -0.017133573 5.7910383e-39 289 254
-0.0367148 0.69800001 -0.017133573 5.5141025e-39 290 254
-0.035440128 0.69700003 -0.017109027 5.5141025e-39 291 254
-0.034218054 0.69700003 -0.017109027 5.5141025e-39 292 254
-0.032948639 0.69599998 -0.017084479 5.5141025e-39 293 254
-0.031637147 0.69400001 -0.017035386 5.5148241e-39 294 254
-0.0303765 0.69300002 -0.01701084 5.6070197e-39 295 254
-0.029161438 0.69300002 -0.01701084 5.6988651e-39 296 254
-0.027865725 0.69099998 -0.016961746 6.1598432e-39 297 254
-0.026654173 0.69099998 -0.016961746 6.3442373e-39 298 254
-0.025405798 0.69 -0.0169372 6.2516829e-39 299 254
-0.024195999 0.69 -0.0169372 6.3420863e-39 300 254
-0.022919573 0.68800002 -0.016888106 5.9733038e-39 301 254
-0.021713281 0.68800002 -0.016888106 5.9743757e-39 302 254
-0.020506985 0.68800002 -0.016888106 6.0665728e-39 303 254
-0.019300694 0.68800002 -0.016888106 6.3431372e-39 304 254
-0.0180944 0.68800002 -0.016888106 6.3431372e-39 305 254
-0.016888106 0.68800002 -0.016888106 6.5260824e-39 306 254
-0.015681813 0.68800002 -0.016888106 6.5260824e-39 307 254
-0.014475521 0.68800002 -0.016888106 6.3416911e-39 308 254
-0.013249939 0.68699998 -0.01686356 6.15766e-39 309 254
-0.012045399 0.68699998 -0.01686356 6.0658273e-39 310 254
-0.010840859 0.68699998 -0.01686356 4.8672841e-39 311 254
-0.0096363192 0.68699998 -0.01686356 5.6030415e-39 312 254
-0.0084317802 0.68699998 -0.01686356 1.2425155e-38 313 254
-0.0072272392 0.68699998 -0.01686356 1.0043543e-38 314 254
-0.0060226996 0.68699998 -0.01686356 1.0504521e-38 315 254
-0.0048111463 0.68599999 -0.016839013 1.1147036e-38 316 254
-0.00360836 0.68599999 -0.016839013 1.1239232e-38 317 254
-0.0024055731 0.68599999 -0.016839013 1.1146668e-38 318 254
-0.0012045399 0.68699998 -0.01686356 1.1146668e-38 319 254
0 0.68699998 -0.01686356 1.0871512e-38 320 254
0.0012045399 0.68699998 -0.01686356 1.0871512e-38 321 254
0.0024090798 0.68699998 -0.01686356 1.0687483e-38 322 254
0.0036136196 0.68699998 -0.01686356 1.0687483e-38 323 254
0.0048181596 0.68699998 -0.01686356 1.0503449e-38 324 254
0.0060314666 0.68800002 -0.016888106 1.0687481e-38 325 254
0.0072377604 0.68800002 -0.016888106 1.0779313e-38 326 254
0.0084440531 0.68800002 -0.016888106 1.1516878e-38 327 254
0.0096783992 0.69 -0.0169372 1.1510395e-38 328 254
0.01090398 0.69099998 -0.016961746 8.0066018e-39 329 254
0.012115533 0.69099998 -0.016961746 6.7111841e-39 330 254
0.013327086 0.69099998 -0.016961746 6.3420414e-39 331 254
0.014580719 0.69300002 -0.01701084 6.0651084e-39 332 254
0.015818574 0.69400001 -0.017035386 5.8807172e-39 333 254
0.017084479 0.69599998 -0.017084479 5.1453129e-39 334 254
0.018331099 0.69700003 -0.017109027 5.1453129e-39 335 254
0.019581227 0.69800001 -0.017133573 4.6864928e-39 336 254
0.020864666 0.69999999 -0.017182667 4.9627195e-39 337 254
0.022123558 0.70099998 -0.017207211 4.872326e-39 338 254
0.023452586 0.704 -0.017280852 5.4254983e-39 339 254
0.024686933 0.704 -0.017280852 5.6123923e-39 340 254
0.02592128 0.704 -0.017280852 5.4280011e-39 341 254
0.027232772 0.70599997 -0.017329946 9.3877244e-39 342 254
0.028470624 0.70599997 -0.017329946 1.5657027e-38 343 254
0.029708479 0.70599997 -0.017329946 1.6033733e-38 344 254
-0.054567236 0.81900001 -0.021539699 1.6863143e-38 282 255
-0.052612271 0.81099999 -0.021329299 1.714009e-38 283 255
-0.051190317 0.81099999 -0.021329299 1.6866017e-38 284 255
-0.049768366 0.81099999 -0.021329299 1.2901605e-38 285 255
-0.041788943 0.70099998 -0.018436298 9.8505144e-39 286 255
-0.040502001 0.69999999 -0.018409999 4.9645048e-39 287 255
-0.039274666 0.69999999 -0.018409999 5.5148087e-39 288 255
-0.037938625 0.69800001 -0.0183574 5.9754267e-39 289 255
-0.0367148 0.69800001 -0.0183574 5.5144584e-39 290 255
-0.035440128 0.69700003 -0.018331099 5.5144584e-39 291 255
-0.034218054 0.69700003 -0.018331099 5.4226229e-39 292 255
-0.032948639 0.69599998 -0.018304799 5.4226229e-39 293 255
-0.031637147 0.69400001 -0.0182522 5.4219068e-39 294 255
-0.030420333 0.69400001 -0.0182522 5.5141025e-39 295 255
-0.029161438 0.69300002 -0.018225901 5.6062981e-39 296 255
-0.027946379 0.69300002 -0.018225901 5.7906879e-39 297 255
-0.026654173 0.69099998 -0.0181733 5.8818116e-39 298 255
-0.025405798 0.69 -0.018146999 5.7896159e-39 299 255
-0.024195999 0.69 -0.018146999 5.9722093e-39 300 255
-0.022919573 0.68800002 -0.0180944 5.9722093e-39 301 255
-0.021713281 0.68800002 -0.0180944 5.8821647e-39 302 255
-0.020506985 0.68800002 -0.0180944 6.1583915e-39 303 255
-0.019300694 0.68800002 -0.0180944 6.2509416e-39 304 255
-0.0180944 0.68800002 -0.0180944 6.3431372e-39 305 255
-0.016888106 0.68800002 -0.0180944 6.2509374e-39 306 255
-0.015681813 0.68800002 -0.0180944 6.1587418e-39 307 255
-0.014475521 0.68800002 -0.0180944 6.1587446e-39 308 255
-0.013249939 0.68699998 -0.018068098 5.9747135e-39 309 255
-0.012045399 0.68699998 -0.018068098 5.9747135e-39 310 255
-0.010840859 0.68699998 -0.018068098 5.3293441e-39 311 255
-0.0096363192 0.68699998 -0.018068098 7.6363984e-39 312 255
-0.0084317802 0.68699998 -0.018068098 1.4827658e-38 313 255
-0.0072272392 0.68699998 -0.018068098 1.1708123e-38 314 255
-0.0060226996 0.68699998 -0.018068098 1.0325189e-38 315 255
-0.0048181596 0.68699998 -0.018068098 1.0506339e-38 316 255
-0.0036136196 0.68699998 -0.018068098 1.0413785e-38 317 255
-0.0024090798 0.68699998 -0.018068098 1.0138633e-38 318 255
-0.0012045399 0.68699998 -0.018068098 9.9538812e-39 319 255
0 0.68699998 -0.018068098 1.013791e-38 320 255
0.0012045399 0.68699998 -0.018068098 1.0506333e-38 321 255
0.0024090798 0.68699998 -0.018068098 1.0416654e-38 322 255
0.0036136196 0.68699998 -0.018068098 1.0601406e-38 323 255
0.0048251734 0.68800002 -0.0180944 1.06014e-38 324 255
0.0060314666 0.68800002 -0.0180944 1.078615e-38 325 255
0.0072377604 0.68800002 -0.0180944 1.1154207e-38 326 255
0.0084440531 0.68800002 -0.0180944 1.1246402e-38 327 255
0.0096503468 0.68800002 -0.0180944 1.1698746e-38 328 255
0.01090398 0.69099998 -0.0181733 8.8410414e-39 329 255
0.012115533 0.69099998 -0.0181733 6.5278816e-39 330 255
0.01336566 0.69300002 -0.018225901 5.2371428e-39 331 255
0.01460176 0.69400001 -0.0182522 5.7885201e-39 332 255
0.015818574 0.69400001 -0.0182522 5.5119346e-39 333 255
0.017084479 0.69599998 -0.018304799 5.1445941e-39 334 255
0.018331099 0.69700003 -0.018331099 5.0523984e-39 335 255
0.019637333 0.69999999 -0.018409999 4.595016e-39 336 255
0.020864666 0.69999999 -0.018409999 4.7794073e-39 337 255
0.02218668 0.70300001 -0.018488899 4.9645188e-39 338 255
0.023519212 0.70599997 -0.018567799 5.2414644e-39 339 255
0.024757065 0.70599997 -0.018567799 6.1648444e-39 340 255
0.025994917 0.70599997 -0.018567799 5.9804518e-39 341 255
0.027232772 0.70599997 -0.018567799 9.9416171e-39 342 255
0.028470624 0.70599997 -0.018567799 1.5842137e-38 343 255
0.029708479 0.70599997 -0.018567799 1.5757502e-38 344 255
-0.052612271 0.81099999 -0.022751253 1.6956418e-38 283 256
-0.051064078 0.80900002 -0.022695147 1.6958569e-38 284 256
-0.049645633 0.80900002 -0.022695147 1.3362941e-38 285 256
-0.041908171 0.70300001 -0.019721493 1.068135e-38 286 256
-0.040559858 0.70099998 -0.019665385 6.163764e-39 287 256
-0.039274666 0.69999999 -0.019637333 6.435686e-39 288 256
-0.038047329 0.69999999 -0.019637333 6.3434904e-39 289 256
-0.0367148 0.69800001 -0.019581227 5.8821619e-39 290 256
-0.035440128 0.69700003 -0.019553173 5.605575e-39 291 256
-0.034218054 0.69700003 -0.019553173 5.3304273e-39 292 256
-0.032948639 0.69599998 -0.019525118 5.1463947e-39 293 256
-0.031728316 0.69599998 -0.019525118 5.1463975e-39 294 256
-0.030420333 0.69400001 -0.019469013 5.3304301e-39 295 256
-0.029161438 0.69300002 -0.01944096 5.4219096e-39 296 256
-0.027946379 0.69300002 -0.01944096 5.4219096e-39 297 256
-0.026654173 0.69099998 -0.019384852 5.6052247e-39 298 256
-0.025405798 0.69 -0.019356798 5.3286378e-39 299 256
-0.024195999 0.69 -0.019356798 5.7878139e-39 300 256
-0.022919573 0.68800002 -0.019300694 5.7878139e-39 301 256
-0.021713281 0.68800002 -0.019300694 5.6974147e-39 302 256
-0.020506985 0.68800002 -0.019300694 5.8821647e-39 303 256
-0.019300694 0.68800002 -0.019300694 5.9743603e-39 304 256
-0.0180944 0.68800002 -0.019300694 5.9743603e-39 305 256
-0.016888106 0.68800002 -0.019300694 5.9743575e-39 306 256
-0.015681813 0.68800002 -0.019300694 5.8821619e-39 307 256
-0.014475521 0.68800002 -0.019300694 5.7906879e-39 308 256
-0.013269227 0.68800002 -0.019300694 5.7906879e-39 309 256
-0.012045399 0.68699998 -0.019272638 5.6073729e-39 310 256
-0.010840859 0.68699998 -0.019272638 6.6211661e-39 311 256
-0.0096363192 0.68699998 -0.019272638 8.1946127e-39 312 256
-0.0084317802 0.68699998 -0.019272638 1.3818545e-38 313 256
-0.0072272392 0.68699998 -0.019272638 1.1248223e-38 314 256
-0.0060226996 0.68699998 -0.019272638 9.2199189e-39 315 256
-0.0048181596 0.68699998 -0.019272638 9.493273e-39 316 256
-0.0036136196 0.68699998 -0.019272638 9.3092419e-39 317 256
-0.0024090798 0.68699998 -0.019272638 8.9418999e-39 318 256
-0.0012045399 0.68699998 -0.019272638 8.9418999e-39 319 256
0 0.68699998 -0.019272638 9.5869036e-39 320 256
0.0012045399 0.68699998 -0.019272638 1.0047882e-38 321 256
0.0024090798 0.68699998 -0.019272638 1.0418456e-38 322 256
0.0036136196 0.68699998 -0.019272638 1.0510652e-38 323 256
0.0048251734 0.68800002 -0.019300694 1.0693599e-38 324 256
0.0060314666 0.68800002 -0.019300694 1.0785794e-38 325 256
0.0072377604 0.68800002 -0.019300694 1.0785071e-38 326 256
0.0084440531 0.68800002 -0.019300694 9.2177455e-39 327 256
0.0096503468 0.68800002 -0.019300694 9.7684025e-39 328 256
0.01090398 0.69099998 -0.019384852 8.5698594e-39 329 256
0.012115533 0.69099998 -0.019384852 6.7133645e-39 330 256
0.01336566 0.69300002 -0.01944096 4.5010281e-39 331 256
0.01460176 0.69400001 -0.019469013 5.2367925e-39 332 256
0.015818574 0.69400001 -0.019469013 5.1445969e-39 333 256
0.017084479 0.69599998 -0.019525118 4.7776094e-39 334 256
0.018331099 0.69700003 -0.019553173 4.7776094e-39 335 256
0.019637333 0.69999999 -0.019637333 4.4113478e-39 336 256
0.020864666 0.69999999 -0.019637333 4.5957391e-39 337 256
0.02218668 0.70300001 -0.019721493 4.9645216e-39 338 256
0.023452586 0.704 -0.019749546 5.5176954e-39 339 256
0.024686933 0.704 -0.019749546 6.1648444e-39 340 256
0.02592128 0.704 -0.019749546 6.7180182e-39 341 256
0.027155625 0.704 -0.019749546 1.0218924e-38 342 256
0.028470624 0.70599997 -0.019805651 1.5751022e-38 343 256
0.029708479 0.70599997 -0.019805651 1.5848618e-38 344 256
0.030946331 0.70599997 -0.019805651 1.5848618e-38 345 256
-0.054034222 0.81099999 -0.024173206 1.6588354e-38 282 257
-0.052482527 0.80900002 -0.024113594 1.6772747e-38 283 257
-0.051064078 0.80900002 -0.024113594 1.7050764e-38 284 257
-0.049645633 0.80900002 -0.024113594 1.3916113e-38 285 257
-0.041908171 0.70300001 -0.020954086 1.1327803e-38 286 257
-0.040675577 0.70300001 -0.020954086 6.718021e-39 287 257
-0.039330769 0.70099998 -0.020894472 7.0821274e-39 288 257
-0.038047329 0.69999999 -0.020864666 6.6211493e-39 289 257
-0.0367148 0.69800001 -0.020805053 6.158376e-39 290 257
-0.035490975 0.69800001 -0.020805053 5.6973979e-39 291 257
-0.034218054 0.69700003 -0.020775247 5.5133752e-39 292 257
-0.03299598 0.69700003 -0.020775247 5.3293441e-39 293 257
-0.031728316 0.69599998 -0.020745439 5.0542019e-39 294 257
-0.030420333 0.69400001 -0.020685827 5.1463975e-39 295 257
-0.029203519 0.69400001 -0.020685827 5.2371582e-39 296 257
-0.027946379 0.69300002 -0.020656019 5.2371582e-39 297 257
-0.026654173 0.69099998 -0.020596405 5.3289909e-39 298 257
-0.025442619 0.69099998 -0.020596405 5.2367953e-39 299 257
-0.024195999 0.69 -0.020566599 5.4201048e-39 300 257
-0.022986198 0.69 -0.020566599 5.4201048e-39 301 257
-0.021776399 0.69 -0.020566599 5.7881698e-39 302 257
-0.020566599 0.69 -0.020566599 5.8803668e-39 303 257
-0.019300694 0.68800002 -0.020506985 5.6966986e-39 304 257
-0.0180944 0.68800002 -0.020506985 5.6966986e-39 305 257
-0.016888106 0.68800002 -0.020506985 5.7896159e-39 306 257
-0.015681813 0.68800002 -0.020506985 5.7896159e-39 307 257
-0.014475521 0.68800002 -0.020506985 5.6063037e-39 308 257
-0.013269227 0.68800002 -0.020506985 5.7903348e-39 309 257
-0.012062933 0.68800002 -0.020506985 5.3318776e-39 310 257
-0.010856641 0.68800002 -0.020506985 6.9914003e-39 311 257
-0.0096503468 0.68800002 -0.020506985 8.1978539e-39 312 257
-0.0084440531 0.68800002 -0.020506985 1.2807637e-38 313 257
-0.0072272392 0.68699998 -0.020477179 1.0971277e-38 314 257
-0.0060226996 0.68699998 -0.020477179 9.0351689e-39 315 257
-0.0048181596 0.68699998 -0.020477179 9.0322977e-39 316 257
-0.0036136196 0.68699998 -0.020477179 8.8479064e-39 317 257
-0.0024090798 0.68699998 -0.020477179 8.7567926e-39 318 257
-0.0012045399 0.68699998 -0.020477179 8.9411838e-39 319 257
0 0.68699998 -0.020477179 9.4932758e-39 320 257
0.0012062934 0.68800002 -0.020506985 9.7698627e-39 321 257
0.0024125867 0.68800002 -0.020506985 9.7720151e-39 322 257
0.0036188802 0.68800002 -0.020506985 9.7720151e-39 323 257
0.0048251734 0.68800002 -0.020506985 9.5876224e-39 324 257
0.0060314666 0.68800002 -0.020506985 9.5876224e-39 325 257
0.0072377604 0.68800002 -0.020506985 1.0137203e-38 326 257
0.0084440531 0.68800002 -0.020506985 8.2010951e-39 327 257
0.0096783992 0.69 -0.020566599 8.9397363e-39 328 257
0.01090398 0.69099998 -0.020596405 9.0319319e-39 329 257
0.012115533 0.69099998 -0.020596405 6.5329361e-39 330 257
0.01336566 0.69300002 -0.020656019 3.5830347e-39 331 257
0.01460176 0.69400001 -0.020685827 5.1445969e-39 332 257
0.015818574 0.69400001 -0.020685827 5.1445969e-39 333 257
0.017084479 0.69599998 -0.020745439 4.6864928e-39 334 257
0.018331099 0.69700003 -0.020775247 4.6864928e-39 335 257
0.019637333 0.69999999 -0.020864666 4.3198711e-39 336 257
0.020894472 0.70099998 -0.020894472 4.5042623e-39 337 257
0.022123558 0.70099998 -0.020894472 4.9655936e-39 338 257
0.023452586 0.704 -0.020983893 5.7953543e-39 339 257
0.024686933 0.704 -0.020983893 7.2668718e-39 340 257
0.02592128 0.704 -0.020983893 7.5438188e-39 341 257
0.027155625 0.704 -0.020983893 1.0495515e-38 342 257
0.028470624 0.70599997 -0.021043506 1.5843221e-38 343 257
0.029708479 0.70599997 -0.021043506 1.575607e-38 344 257
0.030946331 0.70599997 -0.021043506 1.5479843e-38 345 257
-0.052482527 0.80900002 -0.025532039 1.668055e-38 283 258
-0.051064078 0.80900002 -0.025532039 1.6866017e-38 284 258
-0.049645633 0.80900002 -0.025532039 1.4468931e-38 285 258
-0.041967787 0.704 -0.022218239 1.2066805e-38 286 258
-0.040675577 0.70300001 -0.02218668 6.4428733e-39 287 258
-0.039330769 0.70099998 -0.022123558 7.2683207e-39 288 258
-0.038047329 0.69999999 -0.022091998 6.8991781e-39 289 258
-0.0367148 0.69800001 -0.02202888 6.2523765e-39 290 258
-0.035490975 0.69800001 -0.02202888 5.6070071e-39 291 258
-0.034267146 0.69800001 -0.02202888 5.6055722e-39 292 258
-0.03299598 0.69700003 -0.02199732 5.3293441e-39 293 258
-0.031728316 0.69599998 -0.021965759 5.0541991e-39 294 258
-0.030507999 0.69599998 -0.021965759 5.0541991e-39 295 258
-0.029203519 0.69400001 -0.021902639 5.2371582e-39 296 258
-0.027946379 0.69300002 -0.021871079 5.052767e-39 297 258
-0.026654173 0.69099998 -0.021807959 5.3279119e-39 298 258
-0.025442619 0.69099998 -0.021807959 5.3279119e-39 299 258
-0.024195999 0.69 -0.021776399 5.4193859e-39 300 258
-0.022986198 0.69 -0.021776399 5.3271903e-39 301 258
-0.021776399 0.69 -0.021776399 5.6030569e-39 302 258
-0.020566599 0.69 -0.021776399 5.6952525e-39 303 258
-0.019356798 0.69 -0.021776399 5.6956154e-39 304 258
-0.0180944 0.68800002 -0.021713281 5.8803668e-39 305 258
-0.016888106 0.68800002 -0.021713281 5.5141025e-39 306 258
-0.015681813 0.68800002 -0.021713281 5.7906879e-39 307 258
-0.014475521 0.68800002 -0.021713281 5.6070169e-39 308 258
-0.013269227 0.68800002 -0.021713281 5.6070169e-39 309 258
-0.012062933 0.68800002 -0.021713281 5.6988651e-39 310 258
-0.010856641 0.68800002 -0.021713281 7.0817995e-39 311 258
-0.0096503468 0.68800002 -0.021713281 7.8301573e-39 312 258
-0.0084440531 0.68800002 -0.021713281 1.2255908e-38 313 258
-0.0072377604 0.68800002 -0.021713281 1.1524448e-38 314 258
-0.0060226996 0.68699998 -0.021681719 1.0879079e-38 315 258
-0.0048181596 0.68699998 -0.021681719 1.0968756e-38 316 258
-0.0036136196 0.68699998 -0.021681719 1.0600334e-38 317 258
-0.0024090798 0.68699998 -0.021681719 9.8656485e-39 318 258
-0.0012045399 0.68699998 -0.021681719 9.4972261e-39 319 258
0 0.68699998 -0.021681719 9.219563e-39 320 258
0.0012062934 0.68800002 -0.021713281 8.9429761e-39 321 258
0.0024125867 0.68800002 -0.021713281 8.8493413e-39 322 258
0.0036188802 0.68800002 -0.021713281 7.9270263e-39 323 258
0.0048251734 0.68800002 -0.021713281 7.2866946e-39 324 258
0.0060314666 0.68800002 -0.021713281 8.3008479e-39 325 258
0.0072377604 0.68800002 -0.021713281 9.3099636e-39 326 258
0.0084440531 0.68800002 -0.021713281 8.6645941e-39 327 258
0.0096783992 0.69 -0.021776399 8.9397363e-39 328 258
0.01090398 0.69099998 -0.021807959 8.8475407e-39 329 258
0.012150601 0.69300002 -0.021871079 6.0723167e-39 330 258
0.01336566 0.69300002 -0.021871079 3.3060891e-39 331 258
0.01460176 0.69400001 -0.021902639 4.9598497e-39 332 258
0.015818574 0.69400001 -0.021902639 5.0520453e-39 333 258
0.017084479 0.69599998 -0.021965759 4.6872116e-39 334 258
0.018331099 0.69700003 -0.02199732 4.595016e-39 335 258
0.019637333 0.69999999 -0.022091998 4.4113478e-39 336 258
0.020894472 0.70099998 -0.022123558 4.5957391e-39 337 258
0.022123558 0.70099998 -0.022123558 5.2414616e-39 338 258
0.023452586 0.704 -0.022218239 6.5322004e-39 339 258
0.024686933 0.704 -0.022218239 7.7289289e-39 340 258
0.02592128 0.704 -0.022218239 7.6367333e-39 341 258
0.027155625 0.704 -0.022218239 1.0864296e-38 342 258
0.028470624 0.70599997 -0.022281358 1.6119447e-38 343 258
0.029708479 0.70599997 -0.022281358 1.5388363e-38 344 258
0.030946331 0.70599997 -0.022281358 1.5388363e-38 345 258
-0.042087011 0.70599997 -0.023519212 1.2898721e-38 286 259
-0.040733438 0.704 -0.023452586 6.2602771e-39 287 259
-0.039330769 0.70099998 -0.023352645 7.2679438e-39 288 259
-0.038101684 0.70099998 -0.023352645 7.3601408e-39 289 259
-0.0367148 0.69800001 -0.023252707 6.9891961e-39 290 259
-0.035490975 0.69800001 -0.023252707 6.5278592e-39 291 259
-0.034267146 0.69800001 -0.023252707 5.7910228e-39 292 259
-0.03299598 0.69700003 -0.023219392 5.6062715e-39 293 259
-0.031728316 0.69599998 -0.023186078 5.5133724e-39 294 259
-0.030507999 0.69599998 -0.023186078 5.3293412e-39 295 259
-0.029203519 0.69400001 -0.023119451 5.2367953e-39 296 259
-0.027946379 0.69300002 -0.02308614 5.1445997e-39 297 259
-0.02673132 0.69300002 -0.02308614 5.3279119e-39 298 259
-0.025442619 0.69099998 -0.023019511 5.2357163e-39 299 259
-0.024231065 0.69099998 -0.023019511 5.2357163e-39 300 259
-0.022986198 0.69 -0.022986198 5.0516852e-39 301 259
-0.021776399 0.69 -0.022986198 5.4193859e-39 302 259
-0.020566599 0.69 -0.022986198 5.6959714e-39 303 259
-0.019356798 0.69 -0.022986198 5.3289909e-39 304 259
-0.018146999 0.69 -0.022986198 5.6052191e-39 305 259
-0.0169372 0.69 -0.022986198 5.2393134e-39 306 259
-0.015681813 0.68800002 -0.022919573 5.3315091e-39 307 259
-0.014475521 0.68800002 -0.022919573 5.4233516e-39 308 259
-0.013269227 0.68800002 -0.022919573 5.4233516e-39 309 259
-0.012062933 0.68800002 -0.022919573 5.23861e-39 310 259
-0.010856641 0.68800002 -0.022919573 6.3449561e-39 311 259
-0.0096503468 0.68800002 -0.022919573 7.736524e-39 312 259
-0.0084440531 0.68800002 -0.022919573 1.2807284e-38 313 259
-0.0072377604 0.68800002 -0.022919573 1.1616284e-38 314 259
-0.0060226996 0.68699998 -0.022886258 1.0878358e-38 315 259
-0.0048181596 0.68699998 -0.022886258 1.0786163e-38 316 259
-0.0036136196 0.68699998 -0.022886258 1.0693967e-38 317 259
-0.0024090798 0.68699998 -0.022886258 1.041774e-38 318 259
-0.0012045399 0.68699998 -0.022886258 9.772371e-39 319 259
0 0.68800002 -0.022919573 9.1255681e-39 320 259
0.0012062934 0.68800002 -0.022919573 8.8493413e-39 321 259
0.0024125867 0.68800002 -0.022919573 8.2039845e-39 322 259
0.0036188802 0.68800002 -0.022919573 7.5586151e-39 323 259
0.0048251734 0.68800002 -0.022919573 6.3669089e-39 324 259
0.0060314666 0.68800002 -0.022919573 7.3810608e-39 325 259
0.0072377604 0.68800002 -0.022919573 9.4032256e-39 326 259
0.0084440531 0.68800002 -0.022919573 8.8504105e-39 327 259
0.0096783992 0.69 -0.022986198 9.0308389e-39 328 259
0.01090398 0.69099998 -0.023019511 7.7401001e-39 329 259
0.012150601 0.69300002 -0.02308614 5.2439952e-39 330 259
0.01336566 0.69300002 -0.02308614 3.1234957e-39 331 259
0.01460176 0.69400001 -0.023119451 4.7768933e-39 332 259
0.015818574 0.69400001 -0.023119451 5.1453157e-39 333 259
0.017084479 0.69599998 -0.023186078 4.6872116e-39 334 259
0.018331099 0.69700003 -0.023219392 4.6872116e-39 335 259
0.019581227 0.69800001 -0.023252707 4.4120667e-39 336 259
0.020894472 0.70099998 -0.023352645 4.7812093e-39 337 259
0.02218668 0.70300001 -0.023419274 5.3350992e-39 338 259
0.023452586 0.704 -0.023452586 6.2570555e-39 339 259
0.024686933 0.704 -0.023452586 6.9042031e-39 340 259
0.02592128 0.704 -0.023452586 6.9963988e-39 341 259
0.027155625 0.704 -0.023452586 1.1048322e-38 342 259
0.028470624 0.70599997 -0.023519212 1.6303473e-38 343 259
0.029708479 0.70599997 -0.023519212 1.5480196e-38 344 259
0.030946331 0.70599997 -0.023519212 1.5388e-38 345 259
-0.043447599 0.708 -0.024827199 1.5574559e-38 285 260
-0.042146627 0.70700002 -0.024792133 1.3453693e-38 286 260
-0.040849157 0.70599997 -0.024757065 6.2624337e-39 287 260
-0.039499093 0.704 -0.024686933 6.99281e-39 288 260
-0.038101684 0.70099998 -0.024581732 7.2690368e-39 289 260
-0.036819998 0.69999999 -0.024546666 6.7165847e-39 290 260
-0.035490975 0.69800001 -0.024476532 6.0712153e-39 291 260
-0.034267146 0.69800001 -0.024476532 5.8853863e-39 292 260
-0.03299598 0.69700003 -0.024441468 5.4244081e-39 293 260
-0.03177391 0.69700003 -0.024441468 5.2396666e-39 294 260
-0.030507999 0.69599998 -0.0244064 5.0549152e-39 295 260
-0.029203519 0.69400001 -0.024336265 5.2367953e-39 296 260
-0.027986705 0.69400001 -0.024336265 5.1445997e-39 297 260
-0.02673132 0.69300002 -0.024301201 5.1445997e-39 298 260
-0.02551626 0.69300002 -0.024301201 5.1445997e-39 299 260
-0.024231065 0.69099998 -0.024231065 5.2357107e-39 300 260
-0.023019511 0.69099998 -0.024231065 5.2357107e-39 301 260
-0.021807959 0.69099998 -0.024231065 5.3271903e-39 302 260
-0.020596405 0.69099998 -0.024231065 5.4193859e-39 303 260
-0.019356798 0.69 -0.024195999 5.4201076e-39 304 260
-0.018146999 0.69 -0.024195999 5.5123032e-39 305 260
-0.0169372 0.69 -0.024195999 5.6045016e-39 306 260
-0.015727401 0.69 -0.024195999 5.6045016e-39 307 260
-0.014475521 0.68800002 -0.024125867 5.5126689e-39 308 260
-0.013269227 0.68800002 -0.024125867 5.5126689e-39 309 260
-0.012062933 0.68800002 -0.024125867 5.0524194e-39 310 260
-0.010856641 0.68800002 -0.024125867 5.9743757e-39 311 260
-0.0096503468 0.68800002 -0.024125867 7.7322206e-39 312 260
-0.0084440531 0.68800002 -0.024125867 1.3909687e-38 313 260
-0.0072377604 0.68800002 -0.024125867 1.1155674e-38 314 260
-0.0060314666 0.68800002 -0.024125867 8.1132182e-39 315 260
-0.0048251734 0.68800002 -0.024125867 7.4692852e-39 316 260
-0.0036188802 0.68800002 -0.024125867 7.9306234e-39 317 260
-0.0024125867 0.68800002 -0.024125867 9.1248492e-39 318 260
-0.0012062934 0.68800002 -0.024125867 8.3872842e-39 319 260
0 0.68800002 -0.024125867 8.1114176e-39 320 260
0.0012062934 0.68800002 -0.024125867 7.2816569e-39 321 260
0.0024125867 0.68800002 -0.024125867 6.174959e-39 322 260
0.0036188802 0.68800002 -0.024125867 6.0827634e-39 323 260
0.0048251734 0.68800002 -0.024125867 5.1651203e-39 324 260
0.0060314666 0.68800002 -0.024125867 6.4558591e-39 325 260
0.0072587994 0.69 -0.024195999 8.6667451e-39 326 260
0.0084686 0.69 -0.024195999 9.5883427e-39 327 260
0.0096783992 0.69 -0.024195999 1.0225803e-38 328 260
0.01090398 0.69099998 -0.024231065 6.8145635e-39 329 260
0.012150601 0.69300002 -0.024301201 4.7830198e-39 330 260
0.01336566 0.69300002 -0.024301201 3.584478e-39 331 260
0.01460176 0.69400001 -0.024336265 4.9620035e-39 332 260
0.015818574 0.69400001 -0.024336265 4.9620035e-39 333 260
0.017084479 0.69599998 -0.0244064 4.6868557e-39 334 260
0.018331099 0.69700003 -0.024441468 4.6868557e-39 335 260
0.019581227 0.69800001 -0.024476532 4.6868557e-39 336 260
0.020894472 0.70099998 -0.024581732 5.2400295e-39 337 260
0.02218668 0.70300001 -0.024651866 5.7946326e-39 338 260
0.023452586 0.704 -0.024686933 6.5325564e-39 339 260
0.024686933 0.704 -0.024686933 8.1902574e-39 340 260
0.02592128 0.704 -0.024686933 7.9133104e-39 341 260
0.027232772 0.70599997 -0.024757065 1.1511815e-38 342 260
0.028470624 0.70599997 -0.024757065 1.6121597e-38 343 260
0.029708479 0.70599997 -0.024757065 1.5571666e-38 344 260
-0.043447599 0.708 -0.026068559 1.612701e-38 285 261
-0.042146627 0.70700002 -0.02603174 1.4742994e-38 286 261
-0.040849157 0.70599997 -0.025994917 7.9208774e-39 287 261
-0.039499093 0.704 -0.02592128 7.3612352e-39 288 261
-0.038101684 0.70099998 -0.025810819 7.3612352e-39 289 261
-0.036819998 0.69999999 -0.025773998 7.0839281e-39 290 261
-0.035490975 0.69800001 -0.025700359 6.6229513e-39 291 261
-0.034267146 0.69800001 -0.025700359 6.3459945e-39 292 261
-0.03299598 0.69700003 -0.025663542 6.0690489e-39 293 261
-0.03177391 0.69700003 -0.025663542 5.9757798e-39 294 261
-0.030507999 0.69599998 -0.025626717 5.7913886e-39 295 261
-0.029203519 0.69400001 -0.025553079 5.6974049e-39 296 261
-0.027986705 0.69400001 -0.025553079 5.6048491e-39 297 261
-0.02673132 0.69300002 -0.02551626 5.5126563e-39 298 261
-0.02551626 0.69300002 -0.02551626 5.4204607e-39 299 261
-0.024231065 0.69099998 -0.025442619 5.3279119e-39 300 261
-0.023019511 0.69099998 -0.025442619 5.3279119e-39 301 261
-0.021807959 0.69099998 -0.025442619 5.1445997e-39 302 261
-0.020656019 0.69300002 -0.02551626 5.1445997e-39 303 261
-0.019384852 0.69099998 -0.025442619 5.2353604e-39 304 261
-0.0181733 0.69099998 -0.025442619 5.327556e-39 305 261
-0.016961746 0.69099998 -0.025442619 5.236445e-39 306 261
-0.015727401 0.69 -0.025405798 5.236445e-39 307 261
-0.014517599 0.69 -0.025405798 5.1446123e-39 308 261
-0.0133078 0.69 -0.025405798 5.0524166e-39 309 261
-0.012097999 0.69 -0.025405798 5.0509845e-39 310 261
-0.010856641 0.68800002 -0.02533216 5.0509845e-39 311 261
-0.0096503468 0.68800002 -0.02533216 5.7082383e-39 312 261
-0.0084440531 0.68800002 -0.02533216 1.1516563e-38 313 261
-0.0072377604 0.68800002 -0.02533216 1.1522311e-38 314 261
-0.0060314666 0.68800002 -0.02533216 9.5862029e-39 315 261
-0.0048251734 0.68800002 -0.02533216 8.8518595e-39 316 261
-0.0036188802 0.68800002 -0.02533216 9.1280862e-39 317 261
-0.0024125867 0.68800002 -0.02533216 9.1284393e-39 318 261
-0.0012062934 0.68800002 -0.02533216 8.7596582e-39 319 261
0 0.68800002 -0.02533216 8.6645787e-39 320 261
0.0012062934 0.68800002 -0.02533216 7.3738399e-39 321 261
0.0024125867 0.68800002 -0.02533216 6.4515389e-39 322 261
0.0036188802 0.68800002 -0.02533216 5.9909209e-39 323 261
0.0048251734 0.68800002 -0.02533216 4.6141003e-39 324 261
0.0060489997 0.69 -0.025405798 6.7346012e-39 325 261
0.0072587994 0.69 -0.025405798 9.6776545e-39 326 261
0.008480873 0.69099998 -0.025442619 1.124462e-38 327 261
0.0096924258 0.69099998 -0.025442619 9.8577423e-39 328 261
0.010935539 0.69300002 -0.02551626 4.5103958e-39 329 261
0.012150601 0.69300002 -0.02551626 4.4109947e-39 330 261
0.013384946 0.69400001 -0.025553079 4.5031903e-39 331 261
0.01460176 0.69400001 -0.025553079 4.7786856e-39 332 261
0.015818574 0.69400001 -0.025553079 4.7786856e-39 333 261
0.017109027 0.69700003 -0.025663542 4.7794073e-39 334 261
0.018331099 0.69700003 -0.025663542 4.7794073e-39 335 261
0.019581227 0.69800001 -0.025700359 4.9637999e-39 336 261
0.020894472 0.70099998 -0.025810819 5.5169723e-39 337 261
0.02218668 0.70300001 -0.025884461 5.7042376e-39 338 261
0.023452586 0.704 -0.02592128 6.7180308e-39 339 261
0.024686933 0.704 -0.02592128 7.2715381e-39 340 261
0.025994917 0.70599997 -0.025994917 8.5622769e-39 341 261
0.027232772 0.70599997 -0.025994917 1.2618159e-38 342 261
0.028470624 0.70599997 -0.025994917 1.639854e-38 343 261
0.029708479 0.70599997 -0.025994917 1.5480196e-38 344 261
-0.043386232 0.70700002 -0.027271347 1.6771303e-38 285 262
-0.042146627 0.70700002 -0.027271347 1.5666025e-38 286 262
-0.040849157 0.70599997 -0.027232772 8.9361041e-39 287 262
-0.039499093 0.704 -0.027155625 7.7292919e-39 288 262
-0.038264744 0.704 -0.027155625 7.1764782e-39 289 262
-0.036872596 0.70099998 -0.027039904 6.9002627e-39 290 262
-0.035592664 0.69999999 -0.027001332 6.6233171e-39 291 262
-0.034267146 0.69800001 -0.026924185 6.1626948e-39 292 262
-0.03299598 0.69700003 -0.026885614 5.9783036e-39 293 262
-0.03177391 0.69700003 -0.026885614 6.0687014e-39 294 262
-0.030507999 0.69599998 -0.026847038 5.7921145e-39 295 262
-0.029203519 0.69400001 -0.026769891 5.6999188e-39 296 262
-0.027986705 0.69400001 -0.026769891 5.5155276e-39 297 262
-0.02673132 0.69300002 -0.02673132 5.422976e-39 298 262
-0.02551626 0.69300002 -0.02673132 5.3307804e-39 299 262
-0.024301201 0.69300002 -0.02673132 5.513378e-39 300 262
-0.023019511 0.69099998 -0.026654173 5.3289881e-39 301 262
-0.021807959 0.69099998 -0.026654173 5.4201048e-39 302 262
-0.020656019 0.69300002 -0.02673132 5.3279091e-39 303 262
-0.019384852 0.69099998 -0.026654173 5.3279091e-39 304 262
-0.0181733 0.69099998 -0.026654173 5.3279091e-39 305 262
-0.016961746 0.69099998 -0.026654173 5.3279119e-39 306 262
-0.015727401 0.69 -0.026615599 5.3279119e-39 307 262
-0.014517599 0.69 -0.026615599 5.1445997e-39 308 262
-0.0133078 0.69 -0.026615599 5.1445997e-39 309 262
-0.012097999 0.69 -0.026615599 5.3275588e-39 310 262
-0.010856641 0.68800002 -0.026538454 4.1326029e-39 311 262
-0.0096503468 0.68800002 -0.026538454 2.9409275e-39 312 262
-0.0084440531 0.68800002 -0.026538454 8.4723066e-39 313 262
-0.0072377604 0.68800002 -0.026538454 9.9535575e-39 314 262
-0.0060314666 0.68800002 -0.026538454 1.0598927e-38 315 262
-0.0048251734 0.68800002 -0.026538454 9.8667345e-39 316 262
-0.0036188802 0.68800002 -0.026538454 9.6819831e-39 317 262
-0.0024125867 0.68800002 -0.026538454 9.5901406e-39 318 262
-0.0012062934 0.68800002 -0.026538454 9.5901406e-39 319 262
0 0.68800002 -0.026538454 1.032339e-38 320 262
0.0012062934 0.68800002 -0.026538454 1.0415585e-38 321 262
0.0024125867 0.68800002 -0.026538454 1.0508137e-38 322 262
0.0036188802 0.68800002 -0.026538454 1.0323387e-38 323 262
0.0048391996 0.69 -0.026615599 9.9567553e-39 324 262
0.0060489997 0.69 -0.026615599 1.0141147e-38 325 262
0.0072693196 0.69099998 -0.026654173 1.0693955e-38 326 262
0.008480873 0.69099998 -0.026654173 9.7716381e-39 327 262
0.0097204801 0.69300002 -0.02673132 7.5510369e-39 328 262
0.010935539 0.69300002 -0.02673132 2.7568656e-39 329 262
0.012168133 0.69400001 -0.026769891 4.4999519e-39 330 262
0.013384946 0.69400001 -0.026769891 5.052767e-39 331 262
0.01460176 0.69400001 -0.026769891 4.9627223e-39 332 262
0.015818574 0.69400001 -0.026769891 4.9627223e-39 333 262
0.017084479 0.69599998 -0.026847038 4.8716029e-39 334 262
0.018331099 0.69700003 -0.026885614 5.1478311e-39 335 262
0.019581227 0.69800001 -0.026924185 5.2414616e-39 336 262
0.020894472 0.70099998 -0.027039904 5.7946354e-39 337 262
0.022218239 0.704 -0.027155625 6.348528e-39 338 262
0.023452586 0.704 -0.027155625 7.0860931e-39 339 262
0.024757065 0.70599997 -0.027232772 7.8196798e-39 340 262
0.02592128 0.704 -0.027155625 1.0493353e-38 341 262
0.027155625 0.704 -0.027155625 1.326461e-38 342 262
0.028470624 0.70599997 -0.027232772 1.6399261e-38 343 262
0.029708479 0.70599997 -0.027232772 1.5663864e-38 344 262
-0.043386232 0.70700002 -0.028510952 1.6679831e-38 285 263
-0.042146627 0.70700002 -0.028510952 1.631175e-38 286 263
-0.040849157 0.70599997 -0.028470624 1.0503427e-38 287 263
-0.039499093 0.704 -0.028389972 8.834552e-39 288 263
