# .PCD v.7 - Point Cloud Data file format
FIELDS x y z rgb imX imY
SIZE 4 4 4 4 4 4
TYPE F F F F F F
COUNT 1 1 1 1 1 1
WIDTH 836
HEIGHT 1
VIEWPOINT 0 0 0 1 0 0 0
POINTS 836
DATA ascii
-0.037819397 0.71899998 0.01134582 7.462451e-39 290 231
-0.036558751 0.71899998 0.01134582 5.0657234e-39 291 231
-0.035298105 0.71899998 0.01134582 8.0041005e-39 292 231
-0.033942781 0.71700001 0.01131426 7.9119035e-39 293 231
-0.032685637 0.71700001 0.01131426 8.1848848e-39 294 231
-0.031253166 0.713 0.011251139 7.6317111e-39 295 231
-0.029918881 0.71100003 0.01121958 7.5373602e-39 296 231
-0.028672259 0.71100003 0.01121958 7.1689378e-39 297 231
-0.027425639 0.71100003 0.01121958 7.1685819e-39 298 231
-0.026179021 0.71100003 0.01121958 7.0763863e-39 299 231
-0.024932399 0.71100003 0.01121958 7.1685847e-39 300 231
-0.023652466 0.70999998 0.011203799 7.352976e-39 301 231
-0.022407599 0.70999998 0.011203799 7.7214026e-39 302 231
-0.021162732 0.70999998 0.011203799 8.2745763e-39 303 231
-0.020002026 0.713 0.011251139 8.3703719e-39 304 231
-0.018751899 0.713 0.011251139 9.1997724e-39 305 231
-0.017501773 0.713 0.011251139 1.0397232e-38 306 231
-0.0024546667 0.69999999 0.011045999 9.3852259e-39 318 231
-0.0012273333 0.69999999 0.011045999 8.6473021e-39 319 231
0 0.69999999 0.011045999 8.2735058e-39 320 231
0.0012290865 0.70099998 0.011061779 8.0891145e-39 321 231
0.0024581731 0.70099998 0.011061779 9.2869332e-39 322 231
0.0036872597 0.70099998 0.011061779 9.3791288e-39 323 231
0.0049093333 0.69999999 0.011045999 9.1950893e-39 324 231
0.0061366665 0.69999999 0.011045999 9.2872863e-39 325 231
0.0073639993 0.69999999 0.011045999 9.1976102e-39 326 231
0.0085913334 0.69999999 0.011045999 9.5663942e-39 327 231
0.0098186666 0.69999999 0.011045999 1.0027358e-38 328 231
0.011109119 0.704 0.011109119 1.0303586e-38 329 231
0.012343466 0.704 0.011109119 1.1129747e-38 330 231
0.013577812 0.704 0.011109119 1.1314497e-38 331 231
0.014854239 0.70599997 0.011140679 1.1314144e-38 332 231
0.016092092 0.70599997 0.011140679 1.1498537e-38 333 231
0.017354494 0.70700002 0.011156459 1.1223392e-38 334 231
0.018672999 0.70999998 0.011203799 1.1223392e-38 335 231
0.01994592 0.71100003 0.01121958 1.1407436e-38 336 231
0.021341572 0.71600002 0.01129848 1.1499631e-38 337 231
0.022596961 0.71600002 0.01129848 1.0674908e-38 338 231
-0.041427758 0.71600002 0.010043093 1.4569077e-38 287 232
-0.040172372 0.71600002 0.010043093 1.106816e-38 288 232
-0.038971342 0.71700001 0.01005712 5.4442281e-39 289 232
-0.037819397 0.71899998 0.010085173 6.8102447e-39 290 232
-0.036457058 0.71700001 0.01005712 6.1648753e-39 291 232
-0.035199918 0.71700001 0.01005712 8.1866827e-39 292 232
-0.03389544 0.71600002 0.010043093 8.1866827e-39 293 232
-0.032548878 0.71399999 0.01001504 8.2774308e-39 294 232
-0.031165501 0.71100003 0.0099729598 7.6320614e-39 295 232
-0.029876797 0.70999998 0.0099589331 7.3536822e-39 296 232
-0.028631933 0.70999998 0.0099589331 6.9845396e-39 297 232
-0.027387066 0.70999998 0.0099589331 7.0760219e-39 298 232
-0.026142199 0.70999998 0.0099589331 7.0760219e-39 299 232
-0.024827199 0.708 0.0099308798 7.5348435e-39 300 232
-0.023585839 0.708 0.0099308798 7.5348435e-39 301 232
-0.022344479 0.708 0.0099308798 7.9947455e-39 302 232
-0.021103119 0.708 0.0099308798 8.2716925e-39 303 232
-0.019917866 0.70999998 0.0099589331 8.9152626e-39 304 232
-0.018751899 0.713 0.010001013 1.0113806e-38 305 232
-0.0049163462 0.70099998 0.0098326923 9.5681668e-39 316 232
-0.0036872597 0.70099998 0.0098326923 8.7384061e-39 317 232
-0.0024546667 0.69999999 0.0098186666 8.9145438e-39 318 232
-0.0012273333 0.69999999 0.0098186666 8.7297938e-39 319 232
0 0.69999999 0.0098186666 8.0826307e-39 320 232
0.0012290865 0.70099998 0.0098326923 9.096784e-39 321 232
0.0024581731 0.70099998 0.0098326923 9.3809043e-39 322 232
0.0036872597 0.70099998 0.0098326923 9.6578499e-39 323 232
0.0049093333 0.69999999 0.0098186666 9.2854689e-39 324 232
0.0061366665 0.69999999 0.0098186666 9.1932732e-39 325 232
0.0073745195 0.70099998 0.0098326923 9.1035971e-39 326 232
0.0086036054 0.70099998 0.0098326923 9.2879898e-39 327 232
0.0098607466 0.70300001 0.0098607466 9.9337123e-39 328 232
0.011109119 0.704 0.0098747732 1.039433e-38 329 232
0.012343466 0.704 0.0098747732 1.1220131e-38 330 232
0.013577812 0.704 0.0098747732 1.1404524e-38 331 232
0.014854239 0.70599997 0.0099028256 1.1404524e-38 332 232
0.016092092 0.70599997 0.0099028256 1.1496719e-38 333 232
0.017329946 0.70599997 0.0099028256 1.122158e-38 334 232
0.018594101 0.70700002 0.0099168532 1.1129384e-38 335 232
0.01986176 0.708 0.0099308798 1.1129034e-38 336 232
0.021103119 0.708 0.0099308798 1.1313425e-38 337 232
0.022502279 0.713 0.010001013 1.0947882e-38 338 232
0.023852346 0.71600002 0.010043093 1.0671296e-38 339 232
0.025107734 0.71600002 0.010043093 8.8407163e-39 340 232
0.026363119 0.71600002 0.010043093 1.086902e-38 341 232
0.02754136 0.71399999 0.01001504 1.2175246e-38 342 232
-0.042742759 0.71700001 0.0087999795 1.5769071e-38 286 233
-0.041427758 0.71600002 0.0087877065 1.1435518e-38 287 233
-0.040172372 0.71600002 0.0087877065 9.4021746e-39 288 233
-0.038916986 0.71600002 0.0087877065 5.1615358e-39 289 233
-0.037714198 0.71700001 0.0087999795 7.1779384e-39 290 233
-0.036406212 0.71600002 0.0087877065 6.532569e-39 291 233
-0.035150826 0.71600002 0.0087877065 7.9097371e-39 292 233
-0.033800758 0.71399999 0.0087631596 7.9097371e-39 293 233
-0.032503292 0.713 0.0087508867 8.3667552e-39 294 233
-0.031121666 0.70999998 0.0087140659 7.8139415e-39 295 233
-0.02979264 0.708 0.008689519 7.9947328e-39 296 233
-0.02855128 0.708 0.008689519 7.7181445e-39 297 233
-0.027309919 0.708 0.008689519 7.4429996e-39 298 233
-0.026068559 0.708 0.008689519 7.4429996e-39 299 233
-0.024792133 0.70700002 0.008677247 7.5351994e-39 300 233
-0.023552528 0.70700002 0.008677247 7.4426437e-39 301 233
-0.022312919 0.70700002 0.008677247 8.1769787e-39 302 233
-0.021073313 0.70700002 0.008677247 8.2691743e-39 303 233
-0.019805651 0.70599997 0.0086649731 9.0982063e-39 304 233
-0.018567799 0.70599997 0.0086649731 1.029675e-38 305 233
-0.017329946 0.70599997 0.0086649731 1.1493478e-38 306 233
-0.016092092 0.70599997 0.0086649731 1.1677869e-38 307 233
-0.014854239 0.70599997 0.0086649731 1.2228525e-38 308 233
-0.013577812 0.704 0.0086404262 1.2228525e-38 309 233
-0.012343466 0.704 0.0086404262 1.1219415e-38 310 233
-0.011109119 0.704 0.0086404262 1.1219415e-38 311 233
-0.0061454331 0.70099998 0.0086036054 9.0149986e-39 315 233
-0.0049163462 0.70099998 0.0086036054 8.9167088e-39 316 233
-0.0036872597 0.70099998 0.0086036054 8.1791437e-39 317 233
-0.0024581731 0.70099998 0.0086036054 8.2684681e-39 318 233
-0.0012273333 0.69999999 0.0085913334 8.5450536e-39 319 233
0 0.69999999 0.0085913334 8.7322979e-39 320 233
0.0012290865 0.70099998 0.0086036054 9.3776673e-39 321 233
0.0024581731 0.70099998 0.0086036054 9.7467959e-39 322 233
0.0036872597 0.70099998 0.0086036054 9.2861779e-39 323 233
0.0049093333 0.69999999 0.0085913334 8.3653132e-39 324 233
0.0061366665 0.69999999 0.0085913334 8.4575089e-39 325 233
0.0073745195 0.70099998 0.0086036054 8.0916158e-39 326 233
0.0086036054 0.70099998 0.0086036054 8.4600396e-39 327 233
0.0098607466 0.70300001 0.0086281532 8.7369852e-39 328 233
0.01109334 0.70300001 0.0086281532 9.1976046e-39 329 233
0.012325933 0.70300001 0.0086281532 1.0116671e-38 330 233
0.013577812 0.704 0.0086404262 1.0301421e-38 331 233
0.014812159 0.704 0.0086404262 1.057621e-38 332 233
0.016046507 0.704 0.0086404262 1.057621e-38 333 233
0.017280852 0.704 0.0086404262 1.0484027e-38 334 233
0.018567799 0.70599997 0.0086649731 1.0484027e-38 335 233
0.019833706 0.70700002 0.008677247 1.0300362e-38 336 233
0.021073313 0.70700002 0.008677247 1.0485112e-38 337 233
0.022407599 0.70999998 0.0087140659 1.0210334e-38 338 233
0.023685781 0.71100003 0.0087263398 1.0486921e-38 339 233
0.025037598 0.71399999 0.0087631596 8.8356815e-39 340 233
0.026289478 0.71399999 0.0087631596 8.6512888e-39 341 233
0.02754136 0.71399999 0.0087631596 8.6707276e-39 342 233
0.028873893 0.71600002 0.0087877065 1.3372705e-38 343 233
-0.042742759 0.71700001 0.0075428397 1.4756358e-38 286 234
-0.041485619 0.71700001 0.0075428397 6.8275339e-39 287 234
-0.040172372 0.71600002 0.00753232 6.4486718e-39 288 234
-0.038916986 0.71600002 0.00753232 6.4486718e-39 289 234
-0.037661601 0.71600002 0.00753232 8.4668793e-39 290 234
-0.036304519 0.71399999 0.0075112795 7.6374788e-39 291 234
-0.035052639 0.71399999 0.0075112795 8.0934123e-39 292 234
-0.033753417 0.713 0.0075007593 7.7246284e-39 293 234
-0.032366529 0.70999998 0.0074691991 8.3649573e-39 294 234
-0.031034 0.708 0.0074481601 8.088369e-39 295 234
-0.029750559 0.70700002 0.0074376399 7.9029001e-39 296 234
-0.028510952 0.70700002 0.0074376399 7.5344764e-39 297 234
-0.027232772 0.70599997 0.0074271196 7.5344764e-39 298 234
-0.025994917 0.70599997 0.0074271196 7.5344764e-39 299 234
-0.024757065 0.70599997 0.0074271196 7.8099857e-39 300 234
-0.023452586 0.704 0.0074060797 7.8099857e-39 301 234
-0.022218239 0.704 0.0074060797 8.6361492e-39 302 234
-0.020983893 0.704 0.0074060797 8.6361492e-39 303 234
-0.019805651 0.70599997 0.0074271196 9.5562978e-39 304 234
-0.018567799 0.70599997 0.0074271196 1.0477894e-38 305 234
-0.017280852 0.704 0.0074060797 1.2045926e-38 306 234
-0.016046507 0.704 0.0074060797 1.2506904e-38 307 234
-0.014812159 0.704 0.0074060797 1.241399e-38 308 234
-0.013577812 0.704 0.0074060797 1.1860816e-38 309 234
-0.012343466 0.704 0.0074060797 1.1215096e-38 310 234
-0.011109119 0.704 0.0074060797 1.093815e-38 311 234
-0.0098607466 0.70300001 0.0073955595 9.832177e-39 312 234
-0.0086036054 0.70099998 0.0073745195 1.0016568e-38 313 234
-0.0073745195 0.70099998 0.0073745195 9.2800963e-39 314 234
-0.0061454331 0.70099998 0.0073745195 9.003508e-39 315 234
-0.0049093333 0.69999999 0.0073639993 9.0035052e-39 316 234
-0.0036819996 0.69999999 0.0073639993 8.8194741e-39 317 234
-0.0024546667 0.69999999 0.0073639993 8.4549879e-39 318 234
-0.0012273333 0.69999999 0.0073639993 9.1003573e-39 319 234
0 0.69999999 0.0073639993 9.3816077e-39 320 234
0.0012273333 0.69999999 0.0073639993 9.9347815e-39 321 234
0.0024546667 0.69999999 0.0073639993 9.5642011e-39 322 234
0.0036819996 0.69999999 0.0073639993 8.4582123e-39 323 234
0.0049093333 0.69999999 0.0073639993 8.3635084e-39 324 234
0.0061366665 0.69999999 0.0073639993 8.4557054e-39 325 234
0.0073639993 0.69999999 0.0073639993 7.8139415e-39 326 234
0.0086036054 0.70099998 0.0073745195 8.0901683e-39 327 234
0.0098326923 0.70099998 0.0073745195 8.7326636e-39 328 234
0.01109334 0.70300001 0.0073955595 9.0096106e-39 329 234
0.012325933 0.70300001 0.0073955595 9.103244e-39 330 234
0.013558527 0.70300001 0.0073955595 9.103244e-39 331 234
0.014812159 0.704 0.0074060797 1.0020165e-38 332 234
0.016046507 0.704 0.0074060797 1.0296752e-38 333 234
0.017280852 0.704 0.0074060797 1.0204201e-38 334 234
0.018515198 0.704 0.0074060797 1.0388592e-38 335 234
0.019805651 0.70599997 0.0074271196 9.9301348e-39 336 234
0.021043506 0.70599997 0.0074271196 1.0022689e-38 337 234
0.022344479 0.708 0.0074481601 9.564948e-39 338 234
0.023652466 0.70999998 0.0074691991 9.9333718e-39 339 234
0.024932399 0.71100003 0.0074797203 9.2012074e-39 340 234
0.026252659 0.713 0.0075007593 8.3714467e-39 341 234
0.027618507 0.71600002 0.00753232 7.5578991e-39 342 234
0.028873893 0.71600002 0.00753232 1.1706342e-38 343 234
0.03012928 0.71600002 0.00753232 1.4476534e-38 344 234
-0.042683143 0.71600002 0.0062769335 1.3190477e-38 286 235
-0.041427758 0.71600002 0.0062769335 3.6946874e-39 287 235
-0.040172372 0.71600002 0.0062769335 5.8922611e-39 288 235
-0.038916986 0.71600002 0.0062769335 7.4592266e-39 289 235
-0.037556399 0.71399999 0.0062593995 8.5594253e-39 290 235
-0.036253672 0.713 0.0062506334 7.9140559e-39 291 235
-0.034905359 0.71100003 0.0062330998 8.0937626e-39 292 235
-0.033658739 0.71100003 0.0062330998 7.8171743e-39 293 235
-0.03227536 0.708 0.0062067998 8.1823611e-39 294 235
-0.030990168 0.70700002 0.0061980332 7.9979698e-39 295 235
-0.029750559 0.70700002 0.0061980332 8.2713127e-39 296 235
-0.028470624 0.70599997 0.0061892662 7.995086e-39 297 235
-0.027155625 0.704 0.0061717331 8.1783982e-39 298 235
-0.02592128 0.704 0.0061717331 8.1783982e-39 299 235
-0.024686933 0.704 0.0061717331 8.5461045e-39 300 235
-0.023419274 0.70300001 0.0061629666 9.0992783e-39 301 235
-0.02218668 0.70300001 0.0061629666 1.0018718e-38 302 235
-0.020983893 0.704 0.0061717331 1.0479696e-38 303 235
-0.019749546 0.704 0.0061717331 1.1122898e-38 304 235
-0.018488899 0.70300001 0.0061629666 1.0938505e-38 305 235
-0.017256306 0.70300001 0.0061629666 1.1583869e-38 306 235
-0.016023712 0.70300001 0.0061629666 1.1676425e-38 307 235
-0.014791119 0.70300001 0.0061629666 1.1951935e-38 308 235
-0.013558527 0.70300001 0.0061629666 1.1675348e-38 309 235
-0.012325933 0.70300001 0.0061629666 1.0571529e-38 310 235
-0.01109334 0.70300001 0.0061629666 9.9261593e-39 311 235
-0.0098326923 0.70099998 0.0061454331 9.8314582e-39 312 235
-0.0085913334 0.69999999 0.0061366665 9.37048e-39 313 235
-0.0073639993 0.69999999 0.0061366665 8.9098718e-39 314 235
-0.0061366665 0.69999999 0.0061366665 9.0020675e-39 315 235
-0.0049093333 0.69999999 0.0061366665 8.7283504e-39 316 235
-0.0036819996 0.69999999 0.0061366665 8.9127417e-39 317 235
-0.0024476533 0.69800001 0.006119133 8.5489786e-39 318 235
-0.0012238267 0.69800001 0.006119133 8.9177625e-39 319 235
0 0.69800001 0.006119133 8.9213513e-39 320 235
0.0012273333 0.69999999 0.0061366665 8.6451245e-39 321 235
0.0024546667 0.69999999 0.0061366665 9.1943452e-39 322 235
0.0036819996 0.69999999 0.0061366665 8.9181185e-39 323 235
0.0048953067 0.69800001 0.006119133 8.5486227e-39 324 235
0.006119133 0.69800001 0.006119133 8.1801989e-39 325 235
0.0073639993 0.69999999 0.0061366665 7.4462464e-39 326 235
0.0085913334 0.69999999 0.0061366665 7.4462464e-39 327 235
0.0098186666 0.69999999 0.0061366665 7.6302859e-39 328 235
0.011061779 0.70099998 0.0061454331 7.9068714e-39 329 235
0.012290866 0.70099998 0.0061454331 8.2738589e-39 330 235
0.013558527 0.70300001 0.0061629666 8.3660559e-39 331 235
0.014791119 0.70300001 0.0061629666 8.8248789e-39 332 235
0.016023712 0.70300001 0.0061629666 8.9170745e-39 333 235
0.017280852 0.704 0.0061717331 9.1018217e-39 334 235
0.018515198 0.704 0.0061717331 9.1940173e-39 335 235
0.019805651 0.70599997 0.0061892662 8.9192255e-39 336 235
0.021043506 0.70599997 0.0061892662 9.1039769e-39 337 235
0.022312919 0.70700002 0.0061980332 9.0121414e-39 338 235
0.023652466 0.70999998 0.0062243328 9.1968914e-39 339 235
0.024932399 0.71100003 0.0062330998 8.8320647e-39 340 235
0.026179021 0.71100003 0.0062330998 8.4636423e-39 341 235
0.027618507 0.71600002 0.0062769335 6.7209427e-39 342 235
0.028873893 0.71600002 0.0062769335 9.1180291e-39 343 235
-0.042683143 0.71600002 0.0050215465 1.1437318e-38 286 236
-0.041427758 0.71600002 0.0050215465 2.1252008e-39 287 236
-0.040060159 0.71399999 0.0050075199 6.2585198e-39 288 236
-0.038808275 0.71399999 0.0050075199 7.9180398e-39 289 236
-0.037556399 0.71399999 0.0050075199 8.3768319e-39 290 236
-0.036151983 0.71100003 0.0049864799 7.8236581e-39 291 236
-0.034856264 0.70999998 0.0049794666 8.0955563e-39 292 236
-0.033516716 0.708 0.0049654399 7.6345795e-39 293 236
-0.032229774 0.70700002 0.0049584266 8.2756315e-39 294 236
-0.030946331 0.70599997 0.0049514128 7.9068504e-39 295 236
-0.029708479 0.70599997 0.0049514128 8.2723931e-39 296 236
-0.028389972 0.704 0.0049373866 8.2723931e-39 297 236
-0.027155625 0.704 0.0049373866 8.3635084e-39 298 236
-0.02592128 0.704 0.0049373866 8.4557054e-39 299 236
-0.024686933 0.704 0.0049373866 9.0088778e-39 300 236
-0.023419274 0.70300001 0.0049303733 1.0299617e-38 301 236
-0.02218668 0.70300001 0.0049303733 1.0762746e-38 302 236
-0.020983893 0.704 0.0049373866 1.113153e-38 303 236
-0.019721493 0.70300001 0.0049303733 1.1956604e-38 304 236
-0.018488899 0.70300001 0.0049303733 1.1403431e-38 305 236
-0.017256306 0.70300001 0.0049303733 1.1494905e-38 306 236
-0.015978126 0.70099998 0.0049163462 1.1218318e-38 307 236
-0.014749039 0.70099998 0.0049163462 1.0940657e-38 308 236
-0.013519952 0.70099998 0.0049163462 1.0848103e-38 309 236
-0.012290866 0.70099998 0.0049163462 1.0479326e-38 310 236
-0.011061779 0.70099998 0.0049163462 1.0202739e-38 311 236
-0.0098186666 0.69999999 0.0049093333 9.7424799e-39 312 236
-0.0085913334 0.69999999 0.0049093333 9.3736988e-39 313 236
-0.0073639993 0.69999999 0.0049093333 9.0978378e-39 314 236
-0.0061366665 0.69999999 0.0049093333 9.0056422e-39 315 236
-0.0048953067 0.69800001 0.0048953067 8.7304972e-39 316 236
-0.0036714801 0.69800001 0.0048953067 8.7304972e-39 317 236
-0.0024476533 0.69800001 0.0048953067 8.3649573e-39 318 236
-0.0012238267 0.69800001 0.0048953067 8.180566e-39 319 236
0 0.69800001 0.0048953067 8.3631608e-39 320 236
0.0012238267 0.69800001 0.0048953067 8.3631608e-39 321 236
0.0024476533 0.69800001 0.0048953067 8.9184842e-39 322 236
0.0036714801 0.69800001 0.0048953067 9.1028755e-39 323 236
0.0048953067 0.69800001 0.0048953067 8.3660265e-39 324 236
0.006119133 0.69800001 0.0048953067 7.9976041e-39 325 236
0.0073429602 0.69800001 0.0048953067 7.3544011e-39 326 236
0.0085913334 0.69999999 0.0049093333 7.3544011e-39 327 236
0.0098186666 0.69999999 0.0049093333 7.4462436e-39 328 236
0.011045999 0.69999999 0.0049093333 7.5384406e-39 329 236
0.012290866 0.70099998 0.0049163462 7.8139513e-39 330 236
0.013519952 0.70099998 0.0049163462 7.8139513e-39 331 236
0.014791119 0.70300001 0.0049303733 8.089462e-39 332 236
0.016023712 0.70300001 0.0049303733 8.1816576e-39 333 236
0.017256306 0.70300001 0.0049303733 8.2738561e-39 334 236
0.018515198 0.704 0.0049373866 8.6426386e-39 335 236
0.019749546 0.704 0.0049373866 8.2760113e-39 336 236
0.021043506 0.70599997 0.0049514128 8.4600424e-39 337 236
0.022312919 0.70700002 0.0049584266 8.368923e-39 338 236
0.023585839 0.708 0.0049654399 8.553673e-39 339 236
0.024897331 0.70999998 0.0049794666 8.2792455e-39 340 236
0.026179021 0.71100003 0.0049864799 8.3714411e-39 341 236
0.027618507 0.71600002 0.0050215465 6.0716076e-39 342 236
0.028873893 0.71600002 0.0050215465 5.3340426e-39 343 236
-0.042683143 0.71600002 0.00376616 9.0377123e-39 286 237
-0.041427758 0.71600002 0.00376616 1.5698649e-39 287 237
-0.040060159 0.71399999 0.0037556398 6.1659613e-39 288 237
-0.038808275 0.71399999 0.0037556398 7.9173181e-39 289 237
-0.037503798 0.713 0.0037503797 8.378634e-39 290 237
-0.036151983 0.71100003 0.0037398601 7.8254602e-39 291 237
-0.034856264 0.70999998 0.0037345996 8.0973555e-39 292 237
-0.033516716 0.708 0.00372408 7.3597905e-39 293 237
-0.032229774 0.70700002 0.0037188199 8.2756315e-39 294 237
-0.030946331 0.70599997 0.0037135598 7.9068504e-39 295 237
-0.029624319 0.704 0.0037030398 8.5482597e-39 296 237
-0.028389972 0.704 0.0037030398 8.4557054e-39 297 237
-0.027117053 0.70300001 0.0036977797 8.5482597e-39 298 237
-0.025884461 0.70300001 0.0036977797 8.6404554e-39 299 237
-0.024581732 0.70099998 0.0036872597 8.9166793e-39 300 237
-0.023352645 0.70099998 0.0036872597 9.5620487e-39 301 237
-0.022123558 0.70099998 0.0036872597 9.8386258e-39 302 237
-0.020954086 0.70300001 0.0036977797 9.7464302e-39 303 237
-0.019721493 0.70300001 0.0036977797 1.0204169e-38 304 237
-0.018488899 0.70300001 0.0036977797 1.03882e-38 305 237
-0.017207211 0.70099998 0.0036872597 1.020489e-38 306 237
-0.015978126 0.70099998 0.0036872597 1.020489e-38 307 237
-0.014727999 0.69999999 0.0036819996 1.0661919e-38 308 237
-0.013500666 0.69999999 0.0036819996 1.0661919e-38 309 237
-0.012273333 0.69999999 0.0036819996 1.0111623e-38 310 237
-0.011045999 0.69999999 0.0036819996 1.0111623e-38 311 237
-0.0098186666 0.69999999 0.0036819996 9.8368308e-39 312 237
-0.0085913334 0.69999999 0.0036819996 9.5598837e-39 313 237
-0.0073639993 0.69999999 0.0036819996 9.3758526e-39 314 237
-0.0061366665 0.69999999 0.0036819996 9.098907e-39 315 237
-0.0048953067 0.69800001 0.0036714801 8.7308531e-39 316 237
-0.0036714801 0.69800001 0.0036714801 8.5461017e-39 317 237
-0.0024476533 0.69800001 0.0036714801 7.9943825e-39 318 237
-0.0012238267 0.69800001 0.0036714801 7.8096325e-39 319 237
0 0.69800001 0.0036714801 7.6245238e-39 320 237
0.0012238267 0.69800001 0.0036714801 8.2698932e-39 321 237
0.0024476533 0.69800001 0.0036714801 8.5522198e-39 322 237
0.0036714801 0.69800001 0.0036714801 8.8288053e-39 323 237
0.0048953067 0.69800001 0.0036714801 8.457862e-39 324 237
0.006119133 0.69800001 0.0036714801 8.1809164e-39 325 237
0.0073429602 0.69800001 0.0036714801 7.3533263e-39 326 237
0.0085667865 0.69800001 0.0036714801 7.3533263e-39 327 237
0.0098186666 0.69999999 0.0036819996 7.0781842e-39 328 237
0.011045999 0.69999999 0.0036819996 7.0781842e-39 329 237
0.012273333 0.69999999 0.0036819996 7.0789058e-39 330 237
0.013519952 0.70099998 0.0036872597 7.1711029e-39 331 237
0.014749039 0.70099998 0.0036872597 7.0785527e-39 332 237
0.015978126 0.70099998 0.0036872597 7.1707497e-39 333 237
0.017256306 0.70300001 0.0036977797 7.4466163e-39 334 237
0.018515198 0.704 0.0037030398 7.7232032e-39 335 237
0.019749546 0.704 0.0037030398 7.7242752e-39 336 237
0.020983893 0.704 0.0037030398 7.8164709e-39 337 237
0.022281358 0.70599997 0.0037135598 7.7253528e-39 338 237
0.023552528 0.70700002 0.0037188199 8.0019383e-39 339 237
0.024897331 0.70999998 0.0037345996 7.7267934e-39 340 237
0.026179021 0.71100003 0.0037398601 7.818989e-39 341 237
0.027618507 0.71600002 0.00376616 6.8048441e-39 342 237
0.028873893 0.71600002 0.00376616 5.1449626e-39 343 237
0.03012928 0.71600002 0.00376616 8.477326e-39 344 237
-0.042683143 0.71600002 0.0025107733 6.4526403e-39 286 238
-0.041312039 0.71399999 0.0025037599 2.0272501e-39 287 238
-0.040004052 0.713 0.0025002533 6.1645249e-39 288 238
-0.038753927 0.713 0.0025002533 7.8244064e-39 289 238
-0.037398599 0.71100003 0.0024932399 8.103489e-39 290 238
-0.036101133 0.70999998 0.0024897333 7.7347065e-39 291 238
-0.034758076 0.708 0.00248272 8.2803049e-39 292 238
-0.033516716 0.708 0.00248272 7.6349354e-39 293 238
-0.032229774 0.70700002 0.0024792133 7.9068504e-39 294 238
-0.030946331 0.70599997 0.0024757064 7.8146548e-39 295 238
-0.029624319 0.704 0.0024686933 8.4557082e-39 296 238
-0.028349647 0.70300001 0.0024651866 8.5479038e-39 297 238
-0.027117053 0.70300001 0.0024651866 8.455711e-39 298 238
-0.025884461 0.70300001 0.0024651866 8.455711e-39 299 238
-0.024581732 0.70099998 0.0024581731 8.5468374e-39 300 238
-0.023352645 0.70099998 0.0024581731 8.4546404e-39 301 238
-0.022123558 0.70099998 0.0024581731 8.6376009e-39 302 238
-0.020894472 0.70099998 0.0024581731 8.6376009e-39 303 238
-0.019665385 0.70099998 0.0024581731 8.6368835e-39 304 238
-0.018436298 0.70099998 0.0024581731 8.7290805e-39 305 238
-0.017182667 0.69999999 0.0024546667 8.7287246e-39 306 238
-0.015955333 0.69999999 0.0024546667 9.0053101e-39 307 238
-0.014727999 0.69999999 0.0024546667 9.373001e-39 308 238
-0.013500666 0.69999999 0.0024546667 9.6492277e-39 309 238
-0.012273333 0.69999999 0.0024546667 9.0992783e-39 310 238
-0.011045999 0.69999999 0.0024546667 9.2836696e-39 311 238
-0.0098186666 0.69999999 0.0024546667 9.4684154e-39 312 238
-0.0085667865 0.69800001 0.0024476533 9.1918271e-39 313 238
-0.0073429602 0.69800001 0.0024476533 9.008512e-39 314 238
-0.006119133 0.69800001 0.0024476533 8.5475353e-39 315 238
-0.0048953067 0.69800001 0.0024476533 8.1780451e-39 316 238
-0.0036714801 0.69800001 0.0024476533 7.9018183e-39 317 238
-0.0024441467 0.69700003 0.0024441467 7.5341274e-39 318 238
-0.0012220733 0.69700003 0.0024441467 7.349376e-39 319 238
0 0.69700003 0.0024441467 7.1660638e-39 320 238
0.0012238267 0.69800001 0.0024476533 7.8114332e-39 321 238
0.0024476533 0.69800001 0.0024476533 8.3674754e-39 322 238
0.0036714801 0.69800001 0.0024476533 8.4596711e-39 323 238
0.0048882933 0.69700003 0.0024441467 8.3653132e-39 324 238
0.0061103669 0.69700003 0.0024441467 8.0883662e-39 325 238
0.0073429602 0.69800001 0.0024476533 7.2611307e-39 326 238
0.0085667865 0.69800001 0.0024476533 7.168935e-39 327 238
0.0097906133 0.69800001 0.0024476533 6.7104806e-39 328 238
0.01101444 0.69800001 0.0024476533 6.8026763e-39 329 238
0.012273333 0.69999999 0.0024546667 6.4353357e-39 330 238
0.013500666 0.69999999 0.0024546667 6.5275313e-39 331 238
0.014749039 0.70099998 0.0024581731 6.4357014e-39 332 238
0.015978126 0.70099998 0.0024581731 6.527897e-39 333 238
0.017207211 0.70099998 0.0024581731 6.6200955e-39 334 238
0.018488899 0.70300001 0.0024651866 6.7122925e-39 335 238
0.019749546 0.704 0.0024686933 6.8048441e-39 336 238
0.020983893 0.704 0.0024686933 7.0810708e-39 337 238
0.022281358 0.70599997 0.0024757064 6.9899542e-39 338 238
0.023552528 0.70700002 0.0024792133 7.0821498e-39 339 238
0.024897331 0.70999998 0.0024897333 7.0828701e-39 340 238
0.026179021 0.71100003 0.0024932399 7.1750657e-39 341 238
0.027425639 0.71100003 0.0024932399 6.6211689e-39 342 238
0.028793238 0.71399999 0.0025037599 5.0542019e-39 343 238
0.03012928 0.71600002 0.0025107733 7.8290727e-39 344 238
-0.043938532 0.71600002 0.0012553866 6.7335446e-39 285 239
-0.042683143 0.71600002 0.0012553866 4.332138e-39 286 239
-0.041312039 0.71399999 0.00125188 2.5804211e-39 287 239
-0.039891839 0.71100003 0.00124662 6.9896039e-39 288 239
-0.038645219 0.71100003 0.00124662 8.3725383e-39 289 239
-0.037345998 0.70999998 0.0012448666 8.5615931e-39 290 239
-0.036101133 0.70999998 0.0012448666 8.3775606e-39 291 239
-0.034758076 0.708 0.00124136 7.9140559e-39 292 239
-0.033516716 0.708 0.00124136 6.5311214e-39 293 239
-0.032229774 0.70700002 0.0012396066 7.8135856e-39 294 239
-0.030946331 0.70599997 0.0012378532 7.6291929e-39 295 239
-0.029582238 0.70300001 0.0012325933 8.2713155e-39 296 239
-0.028349647 0.70300001 0.0012325933 8.4557082e-39 297 239
-0.027039904 0.70099998 0.0012290865 8.5461045e-39 298 239
-0.025810819 0.70099998 0.0012290865 8.2698778e-39 299 239
-0.024546666 0.69999999 0.0012273333 8.2680925e-39 300 239
-0.023319334 0.69999999 0.0012273333 8.1758955e-39 301 239
-0.022091998 0.69999999 0.0012273333 8.4506887e-39 302 239
-0.020894472 0.70099998 0.0012290865 8.4506887e-39 303 239
-0.019665385 0.70099998 0.0012290865 8.4506845e-39 304 239
-0.018409999 0.69999999 0.0012273333 8.5428816e-39 305 239
-0.017182667 0.69999999 0.0012273333 8.4506887e-39 306 239
-0.015955333 0.69999999 0.0012273333 8.5428844e-39 307 239
-0.014727999 0.69999999 0.0012273333 8.1769731e-39 308 239
-0.013462093 0.69800001 0.0012238267 8.0847775e-39 309 239
-0.012238266 0.69800001 0.0012238267 8.1751738e-39 310 239
-0.01101444 0.69800001 0.0012238267 8.1751738e-39 311 239
-0.0097906133 0.69800001 0.0012238267 7.7174257e-39 312 239
-0.0085667865 0.69800001 0.0012238267 7.6248713e-39 313 239
-0.0073429602 0.69800001 0.0012238267 8.3606385e-39 314 239
-0.006119133 0.69800001 0.0012238267 8.1762458e-39 315 239
-0.0048953067 0.69800001 0.0012238267 7.7167166e-39 316 239
-0.0036714801 0.69800001 0.0012238267 7.5323254e-39 317 239
-0.0024441467 0.69700003 0.0012220733 6.9816725e-39 318 239
-0.0012220733 0.69700003 0.0012220733 6.9816725e-39 319 239
0 0.69700003 0.0012220733 7.0738682e-39 320 239
0.0012220733 0.69700003 0.0012220733 7.6270419e-39 321 239
0.0024441467 0.69700003 0.0012220733 8.0901655e-39 322 239
0.00366622 0.69700003 0.0012220733 8.2749155e-39 323 239
0.0048882933 0.69700003 0.0012220733 7.9050539e-39 324 239
0.0061103669 0.69700003 0.0012220733 7.7206627e-39 325 239
0.00733244 0.69700003 0.0012220733 6.8015945e-39 326 239
0.0085667865 0.69800001 0.0012238267 6.8937901e-39 327 239
0.0097906133 0.69800001 0.0012238267 6.4353329e-39 328 239
0.01101444 0.69800001 0.0012238267 6.3431372e-39 329 239
0.012238266 0.69800001 0.0012238267 6.159825e-39 330 239
0.013500666 0.69999999 0.0012273333 6.159825e-39 331 239
0.014727999 0.69999999 0.0012273333 6.1605467e-39 332 239
0.015955333 0.69999999 0.0012273333 6.1605467e-39 333 239
0.017207211 0.70099998 0.0012290865 6.2527423e-39 334 239
0.018488899 0.70300001 0.0012325933 6.1605467e-39 335 239
0.019749546 0.704 0.0012343467 6.6197269e-39 336 239
0.020983893 0.704 0.0012343467 6.8963138e-39 337 239
0.022218239 0.704 0.0012343467 6.5300494e-39 338 239
0.023519212 0.70599997 0.0012378532 6.7147994e-39 339 239
0.024792133 0.70700002 0.0012396066 6.7155183e-39 340 239
0.026142199 0.70999998 0.0012448666 6.7155183e-39 341 239
0.027387066 0.70999998 0.0012448666 6.4378538e-39 342 239
0.028672259 0.71100003 0.00124662 5.147115e-39 343 239
0.03012928 0.71600002 0.0012553866 6.0762796e-39 344 239
0.031428497 0.71700001 0.00125714 1.1515822e-38 345 239
-0.045446403 0.72000003 -0 1.3185793e-38 284 240
-0.043938532 0.71600002 -0 5.072217e-39 285 240
-0.042683143 0.71600002 -0 3.9550766e-39 286 240
-0.041312039 0.71399999 -0 4.6926417e-39 287 240
-0.039891839 0.71100003 -0 6.3482029e-39 288 240
-0.038645219 0.71100003 -0 6.901018e-39 289 240
-0.037345998 0.70999998 -0 7.2737508e-39 290 240
-0.03599944 0.708 -0 7.5499775e-39 291 240
-0.034758076 0.708 -0 7.9115349e-39 292 240
-0.033469379 0.70700002 -0 7.3587199e-39 293 240
-0.032184184 0.70599997 -0 7.4469499e-39 294 240
-0.030858666 0.704 -0 7.4469499e-39 295 240
-0.029498078 0.70099998 -0 7.5377106e-39 296 240
-0.028268991 0.70099998 -0 7.5377106e-39 297 240
-0.027039904 0.70099998 -0 7.8117835e-39 298 240
-0.025773998 0.69999999 -0 7.5351966e-39 299 240
-0.024546666 0.69999999 -0 7.7174355e-39 300 240
-0.023319334 0.69999999 -0 7.3490131e-39 301 240
-0.022091998 0.69999999 -0 7.1660666e-39 302 240
-0.020894472 0.70099998 -0 7.1660666e-39 303 240
-0.019665385 0.70099998 -0 6.9834732e-39 304 240
-0.018409999 0.69999999 -0 6.9834732e-39 305 240
-0.017182667 0.69999999 -0 7.1660666e-39 306 240
-0.015909746 0.69800001 -0 7.2582622e-39 307 240
-0.01468592 0.69800001 -0 7.1664295e-39 308 240
-0.013462093 0.69800001 -0 7.1664295e-39 309 240
-0.012238266 0.69800001 -0 7.1657107e-39 310 240
-0.01101444 0.69800001 -0 7.073515e-39 311 240
-0.0097906133 0.69800001 -0 6.9813194e-39 312 240
-0.0085667865 0.69800001 -0 7.073515e-39 313 240
-0.00733244 0.69700003 -0 7.0745898e-39 314 240
-0.0061103669 0.69700003 -0 7.0745898e-39 315 240
-0.0048882933 0.69700003 -0 7.2571804e-39 316 240
-0.00366622 0.69700003 -0 7.349376e-39 317 240
-0.0024406398 0.69599998 -0 6.8905531e-39 318 240
-0.0012203199 0.69599998 -0 6.7983575e-39 319 240
0 0.69599998 -0 6.339903e-39 320 240
0.0012203199 0.69599998 -0 6.8930768e-39 321 240
0.0024441467 0.69700003 -0 6.9867102e-39 322 240
0.00366622 0.69700003 -0 6.9867102e-39 323 240
0.0048812795 0.69599998 -0 7.0781842e-39 324 240
0.0061015999 0.69599998 -0 6.8937929e-39 325 240
0.00733244 0.69700003 -0 6.7104806e-39 326 240
0.0085545136 0.69700003 -0 6.5257306e-39 327 240
0.0097906133 0.69800001 -0 6.0672734e-39 328 240
0.01101444 0.69800001 -0 6.0672734e-39 329 240
0.012238266 0.69800001 -0 5.6091721e-39 330 240
0.013462093 0.69800001 -0 5.7932033e-39 331 240
0.014727999 0.69999999 -0 5.6098938e-39 332 240
0.015955333 0.69999999 -0 5.6098938e-39 333 240
0.017207211 0.70099998 -0 5.6095379e-39 334 240
0.018488899 0.70300001 -0 5.6095379e-39 335 240
0.019749546 0.704 -0 5.7017335e-39 336 240
0.020983893 0.704 -0 5.8864835e-39 337 240
0.022218239 0.704 -0 5.7035314e-39 338 240
0.023519212 0.70599997 -0 6.0723139e-39 339 240
0.024792133 0.70700002 -0 5.9811945e-39 340 240
0.026068559 0.708 -0 5.8889988e-39 341 240
0.027309919 0.708 -0 5.8871968e-39 342 240
0.028631933 0.70999998 -0 4.9652405e-39 343 240
0.029918881 0.71100003 -0 5.5234617e-39 344 240
0.031428497 0.71700001 -0 1.0225439e-38 345 240
-0.045383278 0.71899998 -0.0012606466 1.2356029e-38 284 241
-0.043938532 0.71600002 -0.0012553866 3.9662268e-39 285 241
-0.042683143 0.71600002 -0.0012553866 3.7692406e-39 286 241
-0.041312039 0.71399999 -0.00125188 5.0599795e-39 287 241
-0.040004052 0.713 -0.0012501266 6.2538353e-39 288 241
-0.038645219 0.71100003 -0.00124662 6.8070077e-39 289 241
-0.037345998 0.70999998 -0.0012448666 7.0853896e-39 290 241
-0.03599944 0.708 -0.00124136 7.1775853e-39 291 241
-0.034708988 0.70700002 -0.0012396066 7.7260773e-39 292 241
-0.033469379 0.70700002 -0.0012396066 7.0807079e-39 293 241
-0.032184184 0.70599997 -0.0012378532 7.1714546e-39 294 241
-0.030858666 0.704 -0.0012343467 6.9867046e-39 295 241
-0.029498078 0.70099998 -0.0012290865 7.354048e-39 296 241
-0.028228667 0.69999999 -0.0012273333 7.1696567e-39 297 241
-0.027001332 0.69999999 -0.0012273333 7.5369945e-39 298 241
-0.025773998 0.69999999 -0.0012273333 7.4447989e-39 299 241
-0.024476532 0.69800001 -0.0012238267 7.4426437e-39 300 241
-0.023252707 0.69800001 -0.0012238267 7.1664169e-39 301 241
-0.02202888 0.69800001 -0.0012238267 7.0738682e-39 302 241
-0.020864666 0.69999999 -0.0012273333 7.0738682e-39 303 241
-0.019637333 0.69999999 -0.0012273333 6.7983603e-39 304 241
-0.018409999 0.69999999 -0.0012273333 6.7983603e-39 305 241
-0.017133573 0.69800001 -0.0012238267 6.8894769e-39 306 241
-0.015909746 0.69800001 -0.0012238267 6.8894769e-39 307 241
-0.01468592 0.69800001 -0.0012238267 6.9816753e-39 308 241
-0.013462093 0.69800001 -0.0012238267 6.889121e-39 309 241
-0.012238266 0.69800001 -0.0012238267 6.7972813e-39 310 241
-0.01101444 0.69800001 -0.0012238267 6.8894769e-39 311 241
-0.0097765867 0.69700003 -0.0012220733 6.9816697e-39 312 241
-0.0085545136 0.69700003 -0.0012220733 6.8894741e-39 313 241
-0.00733244 0.69700003 -0.0012220733 6.7983575e-39 314 241
-0.0061103669 0.69700003 -0.0012220733 6.8905531e-39 315 241
-0.0048882933 0.69700003 -0.0012220733 6.890909e-39 316 241
-0.00366622 0.69700003 -0.0012220733 6.890909e-39 317 241
-0.0024406398 0.69599998 -0.0012203199 6.6157641e-39 318 241
-0.0012203199 0.69599998 -0.0012203199 6.4313728e-39 319 241
0 0.69599998 -0.0012203199 6.3399002e-39 320 241
0.0012203199 0.69599998 -0.0012203199 6.616127e-39 321 241
0.0024406398 0.69599998 -0.0012203199 6.7083254e-39 322 241
0.0036609597 0.69599998 -0.0012203199 6.8005225e-39 323 241
0.0048812795 0.69599998 -0.0012203199 6.7090457e-39 324 241
0.0061015999 0.69599998 -0.0012203199 6.5250132e-39 325 241
0.00733244 0.69700003 -0.0012220733 6.3424212e-39 326 241
0.0085545136 0.69700003 -0.0012220733 6.3424212e-39 327 241
0.0097765867 0.69700003 -0.0012220733 5.9750792e-39 328 241
0.01101444 0.69800001 -0.0012238267 5.9750792e-39 329 241
0.012238266 0.69800001 -0.0012238267 5.5166192e-39 330 241
0.013462093 0.69800001 -0.0012238267 5.5166192e-39 331 241
0.01468592 0.69800001 -0.0012238267 5.6091721e-39 332 241
0.015955333 0.69999999 -0.0012273333 5.6091721e-39 333 241
0.017182667 0.69999999 -0.0012273333 5.5169751e-39 334 241
0.018436298 0.70099998 -0.0012290865 5.5169751e-39 335 241
0.019721493 0.70300001 -0.0012325933 5.5166192e-39 336 241
0.020983893 0.704 -0.0012343467 5.6091749e-39 337 241
0.022218239 0.704 -0.0012343467 5.4269417e-39 338 241
0.023519212 0.70599997 -0.0012378532 5.6116917e-39 339 241
0.024757065 0.70599997 -0.0012378532 5.7046076e-39 340 241
0.02603174 0.70700002 -0.0012396066 5.6124105e-39 341 241
0.027309919 0.708 -0.00124136 5.8853989e-39 342 241
0.028631933 0.70999998 -0.0012448666 5.4247795e-39 343 241
0.029918881 0.71100003 -0.00124662 5.6160217e-39 344 241
0.031428497 0.71700001 -0.00125714 8.7506717e-39 345 241
-0.045383278 0.71899998 -0.0025212932 1.2262747e-38 284 242
-0.043938532 0.71600002 -0.0025107733 3.4116068e-39 285 242
-0.042683143 0.71600002 -0.0025107733 3.7667239e-39 286 242
-0.041312039 0.71399999 -0.0025037599 5.7028307e-39 287 242
-0.039891839 0.71100003 -0.0024932399 5.8857801e-39 288 242
-0.038645219 0.71100003 -0.0024932399 6.1620082e-39 289 242
-0.037345998 0.70999998 -0.0024897333 6.2560017e-39 290 242
-0.03599944 0.708 -0.00248272 6.2560017e-39 291 242
-0.034708988 0.70700002 -0.0024792133 7.0810708e-39 292 242
-0.033422034 0.70599997 -0.0024757064 6.8970397e-39 293 242
-0.032184184 0.70599997 -0.0024757064 7.1714546e-39 294 242
-0.030858666 0.704 -0.0024686933 7.0792589e-39 295 242
-0.029455997 0.69999999 -0.0024546667 6.895588e-39 296 242
-0.028228667 0.69999999 -0.0024546667 6.9881423e-39 297 242
-0.026924185 0.69800001 -0.0024476533 7.0792589e-39 298 242
-0.025700359 0.69800001 -0.0024476533 6.7104778e-39 299 242
-0.024476532 0.69800001 -0.0024476533 6.618285e-39 300 242
-0.023252707 0.69800001 -0.0024476533 6.341338e-39 301 242
-0.02202888 0.69800001 -0.0024476533 6.5250104e-39 302 242
-0.020864666 0.69999999 -0.0024546667 6.7094016e-39 303 242
-0.019637333 0.69999999 -0.0024546667 6.5239314e-39 304 242
-0.018409999 0.69999999 -0.0024546667 6.3399002e-39 305 242
-0.017133573 0.69800001 -0.0024476533 6.4310197e-39 306 242
-0.015909746 0.69800001 -0.0024476533 6.3388241e-39 307 242
-0.01468592 0.69800001 -0.0024476533 6.4299449e-39 308 242
-0.013462093 0.69800001 -0.0024476533 6.6143347e-39 309 242
-0.012238266 0.69800001 -0.0024476533 6.4310197e-39 310 242
-0.01101444 0.69800001 -0.0024476533 6.4310197e-39 311 242
-0.0097765867 0.69700003 -0.0024441467 6.7068807e-39 312 242
-0.0085545136 0.69700003 -0.0024441467 6.7990763e-39 313 242
-0.00733244 0.69700003 -0.0024441467 6.6164801e-39 314 242
-0.0061103669 0.69700003 -0.0024441467 6.6164801e-39 315 242
-0.0048882933 0.69700003 -0.0024441467 6.6164801e-39 316 242
-0.0036609597 0.69599998 -0.0024406398 6.6164801e-39 317 242
-0.0024406398 0.69599998 -0.0024406398 6.3402534e-39 318 242
-0.0012203199 0.69599998 -0.0024406398 6.3402534e-39 319 242
0 0.69599998 -0.0024406398 6.0647553e-39 320 242
0.0012203199 0.69599998 -0.0024406398 6.1573097e-39 321 242
0.0024406398 0.69599998 -0.0024406398 6.1576754e-39 322 242
0.0036609597 0.69599998 -0.0024406398 6.249871e-39 323 242
0.0048812795 0.69599998 -0.0024406398 5.9743603e-39 324 242
0.0061015999 0.69599998 -0.0024406398 6.1583915e-39 325 242
0.00733244 0.69700003 -0.0024441467 5.9750764e-39 326 242
0.0085545136 0.69700003 -0.0024441467 5.9750764e-39 327 242
0.0097765867 0.69700003 -0.0024441467 5.7002874e-39 328 242
0.01101444 0.69800001 -0.0024476533 5.7002874e-39 329 242
0.012238266 0.69800001 -0.0024476533 5.2418302e-39 330 242
0.013462093 0.69800001 -0.0024476533 5.2418302e-39 331 242
0.01468592 0.69800001 -0.0024476533 5.241833e-39 332 242
0.015955333 0.69999999 -0.0024546667 5.241833e-39 333 242
0.017182667 0.69999999 -0.0024546667 5.241477e-39 334 242
0.018436298 0.70099998 -0.0024581731 5.0570858e-39 335 242
0.019721493 0.70300001 -0.0024651866 5.1485653e-39 336 242
0.020983893 0.704 -0.0024686933 5.240761e-39 337 242
0.022218239 0.704 -0.0024686933 5.058885e-39 338 242
0.023519212 0.70599997 -0.0024757064 5.2432763e-39 339 242
0.024757065 0.70599997 -0.0024757064 5.3358251e-39 340 242
0.02603174 0.70700002 -0.0024792133 5.3358251e-39 341 242
0.027309919 0.708 -0.00248272 5.5173395e-39 342 242
0.028631933 0.70999998 -0.0024897333 5.4251424e-39 343 242
0.029918881 0.71100003 -0.0024932399 5.3379957e-39 344 242
-0.045446403 0.72000003 -0.0037872 1.2170915e-38 284 243
-0.043999899 0.71700001 -0.0037714199 2.8591561e-39 285 243
-0.042683143 0.71600002 -0.00376616 3.9500362e-39 286 243
-0.041312039 0.71399999 -0.0037556398 5.7017517e-39 287 243
-0.039891839 0.71100003 -0.0037398601 5.7017391e-39 288 243
-0.038645219 0.71100003 -0.0037398601 5.7939347e-39 289 243
-0.0372408 0.708 -0.00372408 6.1616383e-39 290 243
-0.03599944 0.708 -0.00372408 6.4382252e-39 291 243
-0.034708988 0.70700002 -0.0037188199 6.8048441e-39 292 243
-0.033422034 0.70599997 -0.0037135598 6.7126484e-39 293 243
-0.032093015 0.704 -0.0037030398 6.9885067e-39 294 243
-0.030727165 0.70099998 -0.0036872597 6.9885067e-39 295 243
-0.029455997 0.69999999 -0.0036819996 7.0810582e-39 296 243
-0.028228667 0.69999999 -0.0036819996 6.9888626e-39 297 243
-0.026924185 0.69800001 -0.0036714801 6.8026889e-39 298 243
-0.025700359 0.69800001 -0.0036714801 6.9874403e-39 299 243
-0.024476532 0.69800001 -0.0036714801 6.9896039e-39 300 243
-0.023252707 0.69800001 -0.0036714801 6.2520388e-39 301 243
-0.02202888 0.69800001 -0.0036714801 6.6179291e-39 302 243
-0.020864666 0.69999999 -0.0036819996 6.7101247e-39 303 243
-0.019637333 0.69999999 -0.0036819996 6.5260852e-39 304 243
-0.018409999 0.69999999 -0.0036819996 6.3416939e-39 305 243
-0.017133573 0.69800001 -0.0036714801 6.2477018e-39 306 243
-0.015909746 0.69800001 -0.0036714801 6.2477018e-39 307 243
-0.01468592 0.69800001 -0.0036714801 6.4310169e-39 308 243
-0.013462093 0.69800001 -0.0036714801 6.4310169e-39 309 243
-0.012238266 0.69800001 -0.0036714801 6.6143291e-39 310 243
-0.01099866 0.69700003 -0.00366622 6.6143291e-39 311 243
-0.0097765867 0.69700003 -0.00366622 6.5235656e-39 312 243
-0.0085545136 0.69700003 -0.00366622 6.7079569e-39 313 243
-0.00733244 0.69700003 -0.00366622 6.5257194e-39 314 243
-0.0061103669 0.69700003 -0.00366622 6.5257194e-39 315 243
-0.0048882933 0.69700003 -0.00366622 6.5253635e-39 316 243
-0.0036609597 0.69599998 -0.0036609597 6.4331679e-39 317 243
-0.0024336267 0.69400001 -0.0036504399 6.3409722e-39 318 243
-0.0012168133 0.69400001 -0.0036504399 6.2487766e-39 319 243
0 0.69400001 -0.0036504399 6.0651084e-39 320 243
0.0012168133 0.69400001 -0.0036504399 6.1573041e-39 321 243
0.0024336267 0.69400001 -0.0036504399 6.0654742e-39 322 243
0.0036504399 0.69400001 -0.0036504399 6.0654742e-39 323 243
0.0048672534 0.69400001 -0.0036504399 5.8821619e-39 324 243
0.0060840664 0.69400001 -0.0036504399 5.8821619e-39 325 243
0.0073219193 0.69599998 -0.0036609597 5.6073729e-39 326 243
0.0085545136 0.69700003 -0.00366622 5.6995685e-39 327 243
0.0097765867 0.69700003 -0.00366622 5.4247795e-39 328 243
0.01101444 0.69800001 -0.0036714801 5.5169751e-39 329 243
0.012238266 0.69800001 -0.0036714801 5.1496345e-39 330 243
0.013462093 0.69800001 -0.0036714801 5.1496345e-39 331 243
0.01468592 0.69800001 -0.0036714801 5.0574389e-39 332 243
0.015955333 0.69999999 -0.0036819996 5.0574389e-39 333 243
0.017182667 0.69999999 -0.0036819996 5.057083e-39 334 243
0.018436298 0.70099998 -0.0036872597 4.7808562e-39 335 243
0.019721493 0.70300001 -0.0036977797 4.9641713e-39 336 243
0.020983893 0.704 -0.0037030398 5.0563669e-39 337 243
0.022218239 0.704 -0.0037030398 4.9659663e-39 338 243
0.023519212 0.70599997 -0.0037135598 5.2425532e-39 339 243
0.024757065 0.70599997 -0.0037135598 5.2425504e-39 340 243
0.02603174 0.70700002 -0.0037188199 5.0585179e-39 341 243
0.027309919 0.708 -0.00372408 5.4247893e-39 342 243
0.028631933 0.70999998 -0.0037345996 5.4247893e-39 343 243
0.029918881 0.71100003 -0.0037398601 5.2432917e-39 344 243
-0.046643924 0.71899998 -0.0050425865 1.493714e-38 283 244
-0.045383278 0.71899998 -0.0050425865 1.1250037e-38 284 244
-0.043999899 0.71700001 -0.0050285598 2.0304745e-39 285 244
-0.042683143 0.71600002 -0.0050215465 3.4901328e-39 286 244
-0.041312039 0.71399999 -0.0050075199 5.426241e-39 287 244
-0.039891839 0.71100003 -0.0049864799 5.4262284e-39 288 244
-0.038645219 0.71100003 -0.0049864799 5.5184241e-39 289 244
-0.0372408 0.708 -0.0049654399 5.9776001e-39 290 244
-0.03599944 0.708 -0.0049654399 6.0697958e-39 291 244
-0.034708988 0.70700002 -0.0049584266 6.5278999e-39 292 244
-0.033422034 0.70599997 -0.0049514128 6.7122925e-39 293 244
-0.032093015 0.704 -0.0049373866 7.0807079e-39 294 244
-0.030727165 0.70099998 -0.0049163462 7.5413273e-39 295 244
-0.029455997 0.69999999 -0.0049093333 7.2683333e-39 296 244
-0.028228667 0.69999999 -0.0049093333 6.9921066e-39 297 244
-0.026924185 0.69800001 -0.0048953067 7.7260899e-39 298 244
-0.025700359 0.69800001 -0.0048953067 1.2428067e-38 299 244
-0.024476532 0.69800001 -0.0048953067 1.2527105e-38 300 244
-0.023252707 0.69800001 -0.0048953067 1.1051616e-38 301 244
-0.02202888 0.69800001 -0.0048953067 8.9239114e-39 302 244
-0.020864666 0.69999999 -0.0049093333 6.4346294e-39 303 244
-0.019637333 0.69999999 -0.0049093333 6.6190039e-39 304 244
-0.018409999 0.69999999 -0.0049093333 6.2502213e-39 305 244
-0.017133573 0.69800001 -0.0048953067 6.2484207e-39 306 244
-0.015909746 0.69800001 -0.0048953067 6.1562251e-39 307 244
-0.01468592 0.69800001 -0.0048953067 6.4310169e-39 308 244
-0.013462093 0.69800001 -0.0048953067 6.5232125e-39 309 244
-0.012220734 0.69700003 -0.0048882933 6.4310169e-39 310 244
-0.01099866 0.69700003 -0.0048882933 6.4310169e-39 311 244
-0.0097765867 0.69700003 -0.0048882933 6.5242873e-39 312 244
-0.0085422397 0.69599998 -0.0048812795 6.6164829e-39 313 244
-0.0073219193 0.69599998 -0.0048812795 6.5268026e-39 314 244
-0.0061015999 0.69599998 -0.0048812795 6.3427701e-39 315 244
-0.0048812795 0.69599998 -0.0048812795 6.5253635e-39 316 244
-0.0036504399 0.69400001 -0.0048672534 6.4331679e-39 317 244
-0.0024336267 0.69400001 -0.0048672534 6.1573041e-39 318 244
-0.0012168133 0.69400001 -0.0048672534 6.0651084e-39 319 244
0 0.69400001 -0.0048672534 6.0651084e-39 320 244
0.0012168133 0.69400001 -0.0048672534 6.3416939e-39 321 244
0.0024336267 0.69400001 -0.0048672534 5.8832367e-39 322 244
0.0036504399 0.69400001 -0.0048672534 5.8832367e-39 323 244
0.0048672534 0.69400001 -0.0048672534 5.5151772e-39 324 244
0.0060840664 0.69400001 -0.0048672534 5.5151772e-39 325 244
0.0073219193 0.69599998 -0.0048812795 5.5151772e-39 326 244
0.0085422397 0.69599998 -0.0048812795 5.6073729e-39 327 244
0.0097765867 0.69700003 -0.0048882933 5.4247767e-39 328 244
0.01101444 0.69800001 -0.0048953067 5.4247767e-39 329 244
0.012238266 0.69800001 -0.0048953067 4.9670383e-39 330 244
0.013462093 0.69800001 -0.0048953067 4.8748427e-39 331 244
0.01468592 0.69800001 -0.0048953067 4.6904556e-39 332 244
0.015955333 0.69999999 -0.0049093333 4.59826e-39 333 244
0.017182667 0.69999999 -0.0049093333 4.9648873e-39 334 244
0.018436298 0.70099998 -0.0049163462 4.6886606e-39 335 244
0.019721493 0.70300001 -0.0049303733 4.8719728e-39 336 244
0.020954086 0.70300001 -0.0049303733 4.9641685e-39 337 244
0.022218239 0.704 -0.0049373866 4.7815751e-39 338 244
0.023452586 0.704 -0.0049373866 4.9659663e-39 339 244
0.024757065 0.70599997 -0.0049514128 5.1492786e-39 340 244
0.02603174 0.70700002 -0.0049584266 5.057083e-39 341 244
0.027309919 0.708 -0.0049654399 5.4240704e-39 342 244
0.028631933 0.70999998 -0.0049794666 5.8850486e-39 343 244
0.029918881 0.71100003 -0.0049864799 4.9659818e-39 344 244
0.031296998 0.71399999 -0.0050075199 5.9804938e-39 345 244
-0.046643924 0.71899998 -0.0063032326 1.5210847e-38 283 245
-0.045383278 0.71899998 -0.0063032326 1.1062404e-38 284 245
-0.043999899 0.71700001 -0.0062857 2.5804056e-39 285 245
-0.042683143 0.71600002 -0.0062769335 3.765275e-39 286 245
-0.041312039 0.71399999 -0.0062593995 5.5169919e-39 287 245
-0.039891839 0.71100003 -0.0062330998 5.6095379e-39 288 245
-0.038590867 0.70999998 -0.0062243328 5.5173423e-39 289 245
-0.0372408 0.708 -0.0062067998 5.7928501e-39 290 245
-0.035948593 0.70700002 -0.0061980332 5.7928501e-39 291 245
-0.034708988 0.70700002 -0.0061980332 6.0676448e-39 292 245
-0.033422034 0.70599997 -0.0061892662 6.3442317e-39 293 245
-0.032093015 0.704 -0.0061717331 6.5311439e-39 294 245
-0.030727165 0.70099998 -0.0061454331 7.0843176e-39 295 245
-0.029455997 0.69999999 -0.0061366665 7.5470937e-39 296 245
-0.028228667 0.69999999 -0.0061366665 7.9158762e-39 297 245
-0.026924185 0.69800001 -0.006119133 9.1147949e-39 298 245
-0.025700359 0.69800001 -0.006119133 1.4646173e-38 299 245
-0.024476532 0.69800001 -0.006119133 1.5482423e-38 300 245
-0.023252707 0.69800001 -0.006119133 1.4006934e-38 301 245
-0.02202888 0.69800001 -0.006119133 9.580452e-39 302 245
-0.020864666 0.69999999 -0.0061366665 4.0490743e-39 303 245
-0.019637333 0.69999999 -0.0061366665 6.2498738e-39 304 245
-0.0183574 0.69800001 -0.006119133 6.2498738e-39 305 245
-0.017133573 0.69800001 -0.006119133 6.2484207e-39 306 245
-0.015909746 0.69800001 -0.006119133 6.2484207e-39 307 245
-0.01468592 0.69800001 -0.006119133 6.340975e-39 308 245
-0.013442807 0.69700003 -0.0061103669 6.340975e-39 309 245
-0.012220734 0.69700003 -0.0061103669 6.4310169e-39 310 245
-0.010982879 0.69599998 -0.0061015999 6.4310169e-39 311 245
-0.0097625591 0.69599998 -0.0061015999 6.3406191e-39 312 245
-0.0085422397 0.69599998 -0.0061015999 6.5250104e-39 313 245
-0.0073219193 0.69599998 -0.0061015999 6.2502185e-39 314 245
-0.0061015999 0.69599998 -0.0061015999 6.2502185e-39 315 245
-0.0048812795 0.69599998 -0.0061015999 6.3416939e-39 316 245
