# .PCD v.7 - Point Cloud Data file format
FIELDS x y z rgb imX imY
SIZE 4 4 4 4 4 4
TYPE F F F F F F
COUNT 1 1 1 1 1 1
WIDTH 856
HEIGHT 1
VIEWPOINT 0 0 0 1 0 0 0
POINTS 856
DATA ascii
0.0065048663 0.74199998 0.0065048663 1.5391415e-38 325 235
0.0078058392 0.74199998 0.0065048663 1.5299611e-38 326 235
0.009106813 0.74199998 0.0065048663 1.5391806e-38 327 235
0.010407786 0.74199998 0.0065048663 1.5117034e-38 328 235
0.011771879 0.74599999 0.0065399334 1.5117034e-38 329 235
0.013097399 0.74699998 0.0065486995 1.5117017e-38 330 235
0.014407139 0.74699998 0.0065486995 1.4932267e-38 331 235
0.015716879 0.74699998 0.0065486995 1.5300683e-38 332 235
0.017026618 0.74699998 0.0065486995 1.5116293e-38 333 235
0.018336359 0.74699998 0.0065486995 1.5299958e-38 334 235
0.019646099 0.74699998 0.0065486995 1.5207763e-38 335 235
0.020955838 0.74699998 0.0065486995 1.5208102e-38 336 235
0.022265578 0.74699998 0.0065486995 1.5208102e-38 337 235
0.023575317 0.74699998 0.0065486995 1.5483608e-38 338 235
0.024885058 0.74699998 0.0065486995 1.5391414e-38 339 235
0.026194798 0.74699998 0.0065486995 1.5299937e-38 340 235
0.027504537 0.74699998 0.0065486995 1.5207743e-38 341 235
0.028891427 0.74900001 0.0065662335 1.5023713e-38 342 235
0.030204674 0.74900001 0.0065662335 1.5115907e-38 343 235
0.031517919 0.74900001 0.0065662335 1.493116e-38 344 235
0.032831166 0.74900001 0.0065662335 1.4838966e-38 345 235
0.034189999 0.75 0.006575 1.4655298e-38 346 235
0.035599679 0.75199997 0.0065925326 1.4378354e-38 347 235
0.036918186 0.75199997 0.0065925326 1.3824503e-38 348 235
0.038338386 0.75400001 0.0066100666 1.4285481e-38 349 235
0.039660402 0.75400001 0.0066100666 1.4656504e-38 350 235
-0.030728921 0.76200002 0.0053441599 1.5672849e-38 297 236
-0.029392879 0.76200002 0.0053441599 1.5579875e-38 298 236
-0.027946379 0.759 0.0053231199 1.5763906e-38 299 236
-0.026615599 0.759 0.0053231199 1.6131557e-38 300 236
-0.025218192 0.75700003 0.0053090933 1.6039362e-38 301 236
-0.02379624 0.75400001 0.0052880533 1.6316637e-38 302 236
-0.022474226 0.75400001 0.0052880533 1.6592865e-38 303 236
-0.021152213 0.75400001 0.0052880533 1.6868731e-38 304 236
-0.0197776 0.75199997 0.0052740262 1.7053123e-38 305 236
-0.018409999 0.75 0.00526 1.7236438e-38 306 236
-0.017072206 0.74900001 0.0052529867 1.7328633e-38 307 236
-0.01575896 0.74900001 0.0052529867 1.7421535e-38 308 236
-0.014445714 0.74900001 0.0052529867 1.732934e-38 309 236
-0.013097399 0.74699998 0.0052389596 1.7604466e-38 310 236
-0.011787659 0.74699998 0.0052389596 1.7419716e-38 311 236
-0.010477919 0.74699998 0.0052389596 1.7327507e-38 312 236
-0.0091559067 0.74599999 0.0052319462 1.7235311e-38 313 236
-0.0078268806 0.74400002 0.0052179201 1.6774686e-38 314 236
-0.0065223998 0.74400002 0.0052179201 1.6682492e-38 315 236
-0.0052179201 0.74400002 0.0052179201 1.6405909e-38 316 236
-0.0039134403 0.74400002 0.0052179201 1.6129685e-38 317 236
-0.00260896 0.74400002 0.0052179201 1.5579031e-38 318 236
-0.00130448 0.74400002 0.0052179201 1.5486837e-38 319 236
0 0.74400002 0.0052179201 1.5486478e-38 320 236
0.0013009732 0.74199998 0.0052038929 1.5486478e-38 321 236
0.0026019465 0.74199998 0.0052038929 1.5853103e-38 322 236
0.0039029196 0.74199998 0.0052038929 1.5853103e-38 323 236
0.0052038929 0.74199998 0.0052038929 1.5944579e-38 324 236
0.0065048663 0.74199998 0.0052038929 1.5760191e-38 325 236
0.0078058392 0.74199998 0.0052038929 1.5391773e-38 326 236
0.009106813 0.74199998 0.0052038929 1.5483967e-38 327 236
0.010407786 0.74199998 0.0052038929 1.5208469e-38 328 236
0.011740319 0.74400002 0.0052179201 1.5208469e-38 329 236
0.0130448 0.74400002 0.0052179201 1.5300664e-38 330 236
0.014387853 0.74599999 0.0052319462 1.5208469e-38 331 236
0.015695838 0.74599999 0.0052319462 1.5299946e-38 332 236
0.017003827 0.74599999 0.0052319462 1.5299946e-38 333 236
0.018311813 0.74599999 0.0052319462 1.5208103e-38 334 236
0.019619798 0.74599999 0.0052319462 1.5300299e-38 335 236
0.020927785 0.74599999 0.0052319462 1.5300655e-38 336 236
0.022235774 0.74599999 0.0052319462 1.520846e-38 337 236
0.023575317 0.74699998 0.0052389596 1.539249e-38 338 236
0.024885058 0.74699998 0.0052389596 1.5299937e-38 339 236
0.026194798 0.74699998 0.0052389596 1.5116266e-38 340 236
0.027504537 0.74699998 0.0052389596 1.5024072e-38 341 236
0.028814279 0.74699998 0.0052389596 1.5023713e-38 342 236
0.030204674 0.74900001 0.0052529867 1.5023713e-38 343 236
0.031517919 0.74900001 0.0052529867 1.5023001e-38 344 236
0.032831166 0.74900001 0.0052529867 1.4930806e-38 345 236
0.034189999 0.75 0.00526 1.4471279e-38 346 236
0.035505001 0.75 0.00526 1.4194334e-38 347 236
0.036819998 0.75 0.00526 1.3917772e-38 348 236
0.038236689 0.75199997 0.0052740262 1.3917772e-38 349 236
0.039555199 0.75199997 0.0052740262 1.4195153e-38 350 236
0.040873703 0.75199997 0.0052740262 1.6223459e-38 351 236
-0.030809574 0.764 0.0040186401 1.5580651e-38 297 237
-0.029392879 0.76200002 0.0040081199 1.5946855e-38 298 237
-0.027946379 0.759 0.0039923396 1.6039051e-38 299 237
-0.026615599 0.759 0.0039923396 1.6131557e-38 300 237
-0.025218192 0.75700003 0.0039818203 1.6223754e-38 301 237
-0.02379624 0.75400001 0.00396604 1.6316634e-38 302 237
-0.022474226 0.75400001 0.00396604 1.6593221e-38 303 237
-0.021152213 0.75400001 0.00396604 1.6868729e-38 304 237
-0.0197776 0.75199997 0.0039555198 1.705312e-38 305 237
-0.018385453 0.74900001 0.0039397399 1.7236438e-38 306 237
-0.017072206 0.74900001 0.0039397399 1.742083e-38 307 237
-0.01575896 0.74900001 0.0039397399 1.7421179e-38 308 237
-0.014407139 0.74699998 0.0039292197 1.7421179e-38 309 237
-0.013097399 0.74699998 0.0039292197 1.742117e-38 310 237
-0.011787659 0.74699998 0.0039292197 1.7328615e-38 311 237
-0.010463892 0.74599999 0.0039239596 1.723676e-38 312 237
-0.0091313599 0.74400002 0.0039134403 1.6959813e-38 313 237
-0.0078268806 0.74400002 0.0039134403 1.6775762e-38 314 237
-0.0065223998 0.74400002 0.0039134403 1.6591374e-38 315 237
-0.0052038929 0.74199998 0.0039029196 1.6408062e-38 316 237
-0.0039029196 0.74199998 0.0039029196 1.6223314e-38 317 237
-0.0026019465 0.74199998 0.0039029196 1.6131838e-38 318 237
-0.0013009732 0.74199998 0.0039029196 1.6131838e-38 319 237
0 0.74199998 0.0039029196 1.6589939e-38 320 237
0.0013009732 0.74199998 0.0039029196 1.6589939e-38 321 237
0.0026019465 0.74199998 0.0039029196 1.7048758e-38 322 237
0.0039029196 0.74199998 0.0039029196 1.7048758e-38 323 237
0.0052038929 0.74199998 0.0039029196 1.686401e-38 324 237
0.0065048663 0.74199998 0.0039029196 1.6495592e-38 325 237
0.0078058392 0.74199998 0.0039029196 1.5760191e-38 326 237
0.009106813 0.74199998 0.0039029196 1.5852385e-38 327 237
0.010407786 0.74199998 0.0039029196 1.5668714e-38 328 237
0.01170876 0.74199998 0.0039029196 1.5668714e-38 329 237
0.0130448 0.74400002 0.0039134403 1.5668355e-38 330 237
0.01434928 0.74400002 0.0039134403 1.5576161e-38 331 237
0.015653761 0.74400002 0.0039134403 1.5300655e-38 332 237
0.016958239 0.74400002 0.0039134403 1.520846e-38 333 237
0.018311813 0.74599999 0.0039239596 1.5208819e-38 334 237
0.019619798 0.74599999 0.0039239596 1.5301013e-38 335 237
0.020927785 0.74599999 0.0039239596 1.5485043e-38 336 237
0.022235774 0.74599999 0.0039239596 1.5300655e-38 337 237
0.023543758 0.74599999 0.0039239596 1.5208102e-38 338 237
0.024851745 0.74599999 0.0039239596 1.5208102e-38 339 237
0.026159734 0.74599999 0.0039239596 1.5023713e-38 340 237
0.027504537 0.74699998 0.0039292197 1.5023713e-38 341 237
0.028814279 0.74699998 0.0039292197 1.493116e-38 342 237
0.030124018 0.74699998 0.0039292197 1.493116e-38 343 237
0.031517919 0.74900001 0.0039397399 1.4838254e-38 344 237
0.032831166 0.74900001 0.0039397399 1.4838254e-38 345 237
0.034144413 0.74900001 0.0039397399 1.4562396e-38 346 237
0.035505001 0.75 0.003945 1.4378005e-38 347 237
0.036819998 0.75 0.003945 1.4101437e-38 348 237
0.038135 0.75 0.003945 1.400924e-38 349 237
0.0393974 0.74900001 0.0039397399 1.3734164e-38 350 237
0.040710647 0.74900001 0.0039397399 1.5670271e-38 351 237
-0.032233275 0.76599997 0.0026861064 1.6870668e-38 296 238
-0.030809574 0.764 0.0026790933 1.5764319e-38 297 238
-0.029392879 0.76200002 0.00267208 1.6130525e-38 298 238
-0.028020019 0.76099998 0.0026685731 1.6038329e-38 299 238
-0.026615599 0.759 0.00266156 1.6131557e-38 300 238
-0.025218192 0.75700003 0.0026545466 1.6223754e-38 301 238
-0.023827799 0.755 0.0026475333 1.6316637e-38 302 238
-0.022474226 0.75400001 0.0026440267 1.6592865e-38 303 238
-0.021096105 0.75199997 0.0026370131 1.6868729e-38 304 238
-0.019724999 0.75 0.00263 1.705312e-38 305 238
-0.018385453 0.74900001 0.0026264933 1.7237518e-38 306 238
-0.017072206 0.74900001 0.0026264933 1.7237518e-38 307 238
-0.015716879 0.74699998 0.0026194798 1.7237871e-38 308 238
-0.014407139 0.74699998 0.0026194798 1.7237871e-38 309 238
-0.013097399 0.74699998 0.0026194798 1.7145669e-38 310 238
-0.011771879 0.74599999 0.0026159731 1.7145669e-38 311 238
-0.010463892 0.74599999 0.0026159731 1.7420791e-38 312 238
-0.0091313599 0.74400002 0.00260896 1.7144206e-38 313 238
-0.0078058392 0.74199998 0.0026019465 1.6960509e-38 314 238
-0.0065048663 0.74199998 0.0026019465 1.6867957e-38 315 238
-0.0052038929 0.74199998 0.0026019465 1.6867957e-38 316 238
-0.0039029196 0.74199998 0.0026019465 1.6867957e-38 317 238
-0.0026019465 0.74199998 0.0026019465 1.6776854e-38 318 238
-0.0013009732 0.74199998 0.0026019465 1.66843e-38 319 238
0 0.74199998 0.0026019465 1.7142391e-38 320 238
0.0012992199 0.741 0.0025984398 1.7142391e-38 321 238
0.0025984398 0.741 0.0025984398 1.7326058e-38 322 238
0.0039029196 0.74199998 0.0026019465 1.7326058e-38 323 238
0.0052038929 0.74199998 0.0026019465 1.7141311e-38 324 238
0.0065048663 0.74199998 0.0026019465 1.6680339e-38 325 238
0.0078058392 0.74199998 0.0026019465 1.6220803e-38 326 238
0.009106813 0.74199998 0.0026019465 1.6128609e-38 327 238
0.010407786 0.74199998 0.0026019465 1.5944938e-38 328 238
0.01170876 0.74199998 0.0026019465 1.5944938e-38 329 238
0.013009733 0.74199998 0.0026019465 1.5944938e-38 330 238
0.014310705 0.74199998 0.0026019465 1.5852744e-38 331 238
0.015611678 0.74199998 0.0026019465 1.5853103e-38 332 238
0.016912652 0.74199998 0.0026019465 1.5484684e-38 333 238
0.01826272 0.74400002 0.00260896 1.5484326e-38 334 238
0.019567199 0.74400002 0.00260896 1.5576879e-38 335 238
0.02087168 0.74400002 0.00260896 1.557652e-38 336 238
0.022176161 0.74400002 0.00260896 1.5484326e-38 337 238
0.023543758 0.74599999 0.0026159731 1.5391414e-38 338 238
0.024851745 0.74599999 0.0026159731 1.529922e-38 339 238
0.026159734 0.74599999 0.0026159731 1.5115549e-38 340 238
0.027504537 0.74699998 0.0026194798 1.5023354e-38 341 238
0.028814279 0.74699998 0.0026194798 1.493116e-38 342 238
0.030124018 0.74699998 0.0026194798 1.493116e-38 343 238
0.031433757 0.74699998 0.0026194798 1.4654942e-38 344 238
0.032831166 0.74900001 0.0026264933 1.4562746e-38 345 238
0.034144413 0.74900001 0.0026264933 1.4470198e-38 346 238
0.035505001 0.75 0.00263 1.4378002e-38 347 238
0.036819998 0.75 0.00263 1.4101786e-38 348 238
0.038135 0.75 0.00263 1.382556e-38 349 238
0.0393974 0.74900001 0.0026264933 1.3641238e-38 350 238
0.040710647 0.74900001 0.0026264933 1.5485511e-38 351 238
0.042023893 0.74900001 0.0026264933 1.6958916e-38 352 238
-0.032233275 0.76599997 0.0013430532 1.6962139e-38 296 239
-0.030809574 0.764 0.0013395466 1.5947989e-38 297 239
-0.029392879 0.76200002 0.00133604 1.6314914e-38 298 239
-0.028020019 0.76099998 0.0013342865 1.6130525e-38 299 239
-0.026685731 0.76099998 0.0013342865 1.6315953e-38 300 239
-0.025284819 0.759 0.00133078 1.6315953e-38 301 239
-0.023827799 0.755 0.0013237667 1.6592514e-38 302 239
-0.022474226 0.75400001 0.0013220133 1.668471e-38 303 239
-0.021096105 0.75199997 0.0013185065 1.6960927e-38 304 239
-0.019724999 0.75 0.001315 1.7145318e-38 305 239
-0.018385453 0.74900001 0.0013132467 1.6962006e-38 306 239
-0.017072206 0.74900001 0.0013132467 1.7146039e-38 307 239
-0.015716879 0.74699998 0.0013097399 1.7237871e-38 308 239
-0.014407139 0.74699998 0.0013097399 1.7237871e-38 309 239
-0.013097399 0.74699998 0.0013097399 1.7146743e-38 310 239
-0.011771879 0.74599999 0.0013079866 1.7146743e-38 311 239
-0.01043584 0.74400002 0.00130448 1.7329684e-38 312 239
-0.0091313599 0.74400002 0.00130448 1.7237489e-38 313 239
-0.0078058392 0.74199998 0.0013009732 1.7053082e-38 314 239
-0.0065048663 0.74199998 0.0013009732 1.686905e-38 315 239
-0.0052038929 0.74199998 0.0013009732 1.6869047e-38 316 239
-0.0039029196 0.74199998 0.0013009732 1.7053078e-38 317 239
-0.0026019465 0.74199998 0.0013009732 1.6962684e-38 318 239
-0.0013009732 0.74199998 0.0013009732 1.6870489e-38 319 239
0 0.74199998 0.0013009732 1.7145261e-38 320 239
0.0012992199 0.741 0.0012992199 1.696087e-38 321 239
0.0025984398 0.741 0.0012992199 1.7143463e-38 322 239
0.0039029196 0.74199998 0.0013009732 1.7051269e-38 323 239
0.0052038929 0.74199998 0.0013009732 1.6957998e-38 324 239
0.0065048663 0.74199998 0.0013009732 1.6681416e-38 325 239
0.0078058392 0.74199998 0.0013009732 1.6312997e-38 326 239
0.0090945391 0.741 0.0012992199 1.6312997e-38 327 239
0.010393759 0.741 0.0012992199 1.6037491e-38 328 239
0.01169298 0.741 0.0012992199 1.6129685e-38 329 239
0.0129922 0.741 0.0012992199 1.6037132e-38 330 239
0.014310705 0.74199998 0.0013009732 1.6037132e-38 331 239
0.015611678 0.74199998 0.0013009732 1.6313356e-38 332 239
0.016912652 0.74199998 0.0013009732 1.5852385e-38 333 239
0.018213626 0.74199998 0.0013009732 1.5669432e-38 334 239
0.0195146 0.74199998 0.0013009732 1.5577237e-38 335 239
0.020815572 0.74199998 0.0013009732 1.5484684e-38 336 239
0.022116546 0.74199998 0.0013009732 1.5484684e-38 337 239
0.023480639 0.74400002 0.00130448 1.5299946e-38 338 239
0.02478512 0.74400002 0.00130448 1.520775e-38 339 239
0.026089599 0.74400002 0.00130448 1.4839686e-38 340 239
0.027467718 0.74599999 0.0013079866 1.4932241e-38 341 239
0.028775707 0.74599999 0.0013079866 1.4747848e-38 342 239
0.030124018 0.74699998 0.0013097399 1.4655654e-38 343 239
0.031433757 0.74699998 0.0013097399 1.4562743e-38 344 239
0.032831166 0.74900001 0.0013132467 1.4378354e-38 345 239
0.034144413 0.74900001 0.0013132467 1.4470551e-38 346 239
0.035505001 0.75 0.001315 1.4194324e-38 347 239
0.036819998 0.75 0.001315 1.4010294e-38 348 239
0.038135 0.75 0.001315 1.373407e-38 349 239
0.0393974 0.74900001 0.0013132467 1.3456474e-38 350 239
0.040710647 0.74900001 0.0013132467 1.5392583e-38 351 239
0.042023893 0.74900001 0.0013132467 1.659121e-38 352 239
-0.033620168 0.76700002 -0 1.7605747e-38 295 240
-0.032233275 0.76599997 -0 1.6685554e-38 296 240
-0.030809574 0.764 -0 1.5855793e-38 297 240
-0.029392879 0.76200002 -0 1.6131243e-38 298 240
-0.028020019 0.76099998 -0 1.6039048e-38 299 240
-0.026685731 0.76099998 -0 1.6132638e-38 300 240
-0.025284819 0.759 -0 1.6132638e-38 301 240
-0.023827799 0.755 -0 1.6409202e-38 302 240
-0.022474226 0.75400001 -0 1.6685429e-38 303 240
-0.021096105 0.75199997 -0 1.6869454e-38 304 240
-0.019724999 0.75 -0 1.6962009e-38 305 240
-0.018385453 0.74900001 -0 1.6870176e-38 306 240
-0.017072206 0.74900001 -0 1.6962373e-38 307 240
-0.015716879 0.74699998 -0 1.7146039e-38 308 240
-0.014407139 0.74699998 -0 1.7146039e-38 309 240
-0.013097399 0.74699998 -0 1.7330414e-38 310 240
-0.011771879 0.74599999 -0 1.7238217e-38 311 240
-0.01043584 0.74400002 -0 1.7238924e-38 312 240
-0.009106813 0.74199998 -0 1.6961978e-38 313 240
-0.0078058392 0.74199998 -0 1.7144562e-38 314 240
-0.0065048663 0.74199998 -0 1.7144562e-38 315 240
-0.0052038929 0.74199998 -0 1.686905e-38 316 240
-0.0038976599 0.741 -0 1.7053082e-38 317 240
-0.0025984398 0.741 -0 1.7145631e-38 318 240
-0.0012992199 0.741 -0 1.6869403e-38 319 240
0 0.741 -0 1.7236016e-38 320 240
0.0012992199 0.741 -0 1.7236016e-38 321 240
0.0025984398 0.741 -0 1.7511522e-38 322 240
0.0038976599 0.741 -0 1.7327134e-38 323 240
0.0051968796 0.741 -0 1.7417176e-38 324 240
0.0064960998 0.741 -0 1.7140952e-38 325 240
0.0077953199 0.741 -0 1.7049116e-38 326 240
0.0090945391 0.741 -0 1.6864728e-38 327 240
0.010393759 0.741 -0 1.6588863e-38 328 240
0.01169298 0.741 -0 1.6496668e-38 329 240
0.0129922 0.741 -0 1.6129685e-38 330 240
0.01429142 0.741 -0 1.6129685e-38 331 240
0.015611678 0.74199998 -0 1.6037491e-38 332 240
0.016912652 0.74199998 -0 1.5945297e-38 333 240
0.018213626 0.74199998 -0 1.6036056e-38 334 240
0.0195146 0.74199998 -0 1.6036056e-38 335 240
0.020815572 0.74199998 -0 1.5760191e-38 336 240
0.022116546 0.74199998 -0 1.5667997e-38 337 240
0.023417519 0.74199998 -0 1.5667638e-38 338 240
0.02478512 0.74400002 -0 1.5483608e-38 339 240
0.026089599 0.74400002 -0 1.5116266e-38 340 240
0.027394081 0.74400002 -0 1.4931519e-38 341 240
0.028775707 0.74599999 -0 1.4931519e-38 342 240
0.030124018 0.74699998 -0 1.4838966e-38 343 240
0.031433757 0.74699998 -0 1.4654578e-38 344 240
0.032831166 0.74900001 -0 1.4562383e-38 345 240
0.034144413 0.74900001 -0 1.4377636e-38 346 240
0.035505001 0.75 -0 1.4377636e-38 347 240
0.036819998 0.75 -0 1.4193969e-38 348 240
0.038135 0.75 -0 1.4101774e-38 349 240
0.039449997 0.75 -0 1.3456109e-38 350 240
0.040764999 0.75 -0 1.5207826e-38 351 240
0.04208 0.75 -0 1.6131301e-38 352 240
-0.033620168 0.76700002 -0.0013448066 1.7237323e-38 295 241
-0.032233275 0.76599997 -0.0013430532 1.6501884e-38 296 241
-0.030809574 0.764 -0.0013395466 1.5579929e-38 297 241
-0.029470026 0.764 -0.0013395466 1.6039051e-38 298 241
-0.028020019 0.76099998 -0.0013342865 1.6131246e-38 299 241
-0.026685731 0.76099998 -0.0013342865 1.6315953e-38 300 241
-0.025284819 0.759 -0.00133078 1.6315953e-38 301 241
-0.023827799 0.755 -0.0013237667 1.6501398e-38 302 241
-0.022474226 0.75400001 -0.0013220133 1.6685429e-38 303 241
-0.021096105 0.75199997 -0.0013185065 1.686981e-38 304 241
-0.019724999 0.75 -0.001315 1.686981e-38 305 241
-0.018385453 0.74900001 -0.0013132467 1.6962006e-38 306 241
-0.017072206 0.74900001 -0.0013132467 1.7146039e-38 307 241
-0.015716879 0.74699998 -0.0013097399 1.7146395e-38 308 241
-0.014407139 0.74699998 -0.0013097399 1.723859e-38 309 241
-0.013097399 0.74699998 -0.0013097399 1.723894e-38 310 241
-0.011787659 0.74699998 -0.0013097399 1.723894e-38 311 241
-0.01043584 0.74400002 -0.00130448 1.7146025e-38 312 241
-0.009106813 0.74199998 -0.0013009732 1.7053829e-38 313 241
-0.0078058392 0.74199998 -0.0013009732 1.6869435e-38 314 241
-0.0065048663 0.74199998 -0.0013009732 1.6869435e-38 315 241
-0.0051968796 0.741 -0.0012992199 1.6869429e-38 316 241
-0.0038976599 0.741 -0.0012992199 1.6869429e-38 317 241
-0.0025984398 0.741 -0.0012992199 1.7052376e-38 318 241
-0.0012992199 0.741 -0.0012992199 1.7052376e-38 319 241
0 0.741 -0.0012992199 1.7420053e-38 320 241
0.0012992199 0.741 -0.0012992199 1.7327857e-38 321 241
0.0025984398 0.741 -0.0012992199 1.7511164e-38 322 241
0.0038976599 0.741 -0.0012992199 1.7418969e-38 323 241
0.0051968796 0.741 -0.0012992199 1.7326417e-38 324 241
0.0064960998 0.741 -0.0012992199 1.7234222e-38 325 241
0.0077953199 0.741 -0.0012992199 1.6958357e-38 326 241
0.0090945391 0.741 -0.0012992199 1.6866163e-38 327 241
0.010393759 0.741 -0.0012992199 1.6681774e-38 328 241
0.01169298 0.741 -0.0012992199 1.6497745e-38 329 241
0.0129922 0.741 -0.0012992199 1.6130403e-38 330 241
0.01429142 0.741 -0.0012992199 1.6038208e-38 331 241
0.01559064 0.741 -0.0012992199 1.5854537e-38 332 241
0.016889861 0.741 -0.0012992199 1.5854537e-38 333 241
0.018213626 0.74199998 -0.0013009732 1.5762343e-38 334 241
0.0195146 0.74199998 -0.0013009732 1.566979e-38 335 241
0.020815572 0.74199998 -0.0013009732 1.5577237e-38 336 241
0.022116546 0.74199998 -0.0013009732 1.5485043e-38 337 241
0.023417519 0.74199998 -0.0013009732 1.5301372e-38 338 241
0.024718491 0.74199998 -0.0013009732 1.5209178e-38 339 241
0.026089599 0.74400002 -0.00130448 1.4932595e-38 340 241
0.027394081 0.74400002 -0.00130448 1.4840401e-38 341 241
0.028775707 0.74599999 -0.0013079866 1.4838966e-38 342 241
0.030124018 0.74699998 -0.0013097399 1.4838966e-38 343 241
0.031433757 0.74699998 -0.0013097399 1.4563101e-38 344 241
0.032743499 0.74699998 -0.0013097399 1.4378712e-38 345 241
0.034144413 0.74900001 -0.0013132467 1.4193967e-38 346 241
0.03545766 0.74900001 -0.0013132467 1.4101771e-38 347 241
0.036819998 0.75 -0.001315 1.4101067e-38 348 241
0.038135 0.75 -0.001315 1.4008872e-38 349 241
0.039449997 0.75 -0.001315 1.3639068e-38 350 241
0.040764999 0.75 -0.001315 1.5114558e-38 351 241
0.04219221 0.75199997 -0.0013185065 1.5485931e-38 352 241
-0.033620168 0.76700002 -0.0026896133 1.6869261e-38 295 242
-0.032233275 0.76599997 -0.0026861064 1.6318213e-38 296 242
-0.030809574 0.764 -0.0026790933 1.5580648e-38 297 242
-0.029470026 0.764 -0.0026790933 1.5855382e-38 298 242
-0.028056841 0.76200002 -0.00267208 1.5855382e-38 299 242
-0.026685731 0.76099998 -0.0026685731 1.6132282e-38 300 242
-0.025284819 0.759 -0.00266156 1.6316672e-38 301 242
-0.02389092 0.75700003 -0.0026545466 1.631737e-38 302 242
-0.022474226 0.75400001 -0.0026440267 1.650212e-38 303 242
-0.021096105 0.75199997 -0.0026370131 1.6685785e-38 304 242
-0.019724999 0.75 -0.00263 1.6777981e-38 305 242
-0.018385453 0.74900001 -0.0026264933 1.6777981e-38 306 242
-0.017072206 0.74900001 -0.0026264933 1.6870176e-38 307 242
-0.015716879 0.74699998 -0.0026194798 1.6962729e-38 308 242
-0.014407139 0.74699998 -0.0026194798 1.7054925e-38 309 242
-0.013097399 0.74699998 -0.0026194798 1.7055278e-38 310 242
-0.011740319 0.74400002 -0.00260896 1.6962724e-38 311 242
-0.01043584 0.74400002 -0.00260896 1.6962359e-38 312 242
-0.009106813 0.74199998 -0.0026019465 1.6870164e-38 313 242
-0.0078058392 0.74199998 -0.0026019465 1.6961631e-38 314 242
-0.0065048663 0.74199998 -0.0026019465 1.6961631e-38 315 242
-0.0051968796 0.741 -0.0025984398 1.6869429e-38 316 242
-0.0038976599 0.741 -0.0025984398 1.6685398e-38 317 242
-0.0025984398 0.741 -0.0025984398 1.6776869e-38 318 242
-0.0012992199 0.741 -0.0025984398 1.6869066e-38 319 242
0 0.741 -0.0025984398 1.7420055e-38 320 242
0.0012992199 0.741 -0.0025984398 1.7235305e-38 321 242
0.0025984398 0.741 -0.0025984398 1.7603358e-38 322 242
0.0038976599 0.741 -0.0025984398 1.7603358e-38 323 242
0.0051968796 0.741 -0.0025984398 1.7419687e-38 324 242
0.0064960998 0.741 -0.0025984398 1.7419687e-38 325 242
0.0077953199 0.741 -0.0025984398 1.7419687e-38 326 242
0.0090945391 0.741 -0.0025984398 1.7143463e-38 327 242
0.010393759 0.741 -0.0025984398 1.6957998e-38 328 242
0.01169298 0.741 -0.0025984398 1.6865804e-38 329 242
0.0129922 0.741 -0.0025984398 1.6405909e-38 330 242
0.01429142 0.741 -0.0025984398 1.6313715e-38 331 242
0.01559064 0.741 -0.0025984398 1.594709e-38 332 242
0.016889861 0.741 -0.0025984398 1.5854896e-38 333 242
0.018213626 0.74199998 -0.0026019465 1.5946014e-38 334 242
0.0195146 0.74199998 -0.0026019465 1.5946014e-38 335 242
0.020815572 0.74199998 -0.0026019465 1.5853461e-38 336 242
0.022116546 0.74199998 -0.0026019465 1.5669073e-38 337 242
0.023417519 0.74199998 -0.0026019465 1.5485043e-38 338 242
0.024718491 0.74199998 -0.0026019465 1.5485043e-38 339 242
0.026019465 0.74199998 -0.0026019465 1.520846e-38 340 242
0.027394081 0.74400002 -0.00260896 1.5024072e-38 341 242
0.028775707 0.74599999 -0.0026159731 1.4655654e-38 342 242
0.030124018 0.74699998 -0.0026194798 1.456346e-38 343 242
0.031433757 0.74699998 -0.0026194798 1.4195041e-38 344 242
0.032743499 0.74699998 -0.0026194798 1.4195041e-38 345 242
0.034144413 0.74900001 -0.0026264933 1.4102137e-38 346 242
0.03545766 0.74900001 -0.0026264933 1.4009941e-38 347 242
0.036819998 0.75 -0.00263 1.4008884e-38 348 242
0.038135 0.75 -0.00263 1.3824853e-38 349 242
0.039449997 0.75 -0.00263 1.3639073e-38 350 242
0.040764999 0.75 -0.00263 1.4929812e-38 351 242
0.04219221 0.75199997 -0.0026370131 1.5576685e-38 352 242
0.04351072 0.75199997 -0.0026370131 1.6867424e-38 353 242
-0.033620168 0.76700002 -0.00403442 1.6777419e-38 295 243
-0.032233275 0.76599997 -0.0040291594 1.6226371e-38 296 243
-0.030890226 0.76599997 -0.0040291594 1.5581001e-38 297 243
-0.029470026 0.764 -0.0040186401 1.6131246e-38 298 243
-0.028056841 0.76200002 -0.0040081199 1.6039051e-38 299 243
-0.026685731 0.76099998 -0.0040028598 1.6040089e-38 300 243
-0.025284819 0.759 -0.0039923396 1.6132285e-38 301 243
-0.02389092 0.75700003 -0.0039818203 1.6408849e-38 302 243
-0.022504034 0.755 -0.0039712996 1.6501045e-38 303 243
-0.021180267 0.755 -0.0039712996 1.6501398e-38 304 243
-0.0197776 0.75199997 -0.0039555198 1.6685429e-38 305 243
-0.018409999 0.75 -0.003945 1.6777627e-38 306 243
-0.017072206 0.74900001 -0.0039397399 1.6869823e-38 307 243
-0.01575896 0.74900001 -0.0039397399 1.6962376e-38 308 243
-0.014407139 0.74699998 -0.0039292197 1.7146767e-38 309 243
-0.013097399 0.74699998 -0.0039292197 1.7054922e-38 310 243
-0.011740319 0.74400002 -0.0039134403 1.6870529e-38 311 243
-0.010407786 0.74199998 -0.0039029196 1.6960571e-38 312 243
-0.009106813 0.74199998 -0.0039029196 1.7329714e-38 313 243
-0.0078058392 0.74199998 -0.0039029196 1.723894e-38 314 243
-0.0065048663 0.74199998 -0.0039029196 1.6870158e-38 315 243
-0.0051968796 0.741 -0.0038976599 1.7053808e-38 316 243
-0.0038976599 0.741 -0.0038976599 1.677722e-38 317 243
-0.0025984398 0.741 -0.0038976599 1.7144562e-38 318 243
-0.0012992199 0.741 -0.0038976599 1.7144562e-38 319 243
0 0.741 -0.0038976599 1.7420053e-38 320 243
0.0012992199 0.741 -0.0038976599 1.7327857e-38 321 243
0.0025984398 0.741 -0.0038976599 1.7695915e-38 322 243
0.0038976599 0.741 -0.0038976599 1.7695915e-38 323 243
0.0051968796 0.741 -0.0038976599 1.7604441e-38 324 243
0.0064960998 0.741 -0.0038976599 1.7604441e-38 325 243
0.0077953199 0.741 -0.0038976599 1.7420763e-38 326 243
0.0090945391 0.741 -0.0038976599 1.714418e-38 327 243
0.010393759 0.741 -0.0038976599 1.705091e-38 328 243
0.01169298 0.741 -0.0038976599 1.6866522e-38 329 243
0.0129922 0.741 -0.0038976599 1.6498103e-38 330 243
0.01429142 0.741 -0.0038976599 1.6498103e-38 331 243
0.01559064 0.741 -0.0038976599 1.6223314e-38 332 243
0.016889861 0.741 -0.0038976599 1.613112e-38 333 243
0.018189078 0.741 -0.0038976599 1.6038208e-38 334 243
0.0195146 0.74199998 -0.0039029196 1.5946014e-38 335 243
0.020815572 0.74199998 -0.0039029196 1.5853103e-38 336 243
0.022116546 0.74199998 -0.0039029196 1.5853103e-38 337 243
0.023417519 0.74199998 -0.0039029196 1.5577237e-38 338 243
0.024718491 0.74199998 -0.0039029196 1.5485043e-38 339 243
0.026019465 0.74199998 -0.0039029196 1.520846e-38 340 243
0.027394081 0.74400002 -0.0039134403 1.5023713e-38 341 243
0.028775707 0.74599999 -0.0039239596 1.456346e-38 342 243
0.030124018 0.74699998 -0.0039292197 1.4470907e-38 343 243
0.031433757 0.74699998 -0.0039292197 1.4378355e-38 344 243
0.032743499 0.74699998 -0.0039292197 1.4194324e-38 345 243
0.034144413 0.74900001 -0.0039397399 1.4009588e-38 346 243
0.03545766 0.74900001 -0.0039397399 1.3825557e-38 347 243
0.036819998 0.75 -0.003945 1.3824856e-38 348 243
0.038135 0.75 -0.003945 1.3824856e-38 349 243
0.039555199 0.75199997 -0.0039555198 1.3823466e-38 350 243
0.040873703 0.75199997 -0.0039555198 1.4929812e-38 351 243
0.04219221 0.75199997 -0.0039555198 1.5575964e-38 352 243
0.043626439 0.75400001 -0.00396604 1.6958898e-38 353 243
-0.033620168 0.76700002 -0.0053792265 1.6685942e-38 295 244
-0.03227536 0.76700002 -0.0053792265 1.6135257e-38 296 244
-0.030890226 0.76599997 -0.0053722127 1.5305137e-38 297 244
-0.029470026 0.764 -0.0053581866 1.5946499e-38 298 244
-0.028056841 0.76200002 -0.0053441599 1.6038695e-38 299 244
-0.026685731 0.76099998 -0.0053371461 1.6040092e-38 300 244
-0.025284819 0.759 -0.0053231199 1.6040092e-38 301 244
-0.02389092 0.75700003 -0.0053090933 1.6316653e-38 302 244
-0.022504034 0.755 -0.0052950666 1.6316653e-38 303 244
-0.021180267 0.755 -0.0052950666 1.6317007e-38 304 244
-0.019830201 0.75400001 -0.0052880533 1.6409202e-38 305 244
-0.018409999 0.75 -0.00526 1.6684713e-38 306 244
-0.017072206 0.74900001 -0.0052529867 1.6869104e-38 307 244
-0.01575896 0.74900001 -0.0052529867 1.6778708e-38 308 244
-0.014407139 0.74699998 -0.0052389596 1.7055293e-38 309 244
-0.013079867 0.74599999 -0.0052319462 1.705529e-38 310 244
-0.011740319 0.74400002 -0.0052179201 1.705529e-38 311 244
-0.010407786 0.74199998 -0.0052038929 1.7054584e-38 312 244
-0.009106813 0.74199998 -0.0052038929 1.7699954e-38 313 244
-0.0078058392 0.74199998 -0.0052038929 1.7607745e-38 314 244
-0.0065048663 0.74199998 -0.0052038929 1.7330798e-38 315 244
-0.0051968796 0.741 -0.0051968796 1.7329687e-38 316 244
-0.0038976599 0.741 -0.0051968796 1.6961265e-38 317 244
-0.0025984398 0.741 -0.0051968796 1.7053811e-38 318 244
-0.0012992199 0.741 -0.0051968796 1.6961615e-38 319 244
0 0.741 -0.0051968796 1.7236754e-38 320 244
0.0012992199 0.741 -0.0051968796 1.7236754e-38 321 244
0.0025984398 0.741 -0.0051968796 1.7512621e-38 322 244
0.0038976599 0.741 -0.0051968796 1.7512621e-38 323 244
0.0051968796 0.741 -0.0051968796 1.742042e-38 324 244
0.0064960998 0.741 -0.0051968796 1.7512615e-38 325 244
0.0077953199 0.741 -0.0051968796 1.7237458e-38 326 244
0.0090945391 0.741 -0.0051968796 1.696087e-38 327 244
0.010393759 0.741 -0.0051968796 1.7142391e-38 328 244
0.01169298 0.741 -0.0051968796 1.6957998e-38 329 244
0.0129922 0.741 -0.0051968796 1.6590661e-38 330 244
0.01429142 0.741 -0.0051968796 1.6406271e-38 331 244
0.01559064 0.741 -0.0051968796 1.631515e-38 332 244
0.016889861 0.741 -0.0051968796 1.6130761e-38 333 244
0.018189078 0.741 -0.0051968796 1.6130044e-38 334 244
0.019488299 0.741 -0.0051968796 1.5945655e-38 335 244
0.020815572 0.74199998 -0.0052038929 1.5945297e-38 336 244
0.022116546 0.74199998 -0.0052038929 1.5853103e-38 337 244
0.023417519 0.74199998 -0.0052038929 1.5669073e-38 338 244
0.024718491 0.74199998 -0.0052038929 1.5576879e-38 339 244
0.026019465 0.74199998 -0.0052038929 1.5300299e-38 340 244
0.027394081 0.74400002 -0.0052179201 1.5023354e-38 341 244
0.028775707 0.74599999 -0.0052319462 1.4379431e-38 342 244
0.030124018 0.74699998 -0.0052389596 1.4287236e-38 343 244
0.031433757 0.74699998 -0.0052389596 1.4102493e-38 344 244
0.032743499 0.74699998 -0.0052389596 1.3825907e-38 345 244
0.034144413 0.74900001 -0.0052529867 1.3734083e-38 346 244
0.03545766 0.74900001 -0.0052529867 1.3641528e-38 347 244
0.036819998 0.75 -0.00526 1.3641178e-38 348 244
0.038236689 0.75199997 -0.0052740262 1.3641178e-38 349 244
0.039555199 0.75199997 -0.0052740262 1.3640504e-38 350 244
0.040873703 0.75199997 -0.0052740262 1.474685e-38 351 244
0.042304426 0.75400001 -0.0052880533 1.5116782e-38 352 244
0.043626439 0.75400001 -0.0052880533 1.6684109e-38 353 244
-0.033707831 0.76899999 -0.0067415666 1.6501553e-38 295 245
-0.03227536 0.76700002 -0.006724033 1.6042708e-38 296 245
-0.030930554 0.76700002 -0.006724033 1.5397339e-38 297 245
-0.029547172 0.76599997 -0.0067152665 1.5855385e-38 298 245
-0.028130481 0.764 -0.006697733 1.5855385e-38 299 245
-0.0267208 0.76200002 -0.0066801999 1.5948612e-38 300 245
-0.025284819 0.759 -0.0066538998 1.6040808e-38 301 245
-0.02389092 0.75700003 -0.0066363667 1.6041509e-38 302 245
-0.022504034 0.755 -0.0066188332 1.6041509e-38 303 245
-0.021152213 0.75400001 -0.0066100666 1.6316653e-38 304 245
-0.019830201 0.75400001 -0.0066100666 1.6408849e-38 305 245
-0.018459093 0.75199997 -0.0065925326 1.6409571e-38 306 245
-0.017072206 0.74900001 -0.0065662335 1.6593962e-38 307 245
-0.01575896 0.74900001 -0.0065662335 1.6595764e-38 308 245
-0.014407139 0.74699998 -0.0065486995 1.6871991e-38 309 245
-0.013079867 0.74599999 -0.0065399334 1.7056019e-38 310 245
-0.011740319 0.74400002 -0.0065223998 1.7332247e-38 311 245
-0.010407786 0.74199998 -0.0065048663 1.7332638e-38 312 245
-0.009106813 0.74199998 -0.0065048663 1.8162759e-38 313 245
-0.0078058392 0.74199998 -0.0065048663 1.8163128e-38 314 245
-0.0064960998 0.741 -0.0064960998 1.7333007e-38 315 245
-0.0051968796 0.741 -0.0064960998 1.7515899e-38 316 245
-0.0038976599 0.741 -0.0064960998 1.6962726e-38 317 245
-0.0025984398 0.741 -0.0064960998 1.7330744e-38 318 245
-0.0012992199 0.741 -0.0064960998 1.7054517e-38 319 245
0 0.741 -0.0064960998 1.7238545e-38 320 245
0.0012992199 0.741 -0.0064960998 1.7054514e-38 321 245
0.0025984398 0.741 -0.0064960998 1.7420788e-38 322 245
0.0038976599 0.741 -0.0064960998 1.7512984e-38 323 245
0.0051968796 0.741 -0.0064960998 1.7420788e-38 324 245
0.0064960998 0.741 -0.0064960998 1.7236757e-38 325 245
0.0077953199 0.741 -0.0064960998 1.7328223e-38 326 245
0.0090945391 0.741 -0.0064960998 1.7051996e-38 327 245
0.010393759 0.741 -0.0064960998 1.7142757e-38 328 245
0.01169298 0.741 -0.0064960998 1.6958365e-38 329 245
0.0129922 0.741 -0.0064960998 1.6499545e-38 330 245
0.01429142 0.741 -0.0064960998 1.640699e-38 331 245
0.01559064 0.741 -0.0064960998 1.6039643e-38 332 245
0.016889861 0.741 -0.0064960998 1.5947449e-38 333 245
0.018189078 0.741 -0.0064960998 1.5946732e-38 334 245
0.019488299 0.741 -0.0064960998 1.5854537e-38 335 245
0.020815572 0.74199998 -0.0065048663 1.5578314e-38 336 245
0.022116546 0.74199998 -0.0065048663 1.5393925e-38 337 245
0.023417519 0.74199998 -0.0065048663 1.5485761e-38 338 245
0.024718491 0.74199998 -0.0065048663 1.5393566e-38 339 245
0.026089599 0.74400002 -0.0065223998 1.5208102e-38 340 245
0.027394081 0.74400002 -0.0065223998 1.5023713e-38 341 245
0.028775707 0.74599999 -0.0065399334 1.4655654e-38 342 245
0.030124018 0.74699998 -0.0065486995 1.4471265e-38 343 245
0.031433757 0.74699998 -0.0065486995 1.4194324e-38 344 245
0.032743499 0.74699998 -0.0065486995 1.410213e-38 345 245
0.034053236 0.74699998 -0.0065486995 1.3642238e-38 346 245
0.03545766 0.74900001 -0.0065662335 1.3642238e-38 347 245
0.036819998 0.75 -0.006575 1.3641531e-38 348 245
0.038236689 0.75199997 -0.0065925326 1.3641531e-38 349 245
0.039555199 0.75199997 -0.0065925326 1.3549025e-38 350 245
0.040873703 0.75199997 -0.0065925326 1.4563535e-38 351 245
0.042304426 0.75400001 -0.0066100666 1.5208256e-38 352 245
0.043626439 0.75400001 -0.0066100666 1.6775221e-38 353 245
-0.033795502 0.77100003 -0.0081109209 1.6409725e-38 295 246
-0.032359518 0.76899999 -0.0080898795 1.6042355e-38 296 246
-0.030930554 0.76700002 -0.00806884 1.5396985e-38 297 246
-0.029547172 0.76599997 -0.0080583189 1.5855754e-38 298 246
-0.028130481 0.764 -0.0080372803 1.5855754e-38 299 246
-0.0267208 0.76200002 -0.0080162399 1.6040458e-38 300 246
-0.025284819 0.759 -0.0079846792 1.6040458e-38 301 246
-0.02389092 0.75700003 -0.0079636406 1.6317375e-38 302 246
-0.022504034 0.755 -0.0079425992 1.6132985e-38 303 246
-0.021152213 0.75400001 -0.00793208 1.631593e-38 304 246
-0.019830201 0.75400001 -0.00793208 1.6500322e-38 305 246
-0.018459093 0.75199997 -0.0079110395 1.6316653e-38 306 246
-0.017095 0.75 -0.00789 1.677763e-38 307 246
-0.01575896 0.74900001 -0.0078794798 1.6686881e-38 308 246
-0.014407139 0.74699998 -0.0078584393 1.6963468e-38 309 246
-0.013079867 0.74599999 -0.0078479191 1.7148234e-38 310 246
-0.011740319 0.74400002 -0.0078268806 1.7793604e-38 311 246
-0.010407786 0.74199998 -0.0078058392 1.751885e-38 312 246
-0.009106813 0.74199998 -0.0078058392 1.7887632e-38 313 246
-0.0078058392 0.74199998 -0.0078058392 1.7612487e-38 314 246
-0.0064960998 0.741 -0.0077953199 1.7336261e-38 315 246
-0.0051968796 0.741 -0.0077953199 1.7608852e-38 316 246
-0.0038976599 0.741 -0.0077953199 1.7056039e-38 317 246
-0.0025984398 0.741 -0.0077953199 1.7331505e-38 318 246
-0.0012992199 0.741 -0.0077953199 1.7055278e-38 319 246
0 0.741 -0.0077953199 1.7239644e-38 320 246
0.0012992199 0.741 -0.0077953199 1.6963416e-38 321 246
0.0025984398 0.741 -0.0077953199 1.733004e-38 322 246
0.0038976599 0.741 -0.0077953199 1.733004e-38 323 246
0.0051968796 0.741 -0.0077953199 1.7329321e-38 324 246
0.0064960998 0.741 -0.0077953199 1.7237126e-38 325 246
0.0077953199 0.741 -0.0077953199 1.7144211e-38 326 246
0.0090945391 0.741 -0.0077953199 1.7144211e-38 327 246
0.010393759 0.741 -0.0077953199 1.6776148e-38 328 246
0.01169298 0.741 -0.0077953199 1.6591756e-38 329 246
0.0129922 0.741 -0.0077953199 1.631589e-38 330 246
0.01429142 0.741 -0.0077953199 1.6223694e-38 331 246
0.01559064 0.741 -0.0077953199 1.613185e-38 332 246
0.016889861 0.741 -0.0077953199 1.5763069e-38 333 246
0.018189078 0.741 -0.0077953199 1.5671229e-38 334 246
0.019488299 0.741 -0.0077953199 1.5394284e-38 335 246
0.020815572 0.74199998 -0.0078058392 1.5669074e-38 336 246
0.022116546 0.74199998 -0.0078058392 1.5576879e-38 337 246
0.023417519 0.74199998 -0.0078058392 1.5485412e-38 338 246
0.02478512 0.74400002 -0.0078268806 1.5485412e-38 339 246
0.026089599 0.74400002 -0.0078268806 1.5025157e-38 340 246
0.027467718 0.74599999 -0.0078479191 1.4932602e-38 341 246
0.028775707 0.74599999 -0.0078479191 1.4472702e-38 342 246
0.030124018 0.74699998 -0.0078584393 1.4287953e-38 343 246
0.031433757 0.74699998 -0.0078584393 1.4011372e-38 344 246
0.032743499 0.74699998 -0.0078584393 1.3734788e-38 345 246
0.034053236 0.74699998 -0.0078584393 1.3642235e-38 346 246
0.03545766 0.74900001 -0.0078794798 1.3458205e-38 347 246
0.036819998 0.75 -0.00789 1.3641178e-38 348 246
0.038236689 0.75199997 -0.0079110395 1.3733374e-38 349 246
0.039555199 0.75199997 -0.0079110395 1.3548671e-38 350 246
0.040873703 0.75199997 -0.0079110395 1.4470986e-38 351 246
0.042304426 0.75400001 -0.00793208 1.511606e-38 352 246
0.043626439 0.75400001 -0.00793208 1.659119e-38 353 246
-0.032359518 0.76899999 -0.0094381925 1.6133472e-38 296 247
-0.030930554 0.76700002 -0.0094136465 1.5488102e-38 297 247
-0.029547172 0.76599997 -0.0094013726 1.5855398e-38 298 247
-0.028130481 0.764 -0.0093768267 1.5763202e-38 299 247
-0.0267208 0.76200002 -0.0093522798 1.5856789e-38 300 247
-0.025351444 0.76099998 -0.0093400059 1.5856789e-38 301 247
-0.02389092 0.75700003 -0.0092909131 1.6132635e-38 302 247
-0.022504034 0.755 -0.0092663663 1.6040439e-38 303 247
-0.021180267 0.755 -0.0092663663 1.6132988e-38 304 247
-0.019830201 0.75400001 -0.0092540924 1.6132988e-38 305 247
-0.018459093 0.75199997 -0.0092295464 1.6134429e-38 306 247
-0.017095 0.75 -0.0092049995 1.6226624e-38 307 247
-0.01575896 0.74900001 -0.0091927266 1.6502509e-38 308 247
-0.014407139 0.74699998 -0.0091681797 1.687129e-38 309 247
-0.013079867 0.74599999 -0.0091559067 1.696495e-38 310 247
-0.011740319 0.74400002 -0.0091313599 1.7518124e-38 311 247
-0.01043584 0.74400002 -0.0091313599 1.7887279e-38 312 247
-0.009106813 0.74199998 -0.009106813 1.7611052e-38 313 247
-0.0078058392 0.74199998 -0.009106813 1.733661e-38 314 247
-0.0065048663 0.74199998 -0.009106813 1.7244414e-38 315 247
-0.0051968796 0.741 -0.0090945391 1.7517743e-38 316 247
-0.0038976599 0.741 -0.0090945391 1.71486e-38 317 247
-0.0025984398 0.741 -0.0090945391 1.7515899e-38 318 247
-0.0012992199 0.741 -0.0090945391 1.7054922e-38 319 247
0 0.741 -0.0090945391 1.7238921e-38 320 247
0.0012992199 0.741 -0.0090945391 1.7146725e-38 321 247
0.0025984398 0.741 -0.0090945391 1.7146725e-38 322 247
0.0038976599 0.741 -0.0090945391 1.7146725e-38 323 247
0.0051968796 0.741 -0.0090945391 1.7237126e-38 324 247
0.0064960998 0.741 -0.0090945391 1.714493e-38 325 247
0.0077953199 0.741 -0.0090945391 1.7143855e-38 326 247
0.0090945391 0.741 -0.0090945391 1.7051658e-38 327 247
0.010393759 0.741 -0.0090945391 1.6683949e-38 328 247
0.01169298 0.741 -0.0090945391 1.6591754e-38 329 247
0.0129922 0.741 -0.0090945391 1.6407012e-38 330 247
0.01429142 0.741 -0.0090945391 1.6222621e-38 331 247
0.01559064 0.741 -0.0090945391 1.6038951e-38 332 247
0.016889861 0.741 -0.0090945391 1.5762366e-38 333 247
0.018189078 0.741 -0.0090945391 1.5853467e-38 334 247
0.019488299 0.741 -0.0090945391 1.5669074e-38 335 247
0.020815572 0.74199998 -0.009106813 1.5576879e-38 336 247
0.022116546 0.74199998 -0.009106813 1.5576879e-38 337 247
0.023417519 0.74199998 -0.009106813 1.5393579e-38 338 247
0.02478512 0.74400002 -0.0091313599 1.5301383e-38 339 247
0.026159734 0.74599999 -0.0091559067 1.5208469e-38 340 247
0.027467718 0.74599999 -0.0091559067 1.4932241e-38 341 247
0.028775707 0.74599999 -0.0091559067 1.4838966e-38 342 247
0.030124018 0.74699998 -0.0091681797 1.4562742e-38 343 247
0.031433757 0.74699998 -0.0091681797 1.4377995e-38 344 247
0.032743499 0.74699998 -0.0091681797 1.4193606e-38 345 247
0.034144413 0.74900001 -0.0091927266 1.3642593e-38 346 247
0.035505001 0.75 -0.0092049995 1.3642593e-38 347 247
0.036918186 0.75199997 -0.0092295464 1.3458232e-38 348 247
0.038236689 0.75199997 -0.0092295464 1.3550427e-38 349 247
0.039555199 0.75199997 -0.0092295464 1.3733065e-38 350 247
0.040873703 0.75199997 -0.0092295464 1.4747216e-38 351 247
0.042304426 0.75400001 -0.0092540924 1.5116776e-38 352 247
-0.030930554 0.76700002 -0.010758453 1.5488105e-38 297 248
-0.029547172 0.76599997 -0.010744425 1.585505e-38 298 248
-0.028130481 0.764 -0.010716373 1.585505e-38 299 248
-0.0267208 0.76200002 -0.01068832 1.5947558e-38 300 248
-0.025351444 0.76099998 -0.010674292 1.6039754e-38 301 248
-0.02389092 0.75700003 -0.010618187 1.5948963e-38 302 248
-0.022504034 0.755 -0.010590133 1.5948963e-38 303 248
-0.021180267 0.755 -0.010590133 1.5948593e-38 304 248
-0.0198565 0.755 -0.010590133 1.6040788e-38 305 248
-0.018508185 0.75400001 -0.010576107 1.6132985e-38 306 248
-0.017095 0.75 -0.01052 1.6501766e-38 307 248
-0.01575896 0.74900001 -0.010505973 1.6501782e-38 308 248
-0.014407139 0.74699998 -0.010477919 1.696312e-38 309 248
-0.013079867 0.74599999 -0.010463892 1.6690156e-38 310 248
-0.011740319 0.74400002 -0.01043584 1.6967103e-38 311 248
-0.01043584 0.74400002 -0.01043584 1.7151146e-38 312 248
-0.009106813 0.74199998 -0.010407786 1.7151146e-38 313 248
-0.0078058392 0.74199998 -0.010407786 1.7334456e-38 314 248
-0.0065048663 0.74199998 -0.010407786 1.724226e-38 315 248
-0.0051968796 0.741 -0.010393759 1.7332638e-38 316 248
-0.0038976599 0.741 -0.010393759 1.7056051e-38 317 248
-0.0025984398 0.741 -0.010393759 1.7332247e-38 318 248
-0.0012992199 0.741 -0.010393759 1.6963824e-38 319 248
0 0.741 -0.010393759 1.7331505e-38 320 248
0.0012992199 0.741 -0.010393759 1.6962724e-38 321 248
0.0025984398 0.741 -0.010393759 1.7238223e-38 322 248
0.0038976599 0.741 -0.010393759 1.7238223e-38 323 248
0.0051968796 0.741 -0.010393759 1.732934e-38 324 248
0.0064960998 0.741 -0.010393759 1.7236785e-38 325 248
0.0077953199 0.741 -0.010393759 1.7052025e-38 326 248
0.0090945391 0.741 -0.010393759 1.6867993e-38 327 248
0.010393759 0.741 -0.010393759 1.6683602e-38 328 248
0.01169298 0.741 -0.010393759 1.6591406e-38 329 248
0.0129922 0.741 -0.010393759 1.6222991e-38 330 248
0.01429142 0.741 -0.010393759 1.6130794e-38 331 248
0.01559064 0.741 -0.010393759 1.6037876e-38 332 248
0.016889861 0.741 -0.010393759 1.5945681e-38 333 248
0.018189078 0.741 -0.010393759 1.5854186e-38 334 248
0.0195146 0.74199998 -0.010407786 1.5577958e-38 335 248
0.020815572 0.74199998 -0.010407786 1.5486478e-38 336 248
0.022116546 0.74199998 -0.010407786 1.5394284e-38 337 248
0.023480639 0.74400002 -0.01043584 1.5301386e-38 338 248
0.02478512 0.74400002 -0.01043584 1.5116996e-38 339 248
0.026159734 0.74599999 -0.010463892 1.4932252e-38 340 248
0.027467718 0.74599999 -0.010463892 1.4840056e-38 341 248
0.028775707 0.74599999 -0.010463892 1.4654942e-38 342 248
0.030124018 0.74699998 -0.010477919 1.4470551e-38 343 248
0.031433757 0.74699998 -0.010477919 1.4194324e-38 344 248
0.032743499 0.74699998 -0.010477919 1.3917382e-38 345 248
0.034144413 0.74900001 -0.010505973 1.3641517e-38 346 248
0.035505001 0.75 -0.01052 1.3733711e-38 347 248
0.036918186 0.75199997 -0.010548052 1.3457881e-38 348 248
0.038236689 0.75199997 -0.010548052 1.3642274e-38 349 248
0.039555199 0.75199997 -0.010548052 1.4101496e-38 350 248
0.040873703 0.75199997 -0.010548052 1.4931258e-38 351 248
0.042304426 0.75400001 -0.010576107 1.5208256e-38 352 248
-0.030930554 0.76700002 -0.01210326 1.5672862e-38 297 249
-0.029547172 0.76599997 -0.012087479 1.5763928e-38 298 249
-0.028130481 0.764 -0.01205592 1.5487341e-38 299 249
-0.026685731 0.76099998 -0.012008579 1.5947556e-38 300 249
-0.025284819 0.759 -0.01197702 1.5947556e-38 301 249
-0.02389092 0.75700003 -0.01194546 1.5948245e-38 302 249
-0.022504034 0.755 -0.011913899 1.6040442e-38 303 249
-0.021180267 0.755 -0.011913899 1.6132261e-38 304 249
-0.0198565 0.755 -0.011913899 1.6316653e-38 305 249
-0.018508185 0.75400001 -0.01189812 1.6041509e-38 306 249
-0.017095 0.75 -0.011835 1.6226258e-38 307 249
-0.01575896 0.74900001 -0.01181922 1.6135154e-38 308 249
-0.014407139 0.74699998 -0.011787659 1.6503578e-38 309 249
-0.013079867 0.74599999 -0.011771879 1.6505396e-38 310 249
-0.011740319 0.74400002 -0.011740319 1.6782341e-38 311 249
-0.01043584 0.74400002 -0.011740319 1.6874552e-38 312 249
-0.009106813 0.74199998 -0.01170876 1.6874552e-38 313 249
-0.0078058392 0.74199998 -0.01170876 1.7149697e-38 314 249
-0.0065048663 0.74199998 -0.01170876 1.6964947e-38 315 249
-0.0052038929 0.74199998 -0.01170876 1.7331196e-38 316 249
-0.0038976599 0.741 -0.01169298 1.7331196e-38 317 249
-0.0025984398 0.741 -0.01169298 1.7331174e-38 318 249
-0.0012992199 0.741 -0.01169298 1.7146783e-38 319 249
0 0.741 -0.01169298 1.7147123e-38 320 249
0.0012992199 0.741 -0.01169298 1.7054569e-38 321 249
0.0025984398 0.741 -0.01169298 1.7238234e-38 322 249
0.0038976599 0.741 -0.01169298 1.7238234e-38 323 249
0.0051968796 0.741 -0.01169298 1.7145671e-38 324 249
0.0064960998 0.741 -0.01169298 1.696128e-38 325 249
0.0077953199 0.741 -0.01169298 1.7051305e-38 326 249
0.0090945391 0.741 -0.01169298 1.695911e-38 327 249
0.010393759 0.741 -0.01169298 1.6591403e-38 328 249
0.01169298 0.741 -0.01169298 1.6499208e-38 329 249
0.0129922 0.741 -0.01169298 1.622227e-38 330 249
0.01429142 0.741 -0.01169298 1.6130075e-38 331 249
0.01559064 0.741 -0.01169298 1.5762368e-38 332 249
0.016889861 0.741 -0.01169298 1.5670173e-38 333 249
0.018213626 0.74199998 -0.01170876 1.5578325e-38 334 249
0.0195146 0.74199998 -0.01170876 1.5393932e-38 335 249
0.020815572 0.74199998 -0.01170876 1.5485409e-38 336 249
0.022116546 0.74199998 -0.01170876 1.5393213e-38 337 249
0.023480639 0.74400002 -0.011740319 1.5116999e-38 338 249
0.024851745 0.74599999 -0.011771879 1.5024803e-38 339 249
0.026159734 0.74599999 -0.011771879 1.4656744e-38 340 249
0.027504537 0.74699998 -0.011787659 1.4564547e-38 341 249
0.028814279 0.74699998 -0.011787659 1.438015e-38 342 249
0.030124018 0.74699998 -0.011787659 1.4011729e-38 343 249
0.031517919 0.74900001 -0.01181922 1.410213e-38 344 249
0.032831166 0.74900001 -0.01181922 1.3917382e-38 345 249
0.034144413 0.74900001 -0.01181922 1.3642238e-38 346 249
0.035505001 0.75 -0.011835 1.3642238e-38 347 249
0.036918186 0.75199997 -0.011866559 1.3457881e-38 348 249
0.038236689 0.75199997 -0.011866559 1.3734828e-38 349 249
0.039660402 0.75400001 -0.01189812 1.3917831e-38 350 249
0.040982414 0.75400001 -0.01189812 1.4839789e-38 351 249
0.042304426 0.75400001 -0.01189812 1.5483413e-38 352 249
-0.029547172 0.76599997 -0.013430533 1.5581336e-38 298 250
-0.028130481 0.764 -0.013395466 1.5119998e-38 299 250
-0.026685731 0.76099998 -0.013342866 1.5855356e-38 300 250
-0.025284819 0.759 -0.0133078 1.5855356e-38 301 250
-0.02389092 0.75700003 -0.013272733 1.5948609e-38 302 250
-0.022504034 0.755 -0.013237666 1.5948609e-38 303 250
-0.021180267 0.755 -0.013237666 1.5949665e-38 304 250
-0.0198565 0.755 -0.013237666 1.5949665e-38 305 250
-0.018508185 0.75400001 -0.013220133 1.6041862e-38 306 250
-0.017095 0.75 -0.01315 1.6134057e-38 307 250
-0.01575896 0.74900001 -0.013132467 1.6135152e-38 308 250
-0.014407139 0.74699998 -0.013097399 1.6411739e-38 309 250
-0.013097399 0.74699998 -0.013097399 1.6229165e-38 310 250
-0.011771879 0.74599999 -0.013079867 1.6505752e-38 311 250
-0.01043584 0.74400002 -0.0130448 1.6781985e-38 312 250
-0.009106813 0.74199998 -0.013009733 1.668979e-38 313 250
-0.0078058392 0.74199998 -0.013009733 1.7148247e-38 314 250
-0.0065048663 0.74199998 -0.013009733 1.687202e-38 315 250
-0.0052038929 0.74199998 -0.013009733 1.6963489e-38 316 250
-0.0039029196 0.74199998 -0.013009733 1.6963489e-38 317 250
-0.0026019465 0.74199998 -0.013009733 1.7055313e-38 318 250
-0.0013009732 0.74199998 -0.013009733 1.6963117e-38 319 250
0 0.74199998 -0.013009733 1.6963821e-38 320 250
0.0013009732 0.74199998 -0.013009733 1.6963821e-38 321 250
0.0026019465 0.74199998 -0.013009733 1.7055293e-38 322 250
0.0038976599 0.741 -0.0129922 1.7055293e-38 323 250
