# .PCD v.7 - Point Cloud Data file format
FIELDS x y z rgb imX imY
SIZE 4 4 4 4 4 4
TYPE F F F F F F
COUNT 1 1 1 1 1 1
WIDTH 828
HEIGHT 1
VIEWPOINT 0 0 0 1 0 0 0
POINTS 828
DATA ascii
-0.0036609597 0.69599998 -0.0061015999 5.05672e-39 317 245
-0.0024441467 0.69700003 -0.0061103669 5.0574389e-39 318 245
-0.0012220733 0.69700003 -0.0061103669 5.0574389e-39 319 245
0 0.69700003 -0.0061103669 4.9663223e-39 320 245
0.0012238267 0.69800001 -0.006119133 4.9663223e-39 321 245
0.0024476533 0.69800001 -0.006119133 4.8737679e-39 322 245
0.0036714801 0.69800001 -0.006119133 4.9663223e-39 323 245
0.0049093333 0.69999999 -0.0061366665 4.9659663e-39 324 245
0.0061366665 0.69999999 -0.0061366665 4.9659663e-39 325 245
0.0073745195 0.70099998 -0.0061454331 5.057083e-39 326 245
0.0086281532 0.70300001 -0.0061629666 4.9648873e-39 327 245
0.0098607466 0.70300001 -0.0061629666 4.9648901e-39 328 245
0.011109119 0.704 -0.0061717331 4.9648901e-39 329 245
0.012343466 0.704 -0.0061717331 4.6904613e-39 330 245
0.013616386 0.70599997 -0.0061892662 4.6904613e-39 331 245
0.014854239 0.70599997 -0.0061892662 4.5979097e-39 332 245
0.016114887 0.70700002 -0.0061980332 4.6901053e-39 333 245
0.017379038 0.708 -0.0062067998 4.783387e-39 334 245
0.018672999 0.70999998 -0.0062243328 5.3365593e-39 335 245
0.019917866 0.70999998 -0.0062243328 5.2475951e-39 336 245
0.021162732 0.70999998 -0.0062243328 8.9354203e-39 337 245
0.022502279 0.713 -0.0062506334 1.2624668e-38 338 245
-0.052333489 0.72799999 -0.0076585598 1.7145143e-38 279 246
-0.050636265 0.722 -0.0075954394 1.3642069e-38 280 246
-0.0492336 0.72000003 -0.0075743999 9.0319291e-39 281 246
-0.04790457 0.71899998 -0.0075638802 3.9507382e-39 282 246
-0.046643924 0.71899998 -0.0075638802 5.241477e-39 283 246
-0.045257039 0.71700001 -0.0075428397 5.8846828e-39 284 246
-0.043938532 0.71600002 -0.00753232 5.7002902e-39 285 246
-0.042504307 0.713 -0.0075007593 5.9743603e-39 286 246
-0.041080594 0.70999998 -0.0074691991 6.3427841e-39 287 246
-0.039723519 0.708 -0.0074481601 6.5253831e-39 288 246
-0.038482159 0.708 -0.0074481601 6.3409905e-39 289 246
-0.037188202 0.70700002 -0.0074376399 5.8818088e-39 290 246
-0.035897743 0.70599997 -0.0074271196 5.7896131e-39 291 246
-0.034561705 0.704 -0.0074060797 5.2393134e-39 292 246
-0.033280019 0.70300001 -0.0073955595 5.2393134e-39 293 246
-0.031956252 0.70099998 -0.0073745195 5.1485597e-39 294 246
-0.030683333 0.69999999 -0.0073639993 5.4251452e-39 295 246
-0.029371841 0.69800001 -0.0073429602 5.7017335e-39 296 246
-0.028148014 0.69800001 -0.0073429602 6.0705146e-39 297 246
-0.026885614 0.69700003 -0.00733244 6.7162582e-39 298 246
-0.025663542 0.69700003 -0.00733244 9.9431052e-39 299 246
-0.024441468 0.69700003 -0.00733244 1.0963389e-38 300 246
-0.023219392 0.69700003 -0.00733244 1.3821454e-38 301 246
-0.02199732 0.69700003 -0.00733244 1.1882478e-38 302 246
-0.020775247 0.69700003 -0.00733244 8.4712402e-39 303 246
-0.019525118 0.69599998 -0.0073219193 5.5256393e-39 304 246
-0.0182522 0.69400001 -0.0073008798 4.2349005e-39 305 246
-0.017035386 0.69400001 -0.0073008798 5.3336769e-39 306 246
-0.015818574 0.69400001 -0.0073008798 4.6883075e-39 307 246
-0.01460176 0.69400001 -0.0073008798 4.9638055e-39 308 246
-0.013384946 0.69400001 -0.0073008798 4.9638055e-39 309 246
-0.012168133 0.69400001 -0.0073008798 4.7801261e-39 310 246
-0.01095132 0.69400001 -0.0073008798 4.8723232e-39 311 246
-0.0097345067 0.69400001 -0.0073008798 5.0549152e-39 312 246
-0.0085176928 0.69400001 -0.0073008798 5.1474709e-39 313 246
-0.0073219193 0.69599998 -0.0073219193 5.1478339e-39 314 246
-0.0061015999 0.69599998 -0.0073219193 5.1478339e-39 315 246
-0.0048812795 0.69599998 -0.0073219193 4.9645216e-39 316 246
-0.0036609597 0.69599998 -0.0073219193 5.0567172e-39 317 246
-0.0024441467 0.69700003 -0.00733244 5.05672e-39 318 246
-0.0012220733 0.69700003 -0.00733244 5.05672e-39 319 246
0 0.69700003 -0.00733244 5.0574389e-39 320 246
0.0012238267 0.69800001 -0.0073429602 5.0574389e-39 321 246
0.0024476533 0.69800001 -0.0073429602 4.8737679e-39 322 246
0.0036714801 0.69800001 -0.0073429602 4.8737679e-39 323 246
0.0048953067 0.69800001 -0.0073429602 4.9652433e-39 324 246
0.0061366665 0.69999999 -0.0073639993 4.9652433e-39 325 246
0.0073639993 0.69999999 -0.0073639993 4.9648873e-39 326 246
0.0086036054 0.70099998 -0.0073745195 4.9648873e-39 327 246
0.0098607466 0.70300001 -0.0073955595 4.6893794e-39 328 246
0.011109119 0.704 -0.0074060797 4.7815751e-39 329 246
0.012343466 0.704 -0.0074060797 4.6893766e-39 330 246
0.013616386 0.70599997 -0.0074271196 4.597181e-39 331 246
0.014854239 0.70599997 -0.0074271196 4.5060672e-39 332 246
0.016114887 0.70700002 -0.0074376399 4.5982628e-39 333 246
0.017379038 0.708 -0.0074481601 4.8744896e-39 334 246
0.018672999 0.70999998 -0.0074691991 5.1514366e-39 335 246
0.019917866 0.70999998 -0.0074691991 5.059957e-39 336 246
0.021162732 0.70999998 -0.0074691991 9.6697385e-39 337 246
0.022439159 0.71100003 -0.0074797203 1.3269314e-38 338 246
-0.051902171 0.722 -0.0088613462 1.7142256e-38 279 247
-0.050496001 0.72000003 -0.0088367993 1.4008325e-38 280 247
-0.049165215 0.71899998 -0.0088245263 9.3063482e-39 281 247
-0.04777132 0.71700001 -0.0087999795 4.6861396e-39 282 247
-0.046514176 0.71700001 -0.0087999795 5.7002902e-39 283 247
-0.045193922 0.71600002 -0.0087877065 5.9768813e-39 284 247
-0.043938532 0.71600002 -0.0087877065 5.4237075e-39 285 247
-0.042504307 0.713 -0.0087508867 5.6059478e-39 286 247
-0.041080594 0.70999998 -0.0087140659 5.6059478e-39 287 247
-0.039723519 0.708 -0.008689519 5.6059478e-39 288 247
-0.038482159 0.708 -0.008689519 5.5137521e-39 289 247
-0.037188202 0.70700002 -0.008677247 5.6063009e-39 290 247
-0.035897743 0.70599997 -0.0086649731 5.6063009e-39 291 247
-0.034561705 0.704 -0.0086404262 5.1471178e-39 292 247
-0.033280019 0.70300001 -0.0086281532 5.2393134e-39 293 247
-0.031956252 0.70099998 -0.0086036054 4.9638153e-39 294 247
-0.030683333 0.69999999 -0.0085913334 5.1485653e-39 295 247
-0.029371841 0.69800001 -0.0085667865 5.2411239e-39 296 247
-0.028148014 0.69800001 -0.0085667865 5.8864933e-39 297 247
-0.026885614 0.69700003 -0.0085545136 6.2578066e-39 298 247
-0.025663542 0.69700003 -0.0085545136 7.9169678e-39 299 247
-0.024441468 0.69700003 -0.0085545136 9.2131212e-39 300 247
-0.023219392 0.69700003 -0.0085545136 1.1610208e-38 301 247
-0.02199732 0.69700003 -0.0085545136 1.0222947e-38 302 247
-0.020775247 0.69700003 -0.0085545136 5.7979172e-39 303 247
-0.019525118 0.69599998 -0.0085422397 5.6117071e-39 304 247
-0.0182522 0.69400001 -0.0085176928 5.3351216e-39 305 247
-0.017035386 0.69400001 -0.0085176928 5.2396792e-39 306 247
-0.015818574 0.69400001 -0.0085176928 5.1474835e-39 307 247
-0.01460176 0.69400001 -0.0085176928 4.8712498e-39 308 247
-0.013384946 0.69400001 -0.0085176928 4.7790541e-39 309 247
-0.012168133 0.69400001 -0.0085176928 4.779773e-39 310 247
-0.01095132 0.69400001 -0.0085176928 4.779773e-39 311 247
-0.0097345067 0.69400001 -0.0085176928 4.5957419e-39 312 247
-0.0085176928 0.69400001 -0.0085176928 4.779773e-39 313 247
-0.0073219193 0.69599998 -0.0085422397 4.8712498e-39 314 247
-0.0061015999 0.69599998 -0.0085422397 4.8712498e-39 315 247
-0.0048812795 0.69599998 -0.0085422397 4.8719728e-39 316 247
-0.0036609597 0.69599998 -0.0085422397 4.8719728e-39 317 247
-0.0024441467 0.69700003 -0.0085545136 4.9641713e-39 318 247
-0.0012220733 0.69700003 -0.0085545136 4.9641713e-39 319 247
0 0.69700003 -0.0085545136 4.9648901e-39 320 247
0.0012220733 0.69700003 -0.0085545136 4.780859e-39 321 247
0.0024441467 0.69700003 -0.0085545136 4.6890235e-39 322 247
0.0036714801 0.69800001 -0.0085667865 4.6890235e-39 323 247
0.0048953067 0.69800001 -0.0085667865 4.5057113e-39 324 247
0.0061366665 0.69999999 -0.0085913334 4.5057113e-39 325 247
0.0073639993 0.69999999 -0.0085913334 4.780859e-39 326 247
0.0086036054 0.70099998 -0.0086036054 4.6883047e-39 327 247
0.0098607466 0.70300001 -0.0086281532 4.780859e-39 328 247
0.011109119 0.704 -0.0086404262 4.6883047e-39 329 247
0.012343466 0.704 -0.0086404262 4.4135156e-39 330 247
0.013616386 0.70599997 -0.0086649731 4.3213186e-39 331 247
0.014854239 0.70599997 -0.0086649731 4.3209627e-39 332 247
0.016114887 0.70700002 -0.008677247 4.4135184e-39 333 247
0.017379038 0.708 -0.008689519 4.6908242e-39 334 247
0.018672999 0.70999998 -0.0087140659 4.8752168e-39 335 247
0.019917866 0.70999998 -0.0087140659 4.4138688e-39 336 247
0.021162732 0.70999998 -0.0087140659 9.2080415e-39 337 247
0.022439159 0.71100003 -0.0087263398 1.3362587e-38 338 247
-0.051902171 0.722 -0.010127253 1.7418841e-38 279 248
-0.050496001 0.72000003 -0.010099201 1.4559697e-38 280 248
-0.049165215 0.71899998 -0.010085173 9.9499155e-39 281 248
-0.04777132 0.71700001 -0.01005712 4.7765374e-39 282 248
-0.046514176 0.71700001 -0.01005712 5.7906879e-39 283 248
-0.045193922 0.71600002 -0.010043093 5.9758023e-39 284 248
-0.043815799 0.71399999 -0.01001504 5.6070197e-39 285 248
-0.042385083 0.71100003 -0.0099729598 5.5141025e-39 286 248
-0.041080594 0.70999998 -0.0099589331 5.5141025e-39 287 248
-0.039723519 0.708 -0.0099308798 5.8810857e-39 288 248
-0.038427804 0.70700002 -0.0099168532 5.6966958e-39 289 248
-0.037188202 0.70700002 -0.0099168532 5.5141025e-39 290 248
-0.035897743 0.70599997 -0.0099028256 5.5141025e-39 291 248
-0.034561705 0.704 -0.0098747732 5.1471178e-39 292 248
-0.033280019 0.70300001 -0.0098607466 5.1471178e-39 293 248
-0.031956252 0.70099998 -0.0098326923 5.0545648e-39 294 248
-0.030683333 0.69999999 -0.0098186666 5.2393162e-39 295 248
-0.029371841 0.69800001 -0.0097906133 5.1485625e-39 296 248
-0.028148014 0.69800001 -0.0097906133 5.6095407e-39 297 248
-0.026885614 0.69700003 -0.0097765867 5.7968214e-39 298 248
-0.025663542 0.69700003 -0.0097765867 6.0734083e-39 299 248
-0.024441468 0.69700003 -0.0097765867 6.1674214e-39 300 248
-0.023219392 0.69700003 -0.0097765867 6.7205952e-39 301 248
-0.02199732 0.69700003 -0.0097765867 6.4407685e-39 302 248
-0.020775247 0.69700003 -0.0097765867 5.6106491e-39 303 248
-0.019525118 0.69599998 -0.0097625591 5.7013832e-39 304 248
-0.0182522 0.69400001 -0.0097345067 5.240405e-39 305 248
-0.017035386 0.69400001 -0.0097345067 5.1474835e-39 306 248
-0.015818574 0.69400001 -0.0097345067 4.8712554e-39 307 248
-0.014643839 0.69599998 -0.0097625591 4.8712498e-39 308 248
-0.013384946 0.69400001 -0.0097345067 4.7790541e-39 309 248
-0.012168133 0.69400001 -0.0097345067 4.6868585e-39 310 248
-0.01095132 0.69400001 -0.0097345067 4.6868585e-39 311 248
-0.0097345067 0.69400001 -0.0097345067 4.779773e-39 312 248
-0.0085176928 0.69400001 -0.0097345067 4.779773e-39 313 248
-0.0073219193 0.69599998 -0.0097625591 4.8716057e-39 314 248
-0.0061015999 0.69599998 -0.0097625591 4.8716057e-39 315 248
-0.0048812795 0.69599998 -0.0097625591 4.8712498e-39 316 248
-0.0036609597 0.69599998 -0.0097625591 4.8712498e-39 317 248
-0.0024441467 0.69700003 -0.0097765867 4.8712526e-39 318 248
-0.0012220733 0.69700003 -0.0097765867 4.9634496e-39 319 248
0 0.69700003 -0.0097765867 4.8719756e-39 320 248
0.0012220733 0.69700003 -0.0097765867 4.8719756e-39 321 248
0.0024441467 0.69700003 -0.0097765867 4.7794199e-39 322 248
0.0036714801 0.69800001 -0.0097906133 4.7794199e-39 323 248
0.0048953067 0.69800001 -0.0097906133 4.5964636e-39 324 248
0.0061366665 0.69999999 -0.0098186666 4.5964636e-39 325 248
0.0073639993 0.69999999 -0.0098186666 4.5953888e-39 326 248
0.0086281532 0.70300001 -0.0098607466 4.5953888e-39 327 248
0.0098747732 0.704 -0.0098747732 4.5953888e-39 328 248
0.011109119 0.704 -0.0098747732 4.5953888e-39 329 248
0.012343466 0.704 -0.0098747732 4.3213158e-39 330 248
0.013616386 0.70599997 -0.0099028256 4.3213158e-39 331 248
0.014854239 0.70599997 -0.0099028256 4.4127954e-39 332 248
0.01613768 0.708 -0.0099308798 4.4127954e-39 333 248
0.017379038 0.708 -0.0099308798 4.5979097e-39 334 248
0.018672999 0.70999998 -0.0099589331 4.6901053e-39 335 248
0.019917866 0.70999998 -0.0099589331 4.4120695e-39 336 248
0.021162732 0.70999998 -0.0099589331 9.2062422e-39 337 248
0.022439159 0.71100003 -0.0099729598 1.3545902e-38 338 248
-0.051902171 0.722 -0.01139316 1.7510317e-38 279 249
-0.050496001 0.72000003 -0.011361601 1.446858e-38 280 249
-0.049165215 0.71899998 -0.01134582 1.0227581e-38 281 249
-0.04777132 0.71700001 -0.01131426 4.869805e-39 282 249
-0.046514176 0.71700001 -0.01131426 5.4229788e-39 283 249
-0.045193922 0.71600002 -0.01129848 5.7924844e-39 284 249
-0.043815799 0.71399999 -0.011266919 5.3315063e-39 285 249
-0.042385083 0.71100003 -0.01121958 5.4226257e-39 286 249
-0.041080594 0.70999998 -0.011203799 5.3304301e-39 287 249
-0.039723519 0.708 -0.01117224 5.4219096e-39 288 249
-0.038427804 0.70700002 -0.011156459 5.3297126e-39 289 249
-0.037135597 0.70599997 -0.011140679 5.5141053e-39 290 249
-0.035897743 0.70599997 -0.011140679 5.4219096e-39 291 249
-0.034561705 0.704 -0.011109119 5.0545648e-39 292 249
-0.033280019 0.70300001 -0.01109334 5.0545648e-39 293 249
-0.031956252 0.70099998 -0.011061779 4.8712526e-39 294 249
-0.030683333 0.69999999 -0.011045999 4.9634496e-39 295 249
-0.029371841 0.69800001 -0.01101444 5.1474863e-39 296 249
-0.028148014 0.69800001 -0.01101444 5.4240732e-39 297 249
-0.026924185 0.69800001 -0.01101444 5.6109854e-39 298 249
-0.025663542 0.69700003 -0.01099866 5.8872136e-39 299 249
-0.024441468 0.69700003 -0.01099866 5.7039041e-39 300 249
-0.023219392 0.69700003 -0.01099866 5.8882954e-39 301 249
-0.02199732 0.69700003 -0.01099866 6.0705385e-39 302 249
-0.020775247 0.69700003 -0.01099866 5.7939502e-39 303 249
-0.019525118 0.69599998 -0.010982879 5.4244418e-39 304 249
-0.018304799 0.69599998 -0.010982879 5.0556607e-39 305 249
-0.017084479 0.69599998 -0.010982879 4.9634524e-39 306 249
-0.015818574 0.69400001 -0.01095132 4.8712554e-39 307 249
-0.01460176 0.69400001 -0.01095132 4.8712498e-39 308 249
-0.013423519 0.69599998 -0.010982879 4.7790541e-39 309 249
-0.012168133 0.69400001 -0.01095132 4.6868585e-39 310 249
-0.01095132 0.69400001 -0.01095132 4.6868585e-39 311 249
-0.0097625591 0.69599998 -0.010982879 4.7790541e-39 312 249
-0.0085422397 0.69599998 -0.010982879 4.8712498e-39 313 249
-0.0073219193 0.69599998 -0.010982879 4.7790541e-39 314 249
-0.0061015999 0.69599998 -0.010982879 4.7790541e-39 315 249
-0.0048812795 0.69599998 -0.010982879 4.779773e-39 316 249
-0.00366622 0.69700003 -0.01099866 4.5957419e-39 317 249
-0.0024441467 0.69700003 -0.01099866 4.7797758e-39 318 249
-0.0012220733 0.69700003 -0.01099866 4.5957447e-39 319 249
0 0.69700003 -0.01099866 4.5961076e-39 320 249
0.0012220733 0.69700003 -0.01099866 4.503912e-39 321 249
0.0024476533 0.69800001 -0.01101444 4.3205997e-39 322 249
0.0036714801 0.69800001 -0.01101444 4.3205997e-39 323 249
0.0048953067 0.69800001 -0.01101444 4.2284041e-39 324 249
0.0061366665 0.69999999 -0.011045999 4.1362085e-39 325 249
0.0073745195 0.70099998 -0.011061779 4.5031959e-39 326 249
0.0086281532 0.70300001 -0.01109334 4.5031959e-39 327 249
0.0098747732 0.704 -0.011109119 4.2280482e-39 328 249
0.011109119 0.704 -0.011109119 4.2280482e-39 329 249
0.012343466 0.704 -0.011109119 3.9525375e-39 330 249
0.013616386 0.70599997 -0.011140679 4.0450918e-39 331 249
0.01487528 0.70700002 -0.011156459 4.1358525e-39 332 249
0.016114887 0.70700002 -0.011156459 4.3202438e-39 333 249
0.017379038 0.708 -0.01117224 4.506077e-39 334 249
0.018672999 0.70999998 -0.011203799 4.506077e-39 335 249
0.019917866 0.70999998 -0.011203799 4.135484e-39 336 249
0.021162732 0.70999998 -0.011203799 9.021851e-39 337 249
0.022439159 0.71100003 -0.01121958 1.3453705e-38 338 249
0.023685781 0.71100003 -0.01121958 1.6219576e-38 339 249
-0.051902171 0.722 -0.012659066 1.7325566e-38 279 250
-0.050425861 0.71899998 -0.012606465 1.4929193e-38 280 250
-0.049165215 0.71899998 -0.012606465 1.0964781e-38 281 250
-0.04777132 0.71700001 -0.0125714 5.5148059e-39 282 250
-0.046514176 0.71700001 -0.0125714 5.6070015e-39 283 250
-0.045193922 0.71600002 -0.012553867 5.8850332e-39 284 250
-0.043754432 0.713 -0.012501267 5.424055e-39 285 250
-0.042385083 0.71100003 -0.0124662 5.3318622e-39 286 250
-0.041080594 0.70999998 -0.012448666 5.1474709e-39 287 250
-0.039723519 0.708 -0.0124136 5.3304273e-39 288 250
-0.038427804 0.70700002 -0.012396066 5.1463947e-39 289 250
-0.037135597 0.70599997 -0.012378532 5.3304301e-39 290 250
-0.035897743 0.70599997 -0.012378532 5.1463975e-39 291 250
-0.034561705 0.704 -0.012343466 4.8712498e-39 292 250
-0.033280019 0.70300001 -0.012325933 4.7790541e-39 293 250
-0.031956252 0.70099998 -0.012290866 4.7790541e-39 294 250
-0.030683333 0.69999999 -0.012273333 4.7790541e-39 295 250
-0.029371841 0.69800001 -0.012238266 4.778701e-39 296 250
-0.028148014 0.69800001 -0.012238266 5.1474835e-39 297 250
-0.026885614 0.69700003 -0.012220734 4.965616e-39 298 250
-0.025663542 0.69700003 -0.012220734 5.2418442e-39 299 250
-0.024441468 0.69700003 -0.012220734 5.151452e-39 300 250
-0.023219392 0.69700003 -0.012220734 5.2436476e-39 301 250
-0.02199732 0.69700003 -0.012220734 5.3340454e-39 302 250
-0.020775247 0.69700003 -0.012220734 5.0574585e-39 303 250
-0.019525118 0.69599998 -0.0122032 5.0563697e-39 304 250
-0.018304799 0.69599998 -0.0122032 5.0563697e-39 305 250
-0.017084479 0.69599998 -0.0122032 4.7808562e-39 306 250
-0.015818574 0.69400001 -0.012168133 4.6886606e-39 307 250
-0.01460176 0.69400001 -0.012168133 4.8712498e-39 308 250
-0.013423519 0.69599998 -0.0122032 4.6868585e-39 309 250
-0.012168133 0.69400001 -0.012168133 4.5946629e-39 310 250
-0.01095132 0.69400001 -0.012168133 4.5946629e-39 311 250
-0.0097625591 0.69599998 -0.0122032 4.5946601e-39 312 250
-0.0085422397 0.69599998 -0.0122032 4.6868557e-39 313 250
-0.0073219193 0.69599998 -0.0122032 4.5035435e-39 314 250
-0.0061015999 0.69599998 -0.0122032 4.5035435e-39 315 250
-0.0048812795 0.69599998 -0.0122032 4.4120695e-39 316 250
-0.00366622 0.69700003 -0.012220734 4.5042651e-39 317 250
-0.0024441467 0.69700003 -0.012220734 4.5042651e-39 318 250
-0.0012220733 0.69700003 -0.012220734 4.5042651e-39 319 250
0 0.69700003 -0.012220734 4.3209529e-39 320 250
0.0012220733 0.69700003 -0.012220734 4.3209529e-39 321 250
0.0024476533 0.69800001 -0.012238266 4.045089e-39 322 250
0.0036714801 0.69800001 -0.012238266 3.9528934e-39 323 250
0.0048953067 0.69800001 -0.012238266 4.1362085e-39 324 250
0.0061366665 0.69999999 -0.012273333 4.0436541e-39 325 250
0.0073745195 0.70099998 -0.012290866 4.4109975e-39 326 250
0.0086281532 0.70300001 -0.012325933 4.4109975e-39 327 250
0.0098747732 0.704 -0.012343466 3.9525375e-39 328 250
0.011109119 0.704 -0.012343466 3.8603419e-39 329 250
0.012343466 0.704 -0.012343466 3.8603419e-39 330 250
0.013616386 0.70599997 -0.012378532 3.8603419e-39 331 250
0.01487528 0.70700002 -0.012396066 3.9525403e-39 332 250
0.016114887 0.70700002 -0.012396066 4.0447359e-39 333 250
0.017379038 0.708 -0.0124136 4.4138814e-39 334 250
0.018672999 0.70999998 -0.012448666 4.4138814e-39 335 250
0.019917866 0.70999998 -0.012448666 4.0436443e-39 336 250
0.021162732 0.70999998 -0.012448666 9.0218482e-39 337 250
0.022439159 0.71100003 -0.0124662 1.3361863e-38 338 250
0.023685781 0.71100003 -0.0124662 1.5943341e-38 339 250
-0.051902171 0.722 -0.013924973 1.7325206e-38 279 251
-0.050425861 0.71899998 -0.013867113 1.5757874e-38 280 251
-0.049165215 0.71899998 -0.013867113 1.2070049e-38 281 251
-0.04777132 0.71700001 -0.013828539 6.6207863e-39 282 251
-0.046514176 0.71700001 -0.013828539 5.8832213e-39 283 251
-0.045193922 0.71600002 -0.013809253 5.9765015e-39 284 251
-0.043754432 0.713 -0.013751393 5.7002748e-39 285 251
-0.042385083 0.71100003 -0.01371282 5.1478311e-39 286 251
-0.041080594 0.70999998 -0.013693533 5.1478311e-39 287 251
-0.039723519 0.708 -0.013654959 5.054918e-39 288 251
-0.038482159 0.708 -0.013654959 5.054918e-39 289 251
-0.037188202 0.70700002 -0.013635674 5.1463947e-39 290 251
-0.035897743 0.70599997 -0.013616386 5.1463947e-39 291 251
-0.034561705 0.704 -0.013577812 4.7794101e-39 292 251
-0.033280019 0.70300001 -0.013558527 4.7794101e-39 293 251
-0.032047424 0.70300001 -0.013558527 4.5957419e-39 294 251
-0.030683333 0.69999999 -0.013500666 4.5035463e-39 295 251
-0.029455997 0.69999999 -0.013500666 4.6868613e-39 296 251
-0.028148014 0.69800001 -0.013462093 4.8712526e-39 297 251
-0.026885614 0.69700003 -0.013442807 4.6883047e-39 298 251
-0.025663542 0.69700003 -0.013442807 4.9648901e-39 299 251
-0.024441468 0.69700003 -0.013442807 4.6901053e-39 300 251
-0.023219392 0.69700003 -0.013442807 4.5979097e-39 301 251
-0.02199732 0.69700003 -0.013442807 5.0567298e-39 302 251
-0.020775247 0.69700003 -0.013442807 4.9645342e-39 303 251
-0.019525118 0.69599998 -0.013423519 5.0563641e-39 304 251
-0.018304799 0.69599998 -0.013423519 5.0563641e-39 305 251
-0.017084479 0.69599998 -0.013423519 4.7815723e-39 306 251
-0.015864158 0.69599998 -0.013423519 4.4131485e-39 307 251
-0.014643839 0.69599998 -0.013423519 4.5957419e-39 308 251
-0.013423519 0.69599998 -0.013423519 4.4113506e-39 309 251
-0.012168133 0.69400001 -0.013384946 4.593944e-39 310 251
-0.01095132 0.69400001 -0.013384946 4.593944e-39 311 251
-0.0097625591 0.69599998 -0.013423519 4.4113506e-39 312 251
-0.0085422397 0.69599998 -0.013423519 4.4113506e-39 313 251
-0.0073219193 0.69599998 -0.013423519 4.4113506e-39 314 251
-0.0061015999 0.69599998 -0.013423519 4.4113506e-39 315 251
-0.0048812795 0.69599998 -0.013423519 4.1362029e-39 316 251
-0.00366622 0.69700003 -0.013442807 4.2283985e-39 317 251
-0.0024441467 0.69700003 -0.013442807 4.4120667e-39 318 251
-0.0012220733 0.69700003 -0.013442807 4.4120667e-39 319 251
0 0.69700003 -0.013442807 4.2287544e-39 320 251
0.0012220733 0.69700003 -0.013442807 4.2287544e-39 321 251
0.0024476533 0.69800001 -0.013462093 4.0454422e-39 322 251
0.0036714801 0.69800001 -0.013462093 3.9532465e-39 323 251
0.0048953067 0.69800001 -0.013462093 4.0440072e-39 324 251
0.0061366665 0.69999999 -0.013500666 4.0440072e-39 325 251
0.0073745195 0.70099998 -0.013519952 4.0432884e-39 326 251
0.0086404262 0.704 -0.013577812 4.0432884e-39 327 251
0.0098747732 0.704 -0.013577812 3.9518144e-39 328 251
0.011109119 0.704 -0.013577812 3.7674232e-39 329 251
0.012343466 0.704 -0.013577812 3.7681434e-39 330 251
0.013616386 0.70599997 -0.013616386 3.8606978e-39 331 251
0.01487528 0.70700002 -0.013635674 3.8606978e-39 332 251
0.016114887 0.70700002 -0.013635674 3.9528934e-39 333 251
0.017379038 0.708 -0.013654959 4.1380035e-39 334 251
0.018672999 0.70999998 -0.013693533 4.2302006e-39 335 251
0.019917866 0.70999998 -0.013693533 4.2273069e-39 336 251
0.021162732 0.70999998 -0.013693533 9.2062296e-39 337 251
0.022439159 0.71100003 -0.01371282 1.3637005e-38 338 251
0.023685781 0.71100003 -0.01371282 1.6126287e-38 339 251
-0.051902171 0.722 -0.015190879 1.7140812e-38 279 252
-0.050496001 0.72000003 -0.0151488 1.6310328e-38 280 252
-0.049165215 0.71899998 -0.01512776 1.3083481e-38 281 252
-0.04790457 0.71899998 -0.01512776 8.0955535e-39 282 252
-0.046643924 0.71899998 -0.01512776 6.6207835e-39 283 252
-0.045193922 0.71600002 -0.01506464 6.8966473e-39 284 252
-0.043754432 0.713 -0.015001519 6.5275061e-39 285 252
-0.042385083 0.71100003 -0.014959441 5.7913914e-39 286 252
-0.041080594 0.70999998 -0.014938398 5.5148059e-39 287 252
-0.039723519 0.708 -0.01489632 5.3307804e-39 288 252
-0.038482159 0.708 -0.01489632 5.1467479e-39 289 252
-0.037188202 0.70700002 -0.01487528 4.9627223e-39 290 252
-0.035948593 0.70700002 -0.01487528 4.9627223e-39 291 252
-0.034561705 0.704 -0.014812159 4.5957391e-39 292 252
-0.03332736 0.704 -0.014812159 4.5957391e-39 293 252
-0.032047424 0.70300001 -0.014791119 4.4120695e-39 294 252
-0.030727165 0.70099998 -0.014749039 4.4120695e-39 295 252
-0.029455997 0.69999999 -0.014727999 4.5031903e-39 296 252
-0.028148014 0.69800001 -0.01468592 4.4109947e-39 297 252
-0.026924185 0.69800001 -0.01468592 4.5953888e-39 298 252
-0.025700359 0.69800001 -0.01468592 4.5953888e-39 299 252
-0.024441468 0.69700003 -0.01466488 4.5039148e-39 300 252
-0.023219392 0.69700003 -0.01466488 4.5039148e-39 301 252
-0.02199732 0.69700003 -0.01466488 4.5968307e-39 302 252
-0.020775247 0.69700003 -0.01466488 4.5968307e-39 303 252
-0.019525118 0.69599998 -0.014643839 4.7805031e-39 304 252
-0.018304799 0.69599998 -0.014643839 4.7805031e-39 305 252
-0.017084479 0.69599998 -0.014643839 4.5057113e-39 306 252
-0.015864158 0.69599998 -0.014643839 4.3213186e-39 307 252
-0.014643839 0.69599998 -0.014643839 4.4109947e-39 308 252
-0.013423519 0.69599998 -0.014643839 4.3187991e-39 309 252
-0.0122032 0.69599998 -0.014643839 4.3184361e-39 310 252
-0.010982879 0.69599998 -0.014643839 4.3184361e-39 311 252
-0.0097625591 0.69599998 -0.014643839 4.2266006e-39 312 252
-0.0085422397 0.69599998 -0.014643839 4.319155e-39 313 252
-0.0073219193 0.69599998 -0.014643839 4.1358399e-39 314 252
-0.0061015999 0.69599998 -0.014643839 4.3198711e-39 315 252
-0.0048812795 0.69599998 -0.014643839 4.1362029e-39 316 252
-0.00366622 0.69700003 -0.01466488 4.1362029e-39 317 252
-0.0024441467 0.69700003 -0.01466488 4.1362029e-39 318 252
-0.0012238267 0.69800001 -0.01468592 4.1362029e-39 319 252
0 0.69800001 -0.01468592 4.1362029e-39 320 252
0.0012238267 0.69800001 -0.01468592 4.1362029e-39 321 252
0.0024476533 0.69800001 -0.01468592 3.9528906e-39 322 252
0.0036819996 0.69999999 -0.014727999 3.860695e-39 323 252
0.0049093333 0.69999999 -0.014727999 3.9518116e-39 324 252
0.0061454331 0.70099998 -0.014749039 3.9518116e-39 325 252
0.0073955595 0.70300001 -0.014791119 3.9518116e-39 326 252
0.0086404262 0.704 -0.014812159 3.7677791e-39 327 252
0.0098747732 0.704 -0.014812159 3.9518144e-39 328 252
0.011109119 0.704 -0.014812159 3.7674232e-39 329 252
0.012343466 0.704 -0.014812159 3.5848312e-39 330 252
0.013616386 0.70599997 -0.014854239 3.7688623e-39 331 252
0.01487528 0.70700002 -0.01487528 3.8614166e-39 332 252
0.016114887 0.70700002 -0.01487528 3.8614166e-39 333 252
0.017379038 0.708 -0.01489632 4.0465268e-39 334 252
0.018672999 0.70999998 -0.014938398 4.1387238e-39 335 252
0.019917866 0.70999998 -0.014938398 4.687562e-39 336 252
0.021192541 0.71100003 -0.014959441 9.5742905e-39 337 252
0.022439159 0.71100003 -0.014959441 1.3544804e-38 338 252
-0.051902171 0.722 -0.016456785 1.7048257e-38 279 253
-0.050496001 0.72000003 -0.0164112 1.6679834e-38 280 253
-0.0492336 0.72000003 -0.0164112 1.3913965e-38 281 253
-0.04790457 0.71899998 -0.016388407 9.201908e-39 282 253
-0.046643924 0.71899998 -0.016388407 7.7267779e-39 283 253
-0.045193922 0.71600002 -0.016320027 7.2675907e-39 284 253
-0.043754432 0.713 -0.016251646 6.8991683e-39 285 253
-0.042385083 0.71100003 -0.01620606 5.9772288e-39 286 253
-0.041080594 0.70999998 -0.016183265 5.6084449e-39 287 253
-0.039835732 0.70999998 -0.016183265 5.147115e-39 288 253
-0.038482159 0.708 -0.01613768 5.147115e-39 289 253
-0.037188202 0.70700002 -0.016114887 4.8716057e-39 290 253
-0.035948593 0.70700002 -0.016114887 4.7794101e-39 291 253
-0.034659892 0.70599997 -0.016092092 4.5957391e-39 292 253
-0.03332736 0.704 -0.016046507 4.5035435e-39 293 253
-0.032047424 0.70300001 -0.016023712 4.4113478e-39 294 253
-0.030727165 0.70099998 -0.015978126 4.4113478e-39 295 253
-0.029455997 0.69999999 -0.015955333 4.6868557e-39 296 253
-0.028148014 0.69800001 -0.015909746 4.5946601e-39 297 253
-0.026924185 0.69800001 -0.015909746 4.5939412e-39 298 253
-0.025700359 0.69800001 -0.015909746 4.6861368e-39 299 253
-0.024441468 0.69700003 -0.015886955 4.4113478e-39 300 253
-0.023219392 0.69700003 -0.015886955 4.5035435e-39 301 253
-0.02199732 0.69700003 -0.015886955 4.5035463e-39 302 253
-0.020775247 0.69700003 -0.015886955 4.5957419e-39 303 253
-0.019553173 0.69700003 -0.015886955 4.6868613e-39 304 253
-0.018304799 0.69599998 -0.015864158 4.7790569e-39 305 253
-0.017084479 0.69599998 -0.015864158 4.7790569e-39 306 253
-0.015864158 0.69599998 -0.015864158 4.6868613e-39 307 253
-0.014643839 0.69599998 -0.015864158 4.5024673e-39 308 253
-0.013423519 0.69599998 -0.015864158 4.5024673e-39 309 253
-0.0122032 0.69599998 -0.015864158 4.3184333e-39 310 253
-0.010982879 0.69599998 -0.015864158 4.5024645e-39 311 253
-0.0097625591 0.69599998 -0.015864158 4.1358399e-39 312 253
-0.0085422397 0.69599998 -0.015864158 4.1358399e-39 313 253
-0.00733244 0.69700003 -0.015886955 4.1358399e-39 314 253
-0.0061103669 0.69700003 -0.015886955 4.3198711e-39 315 253
-0.0048882933 0.69700003 -0.015886955 4.1358399e-39 316 253
-0.00366622 0.69700003 -0.015886955 4.1358399e-39 317 253
-0.0024476533 0.69800001 -0.015909746 4.0436415e-39 318 253
-0.0012238267 0.69800001 -0.015909746 4.1358371e-39 319 253
0 0.69800001 -0.015909746 4.3191522e-39 320 253
0.0012238267 0.69800001 -0.015909746 4.3191522e-39 321 253
0.0024476533 0.69800001 -0.015909746 4.0440072e-39 322 253
0.0036819996 0.69999999 -0.015955333 4.0440072e-39 323 253
0.0049093333 0.69999999 -0.015955333 3.7677791e-39 324 253
0.0061454331 0.70099998 -0.015978126 3.9518116e-39 325 253
0.0073955595 0.70300001 -0.016023712 3.7677791e-39 326 253
0.0086404262 0.704 -0.016046507 3.7677791e-39 327 253
0.0098747732 0.704 -0.016046507 3.6763023e-39 328 253
0.011109119 0.704 -0.016046507 3.6763023e-39 329 253
0.012343466 0.704 -0.016046507 3.7684993e-39 330 253
0.013616386 0.70599997 -0.016092092 3.860695e-39 331 253
0.01487528 0.70700002 -0.016114887 3.7692182e-39 332 253
0.016114887 0.70700002 -0.016114887 3.8614138e-39 333 253
0.017379038 0.708 -0.01613768 4.1380007e-39 334 253
0.018672999 0.70999998 -0.016183265 4.2305565e-39 335 253
0.01994592 0.71100003 -0.01620606 5.147817e-39 336 253
0.021252153 0.713 -0.016251646 9.9419912e-39 337 253
0.022502279 0.713 -0.016251646 1.3452608e-38 338 253
-0.050496001 0.72000003 -0.017673599 1.6956062e-38 280 254
-0.0492336 0.72000003 -0.017673599 1.465153e-38 281 254
-0.0479712 0.72000003 -0.017673599 1.0125662e-38 282 254
-0.046643924 0.71899998 -0.017649053 8.0973583e-39 283 254
-0.045193922 0.71600002 -0.017575413 7.9129601e-39 284 254
-0.043815799 0.71399999 -0.017526319 7.2675907e-39 285 254
-0.042385083 0.71100003 -0.01745268 6.988857e-39 286 254
-0.041138459 0.71100003 -0.01745268 6.4360419e-39 287 254
-0.039835732 0.70999998 -0.017428132 6.1590977e-39 288 254
-0.038482159 0.708 -0.017379038 5.9750666e-39 289 254
-0.0372408 0.708 -0.017379038 5.3322153e-39 290 254
-0.035948593 0.70700002 -0.017354494 5.2396609e-39 291 254
-0.034708988 0.70700002 -0.017354494 4.8726749e-39 292 254
-0.03332736 0.704 -0.017280852 4.5964481e-39 293 254
-0.032093015 0.704 -0.017280852 4.6872088e-39 294 254
-0.030727165 0.70099998 -0.017207211 4.6872088e-39 295 254
-0.029455997 0.69999999 -0.017182667 4.7786884e-39 296 254
-0.028228667 0.69999999 -0.017182667 4.7786884e-39 297 254
-0.026924185 0.69800001 -0.017133573 4.7786912e-39 298 254
-0.025700359 0.69800001 -0.017133573 4.6861368e-39 299 254
-0.024476532 0.69800001 -0.017133573 4.6861368e-39 300 254
-0.023252707 0.69800001 -0.017133573 4.6861368e-39 301 254
-0.02199732 0.69700003 -0.017109027 4.5946657e-39 302 254
-0.020775247 0.69700003 -0.017109027 4.5946657e-39 303 254
-0.019553173 0.69700003 -0.017109027 4.5021169e-39 304 254
-0.018331099 0.69700003 -0.017109027 4.5943126e-39 305 254
-0.017109027 0.69700003 -0.017109027 4.3184459e-39 306 254
-0.015864158 0.69599998 -0.017084479 4.3184459e-39 307 254
-0.014643839 0.69599998 -0.017084479 4.318083e-39 308 254
-0.013423519 0.69599998 -0.017084479 4.225886e-39 309 254
-0.0122032 0.69599998 -0.017084479 4.0432912e-39 310 254
-0.010982879 0.69599998 -0.017084479 4.0432912e-39 311 254
-0.0097625591 0.69599998 -0.017084479 4.3184361e-39 312 254
-0.0085422397 0.69599998 -0.017084479 4.5024673e-39 313 254
-0.00733244 0.69700003 -0.017109027 4.1358399e-39 314 254
-0.0061103669 0.69700003 -0.017109027 4.1358399e-39 315 254
-0.0048882933 0.69700003 -0.017109027 4.1358399e-39 316 254
-0.0036714801 0.69800001 -0.017133573 4.0436443e-39 317 254
-0.0024476533 0.69800001 -0.017133573 4.0432884e-39 318 254
-0.0012238267 0.69800001 -0.017133573 4.0432884e-39 319 254
0 0.69800001 -0.017133573 3.9518144e-39 320 254
0.0012238267 0.69800001 -0.017133573 3.7674232e-39 321 254
0.0024476533 0.69800001 -0.017133573 3.7681434e-39 322 254
0.0036819996 0.69999999 -0.017182667 3.7681434e-39 323 254
0.0049163462 0.70099998 -0.017207211 3.7684993e-39 324 254
0.0061454331 0.70099998 -0.017207211 3.6763023e-39 325 254
0.0073955595 0.70300001 -0.017256306 3.7677791e-39 326 254
0.0086404262 0.704 -0.017280852 3.7677791e-39 327 254
0.0098747732 0.704 -0.017280852 3.9518088e-39 328 254
0.011140679 0.70599997 -0.017329946 4.0443632e-39 329 254
0.012378532 0.70599997 -0.017329946 3.861767e-39 330 254
0.013616386 0.70599997 -0.017329946 3.861767e-39 331 254
0.01487528 0.70700002 -0.017354494 3.7702944e-39 332 254
0.016114887 0.70700002 -0.017354494 3.86249e-39 333 254
0.017428132 0.70999998 -0.017428132 4.5067805e-39 334 254
0.0186993 0.71100003 -0.01745268 4.8759231e-39 335 254
0.01994592 0.71100003 -0.01745268 5.9786539e-39 336 254
0.021252153 0.713 -0.017501773 1.0035262e-38 337 254
0.022502279 0.713 -0.017501773 1.3820668e-38 338 254
-0.050636265 0.722 -0.0189886 1.7048613e-38 280 255
-0.04937036 0.722 -0.0189886 1.5481288e-38 281 255
-0.048104454 0.722 -0.0189886 1.095866e-38 282 255
-0.0467088 0.72000003 -0.018935999 8.1009555e-39 283 255
-0.045383278 0.71899998 -0.018909698 8.0966395e-39 284 255
-0.043815799 0.71399999 -0.018778199 7.9118881e-39 285 255
-0.042504307 0.713 -0.018751899 7.0828561e-39 286 255
-0.041138459 0.71100003 -0.0186993 6.6215178e-39 287 255
-0.039835732 0.70999998 -0.018672999 6.0701433e-39 288 255
-0.038482159 0.708 -0.0186204 5.885752e-39 289 255
-0.0372408 0.708 -0.0186204 5.334732e-39 290 255
-0.035948593 0.70700002 -0.018594101 5.1499821e-39 291 255
-0.034708988 0.70700002 -0.018594101 4.9655908e-39 292 255
-0.033422034 0.70599997 -0.018567799 4.6893626e-39 293 255
-0.032093015 0.704 -0.018515198 4.7801233e-39 294 255
-0.030727165 0.70099998 -0.018436298 4.7801233e-39 295 255
-0.029498078 0.70099998 -0.018436298 4.8716057e-39 296 255
-0.028228667 0.69999999 -0.018409999 4.7794101e-39 297 255
-0.026924185 0.69800001 -0.0183574 4.9627223e-39 298 255
-0.025700359 0.69800001 -0.0183574 4.9627223e-39 299 255
-0.024476532 0.69800001 -0.0183574 4.7786912e-39 300 255
-0.023252707 0.69800001 -0.0183574 4.9627223e-39 301 255
-0.02202888 0.69800001 -0.0183574 4.5946629e-39 302 255
-0.020775247 0.69700003 -0.018331099 4.3184361e-39 303 255
-0.019553173 0.69700003 -0.018331099 4.5013925e-39 304 255
-0.018331099 0.69700003 -0.018331099 4.5013925e-39 305 255
-0.017109027 0.69700003 -0.018331099 4.2258832e-39 306 255
-0.015886955 0.69700003 -0.018331099 4.2258832e-39 307 255
-0.01466488 0.69700003 -0.018331099 4.1336847e-39 308 255
-0.013423519 0.69599998 -0.018304799 4.1336847e-39 309 255
-0.0122032 0.69599998 -0.018304799 4.1336847e-39 310 255
-0.010982879 0.69599998 -0.018304799 4.2258804e-39 311 255
-0.0097765867 0.69700003 -0.018331099 4.3184333e-39 312 255
-0.0085545136 0.69700003 -0.018331099 4.5024645e-39 313 255
-0.00733244 0.69700003 -0.018331099 4.0436443e-39 314 255
-0.006119133 0.69800001 -0.0183574 4.0436443e-39 315 255
-0.0048953067 0.69800001 -0.0183574 4.0436443e-39 316 255
-0.0036714801 0.69800001 -0.0183574 4.0436443e-39 317 255
-0.0024476533 0.69800001 -0.0183574 3.9510913e-39 318 255
-0.0012238267 0.69800001 -0.0183574 3.9510913e-39 319 255
0 0.69999999 -0.018409999 3.9510941e-39 320 255
0.0012273333 0.69999999 -0.018409999 4.0432912e-39 321 255
0.0024546667 0.69999999 -0.018409999 3.7684993e-39 322 255
0.0036819996 0.69999999 -0.018409999 3.7684993e-39 323 255
0.0049163462 0.70099998 -0.018436298 3.7684965e-39 324 255
0.0061629666 0.70300001 -0.018488899 3.6762995e-39 325 255
0.0073955595 0.70300001 -0.018488899 3.9518116e-39 326 255
0.0086404262 0.704 -0.018515198 3.9518116e-39 327 255
0.0098747732 0.704 -0.018515198 3.8606922e-39 328 255
0.011140679 0.70599997 -0.018567799 4.0454422e-39 329 255
0.012378532 0.70599997 -0.018567799 4.0461582e-39 330 255
0.013616386 0.70599997 -0.018567799 4.1383539e-39 331 255
0.01487528 0.70700002 -0.018594101 4.0468771e-39 332 255
0.016114887 0.70700002 -0.018594101 4.3238241e-39 333 255
0.017428132 0.70999998 -0.018672999 4.7844435e-39 334 255
0.0186993 0.71100003 -0.0186993 5.4298115e-39 335 255
0.020002026 0.713 -0.018751899 6.2559611e-39 336 255
0.021281958 0.71399999 -0.018778199 1.0312569e-38 337 255
0.022533838 0.71399999 -0.018778199 1.4097259e-38 338 255
-0.050636265 0.722 -0.020254506 1.6864945e-38 280 256
-0.04937036 0.722 -0.020254506 1.612738e-38 281 256
-0.048104454 0.722 -0.020254506 1.225192e-38 282 256
-0.046838548 0.722 -0.020254506 8.3797032e-39 283 256
-0.045383278 0.71899998 -0.020170346 8.0048068e-39 284 256
-0.043938532 0.71600002 -0.020086186 8.0048068e-39 285 256
-0.042504307 0.713 -0.020002026 7.4512799e-39 286 256
-0.041138459 0.71100003 -0.01994592 6.9906605e-39 287 256
-0.039835732 0.70999998 -0.019917866 6.5311186e-39 288 256
-0.038590867 0.70999998 -0.019917866 6.1626948e-39 289 256
-0.0372408 0.708 -0.01986176 5.702437e-39 290 256
-0.03599944 0.708 -0.01986176 5.4258487e-39 291 256
-0.034708988 0.70700002 -0.019833706 5.2414616e-39 292 256
-0.033422034 0.70599997 -0.019805651 5.0570704e-39 293 256
-0.032184184 0.70599997 -0.019805651 4.9648747e-39 294 256
-0.030858666 0.704 -0.019749546 4.9648747e-39 295 256
-0.029498078 0.70099998 -0.019665385 5.1478311e-39 296 256
-0.028228667 0.69999999 -0.019637333 4.9637999e-39 297 256
-0.027001332 0.69999999 -0.019637333 5.147115e-39 298 256
-0.025700359 0.69800001 -0.019581227 5.054918e-39 299 256
-0.024476532 0.69800001 -0.019581227 5.054918e-39 300 256
-0.023252707 0.69800001 -0.019581227 5.054918e-39 301 256
-0.02202888 0.69800001 -0.019581227 4.6868585e-39 302 256
-0.020805053 0.69800001 -0.019581227 4.5024673e-39 303 256
-0.019553173 0.69700003 -0.019553173 4.2266034e-39 304 256
-0.018331099 0.69700003 -0.019553173 4.1344064e-39 305 256
-0.017109027 0.69700003 -0.019553173 4.1340505e-39 306 256
-0.015886955 0.69700003 -0.019553173 4.1340505e-39 307 256
-0.01466488 0.69700003 -0.019553173 4.2258804e-39 308 256
-0.013423519 0.69599998 -0.019525118 4.1336847e-39 309 256
-0.0122032 0.69599998 -0.019525118 4.1347595e-39 310 256
-0.010982879 0.69599998 -0.019525118 4.2269566e-39 311 256
-0.0097765867 0.69700003 -0.019553173 4.2269538e-39 312 256
-0.0085545136 0.69700003 -0.019553173 4.2269538e-39 313 256
-0.0073429602 0.69800001 -0.019581227 4.2269566e-39 314 256
-0.006119133 0.69800001 -0.019581227 4.1347595e-39 315 256
-0.0048953067 0.69800001 -0.019581227 3.9510913e-39 316 256
-0.0036714801 0.69800001 -0.019581227 3.9510913e-39 317 256
-0.0024546667 0.69999999 -0.019637333 3.6763023e-39 318 256
-0.0012273333 0.69999999 -0.019637333 3.6763023e-39 319 256
0 0.69999999 -0.019637333 3.4926341e-39 320 256
0.0012273333 0.69999999 -0.019637333 3.4926341e-39 321 256
0.0024546667 0.69999999 -0.019637333 3.4926313e-39 322 256
0.0036872597 0.70099998 -0.019665385 3.5851871e-39 323 256
0.0049163462 0.70099998 -0.019665385 3.7684965e-39 324 256
0.0061629666 0.70300001 -0.019721493 3.7684965e-39 325 256
0.0074060797 0.704 -0.019749546 3.7684965e-39 326 256
0.0086404262 0.704 -0.019749546 3.8606922e-39 327 256
0.0098747732 0.704 -0.019749546 4.0454394e-39 328 256
0.011140679 0.70599997 -0.019805651 4.2294705e-39 329 256
0.012378532 0.70599997 -0.019805651 4.1383539e-39 330 256
0.013635674 0.70700002 -0.019833706 4.4149408e-39 331 256
0.01489632 0.708 -0.01986176 4.599332e-39 332 256
0.016183265 0.70999998 -0.019917866 4.7837233e-39 333 256
0.01745268 0.71100003 -0.01994592 5.3376159e-39 334 256
0.018751899 0.713 -0.020002026 5.6145629e-39 335 256
0.020030079 0.71399999 -0.020030079 6.0715684e-39 336 256
0.021281958 0.71399999 -0.020030079 1.0405123e-38 337 256
0.022533838 0.71399999 -0.020030079 1.4465318e-38 338 256
-0.04937036 0.722 -0.021520413 1.6496161e-38 281 257
-0.048104454 0.722 -0.021520413 1.3819248e-38 282 257
-0.046838548 0.722 -0.021520413 9.2094666e-39 283 257
-0.045446403 0.72000003 -0.021460801 7.5438314e-39 284 257
-0.043999899 0.71700001 -0.021371379 8.0970052e-39 285 257
-0.042563915 0.71399999 -0.021281958 7.6367487e-39 286 257
-0.041312039 0.71399999 -0.021281958 7.175772e-39 287 257
-0.039891839 0.71100003 -0.021192541 6.7162316e-39 288 257
-0.038590867 0.70999998 -0.021162732 6.3478092e-39 289 257
-0.037345998 0.70999998 -0.021162732 5.8875499e-39 290 257
-0.03599944 0.708 -0.021103119 5.4265731e-39 291 257
-0.034758076 0.708 -0.021103119 5.3343761e-39 292 257
-0.033469379 0.70700002 -0.021073313 5.1499849e-39 293 257
-0.032229774 0.70700002 -0.021073313 5.1499849e-39 294 257
-0.030946331 0.70599997 -0.021043506 5.1499849e-39 295 257
-0.029624319 0.704 -0.020983893 5.3325782e-39 296 257
-0.028228667 0.69999999 -0.020864666 5.3325782e-39 297 257
-0.027001332 0.69999999 -0.020864666 5.1489129e-39 298 257
-0.025700359 0.69800001 -0.020805053 5.0567172e-39 299 257
-0.024476532 0.69800001 -0.020805053 4.7812093e-39 300 257
-0.023252707 0.69800001 -0.020805053 4.7812093e-39 301 257
-0.02202888 0.69800001 -0.020805053 4.7801289e-39 302 257
-0.020805053 0.69800001 -0.020805053 4.5035435e-39 303 257
-0.019581227 0.69800001 -0.020805053 4.319155e-39 304 257
-0.0183574 0.69800001 -0.020805053 4.319155e-39 305 257
-0.017133573 0.69800001 -0.020805053 4.0432884e-39 306 257
-0.015886955 0.69700003 -0.020775247 4.0432884e-39 307 257
-0.01466488 0.69700003 -0.020775247 4.3184333e-39 308 257
-0.013442807 0.69700003 -0.020775247 4.2262363e-39 309 257
-0.012220734 0.69700003 -0.020775247 3.9514445e-39 310 257
-0.01099866 0.69700003 -0.020775247 3.9514445e-39 311 257
-0.0097765867 0.69700003 -0.020775247 3.9510885e-39 312 257
-0.0085545136 0.69700003 -0.020775247 3.9510885e-39 313 257
-0.0073429602 0.69800001 -0.020805053 4.1344036e-39 314 257
-0.006119133 0.69800001 -0.020805053 4.2266006e-39 315 257
-0.0048953067 0.69800001 -0.020805053 4.0432884e-39 316 257
-0.0036714801 0.69800001 -0.020805053 3.9510913e-39 317 257
-0.0024546667 0.69999999 -0.020864666 3.6755835e-39 318 257
-0.0012273333 0.69999999 -0.020864666 3.7677791e-39 319 257
0 0.69999999 -0.020864666 3.4926313e-39 320 257
0.0012273333 0.69999999 -0.020864666 3.4926313e-39 321 257
0.0024546667 0.69999999 -0.020864666 3.4926313e-39 322 257
0.0036872597 0.70099998 -0.020894472 3.5851871e-39 323 257
0.0049303733 0.70300001 -0.020954086 3.5851843e-39 324 257
0.0061629666 0.70300001 -0.020954086 3.7692154e-39 325 257
0.0074060797 0.704 -0.020983893 3.860695e-39 326 257
0.0086404262 0.704 -0.020983893 3.9528906e-39 327 257
0.0099028256 0.70599997 -0.021043506 4.0450862e-39 328 257
0.011156459 0.70700002 -0.021073313 4.3216717e-39 329 257
0.012396066 0.70700002 -0.021073313 4.4145848e-39 330 257
0.013654959 0.708 -0.021103119 4.5989761e-39 331 257
0.014938398 0.70999998 -0.021162732 4.7833701e-39 332 257
0.016183265 0.70999998 -0.021162732 5.1521527e-39 333 257
0.01745268 0.71100003 -0.021192541 5.2472224e-39 334 257
0.018751899 0.713 -0.021252153 5.4316136e-39 335 257
0.020086186 0.71600002 -0.021341572 6.1630452e-39 336 257
0.021371379 0.71700001 -0.021371379 1.1049055e-38 337 257
0.02262852 0.71700001 -0.021371379 1.483518e-38 338 257
-0.04937036 0.722 -0.022786319 1.6772029e-38 281 258
-0.048104454 0.722 -0.022786319 1.5202899e-38 282 258
-0.046838548 0.722 -0.022786319 9.7637166e-39 283 258
-0.045446403 0.72000003 -0.022723202 7.1743258e-39 284 258
-0.043999899 0.71700001 -0.02262852 8.1884792e-39 285 258
-0.042683143 0.71600002 -0.022596961 7.638548e-39 286 258
-0.041312039 0.71399999 -0.022533838 7.0853742e-39 287 258
-0.040004052 0.713 -0.022502279 6.80843e-39 288 258
-0.038645219 0.71100003 -0.022439159 6.4400076e-39 289 258
-0.037345998 0.70999998 -0.022407599 5.9797483e-39 290 258
-0.036101133 0.70999998 -0.022407599 5.7953571e-39 291 258
-0.034758076 0.708 -0.022344479 5.3350964e-39 292 258
-0.033516716 0.708 -0.022344479 5.2428993e-39 293 258
-0.032229774 0.70700002 -0.022312919 5.3343761e-39 294 258
-0.030946331 0.70599997 -0.022281358 5.3343761e-39 295 258
-0.029624319 0.704 -0.022218239 5.4254955e-39 296 258
-0.028268991 0.70099998 -0.022123558 5.2414644e-39 297 258
-0.027039904 0.70099998 -0.022123558 5.2418274e-39 298 258
-0.025773998 0.69999999 -0.022091998 5.1496317e-39 299 258
-0.024476532 0.69800001 -0.02202888 4.9663195e-39 300 258
-0.023252707 0.69800001 -0.02202888 4.8741238e-39 301 258
-0.02202888 0.69800001 -0.02202888 4.9652405e-39 302 258
-0.020805053 0.69800001 -0.02202888 4.5964579e-39 303 258
-0.019581227 0.69800001 -0.02202888 4.2291174e-39 304 258
-0.0183574 0.69800001 -0.02202888 4.0450862e-39 305 258
-0.017133573 0.69800001 -0.02202888 4.1362029e-39 306 258
-0.015909746 0.69800001 -0.02202888 4.0440072e-39 307 258
-0.01466488 0.69700003 -0.02199732 4.3191494e-39 308 258
-0.013442807 0.69700003 -0.02199732 4.2269538e-39 309 258
-0.012220734 0.69700003 -0.02199732 3.7681322e-39 310 258
-0.01099866 0.69700003 -0.02199732 3.7681322e-39 311 258
-0.0097765867 0.69700003 -0.02199732 4.1347595e-39 312 258
-0.0085667865 0.69800001 -0.02202888 4.2269566e-39 313 258
-0.0073429602 0.69800001 -0.02202888 3.9510913e-39 314 258
-0.006119133 0.69800001 -0.02202888 3.9510913e-39 315 258
-0.0048953067 0.69800001 -0.02202888 4.0432884e-39 316 258
-0.0036714801 0.69800001 -0.02202888 3.9510913e-39 317 258
-0.0024546667 0.69999999 -0.022091998 3.6762995e-39 318 258
-0.0012273333 0.69999999 -0.022091998 3.7684965e-39 319 258
0 0.69999999 -0.022091998 3.6762995e-39 320 258
0.0012273333 0.69999999 -0.022091998 3.7684965e-39 321 258
0.0024581731 0.70099998 -0.022123558 3.5851843e-39 322 258
0.0036872597 0.70099998 -0.022123558 3.7692154e-39 323 258
0.0049303733 0.70300001 -0.02218668 3.6784547e-39 324 258
0.0061717331 0.704 -0.022218239 3.6784547e-39 325 258
0.0074060797 0.704 -0.022218239 3.7702944e-39 326 258
0.0086404262 0.704 -0.022218239 3.86249e-39 327 258
0.0099028256 0.70599997 -0.022281358 4.3216689e-39 328 258
0.011156459 0.70700002 -0.022312919 4.5060616e-39 329 258
0.0124136 0.708 -0.022344479 4.599332e-39 330 258
0.013693533 0.70999998 -0.022407599 4.6915276e-39 331 258
0.014938398 0.70999998 -0.022407599 4.8759231e-39 332 258
0.01620606 0.71100003 -0.022439159 5.2443455e-39 333 258
0.017501773 0.713 -0.022502279 5.5220086e-39 334 258
0.018751899 0.713 -0.022502279 5.7989542e-39 335 258
0.020114239 0.71700001 -0.02262852 6.8066139e-39 336 258
0.021371379 0.71700001 -0.02262852 1.1969569e-38 337 258
0.02262852 0.71700001 -0.02262852 1.5295798e-38 338 258
-0.048104454 0.722 -0.024052227 1.6126287e-38 282 259
-0.046838548 0.722 -0.024052227 1.123992e-38 283 259
-0.045446403 0.72000003 -0.0239856 7.2675935e-39 284 259
-0.044122629 0.71899998 -0.023952285 7.728573e-39 285 259
-0.042742759 0.71700001 -0.02388566 8.1892008e-39 286 259
-0.041427758 0.71600002 -0.023852346 7.7282227e-39 287 259
-0.040060159 0.71399999 -0.02378572 6.9924569e-39 288 259
-0.038753927 0.713 -0.023752406 6.7158686e-39 289 259
-0.037398599 0.71100003 -0.023685781 6.2556107e-39 290 259
-0.036101133 0.70999998 -0.023652466 6.0712181e-39 291 259
-0.034856264 0.70999998 -0.023652466 5.7035118e-39 292 259
-0.033516716 0.708 -0.023585839 5.5191219e-39 293 259
-0.032229774 0.70700002 -0.023552528 5.6102413e-39 294 259
-0.030946331 0.70599997 -0.023519212 5.6102413e-39 295 259
-0.029624319 0.704 -0.023452586 5.6095239e-39 296 259
-0.028389972 0.704 -0.023452586 5.5173282e-39 297 259
-0.027039904 0.70099998 -0.023352645 5.3343803e-39 298 259
-0.025810819 0.70099998 -0.023352645 5.3343803e-39 299 259
-0.024546666 0.69999999 -0.023319334 5.2421833e-39 300 259
-0.023319334 0.69999999 -0.023319334 5.1499877e-39 301 259
-0.022091998 0.69999999 -0.023319334 5.1489129e-39 302 259
-0.020805053 0.69800001 -0.023252707 4.9645216e-39 303 259
-0.019581227 0.69800001 -0.023252707 4.5968139e-39 304 259
-0.0183574 0.69800001 -0.023252707 4.5968139e-39 305 259
-0.017133573 0.69800001 -0.023252707 4.3209473e-39 306 259
-0.015909746 0.69800001 -0.023252707 4.2287516e-39 307 259
-0.01468592 0.69800001 -0.023252707 4.4117009e-39 308 259
-0.013462093 0.69800001 -0.023252707 4.3195053e-39 309 259
-0.012220734 0.69700003 -0.023219392 4.0436387e-39 310 259
-0.01099866 0.69700003 -0.023219392 4.0436387e-39 311 259
