# .PCD v.7 - Point Cloud Data file format
FIELDS x y z rgb imX imY
SIZE 4 4 4 4 4 4
TYPE F F F F F F
COUNT 1 1 1 1 1 1
WIDTH 887
HEIGHT 1
VIEWPOINT 0 0 0 1 0 0 0
POINTS 887
DATA ascii
0.034509107 0.75700003 0.01194546 6.5253663e-39 346 231
0.03583638 0.75700003 0.01194546 6.4331707e-39 347 231
0.03726184 0.759 0.01197702 6.1580257e-39 348 231
0.038592618 0.759 0.01197702 6.1580257e-39 349 231
0.0399234 0.759 0.01197702 6.0672762e-39 350 231
0.041362885 0.76099998 0.012008579 6.2516675e-39 351 231
0.042697169 0.76099998 0.012008579 6.6193766e-39 352 231
0.044031456 0.76099998 0.012008579 6.4349854e-39 353 231
0.045425359 0.76200002 0.01202436 7.1678659e-39 354 231
0.046761397 0.76200002 0.01202436 5.7856489e-39 355 231
0.048097439 0.76200002 0.01202436 6.8977404e-39 356 231
0.049433477 0.76200002 0.01202436 1.2982651e-38 357 231
-0.025551327 0.76700002 0.010758453 1.6040598e-38 301 232
-0.024206521 0.76700002 0.010758453 1.2903069e-38 302 232
-0.022861714 0.76700002 0.010758453 7.4638859e-39 303 232
-0.021516906 0.76700002 0.010758453 7.7282395e-39 304 232
-0.020172099 0.76700002 0.010758453 6.6222507e-39 305 232
-0.018802745 0.76599997 0.010744425 7.4462464e-39 306 232
-0.017414106 0.764 0.010716373 6.616127e-39 307 232
-0.01603248 0.76200002 0.01068832 8.5418124e-39 308 232
-0.014677152 0.76099998 0.010674292 9.0949848e-39 309 232
-0.0133078 0.759 0.01064624 1.0473956e-38 310 232
-0.01194546 0.75700003 0.010618187 1.1211521e-38 311 232
-0.010590133 0.755 0.010590133 1.1948345e-38 312 232
-0.0092663663 0.755 0.010590133 1.2040541e-38 313 232
-0.0079425992 0.755 0.010590133 1.3052875e-38 314 232
-0.0066100666 0.75400001 0.010576107 1.2868125e-38 315 232
-0.0052880533 0.75400001 0.010576107 1.3325862e-38 316 232
-0.00396604 0.75400001 0.010576107 1.3049635e-38 317 232
-0.0026440267 0.75400001 0.010576107 1.3877951e-38 318 232
-0.0013220133 0.75400001 0.010576107 1.4431125e-38 319 232
0 0.75199997 0.010548052 1.4066286e-38 320 232
0.0013185065 0.75199997 0.010548052 1.4527264e-38 321 232
0.0026370131 0.75199997 0.010548052 1.3608545e-38 322 232
0.003945 0.75 0.01052 1.3516349e-38 323 232
0.00526 0.75 0.01052 1.3976254e-38 324 232
0.006575 0.75 0.01052 1.3976254e-38 325 232
0.00789 0.75 0.01052 1.2777715e-38 326 232
0.0092295464 0.75199997 0.010548052 1.1579172e-38 327 232
0.010548052 0.75199997 0.010548052 1.1577019e-38 328 232
0.011866559 0.75199997 0.010548052 1.1484824e-38 329 232
0.013185065 0.75199997 0.010548052 1.1026366e-38 330 232
0.014503572 0.75199997 0.010548052 1.1118562e-38 331 232
0.01586416 0.75400001 0.010576107 1.0844493e-38 332 232
0.017186172 0.75400001 0.010576107 1.0660461e-38 333 232
0.018508185 0.75400001 0.010576107 1.0753024e-38 334 232
0.019830201 0.75400001 0.010576107 1.0660828e-38 335 232
0.021152213 0.75400001 0.010576107 1.0659757e-38 336 232
0.022504034 0.755 0.010590133 1.0382812e-38 337 232
0.023827799 0.755 0.010590133 1.0013683e-38 338 232
0.025151566 0.755 0.010590133 9.921486e-39 339 232
0.026475333 0.755 0.010590133 9.1885901e-39 340 232
0.027799098 0.755 0.010590133 9.0963945e-39 341 232
0.029122867 0.755 0.010590133 8.4535432e-39 342 232
0.030446632 0.755 0.010590133 8.2687932e-39 343 232
0.031770397 0.755 0.010590133 7.4415619e-39 344 232
0.033094164 0.755 0.010590133 7.4415619e-39 345 232
0.034417931 0.755 0.010590133 6.5242873e-39 346 232
0.03583638 0.75700003 0.010618187 6.6164829e-39 347 232
0.037163652 0.75700003 0.010618187 6.0654742e-39 348 232
0.038592618 0.759 0.01064624 5.9732785e-39 349 232
0.0399234 0.759 0.01064624 5.8828808e-39 350 232
0.041362885 0.76099998 0.010674292 5.8828808e-39 351 232
0.042697169 0.76099998 0.010674292 6.3409849e-39 352 232
0.044031456 0.76099998 0.010674292 6.1569537e-39 353 232
0.045425359 0.76200002 0.01068832 7.073871e-39 354 232
0.046884131 0.764 0.010716373 5.8774802e-39 355 232
0.048223678 0.764 0.010716373 7.7285786e-39 356 232
-0.025551327 0.76700002 0.0094136465 1.6590172e-38 301 233
-0.024206521 0.76700002 0.0094136465 1.317821e-38 302 233
-0.022861714 0.76700002 0.0094136465 8.1074519e-39 303 233
-0.021488851 0.76599997 0.0094013726 8.2810489e-39 304 233
-0.020145798 0.76599997 0.0094013726 7.5431252e-39 305 233
-0.018802745 0.76599997 0.0094013726 7.5366442e-39 306 233
-0.017414106 0.764 0.0093768267 7.1678631e-39 307 233
-0.01603248 0.76200002 0.0093522798 7.9922315e-39 308 233
-0.014677152 0.76099998 0.0093400059 8.4532083e-39 309 233
-0.0133078 0.759 0.00931546 9.5559629e-39 310 233
-0.01194546 0.75700003 0.0092909131 1.0385724e-38 311 233
-0.010590133 0.755 0.0092663663 1.1214743e-38 312 233
-0.0092663663 0.755 0.0092663663 1.1675721e-38 313 233
-0.0079425992 0.755 0.0092663663 1.2594768e-38 314 233
-0.0066100666 0.75400001 0.0092540924 1.2594768e-38 315 233
-0.0052880533 0.75400001 0.0092540924 1.3510961e-38 316 233
-0.00396604 0.75400001 0.0092540924 1.3326568e-38 317 233
-0.0026440267 0.75400001 0.0092540924 1.3418062e-38 318 233
-0.0013220133 0.75400001 0.0092540924 1.3879039e-38 319 233
0 0.75199997 0.0092295464 1.3792237e-38 320 233
0.0013185065 0.75199997 0.0092295464 1.4161018e-38 321 233
0.00263 0.75 0.0092049995 1.3978409e-38 322 233
0.003945 0.75 0.0092049995 1.3793659e-38 323 233
0.00526 0.75 0.0092049995 1.3701444e-38 324 233
0.006575 0.75 0.0092049995 1.3701444e-38 325 233
0.00789 0.75 0.0092049995 1.3697849e-38 326 233
0.0092049995 0.75 0.0092049995 1.2407119e-38 327 233
0.01052 0.75 0.0092049995 1.2678682e-38 328 233
0.011835 0.75 0.0092049995 1.2493932e-38 329 233
0.01315 0.75 0.0092049995 1.1852882e-38 330 233
0.014465 0.75 0.0092049995 1.1760685e-38 331 233
0.01578 0.75 0.0092049995 1.1577742e-38 332 233
0.017095 0.75 0.0092049995 1.1577742e-38 333 233
0.018459093 0.75199997 0.0092295464 1.1301524e-38 334 233
0.019830201 0.75400001 0.0092540924 1.1301524e-38 335 233
0.021152213 0.75400001 0.0092540924 1.0840916e-38 336 233
0.022474226 0.75400001 0.0092540924 1.0472493e-38 337 233
0.02379624 0.75400001 0.0092540924 1.0197351e-38 338 233
0.025118252 0.75400001 0.0092540924 1.0105154e-38 339 233
0.026440267 0.75400001 0.0092540924 9.2797039e-39 340 233
0.027762281 0.75400001 0.0092540924 9.1875083e-39 341 233
0.029084291 0.75400001 0.0092540924 8.3599196e-39 342 233
0.030406307 0.75400001 0.0092540924 7.9911357e-39 343 233
0.03172832 0.75400001 0.0092540924 7.0731465e-39 344 233
0.033050332 0.75400001 0.0092540924 7.2575363e-39 345 233
0.034417931 0.755 0.0092663663 6.1573097e-39 346 233
0.035741698 0.755 0.0092663663 6.0647553e-39 347 233
0.037163652 0.75700003 0.0092909131 5.8821647e-39 348 233
0.038490929 0.75700003 0.0092909131 5.7899691e-39 349 233
0.039818201 0.75700003 0.0092909131 5.8818088e-39 350 233
0.041254178 0.759 0.00931546 5.7896131e-39 351 233
0.042697169 0.76099998 0.0093400059 5.5137521e-39 352 233
0.044031456 0.76099998 0.0093400059 5.5137521e-39 353 233
0.045365743 0.76099998 0.0093400059 6.065477e-39 354 233
0.046761397 0.76200002 0.0093522798 5.4201076e-39 355 233
0.048097439 0.76200002 0.0093522798 8.2824685e-39 356 233
-0.025551327 0.76700002 0.00806884 1.6130995e-38 301 234
-0.024174958 0.76599997 0.0080583189 1.3547716e-38 302 234
-0.022831906 0.76599997 0.0080583189 8.8457386e-39 303 234
-0.021432746 0.764 0.0080372803 8.8342199e-39 304 234
-0.020093199 0.764 0.0080372803 7.9119035e-39 305 234
-0.018753653 0.764 0.0080372803 7.2643733e-39 306 234
-0.01736852 0.76200002 0.0080162399 5.9736345e-39 307 234
-0.01603248 0.76200002 0.0080162399 8.1758955e-39 308 234
-0.014677152 0.76099998 0.0080057196 8.2680925e-39 309 234
-0.013342866 0.76099998 0.0080057196 9.8296589e-39 310 234
-0.01197702 0.759 0.0079846792 1.0751617e-38 311 234
-0.010590133 0.755 0.0079425992 1.158317e-38 312 234
-0.0092663663 0.755 0.0079425992 1.1675365e-38 313 234
-0.0079425992 0.755 0.0079425992 1.3052172e-38 314 234
-0.0066100666 0.75400001 0.00793208 1.3236563e-38 315 234
-0.0052880533 0.75400001 0.00793208 1.3330548e-38 316 234
-0.00396604 0.75400001 0.00793208 1.2869929e-38 317 234
-0.0026370131 0.75199997 0.0079110395 1.3510979e-38 318 234
-0.0013185065 0.75199997 0.0079110395 1.3418784e-38 319 234
0 0.75199997 0.0079110395 1.3695373e-38 320 234
0.001315 0.75 0.00789 1.3510623e-38 321 234
0.00263 0.75 0.00789 1.3602453e-38 322 234
0.003945 0.75 0.00789 1.3510258e-38 323 234
0.00526 0.75 0.00789 1.3603528e-38 324 234
0.006575 0.75 0.00789 1.3880116e-38 325 234
0.00789 0.75 0.00789 1.3144349e-38 326 234
0.0092049995 0.75 0.00789 1.2314588e-38 327 234
0.01052 0.75 0.00789 1.2400666e-38 328 234
0.011835 0.75 0.00789 1.2861644e-38 329 234
0.01315 0.75 0.00789 1.1945799e-38 330 234
0.014465 0.75 0.00789 1.1761768e-38 331 234
0.01578 0.75 0.00789 1.1577389e-38 332 234
0.017095 0.75 0.00789 1.1301161e-38 333 234
0.018409999 0.75 0.00789 1.1208259e-38 334 234
0.019724999 0.75 0.00789 1.1116064e-38 335 234
0.021096105 0.75199997 0.0079110395 1.08402e-38 336 234
0.022414612 0.75199997 0.0079110395 1.0563253e-38 337 234
0.023733119 0.75199997 0.0079110395 9.8292876e-39 338 234
0.025118252 0.75400001 0.00793208 9.7370919e-39 339 234
0.026440267 0.75400001 0.00793208 8.9112941e-39 340 234
0.027762281 0.75400001 0.00793208 8.6350674e-39 341 234
0.029084291 0.75400001 0.00793208 8.082981e-39 342 234
0.030406307 0.75400001 0.00793208 7.8063955e-39 343 234
0.03172832 0.75400001 0.00793208 6.9813194e-39 344 234
0.033050332 0.75400001 0.00793208 6.7969281e-39 345 234
0.034417931 0.755 0.0079425992 6.2473515e-39 346 234
0.035741698 0.755 0.0079425992 6.2473515e-39 347 234
0.037065465 0.755 0.0079425992 5.9725625e-39 348 234
0.038490929 0.75700003 0.0079636406 6.0647581e-39 349 234
0.039818201 0.75700003 0.0079636406 5.6062981e-39 350 234
0.041254178 0.759 0.0079846792 5.5141025e-39 351 234
0.042584959 0.759 0.0079846792 5.513022e-39 352 234
0.044031456 0.76099998 0.0080057196 5.6052191e-39 353 234
0.045365743 0.76099998 0.0080057196 6.1573041e-39 354 234
0.046700031 0.76099998 0.0080057196 5.6963245e-39 355 234
0.048034318 0.76099998 0.0080057196 8.6541292e-39 356 234
0.049368605 0.76099998 0.0080057196 1.4277703e-38 357 234
-0.025551327 0.76700002 0.006724033 1.6589816e-38 301 235
-0.024174958 0.76599997 0.0067152665 1.3732464e-38 302 235
-0.022831906 0.76599997 0.0067152665 9.1226828e-39 303 235
-0.021432746 0.764 0.006697733 9.0193272e-39 304 235
-0.020093199 0.764 0.006697733 8.0055355e-39 305 235
-0.018753653 0.764 0.006697733 7.6295559e-39 306 235
-0.01736852 0.76200002 0.0066801999 6.7079597e-39 307 235
-0.01603248 0.76200002 0.0066801999 7.1667855e-39 308 235
-0.014677152 0.76099998 0.0066714329 7.1667855e-39 309 235
-0.0133078 0.759 0.0066538998 8.8191209e-39 310 235
-0.01194546 0.75700003 0.0066363667 1.0017664e-38 311 235
-0.010590133 0.755 0.0066188332 1.1125812e-38 312 235
-0.0092663663 0.755 0.0066188332 1.1678627e-38 313 235
-0.0079425992 0.755 0.0066188332 1.2502613e-38 314 235
-0.0066100666 0.75400001 0.0066100666 1.259481e-38 315 235
-0.0052880533 0.75400001 0.0066100666 1.3236913e-38 316 235
-0.0039555198 0.75199997 0.0065925326 1.3329109e-38 317 235
-0.0026370131 0.75199997 0.0065925326 1.351313e-38 318 235
-0.0013185065 0.75199997 0.0065925326 1.332838e-38 319 235
0 0.75199997 0.0065925326 1.3417709e-38 320 235
0.001315 0.75 0.006575 1.3233316e-38 321 235
0.00263 0.75 0.006575 1.3231525e-38 322 235
0.003945 0.75 0.006575 1.3415556e-38 323 235
0.00526 0.75 0.006575 1.3325515e-38 324 235
0.006575 0.75 0.006575 1.3233319e-38 325 235
0.00789 0.75 0.006575 1.2866686e-38 326 235
0.0092049995 0.75 0.006575 1.2405707e-38 327 235
0.01052 0.75 0.006575 1.2590435e-38 328 235
0.011835 0.75 0.006575 1.2497881e-38 329 235
0.01315 0.75 0.006575 1.2404967e-38 330 235
0.014465 0.75 0.006575 1.2220578e-38 331 235
0.01578 0.75 0.006575 1.1759981e-38 332 235
0.017095 0.75 0.006575 1.1391559e-38 333 235
0.018409999 0.75 0.006575 1.0932395e-38 334 235
0.019724999 0.75 0.006575 1.0748004e-38 335 235
0.021096105 0.75199997 0.0065925326 1.0379946e-38 336 235
0.022414612 0.75199997 0.0065925326 1.0195196e-38 337 235
0.023733119 0.75199997 0.0065925326 9.5523447e-39 338 235
0.025051624 0.75199997 0.0065925326 9.5523447e-39 339 235
0.026440267 0.75400001 0.0066100666 8.5435878e-39 340 235
0.027762281 0.75400001 0.0066100666 8.5435878e-39 341 235
0.029084291 0.75400001 0.0066100666 7.900382e-39 342 235
0.030406307 0.75400001 0.0066100666 7.6241553e-39 343 235
0.03172832 0.75400001 0.0066100666 6.7065276e-39 344 235
0.033050332 0.75400001 0.0066100666 6.6143319e-39 345 235
0.034372345 0.75400001 0.0066100666 5.8803668e-39 346 235
0.035741698 0.755 0.0066188332 5.9725625e-39 347 235
0.037065465 0.755 0.0066188332 5.8810857e-39 348 235
0.038389232 0.755 0.0066188332 5.8810857e-39 349 235
0.039818201 0.75700003 0.0066363667 5.5141025e-39 350 235
0.041145474 0.75700003 0.0066363667 5.4219068e-39 351 235
0.042584959 0.759 0.0066538998 5.3300769e-39 352 235
0.044031456 0.76099998 0.0066714329 5.3300769e-39 353 235
0.045365743 0.76099998 0.0066714329 5.7921201e-39 354 235
0.046700031 0.76099998 0.0066714329 5.6995657e-39 355 235
0.048034318 0.76099998 0.0066714329 8.9321539e-39 356 235
0.049368605 0.76099998 0.0066714329 1.4464252e-38 357 235
-0.024174958 0.76599997 0.0053722127 1.4008691e-38 302 236
-0.022831906 0.76599997 0.0053722127 9.6758552e-39 303 236
-0.021432746 0.764 0.0053581866 9.2058765e-39 304 236
-0.020093199 0.764 0.0053581866 8.2835615e-39 305 236
-0.01870456 0.76200002 0.0053441599 8.1827324e-39 306 236
-0.01736852 0.76200002 0.0053441599 6.9841907e-39 307 236
-0.01603248 0.76200002 0.0053441599 7.4419304e-39 308 236
-0.014677152 0.76099998 0.0053371461 7.349376e-39 309 236
-0.0133078 0.759 0.0053231199 8.6350828e-39 310 236
-0.01194546 0.75700003 0.0053090933 9.6488746e-39 311 236
-0.010590133 0.755 0.0052950666 1.0021983e-38 312 236
-0.0092663663 0.755 0.0052950666 1.2326515e-38 313 236
-0.00793208 0.75400001 0.0052880533 1.2507652e-38 314 236
-0.0066100666 0.75400001 0.0052880533 1.2046674e-38 315 236
-0.0052880533 0.75400001 0.0052880533 1.3146164e-38 316 236
-0.0039555198 0.75199997 0.0052740262 1.3330195e-38 317 236
-0.0026370131 0.75199997 0.0052740262 1.351493e-38 318 236
-0.0013185065 0.75199997 0.0052740262 1.3237983e-38 319 236
0 0.75199997 0.0052740262 1.3694273e-38 320 236
0.001315 0.75 0.00526 1.332585e-38 321 236
0.00263 0.75 0.00526 1.3325494e-38 322 236
0.003945 0.75 0.00526 1.3325494e-38 323 236
0.00526 0.75 0.00526 1.3140402e-38 324 236
0.006575 0.75 0.00526 1.2402837e-38 325 236
0.00789 0.75 0.00526 1.2769824e-38 326 236
0.0092049995 0.75 0.00526 1.3507389e-38 327 236
0.01052 0.75 0.00526 1.2595116e-38 328 236
0.011835 0.75 0.00526 1.2318528e-38 329 236
0.01315 0.75 0.00526 1.2407841e-38 330 236
0.014465 0.75 0.00526 1.2038701e-38 331 236
0.01578 0.75 0.00526 1.1669219e-38 332 236
0.017095 0.75 0.00526 1.1116045e-38 333 236
0.018409999 0.75 0.00526 1.0931314e-38 334 236
0.019724999 0.75 0.00526 1.0655085e-38 335 236
0.02104 0.75 0.00526 1.0195552e-38 336 236
0.022414612 0.75199997 0.0052740262 9.9189665e-39 337 236
0.023733119 0.75199997 0.0052740262 9.2768341e-39 338 236
0.025051624 0.75199997 0.0052740262 9.3690297e-39 339 236
0.02637013 0.75199997 0.0052740262 8.543585e-39 340 236
0.027762281 0.75400001 0.0052880533 8.451388e-39 341 236
0.029084291 0.75400001 0.0052880533 7.3493662e-39 342 236
0.030406307 0.75400001 0.0052880533 7.2568119e-39 343 236
0.03172832 0.75400001 0.0052880533 6.4313728e-39 344 236
0.033050332 0.75400001 0.0052880533 6.3388184e-39 345 236
0.034372345 0.75400001 0.0052880533 6.1562279e-39 346 236
0.035694357 0.75400001 0.0052880533 6.0640322e-39 347 236
0.037065465 0.755 0.0052950666 5.697049e-39 348 236
0.038389232 0.755 0.0052950666 5.8810801e-39 349 236
0.039712999 0.755 0.0052950666 5.4222628e-39 350 236
0.041145474 0.75700003 0.0053090933 5.329707e-39 351 236
0.042472746 0.75700003 0.0053090933 5.1460416e-39 352 236
0.043915741 0.759 0.0053231199 5.4226285e-39 353 236
0.045246519 0.759 0.0053231199 5.7935536e-39 354 236
0.046577301 0.759 0.0053231199 5.4251298e-39 355 236
0.047908079 0.759 0.0053231199 9.1165465e-39 356 236
0.049238857 0.759 0.0053231199 1.4924871e-38 357 236
-0.024174958 0.76599997 0.0040291594 1.4103045e-38 302 237
-0.022831906 0.76599997 0.0040291594 1.0323024e-38 303 237
-0.021432746 0.764 0.0040186401 9.6675735e-39 304 237
-0.0200406 0.76200002 0.0040081199 8.561226e-39 305 237
-0.01870456 0.76200002 0.0040081199 8.5525912e-39 306 237
-0.01736852 0.76200002 0.0040081199 7.4462436e-39 307 237
-0.01603248 0.76200002 0.0040081199 7.1667826e-39 308 237
-0.014677152 0.76099998 0.0040028598 6.7061646e-39 309 237
-0.0133078 0.759 0.0039923396 8.4499657e-39 310 237
-0.01194546 0.75700003 0.0039818203 9.1875307e-39 311 237
-0.010618187 0.75700003 0.0039818203 1.0018383e-38 312 237
-0.0092663663 0.755 0.0039712996 1.2784252e-38 313 237
-0.00793208 0.75400001 0.00396604 1.2051006e-38 314 237
-0.0066100666 0.75400001 0.00396604 1.1590029e-38 315 237
-0.0052880533 0.75400001 0.00396604 1.296646e-38 316 237
-0.0039555198 0.75199997 0.0039555198 1.2689873e-38 317 237
-0.0026370131 0.75199997 0.0039555198 1.3790087e-38 318 237
-0.0013185065 0.75199997 0.0039555198 1.3329109e-38 319 237
0 0.75199997 0.0039555198 1.369356e-38 320 237
0.001315 0.75 0.003945 1.3785756e-38 321 237
0.00263 0.75 0.003945 1.3328368e-38 322 237
0.003945 0.75 0.003945 1.3328368e-38 323 237
0.00526 0.75 0.003945 1.3049282e-38 324 237
0.006575 0.75 0.003945 1.2403913e-38 325 237
0.00789 0.75 0.003945 1.2770893e-38 326 237
0.0092049995 0.75 0.003945 1.4153828e-38 327 237
0.01052 0.75 0.003945 1.2874577e-38 328 237
0.011835 0.75 0.003945 1.2229207e-38 329 237
0.01315 0.75 0.003945 1.2778065e-38 330 237
0.014465 0.75 0.003945 1.2317087e-38 331 237
0.01578 0.75 0.003945 1.167137e-38 332 237
0.017095 0.75 0.003945 1.0933805e-38 333 237
0.018409999 0.75 0.003945 1.0840906e-38 334 237
0.019724999 0.75 0.003945 1.0287732e-38 335 237
0.02104 0.75 0.003945 9.9200385e-39 336 237
0.022414612 0.75199997 0.0039555198 9.8278428e-39 337 237
0.023733119 0.75199997 0.0039555198 8.9109284e-39 338 237
0.025051624 0.75199997 0.0039555198 8.9109284e-39 339 237
0.02637013 0.75199997 0.0039555198 8.3588392e-39 340 237
0.027688639 0.75199997 0.0039555198 8.1748081e-39 341 237
0.029084291 0.75400001 0.00396604 6.9813068e-39 342 237
0.030406307 0.75400001 0.00396604 6.8891098e-39 343 237
0.03172832 0.75400001 0.00396604 6.3388212e-39 344 237
0.033050332 0.75400001 0.00396604 6.3388212e-39 345 237
0.034372345 0.75400001 0.00396604 6.0640322e-39 346 237
0.035694357 0.75400001 0.00396604 6.1562279e-39 347 237
0.037065465 0.755 0.0039712996 5.8810801e-39 348 237
0.038389232 0.755 0.0039712996 5.8810801e-39 349 237
0.039712999 0.755 0.0039712996 5.513022e-39 350 237
0.041145474 0.75700003 0.0039818203 5.3289909e-39 351 237
0.042472746 0.75700003 0.0039818203 5.1460416e-39 352 237
0.043915741 0.759 0.0039923396 5.5148241e-39 353 237
0.045246519 0.759 0.0039923396 5.7031586e-39 354 237
0.046577301 0.759 0.0039923396 5.8875499e-39 355 237
0.047908079 0.759 0.0039923396 9.670086e-39 356 237
0.049238857 0.759 0.0039923396 1.5294378e-38 357 237
-0.022831906 0.76599997 0.0026861064 1.1336818e-38 303 238
-0.02137664 0.76200002 0.00267208 9.9441646e-39 304 238
-0.0200406 0.76200002 0.00267208 8.3764788e-39 305 238
-0.01870456 0.76200002 0.00267208 9.0149958e-39 306 238
-0.01736852 0.76200002 0.00267208 8.0008425e-39 307 238
-0.01603248 0.76200002 0.00267208 7.3522347e-39 308 238
-0.014677152 0.76099998 0.0026685731 6.7990609e-39 309 238
-0.013342866 0.76099998 0.0026685731 7.8078389e-39 310 238
-0.01197702 0.759 0.00266156 8.2688184e-39 311 238
-0.010590133 0.755 0.0026475333 9.6478208e-39 312 238
-0.0092663663 0.755 0.0026475333 1.1768322e-38 313 238
-0.00793208 0.75400001 0.0026440267 1.1499652e-38 314 238
-0.0066100666 0.75400001 0.0026440267 1.2790391e-38 315 238
-0.0052880533 0.75400001 0.0026440267 1.3158079e-38 316 238
-0.0039555198 0.75199997 0.0026370131 1.2420514e-38 317 238
-0.0026370131 0.75199997 0.0026370131 1.3520009e-38 318 238
-0.0013185065 0.75199997 0.0026370131 1.3335259e-38 319 238
0 0.75199997 0.0026370131 1.3697173e-38 320 238
0.001315 0.75 0.00263 1.351278e-38 321 238
0.00263 0.75 0.00263 1.3514553e-38 322 238
0.003945 0.75 0.00263 1.3330163e-38 323 238
0.00526 0.75 0.00263 1.3325143e-38 324 238
0.006575 0.75 0.00263 1.2587578e-38 325 238
0.0078794798 0.74900001 0.0026264933 1.2496833e-38 326 238
0.0091927266 0.74900001 0.0026264933 1.3510626e-38 327 238
0.010505973 0.74900001 0.0026264933 1.2597655e-38 328 238
0.01181922 0.74900001 0.0026264933 1.2228872e-38 329 238
0.013132467 0.74900001 0.0026264933 1.2501864e-38 330 238
0.014445714 0.74900001 0.0026264933 1.2317471e-38 331 238
0.01575896 0.74900001 0.0026264933 1.1579184e-38 332 238
0.017095 0.75 0.00263 1.0933815e-38 333 238
0.018409999 0.75 0.00263 1.0381363e-38 334 238
0.019724999 0.75 0.00263 9.9207447e-39 335 238
0.02104 0.75 0.00263 9.5526951e-39 336 238
0.022414612 0.75199997 0.0026370131 9.5526951e-39 337 238
0.023733119 0.75199997 0.0026370131 8.8187328e-39 338 238
0.025051624 0.75199997 0.0026370131 8.7265357e-39 339 238
0.02637013 0.75199997 0.0026370131 8.0829782e-39 340 238
0.027688639 0.75199997 0.0026370131 7.7145558e-39 341 238
0.029007144 0.75199997 0.0026370131 6.888758e-39 342 238
0.030406307 0.75400001 0.0026440267 6.888758e-39 343 238
0.03172832 0.75400001 0.0026440267 6.3388212e-39 344 238
0.033050332 0.75400001 0.0026440267 6.3388212e-39 345 238
0.034372345 0.75400001 0.0026440267 5.8803612e-39 346 238
0.035741698 0.755 0.0026475333 5.8803612e-39 347 238
0.037065465 0.755 0.0026475333 5.9725597e-39 348 238
0.038389232 0.755 0.0026475333 5.788167e-39 349 238
0.039818201 0.75700003 0.0026545466 5.4201076e-39 350 238
0.041145474 0.75700003 0.0026545466 5.5123032e-39 351 238
0.042584959 0.759 0.00266156 5.147115e-39 352 238
0.043915741 0.759 0.00266156 5.4240606e-39 353 238
0.045246519 0.759 0.00266156 5.7928403e-39 354 238
0.046577301 0.759 0.00266156 7.2679704e-39 355 238
0.047908079 0.759 0.00266156 1.0592045e-38 356 238
0.049238857 0.759 0.00266156 1.593975e-38 357 238
-0.022861714 0.76700002 0.0013448066 1.2075104e-38 303 239
-0.02137664 0.76200002 0.00133604 1.0312587e-38 304 239
-0.0200406 0.76200002 0.00133604 8.2842831e-39 305 239
-0.01870456 0.76200002 0.00133604 8.4686646e-39 306 239
-0.01736852 0.76200002 0.00133604 7.1779258e-39 307 239
-0.01603248 0.76200002 0.00133604 7.2586125e-39 308 239
-0.014677152 0.76099998 0.0013342865 6.6132431e-39 309 239
-0.013342866 0.76099998 0.0013342865 7.8071144e-39 310 239
-0.01197702 0.759 0.00133078 7.8071144e-39 311 239
-0.010590133 0.755 0.0013237667 8.4510643e-39 312 239
-0.0092663663 0.755 0.0013237667 9.9258342e-39 313 239
-0.00793208 0.75400001 0.0013220133 1.0946127e-38 314 239
-0.0066100666 0.75400001 0.0013220133 1.3527604e-38 315 239
-0.0052880533 0.75400001 0.0013220133 1.362591e-38 316 239
-0.0039555198 0.75199997 0.0013185065 1.4547867e-38 317 239
-0.0026370131 0.75199997 0.0013185065 1.4834869e-38 318 239
-0.0013185065 0.75199997 0.0013185065 1.4097302e-38 319 239
0 0.75199997 0.0013185065 1.4903297e-38 320 239
0.001315 0.75 0.001315 1.3612558e-38 321 239
0.00263 0.75 0.001315 1.3791884e-38 322 239
0.003945 0.75 0.001315 1.34231e-38 323 239
0.00526 0.75 0.001315 1.3235466e-38 324 239
0.0065662335 0.74900001 0.0013132467 1.2497901e-38 325 239
0.0078794798 0.74900001 0.0013132467 1.2495032e-38 326 239
0.0091927266 0.74900001 0.0013132467 1.3048206e-38 327 239
0.010505973 0.74900001 0.0013132467 1.2131289e-38 328 239
0.01181922 0.74900001 0.0013132467 1.1854701e-38 329 239
0.013132467 0.74900001 0.0013132467 1.148412e-38 330 239
0.014445714 0.74900001 0.0013132467 1.1391925e-38 331 239
0.01575896 0.74900001 0.0013132467 1.1298291e-38 332 239
0.017095 0.75 0.001315 1.1206094e-38 333 239
0.018409999 0.75 0.001315 1.0287026e-38 334 239
0.019724999 0.75 0.001315 1.0102635e-38 335 239
0.02104 0.75 0.001315 9.3690297e-39 336 239
0.022414612 0.75199997 0.0013185065 9.3690297e-39 337 239
0.023733119 0.75199997 0.0013185065 8.6350646e-39 338 239
0.025051624 0.75199997 0.0013185065 8.4506719e-39 339 239
0.02637013 0.75199997 0.0013185065 7.4394081e-39 340 239
0.027688639 0.75199997 0.0013185065 7.347211e-39 341 239
0.029007144 0.75199997 0.0013185065 6.61289e-39 342 239
0.030406307 0.75400001 0.0013220133 6.7972813e-39 343 239
0.03172832 0.75400001 0.0013220133 6.3388241e-39 344 239
0.033050332 0.75400001 0.0013220133 6.3388241e-39 345 239
0.034372345 0.75400001 0.0013220133 5.880364e-39 346 239
0.035741698 0.755 0.0013237667 5.880364e-39 347 239
0.037065465 0.755 0.0013237667 5.879641e-39 348 239
0.038389232 0.755 0.0013237667 5.7874453e-39 349 239
0.039818201 0.75700003 0.0013272733 5.4201048e-39 350 239
0.041145474 0.75700003 0.0013272733 5.5126591e-39 351 239
0.042584959 0.759 0.00133078 5.3318622e-39 352 239
0.043915741 0.759 0.00133078 5.3318622e-39 353 239
0.045127295 0.75700003 0.0013272733 5.7921145e-39 354 239
0.046454567 0.75700003 0.0013272733 8.0970052e-39 355 239
0.047908079 0.759 0.00133078 1.1423238e-38 356 239
-0.022861714 0.76700002 -0 1.2998135e-38 303 240
-0.02137664 0.76200002 -0 1.0592045e-38 304 240
-0.0200406 0.76200002 -0 8.1031219e-39 305 240
-0.01870456 0.76200002 -0 9.1104341e-39 306 240
-0.01736852 0.76200002 -0 8.0040865e-39 307 240
-0.01603248 0.76200002 -0 6.8012245e-39 308 240
-0.014677152 0.76099998 -0 5.5104885e-39 309 240
-0.013342866 0.76099998 -0 7.0713374e-39 310 240
-0.01197702 0.759 -0 7.1631757e-39 311 240
-0.010618187 0.75700003 -0 8.0815517e-39 312 240
-0.0092663663 0.755 -0 9.2775837e-39 313 240
-0.00793208 0.75400001 -0 9.838347e-39 314 240
-0.0066100666 0.75400001 -0 1.2051401e-38 315 240
-0.0052880533 0.75400001 -0 1.2983802e-38 316 240
-0.0039555198 0.75199997 -0 1.5473084e-38 317 240
-0.0026370131 0.75199997 -0 1.6768121e-38 318 240
-0.0013185065 0.75199997 -0 1.658373e-38 319 240
0 0.75199997 -0 1.463213e-38 320 240
0.001315 0.75 -0 1.3526143e-38 321 240
0.00263 0.75 -0 1.3885898e-38 322 240
0.003945 0.75 -0 1.2963942e-38 323 240
0.00526 0.75 -0 1.2959617e-38 324 240
0.0065662335 0.74900001 -0 1.203802e-38 325 240
0.0078794798 0.74900001 -0 1.1487737e-38 326 240
0.0091927266 0.74900001 -0 1.1026759e-38 327 240
0.010505973 0.74900001 -0 1.1117522e-38 328 240
0.01181922 0.74900001 -0 1.0749098e-38 329 240
0.013132467 0.74900001 -0 1.093061e-38 330 240
0.014445714 0.74900001 -0 1.0654382e-38 331 240
0.01575896 0.74900001 -0 1.0194843e-38 332 240
0.017095 0.75 -0 9.9186161e-39 333 240
0.018409999 0.75 -0 9.3697542e-39 334 240
0.019724999 0.75 -0 9.3697542e-39 335 240
0.021096105 0.75199997 -0 9.003124e-39 336 240
0.022414612 0.75199997 -0 8.8187328e-39 337 240
0.023733119 0.75199997 -0 8.6339842e-39 338 240
0.025051624 0.75199997 -0 8.3577574e-39 339 240
0.02637013 0.75199997 -0 7.7152747e-39 340 240
0.027688639 0.75199997 -0 7.3468509e-39 341 240
0.029007144 0.75199997 -0 6.7972785e-39 342 240
0.030406307 0.75400001 -0 6.8894741e-39 343 240
0.03172832 0.75400001 -0 6.0640294e-39 344 240
0.033050332 0.75400001 -0 6.0640294e-39 345 240
0.034372345 0.75400001 -0 5.697049e-39 346 240
0.035741698 0.755 -0 5.697049e-39 347 240
0.037065465 0.755 -0 5.6948966e-39 348 240
0.038389232 0.755 -0 5.6027009e-39 349 240
0.039818201 0.75700003 -0 5.5115871e-39 350 240
0.041145474 0.75700003 -0 5.8800109e-39 351 240
0.042584959 0.759 -0 5.3315063e-39 352 240
0.043915741 0.759 -0 5.7002874e-39 353 240
0.045127295 0.75700003 -0 6.0686957e-39 354 240
0.046454567 0.75700003 -0 9.2955428e-39 355 240
0.04778184 0.75700003 -0 1.2621411e-38 356 240
-0.02137664 0.76200002 -0.00133604 1.1239217e-38 304 241
-0.0200406 0.76200002 -0.00133604 8.3811507e-39 305 241
-0.01870456 0.76200002 -0.00133604 8.2828482e-39 306 241
-0.01736852 0.76200002 -0.00133604 7.8215099e-39 307 241
-0.01603248 0.76200002 -0.00133604 8.3732586e-39 308 241
-0.014677152 0.76099998 -0.0013342865 8.4654542e-39 309 241
-0.013342866 0.76099998 -0.0013342865 8.642633e-39 310 241
-0.01197702 0.759 -0.00133078 6.6143291e-39 311 241
-0.010618187 0.75700003 -0.0013272733 8.4488699e-39 312 241
-0.0092663663 0.755 -0.0013237667 9.0917281e-39 313 241
-0.0079425992 0.755 -0.0013237667 8.7269407e-39 314 241
-0.0066100666 0.75400001 -0.0013220133 9.5570615e-39 315 241
-0.0052880533 0.75400001 -0.0013220133 1.1139172e-38 316 241
-0.0039555198 0.75199997 -0.0013185065 1.5287616e-38 317 241
-0.0026370131 0.75199997 -0.0013185065 1.6676291e-38 318 241
-0.0013185065 0.75199997 -0.0013185065 1.6400064e-38 319 241
0 0.75199997 -0.0013185065 1.3896733e-38 320 241
0.001315 0.75 -0.001315 1.2145016e-38 321 241
0.00263 0.75 -0.001315 1.2872838e-38 322 241
0.003945 0.75 -0.001315 1.2595892e-38 323 241
0.00526 0.75 -0.001315 1.2408967e-38 324 241
0.0065662335 0.74900001 -0.0013132467 1.1763598e-38 325 241
0.0078794798 0.74900001 -0.0013132467 1.1394465e-38 326 241
0.0091927266 0.74900001 -0.0013132467 1.1117878e-38 327 241
0.010505973 0.74900001 -0.0013132467 1.0749452e-38 328 241
0.01181922 0.74900001 -0.0013132467 1.038031e-38 329 241
0.013132467 0.74900001 -0.0013132467 1.0469625e-38 330 241
0.014445714 0.74900001 -0.0013132467 1.0193754e-38 331 241
0.01575896 0.74900001 -0.0013132467 9.6427397e-39 332 241
0.017095 0.75 -0.001315 9.7345766e-39 333 241
0.018409999 0.75 -0.001315 9.0013276e-39 334 241
0.019724999 0.75 -0.001315 9.0935246e-39 335 241
0.02104 0.75 -0.001315 8.6350674e-39 336 241
0.022355 0.75 -0.001315 8.5428704e-39 337 241
0.023733119 0.75199997 -0.0013185065 8.358842e-39 338 241
0.025051624 0.75199997 -0.0013185065 8.0826153e-39 339 241
0.02637013 0.75199997 -0.0013185065 7.2560986e-39 340 241
0.027688639 0.75199997 -0.0013185065 7.2560986e-39 341 241
0.029007144 0.75199997 -0.0013185065 6.430298e-39 342 241
0.030406307 0.75400001 -0.0013220133 6.6143291e-39 343 241
0.03172832 0.75400001 -0.0013220133 5.8803612e-39 344 241
0.033050332 0.75400001 -0.0013220133 5.7881642e-39 345 241
0.034372345 0.75400001 -0.0013220133 5.6959714e-39 346 241
0.035741698 0.755 -0.0013237667 5.5119402e-39 347 241
0.037065465 0.755 -0.0013237667 5.6941777e-39 348 241
0.038490929 0.75700003 -0.0013272733 5.6019821e-39 349 241
0.039818201 0.75700003 -0.0013272733 5.5115871e-39 350 241
0.041254178 0.759 -0.00133078 5.8800109e-39 351 241
0.042584959 0.759 -0.00133078 5.9757967e-39 352 241
0.043915741 0.759 -0.00133078 6.1605467e-39 353 241
0.045246519 0.759 -0.00133078 6.9935317e-39 354 241
0.046577301 0.759 -0.00133078 1.0773192e-38 355 241
0.047908079 0.759 -0.00133078 1.3454059e-38 356 241
-0.0200406 0.76200002 -0.00267208 9.2116316e-39 305 242
-0.01870456 0.76200002 -0.00267208 8.0041061e-39 306 242
-0.01736852 0.76200002 -0.00267208 8.1884974e-39 307 242
-0.01603248 0.76200002 -0.00267208 1.1792409e-38 308 242
-0.01469644 0.76200002 -0.00267208 1.2622169e-38 309 242
-0.013342866 0.76099998 -0.0026685731 1.1973187e-38 310 242
-0.01197702 0.759 -0.00266156 9.2995141e-39 311 242
-0.01064624 0.759 -0.00266156 1.1029627e-38 312 242
-0.0092909131 0.75700003 -0.0026545466 9.1860734e-39 313 242
-0.0079425992 0.755 -0.0026475333 9.734585e-39 314 242
-0.0066100666 0.75400001 -0.0026440267 9.9186189e-39 315 242
-0.0052880533 0.75400001 -0.0026440267 1.0576268e-38 316 242
-0.00396604 0.75400001 -0.0026440267 1.4725071e-38 317 242
-0.0026370131 0.75199997 -0.0026370131 1.4825899e-38 318 242
-0.0013185065 0.75199997 -0.0026370131 1.4733702e-38 319 242
0 0.75199997 -0.0026370131 1.2972613e-38 320 242
0.001315 0.75 -0.00263 1.1866264e-38 321 242
0.00263 0.75 -0.00263 1.2595895e-38 322 242
0.003945 0.75 -0.00263 1.2411864e-38 323 242
0.00526 0.75 -0.00263 1.213275e-38 324 242
0.006575 0.75 -0.00263 1.1672131e-38 325 242
0.00789 0.75 -0.00263 1.1120395e-38 326 242
0.0091927266 0.74900001 -0.0026264933 1.0751614e-38 327 242
0.010505973 0.74900001 -0.0026264933 1.0382827e-38 328 242
0.01181922 0.74900001 -0.0026264933 9.7374577e-39 329 242
0.013132467 0.74900001 -0.0026264933 9.8271366e-39 330 242
0.014445714 0.74900001 -0.0026264933 9.4590715e-39 331 242
0.01575896 0.74900001 -0.0026264933 8.9080571e-39 332 242
0.017095 0.75 -0.00263 8.9080571e-39 333 242
0.018409999 0.75 -0.00263 8.7254637e-39 334 242
0.019724999 0.75 -0.00263 8.9094949e-39 335 242
0.02104 0.75 -0.00263 8.2677254e-39 336 242
0.022355 0.75 -0.00263 8.1755298e-39 337 242
0.023669999 0.75 -0.00263 7.8996659e-39 338 242
0.024984999 0.75 -0.00263 7.7152747e-39 339 242
0.02637013 0.75199997 -0.0026370131 7.1635471e-39 340 242
0.027688639 0.75199997 -0.0026370131 7.1635471e-39 341 242
0.029007144 0.75199997 -0.0026370131 6.521416e-39 342 242
0.030406307 0.75400001 -0.0026440267 6.521416e-39 343 242
0.03172832 0.75400001 -0.0026440267 5.9707632e-39 344 242
0.033050332 0.75400001 -0.0026440267 5.8785676e-39 345 242
0.034417931 0.755 -0.0026475333 5.6019821e-39 346 242
0.035741698 0.755 -0.0026475333 5.5101452e-39 347 242
0.037065465 0.755 -0.0026475333 5.5101452e-39 348 242
0.038490929 0.75700003 -0.0026545466 5.6941777e-39 349 242
0.0399234 0.759 -0.00266156 5.5130249e-39 350 242
0.041362885 0.76099998 -0.0026685731 5.7896131e-39 351 242
0.042697169 0.76099998 -0.0026685731 5.8857548e-39 352 242
0.043915741 0.759 -0.00266156 6.2545373e-39 353 242
0.045246519 0.759 -0.00266156 7.5492194e-39 354 242
0.046577301 0.759 -0.00266156 1.2251197e-38 355 242
0.047908079 0.759 -0.00266156 1.3823564e-38 356 242
-0.020172099 0.76700002 -0.00403442 1.0226863e-38 305 243
-0.018827293 0.76700002 -0.00403442 7.358015e-39 306 243
-0.017459691 0.76599997 -0.0040291594 9.2019262e-39 307 243
-0.016074561 0.764 -0.0040186401 1.493247e-38 308 243
-0.01469644 0.76200002 -0.0040081199 1.5762233e-38 309 243
-0.013342866 0.76099998 -0.0040028598 1.4840622e-38 310 243
-0.012008579 0.76099998 -0.0040028598 1.2166949e-38 311 243
-0.01064624 0.759 -0.0039923396 1.2977593e-38 312 243
-0.0092909131 0.75700003 -0.0039818203 9.5663549e-39 313 243
-0.0079425992 0.755 -0.0039712996 1.1023852e-38 314 243
-0.0066188332 0.755 -0.0039712996 1.0285934e-38 315 243
-0.0052880533 0.75400001 -0.00396604 1.0382501e-38 316 243
-0.00396604 0.75400001 -0.00396604 1.2871783e-38 317 243
-0.0026370131 0.75199997 -0.0039555198 1.130952e-38 318 243
-0.0013185065 0.75199997 -0.0039555198 1.0571596e-38 319 243
0 0.75199997 -0.0039555198 1.1493167e-38 320 243
0.001315 0.75 -0.003945 1.1493167e-38 321 243
0.00263 0.75 -0.003945 1.1950526e-38 322 243
0.003945 0.75 -0.003945 1.1950526e-38 323 243
0.00526 0.75 -0.003945 1.1489903e-38 324 243
0.006575 0.75 -0.003945 1.1305153e-38 325 243
0.00789 0.75 -0.003945 1.057082e-38 326 243
0.0091927266 0.74900001 -0.0039397399 1.0294231e-38 327 243
0.010505973 0.74900001 -0.0039397399 1.00162e-38 328 243
0.01181922 0.74900001 -0.0039397399 9.463026e-39 329 243
0.013132467 0.74900001 -0.0039397399 9.3683136e-39 330 243
0.014445714 0.74900001 -0.0039397399 9.0917253e-39 331 243
0.01575896 0.74900001 -0.0039397399 8.9080515e-39 332 243
0.017095 0.75 -0.003945 8.7243791e-39 333 243
0.018409999 0.75 -0.003945 8.5407096e-39 334 243
0.019724999 0.75 -0.003945 8.8165776e-39 335 243
0.02104 0.75 -0.003945 8.1748081e-39 336 243
0.022355 0.75 -0.003945 8.0826125e-39 337 243
0.023669999 0.75 -0.003945 7.5316037e-39 338 243
0.024984999 0.75 -0.003945 7.4394081e-39 339 243
0.02637013 0.75199997 -0.0039555198 6.7965582e-39 340 243
0.027688639 0.75199997 -0.0039555198 6.7965582e-39 341 243
0.029084291 0.75400001 -0.00396604 6.2459054e-39 342 243
0.030406307 0.75400001 -0.00396604 6.1537097e-39 343 243
0.03172832 0.75400001 -0.00396604 5.9693241e-39 344 243
0.033050332 0.75400001 -0.00396604 5.7856517e-39 345 243
0.034417931 0.755 -0.0039712996 5.6938134e-39 346 243
0.035741698 0.755 -0.0039712996 5.6019765e-39 347 243
0.037065465 0.755 -0.0039712996 5.4183041e-39 348 243
0.038490929 0.75700003 -0.0039818203 5.8785648e-39 349 243
0.0399234 0.759 -0.0039923396 5.4219068e-39 350 243
0.041362885 0.76099998 -0.0040028598 5.9750792e-39 351 243
0.042697169 0.76099998 -0.0040028598 6.1634165e-39 352 243
0.043915741 0.759 -0.0039923396 6.5322004e-39 353 243
0.045246519 0.759 -0.0039923396 8.194586e-39 354 243
0.046577301 0.759 -0.0039923396 1.3541933e-38 355 243
-0.018876385 0.76899999 -0.0053932532 7.3576647e-39 306 244
-0.01736852 0.76200002 -0.0053441599 1.0307565e-38 307 244
-0.01603248 0.76200002 -0.0053441599 1.484424e-38 308 244
-0.01469644 0.76200002 -0.0053441599 1.4475459e-38 309 244
-0.013342866 0.76099998 -0.0053371461 1.2910648e-38 310 244
-0.012008579 0.76099998 -0.0053371461 1.2450028e-38 311 244
-0.01064624 0.759 -0.0053231199 1.3634501e-38 312 244
-0.0092909131 0.75700003 -0.0053090933 1.0776797e-38 313 244
-0.0079425992 0.755 -0.0052950666 1.2595134e-38 314 244
-0.0066188332 0.755 -0.0052950666 1.0198048e-38 315 244
-0.0052880533 0.75400001 -0.0052880533 1.1208625e-38 316 244
-0.00396604 0.75400001 -0.0052880533 1.1485572e-38 317 244
-0.0026370131 0.75199997 -0.0052740262 9.7382032e-39 318 244
-0.0013185065 0.75199997 -0.0052740262 1.0015149e-38 319 244
0 0.75199997 -0.0052740262 1.0663034e-38 320 244
0.001315 0.75 -0.00526 1.1124012e-38 321 244
0.00263 0.75 -0.00526 1.1582466e-38 322 244
0.003945 0.75 -0.00526 1.1582466e-38 323 244
0.00526 0.75 -0.00526 1.093925e-38 324 244
0.006575 0.75 -0.00526 1.07545e-38 325 244
0.00789 0.75 -0.00526 1.0020889e-38 326 244
0.0091927266 0.74900001 -0.0052529867 9.8361371e-39 327 244
0.010505973 0.74900001 -0.0052529867 9.7417765e-39 328 244
0.01181922 0.74900001 -0.0052529867 9.1886041e-39 329 244
0.013132467 0.74900001 -0.0052529867 9.2768397e-39 330 244
0.014445714 0.74900001 -0.0052529867 8.9080571e-39 331 244
0.01575896 0.74900001 -0.0052529867 8.7243847e-39 332 244
0.017095 0.75 -0.00526 8.3570372e-39 333 244
0.018409999 0.75 -0.00526 8.4488769e-39 334 244
0.019724999 0.75 -0.00526 8.5410725e-39 335 244
0.02104 0.75 -0.00526 7.9897008e-39 336 244
0.022355 0.75 -0.00526 7.8978625e-39 337 244
0.023733119 0.75199997 -0.0052740262 7.163903e-39 338 244
0.025051624 0.75199997 -0.0052740262 7.2560986e-39 339 244
0.026440267 0.75400001 -0.0052880533 6.6139662e-39 340 244
0.027762281 0.75400001 -0.0052880533 6.6139662e-39 341 244
0.029084291 0.75400001 -0.0052880533 6.0625903e-39 342 244
0.030406307 0.75400001 -0.0052880533 5.9703947e-39 343 244
0.03172832 0.75400001 -0.0052880533 5.7856461e-39 344 244
0.033094164 0.755 -0.0052950666 5.6019709e-39 345 244
0.034417931 0.755 -0.0052950666 5.5101368e-39 346 244
0.035741698 0.755 -0.0052950666 5.6019737e-39 347 244
0.037065465 0.755 -0.0052950666 5.2349946e-39 348 244
0.038592618 0.759 -0.0053231199 5.5119402e-39 349 244
0.040028598 0.76099998 -0.0053371461 5.6062981e-39 350 244
0.041362885 0.76099998 -0.0053371461 6.2516675e-39 351 244
0.042697169 0.76099998 -0.0053371461 6.6251149e-39 352 244
0.044031456 0.76099998 -0.0053371461 7.3626814e-39 353 244
0.045365743 0.76099998 -0.0053371461 9.0243509e-39 354 244
-0.01736852 0.76200002 -0.0066801999 1.0495208e-38 307 245
-0.01603248 0.76200002 -0.0066801999 1.4382557e-38 308 245
-0.01469644 0.76200002 -0.0066801999 1.4198165e-38 309 245
-0.013342866 0.76099998 -0.0066714329 1.2175253e-38 310 245
-0.012008579 0.76099998 -0.0066714329 1.2359644e-38 311 245
-0.01064624 0.759 -0.0066538998 1.3643884e-38 312 245
-0.0092909131 0.75700003 -0.0066363667 1.1984003e-38 313 245
-0.0079636406 0.75700003 -0.0066363667 1.3161629e-38 314 245
-0.0066188332 0.755 -0.0066188332 1.0026977e-38 315 245
-0.0052950666 0.755 -0.0066188332 1.1300076e-38 316 245
-0.00396604 0.75400001 -0.0066100666 1.0101905e-38 317 245
-0.0026440267 0.75400001 -0.0066100666 9.8264359e-39 318 245
-0.0013220133 0.75400001 -0.0066100666 1.1024979e-38 319 245
0 0.75199997 -0.0065925326 1.0018766e-38 320 245
0.001315 0.75 -0.006575 1.0479384e-38 321 245
0.00263 0.75 -0.006575 1.0572639e-38 322 245
0.003945 0.75 -0.006575 1.0572639e-38 323 245
0.00526 0.75 -0.006575 1.0571554e-38 324 245
0.006575 0.75 -0.006575 1.0295327e-38 325 245
0.00789 0.75 -0.006575 1.0019812e-38 326 245
0.0091927266 0.74900001 -0.0065662335 9.835421e-39 327 245
0.010505973 0.74900001 -0.0065662335 9.7407045e-39 328 245
0.01181922 0.74900001 -0.0065662335 9.0953351e-39 329 245
0.013132467 0.74900001 -0.0065662335 9.2764865e-39 330 245
0.014465 0.75 -0.006575 8.9080627e-39 331 245
0.01578 0.75 -0.006575 8.7243847e-39 332 245
0.017095 0.75 -0.006575 8.4488755e-39 333 245
0.018409999 0.75 -0.006575 8.3570428e-39 334 245
0.019724999 0.75 -0.006575 8.2652045e-39 335 245
0.02104 0.75 -0.006575 7.9897022e-39 336 245
0.022355 0.75 -0.006575 7.9897022e-39 337 245
0.023733119 0.75199997 -0.0065925326 7.0720703e-39 338 245
0.025051624 0.75199997 -0.0065925326 7.0720703e-39 339 245
0.026440267 0.75400001 -0.0066100666 6.5217692e-39 340 245
0.027762281 0.75400001 -0.0066100666 6.5217692e-39 341 245
0.029084291 0.75400001 -0.0066100666 5.9711135e-39 342 245
0.030406307 0.75400001 -0.0066100666 5.6948868e-39 343 245
0.03172832 0.75400001 -0.0066100666 5.6019695e-39 344 245
0.033094164 0.755 -0.0066188332 5.4182971e-39 345 245
0.034417931 0.755 -0.0066188332 5.3264602e-39 346 245
0.035741698 0.755 -0.0066188332 5.6019695e-39 347 245
0.037065465 0.755 -0.0066188332 5.3282651e-39 348 245
0.038592618 0.759 -0.0066538998 5.6048519e-39 349 245
0.040028598 0.76099998 -0.0066714329 5.7002902e-39 350 245
0.041417241 0.76200002 -0.0066801999 6.5300522e-39 351 245
0.042753279 0.76200002 -0.0066801999 6.4425257e-39 352 245
0.044089317 0.76200002 -0.0066801999 8.1938826e-39 353 245
0.045425359 0.76200002 -0.0066801999 1.0865392e-38 354 245
-0.01736852 0.76200002 -0.0080162399 9.3910217e-39 307 246
-0.01603248 0.76200002 -0.0080162399 1.2723035e-38 308 246
-0.01469644 0.76200002 -0.0080162399 1.3829742e-38 309 246
-0.013342866 0.76099998 -0.0080057196 1.2451843e-38 310 246
-0.012008579 0.76099998 -0.0080057196 1.2174897e-38 311 246
-0.010674292 0.76099998 -0.0080057196 1.1624228e-38 312 246
-0.00931546 0.759 -0.0079846792 1.2269597e-38 313 246
-0.0079636406 0.75700003 -0.0079636406 1.382106e-38 314 246
-0.0066363667 0.75700003 -0.0079636406 1.1424332e-38 315 246
-0.0052950666 0.755 -0.0079425992 1.2693095e-38 316 246
-0.0039712996 0.755 -0.0079425992 1.0480398e-38 317 246
-0.0026440267 0.75400001 -0.00793208 1.0379943e-38 318 246
-0.0013220133 0.75400001 -0.00793208 1.0287748e-38 319 246
0 0.75199997 -0.0079110395 1.0109137e-38 320 246
0.001315 0.75 -0.00789 1.0477919e-38 321 246
0.00263 0.75 -0.00789 1.0387523e-38 322 246
0.003945 0.75 -0.00789 1.0387523e-38 323 246
0.00526 0.75 -0.00789 1.0202776e-38 324 246
0.006575 0.75 -0.00789 1.0110579e-38 325 246
0.00789 0.75 -0.00789 9.743238e-39 326 246
0.0092049995 0.75 -0.00789 9.4670113e-39 327 246
0.01052 0.75 -0.00789 9.1897013e-39 328 246
0.011835 0.75 -0.00789 8.5443319e-39 329 246
0.01315 0.75 -0.00789 9.183579e-39 330 246
0.014465 0.75 -0.00789 8.9999052e-39 331 246
0.01578 0.75 -0.00789 8.8162202e-39 332 246
0.017095 0.75 -0.00789 8.8162202e-39 333 246
0.018409999 0.75 -0.00789 8.2652031e-39 334 246
0.019724999 0.75 -0.00789 8.2652031e-39 335 246
0.02104 0.75 -0.00789 7.7141901e-39 336 246
0.022414612 0.75199997 -0.0079110395 7.7141901e-39 337 246
0.023733119 0.75199997 -0.0079110395 6.9798705e-39 338 246
0.025118252 0.75400001 -0.00793208 6.7958393e-39 339 246
0.026440267 0.75400001 -0.00793208 6.2451893e-39 340 246
0.027762281 0.75400001 -0.00793208 6.2451893e-39 341 246
0.029084291 0.75400001 -0.00793208 5.9693213e-39 342 246
0.030406307 0.75400001 -0.00793208 5.6938106e-39 343 246
0.031770397 0.755 -0.0079425992 5.4182999e-39 344 246
0.033094164 0.755 -0.0079425992 5.4182999e-39 345 246
0.034417931 0.755 -0.0079425992 5.3264644e-39 346 246
0.035741698 0.755 -0.0079425992 5.6945308e-39 347 246
0.037065465 0.755 -0.0079425992 5.5133724e-39 348 246
0.038694311 0.76099998 -0.0080057196 6.1587418e-39 349 246
0.040028598 0.76099998 -0.0080057196 6.1623445e-39 350 246
0.041417241 0.76200002 -0.0080162399 7.1761377e-39 351 246
0.042753279 0.76200002 -0.0080162399 6.9938975e-39 352 246
0.044089317 0.76200002 -0.0080162399 1.0682083e-38 353 246
-0.01603248 0.76200002 -0.0093522798 1.0970952e-38 308 247
-0.01469644 0.76200002 -0.0093522798 1.3183288e-38 309 247
-0.0133604 0.76200002 -0.0093522798 1.2543685e-38 310 247
-0.012008579 0.76099998 -0.0093400059 1.2174544e-38 311 247
-0.010674292 0.76099998 -0.0093400059 1.1531329e-38 312 247
-0.00931546 0.759 -0.00931546 1.2822067e-38 313 247
-0.0079846792 0.759 -0.00931546 1.4842793e-38 314 247
-0.0066363667 0.75700003 -0.0092909131 1.299888e-38 315 247
-0.0053090933 0.75700003 -0.0092909131 1.3356104e-38 316 247
-0.0039712996 0.755 -0.0092663663 1.0498038e-38 317 247
-0.0026475333 0.755 -0.0092663663 1.0753377e-38 318 247
-0.0013220133 0.75400001 -0.0092540924 8.5407011e-39 319 247
0 0.75400001 -0.0092540924 9.4637491e-39 320 247
0.0013185065 0.75199997 -0.0092295464 1.0201314e-38 321 247
0.0026370131 0.75199997 -0.0092295464 9.3766163e-39 322 247
0.0039555198 0.75199997 -0.0092295464 9.5606474e-39 323 247
0.00526 0.75 -0.0092049995 9.5599286e-39 324 247
0.006575 0.75 -0.0092049995 9.3751786e-39 325 247
0.0079110395 0.75199997 -0.0092295464 9.3748156e-39 326 247
0.0092295464 0.75199997 -0.0092295464 9.28262e-39 327 247
0.010548052 0.75199997 -0.0092295464 8.9127557e-39 328 247
0.011866559 0.75199997 -0.0092295464 8.2673863e-39 329 247
0.013185065 0.75199997 -0.0092295464 8.5407278e-39 330 247
0.014503572 0.75199997 -0.0092295464 8.357054e-39 331 247
0.01578 0.75 -0.0092049995 8.3570498e-39 332 247
0.017095 0.75 -0.0092049995 8.2652115e-39 333 247
0.018409999 0.75 -0.0092049995 7.8978653e-39 334 247
0.019724999 0.75 -0.0092049995 7.8060284e-39 335 247
0.021096105 0.75199997 -0.0092295464 7.7141915e-39 336 247
0.022414612 0.75199997 -0.0092295464 7.6223546e-39 337 247
0.02379624 0.75400001 -0.0092540924 7.1631841e-39 338 247
0.025118252 0.75400001 -0.0092540924 7.0713472e-39 339 247
0.026475333 0.755 -0.0092663663 6.3366661e-39 340 247
0.027799098 0.755 -0.0092663663 6.3366661e-39 341 247
0.029122867 0.755 -0.0092663663 5.7856461e-39 342 247
0.030446632 0.755 -0.0092663663 5.7856461e-39 343 247
0.031770397 0.755 -0.0092663663 5.5104885e-39 344 247
0.033094164 0.755 -0.0092663663 5.6026855e-39 345 247
0.034417931 0.755 -0.0092663663 5.6026855e-39 346 247
0.035931058 0.759 -0.00931546 6.0636623e-39 347 247
0.03726184 0.759 -0.00931546 5.9761456e-39 348 247
0.038694311 0.76099998 -0.0093400059 6.4374839e-39 349 247
0.040028598 0.76099998 -0.0093400059 6.80843e-39 350 247
0.041417241 0.76200002 -0.0093522798 7.3616038e-39 351 247
0.042753279 0.76200002 -0.0093522798 6.8120271e-39 352 247
0.044089317 0.76200002 -0.0093522798 1.2435961e-38 353 247
-0.01603248 0.76200002 -0.01068832 9.4032578e-39 308 248
-0.01469644 0.76200002 -0.01068832 1.2630103e-38 309 248
-0.0133604 0.76200002 -0.01068832 1.2635881e-38 310 248
-0.012008579 0.76099998 -0.010674292 1.2267098e-38 311 248
-0.010674292 0.76099998 -0.010674292 1.1991585e-38 312 248
-0.0093400059 0.76099998 -0.010674292 1.2452562e-38 313 248
-0.0079846792 0.759 -0.01064624 1.3373426e-38 314 248
-0.0066538998 0.759 -0.01064624 1.3465622e-38 315 248
-0.0053090933 0.75700003 -0.010618187 1.4103055e-38 316 248
-0.0039712996 0.755 -0.010590133 1.2166946e-38 317 248
-0.0026475333 0.755 -0.010590133 1.1685059e-38 318 248
-0.0013237667 0.755 -0.010590133 8.2734623e-39 319 248
0 0.75400001 -0.010576107 8.6325366e-39 320 248
0.0013220133 0.75400001 -0.010576107 1.0013306e-38 321 248
0.0026370131 0.75199997 -0.010548052 9.2829689e-39 322 248
0.0039555198 0.75199997 -0.010548052 9.2829689e-39 323 248
0.0052740262 0.75199997 -0.010548052 9.374094e-39 324 248
0.0065925326 0.75199997 -0.010548052 9.2818969e-39 325 248
0.0079110395 0.75199997 -0.010548052 9.0975057e-39 326 248
0.0092295464 0.75199997 -0.010548052 8.7287246e-39 327 248
0.010548052 0.75199997 -0.010548052 8.8180419e-39 328 248
0.011866559 0.75199997 -0.010548052 8.2652269e-39 329 248
0.013185065 0.75199997 -0.010548052 8.2652115e-39 330 248
0.014503572 0.75199997 -0.010548052 8.2652115e-39 331 248
0.015822079 0.75199997 -0.010548052 8.2652045e-39 332 248
0.017095 0.75 -0.01052 8.5407138e-39 333 248
0.018409999 0.75 -0.01052 7.8060256e-39 334 248
0.0197776 0.75199997 -0.010548052 7.8060256e-39 335 248
