# .PCD v.7 - Point Cloud Data file format
FIELDS x y z rgb imX imY
SIZE 4 4 4 4 4 4
TYPE F F F F F F
COUNT 1 1 1 1 1 1
WIDTH 844
HEIGHT 1
VIEWPOINT 0 0 0 1 0 0 0
POINTS 844
DATA ascii
-0.01613768 0.76700002 0.00806884 1.3373756e-38 308 234
-0.014792874 0.76700002 0.00806884 1.3189363e-38 309 234
-0.013430533 0.76599997 0.0080583189 1.1629152e-38 310 234
-0.01205592 0.764 0.0080372803 9.1398697e-39 311 234
-0.010716373 0.764 0.0080372803 7.6700646e-39 312 234
-0.0093768267 0.764 0.0080372803 8.9608034e-39 313 234
-0.0080162399 0.76200002 0.0080162399 1.1529301e-38 314 234
-0.0066801999 0.76200002 0.0080162399 1.1713689e-38 315 234
-0.0053441599 0.76200002 0.0080162399 1.190023e-38 316 234
-0.0040081199 0.76200002 0.0080162399 1.2176454e-38 317 234
-0.00267208 0.76200002 0.0080162399 1.2544514e-38 318 234
-0.00133604 0.76200002 0.0080162399 1.2729261e-38 319 234
0 0.76200002 0.0080162399 1.3187721e-38 320 234
0.00133604 0.76200002 0.0080162399 1.3279915e-38 321 234
0.00267208 0.76200002 0.0080162399 1.3187721e-38 322 234
0.0040081199 0.76200002 0.0080162399 1.3187721e-38 323 234
0.0053441599 0.76200002 0.0080162399 1.3187721e-38 324 234
0.0066801999 0.76200002 0.0080162399 1.3187721e-38 325 234
0.0080162399 0.76200002 0.0080162399 1.328135e-38 326 234
0.0093522798 0.76200002 0.0080162399 1.3742324e-38 327 234
0.01068832 0.76200002 0.0080162399 1.3833094e-38 328 234
0.01202436 0.76200002 0.0080162399 1.3003334e-38 329 234
0.0133604 0.76200002 0.0080162399 1.2726392e-38 330 234
0.01469644 0.76200002 0.0080162399 1.2357614e-38 331 234
0.01603248 0.76200002 0.0080162399 1.1990272e-38 332 234
0.01736852 0.76200002 0.0080162399 1.1621136e-38 333 234
0.01870456 0.76200002 0.0080162399 1.1436748e-38 334 234
0.020093199 0.764 0.0080372803 1.1252359e-38 335 234
0.021432746 0.764 0.0080372803 1.115873e-38 336 234
0.022831906 0.76599997 0.0080583189 1.115873e-38 337 234
0.024174958 0.76599997 0.0080583189 1.1341684e-38 338 234
0.025551327 0.76700002 0.00806884 1.1341684e-38 339 234
0.026896132 0.76700002 0.00806884 1.1065821e-38 340 234
0.02824094 0.76700002 0.00806884 1.0881071e-38 341 234
0.02966289 0.76899999 0.0080898795 1.0329351e-38 342 234
0.031011207 0.76899999 0.0080898795 1.0052405e-38 343 234
0.032443684 0.77100003 0.0081109209 9.866237e-39 344 234
0.033927001 0.77399999 0.0081424797 9.9584326e-39 345 234
0.03528408 0.77399999 0.0081424797 1.0232891e-38 346 234
0.036641158 0.77399999 0.0081424797 1.0970456e-38 347 234
0.038096428 0.77600002 0.0081635201 1.1613702e-38 348 234
0.039457016 0.77600002 0.0081635201 1.4102984e-38 349 234
-0.036925197 0.77999997 0.0068379994 1.6317175e-38 293 235
-0.035557598 0.77999997 0.0068379994 1.4199161e-38 294 235
-0.034189999 0.77999997 0.0068379994 1.3093174e-38 295 235
-0.032738242 0.778 0.0068204664 1.2450984e-38 296 235
-0.031374145 0.778 0.0068204664 1.1990006e-38 297 235
-0.029932907 0.77600002 0.0068029333 1.0886895e-38 298 235
-0.028498679 0.77399999 0.0067853997 1.2546416e-38 299 235
-0.027106533 0.773 0.0067766332 1.4111301e-38 300 235
-0.025751207 0.773 0.0067766332 1.5218007e-38 301 235
-0.024395877 0.773 0.0067766332 1.3650012e-38 302 235
-0.02298094 0.77100003 0.0067590997 1.2451827e-38 303 235
-0.021629119 0.77100003 0.0067590997 1.1993007e-38 304 235
-0.0202247 0.76899999 0.0067415666 1.1163605e-38 305 235
-0.018876385 0.76899999 0.0067415666 1.1346915e-38 306 235
-0.017482487 0.76700002 0.006724033 1.2729851e-38 307 235
-0.01613768 0.76700002 0.006724033 1.3466323e-38 308 235
-0.014792874 0.76700002 0.006724033 1.3374127e-38 309 235
-0.013430533 0.76599997 0.0067152665 1.282412e-38 310 235
-0.01205592 0.764 0.006697733 1.0611065e-38 311 235
-0.010716373 0.764 0.006697733 7.5796696e-39 312 235
-0.0093522798 0.76200002 0.0066801999 8.0406478e-39 313 235
-0.0080162399 0.76200002 0.0066801999 1.1162676e-38 314 235
-0.0066801999 0.76200002 0.0066801999 1.1439259e-38 315 235
-0.0053441599 0.76200002 0.0066801999 1.1808036e-38 316 235
-0.0040081199 0.76200002 0.0066801999 1.2176454e-38 317 235
-0.00267208 0.76200002 0.0066801999 1.2544514e-38 318 235
-0.00133604 0.76200002 0.0066801999 1.2636708e-38 319 235
0 0.76200002 0.0066801999 1.300405e-38 320 235
0.00133604 0.76200002 0.0066801999 1.300405e-38 321 235
0.00267208 0.76200002 0.0066801999 1.3004408e-38 322 235
0.0040081199 0.76200002 0.0066801999 1.3004408e-38 323 235
0.0053441599 0.76200002 0.0066801999 1.3187721e-38 324 235
0.0066801999 0.76200002 0.0066801999 1.3279915e-38 325 235
0.0080162399 0.76200002 0.0066801999 1.3005843e-38 326 235
0.0093522798 0.76200002 0.0066801999 1.3374262e-38 327 235
0.01068832 0.76200002 0.0066801999 1.3280645e-38 328 235
0.01202436 0.76200002 0.0066801999 1.2727471e-38 329 235
0.0133604 0.76200002 0.0066801999 1.2359415e-38 330 235
0.01469644 0.76200002 0.0066801999 1.1990272e-38 331 235
0.01603248 0.76200002 0.0066801999 1.1621854e-38 332 235
0.01736852 0.76200002 0.0066801999 1.152966e-38 333 235
0.01870456 0.76200002 0.0066801999 1.1344195e-38 334 235
0.020093199 0.764 0.006697733 1.1159448e-38 335 235
0.021432746 0.764 0.006697733 1.1159089e-38 336 235
0.022831906 0.76599997 0.0067152665 1.1066895e-38 337 235
0.024174958 0.76599997 0.0067152665 1.0883228e-38 338 235
0.025551327 0.76700002 0.006724033 1.0790674e-38 339 235
0.026896132 0.76700002 0.006724033 1.078996e-38 340 235
0.02824094 0.76700002 0.006724033 1.0697763e-38 341 235
0.02966289 0.76899999 0.0067415666 1.0511947e-38 342 235
0.031011207 0.76899999 0.0067415666 1.0235001e-38 343 235
0.032443684 0.77100003 0.0067590997 9.8673118e-39 344 235
0.033883166 0.773 0.0067766332 9.9595088e-39 345 235
0.03528408 0.77399999 0.0067853997 1.0418354e-38 346 235
0.036641158 0.77399999 0.0067853997 1.0787497e-38 347 235
0.038096428 0.77600002 0.0068029333 1.1982481e-38 348 235
0.039457016 0.77600002 0.0068029333 1.4195177e-38 349 235
-0.036925197 0.77999997 0.0054703997 1.61335e-38 293 236
-0.035557598 0.77999997 0.0054703997 1.419988e-38 294 236
-0.034189999 0.77999997 0.0054703997 1.3001338e-38 295 236
-0.032738242 0.778 0.0054563731 1.2357709e-38 296 236
-0.031293493 0.77600002 0.0054423464 1.1988927e-38 297 236
-0.029932907 0.77600002 0.0054423464 1.0335542e-38 298 236
-0.028498679 0.77399999 0.0054283198 1.3009215e-38 299 236
-0.027106533 0.773 0.0054213065 1.5950197e-38 300 236
-0.025751207 0.773 0.0054213065 1.631898e-38 301 236
-0.024395877 0.773 0.0054213065 1.4110626e-38 302 236
-0.02298094 0.77100003 0.0054072798 1.2081963e-38 303 236
-0.021629119 0.77100003 0.0054072798 1.1441987e-38 304 236
-0.0202247 0.76899999 0.0053932532 1.2179552e-38 305 236
-0.018827293 0.76700002 0.0053792265 1.1346196e-38 306 236
-0.017482487 0.76700002 0.0053792265 1.1622783e-38 307 236
-0.01613768 0.76700002 0.0053792265 1.3466326e-38 308 236
-0.014773586 0.76599997 0.0053722127 1.3466326e-38 309 236
-0.013430533 0.76599997 0.0053722127 1.3836124e-38 310 236
-0.01205592 0.764 0.0053581866 1.1900016e-38 311 236
-0.010716373 0.764 0.0053581866 8.2221664e-39 312 236
-0.0093522798 0.76200002 0.0053441599 8.2221664e-39 313 236
-0.0080162399 0.76200002 0.0053441599 1.0979364e-38 314 236
-0.0066801999 0.76200002 0.0053441599 1.1439976e-38 315 236
-0.0053441599 0.76200002 0.0053441599 1.1808753e-38 316 236
-0.0040081199 0.76200002 0.0053441599 1.1993142e-38 317 236
-0.00267208 0.76200002 0.0053441599 1.2544514e-38 318 236
-0.00133604 0.76200002 0.0053441599 1.2636708e-38 319 236
0 0.76200002 0.0053441599 1.300405e-38 320 236
0.00133604 0.76200002 0.0053441599 1.300405e-38 321 236
0.00267208 0.76200002 0.0053441599 1.2912573e-38 322 236
0.0040081199 0.76200002 0.0053441599 1.2912573e-38 323 236
0.0053441599 0.76200002 0.0053441599 1.2912214e-38 324 236
0.0066801999 0.76200002 0.0053441599 1.2912214e-38 325 236
0.0080162399 0.76200002 0.0053441599 1.291329e-38 326 236
0.0093522798 0.76200002 0.0053441599 1.291329e-38 327 236
0.01068832 0.76200002 0.0053441599 1.2728194e-38 328 236
0.01202436 0.76200002 0.0053441599 1.2543443e-38 329 236
0.0133604 0.76200002 0.0053441599 1.2174317e-38 330 236
0.01469644 0.76200002 0.0053441599 1.1989567e-38 331 236
0.01603248 0.76200002 0.0053441599 1.1621146e-38 332 236
0.01736852 0.76200002 0.0053441599 1.1436396e-38 333 236
0.01870456 0.76200002 0.0053441599 1.1344201e-38 334 236
0.020093199 0.764 0.0053581866 1.1067972e-38 335 236
0.021432746 0.764 0.0053581866 1.0883947e-38 336 236
0.022831906 0.76599997 0.0053722127 1.0791392e-38 337 236
0.024174958 0.76599997 0.0053722127 1.0607364e-38 338 236
0.025551327 0.76700002 0.0053792265 1.0515169e-38 339 236
0.026896132 0.76700002 0.0053792265 1.0605933e-38 340 236
0.028314579 0.76899999 0.0053932532 1.0329348e-38 341 236
0.02966289 0.76899999 0.0053932532 1.0327921e-38 342 236
0.031011207 0.76899999 0.0053932532 1.0143532e-38 343 236
0.032443684 0.77100003 0.0054072798 9.7758406e-39 344 236
0.033883166 0.773 0.0054213065 9.8680363e-39 345 236
0.035238493 0.773 0.0054213065 1.041871e-38 346 236
0.036641158 0.77399999 0.0054283198 1.0695298e-38 347 236
0.037998237 0.77399999 0.0054283198 1.2260507e-38 348 236
0.039355319 0.77399999 0.0054283198 1.4381365e-38 349 236
-0.035603184 0.78100002 0.0041080597 1.4659065e-38 294 237
-0.034189999 0.77999997 0.0041027996 1.3644911e-38 295 237
-0.032738242 0.778 0.0040922803 1.2449908e-38 296 237
-0.031293493 0.77600002 0.0040817601 1.1988571e-38 297 237
-0.029932907 0.77600002 0.0040817601 1.0335189e-38 298 237
-0.028498679 0.77399999 0.0040712398 1.3285089e-38 299 237
-0.027141599 0.77399999 0.0040712398 1.5575654e-38 300 237
-0.025751207 0.773 0.0040659797 1.4653698e-38 301 237
-0.024395877 0.773 0.0040659797 1.4014825e-38 302 237
-0.02298094 0.77100003 0.0040554604 1.3001031e-38 303 237
-0.021629119 0.77100003 0.0040554604 1.1626383e-38 304 237
-0.0202247 0.76899999 0.0040449398 1.3193348e-38 305 237
-0.018827293 0.76700002 0.00403442 1.2453988e-38 306 237
-0.017482487 0.76700002 0.00403442 1.1347641e-38 307 237
-0.01613768 0.76700002 0.00403442 1.2914964e-38 308 237
-0.014773586 0.76599997 0.0040291594 1.4021311e-38 309 237
-0.013395466 0.764 0.0040186401 1.5309118e-38 310 237
-0.01205592 0.764 0.0040186401 1.3280815e-38 311 237
-0.010716373 0.764 0.0040186401 9.8788179e-39 312 237
-0.0093522798 0.76200002 0.0040081199 9.3256455e-39 313 237
-0.0080162399 0.76200002 0.0040081199 1.0980799e-38 314 237
-0.0066801999 0.76200002 0.0040081199 1.1349576e-38 315 237
-0.0053441599 0.76200002 0.0040081199 1.1716918e-38 316 237
-0.0040081199 0.76200002 0.0040081199 1.1993142e-38 317 237
-0.00267208 0.76200002 0.0040081199 1.2177172e-38 318 237
-0.00133604 0.76200002 0.0040081199 1.2453397e-38 319 237
0 0.76200002 0.0040081199 1.2728543e-38 320 237
0.00133604 0.76200002 0.0040081199 1.2820737e-38 321 237
0.00267208 0.76200002 0.0040081199 1.2728543e-38 322 237
0.0040081199 0.76200002 0.0040081199 1.2728543e-38 323 237
0.0053441599 0.76200002 0.0040081199 1.2728185e-38 324 237
0.0066801999 0.76200002 0.0040081199 1.2728185e-38 325 237
0.0080162399 0.76200002 0.0040081199 1.2636349e-38 326 237
0.0093522798 0.76200002 0.0040081199 1.2544155e-38 327 237
0.01068832 0.76200002 0.0040081199 1.2359061e-38 328 237
0.01202436 0.76200002 0.0040081199 1.217467e-38 329 237
0.0133604 0.76200002 0.0040081199 1.1805905e-38 330 237
0.01469644 0.76200002 0.0040081199 1.1621512e-38 331 237
0.01603248 0.76200002 0.0040081199 1.1620793e-38 332 237
0.01736852 0.76200002 0.0040081199 1.1343847e-38 333 237
0.01870456 0.76200002 0.0040081199 1.1068335e-38 334 237
0.020093199 0.764 0.0040186401 1.0883944e-38 335 237
0.021432746 0.764 0.0040186401 1.0791392e-38 336 237
0.022831906 0.76599997 0.0040291594 1.0607361e-38 337 237
0.024174958 0.76599997 0.0040291594 1.0514818e-38 338 237
0.025551327 0.76700002 0.00403442 1.0422262e-38 339 237
0.026896132 0.76700002 0.00403442 1.0328998e-38 340 237
0.028314579 0.76899999 0.0040449398 1.0144606e-38 341 237
0.02966289 0.76899999 0.0040449398 1.0052058e-38 342 237
0.031011207 0.76899999 0.0040449398 1.0052058e-38 343 237
0.032443684 0.77100003 0.0040554604 9.8680391e-39 344 237
0.033883166 0.773 0.0040659797 9.9602347e-39 345 237
0.035238493 0.773 0.0040659797 1.0418357e-38 346 237
0.036641158 0.77399999 0.0040712398 1.07875e-38 347 237
0.037998237 0.77399999 0.0040712398 1.253782e-38 348 237
0.039355319 0.77399999 0.0040712398 1.4473928e-38 349 237
-0.035603184 0.78100002 0.0027387065 1.4751982e-38 294 238
-0.034189999 0.77999997 0.0027351999 1.3645993e-38 295 238
-0.032822397 0.77999997 0.0027351999 1.2450275e-38 296 238
-0.031293493 0.77600002 0.0027211732 1.1804905e-38 297 238
-0.029932907 0.77600002 0.0027211732 1.0703251e-38 298 238
-0.028572321 0.77600002 0.0027211732 1.2178382e-38 299 238
-0.027141599 0.77399999 0.0027141599 1.3550574e-38 300 238
-0.025784519 0.77399999 0.0027141599 1.1706662e-38 301 238
-0.024395877 0.773 0.0027106532 1.2540405e-38 302 238
-0.02298094 0.77100003 0.0027036399 1.3831144e-38 303 238
-0.021629119 0.77100003 0.0027036399 1.2359642e-38 304 238
-0.0202247 0.76899999 0.0026966266 1.3742576e-38 305 238
-0.018876385 0.76899999 0.0026966266 1.3192292e-38 306 238
-0.017482487 0.76700002 0.0026896133 1.2270696e-38 307 238
-0.01613768 0.76700002 0.0026896133 1.3101175e-38 308 238
-0.014773586 0.76599997 0.0026861064 1.448411e-38 309 238
-0.013395466 0.764 0.0026790933 1.6600606e-38 310 238
-0.01205592 0.764 0.0026790933 1.4756693e-38 311 238
-0.01068832 0.76200002 0.00267208 1.1904267e-38 312 238
-0.0093522798 0.76200002 0.00267208 1.0337302e-38 313 238
-0.0080162399 0.76200002 0.00267208 1.1256305e-38 314 238
-0.0066801999 0.76200002 0.00267208 1.1625084e-38 315 238
-0.0053441599 0.76200002 0.00267208 1.208462e-38 316 238
-0.0040081199 0.76200002 0.00267208 1.2360847e-38 317 238
-0.00267208 0.76200002 0.00267208 1.2269734e-38 318 238
-0.00133604 0.76200002 0.00267208 1.236193e-38 319 238
0 0.76200002 0.00267208 1.2637428e-38 320 238
0.00133604 0.76200002 0.00267208 1.2544874e-38 321 238
0.00267208 0.76200002 0.00267208 1.2453754e-38 322 238
0.0040081199 0.76200002 0.00267208 1.236156e-38 323 238
0.0053441599 0.76200002 0.00267208 1.2636349e-38 324 238
0.0066801999 0.76200002 0.00267208 1.2543796e-38 325 238
0.0080162399 0.76200002 0.00267208 1.2267572e-38 326 238
0.0093400059 0.76099998 0.0026685731 1.2175378e-38 327 238
0.010674292 0.76099998 0.0026685731 1.1899878e-38 328 238
0.01202436 0.76200002 0.00267208 1.1715127e-38 329 238
0.0133604 0.76200002 0.00267208 1.1438565e-38 330 238
0.01469644 0.76200002 0.00267208 1.116198e-38 331 238
0.01603248 0.76200002 0.00267208 1.1253096e-38 332 238
0.017414106 0.764 0.0026790933 1.0884673e-38 333 238
0.018753653 0.764 0.0026790933 1.0701e-38 334 238
0.020093199 0.764 0.0026790933 1.0424415e-38 335 238
0.021488851 0.76599997 0.0026861064 1.0515181e-38 336 238
0.022831906 0.76599997 0.0026861064 1.0422985e-38 337 238
0.024206521 0.76700002 0.0026896133 1.0054927e-38 338 238
0.025551327 0.76700002 0.0026896133 9.9623731e-39 339 238
0.026896132 0.76700002 0.0026896133 9.8691083e-39 340 238
0.028314579 0.76899999 0.0026966266 9.7769126e-39 341 238
0.02966289 0.76899999 0.0026966266 9.7758406e-39 342 238
0.031091858 0.77100003 0.0027036399 9.8680363e-39 343 238
0.032443684 0.77100003 0.0027036399 9.9598844e-39 344 238
0.033883166 0.773 0.0027106532 1.0143916e-38 345 238
0.035238493 0.773 0.0027106532 1.0419087e-38 346 238
0.036641158 0.77399999 0.0027141599 1.1064456e-38 347 238
0.037998237 0.77399999 0.0027141599 1.318247e-38 348 238
0.039355319 0.77399999 0.0027141599 1.46576e-38 349 238
-0.034233831 0.78100002 0.0013693533 1.3830751e-38 295 239
-0.032822397 0.77999997 0.0013675999 1.2450646e-38 296 239
-0.031293493 0.77600002 0.0013605866 1.1805277e-38 297 239
-0.029932907 0.77600002 0.0013605866 1.0703954e-38 298 239
-0.028572321 0.77600002 0.0013605866 1.0519204e-38 299 239
-0.027141599 0.77399999 0.0013570799 1.2358138e-38 300 239
-0.025784519 0.77399999 0.0013570799 1.31879e-38 301 239
-0.024395877 0.773 0.0013553266 1.429249e-38 302 239
-0.02298094 0.77100003 0.00135182 1.4569077e-38 303 239
-0.021629119 0.77100003 0.00135182 1.2174527e-38 304 239
-0.0202247 0.76899999 0.0013483133 1.2174527e-38 305 239
-0.018876385 0.76899999 0.0013483133 1.3286287e-38 306 239
-0.017482487 0.76700002 0.0013448066 1.4577025e-38 307 239
-0.01613768 0.76700002 0.0013448066 1.5965e-38 308 239
-0.014773586 0.76599997 0.0013430532 1.6241589e-38 309 239
-0.013430533 0.76599997 0.0013430532 1.7709492e-38 310 239
-0.01205592 0.764 0.0013395466 1.6326558e-38 311 239
-0.01068832 0.76200002 0.00133604 1.4299263e-38 312 239
-0.0093522798 0.76200002 0.00133604 1.2547906e-38 313 239
-0.0080162399 0.76200002 0.00133604 1.2363085e-38 314 239
-0.0066801999 0.76200002 0.00133604 1.1901746e-38 315 239
-0.0053441599 0.76200002 0.00133604 1.2085381e-38 316 239
-0.0040081199 0.76200002 0.00133604 1.2177577e-38 317 239
-0.00267208 0.76200002 0.00133604 1.2178636e-38 318 239
-0.00133604 0.76200002 0.00133604 1.2270832e-38 319 239
0 0.76200002 0.00133604 1.2637806e-38 320 239
0.00133604 0.76200002 0.00133604 1.2453775e-38 321 239
0.00267208 0.76200002 0.00133604 1.22701e-38 322 239
0.0040081199 0.76200002 0.00133604 1.2177904e-38 323 239
0.0053441599 0.76200002 0.00133604 1.208427e-38 324 239
0.0066801999 0.76200002 0.00133604 1.1992074e-38 325 239
0.0080162399 0.76200002 0.00133604 1.1807318e-38 326 239
0.0093400059 0.76099998 0.0013342865 1.1622571e-38 327 239
0.010674292 0.76099998 0.0013342865 1.1439976e-38 328 239
0.01202436 0.76200002 0.00133604 1.1347423e-38 329 239
0.0133604 0.76200002 0.00133604 1.1346001e-38 330 239
0.01469644 0.76200002 0.00133604 1.1161251e-38 331 239
0.01603248 0.76200002 0.00133604 1.1067988e-38 332 239
0.017414106 0.764 0.0013395466 1.0791042e-38 333 239
0.018753653 0.764 0.0013395466 1.0697775e-38 334 239
0.020093199 0.764 0.0013395466 1.0605577e-38 335 239
0.021488851 0.76599997 0.0013430532 1.0512666e-38 336 239
0.022861714 0.76700002 0.0013448066 1.0512666e-38 337 239
0.024206521 0.76700002 0.0013448066 9.9609382e-39 338 239
0.025551327 0.76700002 0.0013448066 9.8687425e-39 339 239
0.026896132 0.76700002 0.0013448066 9.7761938e-39 340 239
0.028314579 0.76899999 0.0013483133 9.7761938e-39 341 239
0.02966289 0.76899999 0.0013483133 9.5928815e-39 342 239
0.03117251 0.773 0.0013553266 9.7769126e-39 343 239
0.032527838 0.773 0.0013553266 9.8680419e-39 344 239
0.033883166 0.773 0.0013553266 1.0236464e-38 345 239
0.035238493 0.773 0.0013553266 1.0327608e-38 346 239
0.036641158 0.77399999 0.0013570799 1.1065173e-38 347 239
0.038096428 0.77600002 0.0013605866 1.3827121e-38 348 239
0.039457016 0.77600002 0.0013605866 1.5117858e-38 349 239
-0.034233831 0.78100002 -0 1.4199181e-38 295 240
-0.032822397 0.77999997 -0 1.2542489e-38 296 240
-0.031374145 0.778 -0 1.1804924e-38 297 240
-0.029932907 0.77600002 -0 1.0979797e-38 298 240
-0.028572321 0.77600002 -0 1.0242232e-38 299 240
-0.027211733 0.77600002 -0 1.1347931e-38 300 240
-0.025784519 0.77399999 -0 1.3100006e-38 301 240
-0.024395877 0.773 -0 1.2921435e-38 302 240
-0.02298094 0.77100003 -0 1.3197662e-38 303 240
-0.021629119 0.77100003 -0 1.2822402e-38 304 240
-0.0202247 0.76899999 -0 1.0794098e-38 305 240
-0.018876385 0.76899999 -0 1.3008977e-38 306 240
-0.017482487 0.76700002 -0 1.568265e-38 307 240
-0.01613768 0.76700002 -0 1.7157788e-38 308 240
-0.014773586 0.76599997 -0 1.7618408e-38 309 240
-0.013430533 0.76599997 -0 1.8169398e-38 310 240
-0.01205592 0.764 -0 1.6602073e-38 311 240
-0.010716373 0.764 -0 1.4763156e-38 312 240
-0.0093522798 0.76200002 -0 1.4025232e-38 313 240
-0.0080162399 0.76200002 -0 1.2921348e-38 314 240
-0.0066801999 0.76200002 -0 1.0893044e-38 315 240
-0.0053441599 0.76200002 -0 1.2086848e-38 316 240
-0.0040081199 0.76200002 -0 1.1718066e-38 317 240
-0.00267208 0.76200002 -0 1.1995336e-38 318 240
-0.00133604 0.76200002 -0 1.1995336e-38 319 240
0 0.76200002 -0 1.1995689e-38 320 240
0.00133604 0.76200002 -0 1.1903135e-38 321 240
0.00267208 0.76200002 -0 1.1993889e-38 322 240
0.0040081199 0.76200002 -0 1.1809496e-38 323 240
0.0053441599 0.76200002 -0 1.1808058e-38 324 240
0.0066801999 0.76200002 -0 1.1623308e-38 325 240
0.0080162399 0.76200002 -0 1.153039e-38 326 240
0.0093522798 0.76200002 -0 1.1345998e-38 327 240
0.010674292 0.76099998 -0 1.0887897e-38 328 240
0.012008579 0.76099998 -0 1.0795343e-38 329 240
0.0133604 0.76200002 -0 1.0886112e-38 330 240
0.01469644 0.76200002 -0 1.0702081e-38 331 240
0.016074561 0.764 -0 1.0423711e-38 332 240
0.017414106 0.764 -0 1.0147124e-38 333 240
0.018753653 0.764 -0 9.9609536e-39 334 240
0.020145798 0.76599997 -0 9.8687579e-39 335 240
0.021516906 0.76700002 -0 9.7765623e-39 336 240
0.022861714 0.76700002 -0 9.5925312e-39 337 240
0.024206521 0.76700002 -0 9.5925256e-39 338 240
0.025551327 0.76700002 -0 9.5003285e-39 339 240
0.026966266 0.76899999 -0 9.5006845e-39 340 240
0.028314579 0.76899999 -0 9.5006845e-39 341 240
0.029740039 0.77100003 -0 9.5925256e-39 342 240
0.03117251 0.773 -0 9.7769154e-39 343 240
0.032569919 0.77399999 -0 9.9606004e-39 344 240
0.033927001 0.77399999 -0 1.014535e-38 345 240
0.03528408 0.77399999 -0 1.0788228e-38 346 240
0.036641158 0.77399999 -0 1.1249567e-38 347 240
0.038096428 0.77600002 -0 1.4472493e-38 348 240
0.039457016 0.77600002 -0 1.5486285e-38 349 240
-0.032822397 0.77999997 -0.0013675999 1.2819445e-38 296 241
-0.031374145 0.778 -0.0013640933 1.1805652e-38 297 241
-0.029932907 0.77600002 -0.0013605866 1.1437904e-38 298 241
-0.028572321 0.77600002 -0.0013605866 1.1253154e-38 299 241
-0.027211733 0.77600002 -0.0013605866 1.0335892e-38 300 241
-0.025784519 0.77399999 -0.0013570799 9.9667493e-39 301 241
-0.024395877 0.773 -0.0013553266 9.5105048e-39 302 241
-0.02298094 0.77100003 -0.00135182 1.0893439e-38 303 241
-0.021629119 0.77100003 -0.00135182 1.2916023e-38 304 241
-0.020277301 0.77100003 -0.00135182 1.3284445e-38 305 241
-0.018876385 0.76899999 -0.0013483133 1.383728e-38 306 241
-0.017482487 0.76700002 -0.0013448066 1.3745083e-38 307 241
-0.01613768 0.76700002 -0.0013448066 1.2364679e-38 308 241
-0.014773586 0.76599997 -0.0013430532 1.2088453e-38 309 241
-0.013430533 0.76599997 -0.0013430532 1.2917472e-38 310 241
-0.01205592 0.764 -0.0013395466 1.2732721e-38 311 241
-0.010716373 0.764 -0.0013395466 1.2368575e-38 312 241
-0.0093522798 0.76200002 -0.00133604 1.3290172e-38 313 241
-0.0080162399 0.76200002 -0.00133604 1.3102499e-38 314 241
-0.0066801999 0.76200002 -0.00133604 1.1350782e-38 315 241
-0.0053441599 0.76200002 -0.00133604 1.1810628e-38 316 241
-0.0040081199 0.76200002 -0.00133604 1.1718431e-38 317 241
-0.00267208 0.76200002 -0.00133604 1.19028e-38 318 241
-0.00133604 0.76200002 -0.00133604 1.1718769e-38 319 241
0 0.76200002 -0.00133604 1.2177579e-38 320 241
0.00133604 0.76200002 -0.00133604 1.2085384e-38 321 241
0.00267208 0.76200002 -0.00133604 1.1993182e-38 322 241
0.0040081199 0.76200002 -0.00133604 1.180879e-38 323 241
0.0053441599 0.76200002 -0.00133604 1.171551e-38 324 241
0.0066801999 0.76200002 -0.00133604 1.153076e-38 325 241
0.0080162399 0.76200002 -0.00133604 1.1162333e-38 326 241
0.0093522798 0.76200002 -0.00133604 1.1070137e-38 327 241
0.010674292 0.76099998 -0.0013342865 1.0702794e-38 328 241
0.012008579 0.76099998 -0.0013342865 1.0702794e-38 329 241
0.0133604 0.76200002 -0.00133604 1.0701e-38 330 241
0.01469644 0.76200002 -0.00133604 1.0424415e-38 331 241
0.016074561 0.764 -0.0013395466 1.0329716e-38 332 241
0.017414106 0.764 -0.0013395466 9.6843471e-39 333 241
0.018802745 0.76599997 -0.0013430532 9.8665929e-39 334 241
0.020145798 0.76599997 -0.0013430532 9.7743973e-39 335 241
0.021516906 0.76700002 -0.0013448066 9.5907263e-39 336 241
0.022861714 0.76700002 -0.0013448066 9.5907263e-39 337 241
0.024206521 0.76700002 -0.0013448066 9.4996027e-39 338 241
0.025617953 0.76899999 -0.0013483133 9.4996027e-39 339 241
0.026966266 0.76899999 -0.0013483133 9.5917955e-39 340 241
0.028388219 0.77100003 -0.00135182 9.5917955e-39 341 241
0.029817186 0.773 -0.0013553266 9.7761966e-39 342 241
0.031212838 0.77399999 -0.0013570799 9.8683922e-39 343 241
0.032569919 0.77399999 -0.0013570799 1.0236114e-38 344 241
0.033927001 0.77399999 -0.0013570799 1.0328311e-38 345 241
0.03528408 0.77399999 -0.0013570799 1.1155221e-38 346 241
0.036641158 0.77399999 -0.0013570799 1.2077179e-38 347 241
0.038096428 0.77600002 -0.0013605866 1.4657618e-38 348 241
0.039457016 0.77600002 -0.0013605866 1.5302988e-38 349 241
-0.032864477 0.78100002 -0.0027387065 1.3462665e-38 296 242
-0.031454798 0.77999997 -0.0027351999 1.2356678e-38 297 242
-0.03001005 0.778 -0.0027281865 1.1345721e-38 298 242
-0.028645959 0.778 -0.0027281865 1.0977299e-38 299 242
-0.027211733 0.77600002 -0.0027211732 1.0610642e-38 300 242
-0.025784519 0.77399999 -0.0027141599 9.5042956e-39 301 242
-0.02442744 0.77399999 -0.0027141599 8.1271401e-39 302 242
-0.023040552 0.773 -0.0027106532 9.4178789e-39 303 242
-0.021685226 0.773 -0.0027106532 1.0890921e-38 304 242
-0.020277301 0.77100003 -0.0027036399 1.1904714e-38 305 242
-0.018876385 0.76899999 -0.0026966266 1.2548664e-38 306 242
-0.017528072 0.76899999 -0.0026966266 1.1903295e-38 307 242
-0.01613768 0.76700002 -0.0026896133 1.0521076e-38 308 242
-0.014773586 0.76599997 -0.0026861064 1.0244848e-38 309 242
-0.013430533 0.76599997 -0.0026861064 1.1349376e-38 310 242
-0.01205592 0.764 -0.0026790933 1.1349376e-38 311 242
-0.010716373 0.764 -0.0026790933 1.1260032e-38 312 242
-0.0093768267 0.764 -0.0026790933 1.1813205e-38 313 242
-0.0080372803 0.764 -0.0026790933 1.199649e-38 314 242
-0.006697733 0.764 -0.0026790933 1.1258924e-38 315 242
-0.0053581866 0.764 -0.0026790933 1.1442921e-38 316 242
-0.0040081199 0.76200002 -0.00267208 1.1350725e-38 317 242
-0.00267208 0.76200002 -0.00267208 1.1442548e-38 318 242
-0.00133604 0.76200002 -0.00267208 1.1442548e-38 319 242
0 0.76200002 -0.00267208 1.171769e-38 320 242
0.00133604 0.76200002 -0.00267208 1.1625494e-38 321 242
0.00267208 0.76200002 -0.00267208 1.1625124e-38 322 242
0.0040081199 0.76200002 -0.00267208 1.1532929e-38 323 242
0.0053441599 0.76200002 -0.00267208 1.1347816e-38 324 242
0.0066801999 0.76200002 -0.00267208 1.1163423e-38 325 242
0.0080162399 0.76200002 -0.00267208 1.097831e-38 326 242
0.0093522798 0.76200002 -0.00267208 1.0885756e-38 327 242
0.01068832 0.76200002 -0.00267208 1.0610248e-38 328 242
0.01202436 0.76200002 -0.00267208 1.0518051e-38 329 242
0.0133604 0.76200002 -0.00267208 1.0332588e-38 330 242
0.01469644 0.76200002 -0.00267208 9.9638052e-39 331 242
0.016074561 0.764 -0.0026790933 9.3162904e-39 332 242
0.017459691 0.76599997 -0.0026861064 9.1315404e-39 333 242
0.018802745 0.76599997 -0.0026861064 9.1304712e-39 334 242
0.020172099 0.76700002 -0.0026896133 9.1304712e-39 335 242
0.021516906 0.76700002 -0.0026896133 8.9471562e-39 336 242
0.022861714 0.76700002 -0.0026896133 9.131546e-39 337 242
0.024206521 0.76700002 -0.0026896133 9.2237389e-39 338 242
0.025617953 0.76899999 -0.0026966266 9.3159345e-39 339 242
0.026966266 0.76899999 -0.0026966266 9.3159345e-39 340 242
0.028461859 0.773 -0.0027106532 9.4084888e-39 341 242
0.029817186 0.773 -0.0027106532 9.5006985e-39 342 242
0.031212838 0.77399999 -0.0027141599 9.6850898e-39 343 242
0.032569919 0.77399999 -0.0027141599 1.0144648e-38 344 242
0.033927001 0.77399999 -0.0027141599 1.0236844e-38 345 242
0.03528408 0.77399999 -0.0027141599 1.1431462e-38 346 242
0.036735836 0.77600002 -0.0027211732 1.2906232e-38 347 242
0.038096428 0.77600002 -0.0027211732 1.4749464e-38 348 242
-0.032864477 0.78100002 -0.0041080597 1.3739256e-38 296 243
-0.031454798 0.77999997 -0.0041027996 1.2356322e-38 297 243
-0.030087199 0.77999997 -0.0041027996 1.0976227e-38 298 243
-0.028719598 0.77999997 -0.0041027996 1.088403e-38 299 243
-0.027211733 0.77600002 -0.0040817601 1.0701058e-38 300 243
-0.025784519 0.77399999 -0.0040712398 1.0516668e-38 301 243
-0.02442744 0.77399999 -0.0040712398 9.5986619e-39 302 243
-0.023040552 0.773 -0.0040659797 9.1373236e-39 303 243
-0.021685226 0.773 -0.0040659797 8.4955667e-39 304 243
-0.020277301 0.77100003 -0.0040554604 8.9565449e-39 305 243
-0.018876385 0.76899999 -0.0040449398 8.8650779e-39 306 243
-0.017528072 0.76899999 -0.0040449398 8.4040998e-39 307 243
-0.01613768 0.76700002 -0.00403442 8.862557e-39 308 243
-0.014792874 0.76700002 -0.00403442 9.2313395e-39 309 243
-0.013430533 0.76599997 -0.0040291594 9.6919477e-39 310 243
-0.012087479 0.76599997 -0.0040291594 9.968536e-39 311 243
-0.010744425 0.76599997 -0.0040291594 1.0153999e-38 312 243
-0.0093768267 0.764 -0.0040186401 1.0522782e-38 313 243
-0.0080372803 0.764 -0.0040186401 1.079792e-38 314 243
-0.006697733 0.764 -0.0040186401 1.0890117e-38 315 243
-0.0053581866 0.764 -0.0040186401 1.1166331e-38 316 243
-0.0040081199 0.76200002 -0.0040081199 1.1166331e-38 317 243
-0.00267208 0.76200002 -0.0040081199 1.1166684e-38 318 243
-0.00133604 0.76200002 -0.0040081199 1.1166684e-38 319 243
0 0.76200002 -0.0040081199 1.1442182e-38 320 243
0.00133604 0.76200002 -0.0040081199 1.1349626e-38 321 243
0.00267208 0.76200002 -0.0040081199 1.1073753e-38 322 243
0.0040081199 0.76200002 -0.0040081199 1.0981557e-38 323 243
0.0053441599 0.76200002 -0.0040081199 1.0796087e-38 324 243
0.0066801999 0.76200002 -0.0040081199 1.0611696e-38 325 243
0.0080162399 0.76200002 -0.0040081199 1.0335109e-38 326 243
0.0093522798 0.76200002 -0.0040081199 1.0335109e-38 327 243
0.01068832 0.76200002 -0.0040081199 1.0241834e-38 328 243
0.01202436 0.76200002 -0.0040081199 1.0149638e-38 329 243
0.013395466 0.764 -0.0040186401 1.0146769e-38 330 243
0.014735013 0.764 -0.0040186401 9.6861491e-39 331 243
0.016116638 0.76599997 -0.0040291594 9.0386273e-39 332 243
0.017459691 0.76599997 -0.0040291594 9.0386273e-39 333 243
0.018802745 0.76599997 -0.0040291594 9.0379085e-39 334 243
0.020172099 0.76700002 -0.00403442 9.2219396e-39 335 243
0.021516906 0.76700002 -0.00403442 9.0386245e-39 336 243
0.022921326 0.76899999 -0.0040449398 9.1308216e-39 337 243
0.024269639 0.76899999 -0.0040449398 9.1315404e-39 338 243
0.025617953 0.76899999 -0.0040449398 9.2240948e-39 339 243
0.027036399 0.77100003 -0.0040554604 9.3166534e-39 340 243
0.028461859 0.773 -0.0040659797 9.408849e-39 341 243
0.029855758 0.77399999 -0.0040712398 9.5928941e-39 342 243
0.031212838 0.77399999 -0.0040712398 9.7776441e-39 343 243
0.032569919 0.77399999 -0.0040712398 1.0052451e-38 344 243
0.033927001 0.77399999 -0.0040712398 1.0513071e-38 345 243
0.035375252 0.77600002 -0.0040817601 1.2169393e-38 346 243
0.036735836 0.77600002 -0.0040817601 1.3460132e-38 347 243
0.038096428 0.77600002 -0.0040817601 1.4933862e-38 348 243
-0.032864477 0.78100002 -0.0054774131 1.3924372e-38 296 244
-0.031495128 0.78100002 -0.0054774131 1.2172657e-38 297 244
-0.030125774 0.78100002 -0.0054774131 1.0606734e-38 298 244
-0.028719598 0.77999997 -0.0054703997 1.0791125e-38 299 244
-0.027281865 0.778 -0.0054563731 1.0699983e-38 300 244
-0.025784519 0.77399999 -0.0054283198 1.0699983e-38 301 244
-0.02442744 0.77399999 -0.0054283198 9.9677905e-39 302 244
-0.023040552 0.773 -0.0054213065 9.5068124e-39 303 244
-0.021685226 0.773 -0.0054213065 9.1394592e-39 304 244
-0.020277301 0.77100003 -0.0054072798 8.9550679e-39 305 244
-0.018925481 0.77100003 -0.0054072798 9.1376599e-39 306 244
-0.017528072 0.76899999 -0.0053932532 9.1376599e-39 307 244
-0.01613768 0.76700002 -0.0053792265 9.3227742e-39 308 244
-0.014792874 0.76700002 -0.0053792265 9.5071655e-39 309 244
-0.013430533 0.76599997 -0.0053722127 9.6000842e-39 310 244
-0.012087479 0.76599997 -0.0053722127 9.9685066e-39 311 244
-0.010744425 0.76599997 -0.0053722127 1.0246175e-38 312 244
-0.0094013726 0.76599997 -0.0053722127 1.0338371e-38 313 244
-0.0080372803 0.764 -0.0053581866 1.0889024e-38 314 244
-0.006697733 0.764 -0.0053581866 1.0981219e-38 315 244
-0.0053581866 0.764 -0.0053581866 1.0797904e-38 316 244
-0.0040081199 0.76200002 -0.0053441599 1.08901e-38 317 244
-0.00267208 0.76200002 -0.0053441599 1.0890453e-38 318 244
-0.00133604 0.76200002 -0.0053441599 1.0890453e-38 319 244
0 0.76200002 -0.0053441599 1.1257431e-38 320 244
0.00133604 0.76200002 -0.0053441599 1.10734e-38 321 244
0.00267208 0.76200002 -0.0053441599 1.0981204e-38 322 244
0.0040081199 0.76200002 -0.0053441599 1.0796813e-38 323 244
0.0053441599 0.76200002 -0.0053441599 1.0703541e-38 324 244
0.0066801999 0.76200002 -0.0053441599 1.0426954e-38 325 244
0.0080162399 0.76200002 -0.0053441599 1.024184e-38 326 244
0.0093522798 0.76200002 -0.0053441599 1.024184e-38 327 244
0.01068832 0.76200002 -0.0053441599 1.0148922e-38 328 244
0.01202436 0.76200002 -0.0053441599 9.9645311e-39 329 244
0.013395466 0.764 -0.0053581866 9.9623787e-39 330 244
0.014735013 0.764 -0.0053581866 9.4092049e-39 331 244
0.016116638 0.76599997 -0.0053722127 9.1308244e-39 332 244
0.017459691 0.76599997 -0.0053722127 8.9464317e-39 333 244
0.018827293 0.76700002 -0.0053792265 8.9464317e-39 334 244
0.020172099 0.76700002 -0.0053792265 8.8542361e-39 335 244
0.021516906 0.76700002 -0.0053792265 9.0379057e-39 336 244
0.022921326 0.76899999 -0.0053932532 9.3144925e-39 337 244
0.024269639 0.76899999 -0.0053932532 8.949303e-39 338 244
0.02568458 0.77100003 -0.0054072798 9.0414986e-39 339 244
0.027106533 0.773 -0.0054213065 9.4092049e-39 340 244
0.028498679 0.77399999 -0.0054283198 9.4092049e-39 341 244
0.029855758 0.77399999 -0.0054283198 9.5928941e-39 342 244
0.031293493 0.77600002 -0.0054423464 9.7776441e-39 343 244
0.032654081 0.77600002 -0.0054423464 1.0144292e-38 344 244
0.034014668 0.77600002 -0.0054423464 1.0789662e-38 345 244
0.035375252 0.77600002 -0.0054423464 1.2907325e-38 346 244
0.036735836 0.77600002 -0.0054423464 1.382964e-38 347 244
-0.031575777 0.78299999 -0.0068642995 1.2632927e-38 297 245
-0.030125774 0.78100002 -0.0068467669 1.0881175e-38 298 245
-0.028756421 0.78100002 -0.0068467669 1.0881175e-38 299 245
-0.027351998 0.77999997 -0.0068379994 1.1158443e-38 300 245
-0.025784519 0.77399999 -0.0067853997 1.1250639e-38 301 245
-0.02442744 0.77399999 -0.0067853997 1.0151456e-38 302 245
-0.023040552 0.773 -0.0067766332 9.9674248e-39 303 245
-0.021685226 0.773 -0.0067766332 9.5075158e-39 304 245
-0.0203299 0.773 -0.0067766332 9.3231245e-39 305 245
-0.018925481 0.77100003 -0.0067590997 9.0472663e-39 306 245
-0.017528072 0.76899999 -0.0067415666 9.139462e-39 307 245
-0.016179759 0.76899999 -0.0067415666 9.0472761e-39 308 245
-0.014792874 0.76700002 -0.006724033 9.1394718e-39 309 245
-0.013448066 0.76700002 -0.006724033 8.9572455e-39 310 245
-0.01210326 0.76700002 -0.006724033 9.1419955e-39 311 245
-0.010758453 0.76700002 -0.006724033 9.3267525e-39 312 245
-0.0094013726 0.76599997 -0.0067152665 9.4189495e-39 313 245
-0.0080583189 0.76599997 -0.0067152665 9.9699555e-39 314 245
-0.0067152665 0.76599997 -0.0067152665 1.0246901e-38 315 245
-0.0053722127 0.76599997 -0.0067152665 1.0890103e-38 316 245
-0.0040186401 0.764 -0.006697733 1.0705711e-38 317 245
-0.00267208 0.76200002 -0.0066801999 1.0706428e-38 318 245
-0.00133604 0.76200002 -0.0066801999 1.0706428e-38 319 245
0 0.76200002 -0.0066801999 1.0705709e-38 320 245
0.00133604 0.76200002 -0.0066801999 1.0705709e-38 321 245
0.00267208 0.76200002 -0.0066801999 1.0521317e-38 322 245
0.0040081199 0.76200002 -0.0066801999 1.0244731e-38 323 245
0.0053441599 0.76200002 -0.0066801999 1.0151456e-38 324 245
0.006697733 0.764 -0.006697733 9.7830321e-39 325 245
0.0080372803 0.764 -0.006697733 9.8737802e-39 326 245
0.0093768267 0.764 -0.006697733 9.7815846e-39 327 245
0.010716373 0.764 -0.006697733 9.7812132e-39 328 245
0.01205592 0.764 -0.006697733 9.5968206e-39 329 245
0.013430533 0.76599997 -0.0067152665 9.6864995e-39 330 245
0.014773586 0.76599997 -0.0067152665 9.1333271e-39 331 245
0.016116638 0.76599997 -0.0067152665 8.9478624e-39 332 245
0.017482487 0.76700002 -0.006724033 8.763474e-39 333 245
0.018827293 0.76700002 -0.006724033 8.7631152e-39 334 245
0.020172099 0.76700002 -0.006724033 8.7631152e-39 335 245
0.021573013 0.76899999 -0.0067415666 9.0389805e-39 336 245
0.022921326 0.76899999 -0.0067415666 9.2233731e-39 337 245
0.02433276 0.77100003 -0.0067590997 9.224092e-39 338 245
0.02568458 0.77100003 -0.0067590997 9.4084832e-39 339 245
0.027106533 0.773 -0.0067766332 9.4084888e-39 340 245
0.028498679 0.77399999 -0.0067853997 9.7769126e-39 341 245
0.029932907 0.77600002 -0.0068029333 9.6850954e-39 342 245
0.031293493 0.77600002 -0.0068029333 9.9613221e-39 343 245
0.032654081 0.77600002 -0.0068029333 1.0604563e-38 344 245
0.034014668 0.77600002 -0.0068029333 1.1434684e-38 345 245
0.035466425 0.778 -0.0068204664 1.3643824e-38 346 245
0.036830518 0.778 -0.0068204664 1.456542e-38 347 245
-0.030125774 0.78100002 -0.0082161194 1.2171911e-38 298 246
-0.028756421 0.78100002 -0.0082161194 1.0696781e-38 299 246
-0.027351998 0.77999997 -0.0082055992 1.0975125e-38 300 246
-0.025851147 0.77600002 -0.0081635201 1.0975125e-38 301 246
-0.02442744 0.77399999 -0.0081424797 1.015075e-38 302 246
-0.023040552 0.773 -0.0081319595 9.9667185e-39 303 246
-0.021685226 0.773 -0.0081319595 9.5082403e-39 304 246
-0.0203299 0.773 -0.0081319595 9.1394592e-39 305 246
-0.018925481 0.77100003 -0.0081109209 8.7724717e-39 306 246
-0.01757366 0.77100003 -0.0081109209 8.7724717e-39 307 246
-0.016179759 0.76899999 -0.0080898795 8.9550651e-39 308 246
-0.014792874 0.76700002 -0.00806884 9.0472607e-39 309 246
-0.013448066 0.76700002 -0.00806884 8.956863e-39 310 246
-0.01210326 0.76700002 -0.00806884 9.1408941e-39 311 246
-0.010758453 0.76700002 -0.00806884 9.3252896e-39 312 246
-0.0094136465 0.76700002 -0.00806884 9.4178439e-39 313 246
-0.0080583189 0.76599997 -0.0080583189 9.6929959e-39 314 246
-0.0067152665 0.76599997 -0.0080583189 9.8777459e-39 315 246
-0.0053722127 0.76599997 -0.0080583189 1.0428766e-38 316 246
-0.0040186401 0.764 -0.0080372803 1.0520961e-38 317 246
-0.0026790933 0.764 -0.0080372803 1.0612794e-38 318 246
-0.0013395466 0.764 -0.0080372803 1.0612794e-38 319 246
0 0.76200002 -0.0080162399 1.0796104e-38 320 246
0.00133604 0.76200002 -0.0080162399 1.0611711e-38 321 246
0.00267208 0.76200002 -0.0080162399 1.0519515e-38 322 246
0.0040186401 0.764 -0.0080372803 1.0150734e-38 323 246
0.0053581866 0.764 -0.0080372803 9.8744991e-39 324 246
0.006697733 0.764 -0.0080372803 9.5979136e-39 325 246
0.0080372803 0.764 -0.0080372803 9.5053494e-39 326 246
0.0093768267 0.764 -0.0080372803 9.5053494e-39 327 246
0.010716373 0.764 -0.0080372803 9.6890204e-39 328 246
0.01205592 0.764 -0.0080372803 9.5964646e-39 329 246
0.013430533 0.76599997 -0.0080583189 9.4110014e-39 330 246
0.014773586 0.76599997 -0.0080583189 8.950382e-39 331 246
0.016116638 0.76599997 -0.0080583189 8.948947e-39 332 246
0.017482487 0.76700002 -0.00806884 8.6727203e-39 333 246
0.018827293 0.76700002 -0.00806884 8.7638327e-39 334 246
0.0202247 0.76899999 -0.0080898795 8.8560297e-39 335 246
0.021573013 0.76899999 -0.0080898795 8.9482282e-39 336 246
0.02298094 0.77100003 -0.0081109209 9.1329782e-39 337 246
0.024395877 0.773 -0.0081319595 9.3166562e-39 338 246
0.025751207 0.773 -0.0081319595 9.4088518e-39 339 246
0.027141599 0.77399999 -0.0081424797 9.5006957e-39 340 246
0.028572321 0.77600002 -0.0081635201 9.6854457e-39 341 246
0.029932907 0.77600002 -0.0081635201 9.9613221e-39 342 246
0.031374145 0.778 -0.0081845606 1.0053519e-38 343 246
0.032654081 0.77600002 -0.0081635201 1.143325e-38 344 246
0.034014668 0.77600002 -0.0081635201 1.2447404e-38 345 246
0.035466425 0.778 -0.0081845606 1.4379959e-38 346 246
-0.030125774 0.78100002 -0.0095854728 1.2909494e-38 298 247
-0.028756421 0.78100002 -0.0095854728 1.1342529e-38 299 247
-0.027351998 0.77999997 -0.0095731998 1.0974775e-38 300 247
-0.025917772 0.778 -0.0095486529 1.106697e-38 301 247
-0.02442744 0.77399999 -0.0094995592 1.0517377e-38 302 247
-0.02307036 0.77399999 -0.0094995592 1.0424823e-38 303 247
-0.021713279 0.77399999 -0.0094995592 9.9663416e-39 304 247
-0.020356199 0.77399999 -0.0094995592 9.6901148e-39 305 247
-0.018974574 0.773 -0.0094872871 9.5067871e-39 306 247
-0.01757366 0.77100003 -0.0094627403 9.5067871e-39 307 247
-0.016179759 0.76899999 -0.0094381925 9.2309289e-39 308 247
-0.014831445 0.76899999 -0.0094381925 9.2309289e-39 309 247
-0.013483133 0.76899999 -0.0094381925 8.864317e-39 310 247
-0.012134819 0.76899999 -0.0094381925 8.864317e-39 311 247
-0.010758453 0.76700002 -0.0094136465 8.9568784e-39 312 247
-0.0094136465 0.76700002 -0.0094136465 8.9568784e-39 313 247
-0.00806884 0.76700002 -0.0094136465 9.0487251e-39 314 247
-0.006724033 0.76700002 -0.0094136465 9.1409207e-39 315 247
-0.0053792265 0.76700002 -0.0094136465 9.4160811e-39 316 247
-0.0040186401 0.764 -0.0093768267 9.5082767e-39 317 247
-0.0026790933 0.764 -0.0093768267 9.5082795e-39 318 247
-0.0013430532 0.76599997 -0.0094013726 9.5082795e-39 319 247
0 0.764 -0.0093768267 9.9678087e-39 320 247
0.0013395466 0.764 -0.0093768267 9.6912232e-39 321 247
0.0026790933 0.764 -0.0093768267 9.5990136e-39 322 247
0.0040186401 0.764 -0.0093768267 9.5990136e-39 323 247
0.0053581866 0.764 -0.0093768267 9.3231274e-39 324 247
0.006697733 0.764 -0.0093768267 9.1383774e-39 325 247
0.0080372803 0.764 -0.0093768267 9.2305632e-39 326 247
0.0093768267 0.764 -0.0093768267 9.1383661e-39 327 247
0.010744425 0.76599997 -0.0094013726 9.413158e-39 328 247
0.012087479 0.76599997 -0.0094013726 9.228408e-39 329 247
0.013430533 0.76599997 -0.0094013726 9.3191617e-39 330 247
0.014773586 0.76599997 -0.0094013726 8.9503792e-39 331 247
0.01613768 0.76700002 -0.0094136465 8.9496561e-39 332 247
0.017482487 0.76700002 -0.0094136465 8.7656264e-39 333 247
0.018827293 0.76700002 -0.0094136465 9.2248038e-39 334 247
0.0202247 0.76899999 -0.0094381925 9.2248038e-39 335 247
0.021629119 0.77100003 -0.0094627403 9.2240892e-39 336 247
0.02298094 0.77100003 -0.0094627403 9.4088392e-39 337 247
0.02442744 0.77399999 -0.0094995592 9.5003314e-39 338 247
0.025784519 0.77399999 -0.0094995592 9.5925284e-39 339 247
0.027211733 0.77600002 -0.009524107 9.776212e-39 340 247
0.028572321 0.77600002 -0.009524107 9.9606032e-39 341 247
0.029932907 0.77600002 -0.009524107 1.0144292e-38 342 247
0.031374145 0.778 -0.0095486529 1.0605269e-38 343 247
0.032654081 0.77600002 -0.009524107 1.2169393e-38 344 247
0.034014668 0.77600002 -0.009524107 1.3367936e-38 345 247
-0.030125774 0.78100002 -0.010954826 1.2910943e-38 298 248
-0.028719598 0.77999997 -0.010940799 1.1804596e-38 299 248
-0.027351998 0.77999997 -0.010940799 1.1803106e-38 300 248
-0.025984399 0.77999997 -0.010940799 1.1249932e-38 301 248
-0.024553679 0.778 -0.010912746 1.0700689e-38 302 248
-0.023129974 0.77600002 -0.010884693 1.0608494e-38 303 248
-0.021769386 0.77600002 -0.010884693 9.8748788e-39 304 248
-0.020356199 0.77399999 -0.01085664 9.782323e-39 305 248
-0.018974574 0.773 -0.010842613 9.4149699e-39 306 248
-0.01757366 0.77100003 -0.01081456 9.4149699e-39 307 248
-0.016221842 0.77100003 -0.01081456 9.1394564e-39 308 248
-0.014831445 0.76899999 -0.010786506 9.0472607e-39 309 248
-0.013483133 0.76899999 -0.010786506 8.955421e-39 310 248
-0.012134819 0.76899999 -0.010786506 8.955421e-39 311 248
-0.010758453 0.76700002 -0.010758453 8.9561371e-39 312 248
-0.0094136465 0.76700002 -0.010758453 8.772106e-39 313 248
-0.00806884 0.76700002 -0.010758453 9.0472607e-39 314 248
-0.006724033 0.76700002 -0.010758453 9.0472607e-39 315 248
-0.0053792265 0.76700002 -0.010758453 9.5050173e-39 316 248
-0.0040291594 0.76599997 -0.010744425 9.5972129e-39 317 248
-0.0026861064 0.76599997 -0.010744425 9.6890554e-39 318 248
-0.0013430532 0.76599997 -0.010744425 9.8734453e-39 319 248
0 0.764 -0.010716373 9.9649192e-39 320 248
0.0013395466 0.764 -0.010716373 9.8727236e-39 321 248
0.0026790933 0.764 -0.010716373 9.5972101e-39 322 248
0.0040291594 0.76599997 -0.010744425 9.5050145e-39 323 248
0.0053722127 0.76599997 -0.010744425 9.3213253e-39 324 248
0.0067152665 0.76599997 -0.010744425 9.3213253e-39 325 248
0.0080583189 0.76599997 -0.010744425 9.22948e-39 326 248
0.0094013726 0.76599997 -0.010744425 9.22948e-39 327 248
0.010744425 0.76599997 -0.010744425 9.5042746e-39 328 248
0.01210326 0.76700002 -0.010758453 9.4117202e-39 329 248
0.013448066 0.76700002 -0.010758453 9.0436608e-39 330 248
0.014792874 0.76700002 -0.010758453 8.8596297e-39 331 248
0.01613768 0.76700002 -0.010758453 8.9511008e-39 332 248
0.017482487 0.76700002 -0.010758453 8.8589052e-39 333 248
0.018876385 0.76899999 -0.010786506 9.1336942e-39 334 248
0.0202247 0.76899999 -0.010786506 9.2258898e-39 335 248
0.021629119 0.77100003 -0.01081456 9.3177366e-39 336 248
0.023040552 0.773 -0.010842613 9.4099322e-39 337 248
0.02442744 0.77399999 -0.01085664 9.5928941e-39 338 248
0.025784519 0.77399999 -0.01085664 9.7776441e-39 339 248
0.027211733 0.77600002 -0.010884693 9.960606e-39 340 248
0.028572321 0.77600002 -0.010884693 9.960606e-39 341 248
0.029932907 0.77600002 -0.010884693 1.0788961e-38 342 248
0.031374145 0.778 -0.010912746 1.1526526e-38 343 248
0.032738242 0.778 -0.010912746 1.2815508e-38 344 248
-0.028719598 0.77999997 -0.012308398 1.2357785e-38 299 249
-0.027351998 0.77999997 -0.012308398 1.2355579e-38 300 249
-0.025984399 0.77999997 -0.012308398 1.1526179e-38 301 249
-0.024616797 0.77999997 -0.012308398 1.1067679e-38 302 249
-0.023249198 0.77999997 -0.012308398 1.0882929e-38 303 249
-0.021825492 0.778 -0.012276839 9.965994e-39 304 249
-0.0204088 0.77600002 -0.01224528 9.8734397e-39 305 249
-0.018999118 0.77399999 -0.01221372 9.5071655e-39 306 249
-0.017619247 0.773 -0.012197939 9.4149699e-39 307 249
-0.016221842 0.77100003 -0.01216638 9.1394564e-39 308 249
-0.014831445 0.76899999 -0.012134819 9.0472607e-39 309 249
-0.013483133 0.76899999 -0.012134819 9.1387333e-39 310 249
-0.012134819 0.76899999 -0.012134819 9.0465363e-39 311 249
-0.010786506 0.76899999 -0.012134819 9.0465335e-39 312 249
-0.0094381925 0.76899999 -0.012134819 9.0465335e-39 313 249
-0.00806884 0.76700002 -0.01210326 8.8628681e-39 314 249
-0.006724033 0.76700002 -0.01210326 8.8628681e-39 315 249
-0.0053792265 0.76700002 -0.01210326 9.0458328e-39 316 249
-0.00403442 0.76700002 -0.01210326 9.0458328e-39 317 249
-0.0026896133 0.76700002 -0.01210326 9.1369606e-39 318 249
-0.0013448066 0.76700002 -0.01210326 9.2291563e-39 319 249
0 0.76599997 -0.012087479 9.3202729e-39 320 249
0.0013430532 0.76599997 -0.012087479 9.4124685e-39 321 249
0.0026861064 0.76599997 -0.012087479 9.1369536e-39 322 249
0.00403442 0.76700002 -0.01210326 9.1369536e-39 323 249
0.0053792265 0.76700002 -0.01210326 9.0454643e-39 324 249
0.006724033 0.76700002 -0.01210326 9.0454643e-39 325 249
0.00806884 0.76700002 -0.01210326 9.3206036e-39 326 249
0.0094136465 0.76700002 -0.01210326 9.228408e-39 327 249
0.010758453 0.76700002 -0.01210326 9.1362124e-39 328 249
0.01210326 0.76700002 -0.01210326 9.1362124e-39 329 249
0.013448066 0.76700002 -0.01210326 9.1358466e-39 330 249
0.014792874 0.76700002 -0.01210326 8.9510952e-39 331 249
0.01613768 0.76700002 -0.01210326 9.226243e-39 332 249
0.017528072 0.76899999 -0.012134819 9.226243e-39 333 249
0.018876385 0.76899999 -0.012134819 9.5932346e-39 334 249
0.020277301 0.77100003 -0.01216638 9.7772658e-39 335 249
0.021685226 0.773 -0.012197939 9.5932444e-39 336 249
0.02307036 0.77399999 -0.01221372 9.6857988e-39 337 249
0.024490559 0.77600002 -0.01224528 9.6850898e-39 338 249
0.025851147 0.77600002 -0.01224528 9.9616752e-39 339 249
0.027211733 0.77600002 -0.01224528 9.962055e-39 340 249
0.028645959 0.778 -0.012276839 1.0238282e-38 341 249
0.03001005 0.778 -0.012276839 1.1158482e-38 342 249
0.031454798 0.77999997 -0.012308398 1.1896047e-38 343 249
-0.027351998 0.77999997 -0.013675999 1.2632186e-38 300 250
-0.025984399 0.77999997 -0.013675999 1.1710588e-38 301 250
-0.024616797 0.77999997 -0.013675999 1.1160239e-38 302 250
-0.023189586 0.778 -0.013640933 1.0883651e-38 303 250
-0.021825492 0.778 -0.013640933 1.033298e-38 304 250
-0.0204088 0.77600002 -0.013605867 1.0240783e-38 305 250
-0.019048214 0.77600002 -0.013605867 9.6901274e-39 306 250
-0.01764204 0.77399999 -0.013570799 9.5979318e-39 307 250
-0.016263919 0.773 -0.013553266 9.139106e-39 308 250
-0.01487002 0.77100003 -0.013518199 9.0469104e-39 309 250
-0.013483133 0.76899999 -0.013483133 9.4135195e-39 310 250
-0.012134819 0.76899999 -0.013483133 9.3213225e-39 311 250
-0.010786506 0.76899999 -0.013483133 9.3216728e-39 312 250
-0.0094381925 0.76899999 -0.013483133 9.3216728e-39 313 250
