# .PCD v.7 - Point Cloud Data file format
FIELDS x y z rgb imX imY
SIZE 4 4 4 4 4 4
TYPE F F F F F F
COUNT 1 1 1 1 1 1
WIDTH 851
HEIGHT 1
VIEWPOINT 0 0 0 1 0 0 0
POINTS 851
DATA ascii
-0.033488665 0.764 0.0053581866 1.1342934e-38 295 236
-0.032064959 0.76200002 0.0053441599 8.3871861e-39 296 236
-0.030688593 0.76099998 0.0053371461 1.2351598e-38 297 236
-0.029200014 0.75700003 0.0053090933 1.6499245e-38 298 236
-0.027799098 0.755 0.0052950666 1.6314854e-38 299 236
-0.026440267 0.75400001 0.0052880533 1.7232848e-38 300 236
-0.025118252 0.75400001 0.0052880533 1.6955902e-38 301 236
-0.023733119 0.75199997 0.0052740262 1.7137415e-38 302 236
-0.022414612 0.75199997 0.0052740262 1.6768274e-38 303 236
-0.021096105 0.75199997 0.0052740262 1.7135965e-38 304 236
-0.019724999 0.75 0.00526 1.7504746e-38 305 236
-0.018409999 0.75 0.00526 1.750615e-38 306 236
-0.017095 0.75 0.00526 1.7413954e-38 307 236
-0.01578 0.75 0.00526 1.7599053e-38 308 236
-0.014465 0.75 0.00526 1.7599053e-38 309 236
-0.013132467 0.74900001 0.0052529867 1.7691247e-38 310 236
-0.01181922 0.74900001 0.0052529867 1.7875277e-38 311 236
-0.010505973 0.74900001 0.0052529867 1.8058948e-38 312 236
-0.0091927266 0.74900001 0.0052529867 1.7966754e-38 313 236
-0.0078794798 0.74900001 0.0052529867 1.7967113e-38 314 236
-0.0065662335 0.74900001 0.0052529867 1.7874918e-38 315 236
-0.0052529867 0.74900001 0.0052529867 1.7782365e-38 316 236
-0.0039397399 0.74900001 0.0052529867 1.7597977e-38 317 236
-0.0026264933 0.74900001 0.0052529867 1.6864369e-38 318 236
-0.0013132467 0.74900001 0.0052529867 1.6956563e-38 319 236
0 0.74900001 0.0052529867 1.6773251e-38 320 236
0.0013132467 0.74900001 0.0052529867 1.6681057e-38 321 236
0.0026264933 0.74900001 0.0052529867 1.6588504e-38 322 236
0.0039397399 0.74900001 0.0052529867 1.631228e-38 323 236
0.0052529867 0.74900001 0.0052529867 1.6127533e-38 324 236
0.0065662335 0.74900001 0.0052529867 1.6127533e-38 325 236
0.00789 0.75 0.00526 1.5759832e-38 326 236
0.0092049995 0.75 0.00526 1.5759832e-38 327 236
0.010548052 0.75199997 0.0052740262 1.5668002e-38 328 236
0.011866559 0.75199997 0.0052740262 1.5668002e-38 329 236
0.013185065 0.75199997 0.0052740262 1.5850964e-38 330 236
0.014503572 0.75199997 0.0052740262 1.5943519e-38 331 236
0.01586416 0.75400001 0.0052880533 1.5943163e-38 332 236
0.017186172 0.75400001 0.0052880533 1.5850967e-38 333 236
0.018508185 0.75400001 0.0052880533 1.5667652e-38 334 236
0.019830201 0.75400001 0.0052880533 1.5575456e-38 335 236
0.021152213 0.75400001 0.0052880533 1.5667299e-38 336 236
0.022504034 0.755 0.0052950666 1.5575103e-38 337 236
0.023827799 0.755 0.0052950666 1.5390356e-38 338 236
0.025218192 0.75700003 0.0053090933 1.5390356e-38 339 236
0.026545467 0.75700003 0.0053090933 1.5021932e-38 340 236
0.027946379 0.759 0.0053231199 1.5021932e-38 341 236
0.029354304 0.76099998 0.0053371461 1.4654241e-38 342 236
0.030688593 0.76099998 0.0053371461 1.4654241e-38 343 236
0.032022879 0.76099998 0.0053371461 1.46532e-38 344 236
0.033401001 0.76200002 0.0053441599 1.4745397e-38 345 236
0.034737039 0.76200002 0.0053441599 1.5022403e-38 346 236
-0.04190642 0.77100003 0.0040554604 1.70551e-38 289 237
-0.0404494 0.76899999 0.0040449398 1.6778879e-38 290 237
-0.039101087 0.76899999 0.0040449398 1.6133509e-38 291 237
-0.037654586 0.76700002 0.00403442 1.3187944e-38 292 237
-0.036309779 0.76700002 0.00403442 1.3464172e-38 293 237
-0.034964975 0.76700002 0.00403442 1.5215519e-38 294 237
-0.033576332 0.76599997 0.0040291594 1.2726237e-38 295 237
-0.032064959 0.76200002 0.0040081199 9.6793668e-39 296 237
-0.030688593 0.76099998 0.0040028598 1.2168649e-38 297 237
-0.029200014 0.75700003 0.0039818203 1.6039709e-38 298 237
-0.027799098 0.755 0.0039712996 1.6039709e-38 299 237
-0.026440267 0.75400001 0.00396604 1.7048829e-38 300 237
-0.025118252 0.75400001 0.00396604 1.6864438e-38 301 237
-0.023733119 0.75199997 0.0039555198 1.741474e-38 302 237
-0.022414612 0.75199997 0.0039555198 1.7506937e-38 303 237
-0.021096105 0.75199997 0.0039555198 1.7324694e-38 304 237
-0.019724999 0.75 0.003945 1.7324694e-38 305 237
-0.018409999 0.75 0.003945 1.7690195e-38 306 237
-0.017072206 0.74900001 0.0039397399 1.7690195e-38 307 237
-0.01575896 0.74900001 0.0039397399 1.7508294e-38 308 237
-0.014445714 0.74900001 0.0039397399 1.74161e-38 309 237
-0.013132467 0.74900001 0.0039397399 1.7599771e-38 310 237
-0.01181922 0.74900001 0.0039397399 1.7691965e-38 311 237
-0.010505973 0.74900001 0.0039397399 1.787456e-38 312 237
-0.0091927266 0.74900001 0.0039397399 1.787456e-38 313 237
-0.0078794798 0.74900001 0.0039397399 1.8150425e-38 314 237
-0.0065662335 0.74900001 0.0039397399 1.8058231e-38 315 237
-0.0052529867 0.74900001 0.0039397399 1.7966754e-38 316 237
-0.0039397399 0.74900001 0.0039397399 1.787456e-38 317 237
-0.0026264933 0.74900001 0.0039397399 1.7324623e-38 318 237
-0.0013132467 0.74900001 0.0039397399 1.7324623e-38 319 237
0 0.74900001 0.0039397399 1.7048758e-38 320 237
0.0013132467 0.74900001 0.0039397399 1.6864369e-38 321 237
0.0026194798 0.74699998 0.0039292197 1.686401e-38 322 237
0.0039292197 0.74699998 0.0039292197 1.6587786e-38 323 237
0.0052529867 0.74900001 0.0039397399 1.6311921e-38 324 237
0.0065662335 0.74900001 0.0039397399 1.6219368e-38 325 237
0.0078794798 0.74900001 0.0039397399 1.6035339e-38 326 237
0.0092049995 0.75 0.003945 1.6035339e-38 327 237
0.01052 0.75 0.003945 1.5668002e-38 328 237
0.011866559 0.75199997 0.0039555198 1.5668002e-38 329 237
0.013185065 0.75199997 0.0039555198 1.5758769e-38 330 237
0.014503572 0.75199997 0.0039555198 1.5850964e-38 331 237
0.01586416 0.75400001 0.00396604 1.5850964e-38 332 237
0.017186172 0.75400001 0.00396604 1.5850964e-38 333 237
0.018508185 0.75400001 0.00396604 1.5668008e-38 334 237
0.019830201 0.75400001 0.00396604 1.5575453e-38 335 237
0.021152213 0.75400001 0.00396604 1.5575459e-38 336 237
0.022504034 0.755 0.0039712996 1.5482905e-38 337 237
0.023827799 0.755 0.0039712996 1.5390356e-38 338 237
0.025218192 0.75700003 0.0039818203 1.529816e-38 339 237
0.026545467 0.75700003 0.0039818203 1.5113052e-38 340 237
0.027946379 0.759 0.0039923396 1.5113052e-38 341 237
0.029354304 0.76099998 0.0040028598 1.4653888e-38 342 237
0.030688593 0.76099998 0.0040028598 1.4653888e-38 343 237
0.032064959 0.76200002 0.0040081199 1.4469172e-38 344 237
0.033401001 0.76200002 0.0040081199 1.4653203e-38 345 237
0.034828212 0.764 0.0040186401 1.4746539e-38 346 237
-0.04190642 0.77100003 0.0027036399 1.7054377e-38 289 238
-0.0404494 0.76899999 0.0026966266 1.6685964e-38 290 238
-0.039101087 0.76899999 0.0026966266 1.6409377e-38 291 238
-0.037654586 0.76700002 0.0026896133 1.3463809e-38 292 238
-0.036309779 0.76700002 0.0026896133 1.3186862e-38 293 238
-0.034964975 0.76700002 0.0026896133 1.4939289e-38 294 238
-0.033488665 0.764 0.0026790933 1.4017331e-38 295 238
-0.032064959 0.76200002 0.00267208 1.2441995e-38 296 238
-0.030688593 0.76099998 0.0026685731 1.3271757e-38 297 238
-0.029277159 0.759 0.00266156 1.5764201e-38 298 238
-0.027799098 0.755 0.0026475333 1.5856397e-38 299 238
-0.026475333 0.755 0.0026475333 1.6405274e-38 300 238
-0.025118252 0.75400001 0.0026440267 1.6681861e-38 301 238
-0.023733119 0.75199997 0.0026370131 1.7600949e-38 302 238
-0.022414612 0.75199997 0.0026370131 1.8246319e-38 303 238
-0.021096105 0.75199997 0.0026370131 1.806443e-38 304 238
-0.019724999 0.75 0.00263 1.7787483e-38 305 238
-0.018409999 0.75 0.00263 1.7784201e-38 306 238
-0.017072206 0.74900001 0.0026264933 1.7507614e-38 307 238
-0.01575896 0.74900001 0.0026264933 1.7784518e-38 308 238
-0.014445714 0.74900001 0.0026264933 1.7784518e-38 309 238
-0.013132467 0.74900001 0.0026264933 1.7784518e-38 310 238
-0.01181922 0.74900001 0.0026264933 1.7692324e-38 311 238
-0.010505973 0.74900001 0.0026264933 1.7691247e-38 312 238
-0.0091927266 0.74900001 0.0026264933 1.7691247e-38 313 238
-0.0078794798 0.74900001 0.0026264933 1.7874918e-38 314 238
-0.0065662335 0.74900001 0.0026264933 1.7874918e-38 315 238
-0.0052529867 0.74900001 0.0026264933 1.769053e-38 316 238
-0.0039397399 0.74900001 0.0026264933 1.7967113e-38 317 238
-0.0026264933 0.74900001 0.0026264933 1.7416458e-38 318 238
-0.0013132467 0.74900001 0.0026264933 1.7140234e-38 319 238
0 0.74900001 0.0026264933 1.7140593e-38 320 238
0.0013132467 0.74900001 0.0026264933 1.7048399e-38 321 238
0.0026194798 0.74699998 0.0026194798 1.7139158e-38 322 238
0.0039292197 0.74699998 0.0026194798 1.7046964e-38 323 238
0.0052529867 0.74900001 0.0026264933 1.6495951e-38 324 238
0.0065662335 0.74900001 0.0026264933 1.6311921e-38 325 238
0.0078794798 0.74900001 0.0026264933 1.6127534e-38 326 238
0.0092049995 0.75 0.00263 1.6127534e-38 327 238
0.01052 0.75 0.00263 1.5851317e-38 328 238
0.011835 0.75 0.00263 1.5851317e-38 329 238
0.013185065 0.75199997 0.0026370131 1.5850967e-38 330 238
0.014503572 0.75199997 0.0026370131 1.5850967e-38 331 238
0.015822079 0.75199997 0.0026370131 1.585132e-38 332 238
0.017186172 0.75400001 0.0026440267 1.585132e-38 333 238
0.018508185 0.75400001 0.0026440267 1.5759119e-38 334 238
0.019830201 0.75400001 0.0026440267 1.5666923e-38 335 238
0.021180267 0.755 0.0026475333 1.5666573e-38 336 238
0.022504034 0.755 0.0026475333 1.5482542e-38 337 238
0.023827799 0.755 0.0026475333 1.529744e-38 338 238
0.025218192 0.75700003 0.0026545466 1.5205244e-38 339 238
0.026615599 0.759 0.00266156 1.492903e-38 340 238
0.027946379 0.759 0.00266156 1.4836835e-38 341 238
0.029354304 0.76099998 0.0026685731 1.4561342e-38 342 238
0.030688593 0.76099998 0.0026685731 1.4561342e-38 343 238
0.032064959 0.76200002 0.00267208 1.4376986e-38 344 238
0.033401001 0.76200002 0.00267208 1.4469183e-38 345 238
0.034737039 0.76200002 0.00267208 1.4838384e-38 346 238
0.036073081 0.76200002 0.00267208 1.5944373e-38 347 238
-0.042015124 0.773 0.0013553266 1.6778513e-38 289 239
-0.0404494 0.76899999 0.0013483133 1.6317178e-38 290 239
-0.038999394 0.76700002 0.0013448066 1.5948755e-38 291 239
-0.037654586 0.76700002 0.0013448066 1.3831147e-38 292 239
-0.036309779 0.76700002 0.0013448066 1.3369808e-38 293 239
-0.034919381 0.76599997 0.0013430532 1.4109527e-38 294 239
-0.033488665 0.764 0.0013395466 1.4662701e-38 295 239
-0.032064959 0.76200002 0.00133604 1.4753386e-38 296 239
-0.030688593 0.76099998 0.0013342865 1.4200571e-38 297 239
-0.029277159 0.759 0.00133078 1.5580183e-38 298 239
-0.027799098 0.755 0.0013237667 1.5580183e-38 299 239
-0.026475333 0.755 0.0013237667 1.6865157e-38 300 239
-0.025118252 0.75400001 0.0013220133 1.6957352e-38 301 239
-0.02379624 0.75400001 0.0013220133 1.7971546e-38 302 239
-0.022474226 0.75400001 0.0013220133 1.9354481e-38 303 239
-0.021096105 0.75199997 0.0013185065 1.8897482e-38 304 239
-0.019724999 0.75 0.001315 1.871309e-38 305 239
-0.018409999 0.75 0.001315 1.8433931e-38 306 239
-0.017072206 0.74900001 0.0013132467 1.7419779e-38 307 239
-0.01575896 0.74900001 0.0013132467 1.7693415e-38 308 239
-0.014445714 0.74900001 0.0013132467 1.760122e-38 309 239
-0.013132467 0.74900001 0.0013132467 1.7692324e-38 310 239
-0.01181922 0.74900001 0.0013132467 1.7784518e-38 311 239
-0.010505973 0.74900001 0.0013132467 1.7783442e-38 312 239
-0.0091927266 0.74900001 0.0013132467 1.7691247e-38 313 239
-0.0078794798 0.74900001 0.0013132467 1.7690889e-38 314 239
-0.0065662335 0.74900001 0.0013132467 1.7690889e-38 315 239
-0.0052529867 0.74900001 0.0013132467 1.7323547e-38 316 239
-0.0039397399 0.74900001 0.0013132467 1.7323547e-38 317 239
-0.0026264933 0.74900001 0.0013132467 1.7416458e-38 318 239
-0.0013132467 0.74900001 0.0013132467 1.7416458e-38 319 239
0 0.74900001 0.0013132467 1.7233146e-38 320 239
0.0013132467 0.74900001 0.0013132467 1.7140952e-38 321 239
0.0026194798 0.74699998 0.0013097399 1.7140595e-38 322 239
0.0039292197 0.74699998 0.0013097399 1.7140595e-38 323 239
0.0052389596 0.74699998 0.0013097399 1.6771832e-38 324 239
0.0065662335 0.74900001 0.0013132467 1.658744e-38 325 239
0.0078794798 0.74900001 0.0013132467 1.6127911e-38 326 239
0.0091927266 0.74900001 0.0013132467 1.6127911e-38 327 239
0.01052 0.75 0.001315 1.5851686e-38 328 239
0.011835 0.75 0.001315 1.5667655e-38 329 239
0.01315 0.75 0.001315 1.5758415e-38 330 239
0.014503572 0.75199997 0.0013185065 1.585097e-38 331 239
0.015822079 0.75199997 0.0013185065 1.5850964e-38 332 239
0.017140586 0.75199997 0.0013185065 1.5850964e-38 333 239
0.018508185 0.75400001 0.0013220133 1.5667652e-38 334 239
0.019830201 0.75400001 0.0013220133 1.5483261e-38 335 239
0.021152213 0.75400001 0.0013220133 1.5482186e-38 336 239
0.022504034 0.755 0.0013237667 1.5297793e-38 337 239
0.023827799 0.755 0.0013237667 1.5021932e-38 338 239
0.025151566 0.755 0.0013237667 1.5021932e-38 339 239
0.026545467 0.75700003 0.0013272733 1.4836832e-38 340 239
0.027946379 0.759 0.00133078 1.4836832e-38 341 239
0.029354304 0.76099998 0.0013342865 1.4560623e-38 342 239
0.030688593 0.76099998 0.0013342865 1.4560623e-38 343 239
0.032064959 0.76200002 0.00133604 1.4284074e-38 344 239
0.033401001 0.76200002 0.00133604 1.4652498e-38 345 239
0.034737039 0.76200002 0.00133604 1.5023493e-38 346 239
-0.0404494 0.76899999 -0 1.6501207e-38 290 240
-0.038999394 0.76700002 -0 1.6039869e-38 291 240
-0.037605491 0.76599997 -0 1.4844573e-38 292 240
-0.036262438 0.76599997 -0 1.4014812e-38 293 240
-0.034919381 0.76599997 -0 1.3648548e-38 294 240
-0.033488665 0.764 -0 1.4293917e-38 295 240
-0.032064959 0.76200002 -0 1.5676787e-38 296 240
-0.030688593 0.76099998 -0 1.4755189e-38 297 240
-0.029277159 0.759 -0 1.6131207e-38 298 240
-0.027872739 0.75700003 -0 1.6131207e-38 299 240
-0.026475333 0.755 -0 1.6315228e-38 300 240
-0.025118252 0.75400001 -0 1.6684009e-38 301 240
-0.02379624 0.75400001 -0 1.7604934e-38 302 240
-0.022474226 0.75400001 -0 1.8987869e-38 303 240
-0.021096105 0.75199997 -0 1.9358486e-38 304 240
-0.019724999 0.75 -0 1.9911658e-38 305 240
-0.018409999 0.75 -0 1.9450639e-38 306 240
-0.017072206 0.74900001 -0 1.7975509e-38 307 240
-0.01575896 0.74900001 -0 1.8156947e-38 308 240
-0.014445714 0.74900001 -0 1.7511577e-38 309 240
-0.013132467 0.74900001 -0 1.7785961e-38 310 240
-0.01181922 0.74900001 -0 1.760157e-38 311 240
-0.010505973 0.74900001 -0 1.7876353e-38 312 240
-0.0091927266 0.74900001 -0 1.7691965e-38 313 240
-0.0078794798 0.74900001 -0 1.7599053e-38 314 240
-0.0065662335 0.74900001 -0 1.7599053e-38 315 240
-0.0052529867 0.74900001 -0 1.7415751e-38 316 240
-0.0039397399 0.74900001 -0 1.7415751e-38 317 240
-0.0026194798 0.74699998 -0 1.7233864e-38 318 240
-0.0013097399 0.74699998 -0 1.7141311e-38 319 240
0 0.74900001 -0 1.7327134e-38 320 240
0.0013132467 0.74900001 -0 1.705091e-38 321 240
0.0026194798 0.74699998 -0 1.7323905e-38 322 240
0.0039292197 0.74699998 -0 1.7139876e-38 323 240
0.0052389596 0.74699998 -0 1.6954422e-38 324 240
0.0065662335 0.74900001 -0 1.6862227e-38 325 240
0.0078794798 0.74900001 -0 1.6311221e-38 326 240
0.0091927266 0.74900001 -0 1.6219024e-38 327 240
0.010505973 0.74900001 -0 1.5851683e-38 328 240
0.011835 0.75 -0 1.5667652e-38 329 240
0.01315 0.75 -0 1.5850967e-38 330 240
0.014465 0.75 -0 1.5850967e-38 331 240
0.015822079 0.75199997 -0 1.5667299e-38 332 240
0.017140586 0.75199997 -0 1.5575103e-38 333 240
0.018508185 0.75400001 -0 1.548291e-38 334 240
0.019830201 0.75400001 -0 1.548291e-38 335 240
0.021152213 0.75400001 -0 1.5390356e-38 336 240
0.022504034 0.755 -0 1.5205963e-38 337 240
0.023827799 0.755 -0 1.5205247e-38 338 240
0.025151566 0.755 -0 1.5020497e-38 339 240
0.026545467 0.75700003 -0 1.4653525e-38 340 240
0.027946379 0.759 -0 1.4560971e-38 341 240
0.029354304 0.76099998 -0 1.446844e-38 342 240
0.030688593 0.76099998 -0 1.446844e-38 343 240
0.032064959 0.76200002 -0 1.4376638e-38 344 240
0.033401001 0.76200002 -0 1.4653227e-38 345 240
0.034737039 0.76200002 -0 1.5207527e-38 346 240
-0.0404494 0.76899999 -0.0013483133 1.6226415e-38 290 241
-0.038999394 0.76700002 -0.0013448066 1.6041664e-38 291 241
-0.037605491 0.76599997 -0.0013430532 1.6226062e-38 292 241
-0.036262438 0.76599997 -0.0013430532 1.5580693e-38 293 241
-0.034919381 0.76599997 -0.0013430532 1.3373031e-38 294 241
-0.033401001 0.76200002 -0.00133604 1.364962e-38 295 241
-0.032022879 0.76099998 -0.0013342865 1.5493109e-38 296 241
-0.030688593 0.76099998 -0.0013342865 1.4662988e-38 297 241
-0.029277159 0.759 -0.00133078 1.6131557e-38 298 241
-0.027946379 0.759 -0.00133078 1.6223754e-38 299 241
-0.026475333 0.755 -0.0013237667 1.6592517e-38 300 241
-0.025118252 0.75400001 -0.0013220133 1.6684713e-38 301 241
-0.02379624 0.75400001 -0.0013220133 1.6776951e-38 302 241
-0.022474226 0.75400001 -0.0013220133 1.7883297e-38 303 241
-0.021096105 0.75199997 -0.0013185065 1.8255012e-38 304 241
-0.019724999 0.75 -0.001315 1.9176608e-38 305 241
-0.018409999 0.75 -0.001315 1.9453554e-38 306 241
-0.017072206 0.74900001 -0.0013132467 1.9084413e-38 307 241
-0.01575896 0.74900001 -0.0013132467 1.8805623e-38 308 241
-0.014445714 0.74900001 -0.0013132467 1.8160254e-38 309 241
-0.013132467 0.74900001 -0.0013132467 1.8340624e-38 310 241
-0.01181922 0.74900001 -0.0013132467 1.7695255e-38 311 241
-0.010505973 0.74900001 -0.0013132467 1.7785608e-38 312 241
-0.0091927266 0.74900001 -0.0013132467 1.7509021e-38 313 241
-0.0078794798 0.74900001 -0.0013132467 1.732534e-38 314 241
-0.0065662335 0.74900001 -0.0013132467 1.7233146e-38 315 241
-0.0052529867 0.74900001 -0.0013132467 1.7140595e-38 316 241
-0.0039397399 0.74900001 -0.0013132467 1.7324987e-38 317 241
-0.0026194798 0.74699998 -0.0013097399 1.723351e-38 318 241
-0.0013097399 0.74699998 -0.0013097399 1.7417902e-38 319 241
0 0.74699998 -0.0013097399 1.7326425e-38 320 241
0.0013132467 0.74900001 -0.0013132467 1.7050198e-38 321 241
0.0026194798 0.74699998 -0.0013097399 1.7140609e-38 322 241
0.0039292197 0.74699998 -0.0013097399 1.6956576e-38 323 241
0.0052389596 0.74699998 -0.0013097399 1.6496334e-38 324 241
0.0065662335 0.74900001 -0.0013132467 1.6404138e-38 325 241
0.0078794798 0.74900001 -0.0013132467 1.6036081e-38 326 241
0.0091927266 0.74900001 -0.0013132467 1.6036081e-38 327 241
0.010505973 0.74900001 -0.0013132467 1.5851689e-38 328 241
0.01181922 0.74900001 -0.0013132467 1.5667299e-38 329 241
0.013132467 0.74900001 -0.0013132467 1.5758418e-38 330 241
0.014465 0.75 -0.001315 1.5758418e-38 331 241
0.015822079 0.75199997 -0.0013185065 1.5758065e-38 332 241
0.017140586 0.75199997 -0.0013185065 1.5758065e-38 333 241
0.018508185 0.75400001 -0.0013220133 1.548292e-38 334 241
0.019830201 0.75400001 -0.0013220133 1.5206693e-38 335 241
0.021152213 0.75400001 -0.0013220133 1.5114851e-38 336 241
0.022504034 0.755 -0.0013237667 1.5022654e-38 337 241
0.023827799 0.755 -0.0013237667 1.5021579e-38 338 241
0.025151566 0.755 -0.0013237667 1.4837188e-38 339 241
0.026545467 0.75700003 -0.0013272733 1.4560976e-38 340 241
0.027946379 0.759 -0.00133078 1.4560976e-38 341 241
0.029354304 0.76099998 -0.0013342865 1.446844e-38 342 241
0.030728921 0.76200002 -0.00133604 1.4560636e-38 343 241
0.032064959 0.76200002 -0.00133604 1.4376636e-38 344 241
0.033401001 0.76200002 -0.00133604 1.4561028e-38 345 241
0.034737039 0.76200002 -0.00133604 1.5208609e-38 346 241
0.036073081 0.76200002 -0.00133604 1.6130205e-38 347 241
-0.0404494 0.76899999 -0.0026966266 1.6409725e-38 290 242
-0.038999394 0.76700002 -0.0026896133 1.6133497e-38 291 242
-0.037605491 0.76599997 -0.0026861064 1.5857276e-38 292 242
-0.036262438 0.76599997 -0.0026861064 1.622606e-38 293 242
-0.034919381 0.76599997 -0.0026861064 1.5031106e-38 294 242
-0.033401001 0.76200002 -0.00267208 1.4846714e-38 295 242
-0.032022879 0.76099998 -0.0026685731 1.576897e-38 296 242
-0.030688593 0.76099998 -0.0026685731 1.5031405e-38 297 242
-0.029277159 0.759 -0.00266156 1.6132638e-38 298 242
-0.027946379 0.759 -0.00266156 1.6132638e-38 299 242
-0.026615599 0.759 -0.00266156 1.6408852e-38 300 242
-0.025151566 0.755 -0.0026475333 1.6685079e-38 301 242
-0.02379624 0.75400001 -0.0026440267 1.6684028e-38 302 242
-0.022474226 0.75400001 -0.0026440267 1.7421593e-38 303 242
-0.021096105 0.75199997 -0.0026370131 1.7701464e-38 304 242
-0.019724999 0.75 -0.00263 1.8531226e-38 305 242
-0.018409999 0.75 -0.00263 1.8808201e-38 306 242
-0.017095 0.75 -0.00263 1.9361375e-38 307 242
-0.01575896 0.74900001 -0.0026264933 1.945175e-38 308 242
-0.014445714 0.74900001 -0.0026264933 1.8991131e-38 309 242
-0.013132467 0.74900001 -0.0026264933 1.8896724e-38 310 242
-0.01181922 0.74900001 -0.0026264933 1.7974766e-38 311 242
-0.010505973 0.74900001 -0.0026264933 1.7971836e-38 312 242
-0.0091927266 0.74900001 -0.0026264933 1.7510858e-38 313 242
-0.0078794798 0.74900001 -0.0026264933 1.7234955e-38 314 242
-0.0065662335 0.74900001 -0.0026264933 1.7050564e-38 315 242
-0.0052529867 0.74900001 -0.0026264933 1.7142394e-38 316 242
-0.0039292197 0.74699998 -0.0026194798 1.7142394e-38 317 242
-0.0026194798 0.74699998 -0.0026194798 1.7142757e-38 318 242
-0.0013097399 0.74699998 -0.0026194798 1.7142757e-38 319 242
0 0.74699998 -0.0026194798 1.7050564e-38 320 242
0.0013132467 0.74900001 -0.0026264933 1.6774337e-38 321 242
0.0026194798 0.74699998 -0.0026194798 1.6865099e-38 322 242
0.0039292197 0.74699998 -0.0026194798 1.6772904e-38 323 242
0.0052529867 0.74900001 -0.0026264933 1.6495971e-38 324 242
0.0065662335 0.74900001 -0.0026264933 1.6403775e-38 325 242
0.0078794798 0.74900001 -0.0026264933 1.6036081e-38 326 242
0.0091927266 0.74900001 -0.0026264933 1.5943886e-38 327 242
0.010505973 0.74900001 -0.0026264933 1.5942809e-38 328 242
0.01181922 0.74900001 -0.0026264933 1.5850614e-38 329 242
0.013132467 0.74900001 -0.0026264933 1.557475e-38 330 242
0.014465 0.75 -0.00263 1.557475e-38 331 242
0.015822079 0.75199997 -0.0026370131 1.5482923e-38 332 242
0.017140586 0.75199997 -0.0026370131 1.5482923e-38 333 242
0.018508185 0.75400001 -0.0026440267 1.5207415e-38 334 242
0.019830201 0.75400001 -0.0026440267 1.5115219e-38 335 242
0.021152213 0.75400001 -0.0026440267 1.4838986e-38 336 242
0.022504034 0.755 -0.0026475333 1.4838986e-38 337 242
0.023827799 0.755 -0.0026475333 1.4837551e-38 338 242
0.025151566 0.755 -0.0026475333 1.465352e-38 339 242
0.026545467 0.75700003 -0.0026545466 1.4469144e-38 340 242
0.027946379 0.759 -0.00266156 1.4469144e-38 341 242
0.029354304 0.76099998 -0.0026685731 1.4284772e-38 342 242
0.030728921 0.76200002 -0.00267208 1.4469522e-38 343 242
0.032064959 0.76200002 -0.00267208 1.4193326e-38 344 242
0.033401001 0.76200002 -0.00267208 1.456175e-38 345 242
0.034737039 0.76200002 -0.00267208 1.5484838e-38 346 242
0.036073081 0.76200002 -0.00267208 1.6222405e-38 347 242
-0.038948543 0.76599997 -0.0040291594 1.6133494e-38 291 243
-0.037605491 0.76599997 -0.0040291594 1.5672514e-38 292 243
-0.036262438 0.76599997 -0.0040291594 1.5949103e-38 293 243
-0.034828212 0.764 -0.0040186401 1.6228188e-38 294 243
-0.033488665 0.764 -0.0040186401 1.5859406e-38 295 243
-0.032064959 0.76200002 -0.0040081199 1.5859351e-38 296 243
-0.030688593 0.76099998 -0.0040028598 1.5398013e-38 297 243
-0.029354304 0.76099998 -0.0040028598 1.6133003e-38 298 243
-0.027946379 0.759 -0.0039923396 1.6133003e-38 299 243
-0.026615599 0.759 -0.0039923396 1.650105e-38 300 243
-0.025218192 0.75700003 -0.0039818203 1.650105e-38 301 243
-0.02379624 0.75400001 -0.00396604 1.6776571e-38 302 243
-0.022474226 0.75400001 -0.00396604 1.7053518e-38 303 243
-0.021180267 0.755 -0.0039712996 1.7054995e-38 304 243
-0.019830201 0.75400001 -0.00396604 1.7700364e-38 305 243
-0.018459093 0.75199997 -0.0039555198 1.7794758e-38 306 243
-0.017140586 0.75199997 -0.0039555198 1.8900747e-38 307 243
-0.01578 0.75 -0.003945 1.9545045e-38 308 243
-0.014465 0.75 -0.003945 1.982163e-38 309 243
-0.013132467 0.74900001 -0.0039397399 1.9820163e-38 310 243
-0.01181922 0.74900001 -0.0039397399 1.8529424e-38 311 243
-0.010505973 0.74900001 -0.0039397399 1.8342101e-38 312 243
-0.0091927266 0.74900001 -0.0039397399 1.7696732e-38 313 243
-0.0078794798 0.74900001 -0.0039397399 1.7513365e-38 314 243
-0.0065662335 0.74900001 -0.0039397399 1.7144224e-38 315 243
-0.0052389596 0.74699998 -0.0039292197 1.7419351e-38 316 243
-0.0039292197 0.74699998 -0.0039292197 1.7327154e-38 317 243
-0.0026194798 0.74699998 -0.0039292197 1.7235321e-38 318 243
-0.0013097399 0.74699998 -0.0039292197 1.6959094e-38 319 243
0 0.74699998 -0.0039292197 1.7050561e-38 320 243
0.0013132467 0.74900001 -0.0039397399 1.6682137e-38 321 243
0.0026264933 0.74900001 -0.0039397399 1.6865452e-38 322 243
0.0039397399 0.74900001 -0.0039397399 1.6772898e-38 323 243
0.0052529867 0.74900001 -0.0039397399 1.6404494e-38 324 243
0.0065662335 0.74900001 -0.0039397399 1.6404494e-38 325 243
0.0078794798 0.74900001 -0.0039397399 1.6035731e-38 326 243
0.0091927266 0.74900001 -0.0039397399 1.6035731e-38 327 243
0.010505973 0.74900001 -0.0039397399 1.5943179e-38 328 243
0.01181922 0.74900001 -0.0039397399 1.5850982e-38 329 243
0.013132467 0.74900001 -0.0039397399 1.5483276e-38 330 243
0.014465 0.75 -0.003945 1.5483276e-38 331 243
0.015822079 0.75199997 -0.0039555198 1.5299611e-38 332 243
0.017140586 0.75199997 -0.0039555198 1.5207415e-38 333 243
0.018508185 0.75400001 -0.00396604 1.5114863e-38 334 243
0.019830201 0.75400001 -0.00396604 1.4930832e-38 335 243
0.021152213 0.75400001 -0.00396604 1.4929749e-38 336 243
0.022504034 0.755 -0.0039712996 1.4837554e-38 337 243
0.023827799 0.755 -0.0039712996 1.4562043e-38 338 243
0.025151566 0.755 -0.0039712996 1.4562043e-38 339 243
0.026545467 0.75700003 -0.0039818203 1.4285831e-38 340 243
0.028020019 0.76099998 -0.0040028598 1.4285831e-38 341 243
0.029392879 0.76200002 -0.0040081199 1.4285497e-38 342 243
0.030728921 0.76200002 -0.0040081199 1.4469888e-38 343 243
0.032064959 0.76200002 -0.0040081199 1.4468848e-38 344 243
0.033401001 0.76200002 -0.0040081199 1.4745794e-38 345 243
0.034737039 0.76200002 -0.0040081199 1.5668878e-38 346 243
0.036073081 0.76200002 -0.0040081199 1.6129855e-38 347 243
-0.037605491 0.76599997 -0.0053722127 1.5764344e-38 292 244
-0.036262438 0.76599997 -0.0053722127 1.585654e-38 293 244
-0.034828212 0.764 -0.0053581866 1.5858663e-38 294 244
-0.033488665 0.764 -0.0053581866 1.5489882e-38 295 244
-0.032064959 0.76200002 -0.0053441599 1.5673508e-38 296 244
-0.030688593 0.76099998 -0.0053371461 1.5673508e-38 297 244
-0.029354304 0.76099998 -0.0053371461 1.613265e-38 298 244
-0.028020019 0.76099998 -0.0053371461 1.613265e-38 299 244
-0.026615599 0.759 -0.0053231199 1.6408499e-38 300 244
-0.025218192 0.75700003 -0.0053090933 1.6500694e-38 301 244
-0.02379624 0.75400001 -0.0052880533 1.6684726e-38 302 244
-0.022474226 0.75400001 -0.0052880533 1.677728e-38 303 244
-0.021152213 0.75400001 -0.0052880533 1.6593631e-38 304 244
-0.019830201 0.75400001 -0.0052880533 1.6962414e-38 305 244
-0.018459093 0.75199997 -0.0052740262 1.6964624e-38 306 244
-0.017140586 0.75199997 -0.0052740262 1.8163165e-38 307 244
-0.01578 0.75 -0.00526 1.8624889e-38 308 244
-0.014465 0.75 -0.00526 1.9177704e-38 309 244
-0.013132467 0.74900001 -0.0052529867 1.991346e-38 310 244
-0.01181922 0.74900001 -0.0052529867 1.9175895e-38 311 244
-0.010505973 0.74900001 -0.0052529867 1.8713077e-38 312 244
-0.0091927266 0.74900001 -0.0052529867 1.7975512e-38 313 244
-0.0078794798 0.74900001 -0.0052529867 1.7790707e-38 314 244
-0.0065662335 0.74900001 -0.0052529867 1.7145338e-38 315 244
-0.0052389596 0.74699998 -0.0052389596 1.7328615e-38 316 244
-0.0039292197 0.74699998 -0.0052389596 1.723642e-38 317 244
-0.0026194798 0.74699998 -0.0052389596 1.7144577e-38 318 244
-0.0013097399 0.74699998 -0.0052389596 1.6775795e-38 319 244
0 0.74699998 -0.0052389596 1.6866899e-38 320 244
0.0013132467 0.74900001 -0.0052529867 1.6682507e-38 321 244
0.0026194798 0.74699998 -0.0052389596 1.6681787e-38 322 244
0.0039292197 0.74699998 -0.0052389596 1.6589233e-38 323 244
0.0052529867 0.74900001 -0.0052529867 1.6313024e-38 324 244
0.0065662335 0.74900001 -0.0052529867 1.6220828e-38 325 244
0.0078794798 0.74900001 -0.0052529867 1.5852063e-38 326 244
0.0091927266 0.74900001 -0.0052529867 1.5852063e-38 327 244
0.010505973 0.74900001 -0.0052529867 1.5484002e-38 328 244
0.01181922 0.74900001 -0.0052529867 1.5484002e-38 329 244
0.01315 0.75 -0.00526 1.5299964e-38 330 244
0.014465 0.75 -0.00526 1.5115214e-38 331 244
0.015822079 0.75199997 -0.0052740262 1.5207409e-38 332 244
0.017140586 0.75199997 -0.0052740262 1.4931183e-38 333 244
0.018508185 0.75400001 -0.0052880533 1.5114501e-38 334 244
0.019830201 0.75400001 -0.0052880533 1.4929749e-38 335 244
0.021180267 0.755 -0.0052950666 1.4837556e-38 336 244
0.022504034 0.755 -0.0052950666 1.4560971e-38 337 244
0.023827799 0.755 -0.0052950666 1.4469494e-38 338 244
0.025218192 0.75700003 -0.0053090933 1.4377298e-38 339 244
0.026615599 0.759 -0.0053231199 1.4376948e-38 340 244
0.028020019 0.76099998 -0.0053371461 1.4376948e-38 341 244
0.029392879 0.76200002 -0.0053441599 1.4284778e-38 342 244
0.030728921 0.76200002 -0.0053441599 1.4469169e-38 343 244
0.032064959 0.76200002 -0.0053441599 1.4653242e-38 344 244
0.033401001 0.76200002 -0.0053441599 1.5206416e-38 345 244
0.034828212 0.764 -0.0053581866 1.5945471e-38 346 244
0.036167759 0.764 -0.0053581866 1.6129503e-38 347 244
-0.036262438 0.76599997 -0.0067152665 1.5764339e-38 293 245
-0.034919381 0.76599997 -0.0067152665 1.5488786e-38 294 245
-0.033488665 0.764 -0.006697733 1.5304395e-38 295 245
-0.032064959 0.76200002 -0.0066801999 1.5673492e-38 296 245
-0.030728921 0.76200002 -0.0066801999 1.5673492e-38 297 245
-0.029354304 0.76099998 -0.0066714329 1.5949691e-38 298 245
-0.028020019 0.76099998 -0.0066714329 1.6133722e-38 299 245
-0.026615599 0.759 -0.0066538998 1.6409568e-38 300 245
-0.025284819 0.759 -0.0066538998 1.6409568e-38 301 245
-0.02389092 0.75700003 -0.0066363667 1.6409921e-38 302 245
-0.022504034 0.755 -0.0066188332 1.6502117e-38 303 245
-0.021152213 0.75400001 -0.0066100666 1.650105e-38 304 245
-0.019830201 0.75400001 -0.0066100666 1.650105e-38 305 245
-0.018459093 0.75199997 -0.0065925326 1.6411058e-38 306 245
-0.017140586 0.75199997 -0.0065925326 1.7517405e-38 307 245
-0.01578 0.75 -0.006575 1.7978071e-38 308 245
-0.014465 0.75 -0.006575 1.8715636e-38 309 245
-0.013132467 0.74900001 -0.0065662335 1.9729429e-38 310 245
-0.01181922 0.74900001 -0.0065662335 1.9545398e-38 311 245
-0.010505973 0.74900001 -0.0065662335 1.9359895e-38 312 245
-0.0091927266 0.74900001 -0.0065662335 1.8529775e-38 313 245
-0.0078794798 0.74900001 -0.0065662335 1.7885799e-38 314 245
-0.0065662335 0.74900001 -0.0065662335 1.6963483e-38 315 245
-0.0052529867 0.74900001 -0.0065662335 1.7330064e-38 316 245
-0.0039397399 0.74900001 -0.0065662335 1.7053476e-38 317 245
-0.0026194798 0.74699998 -0.0065486995 1.6961259e-38 318 245
-0.0013097399 0.74699998 -0.0065486995 1.6684671e-38 319 245
0 0.74699998 -0.0065486995 1.6592109e-38 320 245
0.0013132467 0.74900001 -0.0065662335 1.640736e-38 321 245
0.0026194798 0.74699998 -0.0065486995 1.6406289e-38 322 245
0.0039292197 0.74699998 -0.0065486995 1.6314093e-38 323 245
0.0052529867 0.74900001 -0.0065662335 1.6128643e-38 324 245
0.0065662335 0.74900001 -0.0065662335 1.5944612e-38 325 245
0.0078794798 0.74900001 -0.0065662335 1.5760236e-38 326 245
0.0091927266 0.74900001 -0.0065662335 1.5576205e-38 327 245
0.010505973 0.74900001 -0.0065662335 1.5392528e-38 328 245
0.011835 0.75 -0.006575 1.5299974e-38 329 245
0.01315 0.75 -0.006575 1.5024097e-38 330 245
0.014465 0.75 -0.006575 1.4931902e-38 331 245
0.015822079 0.75199997 -0.0065925326 1.4838986e-38 332 245
0.017140586 0.75199997 -0.0065925326 1.4838986e-38 333 245
0.018508185 0.75400001 -0.0066100666 1.4653888e-38 334 245
0.019830201 0.75400001 -0.0066100666 1.4561692e-38 335 245
0.021180267 0.755 -0.0066188332 1.4469144e-38 336 245
0.022504034 0.755 -0.0066188332 1.4376948e-38 337 245
0.02389092 0.75700003 -0.0066363667 1.4376945e-38 338 245
0.025284819 0.759 -0.0066538998 1.4376945e-38 339 245
0.026685731 0.76099998 -0.0066714329 1.4193636e-38 340 245
0.028056841 0.76200002 -0.0066801999 1.4285831e-38 341 245
0.029392879 0.76200002 -0.0066801999 1.4101112e-38 342 245
0.030809574 0.764 -0.006697733 1.4469535e-38 343 245
0.032064959 0.76200002 -0.0066801999 1.4654694e-38 344 245
0.033401001 0.76200002 -0.0066801999 1.5300063e-38 345 245
0.034828212 0.764 -0.006697733 1.5945117e-38 346 245
-0.034919381 0.76599997 -0.0080583189 1.6040159e-38 294 246
-0.033576332 0.76599997 -0.0080583189 1.5947963e-38 295 246
-0.032064959 0.76200002 -0.0080162399 1.5766041e-38 296 246
-0.030688593 0.76099998 -0.0080057196 1.5766041e-38 297 246
-0.029354304 0.76099998 -0.0080057196 1.6042603e-38 298 246
-0.028020019 0.76099998 -0.0080057196 1.6042603e-38 299 246
-0.026615599 0.759 -0.0079846792 1.6501769e-38 300 246
-0.025284819 0.759 -0.0079846792 1.6409215e-38 301 246
-0.02389092 0.75700003 -0.0079636406 1.6501398e-38 302 246
-0.022563647 0.75700003 -0.0079636406 1.6685429e-38 303 246
-0.021180267 0.755 -0.0079425992 1.6776909e-38 304 246
-0.0198565 0.755 -0.0079425992 1.69613e-38 305 246
-0.018508185 0.75400001 -0.00793208 1.6317766e-38 306 246
-0.017186172 0.75400001 -0.00793208 1.687094e-38 307 246
-0.015822079 0.75199997 -0.0079110395 1.7056092e-38 308 246
-0.014465 0.75 -0.00789 1.7609266e-38 309 246
-0.013132467 0.74900001 -0.0078794798 1.7794027e-38 310 246
-0.01181922 0.74900001 -0.0078794798 1.7609996e-38 311 246
-0.010505973 0.74900001 -0.0078794798 1.7428103e-38 312 246
-0.0091927266 0.74900001 -0.0078794798 1.6690538e-38 313 246
-0.0078794798 0.74900001 -0.0078794798 1.7057128e-38 314 246
-0.0065662335 0.74900001 -0.0078794798 1.6596148e-38 315 246
-0.0052529867 0.74900001 -0.0078794798 1.714677e-38 316 246
-0.0039397399 0.74900001 -0.0078794798 1.696202e-38 317 246
-0.0026194798 0.74699998 -0.0078584393 1.6870164e-38 318 246
-0.0013097399 0.74699998 -0.0078584393 1.631699e-38 319 246
0 0.74900001 -0.0078794798 1.6591772e-38 320 246
0.0013097399 0.74699998 -0.0078584393 1.6315186e-38 321 246
0.0026194798 0.74699998 -0.0078584393 1.6222275e-38 322 246
0.0039292197 0.74699998 -0.0078584393 1.6130078e-38 323 246
0.0052529867 0.74900001 -0.0078794798 1.594498e-38 324 246
0.0065662335 0.74900001 -0.0078794798 1.5760589e-38 325 246
0.0078794798 0.74900001 -0.0078794798 1.5484372e-38 326 246
0.0091927266 0.74900001 -0.0078794798 1.5484372e-38 327 246
0.010505973 0.74900001 -0.0078794798 1.5116661e-38 328 246
0.011835 0.75 -0.00789 1.5024466e-38 329 246
0.01315 0.75 -0.00789 1.50241e-38 330 246
0.014465 0.75 -0.00789 1.4839709e-38 331 246
0.015822079 0.75199997 -0.0079110395 1.4838983e-38 332 246
0.017140586 0.75199997 -0.0079110395 1.44702e-38 333 246
0.018508185 0.75400001 -0.00793208 1.4836832e-38 334 246
0.019830201 0.75400001 -0.00793208 1.4652441e-38 335 246
0.021180267 0.755 -0.0079425992 1.4468422e-38 336 246
0.022563647 0.75700003 -0.0079636406 1.4468422e-38 337 246
0.023954039 0.759 -0.0079846792 1.4285829e-38 338 246
0.025351444 0.76099998 -0.0080057196 1.4285829e-38 339 246
0.0267208 0.76200002 -0.0080162399 1.4285476e-38 340 246
0.028056841 0.76200002 -0.0080162399 1.4285476e-38 341 246
0.029470026 0.764 -0.0080372803 1.4285141e-38 342 246
0.030890226 0.76599997 -0.0080583189 1.4377336e-38 343 246
0.032233275 0.76599997 -0.0080583189 1.5023119e-38 344 246
0.033576332 0.76599997 -0.0080583189 1.5760684e-38 345 246
-0.033576332 0.76599997 -0.0094013726 1.5947966e-38 295 247
-0.032149121 0.764 -0.0093768267 1.5950072e-38 296 247
-0.030688593 0.76099998 -0.0093400059 1.5950072e-38 297 247
-0.029354304 0.76099998 -0.0093400059 1.595041e-38 298 247
-0.028020019 0.76099998 -0.0093400059 1.6042606e-38 299 247
-0.026685731 0.76099998 -0.0093400059 1.6226621e-38 300 247
-0.025284819 0.759 -0.00931546 1.6226621e-38 301 247
-0.023954039 0.759 -0.00931546 1.6501401e-38 302 247
-0.02262326 0.759 -0.00931546 1.6685432e-38 303 247
-0.021180267 0.755 -0.0092663663 1.6684726e-38 304 247
-0.0198565 0.755 -0.0092663663 1.677728e-38 305 247
-0.018508185 0.75400001 -0.0092540924 1.6685456e-38 306 247
-0.017186172 0.75400001 -0.0092540924 1.6501063e-38 307 247
-0.015822079 0.75199997 -0.0092295464 1.6779467e-38 308 247
-0.014465 0.75 -0.0092049995 1.7240445e-38 309 247
-0.013132467 0.74900001 -0.0091927266 1.7424486e-38 310 247
-0.01181922 0.74900001 -0.0091927266 1.7332291e-38 311 247
-0.010505973 0.74900001 -0.0091927266 1.7515956e-38 312 247
-0.0091927266 0.74900001 -0.0091927266 1.7239729e-38 313 247
-0.0078794798 0.74900001 -0.0091927266 1.7239001e-38 314 247
-0.0065662335 0.74900001 -0.0091927266 1.6962414e-38 315 247
-0.0052529867 0.74900001 -0.0091927266 1.7054218e-38 316 247
-0.0039397399 0.74900001 -0.0091927266 1.6869826e-38 317 247
-0.0026194798 0.74699998 -0.0091681797 1.6685769e-38 318 247
-0.0013097399 0.74699998 -0.0091681797 1.6316987e-38 319 247
0 0.74900001 -0.0091927266 1.6315186e-38 320 247
0.0013097399 0.74699998 -0.0091681797 1.6222991e-38 321 247
0.0026194798 0.74699998 -0.0091681797 1.6038248e-38 322 247
0.0039292197 0.74699998 -0.0091681797 1.5946052e-38 323 247
0.0052529867 0.74900001 -0.0091927266 1.5669116e-38 324 247
0.0065662335 0.74900001 -0.0091927266 1.5484725e-38 325 247
0.0078794798 0.74900001 -0.0091927266 1.5301057e-38 326 247
0.0091927266 0.74900001 -0.0091927266 1.520886e-38 327 247
0.010505973 0.74900001 -0.0091927266 1.5024468e-38 328 247
0.011835 0.75 -0.0092049995 1.4932273e-38 329 247
0.01315 0.75 -0.0092049995 1.4931551e-38 330 247
0.014503572 0.75199997 -0.0092295464 1.4747159e-38 331 247
0.015822079 0.75199997 -0.0092295464 1.4470926e-38 332 247
0.017140586 0.75199997 -0.0092295464 1.4286535e-38 333 247
0.018508185 0.75400001 -0.0092540924 1.4377298e-38 334 247
0.019830201 0.75400001 -0.0092540924 1.4377298e-38 335 247
0.021180267 0.755 -0.0092663663 1.4193636e-38 336 247
0.022563647 0.75700003 -0.0092909131 1.4285831e-38 337 247
0.024017159 0.76099998 -0.0093400059 1.400997e-38 338 247
0.02538476 0.76200002 -0.0093522798 1.4102166e-38 339 247
0.026790932 0.764 -0.0093768267 1.4101816e-38 340 247
0.028130481 0.764 -0.0093768267 1.4285847e-38 341 247
0.029547172 0.76599997 -0.0094013726 1.4193676e-38 342 247
0.030890226 0.76599997 -0.0094013726 1.4469905e-38 343 247
0.032233275 0.76599997 -0.0094013726 1.5207161e-38 344 247
0.033576332 0.76599997 -0.0094013726 1.6036922e-38 345 247
-0.032064959 0.76200002 -0.01068832 1.5856452e-38 296 248
-0.030728921 0.76200002 -0.01068832 1.5949006e-38 297 248
-0.029392879 0.76200002 -0.01068832 1.5950779e-38 298 248
-0.028020019 0.76099998 -0.010674292 1.6042974e-38 299 248
-0.026685731 0.76099998 -0.010674292 1.6135157e-38 300 248
-0.025284819 0.759 -0.01064624 1.6135157e-38 301 248
-0.023954039 0.759 -0.01064624 1.6501413e-38 302 248
-0.02262326 0.759 -0.01064624 1.6501413e-38 303 248
-0.021236373 0.75700003 -0.010618187 1.6684363e-38 304 248
-0.019909101 0.75700003 -0.010618187 1.6684363e-38 305 248
-0.018532733 0.755 -0.010590133 1.6684012e-38 306 248
-0.017186172 0.75400001 -0.010576107 1.6960601e-38 307 248
-0.01586416 0.75400001 -0.010576107 1.668618e-38 308 248
-0.014465 0.75 -0.01052 1.6778376e-38 309 248
-0.01315 0.75 -0.01052 1.6870922e-38 310 248
-0.01181922 0.74900001 -0.010505973 1.6870922e-38 311 248
-0.010505973 0.74900001 -0.010505973 1.6870919e-38 312 248
-0.0091927266 0.74900001 -0.010505973 1.6870919e-38 313 248
-0.0078794798 0.74900001 -0.010505973 1.696312e-38 314 248
-0.0065662335 0.74900001 -0.010505973 1.6870924e-38 315 248
-0.0052529867 0.74900001 -0.010505973 1.6962035e-38 316 248
-0.0039397399 0.74900001 -0.010505973 1.6778004e-38 317 248
-0.0026264933 0.74900001 -0.010505973 1.6409202e-38 318 248
-0.0013132467 0.74900001 -0.010505973 1.604006e-38 319 248
0 0.74900001 -0.010505973 1.6223359e-38 320 248
0.0013132467 0.74900001 -0.010505973 1.5854935e-38 321 248
0.0026264933 0.74900001 -0.010505973 1.5945696e-38 322 248
0.0039397399 0.74900001 -0.010505973 1.5761665e-38 323 248
0.0052529867 0.74900001 -0.010505973 1.5576921e-38 324 248
0.0065662335 0.74900001 -0.010505973 1.5484725e-38 325 248
0.00789 0.75 -0.01052 1.5116661e-38 326 248
0.0092049995 0.75 -0.01052 1.5024466e-38 327 248
0.01052 0.75 -0.01052 1.5023747e-38 328 248
0.011866559 0.75199997 -0.010548052 1.5023747e-38 329 248
0.013185065 0.75199997 -0.010548052 1.4839353e-38 330 248
0.014503572 0.75199997 -0.010548052 1.4747156e-38 331 248
0.01586416 0.75400001 -0.010576107 1.4470929e-38 332 248
0.017186172 0.75400001 -0.010576107 1.4193983e-38 333 248
0.018508185 0.75400001 -0.010576107 1.4377298e-38 334 248
0.0198565 0.755 -0.010590133 1.4193266e-38 335 248
0.021180267 0.755 -0.010590133 1.4193636e-38 336 248
0.02262326 0.759 -0.01064624 1.4285831e-38 337 248
0.024017159 0.76099998 -0.010674292 1.42862e-38 338 248
0.025451386 0.764 -0.010716373 1.410181e-38 339 248
0.026790932 0.764 -0.010716373 1.4102181e-38 340 248
0.028204117 0.76599997 -0.010744425 1.4194377e-38 341 248
0.029547172 0.76599997 -0.010744425 1.4102571e-38 342 248
0.030890226 0.76599997 -0.010744425 1.4471352e-38 343 248
0.03227536 0.76700002 -0.010758453 1.5208612e-38 344 248
-0.030688593 0.76099998 -0.012008579 1.5764985e-38 297 249
-0.029354304 0.76099998 -0.012008579 1.5766394e-38 298 249
-0.028020019 0.76099998 -0.012008579 1.5950426e-38 299 249
-0.026615599 0.759 -0.01197702 1.5950776e-38 300 249
-0.025284819 0.759 -0.01197702 1.5950776e-38 301 249
-0.023954039 0.759 -0.01197702 1.6317748e-38 302 249
-0.02262326 0.759 -0.01197702 1.6317748e-38 303 249
-0.02129248 0.759 -0.01197702 1.6501048e-38 304 249
-0.019909101 0.75700003 -0.01194546 1.6685079e-38 305 249
-0.018532733 0.755 -0.011913899 1.6684726e-38 306 249
-0.017208965 0.755 -0.011913899 1.6684726e-38 307 249
-0.01586416 0.75400001 -0.01189812 1.6501782e-38 308 249
-0.014503572 0.75199997 -0.011866559 1.6501782e-38 309 249
-0.01315 0.75 -0.011835 1.6593959e-38 310 249
-0.011835 0.75 -0.011835 1.6501764e-38 311 249
-0.01052 0.75 -0.011835 1.6686878e-38 312 249
-0.0091927266 0.74900001 -0.01181922 1.6779074e-38 313 249
-0.0078794798 0.74900001 -0.01181922 1.6595414e-38 314 249
-0.0065662335 0.74900001 -0.01181922 1.6502859e-38 315 249
-0.0052529867 0.74900001 -0.01181922 1.6686881e-38 316 249
-0.0039397399 0.74900001 -0.01181922 1.6502488e-38 317 249
-0.0026264933 0.74900001 -0.01181922 1.5948946e-38 318 249
-0.0013132467 0.74900001 -0.01181922 1.5764554e-38 319 249
0 0.74900001 -0.01181922 1.5946779e-38 320 249
0.0013132467 0.74900001 -0.01181922 1.5854582e-38 321 249
0.0026264933 0.74900001 -0.01181922 1.5761315e-38 322 249
0.0039397399 0.74900001 -0.01181922 1.5669119e-38 323 249
0.0052529867 0.74900001 -0.01181922 1.5392175e-38 324 249
0.006575 0.75 -0.011835 1.5299979e-38 325 249
0.00789 0.75 -0.011835 1.5024468e-38 326 249
0.0092295464 0.75199997 -0.011866559 1.4932273e-38 327 249
0.010548052 0.75199997 -0.011866559 1.4931548e-38 328 249
0.011866559 0.75199997 -0.011866559 1.4839353e-38 329 249
0.013220133 0.75400001 -0.01189812 1.4747153e-38 330 249
0.014542146 0.75400001 -0.01189812 1.4470926e-38 331 249
0.01586416 0.75400001 -0.01189812 1.4378377e-38 332 249
0.017186172 0.75400001 -0.01189812 1.4286182e-38 333 249
0.018532733 0.755 -0.011913899 1.4192917e-38 334 249
0.0198565 0.755 -0.011913899 1.4192917e-38 335 249
0.021236373 0.75700003 -0.01194546 1.4193283e-38 336 249
0.022682872 0.76099998 -0.012008579 1.4285478e-38 337 249
0.02404872 0.76200002 -0.01202436 1.4010336e-38 338 249
0.025451386 0.764 -0.01205592 1.4102532e-38 339 249
0.026861066 0.76599997 -0.012087479 1.3918519e-38 340 249
0.028204117 0.76599997 -0.012087479 1.4194746e-38 341 249
0.029547172 0.76599997 -0.012087479 1.4011473e-38 342 249
0.030930554 0.76700002 -0.01210326 1.4656842e-38 343 249
-0.029354304 0.76099998 -0.013342866 1.567349e-38 298 250
-0.028020019 0.76099998 -0.013342866 1.567349e-38 299 250
-0.026615599 0.759 -0.0133078 1.6041905e-38 300 250
-0.025284819 0.759 -0.0133078 1.6041905e-38 301 250
-0.023954039 0.759 -0.0133078 1.6225565e-38 302 250
-0.02262326 0.759 -0.0133078 1.6225565e-38 303 250
-0.02129248 0.759 -0.0133078 1.6409218e-38 304 250
-0.0199617 0.759 -0.0133078 1.6409218e-38 305 250
-0.018581826 0.75700003 -0.013272733 1.6409215e-38 306 250
-0.017208965 0.755 -0.013237666 1.6409215e-38 307 250
-0.015885198 0.755 -0.013237666 1.6316669e-38 308 250
-0.014542146 0.75400001 -0.013220133 1.6316669e-38 309 250
-0.013185065 0.75199997 -0.013185065 1.6041161e-38 310 250
-0.011835 0.75 -0.01315 1.6041161e-38 311 250
-0.01052 0.75 -0.01315 1.6226271e-38 312 250
-0.0091927266 0.74900001 -0.013132467 1.6410664e-38 313 250
-0.0078794798 0.74900001 -0.013132467 1.6685805e-38 314 250
-0.0065662335 0.74900001 -0.013132467 1.6593609e-38 315 250
-0.0052529867 0.74900001 -0.013132467 1.6318454e-38 316 250
-0.0039397399 0.74900001 -0.013132467 1.6041509e-38 317 250
-0.0026264933 0.74900001 -0.013132467 1.585675e-38 318 250
-0.0013132467 0.74900001 -0.013132467 1.5487969e-38 319 250
0 0.74900001 -0.013132467 1.576275e-38 320 250
0.0013132467 0.74900001 -0.013132467 1.5578718e-38 321 250
0.0026264933 0.74900001 -0.013132467 1.5577289e-38 322 250
0.0039397399 0.74900001 -0.013132467 1.5300704e-38 323 250
0.0052529867 0.74900001 -0.013132467 1.5208511e-38 324 250
0.006575 0.75 -0.01315 1.5024118e-38 325 250
0.0079110395 0.75199997 -0.013185065 1.5023394e-38 326 250
0.0092295464 0.75199997 -0.013185065 1.4931198e-38 327 250
0.010548052 0.75199997 -0.013185065 1.4655687e-38 328 250
0.01189812 0.75400001 -0.013220133 1.4655687e-38 329 250
0.013220133 0.75400001 -0.013220133 1.4379096e-38 330 250
0.014542146 0.75400001 -0.013220133 1.4286901e-38 331 250
0.01586416 0.75400001 -0.013220133 1.4285829e-38 332 250
0.017208965 0.755 -0.013237666 1.4285829e-38 333 250
0.018532733 0.755 -0.013237666 1.4285476e-38 334 250
0.0198565 0.755 -0.013237666 1.4285476e-38 335 250
0.021348584 0.76099998 -0.013342866 1.4285478e-38 336 250
0.02271268 0.76200002 -0.0133604 1.4377674e-38 337 250
0.024111839 0.764 -0.013395466 1.4102535e-38 338 250
0.025518013 0.76599997 -0.013430533 1.4102535e-38 339 250
0.026861066 0.76599997 -0.013430533 1.4102197e-38 340 250
0.028204117 0.76599997 -0.013430533 1.428659e-38 341 250
0.029547172 0.76599997 -0.013430533 1.4196237e-38 342 250
0.030930554 0.76700002 -0.013448066 1.4841606e-38 343 250
-0.029354304 0.76099998 -0.014677152 1.5580941e-38 298 251
-0.028020019 0.76099998 -0.014677152 1.539655e-38 299 251
-0.026685731 0.76099998 -0.014677152 1.5764959e-38 300 251
-0.025284819 0.759 -0.014638579 1.5764959e-38 301 251
-0.023954039 0.759 -0.014638579 1.613265e-38 302 251
-0.02262326 0.759 -0.014638579 1.6224846e-38 303 251
-0.02129248 0.759 -0.014638579 1.640922e-38 304 251
-0.0199617 0.759 -0.014638579 1.640922e-38 305 251
-0.018581826 0.75700003 -0.014600007 1.6409218e-38 306 251
-0.017208965 0.755 -0.014561433 1.6317022e-38 307 251
-0.015885198 0.755 -0.014561433 1.6040442e-38 308 251
-0.014542146 0.75400001 -0.014542146 1.5948245e-38 309 251
-0.013185065 0.75199997 -0.014503572 1.5947889e-38 310 251
-0.011866559 0.75199997 -0.014503572 1.5855694e-38 311 251
-0.010548052 0.75199997 -0.014503572 1.5580902e-38 312 251
-0.0092049995 0.75 -0.014465 1.5765294e-38 313 251
-0.00789 0.75 -0.014465 1.6131908e-38 314 251
-0.006575 0.75 -0.014465 1.6039712e-38 315 251
-0.00526 0.75 -0.014465 1.6040788e-38 316 251
-0.003945 0.75 -0.014465 1.5856397e-38 317 251
-0.0026264933 0.74900001 -0.014445714 1.5855675e-38 318 251
-0.0013132467 0.74900001 -0.014445714 1.5579087e-38 319 251
0 0.74900001 -0.014445714 1.5486526e-38 320 251
0.0013132467 0.74900001 -0.014445714 1.5393971e-38 321 251
0.0026264933 0.74900001 -0.014445714 1.5393258e-38 322 251
0.0039397399 0.74900001 -0.014445714 1.5208507e-38 323 251
0.00526 0.75 -0.014465 1.5024115e-38 324 251
0.006575 0.75 -0.014465 1.493192e-38 325 251
0.0079110395 0.75199997 -0.014503572 1.4931198e-38 326 251
0.0092295464 0.75199997 -0.014503572 1.4839002e-38 327 251
0.010548052 0.75199997 -0.014503572 1.4746451e-38 328 251
0.01189812 0.75400001 -0.014542146 1.4654254e-38 329 251
0.013220133 0.75400001 -0.014542146 1.4471298e-38 330 251
0.014561433 0.755 -0.014561433 1.4378743e-38 331 251
0.015885198 0.755 -0.014561433 1.428655e-38 332 251
0.017208965 0.755 -0.014561433 1.428655e-38 333 251
0.018581826 0.75700003 -0.014600007 1.42862e-38 334 251
0.0199617 0.759 -0.014638579 1.410181e-38 335 251
0.021348584 0.76099998 -0.014677152 1.4285844e-38 336 251
