# .PCD v.7 - Point Cloud Data file format
FIELDS x y z rgb imX imY
SIZE 4 4 4 4 4 4
TYPE F F F F F F
COUNT 1 1 1 1 1 1
WIDTH 875
HEIGHT 1
VIEWPOINT 0 0 0 1 0 0 0
POINTS 875
DATA ascii
0.01469644 0.76200002 0.0267208 1.0754838e-38 331 220
0.01603248 0.76200002 0.0267208 1.2039809e-38 332 220
0.01736852 0.76200002 0.0267208 1.2777374e-38 333 220
0.01870456 0.76200002 0.0267208 1.3053223e-38 334 220
0.0200406 0.76200002 0.0267208 1.3237973e-38 335 220
0.02137664 0.76200002 0.0267208 1.3330168e-38 336 220
0.02271268 0.76200002 0.0267208 1.2223462e-38 337 220
0.02404872 0.76200002 0.0267208 1.1208607e-38 338 220
0.02538476 0.76200002 0.0267208 1.1024215e-38 339 220
0.026685731 0.76099998 0.026685731 1.0287382e-38 340 220
0.028020019 0.76099998 0.026685731 1.0102632e-38 341 220
0.029354304 0.76099998 0.026685731 8.9116445e-39 342 220
0.030688593 0.76099998 0.026685731 8.9116445e-39 343 220
0.032022879 0.76099998 0.026685731 8.2709624e-39 344 220
0.033357166 0.76099998 0.026685731 8.0869313e-39 345 220
0.034691449 0.76099998 0.026685731 7.6288538e-39 346 220
0.036025736 0.76099998 0.026685731 7.9057994e-39 347 220
0.037360024 0.76099998 0.026685731 7.5399092e-39 348 220
0.038694311 0.76099998 0.026685731 6.7097898e-39 349 220
0.040081199 0.76200002 0.0267208 2.3967557e-39 350 220
0.041417241 0.76200002 0.0267208 4.7016464e-39 351 220
-0.017482487 0.76700002 0.025551327 1.2258792e-38 307 221
-0.01613768 0.76700002 0.025551327 8.0905634e-39 308 221
-0.014773586 0.76599997 0.025518013 8.2749547e-39 309 221
-0.013430533 0.76599997 0.025518013 1.1398787e-38 310 221
-0.01205592 0.764 0.025451386 1.1859406e-38 311 221
-0.01068832 0.76200002 0.02538476 1.2686263e-38 312 221
-0.0093522798 0.76200002 0.02538476 1.2409318e-38 313 221
-0.0080162399 0.76200002 0.02538476 1.2955655e-38 314 221
-0.0066714329 0.76099998 0.025351444 1.2587231e-38 315 221
-0.0053231199 0.759 0.025284819 1.3045682e-38 316 221
-0.0039923396 0.759 0.025284819 1.3598856e-38 317 221
-0.00266156 0.759 0.025284819 1.3603525e-38 318 221
-0.00133078 0.759 0.025284819 1.4802068e-38 319 221
0 0.759 0.025284819 1.3242283e-38 320 221
0.00133078 0.759 0.025284819 1.2504718e-38 321 221
0.00266156 0.759 0.025284819 1.1949749e-38 322 221
0.0039923396 0.759 0.025284819 1.1396575e-38 323 221
0.0053231199 0.759 0.025284819 1.1026732e-38 324 221
0.0066714329 0.76099998 0.025351444 1.1026732e-38 325 221
0.0080057196 0.76099998 0.025351444 1.0200218e-38 326 221
0.0093400059 0.76099998 0.025351444 1.0200218e-38 327 221
0.010674292 0.76099998 0.025351444 9.8336036e-39 328 221
0.012008579 0.76099998 0.025351444 9.9261593e-39 329 221
0.013342866 0.76099998 0.025351444 1.0386777e-38 330 221
0.014677152 0.76099998 0.025351444 1.0847755e-38 331 221
0.01603248 0.76200002 0.02538476 1.1675704e-38 332 221
0.01736852 0.76200002 0.02538476 1.2228519e-38 333 221
0.01870456 0.76200002 0.02538476 1.2780232e-38 334 221
0.0200406 0.76200002 0.02538476 1.2780232e-38 335 221
0.02137664 0.76200002 0.02538476 1.332944e-38 336 221
0.02271268 0.76200002 0.02538476 1.2500039e-38 337 221
0.02404872 0.76200002 0.02538476 1.1761412e-38 338 221
0.025351444 0.76099998 0.025351444 1.0931653e-38 339 221
0.026685731 0.76099998 0.025351444 1.056109e-38 340 221
0.028020019 0.76099998 0.025351444 1.0469252e-38 341 221
0.029354304 0.76099998 0.025351444 9.001322e-39 342 221
0.030607941 0.759 0.025284819 9.0938777e-39 343 221
0.031938717 0.759 0.025284819 8.2695219e-39 344 221
0.033269498 0.759 0.025284819 8.5461074e-39 345 221
0.034691449 0.76099998 0.025351444 7.26043e-39 346 221
0.036025736 0.76099998 0.025351444 7.5366568e-39 347 221
0.037360024 0.76099998 0.025351444 6.9867494e-39 348 221
0.038694311 0.76099998 0.025351444 6.8023582e-39 349 221
0.040028598 0.76099998 0.025351444 4.3217138e-39 350 221
0.041362885 0.76099998 0.025351444 3.6763444e-39 351 221
0.042697169 0.76099998 0.025351444 4.2435423e-39 352 221
-0.017482487 0.76700002 0.024206521 8.3844143e-39 307 222
-0.016116638 0.76599997 0.024174958 7.8978793e-39 308 222
-0.014735013 0.764 0.024111839 1.0015869e-38 309 222
-0.013395466 0.764 0.024111839 1.2315696e-38 310 222
-0.01202436 0.76200002 0.02404872 1.2776674e-38 311 222
-0.010674292 0.76099998 0.024017159 1.2960326e-38 312 222
-0.0093400059 0.76099998 0.024017159 1.2591544e-38 313 222
-0.0080057196 0.76099998 0.024017159 1.31386e-38 314 222
-0.0066538998 0.759 0.023954039 1.2954568e-38 315 222
-0.0053231199 0.759 0.023954039 1.3049638e-38 316 222
-0.0039923396 0.759 0.023954039 1.4155627e-38 317 222
-0.00266156 0.759 0.023954039 1.4434361e-38 318 222
-0.0013272733 0.75700003 0.02389092 1.406558e-38 319 222
0 0.75700003 0.02389092 1.3147936e-38 320 222
0.00133078 0.759 0.023954039 1.2779513e-38 321 222
0.0026545466 0.75700003 0.02389092 1.2227055e-38 322 222
0.0039818203 0.75700003 0.02389092 1.1674241e-38 323 222
0.0053231199 0.759 0.023954039 1.1212197e-38 324 222
0.0066538998 0.759 0.023954039 1.093597e-38 325 222
0.0079846792 0.759 0.023954039 1.029277e-38 326 222
0.0093400059 0.76099998 0.024017159 1.029277e-38 327 222
0.010674292 0.76099998 0.024017159 1.0017272e-38 328 222
0.012008579 0.76099998 0.024017159 1.0201664e-38 329 222
0.013342866 0.76099998 0.024017159 1.038713e-38 330 222
0.014677152 0.76099998 0.024017159 1.0940304e-38 331 222
0.016011439 0.76099998 0.024017159 1.1585302e-38 332 222
0.01736852 0.76200002 0.02404872 1.2138476e-38 333 222
0.01870456 0.76200002 0.02404872 1.2780599e-38 334 222
0.0200406 0.76200002 0.02404872 1.2780599e-38 335 222
0.02137664 0.76200002 0.02404872 1.2870627e-38 336 222
0.022682872 0.76099998 0.024017159 1.2317811e-38 337 222
0.024017159 0.76099998 0.024017159 1.2130543e-38 338 222
0.025351444 0.76099998 0.024017159 1.1577371e-38 339 222
0.026685731 0.76099998 0.024017159 1.0652918e-38 340 222
0.027946379 0.759 0.023954039 1.0285576e-38 341 222
0.029277159 0.759 0.023954039 9.0917183e-39 342 222
0.030607941 0.759 0.023954039 9.4590659e-39 343 222
0.031938717 0.759 0.023954039 8.3609916e-39 344 222
0.033269498 0.759 0.023954039 8.4531873e-39 345 222
0.034600276 0.759 0.023954039 7.4444429e-39 346 222
0.035931058 0.759 0.023954039 7.5369973e-39 347 222
0.03726184 0.759 0.023954039 7.0789058e-39 348 222
0.038592618 0.759 0.023954039 7.0789058e-39 349 222
0.0399234 0.759 0.023954039 6.1598376e-39 350 222
0.041254178 0.759 0.023954039 3.6734255e-39 351 222
0.042584959 0.759 0.023954039 9.653405e-41 352 222
0.043915741 0.759 0.023954039 8.3937806e-39 353 222
-0.020172099 0.76700002 0.022861714 1.6131364e-38 305 223
-0.018827293 0.76700002 0.022861714 9.8555815e-39 306 223
-0.017459691 0.76599997 0.022831906 6.0755607e-39 307 223
-0.016074561 0.764 0.022772292 8.8183824e-39 308 223
-0.01469644 0.76200002 0.02271268 1.0661935e-38 309 223
-0.0133604 0.76200002 0.02271268 1.2684463e-38 310 223
-0.01202436 0.76200002 0.02271268 1.2776658e-38 311 223
-0.010674292 0.76099998 0.022682872 1.305072e-38 312 223
-0.00931546 0.759 0.02262326 1.2497548e-38 313 223
-0.0079846792 0.759 0.02262326 1.3044613e-38 314 223
-0.0066538998 0.759 0.02262326 1.3044613e-38 315 223
-0.0053090933 0.75700003 0.022563647 1.3234747e-38 316 223
-0.0039818203 0.75700003 0.022563647 1.4433289e-38 317 223
-0.0026545466 0.75700003 0.022563647 1.3790069e-38 318 223
-0.0013272733 0.75700003 0.022563647 1.3144699e-38 319 223
0 0.75700003 0.022563647 1.2870632e-38 320 223
0.0013272733 0.75700003 0.022563647 1.2501851e-38 321 223
0.0026475333 0.755 0.022504034 1.2225263e-38 322 223
0.0039712996 0.755 0.022504034 1.1672089e-38 323 223
0.0053090933 0.75700003 0.022563647 1.1028885e-38 324 223
0.0066363667 0.75700003 0.022563647 1.0844493e-38 325 223
0.0079846792 0.759 0.02262326 1.0384965e-38 326 223
0.0093400059 0.76099998 0.022682872 1.029277e-38 327 223
0.010674292 0.76099998 0.022682872 9.8343126e-39 328 223
0.012008579 0.76099998 0.022682872 1.0110541e-38 329 223
0.013342866 0.76099998 0.022682872 1.020489e-38 330 223
0.014677152 0.76099998 0.022682872 1.0757705e-38 331 223
0.016011439 0.76099998 0.022682872 1.1219034e-38 332 223
0.01736852 0.76200002 0.02271268 1.1680372e-38 333 223
0.01870456 0.76200002 0.02271268 1.2138826e-38 334 223
0.0200406 0.76200002 0.02271268 1.2231381e-38 335 223
0.02137664 0.76200002 0.02271268 1.2504724e-38 336 223
0.022682872 0.76099998 0.022682872 1.2135582e-38 337 223
0.024017159 0.76099998 0.022682872 1.204015e-38 338 223
0.025351444 0.76099998 0.022682872 1.1210029e-38 339 223
0.026615599 0.759 0.02262326 1.0744753e-38 340 223
0.027946379 0.759 0.02262326 1.019374e-38 341 223
0.029277159 0.759 0.02262326 8.99988e-39 342 223
0.030607941 0.759 0.02262326 9.367229e-39 343 223
0.031854562 0.75700003 0.022563647 8.5439409e-39 344 223
0.033181835 0.75700003 0.022563647 8.8205278e-39 345 223
0.034509107 0.75700003 0.022563647 7.9032533e-39 346 223
0.035931058 0.759 0.02262326 7.7192221e-39 347 223
0.03726184 0.759 0.02262326 6.9859913e-39 348 223
0.038592618 0.759 0.02262326 6.9859913e-39 349 223
0.0399234 0.759 0.02262326 6.4360573e-39 350 223
0.041254178 0.759 0.02262326 5.4219068e-39 351 223
0.042584959 0.759 0.02262326 2.7550943e-39 352 223
0.043915741 0.759 0.02262326 5.6128001e-39 353 223
-0.021516906 0.76700002 0.021516906 1.5672185e-38 304 224
-0.020172099 0.76700002 0.021516906 1.3643881e-38 305 224
-0.018802745 0.76599997 0.021488851 8.2824951e-39 306 224
-0.017459691 0.76599997 0.021488851 5.9772442e-39 307 224
-0.016074561 0.764 0.021432746 1.0384261e-38 308 224
-0.01469644 0.76200002 0.02137664 1.1398411e-38 309 224
-0.0133604 0.76200002 0.02137664 1.2960326e-38 310 224
-0.01202436 0.76200002 0.02137664 1.268374e-38 311 224
-0.010674292 0.76099998 0.021348584 1.3140402e-38 312 224
-0.00931546 0.759 0.02129248 1.2587228e-38 313 224
-0.0079846792 0.759 0.02129248 1.3043181e-38 314 224
-0.0066363667 0.75700003 0.021236373 1.3135377e-38 315 224
-0.0052950666 0.755 0.021180267 1.3142567e-38 316 224
-0.0039712996 0.755 0.021180267 1.4157077e-38 317 224
-0.0026475333 0.755 0.021180267 1.3513848e-38 318 224
-0.0013237667 0.755 0.021180267 1.305287e-38 319 224
0 0.755 0.021180267 1.2410377e-38 320 224
0.0013237667 0.755 0.021180267 1.1949399e-38 321 224
0.0026475333 0.755 0.021180267 1.1488073e-38 322 224
0.0039712996 0.755 0.021180267 1.1395519e-38 323 224
0.0053090933 0.75700003 0.021236373 1.075267e-38 324 224
0.0066363667 0.75700003 0.021236373 1.0568278e-38 325 224
0.0079846792 0.759 0.02129248 1.0109102e-38 326 224
0.0093400059 0.76099998 0.021348584 1.0109102e-38 327 224
0.010674292 0.76099998 0.021348584 9.8350315e-39 328 224
0.012008579 0.76099998 0.021348584 1.0019424e-38 329 224
0.013342866 0.76099998 0.021348584 9.746433e-39 330 224
0.014677152 0.76099998 0.021348584 1.0299248e-38 331 224
0.01603248 0.76200002 0.02137664 1.0669107e-38 332 224
0.01736852 0.76200002 0.02137664 1.1037888e-38 333 224
0.01870456 0.76200002 0.02137664 1.1589974e-38 334 224
0.020014299 0.76099998 0.021348584 1.1774005e-38 335 224
0.021348584 0.76099998 0.021348584 1.2047699e-38 336 224
0.022682872 0.76099998 0.021348584 1.1587081e-38 337 224
0.024017159 0.76099998 0.021348584 1.1856831e-38 338 224
0.025284819 0.759 0.02129248 1.1027075e-38 339 224
0.026615599 0.759 0.02129248 1.1112095e-38 340 224
0.027946379 0.759 0.02129248 1.0377411e-38 341 224
0.029200014 0.75700003 0.021236373 9.3672206e-39 342 224
0.030527288 0.75700003 0.021236373 9.7345668e-39 343 224
0.031770397 0.755 0.021180267 8.7265357e-39 344 224
0.033094164 0.755 0.021180267 8.9109284e-39 345 224
0.034417931 0.755 0.021180267 8.3609944e-39 346 224
0.035741698 0.755 0.021180267 8.2687988e-39 347 224
0.037163652 0.75700003 0.021236373 7.1689378e-39 348 224
0.038490929 0.75700003 0.021236373 7.2611335e-39 349 224
0.039818201 0.75700003 0.021236373 6.5275313e-39 350 224
0.041145474 0.75700003 0.021236373 6.4353357e-39 351 224
0.042472746 0.75700003 0.021236373 5.421925e-39 352 224
0.043915741 0.759 0.02129248 3.2142536e-39 353 224
0.045246519 0.759 0.02129248 2.5004504e-39 354 224
-0.021516906 0.76700002 0.020172099 1.3919392e-38 304 225
-0.020145798 0.76599997 0.020145798 1.0047175e-38 305 225
-0.018802745 0.76599997 0.020145798 7.2611461e-39 306 225
-0.017414106 0.764 0.020093199 7.6302887e-39 307 225
-0.01603248 0.76200002 0.0200406 1.1582437e-38 308 225
-0.01469644 0.76200002 0.0200406 1.2043056e-38 309 225
-0.013342866 0.76099998 0.020014299 1.2961759e-38 310 225
-0.012008579 0.76099998 0.020014299 1.2777009e-38 311 225
-0.01064624 0.759 0.0199617 1.3231153e-38 312 225
-0.00931546 0.759 0.0199617 1.2770174e-38 313 225
-0.0079636406 0.75700003 0.019909101 1.2768025e-38 314 225
-0.0066363667 0.75700003 0.019909101 1.2860222e-38 315 225
-0.0052950666 0.755 0.0198565 1.258903e-38 316 225
-0.0039712996 0.755 0.0198565 1.2957452e-38 317 225
-0.0026475333 0.755 0.0198565 1.2221317e-38 318 225
-0.0013237667 0.755 0.0198565 1.2405707e-38 319 225
0 0.755 0.0198565 1.2130196e-38 320 225
0.0013237667 0.755 0.0198565 1.2037641e-38 321 225
0.0026475333 0.755 0.0198565 1.093562e-38 322 225
0.0039712996 0.755 0.0198565 1.1211846e-38 323 225
0.0053090933 0.75700003 0.019909101 1.0477881e-38 324 225
0.0066363667 0.75700003 0.019909101 1.0385686e-38 325 225
0.0079636406 0.75700003 0.019909101 9.9265083e-39 326 225
0.0093400059 0.76099998 0.020014299 9.9265083e-39 327 225
0.010674292 0.76099998 0.020014299 9.6517164e-39 328 225
0.012008579 0.76099998 0.020014299 9.9279446e-39 329 225
0.013342866 0.76099998 0.020014299 9.6542346e-39 330 225
0.01469644 0.76200002 0.0200406 1.0207408e-38 331 225
0.01603248 0.76200002 0.0200406 1.03014e-38 332 225
0.01736852 0.76200002 0.0200406 1.094677e-38 333 225
0.01870456 0.76200002 0.0200406 1.1406299e-38 334 225
0.020014299 0.76099998 0.020014299 1.177544e-38 335 225
0.021348584 0.76099998 0.020014299 1.1957308e-38 336 225
0.022682872 0.76099998 0.020014299 1.1404134e-38 337 225
0.024017159 0.76099998 0.020014299 1.1674251e-38 338 225
0.025284819 0.759 0.0199617 1.1028882e-38 339 225
0.026615599 0.759 0.0199617 1.0930583e-38 340 225
0.027872739 0.75700003 0.019909101 1.0561442e-38 341 225
0.029200014 0.75700003 0.019909101 9.2753907e-39 342 225
0.030527288 0.75700003 0.019909101 9.2753907e-39 343 225
0.031770397 0.755 0.0198565 8.9091291e-39 344 225
0.033094164 0.755 0.0198565 9.1857174e-39 345 225
0.034417931 0.755 0.0198565 8.5439409e-39 346 225
0.035741698 0.755 0.0198565 8.5439409e-39 347 225
0.037065465 0.755 0.0198565 7.3526032e-39 348 225
0.038389232 0.755 0.0198565 7.4447989e-39 349 225
0.039712999 0.755 0.0198565 6.5278872e-39 350 225
0.041036766 0.755 0.0198565 6.4353329e-39 351 225
0.042472746 0.75700003 0.019909101 6.067642e-39 352 225
0.043800019 0.75700003 0.019909101 4.2244468e-39 353 225
0.045127295 0.75700003 0.019909101 2.2105497e-39 354 225
0.046454567 0.75700003 0.019909101 8.9408307e-39 355 225
-0.022831906 0.76599997 0.018802745 1.7146226e-38 303 226
-0.021488851 0.76599997 0.018802745 1.1798172e-38 304 226
-0.020145798 0.76599997 0.018802745 7.2805877e-39 305 226
-0.018802745 0.76599997 0.018802745 7.9018338e-39 306 226
-0.017414106 0.764 0.018753653 9.1003769e-39 307 226
-0.01603248 0.76200002 0.01870456 1.2689135e-38 308 226
-0.014677152 0.76099998 0.018680012 1.3057557e-38 309 226
-0.013342866 0.76099998 0.018680012 1.3329815e-38 310 226
-0.01197702 0.759 0.01863092 1.2684446e-38 311 226
-0.010618187 0.75700003 0.018581826 1.3322982e-38 312 226
-0.0092909131 0.75700003 0.018581826 1.2861644e-38 313 226
-0.0079636406 0.75700003 0.018581826 1.2860219e-38 314 226
-0.0066188332 0.755 0.018532733 1.2860219e-38 315 226
-0.0052950666 0.755 0.018532733 1.2404281e-38 316 226
-0.0039712996 0.755 0.018532733 1.2496477e-38 317 226
-0.0026475333 0.755 0.018532733 1.2036938e-38 318 226
-0.0013237667 0.755 0.018532733 1.2036938e-38 319 226
0 0.755 0.018532733 1.1486641e-38 320 226
0.0013237667 0.755 0.018532733 1.1394445e-38 321 226
0.0026475333 0.755 0.018532733 1.0844866e-38 322 226
0.0039712996 0.755 0.018532733 1.093742e-38 323 226
0.0053090933 0.75700003 0.018581826 9.9282977e-39 324 226
0.0066363667 0.75700003 0.018581826 1.0020493e-38 325 226
0.0079636406 0.75700003 0.018581826 9.5616704e-39 326 226
0.00931546 0.759 0.01863092 9.7457015e-39 327 226
0.01064624 0.759 0.01863092 9.2865254e-39 328 226
0.012008579 0.76099998 0.018680012 9.2865254e-39 329 226
0.013342866 0.76099998 0.018680012 9.0139028e-39 330 226
0.01469644 0.76200002 0.01870456 9.2904911e-39 331 226
0.01603248 0.76200002 0.01870456 9.1104158e-39 332 226
0.01736852 0.76200002 0.01870456 9.479197e-39 333 226
0.01870456 0.76200002 0.01870456 1.039899e-38 334 226
0.020014299 0.76099998 0.018680012 1.0491185e-38 335 226
0.021348584 0.76099998 0.018680012 1.1407731e-38 336 226
0.022682872 0.76099998 0.018680012 1.1038589e-38 337 226
0.023954039 0.759 0.01863092 1.19519e-38 338 226
0.025284819 0.759 0.01863092 1.1214335e-38 339 226
0.026615599 0.759 0.01863092 1.130043e-38 340 226
0.027799098 0.755 0.018532733 1.047104e-38 341 226
0.029122867 0.755 0.018532733 9.6427299e-39 342 226
0.030446632 0.755 0.018532733 9.550893e-39 343 226
0.031770397 0.755 0.018532733 9.27719e-39 344 226
0.033050332 0.75400001 0.018508185 9.27719e-39 345 226
0.034372345 0.75400001 0.018508185 8.9112787e-39 346 226
0.035741698 0.755 0.018532733 9.0034744e-39 347 226
0.037065465 0.755 0.018532733 8.0861998e-39 348 226
0.038389232 0.755 0.018532733 8.1783954e-39 349 226
0.039712999 0.755 0.018532733 7.1696539e-39 350 226
0.041036766 0.755 0.018532733 6.9856228e-39 351 226
0.042360533 0.755 0.018532733 6.8026763e-39 352 226
0.043684296 0.755 0.018532733 5.8803612e-39 353 226
0.045008067 0.755 0.018532733 3.0316728e-39 354 226
0.046454567 0.75700003 0.018581826 6.2585198e-39 355 226
0.04778184 0.75700003 0.018581826 1.0878378e-38 356 226
-0.024174958 0.76599997 0.017459691 1.7421381e-38 302 227
-0.022831906 0.76599997 0.017459691 1.5485273e-38 303 227
-0.021488851 0.76599997 0.017459691 9.672635e-39 304 227
-0.020093199 0.764 0.017414106 5.6156686e-39 305 227
-0.018753653 0.764 0.017414106 8.7279973e-39 306 227
-0.01736852 0.76200002 0.01736852 1.057191e-38 307 227
-0.016011439 0.76099998 0.017345725 1.3704378e-38 308 227
-0.014677152 0.76099998 0.017345725 1.3335596e-38 309 227
-0.0133078 0.759 0.017300138 1.3422378e-38 310 227
-0.01194546 0.75700003 0.017254554 1.2777009e-38 311 227
-0.010618187 0.75700003 0.017254554 1.3138234e-38 312 227
-0.0092909131 0.75700003 0.017254554 1.2861288e-38 313 227
-0.0079425992 0.755 0.017208965 1.2675461e-38 314 227
-0.0066188332 0.755 0.017208965 1.3043884e-38 315 227
-0.0052950666 0.755 0.017208965 1.2404982e-38 316 227
-0.0039712996 0.755 0.017208965 1.2589733e-38 317 227
-0.0026475333 0.755 0.017208965 1.1856484e-38 318 227
-0.0013237667 0.755 0.017208965 1.1395146e-38 319 227
0 0.755 0.017208965 1.1394796e-38 320 227
0.0013237667 0.755 0.017208965 1.1394796e-38 321 227
0.0026475333 0.755 0.017208965 1.0661194e-38 322 227
0.0039712996 0.755 0.017208965 1.0661194e-38 323 227
0.0052950666 0.755 0.017208965 9.5620361e-39 324 227
0.0066188332 0.755 0.017208965 9.6542318e-39 325 227
0.0079425992 0.755 0.017208965 9.1075222e-39 326 227
0.0092909131 0.75700003 0.017254554 8.923491e-39 327 227
0.01064624 0.759 0.017300138 8.921689e-39 328 227
0.012008579 0.76099998 0.017345725 8.921689e-39 329 227
0.013342866 0.76099998 0.017345725 8.7390956e-39 330 227
0.01469644 0.76200002 0.01736852 9.199715e-39 331 227
0.01603248 0.76200002 0.01736852 9.0185537e-39 332 227
0.01736852 0.76200002 0.01736852 9.6639231e-39 333 227
0.01870456 0.76200002 0.01736852 1.0490804e-38 334 227
0.020014299 0.76099998 0.017345725 1.0859945e-38 335 227
0.021348584 0.76099998 0.017345725 1.1409519e-38 336 227
0.022682872 0.76099998 0.017345725 1.1133292e-38 337 227
0.023954039 0.759 0.017300138 1.1679992e-38 338 227
0.025218192 0.75700003 0.017254554 1.1495961e-38 339 227
0.026475333 0.755 0.017208965 1.130583e-38 340 227
0.027799098 0.755 0.017208965 1.0015091e-38 341 227
0.029122867 0.755 0.017208965 9.827124e-39 342 227
0.030446632 0.755 0.017208965 9.7349269e-39 343 227
0.031770397 0.755 0.017208965 9.093149e-39 344 227
0.033050332 0.75400001 0.017186172 9.7385171e-39 345 227
0.034372345 0.75400001 0.017186172 9.0052624e-39 346 227
0.035694357 0.75400001 0.017186172 9.0052624e-39 347 227
0.037016369 0.75400001 0.017186172 7.812487e-39 348 227
0.038338386 0.75400001 0.017186172 7.7202913e-39 349 227
0.039660402 0.75400001 0.017186172 7.2614866e-39 350 227
0.040982414 0.75400001 0.017186172 7.169291e-39 351 227
0.042304426 0.75400001 0.017186172 6.4353329e-39 352 227
0.043684296 0.755 0.017208965 6.4353329e-39 353 227
0.045008067 0.755 0.017208965 4.5035617e-39 354 227
0.04633183 0.755 0.017208965 3.2142578e-39 355 227
0.047655597 0.755 0.017208965 5.8140924e-39 356 227
-0.024174958 0.76599997 0.016116638 1.6684182e-38 302 228
-0.022772292 0.764 0.016074561 1.3457335e-38 303 228
-0.021432746 0.764 0.016074561 8.4704919e-39 304 228
-0.020093199 0.764 0.016074561 5.2436448e-39 305 228
-0.01870456 0.76200002 0.01603248 9.7403514e-39 306 228
-0.01736852 0.76200002 0.01603248 1.1123645e-38 307 228
-0.016011439 0.76099998 0.016011439 1.3153367e-38 308 228
-0.014638579 0.759 0.015969358 1.3061169e-38 309 228
-0.013272733 0.75700003 0.015927281 1.3790074e-38 310 228
-0.011913899 0.755 0.015885198 1.2775562e-38 311 228
-0.010590133 0.755 0.015885198 1.3413376e-38 312 228
-0.0092663663 0.755 0.015885198 1.3044235e-38 313 228
-0.0079425992 0.755 0.015885198 1.2675461e-38 314 228
-0.0066188332 0.755 0.015885198 1.313608e-38 315 228
-0.0052950666 0.755 0.015885198 1.259045e-38 316 228
-0.0039712996 0.755 0.015885198 1.2774841e-38 317 228
-0.0026475333 0.755 0.015885198 1.1947953e-38 318 228
-0.0013237667 0.755 0.015885198 1.1486976e-38 319 228
0 0.755 0.015885198 1.0936336e-38 320 228
0.0013237667 0.755 0.015885198 1.084414e-38 321 228
0.0026475333 0.755 0.015885198 1.0110541e-38 322 228
0.0039712996 0.755 0.015885198 1.0202736e-38 323 228
0.0052950666 0.755 0.015885198 9.103932e-39 324 228
0.0066188332 0.755 0.015885198 9.6571058e-39 325 228
0.0079425992 0.755 0.015885198 8.8345254e-39 326 228
0.0092909131 0.75700003 0.015927281 8.5582986e-39 327 228
0.01064624 0.759 0.015969358 8.4639478e-39 328 228
0.012008579 0.76099998 0.016011439 8.3717522e-39 329 228
0.013342866 0.76099998 0.016011439 8.0980422e-39 330 228
0.01469644 0.76200002 0.01603248 8.466466e-39 331 228
0.01603248 0.76200002 0.01603248 8.744129e-39 332 228
0.01736852 0.76200002 0.01603248 9.1132703e-39 333 228
0.018680012 0.76099998 0.016011439 9.6664413e-39 334 228
0.020014299 0.76099998 0.016011439 9.942668e-39 335 228
0.021348584 0.76099998 0.016011439 1.0860299e-38 336 228
0.02262326 0.759 0.015969358 1.0675907e-38 337 228
0.02389092 0.75700003 0.015927281 1.1406633e-38 338 228
0.025151566 0.755 0.015885198 1.085346e-38 339 228
0.026475333 0.755 0.015885198 1.1306178e-38 340 228
0.027799098 0.755 0.015885198 1.0384227e-38 341 228
0.029084291 0.75400001 0.01586416 1.0286653e-38 342 228
0.030406307 0.75400001 0.01586416 9.9182336e-39 343 228
0.03172832 0.75400001 0.01586416 9.1864209e-39 344 228
0.033050332 0.75400001 0.01586416 9.555202e-39 345 228
0.034372345 0.75400001 0.01586416 8.9152206e-39 346 228
0.035694357 0.75400001 0.01586416 8.6386351e-39 347 228
0.037016369 0.75400001 0.01586416 8.3631426e-39 348 228
0.038338386 0.75400001 0.01586416 8.1787514e-39 349 228
0.039660402 0.75400001 0.01586416 7.7199438e-39 350 228
0.040982414 0.75400001 0.01586416 7.7199438e-39 351 228
0.042304426 0.75400001 0.01586416 6.9863416e-39 352 228
0.043684296 0.755 0.015885198 6.894146e-39 353 228
0.045008067 0.755 0.015885198 5.4237047e-39 354 228
0.04633183 0.755 0.015885198 3.3979134e-39 355 228
0.047655597 0.755 0.015885198 3.9644149e-39 356 228
0.048979364 0.755 0.015885198 1.0970924e-38 357 228
-0.024111839 0.764 0.014735013 1.5671105e-38 302 229
-0.02271268 0.76200002 0.01469644 1.0877292e-38 303 229
-0.02137664 0.76200002 0.01469644 7.3627024e-39 304 229
-0.020093199 0.764 0.014735013 5.0578116e-39 305 229
-0.01870456 0.76200002 0.01469644 1.0198809e-38 306 229
-0.017345725 0.76099998 0.014677152 1.1582102e-38 307 229
-0.015969358 0.759 0.014638579 1.3244119e-38 308 229
-0.014638579 0.759 0.014638579 1.3244119e-38 309 229
-0.013272733 0.75700003 0.014600007 1.3882986e-38 310 229
-0.011913899 0.755 0.014561433 1.2868476e-38 311 229
-0.010590133 0.755 0.014561433 1.3505928e-38 312 229
-0.0092663663 0.755 0.014561433 1.3136786e-38 313 229
-0.0079425992 0.755 0.014561433 1.2767654e-38 314 229
-0.0066188332 0.755 0.014561433 1.3320827e-38 315 229
-0.0052950666 0.755 0.014561433 1.2684443e-38 316 229
-0.0039712996 0.755 0.014561433 1.2868476e-38 317 229
-0.0026440267 0.75400001 0.014542146 1.18572e-38 318 229
-0.0013220133 0.75400001 0.014542146 1.1027438e-38 319 229
0 0.75400001 0.014542146 1.0844137e-38 320 229
0.0013237667 0.755 0.014561433 1.0844137e-38 321 229
0.0026475333 0.755 0.014561433 9.9279418e-39 322 229
0.0039712996 0.755 0.014561433 9.9279418e-39 323 229
0.0052950666 0.755 0.014561433 8.6461909e-39 324 229
0.0066188332 0.755 0.014561433 8.9231379e-39 325 229
0.0079425992 0.755 0.014561433 8.1927587e-39 326 229
0.0092909131 0.75700003 0.014600007 7.5473893e-39 327 229
0.01064624 0.759 0.014638579 7.7285478e-39 328 229
0.012008579 0.76099998 0.014677152 7.8211022e-39 329 229
0.013342866 0.76099998 0.014677152 7.914367e-39 330 229
0.01469644 0.76200002 0.01469644 8.1909553e-39 331 229
0.01603248 0.76200002 0.01469644 8.3767744e-39 332 229
0.01736852 0.76200002 0.01469644 9.0221439e-39 333 229
0.018680012 0.76099998 0.014677152 9.4831164e-39 334 229
0.020014299 0.76099998 0.014677152 9.760062e-39 335 229
0.02129248 0.759 0.014638579 1.0676623e-38 336 229
0.02262326 0.759 0.014638579 1.0400397e-38 337 229
0.023827799 0.755 0.014561433 1.113149e-38 338 229
0.025151566 0.755 0.014561433 1.0578318e-38 339 229
0.026440267 0.75400001 0.014542146 1.1213632e-38 340 229
0.027762281 0.75400001 0.014542146 1.0291317e-38 341 229
0.029007144 0.75199997 0.014503572 9.9200272e-39 342 229
0.030325651 0.75199997 0.014503572 9.9200272e-39 343 229
0.031644158 0.75199997 0.014503572 9.3722429e-39 344 229
0.032962665 0.75199997 0.014503572 9.6484668e-39 345 229
0.034281172 0.75199997 0.014503572 9.097814e-39 346 229
0.035599679 0.75199997 0.014503572 8.7290357e-39 347 229
0.036918186 0.75199997 0.014503572 8.1776794e-39 348 229
0.038236689 0.75199997 0.014503572 8.1776794e-39 349 229
0.039660402 0.75400001 0.014542146 7.6273895e-39 350 229
0.040982414 0.75400001 0.014542146 7.6273895e-39 351 229
0.042304426 0.75400001 0.014542146 7.2622027e-39 352 229
0.043626439 0.75400001 0.014542146 7.170007e-39 353 229
0.045008067 0.755 0.014561433 6.3427729e-39 354 229
0.04633183 0.755 0.014561433 5.3282622e-39 355 229
0.047655597 0.755 0.014561433 3.8653795e-39 356 229
0.049109112 0.75700003 0.014600007 8.5673566e-39 357 229
-0.024111839 0.764 0.013395466 1.4658032e-38 302 230
-0.02271268 0.76200002 0.0133604 8.7575114e-39 303 230
-0.02137664 0.76200002 0.0133604 6.7126611e-39 304 230
-0.0200406 0.76200002 0.0133604 5.5141179e-39 305 230
-0.01870456 0.76200002 0.0133604 1.0566875e-38 306 230
-0.017345725 0.76099998 0.013342866 1.2226396e-38 307 230
-0.015969358 0.759 0.0133078 1.3796571e-38 308 230
-0.014600007 0.75700003 0.013272733 1.3519983e-38 309 230
-0.013237666 0.755 0.013237666 1.3975182e-38 310 230
-0.011913899 0.755 0.013237666 1.3237617e-38 311 230
-0.010590133 0.755 0.013237666 1.3599206e-38 312 230
-0.0092540924 0.75400001 0.013220133 1.3046033e-38 313 230
-0.00793208 0.75400001 0.013220133 1.3043884e-38 314 230
-0.0066100666 0.75400001 0.013220133 1.3413026e-38 315 230
-0.0052880533 0.75400001 0.013220133 1.3051426e-38 316 230
-0.00396604 0.75400001 0.013220133 1.342021e-38 317 230
-0.0026440267 0.75400001 0.013220133 1.2222742e-38 318 230
-0.0013220133 0.75400001 0.013220133 1.1485177e-38 319 230
0 0.75400001 0.013220133 1.0845572e-38 320 230
0.0013220133 0.75400001 0.013220133 1.0753377e-38 321 230
0.0026440267 0.75400001 0.013220133 9.7449855e-39 322 230
0.0039712996 0.755 0.013237666 9.7449855e-39 323 230
0.0052950666 0.755 0.013237666 8.2792062e-39 324 230
0.0066188332 0.755 0.013237666 8.4635975e-39 325 230
0.0079425992 0.755 0.013237666 7.5470362e-39 326 230
0.0092909131 0.75700003 0.013272733 6.8094712e-39 327 230
0.01064624 0.759 0.0133078 6.8091152e-39 328 230
0.012008579 0.76099998 0.013342866 6.9016696e-39 329 230
0.0133604 0.76200002 0.0133604 7.3619205e-39 330 230
0.01469644 0.76200002 0.0133604 7.8228972e-39 331 230
0.01603248 0.76200002 0.0133604 8.1920273e-39 332 230
0.01736852 0.76200002 0.0133604 8.8373967e-39 333 230
0.018680012 0.76099998 0.013342866 9.0242962e-39 334 230
0.020014299 0.76099998 0.013342866 9.3927186e-39 335 230
0.02129248 0.759 0.0133078 1.0125252e-38 336 230
0.02262326 0.759 0.0133078 9.9405016e-39 337 230
0.023827799 0.755 0.013237666 1.1038942e-38 338 230
0.025151566 0.755 0.013237666 1.0485768e-38 339 230
0.02637013 0.75199997 0.013185065 1.1212197e-38 340 230
0.027688639 0.75199997 0.013185065 1.0198404e-38 341 230
0.028929999 0.75 0.01315 1.0011145e-38 342 230
0.030244999 0.75 0.01315 1.0656508e-38 343 230
0.031644158 0.75199997 0.013185065 9.7435309e-39 344 230
0.032962665 0.75199997 0.013185065 9.7435309e-39 345 230
0.034281172 0.75199997 0.013185065 9.0066945e-39 346 230
0.035599679 0.75199997 0.013185065 8.2691407e-39 347 230
0.036918186 0.75199997 0.013185065 7.8096157e-39 348 230
0.038236689 0.75199997 0.013185065 7.8096157e-39 349 230
0.039660402 0.75400001 0.013220133 7.5355498e-39 350 230
0.040982414 0.75400001 0.013220133 7.6277454e-39 351 230
0.042304426 0.75400001 0.013220133 7.5369917e-39 352 230
0.043626439 0.75400001 0.013220133 7.4447961e-39 353 230
0.045008067 0.755 0.013237666 6.6182822e-39 354 230
0.04633183 0.755 0.013237666 6.0651084e-39 355 230
0.047655597 0.755 0.013237666 3.6777513e-39 356 230
0.048979364 0.755 0.013237666 5.7982507e-39 357 230
0.050303131 0.755 0.013237666 1.1615575e-38 358 230
-0.02404872 0.76200002 0.01202436 1.4104139e-38 302 231
-0.02271268 0.76200002 0.01202436 8.0188688e-39 303 231
-0.02137664 0.76200002 0.01202436 7.4426759e-39 304 231
-0.0200406 0.76200002 0.01202436 6.5203595e-39 305 231
-0.018680012 0.76099998 0.012008579 1.0936376e-38 306 231
-0.017300138 0.759 0.01197702 1.2964682e-38 307 231
-0.015927281 0.75700003 0.01194546 1.3888769e-38 308 231
-0.014600007 0.75700003 0.01194546 1.3335596e-38 309 231
-0.013237666 0.755 0.011913899 1.406558e-38 310 231
-0.01189812 0.75400001 0.01189812 1.3512406e-38 311 231
-0.010576107 0.75400001 0.01189812 1.3874705e-38 312 231
-0.0092540924 0.75400001 0.01189812 1.3413726e-38 313 231
-0.00793208 0.75400001 0.01189812 1.2860205e-38 314 231
-0.0066100666 0.75400001 0.01189812 1.3320824e-38 315 231
-0.0052880533 0.75400001 0.01189812 1.305107e-38 316 231
-0.00396604 0.75400001 0.01189812 1.369644e-38 317 231
-0.0026440267 0.75400001 0.01189812 1.2774118e-38 318 231
-0.0013220133 0.75400001 0.01189812 1.1852161e-38 319 231
0 0.75400001 0.01189812 1.1212553e-38 320 231
0.0013220133 0.75400001 0.01189812 1.0935967e-38 321 231
0.0026440267 0.75400001 0.01189812 1.0110888e-38 322 231
0.00396604 0.75400001 0.01189812 1.0110888e-38 323 231
0.0052880533 0.75400001 0.01189812 8.4600074e-39 324 231
0.0066188332 0.755 0.011913899 8.6440399e-39 325 231
0.0079425992 0.755 0.011913899 7.2675907e-39 326 231
0.0092909131 0.75700003 0.01194546 6.6222213e-39 327 231
0.01064624 0.759 0.01197702 6.1648444e-39 328 231
0.012008579 0.76099998 0.012008579 6.1648444e-39 329 231
0.0133604 0.76200002 0.01202436 6.533257e-39 330 231
0.01469644 0.76200002 0.01202436 7.0864308e-39 331 231
0.01603248 0.76200002 0.01202436 7.4566398e-39 332 231
0.01736852 0.76200002 0.01202436 8.0098122e-39 333 231
0.018680012 0.76099998 0.012008579 8.5633363e-39 334 231
0.020014299 0.76099998 0.012008579 8.9317601e-39 335 231
0.02129248 0.759 0.01197702 9.9401541e-39 336 231
0.022563647 0.75700003 0.01194546 9.6639259e-39 337 231
0.023827799 0.755 0.011913899 1.0762362e-38 338 231
0.025051624 0.75199997 0.011866559 1.0116992e-38 339 231
0.02637013 0.75199997 0.011866559 1.1211481e-38 340 231
0.027688639 0.75199997 0.011866559 1.0197329e-38 341 231
0.028929999 0.75 0.011835 1.0380998e-38 342 231
0.030244999 0.75 0.011835 1.1118562e-38 343 231
0.031644158 0.75199997 0.011866559 1.0114101e-38 344 231
0.032874998 0.75 0.011835 9.7453246e-39 345 231
0.034189999 0.75 0.011835 9.09853e-39 346 231
0.035599679 0.75199997 0.011866559 8.4531704e-39 347 231
0.036918186 0.75199997 0.011866559 7.993637e-39 348 231
0.038236689 0.75199997 0.011866559 7.993637e-39 349 231
0.039660402 0.75400001 0.01189812 7.8103388e-39 350 231
0.040982414 0.75400001 0.01189812 7.9025344e-39 351 231
0.042304426 0.75400001 0.01189812 7.9032561e-39 352 231
0.043626439 0.75400001 0.01189812 7.9032561e-39 353 231
0.044948451 0.75400001 0.01189812 7.0763863e-39 354 231
0.04633183 0.755 0.011913899 6.7079625e-39 355 231
0.047655597 0.755 0.011913899 3.6752429e-39 356 231
0.048979364 0.755 0.011913899 3.8599943e-39 357 231
0.050436385 0.75700003 0.01194546 9.8620611e-39 358 231
-0.02404872 0.76200002 0.01068832 1.4009425e-38 302 232
-0.022682872 0.76099998 0.010674292 8.0163507e-39 303 232
-0.021348584 0.76099998 0.010674292 8.5421809e-39 304 232
-0.020014299 0.76099998 0.010674292 7.8060508e-39 305 232
-0.018680012 0.76099998 0.010674292 1.0936727e-38 306 232
-0.017254554 0.75700003 0.010618187 1.2688444e-38 307 232
-0.015885198 0.755 0.010590133 1.3980239e-38 308 232
-0.014561433 0.755 0.010590133 1.3150839e-38 309 232
-0.013237666 0.755 0.010590133 1.4248897e-38 310 232
-0.01189812 0.75400001 0.010576107 1.3787919e-38 311 232
-0.010576107 0.75400001 0.010576107 1.3786119e-38 312 232
-0.0092295464 0.75199997 0.010548052 1.2956358e-38 313 232
-0.0079110395 0.75199997 0.010548052 1.3137878e-38 314 232
-0.0065925326 0.75199997 0.010548052 1.3045682e-38 315 232
-0.0052740262 0.75199997 0.010548052 1.3047838e-38 316 232
-0.0039555198 0.75199997 0.010548052 1.4430772e-38 317 232
-0.0026370131 0.75199997 0.010548052 1.3326218e-38 318 232
-0.0013185065 0.75199997 0.010548052 1.2404263e-38 319 232
0 0.75199997 0.010548052 1.1213997e-38 320 232
0.0013185065 0.75199997 0.010548052 1.0660825e-38 321 232
0.0026440267 0.75400001 0.010576107 1.0110174e-38 322 232
0.00396604 0.75400001 0.010576107 1.0017978e-38 323 232
0.0052880533 0.75400001 0.010576107 8.4578564e-39 324 232
0.0066188332 0.755 0.010590133 8.4578564e-39 325 232
0.0079425992 0.755 0.010590133 6.4385531e-39 326 232
0.0092909131 0.75700003 0.010618187 5.977935e-39 327 232
0.01064624 0.759 0.01064624 5.9768546e-39 328 232
0.012008579 0.76099998 0.010674292 6.1612473e-39 329 232
0.0133604 0.76200002 0.01068832 6.4381873e-39 330 232
0.01469644 0.76200002 0.01068832 6.8991655e-39 331 232
0.01603248 0.76200002 0.01068832 7.2693745e-39 332 232
0.01736852 0.76200002 0.01068832 8.0069396e-39 333 232
0.018680012 0.76099998 0.010674292 8.6519292e-39 334 232
0.020014299 0.76099998 0.010674292 8.9288762e-39 335 232
0.02129248 0.759 0.01064624 9.9369143e-39 336 232
0.022563647 0.75700003 0.010618187 1.002911e-38 337 232
0.023827799 0.755 0.010590133 1.1036438e-38 338 232
0.025051624 0.75199997 0.010548052 1.0575818e-38 339 232
0.02637013 0.75199997 0.010548052 1.1303326e-38 340 232
0.027688639 0.75199997 0.010548052 1.0657957e-38 341 232
0.028929999 0.75 0.01052 1.0661191e-38 342 232
0.030244999 0.75 0.01052 1.1399115e-38 343 232
0.03156 0.75 0.01052 1.0391424e-38 344 232
0.032874998 0.75 0.01052 9.5620235e-39 345 232
0.034189999 0.75 0.01052 9.0070645e-39 346 232
0.035505001 0.75 0.01052 8.1773052e-39 347 232
0.036819998 0.75 0.01052 7.9932839e-39 348 232
0.038135 0.75 0.01052 8.0854809e-39 349 232
0.039555199 0.75199997 0.010548052 8.0861998e-39 350 232
0.040982414 0.75400001 0.010576107 8.1783954e-39 351 232
0.042304426 0.75400001 0.010576107 7.8121366e-39 352 232
0.043626439 0.75400001 0.010576107 7.8121366e-39 353 232
0.044948451 0.75400001 0.010576107 7.0763863e-39 354 232
0.04633183 0.755 0.010590133 6.8919936e-39 355 232
0.047655597 0.755 0.010590133 5.1449654e-39 356 232
0.048979364 0.755 0.010590133 4.5917916e-39 357 232
0.050436385 0.75700003 0.010618187 8.2028901e-39 358 232
-0.02404872 0.76200002 0.0093522798 1.345517e-38 302 233
-0.022682872 0.76099998 0.0093400059 7.7390421e-39 303 233
-0.021348584 0.76099998 0.0093400059 9.3679605e-39 304 233
-0.020014299 0.76099998 0.0093400059 9.644546e-39 305 233
-0.01863092 0.759 0.00931546 1.1211496e-38 306 233
-0.017254554 0.75700003 0.0092909131 1.2318204e-38 307 233
-0.015885198 0.755 0.0092663663 1.3607857e-38 308 233
-0.014561433 0.755 0.0092663663 1.3607857e-38 309 233
-0.013220133 0.75400001 0.0092540924 1.4158484e-38 310 233
-0.01189812 0.75400001 0.0092540924 1.406593e-38 311 233
-0.010576107 0.75400001 0.0092540924 1.4339996e-38 312 233
-0.0092295464 0.75199997 0.0092295464 1.3418398e-38 313 233
-0.0079110395 0.75199997 0.0092295464 1.3415894e-38 314 233
-0.0065925326 0.75199997 0.0092295464 1.3600285e-38 315 233
-0.0052740262 0.75199997 0.0092295464 1.3236172e-38 316 233
-0.003945 0.75 0.0092049995 1.3512759e-38 317 233
-0.00263 0.75 0.0092049995 1.3511327e-38 318 233
-0.001315 0.75 0.0092049995 1.3050707e-38 319 233
0 0.75199997 0.0092295464 1.1946528e-38 320 233
0.0013185065 0.75199997 0.0092295464 1.1669582e-38 321 233
0.0026370131 0.75199997 0.0092295464 1.0750859e-38 322 233
0.0039555198 0.75199997 0.0092295464 1.0658304e-38 323 233
0.0052740262 0.75199997 0.0092295464 9.5580733e-39 324 233
0.0066100666 0.75400001 0.0092540924 9.2814864e-39 325 233
0.00793208 0.75400001 0.0092540924 6.988843e-39 326 233
0.0092540924 0.75400001 0.0092540924 5.9743323e-39 327 233
0.010618187 0.75700003 0.0092909131 5.6077232e-39 328 233
0.012008579 0.76099998 0.0093400059 5.6999188e-39 329 233
0.0133604 0.76200002 0.0093522798 5.5176926e-39 330 233
0.01469644 0.76200002 0.0093522798 5.7946382e-39 331 233
0.01603248 0.76200002 0.0093522798 6.1659318e-39 332 233
0.01736852 0.76200002 0.0093522798 6.6272701e-39 333 233
0.018680012 0.76099998 0.0093400059 7.9147565e-39 334 233
0.0199617 0.759 0.00931546 8.0995065e-39 335 233
0.021236373 0.75700003 0.0092909131 9.2011653e-39 336 233
0.022563647 0.75700003 0.0092909131 9.5695891e-39 337 233
0.023827799 0.755 0.0092663663 1.0852406e-38 338 233
0.025118252 0.75400001 0.0092540924 1.0391068e-38 339 233
0.0263 0.75 0.0092049995 1.157954e-38 340 233
0.027615 0.75 0.0092049995 1.1487345e-38 341 233
0.028929999 0.75 0.0092049995 1.1121802e-38 342 233
0.030204674 0.74900001 0.0091927266 1.0937771e-38 343 233
0.031517919 0.74900001 0.0091927266 1.0572592e-38 344 233
0.032874998 0.75 0.0092049995 1.0111973e-38 345 233
0.034144413 0.74900001 0.0091927266 9.372603e-39 346 233
0.03545766 0.74900001 0.0091927266 9.0041834e-39 347 233
0.036819998 0.75 0.0092049995 8.268782e-39 348 233
0.038135 0.75 0.0092049995 8.3609762e-39 349 233
0.039449997 0.75 0.0092049995 8.6368554e-39 350 233
0.040764999 0.75 0.0092049995 8.6368554e-39 351 233
0.04219221 0.75199997 0.0092295464 8.7279791e-39 352 233
0.043626439 0.75400001 0.0092540924 8.6357834e-39 353 233
0.044948451 0.75400001 0.0092540924 7.7167194e-39 354 233
0.04633183 0.755 0.0092663663 7.5323282e-39 355 233
0.047655597 0.755 0.0092663663 5.1460472e-39 356 233
0.048979364 0.755 0.0092663663 4.2244496e-39 357 233
0.050436385 0.75700003 0.0092909131 6.9096304e-39 358 233
-0.024017159 0.76099998 0.0080057196 1.3087463e-38 302 234
-0.022682872 0.76099998 0.0080057196 7.9245082e-39 303 234
-0.021348584 0.76099998 0.0080057196 1.0011178e-38 304 234
-0.0199617 0.759 0.0079846792 9.0917323e-39 305 234
-0.018581826 0.75700003 0.0079636406 1.111571e-38 306 234
-0.017208965 0.755 0.0079425992 1.2314254e-38 307 234
-0.015885198 0.755 0.0079425992 1.3514942e-38 308 234
-0.014561433 0.755 0.0079425992 1.3884085e-38 309 234
-0.013220133 0.75400001 0.00793208 1.4159213e-38 310 234
-0.01189812 0.75400001 0.00793208 1.4159213e-38 311 234
-0.010576107 0.75400001 0.00793208 1.3880472e-38 312 234
-0.0092049995 0.75 0.00789 1.3419134e-38 313 234
-0.00789 0.75 0.00789 1.3417345e-38 314 234
-0.006575 0.75 0.00789 1.4062714e-38 315 234
-0.00526 0.75 0.00789 1.3333405e-38 316 234
-0.0039397399 0.74900001 0.0078794798 1.305682e-38 317 234
-0.0026264933 0.74900001 0.0078794798 1.3331235e-38 318 234
-0.001315 0.75 0.00789 1.2962812e-38 319 234
0 0.75 0.00789 1.2223459e-38 320 234
0.001315 0.75 0.00789 1.1855035e-38 321 234
0.00263 0.75 0.00789 1.0753374e-38 322 234
0.003945 0.75 0.00789 1.0476786e-38 323 234
0.00526 0.75 0.00789 9.4669538e-39 324 234
0.0065925326 0.75199997 0.0079110395 9.1900068e-39 325 234
0.0079110395 0.75199997 0.0079110395 7.9039567e-39 326 234
0.0092540924 0.75400001 0.00793208 7.2585915e-39 327 234
0.010618187 0.75700003 0.0079636406 5.4204467e-39 328 234
0.012008579 0.76099998 0.0080057196 5.9736162e-39 329 234
0.0133604 0.76200002 0.0080162399 5.516231e-39 330 234
0.01469644 0.76200002 0.0080162399 5.976849e-39 331 234
0.01603248 0.76200002 0.0080162399 6.346342e-39 332 234
0.01736852 0.76200002 0.0080162399 7.2682969e-39 333 234
0.018680012 0.76099998 0.0080057196 8.0951695e-39 334 234
0.0199617 0.759 0.0079846792 8.5561463e-39 335 234
0.021236373 0.75700003 0.0079636406 9.6567373e-39 336 234
0.022504034 0.755 0.0079425992 1.002516e-38 337 234
0.02379624 0.75400001 0.00793208 1.1125402e-38 338 234
0.025051624 0.75199997 0.0079110395 1.0940652e-38 339 234
0.0263 0.75 0.00789 1.1489507e-38 340 234
0.027615 0.75 0.00789 1.1489507e-38 341 234
0.028929999 0.75 0.00789 1.1028168e-38 342 234
0.030204674 0.74900001 0.0078794798 1.1028168e-38 343 234
0.031517919 0.74900001 0.0078794798 1.0754824e-38 344 234
0.032874998 0.75 0.00789 1.0938855e-38 345 234
0.034144413 0.74900001 0.0078794798 9.1017768e-39 346 234
0.03545766 0.74900001 0.0078794798 7.9957894e-39 347 234
0.036770906 0.74900001 0.0078794798 8.4538963e-39 348 234
0.038084153 0.74900001 0.0078794798 8.3613419e-39 349 234
0.0393974 0.74900001 0.0078794798 8.8194488e-39 350 234
0.040764999 0.75 0.00789 8.9116445e-39 351 234
0.04219221 0.75199997 0.0079110395 8.8201775e-39 352 234
0.043626439 0.75400001 0.00793208 8.8201775e-39 353 234
0.044948451 0.75400001 0.00793208 7.2582594e-39 354 234
0.04633183 0.755 0.0079425992 6.9816725e-39 355 234
0.047655597 0.755 0.0079425992 5.5130249e-39 356 234
0.048979364 0.755 0.0079425992 4.6836243e-39 357 234
0.050436385 0.75700003 0.0079636406 5.4334115e-39 358 234
0.051763661 0.75700003 0.0079636406 1.0964791e-38 359 234
-0.024017159 0.76099998 0.0066714329 1.2994549e-38 302 235
-0.02262326 0.759 0.0066538998 8.2000161e-39 303 235
-0.02129248 0.759 0.0066538998 1.0011881e-38 304 235
-0.019909101 0.75700003 0.0066363667 9.4590659e-39 305 235
-0.018581826 0.75700003 0.0066363667 1.1022793e-38 306 235
-0.017208965 0.755 0.0066188332 1.2405728e-38 307 235
-0.01586416 0.75400001 0.0066100666 1.3239084e-38 308 235
-0.014542146 0.75400001 0.0066100666 1.3699703e-38 309 235
-0.013220133 0.75400001 0.0066100666 1.3883352e-38 310 235
-0.011866559 0.75199997 0.0065925326 1.3422734e-38 311 235
-0.010548052 0.75199997 0.0065925326 1.3785052e-38 312 235
-0.0092049995 0.75 0.006575 1.3231878e-38 313 235
-0.0078794798 0.74900001 0.0065662335 1.31422e-38 314 235
-0.0065662335 0.74900001 0.0065662335 1.3787569e-38 315 235
-0.0052529867 0.74900001 0.0065662335 1.3423084e-38 316 235
-0.0039397399 0.74900001 0.0065662335 1.351528e-38 317 235
-0.0026264933 0.74900001 0.0065662335 1.3240838e-38 318 235
-0.0013132467 0.74900001 0.0065662335 1.296425e-38 319 235
0 0.74900001 0.0065662335 1.2410711e-38 320 235
0.0013132467 0.74900001 0.0065662335 1.1765347e-38 321 235
0.0026264933 0.74900001 0.0065662335 1.1487329e-38 322 235
0.0039397399 0.74900001 0.0065662335 1.1302941e-38 323 235
0.0052529867 0.74900001 0.0065662335 1.0659376e-38 324 235
0.006575 0.75 0.006575 1.0567181e-38 325 235
0.00789 0.75 0.006575 9.4655189e-39 326 235
0.0092049995 0.75 0.006575 8.9127066e-39 327 235
0.01052 0.75 0.006575 6.3420302e-39 328 235
0.012008579 0.76099998 0.0066714329 6.3420302e-39 329 235
0.013342866 0.76099998 0.0066714329 5.8835702e-39 330 235
0.014677152 0.76099998 0.0066714329 6.2523499e-39 331 235
0.016011439 0.76099998 0.0066714329 6.1637514e-39 332 235
0.017345725 0.76099998 0.0066714329 6.7165665e-39 333 235
0.018680012 0.76099998 0.0066714329 7.9104265e-39 334 235
0.019909101 0.75700003 0.0066363667 8.0948192e-39 335 235
0.021180267 0.755 0.0066188332 9.3794427e-39 336 235
0.022504034 0.755 0.0066188332 9.563834e-39 337 235
0.02379624 0.75400001 0.0066100666 1.0847737e-38 338 235
0.025051624 0.75199997 0.0065925326 1.0847737e-38 339 235
0.0263 0.75 0.006575 1.1305474e-38 340 235
0.027615 0.75 0.006575 1.0567909e-38 341 235
0.028929999 0.75 0.006575 1.0838754e-38 342 235
0.030204674 0.74900001 0.0065662335 1.1391569e-38 343 235
0.031517919 0.74900001 0.0065662335 1.0387484e-38 344 235
0.032874998 0.75 0.006575 1.0202734e-38 345 235
0.034144413 0.74900001 0.0065662335 9.4669566e-39 346 235
0.03545766 0.74900001 0.0065662335 8.8215886e-39 347 235
0.036770906 0.74900001 0.0065662335 8.6368428e-39 348 235
0.038084153 0.74900001 0.0065662335 8.6368428e-39 349 235
0.0393974 0.74900001 0.0065662335 9.278985e-39 350 235
0.040764999 0.75 0.006575 9.3711807e-39 351 235
0.04208 0.75 0.006575 9.1864391e-39 352 235
0.043394998 0.75 0.006575 9.0020478e-39 353 235
0.044829223 0.75199997 0.0065925326 7.34866e-39 354 235
0.04633183 0.755 0.0066188332 7.0720731e-39 355 235
0.047655597 0.755 0.0066188332 5.1460416e-39 356 235
0.049109112 0.75700003 0.0066363667 4.6850635e-39 357 235
0.050436385 0.75700003 0.0066363667 5.1561029e-39 358 235
0.051763661 0.75700003 0.0066363667 9.9499155e-39 359 235
-0.024017159 0.76099998 0.0053371461 1.2994543e-38 302 236
-0.02262326 0.759 0.0053231199 8.3847604e-39 303 236
-0.02129248 0.759 0.0053231199 1.0011531e-38 304 236
-0.019909101 0.75700003 0.0053090933 8.9998884e-39 305 236
-0.018532733 0.755 0.0052950666 1.102244e-38 306 236
-0.017208965 0.755 0.0052950666 1.2313179e-38 307 236
-0.01586416 0.75400001 0.0052880533 1.2778822e-38 308 236
-0.014542146 0.75400001 0.0052880533 1.3055769e-38 309 236
-0.013185065 0.75199997 0.0052740262 1.3512777e-38 310 236
-0.011866559 0.75199997 0.0052740262 1.30518e-38 311 236
-0.010548052 0.75199997 0.0052740262 1.3139327e-38 312 236
-0.0092049995 0.75 0.00526 1.2862739e-38 313 236
-0.0078794798 0.74900001 0.0052529867 1.2954581e-38 314 236
-0.0065662335 0.74900001 0.0052529867 1.3415559e-38 315 236
-0.0052529867 0.74900001 0.0052529867 1.3144718e-38 316 236
-0.0039397399 0.74900001 0.0052529867 1.3790087e-38 317 236
-0.0026264933 0.74900001 0.0052529867 1.3333403e-38 318 236
-0.0013132467 0.74900001 0.0052529867 1.296498e-38 319 236
0 0.74900001 0.0052529867 1.2503273e-38 320 236
0.0013132467 0.74900001 0.0052529867 1.1765707e-38 321 236
0.0026264933 0.74900001 0.0052529867 1.1672442e-38 322 236
0.0039397399 0.74900001 0.0052529867 1.1395496e-38 323 236
0.0052529867 0.74900001 0.0052529867 1.0844493e-38 324 236
0.0065662335 0.74900001 0.0052529867 1.0844493e-38 325 236
0.0078794798 0.74900001 0.0052529867 9.9272089e-39 326 236
0.0091927266 0.74900001 0.0052529867 9.8350133e-39 327 236
0.01052 0.75 0.00526 8.1830519e-39 328 236
0.011866559 0.75199997 0.0052740262 7.7217151e-39 329 236
0.013272733 0.75700003 0.0053090933 6.8944781e-39 330 236
0.014600007 0.75700003 0.0053090933 7.1710636e-39 331 236
0.015969358 0.759 0.0053231199 6.9899009e-39 332 236
0.017300138 0.759 0.0053231199 7.3586793e-39 333 236
0.018581826 0.75700003 0.0053090933 8.2770384e-39 334 236
0.0198565 0.755 0.0052950666 8.3692341e-39 335 236
0.021152213 0.75400001 0.0052880533 9.6520696e-39 336 236
0.022474226 0.75400001 0.0052880533 9.9282977e-39 337 236
0.023733119 0.75199997 0.0052740262 1.1121446e-38 338 236
0.025051624 0.75199997 0.0052740262 1.0937415e-38 339 236
0.0263 0.75 0.00526 1.1118215e-38 340 236
0.027615 0.75 0.00526 1.0380291e-38 341 236
0.028929999 0.75 0.00526 1.0469249e-38 342 236
0.030244999 0.75 0.00526 1.1666716e-38 343 236
0.03156 0.75 0.00526 1.0387837e-38 344 236
0.032831166 0.74900001 0.0052529867 1.0110891e-38 345 236
