# .PCD v.7 - Point Cloud Data file format
FIELDS x y z rgb imX imY
SIZE 4 4 4 4 4 4
TYPE F F F F F F
COUNT 1 1 1 1 1 1
WIDTH 838
HEIGHT 1
VIEWPOINT 0 0 0 1 0 0 0
POINTS 838
DATA ascii
-0.0036872597 0.70099998 -0.034414422 8.2985568e-39 317 268
-0.0024581731 0.70099998 -0.034414422 8.2063625e-39 318 268
-0.0012290865 0.70099998 -0.034414422 8.2063625e-39 319 268
0 0.70099998 -0.034414422 8.1141683e-39 320 268
0.0012290865 0.70099998 -0.034414422 7.8375856e-39 321 268
0.0024651866 0.70300001 -0.034512613 7.6531972e-39 322 268
0.0036977797 0.70300001 -0.034512613 7.6531972e-39 323 268
0.0049303733 0.70300001 -0.034512613 7.5606442e-39 324 268
0.0061717331 0.704 -0.034561705 7.2840615e-39 325 268
0.0074060797 0.704 -0.034561705 7.3748208e-39 326 268
0.0086404262 0.704 -0.034561705 7.2826266e-39 327 268
0.0099028256 0.70599997 -0.034659892 7.0064026e-39 328 268
0.011140679 0.70599997 -0.034659892 6.9142084e-39 329 268
0.012378532 0.70599997 -0.034659892 6.7305374e-39 330 268
0.013616386 0.70599997 -0.034659892 6.8227316e-39 331 268
0.01487528 0.70700002 -0.034708988 7.0060439e-39 332 268
0.01613768 0.708 -0.034758076 7.0985983e-39 333 268
0.017428132 0.70999998 -0.034856264 7.2815546e-39 334 268
0.018672999 0.70999998 -0.034856264 7.3737502e-39 335 268
0.01994592 0.71100003 -0.034905359 7.4659487e-39 336 268
0.021252153 0.713 -0.035003547 7.6507001e-39 337 268
0.022502279 0.713 -0.035003547 7.6514189e-39 338 268
0.02378572 0.71399999 -0.035052639 7.9280058e-39 339 268
0.025107734 0.71600002 -0.035150826 8.6630471e-39 340 268
0.026363119 0.71600002 -0.035150826 8.6630471e-39 341 268
0.027618507 0.71600002 -0.035150826 1.0965071e-38 342 268
-0.048504211 0.72799999 -0.037016369 1.6035536e-38 282 269
-0.047227785 0.72799999 -0.037016369 1.6035536e-38 283 269
-0.045951359 0.72799999 -0.037016369 1.6035536e-38 284 269
-0.044674929 0.72799999 -0.037016369 1.6035536e-38 285 269
-0.043040827 0.722 -0.03671129 1.6129156e-38 286 269
-0.041774917 0.722 -0.03671129 1.5115004e-38 287 269
-0.040396802 0.72000003 -0.036609601 1.3088088e-38 288 269
-0.039134402 0.72000003 -0.036609601 1.0875392e-38 289 269
-0.037871998 0.72000003 -0.036609601 1.0144622e-38 290 269
-0.036558751 0.71899998 -0.036558751 1.0144622e-38 291 269
-0.035199918 0.71700001 -0.036457058 9.8683922e-39 292 269
-0.03389544 0.71600002 -0.036406212 9.7761966e-39 293 269
-0.032412119 0.71100003 -0.036151983 1.0051339e-38 294 269
-0.031121666 0.70999998 -0.036101133 9.9591417e-39 295 269
-0.02979264 0.708 -0.03599944 9.683631e-39 296 269
-0.02855128 0.708 -0.03599944 9.683631e-39 297 269
-0.027271347 0.70700002 -0.035948593 9.3162876e-39 298 269
-0.02603174 0.70700002 -0.035948593 9.3162876e-39 299 269
-0.024757065 0.70599997 -0.035897743 9.1329782e-39 300 269
-0.023519212 0.70599997 -0.035897743 9.1329782e-39 301 269
-0.022218239 0.704 -0.035796054 9.3159345e-39 302 269
-0.020983893 0.704 -0.035796054 9.1315432e-39 303 269
-0.019749546 0.704 -0.035796054 9.1308216e-39 304 269
-0.018515198 0.704 -0.035796054 8.9464289e-39 305 269
-0.017280852 0.704 -0.035796054 8.8542333e-39 306 269
-0.016023712 0.70300001 -0.035745207 8.5780093e-39 307 269
-0.014791119 0.70300001 -0.035745207 8.4858151e-39 308 269
-0.013519952 0.70099998 -0.035643511 8.4858151e-39 309 269
-0.012290866 0.70099998 -0.035643511 8.3936209e-39 310 269
-0.011061779 0.70099998 -0.035643511 8.3014266e-39 311 269
-0.0098326923 0.70099998 -0.035643511 8.3003504e-39 312 269
-0.0086036054 0.70099998 -0.035643511 8.3003504e-39 313 269
-0.0073745195 0.70099998 -0.035643511 8.3914685e-39 314 269
-0.0061454331 0.70099998 -0.035643511 8.3914685e-39 315 269
-0.0049163462 0.70099998 -0.035643511 8.3903923e-39 316 269
-0.0036872597 0.70099998 -0.035643511 8.298198e-39 317 269
-0.0024581731 0.70099998 -0.035643511 8.1148858e-39 318 269
-0.0012290865 0.70099998 -0.035643511 8.0226915e-39 319 269
0 0.70099998 -0.035643511 7.9304973e-39 320 269
0.0012325933 0.70300001 -0.035745207 7.7457501e-39 321 269
0.0024651866 0.70300001 -0.035745207 7.5617204e-39 322 269
0.0036977797 0.70300001 -0.035745207 7.4695262e-39 323 269
0.0049303733 0.70300001 -0.035745207 7.4677325e-39 324 269
0.0061717331 0.704 -0.035796054 7.2837028e-39 325 269
0.0074060797 0.704 -0.035796054 7.2833441e-39 326 269
0.0086404262 0.704 -0.035796054 7.0985969e-39 327 269
0.0099028256 0.70599997 -0.035897743 7.0071201e-39 328 269
0.011140679 0.70599997 -0.035897743 7.0071201e-39 329 269
0.012378532 0.70599997 -0.035897743 6.7312549e-39 330 269
0.013635674 0.70700002 -0.035948593 6.8234505e-39 331 269
0.01489632 0.708 -0.03599944 7.0067628e-39 332 269
0.01613768 0.708 -0.03599944 7.0993171e-39 333 269
0.017428132 0.70999998 -0.036101133 7.0982423e-39 334 269
0.018672999 0.70999998 -0.036101133 7.2826336e-39 335 269
0.01994592 0.71100003 -0.036151983 7.5581457e-39 336 269
0.021252153 0.713 -0.036253672 7.8347312e-39 337 269
0.022502279 0.713 -0.036253672 7.7432586e-39 338 269
0.02378572 0.71399999 -0.036304519 7.9280086e-39 339 269
0.025107734 0.71600002 -0.036406212 8.663773e-39 340 269
0.026363119 0.71600002 -0.036406212 9.2169468e-39 341 269
0.027618507 0.71600002 -0.036406212 1.2069992e-38 342 269
-0.047227785 0.72799999 -0.038292799 1.6035536e-38 283 270
-0.045951359 0.72799999 -0.038292799 1.6035536e-38 284 270
-0.043338891 0.727 -0.038240198 1.5852574e-38 286 270
-0.041774917 0.722 -0.0379772 1.5667824e-38 287 270
-0.040396802 0.72000003 -0.037871998 1.4285204e-38 288 270
-0.039134402 0.72000003 -0.037871998 1.1703726e-38 289 270
-0.037871998 0.72000003 -0.037871998 1.0510893e-38 290 270
-0.036558751 0.71899998 -0.037819397 1.0694924e-38 291 270
-0.035199918 0.71700001 -0.037714198 1.01439e-38 292 270
-0.03389544 0.71600002 -0.037661601 9.9595088e-39 293 270
-0.032503292 0.713 -0.037503798 9.9598592e-39 294 270
-0.031165501 0.71100003 -0.037398599 9.8676621e-39 295 270
-0.029876797 0.70999998 -0.037345998 9.6843499e-39 296 270
-0.02855128 0.708 -0.0372408 9.5917955e-39 297 270
-0.027309919 0.708 -0.0372408 9.3159345e-39 298 270
-0.02603174 0.70700002 -0.037188202 9.3159345e-39 299 270
-0.024792133 0.70700002 -0.037188202 9.3159373e-39 300 270
-0.023519212 0.70599997 -0.037135597 9.3159373e-39 301 270
-0.022281358 0.70599997 -0.037135597 9.131546e-39 302 270
-0.021043506 0.70599997 -0.037135597 9.131546e-39 303 270
-0.019805651 0.70599997 -0.037135597 9.1308216e-39 304 270
-0.018515198 0.704 -0.037030395 9.0386245e-39 305 270
-0.017280852 0.704 -0.037030395 8.9464275e-39 306 270
-0.016046507 0.704 -0.037030395 8.5780093e-39 307 270
-0.014791119 0.70300001 -0.036977798 8.7613216e-39 308 270
-0.013558527 0.70300001 -0.036977798 8.7613216e-39 309 270
-0.012325933 0.70300001 -0.036977798 8.6691273e-39 310 270
-0.01109334 0.70300001 -0.036977798 8.5769331e-39 311 270
-0.0098607466 0.70300001 -0.036977798 8.3925447e-39 312 270
-0.0086036054 0.70099998 -0.036872596 8.3003504e-39 313 270
-0.0073745195 0.70099998 -0.036872596 8.4825865e-39 314 270
-0.0061629666 0.70300001 -0.036977798 8.3903923e-39 315 270
-0.0049303733 0.70300001 -0.036977798 8.20708e-39 316 270
-0.0036977797 0.70300001 -0.036977798 8.1148858e-39 317 270
-0.0024651866 0.70300001 -0.036977798 8.2978393e-39 318 270
-0.0012325933 0.70300001 -0.036977798 8.2056451e-39 319 270
0 0.70300001 -0.036977798 7.7468263e-39 320 270
0.0012325933 0.70300001 -0.036977798 7.5620791e-39 321 270
0.0024651866 0.70300001 -0.036977798 7.5613617e-39 322 270
0.0036977797 0.70300001 -0.036977798 7.4691674e-39 323 270
0.0049373866 0.704 -0.037030395 7.6514035e-39 324 270
0.0061717331 0.704 -0.037030395 7.5592093e-39 325 270
0.0074060797 0.704 -0.037030395 7.1907911e-39 326 270
0.0086649731 0.70599997 -0.037135597 7.1907911e-39 327 270
0.0099028256 0.70599997 -0.037135597 6.8234505e-39 328 270
0.011140679 0.70599997 -0.037135597 6.7312549e-39 329 270
0.012396066 0.70700002 -0.037188202 7.0067656e-39 330 270
0.013635674 0.70700002 -0.037188202 7.0067656e-39 331 270
0.01489632 0.708 -0.0372408 7.0989612e-39 332 270
0.016183265 0.70999998 -0.037345998 7.0067656e-39 333 270
0.017428132 0.70999998 -0.037345998 7.0982423e-39 334 270
0.0186993 0.71100003 -0.037398599 7.2826336e-39 335 270
0.01994592 0.71100003 -0.037398599 7.7418167e-39 336 270
0.021252153 0.713 -0.037503798 8.0184036e-39 337 270
0.022533838 0.71399999 -0.037556399 7.8354571e-39 338 270
0.023852346 0.71600002 -0.037661601 7.9276527e-39 339 270
0.0251428 0.71700001 -0.037714198 8.4797475e-39 340 270
0.02647358 0.71899998 -0.037819397 1.0231825e-38 341 270
0.027849946 0.722 -0.0379772 1.3081638e-38 342 270
-0.043338891 0.727 -0.039514873 1.5851142e-38 286 271
-0.041774917 0.722 -0.039243106 1.6127729e-38 287 271
-0.040509012 0.722 -0.039243106 1.5299728e-38 288 271
-0.039134402 0.72000003 -0.039134402 1.2626055e-38 289 271
-0.037871998 0.72000003 -0.039134402 1.1429266e-38 290 271
-0.036609601 0.72000003 -0.039134402 1.0968647e-38 291 271
-0.035298105 0.71899998 -0.039080046 1.0051704e-38 292 271
-0.033942781 0.71700001 -0.038971342 9.9595088e-39 293 271
-0.032548878 0.71399999 -0.038808275 9.9591389e-39 294 271
-0.031253166 0.713 -0.038753927 9.9591389e-39 295 271
-0.029918881 0.71100003 -0.038645219 9.6832779e-39 296 271
-0.028631933 0.70999998 -0.038590867 9.4988866e-39 297 271
-0.027309919 0.708 -0.038482159 9.3152184e-39 298 271
-0.026068559 0.708 -0.038482159 9.3152184e-39 299 271
-0.024827199 0.708 -0.038482159 9.1311901e-39 300 271
-0.023552528 0.70700002 -0.038427804 9.1311901e-39 301 271
-0.022312919 0.70700002 -0.038427804 8.9471618e-39 302 271
-0.021073313 0.70700002 -0.038427804 8.9471618e-39 303 271
-0.019805651 0.70599997 -0.038373452 9.0382714e-39 304 271
-0.018567799 0.70599997 -0.038373452 8.9460758e-39 305 271
-0.017280852 0.704 -0.038264744 8.8542333e-39 306 271
-0.016046507 0.704 -0.038264744 8.6702035e-39 307 271
-0.014812159 0.704 -0.038264744 8.7613216e-39 308 271
-0.013577812 0.704 -0.038264744 8.7613216e-39 309 271
-0.012343466 0.704 -0.038264744 8.5765744e-39 310 271
-0.01109334 0.70300001 -0.038210396 8.5765744e-39 311 271
-0.0098607466 0.70300001 -0.038210396 8.3925447e-39 312 271
-0.0086281532 0.70300001 -0.038210396 8.3003504e-39 313 271
-0.0073955595 0.70300001 -0.038210396 8.4836627e-39 314 271
-0.0061629666 0.70300001 -0.038210396 8.20708e-39 315 271
-0.0049303733 0.70300001 -0.038210396 8.1148858e-39 316 271
-0.0036977797 0.70300001 -0.038210396 8.1148858e-39 317 271
-0.0024651866 0.70300001 -0.038210396 8.0226915e-39 318 271
-0.0012343467 0.704 -0.038264744 7.9301386e-39 319 271
0 0.704 -0.038264744 7.6546321e-39 320 271
0.0012343467 0.704 -0.038264744 7.6546321e-39 321 271
0.0024686933 0.704 -0.038264744 7.5613617e-39 322 271
0.0037030398 0.704 -0.038264744 7.4691674e-39 323 271
0.0049373866 0.704 -0.038264744 7.6514035e-39 324 271
0.0061892662 0.70599997 -0.038373452 7.467015e-39 325 271
0.0074271196 0.70599997 -0.038373452 7.2829867e-39 326 271
0.0086649731 0.70599997 -0.038373452 7.0985969e-39 327 271
0.0099028256 0.70599997 -0.038373452 7.0985983e-39 328 271
0.011156459 0.70700002 -0.038427804 7.0985983e-39 329 271
0.012396066 0.70700002 -0.038427804 7.1907911e-39 330 271
0.013654959 0.708 -0.038482159 7.1907911e-39 331 271
0.014938398 0.70999998 -0.038590867 7.2819105e-39 332 271
0.016183265 0.70999998 -0.038590867 7.3741062e-39 333 271
0.01745268 0.71100003 -0.038645219 7.3737502e-39 334 271
0.0186993 0.71100003 -0.038645219 7.4663046e-39 335 271
0.020002026 0.713 -0.038753927 7.7414608e-39 336 271
0.021281958 0.71399999 -0.038808275 8.0184064e-39 337 271
0.022596961 0.71600002 -0.038916986 7.9276527e-39 338 271
0.02388566 0.71700001 -0.038971342 8.1116852e-39 339 271
0.025212931 0.71899998 -0.039080046 8.8460161e-39 340 271
0.026510401 0.72000003 -0.039134402 1.1427494e-38 341 271
0.027849946 0.722 -0.039243106 1.3450425e-38 342 271
0.029115854 0.722 -0.039243106 1.4741164e-38 343 271
-0.044797666 0.73000002 -0.040957868 1.5850789e-38 285 272
-0.043338891 0.727 -0.040789545 1.5666758e-38 286 272
-0.042064216 0.727 -0.040789545 1.5942985e-38 287 272
-0.040509012 0.722 -0.040509012 1.5299748e-38 288 272
-0.039243106 0.722 -0.040509012 1.3548031e-38 289 272
-0.037871998 0.72000003 -0.040396802 1.2164683e-38 290 272
-0.036609601 0.72000003 -0.040396802 1.1058336e-38 291 272
-0.035298105 0.71899998 -0.040340692 9.9605878e-39 292 272
-0.03403746 0.71899998 -0.040340692 9.7761966e-39 293 272
-0.032640055 0.71600002 -0.040172372 1.0050983e-38 294 272
-0.031296998 0.71399999 -0.040060159 9.9587858e-39 295 272
-0.030003037 0.713 -0.040004052 9.5907263e-39 296 272
-0.028672259 0.71100003 -0.039891839 9.4985307e-39 297 272
-0.027387066 0.70999998 -0.039835732 9.2230228e-39 298 272
-0.026142199 0.70999998 -0.039835732 9.2230228e-39 299 272
-0.024827199 0.708 -0.039723519 8.9475121e-39 300 272
-0.023585839 0.708 -0.039723519 8.9475121e-39 301 272
-0.022312919 0.70700002 -0.039667413 9.0382714e-39 302 272
-0.021073313 0.70700002 -0.039667413 9.0382714e-39 303 272
-0.019833706 0.70700002 -0.039667413 9.0379085e-39 304 272
-0.018567799 0.70599997 -0.039611302 8.9457128e-39 305 272
-0.017329946 0.70599997 -0.039611302 8.8542333e-39 306 272
-0.016046507 0.704 -0.039499093 8.5780093e-39 307 272
-0.014812159 0.704 -0.039499093 8.7613216e-39 308 272
-0.013577812 0.704 -0.039499093 8.6691273e-39 309 272
-0.012343466 0.704 -0.039499093 8.3932621e-39 310 272
-0.011109119 0.704 -0.039499093 8.3932621e-39 311 272
-0.0098747732 0.704 -0.039499093 8.3925447e-39 312 272
-0.0086404262 0.704 -0.039499093 8.2999917e-39 313 272
-0.0074060797 0.704 -0.039499093 8.1156032e-39 314 272
-0.0061717331 0.704 -0.039499093 8.2077975e-39 315 272
-0.0049373866 0.704 -0.039499093 8.20708e-39 316 272
-0.0037030398 0.704 -0.039499093 8.0226915e-39 317 272
-0.0024686933 0.704 -0.039499093 8.0226915e-39 318 272
-0.0012343467 0.704 -0.039499093 7.9301386e-39 319 272
0 0.704 -0.039499093 7.7471851e-39 320 272
0.0012343467 0.704 -0.039499093 7.5624379e-39 321 272
0.0024686933 0.704 -0.039499093 7.5617204e-39 322 272
0.0037030398 0.704 -0.039499093 7.4695262e-39 323 272
0.0049514128 0.70599997 -0.039611302 7.6517622e-39 324 272
0.0061892662 0.70599997 -0.039611302 7.559568e-39 325 272
0.0074271196 0.70599997 -0.039611302 7.1911498e-39 326 272
0.008677247 0.70700002 -0.039667413 7.2833441e-39 327 272
0.0099168532 0.70700002 -0.039667413 7.3741034e-39 328 272
0.011156459 0.70700002 -0.039667413 7.2819091e-39 329 272
0.0124136 0.708 -0.039723519 7.1907911e-39 330 272
0.013654959 0.708 -0.039723519 7.1907911e-39 331 272
0.014938398 0.70999998 -0.039835732 7.3741062e-39 332 272
0.016183265 0.70999998 -0.039835732 7.3741062e-39 333 272
0.01745268 0.71100003 -0.039891839 7.4659487e-39 334 272
0.0186993 0.71100003 -0.039891839 7.5581457e-39 335 272
0.020030079 0.71399999 -0.040060159 7.8336564e-39 336 272
0.021341572 0.71600002 -0.040172372 8.110602e-39 337 272
0.02262852 0.71700001 -0.040228479 8.3868302e-39 338 272
0.023952285 0.71899998 -0.040340692 8.4790258e-39 339 272
0.025212931 0.71899998 -0.040340692 9.3995584e-39 340 272
0.026510401 0.72000003 -0.040396802 1.1797005e-38 341 272
0.027849946 0.722 -0.040509012 1.3359677e-38 342 272
0.029115854 0.722 -0.040509012 1.3820655e-38 343 272
-0.044797666 0.73000002 -0.0422378 1.5666758e-38 285 273
-0.043398503 0.72799999 -0.042122077 1.5575275e-38 286 273
-0.041774917 0.722 -0.041774917 1.548308e-38 287 273
-0.040509012 0.722 -0.041774917 1.5299754e-38 288 273
-0.039243106 0.722 -0.041774917 1.4377439e-38 289 273
-0.037871998 0.72000003 -0.041659199 1.2901898e-38 290 273
-0.036609601 0.72000003 -0.041659199 1.1150181e-38 291 273
-0.035347197 0.72000003 -0.041659199 1.0510515e-38 292 273
-0.03403746 0.71899998 -0.041601337 1.0510515e-38 293 273
-0.032685637 0.71700001 -0.041485619 9.8676621e-39 294 273
-0.031296998 0.71399999 -0.041312039 9.8676621e-39 295 273
-0.030003037 0.713 -0.041254178 9.6832779e-39 296 273
-0.028672259 0.71100003 -0.041138459 9.4988866e-39 297 273
-0.027387066 0.70999998 -0.041080594 9.4066882e-39 298 273
-0.026142199 0.70999998 -0.041080594 9.3144925e-39 299 273
-0.024827199 0.708 -0.040964879 9.1308216e-39 300 273
-0.023585839 0.708 -0.040964879 9.0386245e-39 301 273
-0.022344479 0.708 -0.040964879 8.8553123e-39 302 273
-0.021103119 0.708 -0.040964879 8.7631166e-39 303 273
-0.019833706 0.70700002 -0.040907022 8.9457128e-39 304 273
-0.018567799 0.70599997 -0.040849157 8.9457128e-39 305 273
-0.017329946 0.70599997 -0.040849157 8.5780093e-39 306 273
-0.016092092 0.70599997 -0.040849157 8.5780093e-39 307 273
-0.014812159 0.704 -0.040733438 8.6691273e-39 308 273
-0.013577812 0.704 -0.040733438 8.6691273e-39 309 273
-0.012343466 0.704 -0.040733438 8.5765744e-39 310 273
-0.011109119 0.704 -0.040733438 8.3925447e-39 311 273
-0.0098747732 0.704 -0.040733438 8.3921859e-39 312 273
-0.0086404262 0.704 -0.040733438 8.2077975e-39 313 273
-0.0074060797 0.704 -0.040733438 8.1152445e-39 314 273
-0.0061717331 0.704 -0.040733438 8.1152445e-39 315 273
-0.0049373866 0.704 -0.040733438 8.114527e-39 316 273
-0.0037030398 0.704 -0.040733438 8.0223328e-39 317 273
-0.0024686933 0.704 -0.040733438 8.0226915e-39 318 273
-0.0012343467 0.704 -0.040733438 7.9301386e-39 319 273
0 0.704 -0.040733438 7.8383031e-39 320 273
0.0012343467 0.704 -0.040733438 7.5620791e-39 321 273
0.0024686933 0.704 -0.040733438 7.7450327e-39 322 273
0.0037135598 0.70599997 -0.040849157 7.6528384e-39 323 273
0.0049514128 0.70599997 -0.040849157 7.559568e-39 324 273
0.0061892662 0.70599997 -0.040849157 7.559568e-39 325 273
0.0074376399 0.70700002 -0.040907022 7.5588505e-39 326 273
0.008677247 0.70700002 -0.040907022 7.4666563e-39 327 273
0.0099308798 0.708 -0.040964879 7.64997e-39 328 273
0.01117224 0.708 -0.040964879 7.64997e-39 329 273
0.012448666 0.70999998 -0.041080594 7.6499686e-39 330 273
0.013693533 0.70999998 -0.041080594 7.4659389e-39 331 273
0.014959441 0.71100003 -0.041138459 7.64997e-39 332 273
0.01620606 0.71100003 -0.041138459 7.64997e-39 333 273
0.017501773 0.713 -0.041254178 7.5584974e-39 334 273
0.018778199 0.71399999 -0.041312039 7.6506944e-39 335 273
0.020086186 0.71600002 -0.041427758 7.8343753e-39 336 273
0.021341572 0.71600002 -0.041427758 8.0191252e-39 337 273
0.02262852 0.71700001 -0.041485619 8.1120411e-39 338 273
0.023952285 0.71899998 -0.041601337 8.4808237e-39 339 273
0.025248 0.72000003 -0.041659199 1.0228247e-38 340 273
0.026584039 0.722 -0.041774917 1.2164355e-38 341 273
0.027849946 0.722 -0.041774917 1.2808671e-38 342 273
-0.044797666 0.73000002 -0.043517731 1.5666755e-38 285 274
-0.043398503 0.72799999 -0.043398503 1.5482008e-38 286 274
-0.041774917 0.722 -0.043040827 1.5482008e-38 287 274
-0.040509012 0.722 -0.043040827 1.502246e-38 288 274
-0.039134402 0.72000003 -0.042921603 1.4929906e-38 289 274
-0.037871998 0.72000003 -0.042921603 1.400899e-38 290 274
-0.036609601 0.72000003 -0.042921603 1.2165077e-38 291 274
-0.035347197 0.72000003 -0.042921603 1.0325071e-38 292 274
-0.03403746 0.71899998 -0.042861983 1.0325071e-38 293 274
-0.032685637 0.71700001 -0.042742759 9.7761966e-39 294 274
-0.031384666 0.71600002 -0.042683143 9.5914452e-39 295 274
-0.030045118 0.71399999 -0.042563915 9.5907263e-39 296 274
-0.028752912 0.713 -0.042504307 9.4985307e-39 297 274
-0.027425639 0.71100003 -0.042385083 9.3144897e-39 298 274
-0.026142199 0.70999998 -0.042325463 9.2222927e-39 299 274
-0.024897331 0.70999998 -0.042325463 9.0386217e-39 300 274
-0.023585839 0.708 -0.042206239 9.0386217e-39 301 274
-0.022344479 0.708 -0.042206239 8.9467862e-39 302 274
-0.021103119 0.708 -0.042206239 8.854592e-39 303 274
-0.01986176 0.708 -0.042206239 8.94571e-39 304 274
-0.018594101 0.70700002 -0.042146627 8.94571e-39 305 274
-0.017354494 0.70700002 -0.042146627 8.6702035e-39 306 274
-0.016114887 0.70700002 -0.042146627 8.5780093e-39 307 274
-0.014854239 0.70599997 -0.042087011 8.6691273e-39 308 274
-0.013616386 0.70599997 -0.042087011 8.5769331e-39 309 274
-0.012378532 0.70599997 -0.042087011 8.3932621e-39 310 274
-0.011140679 0.70599997 -0.042087011 8.3010679e-39 311 274
-0.0099028256 0.70599997 -0.042087011 8.2088737e-39 312 274
-0.0086649731 0.70599997 -0.042087011 8.2088737e-39 313 274
-0.0074271196 0.70599997 -0.042087011 8.2077975e-39 314 274
-0.0061892662 0.70599997 -0.042087011 8.1156032e-39 315 274
-0.0049514128 0.70599997 -0.042087011 8.0230503e-39 316 274
-0.0037135598 0.70599997 -0.042087011 7.9308561e-39 317 274
-0.0024686933 0.704 -0.041967787 8.0226915e-39 318 274
-0.0012343467 0.704 -0.041967787 7.9304973e-39 319 274
0 0.704 -0.041967787 7.6546321e-39 320 274
0.0012378532 0.70599997 -0.042087011 7.5624379e-39 321 274
0.0024757064 0.70599997 -0.042087011 7.5613617e-39 322 274
0.0037188199 0.70700002 -0.042146627 7.4691674e-39 323 274
0.0049584266 0.70700002 -0.042146627 7.5599267e-39 324 274
0.0061980332 0.70700002 -0.042146627 7.5599267e-39 325 274
0.0074481601 0.708 -0.042206239 7.4666563e-39 326 274
0.008689519 0.708 -0.042206239 7.4666563e-39 327 274
0.0099589331 0.70999998 -0.042325463 7.4659389e-39 328 274
0.011203799 0.70999998 -0.042325463 7.4659389e-39 329 274
0.012448666 0.70999998 -0.042325463 7.64997e-39 330 274
0.01371282 0.71100003 -0.042385083 7.4655801e-39 331 274
0.014959441 0.71100003 -0.042385083 7.4655801e-39 332 274
0.016251646 0.713 -0.042504307 7.7421656e-39 333 274
0.017526319 0.71399999 -0.042563915 7.7418097e-39 334 274
0.0188308 0.71600002 -0.042683143 7.9265611e-39 335 274
0.020086186 0.71600002 -0.042683143 7.9269268e-39 336 274
0.021371379 0.71700001 -0.042742759 8.0191224e-39 337 274
0.022691639 0.71899998 -0.042861983 8.1113209e-39 338 274
0.0239856 0.72000003 -0.042921603 9.0332786e-39 339 274
0.025248 0.72000003 -0.042921603 1.0595953e-38 340 274
0.026584039 0.722 -0.043040827 1.1979248e-38 341 274
0.027849946 0.722 -0.043040827 1.2347338e-38 342 274
-0.043398503 0.72799999 -0.044674929 1.5389811e-38 286 275
-0.041948501 0.72500002 -0.044490833 1.5297615e-38 287 275
-0.040509012 0.722 -0.044306733 1.5022107e-38 288 275
-0.039134402 0.72000003 -0.044183999 1.5114303e-38 289 275
-0.037871998 0.72000003 -0.044183999 1.4654734e-38 290 275
-0.036609601 0.72000003 -0.044183999 1.3179604e-38 291 275
-0.035347197 0.72000003 -0.044183999 1.1335999e-38 292 275
-0.03403746 0.71899998 -0.044122629 1.0598432e-38 293 275
-0.032685637 0.71700001 -0.043999899 9.9587858e-39 294 275
-0.031384666 0.71600002 -0.043938532 9.8665901e-39 295 275
-0.030045118 0.71399999 -0.043815799 9.7743945e-39 296 275
-0.028793238 0.71399999 -0.043815799 9.4981677e-39 297 275
-0.027502786 0.713 -0.043754432 9.4063224e-39 298 275
-0.026179021 0.71100003 -0.043631699 9.2215753e-39 299 275
-0.024897331 0.70999998 -0.043570329 9.038263e-39 300 275
-0.023652466 0.70999998 -0.043570329 8.9460688e-39 301 275
-0.022344479 0.708 -0.043447599 8.8542333e-39 302 275
-0.021103119 0.708 -0.043447599 8.6702035e-39 303 275
-0.01986176 0.708 -0.043447599 8.5783694e-39 304 275
-0.0186204 0.708 -0.043447599 8.4861738e-39 305 275
-0.017354494 0.70700002 -0.043386232 8.5780093e-39 306 275
-0.016114887 0.70700002 -0.043386232 8.4858151e-39 307 275
-0.01487528 0.70700002 -0.043386232 8.5769331e-39 308 275
-0.013635674 0.70700002 -0.043386232 8.5769331e-39 309 275
-0.012396066 0.70700002 -0.043386232 8.5769331e-39 310 275
-0.011156459 0.70700002 -0.043386232 8.3929034e-39 311 275
-0.0099168532 0.70700002 -0.043386232 8.3003504e-39 312 275
-0.0086649731 0.70599997 -0.043324865 8.2081562e-39 313 275
-0.0074271196 0.70599997 -0.043324865 8.1156032e-39 314 275
-0.0061892662 0.70599997 -0.043324865 8.1156032e-39 315 275
-0.0049514128 0.70599997 -0.043324865 8.0230503e-39 316 275
-0.0037135598 0.70599997 -0.043324865 7.9308561e-39 317 275
-0.0024757064 0.70599997 -0.043324865 7.9312148e-39 318 275
-0.0012378532 0.70599997 -0.043324865 7.7471851e-39 319 275
0 0.70599997 -0.043324865 7.6546321e-39 320 275
0.0012378532 0.70599997 -0.043324865 7.6546321e-39 321 275
0.0024757064 0.70599997 -0.043324865 7.5613617e-39 322 275
0.0037188199 0.70700002 -0.043386232 7.4691674e-39 323 275
0.0049584266 0.70700002 -0.043386232 7.559568e-39 324 275
0.0062067998 0.708 -0.043447599 7.4673738e-39 325 275
0.0074481601 0.708 -0.043447599 7.4666563e-39 326 275
0.0087140659 0.70999998 -0.043570329 7.3744621e-39 327 275
0.0099589331 0.70999998 -0.043570329 7.1907911e-39 328 275
0.011203799 0.70999998 -0.043570329 7.2833441e-39 329 275
0.0124662 0.71100003 -0.043631699 7.4666563e-39 330 275
0.01371282 0.71100003 -0.043631699 7.4666563e-39 331 275
0.015001519 0.713 -0.043754432 7.4655829e-39 332 275
0.016251646 0.713 -0.043754432 7.649614e-39 333 275
0.017526319 0.71399999 -0.043815799 7.6507001e-39 334 275
0.0188308 0.71600002 -0.043938532 7.8347312e-39 335 275
0.020114239 0.71700001 -0.043999899 7.9265737e-39 336 275
0.021430992 0.71899998 -0.044122629 7.9265737e-39 337 275
0.022723202 0.72000003 -0.044183999 8.1113349e-39 338 275
0.0239856 0.72000003 -0.044183999 9.4942693e-39 339 275
0.025318133 0.722 -0.044306733 1.105586e-38 340 275
0.026584039 0.722 -0.044306733 1.1701229e-38 341 275
-0.042064216 0.727 -0.045888241 1.520542e-38 287 276
-0.040677335 0.72500002 -0.045761999 1.4746243e-38 288 276
-0.039134402 0.72000003 -0.045446403 1.4838439e-38 289 276
-0.037871998 0.72000003 -0.045446403 1.4839145e-38 290 276
-0.03671129 0.722 -0.045572639 1.410158e-38 291 276
-0.035347197 0.72000003 -0.045446403 1.2533484e-38 292 276
-0.03403746 0.71899998 -0.045383278 1.1058354e-38 293 276
-0.032685637 0.71700001 -0.045257039 9.7736882e-39 294 276
-0.031384666 0.71600002 -0.045193922 9.8662426e-39 295 276
-0.030045118 0.71399999 -0.045067675 9.7740414e-39 296 276
-0.028793238 0.71399999 -0.045067675 9.405619e-39 297 276
-0.027502786 0.713 -0.045004558 9.4970817e-39 298 276
-0.026252659 0.713 -0.045004558 9.4970817e-39 299 276
-0.024932399 0.71100003 -0.044878319 9.129381e-39 300 276
-0.023685781 0.71100003 -0.044878319 9.129381e-39 301 276
-0.022407599 0.70999998 -0.044815198 8.6705623e-39 302 276
-0.021162732 0.70999998 -0.044815198 8.6705623e-39 303 276
-0.019917866 0.70999998 -0.044815198 8.6691273e-39 304 276
-0.018672999 0.70999998 -0.044815198 8.6691273e-39 305 276
-0.017379038 0.708 -0.044688959 8.6694861e-39 306 276
-0.01613768 0.708 -0.044688959 8.6694861e-39 307 276
-0.01489632 0.708 -0.044688959 8.6687686e-39 308 276
-0.013654959 0.708 -0.044688959 8.6687686e-39 309 276
-0.0124136 0.708 -0.044688959 8.5769331e-39 310 276
-0.01117224 0.708 -0.044688959 8.3929034e-39 311 276
-0.0099168532 0.70700002 -0.044625837 8.4836627e-39 312 276
-0.008677247 0.70700002 -0.044625837 8.3911097e-39 313 276
-0.0074376399 0.70700002 -0.044625837 8.3911097e-39 314 276
-0.0061980332 0.70700002 -0.044625837 8.20708e-39 315 276
-0.0049584266 0.70700002 -0.044625837 8.1148858e-39 316 276
-0.0037135598 0.70599997 -0.044562716 8.0226915e-39 317 276
-0.0024757064 0.70599997 -0.044562716 8.0226915e-39 318 276
-0.0012378532 0.70599997 -0.044562716 7.9301386e-39 319 276
0 0.70599997 -0.044562716 7.8379444e-39 320 276
0.0012396066 0.70700002 -0.044625837 7.7457501e-39 321 276
0.0024792133 0.70700002 -0.044625837 7.5610029e-39 322 276
0.00372408 0.708 -0.044688959 7.4688087e-39 323 276
0.0049654399 0.708 -0.044688959 7.6510476e-39 324 276
0.0062243328 0.70999998 -0.044815198 7.5588505e-39 325 276
0.0074691991 0.70999998 -0.044815198 7.2833441e-39 326 276
0.0087140659 0.70999998 -0.044815198 7.2833441e-39 327 276
0.0099589331 0.70999998 -0.044815198 7.1907911e-39 328 276
0.011203799 0.70999998 -0.044815198 7.2833441e-39 329 276
0.0124662 0.71100003 -0.044878319 7.466299e-39 330 276
0.013751393 0.713 -0.045004558 7.466299e-39 331 276
0.015001519 0.713 -0.045004558 7.4663046e-39 332 276
0.016274439 0.71399999 -0.045067675 7.5585016e-39 333 276
0.017575413 0.71600002 -0.045193922 7.6503441e-39 334 276
0.0188308 0.71600002 -0.045193922 7.8343753e-39 335 276
0.020114239 0.71700001 -0.045257039 7.8343781e-39 336 276
0.021430992 0.71899998 -0.045383278 7.9265737e-39 337 276
0.022723202 0.72000003 -0.045446403 8.5705208e-39 338 276
0.024052227 0.722 -0.045572639 1.0230041e-38 339 276
0.025318133 0.722 -0.045572639 1.1424655e-38 340 276
0.026584039 0.722 -0.045572639 1.151685e-38 341 276
-0.039134402 0.72000003 -0.0467088 1.4746243e-38 289 277
-0.037871998 0.72000003 -0.0467088 1.4746597e-38 290 277
-0.03671129 0.722 -0.046838548 1.4654401e-38 291 277
-0.035347197 0.72000003 -0.0467088 1.3548379e-38 292 277
-0.03403746 0.71899998 -0.046643924 1.1889216e-38 293 277
-0.032685637 0.71700001 -0.046514176 9.8644644e-39 294 277
-0.031384666 0.71600002 -0.046449307 9.8644644e-39 295 277
-0.03012928 0.71600002 -0.046449307 9.5907319e-39 296 277
-0.028793238 0.71399999 -0.046319555 9.4059819e-39 297 277
-0.027502786 0.713 -0.046254687 9.4056162e-39 298 277
-0.026252659 0.713 -0.046254687 9.2212235e-39 299 277
-0.024932399 0.71100003 -0.046124939 8.9457128e-39 300 277
-0.023685781 0.71100003 -0.046124939 8.9457128e-39 301 277
-0.022439159 0.71100003 -0.046124939 8.8535158e-39 302 277
-0.021192541 0.71100003 -0.046124939 8.8535158e-39 303 277
-0.01994592 0.71100003 -0.046124939 8.7616803e-39 304 277
-0.018672999 0.70999998 -0.046060063 8.6691273e-39 305 277
-0.017428132 0.70999998 -0.046060063 8.6691273e-39 306 277
-0.016183265 0.70999998 -0.046060063 8.6691273e-39 307 277
-0.014938398 0.70999998 -0.046060063 8.5769331e-39 308 277
-0.013693533 0.70999998 -0.046060063 8.5769331e-39 309 277
-0.012448666 0.70999998 -0.046060063 8.3925447e-39 310 277
-0.01117224 0.708 -0.045930319 8.3925447e-39 311 277
-0.0099308798 0.708 -0.045930319 8.2999917e-39 312 277
-0.008689519 0.708 -0.045930319 8.2999917e-39 313 277
-0.0074481601 0.708 -0.045930319 8.2077975e-39 314 277
-0.0062067998 0.708 -0.045930319 8.1156032e-39 315 277
-0.0049654399 0.708 -0.045930319 8.023409e-39 316 277
-0.00372408 0.708 -0.045930319 7.9312148e-39 317 277
-0.0024792133 0.70700002 -0.045865446 7.9304973e-39 318 277
-0.0012396066 0.70700002 -0.045865446 7.9304973e-39 319 277
0 0.70700002 -0.045865446 7.8379444e-39 320 277
0.0012396066 0.70700002 -0.045865446 7.7457501e-39 321 277
0.0024792133 0.70700002 -0.045865446 7.5610029e-39 322 277
0.0037345996 0.70999998 -0.046060063 7.4688087e-39 323 277
0.0049794666 0.70999998 -0.046060063 7.5588505e-39 324 277
0.0062243328 0.70999998 -0.046060063 7.4666563e-39 325 277
0.0074691991 0.70999998 -0.046060063 7.1907911e-39 326 277
0.0087263398 0.71100003 -0.046124939 7.1907911e-39 327 277
0.0099729598 0.71100003 -0.046124939 7.19151e-39 328 277
0.01121958 0.71100003 -0.046124939 7.0993143e-39 329 277
0.012501267 0.713 -0.046254687 7.3741062e-39 330 277
0.01377068 0.71399999 -0.046319555 7.4663018e-39 331 277
0.015022559 0.71399999 -0.046319555 7.4663046e-39 332 277
0.016320027 0.71600002 -0.046449307 7.5585016e-39 333 277
0.017575413 0.71600002 -0.046449307 7.5581485e-39 334 277
0.018857099 0.71700001 -0.046514176 7.6503441e-39 335 277
0.020170346 0.71899998 -0.046643924 7.649991e-39 336 277
0.021460801 0.72000003 -0.0467088 8.4797503e-39 337 277
0.022786319 0.722 -0.046838548 9.7665584e-39 338 277
0.024052227 0.722 -0.046838548 1.0781071e-38 339 277
0.025353199 0.72299999 -0.046903417 1.1333188e-38 340 277
-0.034281172 0.75199997 -0.050103247 1.1060503e-38 294 278
-0.031428497 0.71700001 -0.04777132 1.0230741e-38 295 278
-0.03012928 0.71600002 -0.047704693 9.6818457e-39 296 278
-0.028873893 0.71600002 -0.047704693 9.4978146e-39 297 278
-0.02754136 0.71399999 -0.047571439 9.405619e-39 298 278
-0.026289478 0.71399999 -0.047571439 9.2208676e-39 299 278
-0.025037598 0.71399999 -0.047571439 8.9457128e-39 300 278
-0.02378572 0.71399999 -0.047571439 8.9457128e-39 301 278
-0.022502279 0.713 -0.047504812 8.9460688e-39 302 278
-0.021252153 0.713 -0.047504812 8.8535158e-39 303 278
-0.020002026 0.713 -0.047504812 8.7616803e-39 304 278
-0.0186993 0.71100003 -0.047371563 8.6691273e-39 305 278
-0.01745268 0.71100003 -0.047371563 8.4858151e-39 306 278
-0.01620606 0.71100003 -0.047371563 8.4858151e-39 307 278
-0.014938398 0.70999998 -0.047304932 8.6684099e-39 308 278
-0.013693533 0.70999998 -0.047304932 8.6684099e-39 309 278
-0.012448666 0.70999998 -0.047304932 8.3925447e-39 310 278
-0.011203799 0.70999998 -0.047304932 8.3003504e-39 311 278
-0.0099589331 0.70999998 -0.047304932 8.4836627e-39 312 278
-0.0087140659 0.70999998 -0.047304932 8.4836627e-39 313 278
-0.0074691991 0.70999998 -0.047304932 8.4836627e-39 314 278
-0.0062243328 0.70999998 -0.047304932 8.2074387e-39 315 278
-0.0049794666 0.70999998 -0.047304932 8.1152445e-39 316 278
-0.00372408 0.708 -0.047171678 8.0230503e-39 317 278
-0.00248272 0.708 -0.047171678 7.9304973e-39 318 278
-0.00124136 0.708 -0.047171678 7.9304973e-39 319 278
0 0.708 -0.047171678 7.6546321e-39 320 278
0.00124136 0.708 -0.047171678 7.6546321e-39 321 278
0.0024897333 0.70999998 -0.047304932 7.7443152e-39 322 278
0.0037345996 0.70999998 -0.047304932 7.652121e-39 323 278
0.0049794666 0.70999998 -0.047304932 7.5588505e-39 324 278
0.0062330998 0.71100003 -0.047371563 7.4666563e-39 325 278
0.0074797203 0.71100003 -0.047371563 7.1907911e-39 326 278
0.0087263398 0.71100003 -0.047371563 7.1907911e-39 327 278
0.0099729598 0.71100003 -0.047371563 7.19151e-39 328 278
0.01121958 0.71100003 -0.047371563 7.0993143e-39 329 278
0.012501267 0.713 -0.047504812 7.1907911e-39 330 278
0.01377068 0.71399999 -0.047571439 7.1907911e-39 331 278
0.01506464 0.71600002 -0.047704693 7.2826336e-39 332 278
0.016320027 0.71600002 -0.047704693 7.4670249e-39 333 278
0.017599959 0.71700001 -0.04777132 7.2830063e-39 334 278
0.018857099 0.71700001 -0.04777132 7.375202e-39 335 278
0.020170346 0.71899998 -0.04790457 7.5592457e-39 336 278
0.021460801 0.72000003 -0.0479712 8.5730389e-39 337 278
0.022786319 0.722 -0.048104454 1.0320818e-38 338 278
0.024052227 0.722 -0.048104454 1.0689241e-38 339 278
-0.03012928 0.71600002 -0.048960082 9.6818738e-39 296 279
-0.028873893 0.71600002 -0.048960082 9.6818738e-39 297 279
-0.027618507 0.71600002 -0.048960082 9.2219634e-39 298 279
-0.026363119 0.71600002 -0.048960082 9.0375722e-39 299 279
-0.025107734 0.71600002 -0.048960082 8.9460786e-39 300 279
-0.023852346 0.71600002 -0.048960082 8.9460786e-39 301 279
-0.022533838 0.71399999 -0.048823316 8.94571e-39 302 279
-0.021281958 0.71399999 -0.048823316 8.8535158e-39 303 279
-0.020030079 0.71399999 -0.048823316 8.7613216e-39 304 279
-0.018751899 0.713 -0.048754938 8.7613216e-39 305 279
-0.017501773 0.713 -0.048754938 8.5780093e-39 306 279
-0.01620606 0.71100003 -0.048618179 8.4854564e-39 307 279
-0.014959441 0.71100003 -0.048618179 8.5769331e-39 308 279
-0.01371282 0.71100003 -0.048618179 8.3929034e-39 309 279
-0.0124662 0.71100003 -0.048618179 8.3925447e-39 310 279
-0.011203799 0.70999998 -0.048549797 8.3003504e-39 311 279
-0.0099589331 0.70999998 -0.048549797 8.3003504e-39 312 279
-0.0087140659 0.70999998 -0.048549797 8.3003504e-39 313 279
-0.0074691991 0.70999998 -0.048549797 8.2077975e-39 314 279
-0.0062243328 0.70999998 -0.048549797 8.2077975e-39 315 279
-0.0049794666 0.70999998 -0.048549797 7.932291e-39 316 279
-0.0037345996 0.70999998 -0.048549797 7.7479025e-39 317 279
-0.0024897333 0.70999998 -0.048549797 7.9312148e-39 318 279
-0.0012448666 0.70999998 -0.048549797 7.6549908e-39 319 279
0 0.70999998 -0.048549797 7.6549908e-39 320 279
0.0012448666 0.70999998 -0.048549797 7.4706024e-39 321 279
0.0024932399 0.71100003 -0.048618179 7.4691674e-39 322 279
0.0037398601 0.71100003 -0.048618179 7.3769732e-39 323 279
0.0049864799 0.71100003 -0.048618179 7.467015e-39 324 279
0.0062330998 0.71100003 -0.048618179 7.467015e-39 325 279
0.0074797203 0.71100003 -0.048618179 7.1911498e-39 326 279
0.0087263398 0.71100003 -0.048618179 7.1911498e-39 327 279
0.0099729598 0.71100003 -0.048618179 7.1907911e-39 328 279
0.011251139 0.713 -0.048754938 7.1907911e-39 329 279
0.012518799 0.71399999 -0.048823316 7.1907939e-39 330 279
0.013809253 0.71600002 -0.048960082 7.2829895e-39 331 279
0.015085679 0.71700001 -0.04902846 7.4659487e-39 332 279
0.016342819 0.71700001 -0.04902846 7.4659487e-39 333 279
0.017599959 0.71700001 -0.04902846 7.2826504e-39 334 279
0.018909698 0.71899998 -0.049165215 7.4674004e-39 335 279
0.020198401 0.72000003 -0.0492336 8.110637e-39 336 279
0.021520413 0.722 -0.04937036 9.0325933e-39 337 279
0.022786319 0.722 -0.04937036 9.8609247e-39 338 279
-0.027618507 0.71600002 -0.050215468 9.0379281e-39 298 280
-0.026363119 0.71600002 -0.050215468 9.0379281e-39 299 280
-0.025107734 0.71600002 -0.050215468 9.0375581e-39 300 280
-0.023852346 0.71600002 -0.050215468 8.9453625e-39 301 280
-0.022596961 0.71600002 -0.050215468 8.8535172e-39 302 280
-0.021341572 0.71600002 -0.050215468 8.7609628e-39 303 280
-0.020086186 0.71600002 -0.050215468 8.4854564e-39 304 280
-0.018778199 0.71399999 -0.050075196 8.4854564e-39 305 280
-0.017526319 0.71399999 -0.050075196 8.4854564e-39 306 280
-0.016251646 0.713 -0.050005067 8.3932621e-39 307 280
-0.014959441 0.71100003 -0.049864799 8.5765744e-39 308 280
-0.01371282 0.71100003 -0.049864799 8.3925447e-39 309 280
-0.0124662 0.71100003 -0.049864799 8.3003504e-39 310 280
-0.01121958 0.71100003 -0.049864799 8.3003504e-39 311 280
-0.0099729598 0.71100003 -0.049864799 8.2999917e-39 312 280
-0.0087263398 0.71100003 -0.049864799 8.2077975e-39 313 280
-0.0074797203 0.71100003 -0.049864799 8.1156032e-39 314 280
-0.0062330998 0.71100003 -0.049864799 8.1156032e-39 315 280
-0.0049864799 0.71100003 -0.049864799 8.023409e-39 316 280
-0.0037398601 0.71100003 -0.049864799 7.9312148e-39 317 280
-0.0024932399 0.71100003 -0.049864799 7.7471851e-39 318 280
-0.00124662 0.71100003 -0.049864799 7.6549908e-39 319 280
0 0.71100003 -0.049864799 7.5624379e-39 320 280
0.00124662 0.71100003 -0.049864799 7.4702436e-39 321 280
0.0024932399 0.71100003 -0.049864799 7.4695262e-39 322 280
0.0037398601 0.71100003 -0.049864799 7.3773319e-39 323 280
0.0049864799 0.71100003 -0.049864799 7.2837028e-39 324 280
0.0062506334 0.713 -0.050005067 7.0993143e-39 325 280
0.0075007593 0.713 -0.050005067 7.0071201e-39 326 280
0.0087508867 0.713 -0.050005067 7.0071201e-39 327 280
0.010001013 0.713 -0.050005067 7.0067656e-39 328 280
0.011266919 0.71399999 -0.050075196 7.0989612e-39 329 280
0.012553867 0.71600002 -0.050215468 6.9156517e-39 330 280
0.013828539 0.71700001 -0.0502856 6.9156517e-39 331 280
0.01512776 0.71899998 -0.050425861 6.9149427e-39 332 280
0.016388407 0.71899998 -0.050425861 6.9149427e-39 333 280
0.017649053 0.71899998 -0.050425861 7.0075139e-39 334 280
-0.025107734 0.71600002 -0.051470853 8.9453723e-39 300 281
-0.023852346 0.71600002 -0.051470853 8.8531767e-39 301 281
-0.022596961 0.71600002 -0.051470853 8.7606125e-39 302 281
-0.021341572 0.71600002 -0.051470853 8.7606125e-39 303 281
-0.020086186 0.71600002 -0.051470853 8.3936223e-39 304 281
-0.0188308 0.71600002 -0.051470853 8.3936223e-39 305 281
-0.017575413 0.71600002 -0.051470853 8.3932621e-39 306 281
-0.016274439 0.71399999 -0.05132708 8.3932621e-39 307 281
-0.015001519 0.713 -0.051255193 8.5765744e-39 308 281
-0.013751393 0.713 -0.051255193 8.3925447e-39 309 281
-0.012501267 0.713 -0.051255193 8.2081562e-39 310 281
-0.01121958 0.71100003 -0.051111419 8.2081562e-39 311 281
-0.0099729598 0.71100003 -0.051111419 8.2074387e-39 312 281
-0.0087263398 0.71100003 -0.051111419 8.3914685e-39 313 281
-0.0074797203 0.71100003 -0.051111419 8.1156032e-39 314 281
-0.0062330998 0.71100003 -0.051111419 8.0230503e-39 315 281
-0.0049864799 0.71100003 -0.051111419 7.839738e-39 316 281
-0.0037398601 0.71100003 -0.051111419 7.7475438e-39 317 281
-0.0025002533 0.713 -0.051255193 7.7464676e-39 318 281
-0.0012501266 0.713 -0.051255193 7.4695262e-39 319 281
0 0.713 -0.051255193 7.3776907e-39 320 281
0.0012501266 0.713 -0.051255193 7.2854965e-39 321 281
0.0025002533 0.713 -0.051255193 7.284779e-39 322 281
0.0037503797 0.713 -0.051255193 7.1925848e-39 323 281
0.0050005065 0.713 -0.051255193 7.0996731e-39 324 281
0.0062506334 0.713 -0.051255193 7.0074788e-39 325 281
0.0075007593 0.713 -0.051255193 7.0074788e-39 326 281
0.0087508867 0.713 -0.051255193 7.0074788e-39 327 281
0.010001013 0.713 -0.051255193 6.8238078e-39 328 281
0.011266919 0.71399999 -0.05132708 6.8238078e-39 329 281
0.0125714 0.71700001 -0.051542737 6.9152958e-39 330 281
0.013867113 0.71899998 -0.05168651 6.9152958e-39 331 281
0.01512776 0.71899998 -0.05168651 6.7312801e-39 332 281
0.0164112 0.72000003 -0.051758397 6.7312801e-39 333 281
-0.025107734 0.71600002 -0.052726239 8.9461024e-39 300 282
-0.023852346 0.71600002 -0.052726239 8.4851228e-39 301 282
-0.02262852 0.71700001 -0.052799881 8.5769471e-39 302 282
-0.021371379 0.71700001 -0.052799881 8.5769471e-39 303 282
-0.020114239 0.71700001 -0.052799881 8.1177668e-39 304 282
-0.018857099 0.71700001 -0.052799881 8.1177668e-39 305 282
-0.017599959 0.71700001 -0.052799881 8.3925531e-39 306 282
-0.016320027 0.71600002 -0.052726239 8.3925531e-39 307 282
-0.015022559 0.71399999 -0.052578956 8.3921887e-39 308 282
-0.01377068 0.71399999 -0.052578956 8.2999931e-39 309 282
-0.012501267 0.713 -0.052505318 8.1152445e-39 310 282
-0.011251139 0.713 -0.052505318 8.1152445e-39 311 282
-0.010001013 0.713 -0.052505318 8.1152445e-39 312 282
-0.0087508867 0.713 -0.052505318 8.1152445e-39 313 282
-0.0075007593 0.713 -0.052505318 8.0230503e-39 314 282
-0.0062506334 0.713 -0.052505318 7.9308561e-39 315 282
-0.0050005065 0.713 -0.052505318 7.7471851e-39 316 282
-0.0037503797 0.713 -0.052505318 7.6549908e-39 317 282
-0.0025002533 0.713 -0.052505318 7.8375856e-39 318 282
-0.0012501266 0.713 -0.052505318 7.7453914e-39 319 282
0 0.71399999 -0.052578956 7.3766145e-39 320 282
0.00125188 0.71399999 -0.052578956 7.2844203e-39 321 282
0.0025037599 0.71399999 -0.052578956 7.101108e-39 322 282
0.0037556398 0.71399999 -0.052578956 7.008555e-39 323 282
0.0050075199 0.71399999 -0.052578956 6.9160021e-39 324 282
0.0062593995 0.71399999 -0.052578956 6.8238078e-39 325 282
0.0075112795 0.71399999 -0.052578956 6.8238078e-39 326 282
0.0087508867 0.713 -0.052505318 6.8238078e-39 327 282
0.010001013 0.713 -0.052505318 6.6401383e-39 328 282
0.011266919 0.71399999 -0.052578956 6.5479426e-39 329 282
0.012518799 0.71399999 -0.052578956 6.4546876e-39 330 282
0.013924973 0.722 -0.053168077 6.4546876e-39 331 282
0.015190879 0.722 -0.053168077 6.637302e-39 332 282
-0.023952285 0.71899998 -0.054207806 8.7610259e-39 301 283
-0.022691639 0.71899998 -0.054207806 8.9443031e-39 302 283
-0.021430992 0.71899998 -0.054207806 8.5755206e-39 303 283
-0.020170346 0.71899998 -0.054207806 8.2078101e-39 304 283
-0.018857099 0.71700001 -0.054057021 8.3000057e-39 305 283
-0.017599959 0.71700001 -0.054057021 8.2078073e-39 306 283
-0.016342819 0.71700001 -0.054057021 8.2078073e-39 307 283
-0.01506464 0.71600002 -0.053981625 8.2070912e-39 308 283
-0.013809253 0.71600002 -0.053981625 8.1148956e-39 309 283
-0.012518799 0.71399999 -0.053830836 7.9315805e-39 310 283
-0.011266919 0.71399999 -0.053830836 7.9315805e-39 311 283
-0.01001504 0.71399999 -0.053830836 7.9319336e-39 312 283
-0.0087631596 0.71399999 -0.053830836 7.839738e-39 313 283
-0.0075112795 0.71399999 -0.053830836 7.7475438e-39 314 283
-0.0062593995 0.71399999 -0.053830836 7.6553496e-39 315 283
-0.0050075199 0.71399999 -0.053830836 7.6553496e-39 316 283
-0.0037556398 0.71399999 -0.053830836 7.5627966e-39 317 283
-0.0025037599 0.71399999 -0.053830836 7.5620791e-39 318 283
-0.00125188 0.71399999 -0.053830836 7.4695262e-39 319 283
0 0.71399999 -0.053830836 7.2851377e-39 320 283
0.00125188 0.71399999 -0.053830836 7.008555e-39 321 283
0.0025107733 0.71600002 -0.053981625 7.008555e-39 322 283
0.0037556398 0.71399999 -0.053830836 6.9160021e-39 323 283
0.0050075199 0.71399999 -0.053830836 6.8234533e-39 324 283
0.0062769335 0.71600002 -0.053981625 6.7312577e-39 325 283
0.00753232 0.71600002 -0.053981625 6.7309018e-39 326 283
0.0087631596 0.71399999 -0.053830836 6.7309018e-39 327 283
0.01001504 0.71399999 -0.053830836 6.4550407e-39 328 283
0.011266919 0.71399999 -0.053830836 6.3628451e-39 329 283
-0.022691639 0.71899998 -0.055468451 9.221281e-39 302 284
-0.021430992 0.71899998 -0.055468451 8.4837159e-39 303 284
-0.020170346 0.71899998 -0.055468451 7.7479334e-39 304 284
-0.018857099 0.71700001 -0.055314157 7.7479334e-39 305 284
-0.017599959 0.71700001 -0.055314157 7.8401262e-39 306 284
-0.016388407 0.71899998 -0.055468451 7.6557349e-39 307 284
-0.015085679 0.71700001 -0.055314157 7.8394003e-39 308 284
-0.013828539 0.71700001 -0.055314157 7.7472047e-39 309 284
-0.012553867 0.71600002 -0.055237014 7.5635239e-39 310 284
-0.01129848 0.71600002 -0.055237014 7.747555e-39 311 284
-0.010043093 0.71600002 -0.055237014 7.5638742e-39 312 284
-0.0087999795 0.71700001 -0.055314157 7.5638742e-39 313 284
-0.00753232 0.71600002 -0.055237014 7.4716786e-39 314 284
-0.0062769335 0.71600002 -0.055237014 7.3794843e-39 315 284
-0.0050215465 0.71600002 -0.055237014 7.2869314e-39 316 284
-0.00376616 0.71600002 -0.055237014 7.1947372e-39 317 284
-0.0025107733 0.71600002 -0.055237014 7.1025429e-39 318 284
-0.0012553866 0.71600002 -0.055237014 7.1025429e-39 319 284
0 0.71600002 -0.055237014 7.0092725e-39 320 284
0.00125714 0.71700001 -0.055314157 6.7330485e-39 321 284
0.0025142799 0.71700001 -0.055314157 6.8238078e-39 322 284
0.00376616 0.71600002 -0.055237014 6.7312549e-39 323 284
0.0050215465 0.71600002 -0.055237014 6.6387061e-39 324 284
0.0062769335 0.71600002 -0.055237014 6.6387061e-39 325 284
0.00753232 0.71600002 -0.055237014 6.3621276e-39 326 284
0.0087877065 0.71600002 -0.055237014 6.3621276e-39 327 284
-0.017649053 0.71899998 -0.056729097 8.2067563e-39 306 285
-0.016388407 0.71899998 -0.056729097 8.0227252e-39 307 285
-0.015085679 0.71700001 -0.056571297 7.8386786e-39 308 285
-0.013828539 0.71700001 -0.056571297 7.746483e-39 309 285
-0.0125714 0.71700001 -0.056571297 7.3791382e-39 310 285
-0.01131426 0.71700001 -0.056571297 7.3791382e-39 311 285
-0.01005712 0.71700001 -0.056571297 7.1951071e-39 312 285
-0.0087999795 0.71700001 -0.056571297 7.1951071e-39 313 285
-0.0075638802 0.71899998 -0.056729097 7.010713e-39 314 285
-0.0063032326 0.71899998 -0.056729097 7.010713e-39 315 285
-0.0050285598 0.71700001 -0.056571297 7.010713e-39 316 285
-0.0037714199 0.71700001 -0.056571297 6.9185174e-39 317 285
-0.0025142799 0.71700001 -0.056571297 6.8263218e-39 318 285
-0.00125714 0.71700001 -0.056571297 6.7341247e-39 319 285
0 0.71700001 -0.056571297 6.6408543e-39 320 285
0.00125714 0.71700001 -0.056571297 6.5486601e-39 321 285
0.0025142799 0.71700001 -0.056571297 6.5475867e-39 322 285
0.0037714199 0.71700001 -0.056571297 6.4553911e-39 323 285
0.0050285598 0.71700001 -0.056571297 6.3628479e-39 324 285
0.0062857 0.71700001 -0.056571297 6.086261e-39 325 285
0.0075428397 0.71700001 -0.056571297 5.9933647e-39 326 285
0.0089718066 0.73100001 -0.057675898 5.7164191e-39 327 285
-0.0151488 0.72000003 -0.058070403 7.7472467e-39 308 286
-0.0138864 0.72000003 -0.058070403 7.654691e-39 309 286
-0.012624 0.72000003 -0.058070403 7.011111e-39 310 286
-0.011361601 0.72000003 -0.058070403 6.734164e-39 311 286
-0.010099201 0.72000003 -0.058070403 6.7337982e-39 312 286
-0.0088367993 0.72000003 -0.058070403 6.9178294e-39 313 286
-0.0075743999 0.72000003 -0.058070403 7.0096621e-39 314 286
-0.0063120001 0.72000003 -0.058070403 6.9174664e-39 315 286
-0.0050496003 0.72000003 -0.058070403 6.8252652e-39 316 286
-0.0037819401 0.71899998 -0.057989739 6.7330696e-39 317 286
-0.0025142799 0.71700001 -0.057828441 6.8249023e-39 318 286
-0.00125714 0.71700001 -0.057828441 6.6401509e-39 319 286
0 0.71700001 -0.057828441 6.5479552e-39 320 286
0.0012624001 0.72000003 -0.058070403 6.2717285e-39 321 286
0.0025248001 0.72000003 -0.058070403 6.362492e-39 322 286
0.0037714199 0.71700001 -0.057828441 6.0862638e-39 323 286
0.0050285598 0.71700001 -0.057828441 5.9919298e-39 324 286
0.0063821329 0.72799999 -0.058715623 5.623506e-39 325 286
-0.013982833 0.72500002 -0.059744831 7.9323821e-39 309 287
-0.012711667 0.72500002 -0.059744831 8.5734046e-39 310 287
-0.01140894 0.72299999 -0.059580017 8.1127852e-39 311 287
-0.01014128 0.72299999 -0.059580017 8.0205742e-39 312 287
-0.0088736191 0.72299999 -0.059580017 7.9280198e-39 313 287
-0.0076059597 0.72299999 -0.059580017 7.6525105e-39 314 287
-0.0063295332 0.722 -0.059497613 7.4681193e-39 315 287
-0.0050496003 0.72000003 -0.059332799 7.1007759e-39 316 287
