# .PCD v.7 - Point Cloud Data file format
FIELDS x y z rgb imX imY
SIZE 4 4 4 4 4 4
TYPE F F F F F F
COUNT 1 1 1 1 1 1
WIDTH 855
HEIGHT 1
VIEWPOINT 0 0 0 1 0 0 0
POINTS 855
DATA ascii
0.031293493 0.77600002 0.032654081 8.0209399e-39 343 216
0.032654081 0.77600002 0.032654081 9.961409e-39 344 216
-0.027457198 0.78299999 0.031575777 1.2081864e-38 300 217
-0.026017714 0.78100002 0.031495128 9.3159947e-39 301 217
-0.024648361 0.78100002 0.031495128 9.3213253e-39 302 217
-0.023249198 0.77999997 0.031454798 9.9666947e-39 303 217
-0.021881599 0.77999997 0.031454798 1.0242543e-38 304 217
-0.020513998 0.77999997 0.031454798 9.7815663e-39 305 217
-0.0191464 0.77999997 0.031454798 9.8730333e-39 306 217
-0.017733213 0.778 0.031374145 9.6882861e-39 307 217
-0.016369121 0.778 0.031374145 9.8712396e-39 308 217
-0.015005025 0.778 0.031374145 1.0148181e-38 309 217
-0.013640933 0.778 0.031374145 1.0241093e-38 310 217
-0.012276839 0.778 0.031374145 9.9641513e-39 311 217
-0.010940799 0.77999997 0.031454798 1.0146029e-38 312 217
-0.0095731998 0.77999997 0.031454798 9.9616402e-39 313 217
-0.0082055992 0.77999997 0.031454798 9.5024627e-39 314 217
-0.0068379994 0.77999997 0.031454798 9.5024627e-39 315 217
-0.0054703997 0.77999997 0.031454798 8.9507505e-39 316 217
-0.0041027996 0.77999997 0.031454798 8.4897738e-39 317 217
-0.0027351999 0.77999997 0.031454798 8.3997613e-39 318 217
-0.0013675999 0.77999997 0.031454798 9.5061089e-39 319 217
0 0.77600002 0.031293493 9.2338408e-39 320 217
0.0013605866 0.77600002 0.031293493 9.3260364e-39 321 217
0.0027211732 0.77600002 0.031293493 9.6007876e-39 322 217
0.0040817601 0.77600002 0.031293493 9.3238406e-39 323 217
0.0054283198 0.77399999 0.031212838 9.323814e-39 324 217
0.0067853997 0.77399999 0.031212838 9.2316198e-39 325 217
0.0081424797 0.77399999 0.031212838 9.5071262e-39 326 217
0.0094872871 0.773 0.03117251 9.691156e-39 327 217
0.010842613 0.773 0.03117251 1.0241093e-38 328 217
0.012197939 0.773 0.03117251 1.0241093e-38 329 217
0.013553266 0.773 0.03117251 1.0424046e-38 330 217
0.01487002 0.77100003 0.031091858 1.0700988e-38 331 217
0.016221842 0.77100003 0.031091858 1.1528595e-38 332 217
0.01757366 0.77100003 0.031091858 1.1528595e-38 333 217
0.018925481 0.77100003 0.031091858 1.1706873e-38 334 217
0.020277301 0.77100003 0.031091858 1.1522485e-38 335 217
0.021685226 0.773 0.03117251 1.0694889e-38 336 217
0.023040552 0.773 0.03117251 1.0510501e-38 337 217
0.024395877 0.773 0.03117251 1.0142098e-38 338 217
0.025784519 0.77399999 0.031212838 1.0049902e-38 339 217
0.027141599 0.77399999 0.031212838 9.773691e-39 340 217
0.028498679 0.77399999 0.031212838 9.4049099e-39 341 217
0.029855758 0.77399999 0.031212838 9.2180188e-39 342 217
0.031293493 0.77600002 0.031293493 8.2038668e-39 343 217
0.032654081 0.77600002 0.031293493 8.5766571e-39 344 217
-0.028756421 0.78100002 0.030125774 1.1986842e-38 299 218
-0.027387068 0.78100002 0.030125774 9.6883548e-39 300 218
-0.025984399 0.77999997 0.030087199 9.2270165e-39 301 218
-0.024616797 0.77999997 0.030087199 1.0149644e-38 302 218
-0.023189586 0.778 0.03001005 1.0334037e-38 303 218
-0.021825492 0.778 0.03001005 1.0059225e-38 304 218
-0.020461399 0.778 0.03001005 9.5060515e-39 305 218
-0.019097306 0.778 0.03001005 9.6886448e-39 306 218
-0.017733213 0.778 0.03001005 9.5964506e-39 307 218
-0.016369121 0.778 0.03001005 9.9634339e-39 308 218
-0.015005025 0.778 0.03001005 1.0240375e-38 309 218
-0.013640933 0.778 0.03001005 1.0423329e-38 310 218
-0.012276839 0.778 0.03001005 9.9627164e-39 311 218
-0.010940799 0.77999997 0.030087199 9.685775e-39 312 218
-0.0095731998 0.77999997 0.030087199 9.5010278e-39 313 218
-0.0082055992 0.77999997 0.030087199 8.7667026e-39 314 218
-0.0068379994 0.77999997 0.030087199 8.6745083e-39 315 218
-0.0054703997 0.77999997 0.030087199 8.305014e-39 316 218
-0.0041027996 0.77999997 0.030087199 8.0280725e-39 317 218
-0.0027351999 0.77999997 0.030087199 7.6654389e-39 318 218
-0.0013675999 0.77999997 0.030087199 8.9561777e-39 319 218
0 0.778 0.03001005 9.2349394e-39 320 218
0.0013605866 0.77600002 0.029932907 9.1423837e-39 321 218
0.0027211732 0.77600002 0.029932907 9.5096892e-39 322 218
0.0040817601 0.77600002 0.029932907 9.1405466e-39 323 218
0.0054283198 0.77399999 0.029855758 9.3231063e-39 324 218
0.0067853997 0.77399999 0.029855758 9.1387137e-39 325 218
0.0081424797 0.77399999 0.029855758 9.6900798e-39 326 218
0.0094872871 0.773 0.029817186 9.6900798e-39 327 218
0.01081456 0.77100003 0.029740039 9.9655863e-39 328 218
0.01216638 0.77100003 0.029740039 9.873392e-39 329 218
0.013518199 0.77100003 0.029740039 1.0423688e-38 330 218
0.01487002 0.77100003 0.029740039 1.0423688e-38 331 218
0.016221842 0.77100003 0.029740039 1.1714058e-38 332 218
0.01757366 0.77100003 0.029740039 1.1806255e-38 333 218
0.018925481 0.77100003 0.029740039 1.1892338e-38 334 218
0.020277301 0.77100003 0.029740039 1.1339173e-38 335 218
0.021629119 0.77100003 0.029740039 1.0694889e-38 336 218
0.02298094 0.77100003 0.029740039 1.0418307e-38 337 218
0.024395877 0.773 0.029817186 9.8665901e-39 338 218
0.025751207 0.773 0.029817186 9.8665901e-39 339 218
0.027106533 0.773 0.029817186 9.590376e-39 340 218
0.028498679 0.77399999 0.029855758 9.4059847e-39 341 218
0.029855758 0.77399999 0.029855758 9.2194509e-39 342 218
0.031293493 0.77600002 0.029932907 8.5740815e-39 343 218
0.032654081 0.77600002 0.029932907 7.5603345e-39 344 218
0.034014668 0.77600002 0.029932907 9.3120515e-39 345 218
-0.028756421 0.78100002 0.028756421 1.0330182e-38 299 219
-0.027387068 0.78100002 0.028756421 9.4117651e-39 300 219
-0.025984399 0.77999997 0.028719598 9.8727418e-39 301 219
-0.024616797 0.77999997 0.028719598 1.0333684e-38 302 219
-0.023189586 0.778 0.028645959 1.0333684e-38 303 219
-0.021825492 0.778 0.028645959 1.0333646e-38 304 219
-0.020461399 0.778 0.028645959 1.0057063e-38 305 219
-0.019097306 0.778 0.028645959 9.6886448e-39 306 219
-0.017687626 0.77600002 0.028572321 9.6886448e-39 307 219
-0.01632704 0.77600002 0.028572321 1.0055628e-38 308 219
-0.015005025 0.778 0.028645959 1.0148181e-38 309 219
-0.013640933 0.778 0.028645959 1.0697042e-38 310 219
-0.012276839 0.778 0.028645959 1.0328265e-38 311 219
-0.010912746 0.778 0.028645959 9.6843401e-39 312 219
-0.0095731998 0.77999997 0.028719598 9.4077574e-39 313 219
-0.0082055992 0.77999997 0.028719598 8.4894024e-39 314 219
-0.0068379994 0.77999997 0.028719598 8.2128197e-39 315 219
-0.0054703997 0.77999997 0.028719598 7.6600131e-39 316 219
-0.0041027996 0.77999997 0.028719598 7.4756246e-39 317 219
-0.0027351999 0.77999997 0.028719598 7.204465e-39 318 219
-0.0013675999 0.77999997 0.028719598 8.9561805e-39 319 219
0 0.778 0.028645959 9.3246267e-39 320 219
0.0013640933 0.778 0.028645959 9.0480399e-39 321 219
0.0027211732 0.77600002 0.028572321 9.1398459e-39 322 219
0.0040817601 0.77600002 0.028572321 8.7710648e-39 323 219
0.0054283198 0.77399999 0.028498679 8.7706696e-39 324 219
0.0067766332 0.773 0.028461859 8.8628653e-39 325 219
0.0081319595 0.773 0.028461859 9.1394255e-39 326 219
0.0094627403 0.77100003 0.028388219 9.0468726e-39 327 219
0.01081456 0.77100003 0.028388219 9.7801216e-39 328 219
0.012134819 0.76899999 0.028314579 9.6879274e-39 329 219
0.013483133 0.76899999 0.028314579 9.7801216e-39 330 219
0.01487002 0.77100003 0.028388219 9.9641513e-39 331 219
0.016179759 0.76899999 0.028314579 1.189702e-38 332 219
0.017528072 0.76899999 0.028314579 1.2542389e-38 333 219
0.018925481 0.77100003 0.028388219 1.2166774e-38 334 219
0.020277301 0.77100003 0.028388219 1.1890187e-38 335 219
0.021629119 0.77100003 0.028388219 1.0603771e-38 336 219
0.02298094 0.77100003 0.028388219 1.0234994e-38 337 219
0.02433276 0.77100003 0.028388219 9.6832751e-39 338 219
0.025751207 0.773 0.028461859 9.6832751e-39 339 219
0.027106533 0.773 0.028461859 9.4992524e-39 340 219
0.028498679 0.77399999 0.028498679 9.2226669e-39 341 219
0.029855758 0.77399999 0.028498679 9.6786214e-39 342 219
0.031212838 0.77399999 0.028498679 9.310199e-39 343 219
0.032654081 0.77600002 0.028572321 7.8347536e-39 344 219
0.034102332 0.778 0.028645959 8.1109818e-39 345 219
-0.031656433 0.78500003 0.027527334 1.5854757e-38 297 220
-0.03020292 0.78299999 0.027457198 1.2360625e-38 298 220
-0.028756421 0.78100002 0.027387068 9.6869507e-39 299 220
-0.027387068 0.78100002 0.027387068 9.2291563e-39 300 220
-0.025984399 0.77999997 0.027351998 9.7823301e-39 301 220
-0.024553679 0.778 0.027281865 1.0334756e-38 302 220
-0.023129974 0.77600002 0.027211733 1.0334756e-38 303 220
-0.021769386 0.77600002 0.027211733 1.0151051e-38 304 220
-0.0204088 0.77600002 0.027211733 9.782274e-39 305 220
-0.019048214 0.77600002 0.027211733 9.5975268e-39 306 220
-0.017687626 0.77600002 0.027211733 9.5053326e-39 307 220
-0.01632704 0.77600002 0.027211733 1.0055987e-38 308 220
-0.014966453 0.77600002 0.027211733 1.0148181e-38 309 220
-0.013605867 0.77600002 0.027211733 1.0146029e-38 310 220
-0.01224528 0.77600002 0.027211733 9.9612815e-39 311 220
-0.010912746 0.778 0.027281865 9.2248038e-39 312 220
-0.0095486529 0.778 0.027281865 8.8560269e-39 313 220
-0.0082055992 0.77999997 0.027351998 8.3954145e-39 314 220
-0.0068379994 0.77999997 0.027351998 8.1188318e-39 315 220
-0.0054703997 0.77999997 0.027351998 7.4749072e-39 316 220
-0.0041027996 0.77999997 0.027351998 7.29016e-39 317 220
-0.0027351999 0.77999997 0.027351998 6.6498422e-39 318 220
-0.0013693533 0.78100002 0.027387068 7.5714398e-39 319 220
0 0.77999997 0.027351998 7.3920988e-39 320 220
0.0013675999 0.77999997 0.027351998 7.3920988e-39 321 220
0.0027281865 0.778 0.027281865 8.3093608e-39 322 220
0.0040817601 0.77600002 0.027211733 8.4015564e-39 323 220
0.0054283198 0.77399999 0.027141599 8.9532686e-39 324 220
0.0067766332 0.773 0.027106533 9.1376599e-39 325 220
0.0081109209 0.77100003 0.027036399 9.8748368e-39 326 220
0.0094381925 0.76899999 0.026966266 9.4138586e-39 327 220
0.010786506 0.76899999 0.026966266 9.8712396e-39 328 220
0.012134819 0.76899999 0.026966266 9.7786867e-39 329 220
0.013483133 0.76899999 0.026966266 9.594657e-39 330 220
0.014831445 0.76899999 0.026966266 9.7786867e-39 331 220
0.016179759 0.76899999 0.026966266 1.1712638e-38 332 220
0.017528072 0.76899999 0.026966266 1.2818627e-38 333 220
0.018876385 0.76899999 0.026966266 1.1708322e-38 334 220
0.0202247 0.76899999 0.026966266 1.1062953e-38 335 220
0.021629119 0.77100003 0.027036399 1.0327906e-38 336 220
0.02298094 0.77100003 0.027036399 1.0143518e-38 337 220
0.02433276 0.77100003 0.027036399 9.683631e-39 338 220
0.025751207 0.773 0.027106533 9.5914354e-39 339 220
0.027106533 0.773 0.027106533 9.4992524e-39 340 220
0.028461859 0.773 0.027106533 9.3152212e-39 341 220
0.029855758 0.77399999 0.027141599 9.3127199e-39 342 220
0.031212838 0.77399999 0.027141599 9.1279685e-39 343 220
0.032654081 0.77600002 0.027211733 9.3069942e-39 344 220
0.034014668 0.77600002 0.027211733 8.6616248e-39 345 220
0.035375252 0.77600002 0.027211733 1.023403e-38 346 220
-0.033032801 0.78500003 0.026150968 1.6779582e-38 296 221
-0.031575777 0.78299999 0.026084339 1.429066e-38 297 221
-0.03020292 0.78299999 0.026084339 1.0979462e-38 298 221
-0.028756421 0.78100002 0.026017714 9.2277466e-39 299 221
-0.027351998 0.77999997 0.025984399 9.6886645e-39 300 221
-0.025917772 0.778 0.025917772 1.0518784e-38 301 221
-0.024490559 0.77600002 0.025851147 1.0520203e-38 302 221
-0.02307036 0.77399999 0.025784519 1.0428008e-38 303 221
-0.021713279 0.77399999 0.025784519 1.0425481e-38 304 221
-0.0204088 0.77600002 0.025851147 1.0148899e-38 305 221
-0.018999118 0.77399999 0.025784519 9.7801216e-39 306 221
-0.01764204 0.77399999 0.025784519 9.7801216e-39 307 221
-0.01632704 0.77600002 0.025851147 1.0239299e-38 308 221
-0.014927879 0.77399999 0.025784519 1.0331493e-38 309 221
-0.013570799 0.77399999 0.025784519 1.0238582e-38 310 221
-0.01224528 0.77600002 0.025851147 9.9616402e-39 311 221
-0.010884693 0.77600002 0.025851147 9.5006691e-39 312 221
-0.0095486529 0.778 0.025917772 8.8553095e-39 313 221
-0.0081845606 0.778 0.025917772 8.1184731e-39 314 221
-0.0068204664 0.778 0.025917772 7.7496962e-39 315 221
-0.0054703997 0.77999997 0.025984399 7.3816367e-39 316 221
-0.0041027996 0.77999997 0.025984399 7.1050541e-39 317 221
-0.0027387065 0.78100002 0.026017714 6.8309909e-39 318 221
-0.0013693533 0.78100002 0.026017714 7.2919676e-39 319 221
0 0.78100002 0.026017714 7.2033846e-39 320 221
0.0013675999 0.77999997 0.025984399 7.6647228e-39 321 221
0.0027281865 0.778 0.025917772 7.6647172e-39 322 221
0.0040817601 0.77600002 0.025851147 7.8491071e-39 323 221
0.0054283198 0.77399999 0.025784519 8.2167994e-39 324 221
0.0067766332 0.773 0.025751207 8.4933863e-39 325 221
0.0081109209 0.77100003 0.02568458 9.6882973e-39 326 221
0.0094381925 0.76899999 0.025617953 9.2269604e-39 327 221
0.010786506 0.76899999 0.025617953 8.859973e-39 328 221
0.012134819 0.76899999 0.025617953 8.7677788e-39 329 221
0.013483133 0.76899999 0.025617953 9.0425678e-39 330 221
0.014831445 0.76899999 0.025617953 9.134762e-39 331 221
0.016179759 0.76899999 0.025617953 1.1067269e-38 332 221
0.017528072 0.76899999 0.025617953 1.2265812e-38 333 221
0.018876385 0.76899999 0.025617953 1.0972196e-38 334 221
0.0202247 0.76899999 0.025617953 1.069561e-38 335 221
0.021573013 0.76899999 0.025617953 1.0235712e-38 336 221
0.022921326 0.76899999 0.025617953 1.0050965e-38 337 221
0.02433276 0.77100003 0.02568458 9.7747476e-39 338 221
0.02568458 0.77100003 0.02568458 9.682552e-39 339 221
0.027036399 0.77100003 0.02568458 9.4985335e-39 340 221
0.028461859 0.773 0.025751207 9.4063379e-39 341 221
0.029855758 0.77399999 0.025784519 9.4960266e-39 342 221
0.031212838 0.77399999 0.025784519 9.4038295e-39 343 221
0.032569919 0.77399999 0.025784519 9.3091424e-39 344 221
0.034014668 0.77600002 0.025851147 8.663773e-39 345 221
0.035466425 0.778 0.025917772 8.5741389e-39 346 221
0.036830518 0.778 0.025917772 1.2353801e-38 347 221
-0.034496833 0.787 0.024837719 1.7146221e-38 295 222
-0.033032801 0.78500003 0.0247746 1.5492071e-38 296 222
-0.031575777 0.78299999 0.024711479 1.2725843e-38 297 222
-0.030125774 0.78100002 0.024648361 1.0334446e-38 298 222
-0.028756421 0.78100002 0.024648361 9.5043265e-39 299 222
-0.027351998 0.77999997 0.024616797 1.0516999e-38 300 222
-0.025851147 0.77600002 0.024490559 1.1254564e-38 301 222
-0.02442744 0.77399999 0.02442744 1.1072674e-38 302 222
-0.02307036 0.77399999 0.02442744 1.0703891e-38 303 222
-0.021713279 0.77399999 0.02442744 1.0518036e-38 304 222
-0.020356199 0.77399999 0.02442744 9.8726746e-39 305 222
-0.018999118 0.77399999 0.02442744 9.9641513e-39 306 222
-0.01764204 0.77399999 0.02442744 1.0056346e-38 307 222
-0.016284959 0.77399999 0.02442744 1.0240375e-38 308 222
-0.014927879 0.77399999 0.02442744 1.0240375e-38 309 222
-0.013570799 0.77399999 0.02442744 1.0330417e-38 310 222
-0.01221372 0.77399999 0.02442744 9.9616402e-39 311 222
-0.01085664 0.77399999 0.02442744 9.1326096e-39 312 222
-0.009524107 0.77600002 0.024490559 8.5794442e-39 313 222
-0.0081635201 0.77600002 0.024490559 7.9330084e-39 314 222
-0.0068204664 0.778 0.024553679 7.74862e-39 315 222
-0.0054703997 0.77999997 0.024616797 7.3802018e-39 316 222
-0.0041027996 0.77999997 0.024616797 7.1961721e-39 317 222
-0.0027351999 0.77999997 0.024616797 7.1039835e-39 318 222
-0.0013693533 0.78100002 0.024648361 7.3805717e-39 319 222
0 0.78100002 0.024648361 6.7409617e-39 320 222
0.0013693533 0.78100002 0.024648361 7.2023e-39 321 222
0.0027281865 0.778 0.024553679 7.6618236e-39 322 222
0.0040817601 0.77600002 0.024490559 7.7540192e-39 323 222
0.0054213065 0.773 0.024395877 8.1224304e-39 324 222
0.0067590997 0.77100003 0.02433276 8.399376e-39 325 222
0.0080898795 0.76899999 0.024269639 8.3086013e-39 326 222
0.0094381925 0.76899999 0.024269639 8.216407e-39 327 222
0.010786506 0.76899999 0.024269639 8.583749e-39 328 222
0.01210326 0.76700002 0.024206521 8.4915548e-39 329 222
0.013448066 0.76700002 0.024206521 9.1344033e-39 330 222
0.014792874 0.76700002 0.024206521 9.6875686e-39 331 222
0.01613768 0.76700002 0.024206521 1.0881789e-38 332 222
0.017482487 0.76700002 0.024206521 1.115873e-38 333 222
0.018827293 0.76700002 0.024206521 1.0788877e-38 334 222
0.020172099 0.76700002 0.024206521 1.0604489e-38 335 222
0.021573013 0.76899999 0.024269639 1.0143876e-38 336 222
0.022921326 0.76899999 0.024269639 9.8672936e-39 337 222
0.024269639 0.76899999 0.024269639 9.6825464e-39 338 222
0.025617953 0.76899999 0.024269639 9.4985167e-39 339 222
0.026966266 0.76899999 0.024269639 9.2226669e-39 340 222
0.028461859 0.773 0.024395877 9.2226669e-39 341 222
0.029855758 0.77399999 0.02442744 9.4049127e-39 342 222
0.031212838 0.77399999 0.02442744 9.2205201e-39 343 222
0.032569919 0.77399999 0.02442744 9.401694e-39 344 222
0.034014668 0.77600002 0.024490559 9.3091396e-39 345 222
0.035375252 0.77600002 0.024490559 7.8351235e-39 346 222
0.036830518 0.778 0.024553679 1.0600992e-38 347 222
0.038194612 0.778 0.024553679 1.5670348e-38 348 222
-0.034496833 0.787 0.023457846 1.6868911e-38 295 223
-0.033032801 0.78500003 0.023398234 1.4203477e-38 296 223
-0.031575777 0.78299999 0.02333862 1.1898586e-38 297 223
-0.030125774 0.78100002 0.023279008 1.0518106e-38 298 223
-0.028719598 0.77999997 0.023249198 9.6887051e-39 299 223
-0.027281865 0.778 0.023189586 1.0517727e-38 300 223
-0.025851147 0.77600002 0.023129974 1.2730062e-38 301 223
-0.02442744 0.77399999 0.02307036 1.2819729e-38 302 223
-0.02307036 0.77399999 0.02307036 1.1897412e-38 303 223
-0.021713279 0.77399999 0.02307036 1.1160885e-38 304 223
-0.020356199 0.77399999 0.02307036 1.0607717e-38 305 223
-0.018999118 0.77399999 0.02307036 9.873392e-39 306 223
-0.01764204 0.77399999 0.02307036 9.873392e-39 307 223
-0.016284959 0.77399999 0.02307036 1.0148181e-38 308 223
-0.014927879 0.77399999 0.02307036 1.0148181e-38 309 223
-0.013570799 0.77399999 0.02307036 1.0146029e-38 310 223
-0.01221372 0.77399999 0.02307036 9.8690872e-39 311 223
-0.01085664 0.77399999 0.02307036 9.1318921e-39 312 223
-0.0094995592 0.77399999 0.02307036 8.0255614e-39 313 223
-0.0081635201 0.77600002 0.023129974 7.4731135e-39 314 223
-0.0068029333 0.77600002 0.023129974 7.3809193e-39 315 223
-0.0054563731 0.778 0.023189586 7.3791256e-39 316 223
-0.0041027996 0.77999997 0.023249198 7.2865726e-39 317 223
-0.0027351999 0.77999997 0.023249198 6.9181545e-39 318 223
-0.0013693533 0.78100002 0.023279008 6.8256015e-39 319 223
0 0.78100002 0.023279008 6.6426592e-39 320 223
0.0013693533 0.78100002 0.023279008 7.3802242e-39 321 223
0.0027281865 0.778 0.023189586 6.8324384e-39 322 223
0.0040817601 0.77600002 0.023129974 7.2008622e-39 323 223
0.0054072798 0.77100003 0.02298094 7.8465722e-39 324 223
0.0067415666 0.76899999 0.022921326 8.2149945e-39 325 223
0.0080898795 0.76899999 0.022921326 8.216407e-39 326 223
0.0094136465 0.76700002 0.022861714 8.216407e-39 327 223
0.010758453 0.76700002 0.022861714 8.6745083e-39 328 223
0.01210326 0.76700002 0.022861714 8.6745083e-39 329 223
0.013448066 0.76700002 0.022861714 9.8708809e-39 330 223
0.014792874 0.76700002 0.022861714 1.0424046e-38 331 223
0.01613768 0.76700002 0.022861714 1.0790671e-38 332 223
0.017482487 0.76700002 0.022861714 1.0606282e-38 333 223
0.018827293 0.76700002 0.022861714 1.0695965e-38 334 223
0.020172099 0.76700002 0.022861714 1.0511218e-38 335 223
0.021573013 0.76899999 0.022921326 9.868011e-39 336 223
0.022921326 0.76899999 0.022921326 9.7758168e-39 337 223
0.024269639 0.76899999 0.022921326 9.5914298e-39 338 223
0.025617953 0.76899999 0.022921326 9.4992341e-39 339 223
0.026966266 0.76899999 0.022921326 9.4992524e-39 340 223
0.028461859 0.773 0.023040552 9.3152212e-39 341 223
0.029817186 0.773 0.023040552 9.4049099e-39 342 223
0.031212838 0.77399999 0.02307036 9.3127143e-39 343 223
0.032569919 0.77399999 0.02307036 9.5860782e-39 344 223
0.034014668 0.77600002 0.023129974 9.4016883e-39 345 223
0.035375252 0.77600002 0.023129974 8.2939297e-39 346 223
0.036735836 0.77600002 0.023129974 9.7690612e-39 347 223
0.038096428 0.77600002 0.023129974 1.5024609e-38 348 223
-0.033032801 0.78500003 0.022021867 1.3373348e-38 296 224
-0.031495128 0.78100002 0.021909652 1.143724e-38 297 224
-0.030087199 0.77999997 0.021881599 1.0794307e-38 298 224
-0.028645959 0.778 0.021825492 9.872711e-39 299 224
-0.027211733 0.77600002 0.021769386 1.0794684e-38 300 224
-0.025784519 0.77399999 0.021713279 1.4021531e-38 301 224
-0.02442744 0.77399999 0.021713279 1.3374009e-38 302 224
-0.02307036 0.77399999 0.021713279 1.1622653e-38 303 224
-0.021713279 0.77399999 0.021713279 1.1529667e-38 304 224
-0.020356199 0.77399999 0.021713279 1.1068688e-38 305 224
-0.018999118 0.77399999 0.021713279 1.0241451e-38 306 224
-0.01764204 0.77399999 0.021713279 1.0057063e-38 307 224
-0.016284959 0.77399999 0.021713279 1.0239299e-38 308 224
-0.014927879 0.77399999 0.021713279 1.0147105e-38 309 224
-0.013570799 0.77399999 0.021713279 1.0146029e-38 310 224
-0.012197939 0.773 0.021685226 9.6850575e-39 311 224
-0.010842613 0.773 0.021685226 9.3144869e-39 312 224
-0.0094995592 0.77399999 0.021713279 8.4847389e-39 313 224
-0.0081424797 0.77399999 0.021713279 7.8411729e-39 314 224
-0.0067853997 0.77399999 0.021713279 7.3805605e-39 315 224
-0.0054423464 0.77600002 0.021769386 7.4702436e-39 316 224
-0.0040922803 0.778 0.021825492 7.1018255e-39 317 224
-0.0027351999 0.77999997 0.021881599 7.1900736e-39 318 224
-0.0013675999 0.77999997 0.021881599 6.9138497e-39 319 224
0 0.78100002 0.021909652 6.0851792e-39 320 224
0.0013693533 0.78100002 0.021909652 6.823103e-39 321 224
0.0027351999 0.77999997 0.021881599 6.8302874e-39 322 224
0.0040817601 0.77600002 0.021769386 7.4756569e-39 323 224
0.0053932532 0.76899999 0.021573013 8.0305865e-39 324 224
0.0067415666 0.76899999 0.021573013 8.3071748e-39 325 224
0.00806884 0.76700002 0.021516906 8.9503736e-39 326 224
0.0094136465 0.76700002 0.021516906 8.9503736e-39 327 224
0.010758453 0.76700002 0.021516906 9.042209e-39 328 224
0.01210326 0.76700002 0.021516906 9.042209e-39 329 224
0.013448066 0.76700002 0.021516906 1.0330776e-38 330 224
0.014792874 0.76700002 0.021516906 1.1253087e-38 331 224
0.01613768 0.76700002 0.021516906 1.1066177e-38 332 224
0.017482487 0.76700002 0.021516906 1.0697042e-38 333 224
0.018827293 0.76700002 0.021516906 1.0327906e-38 334 224
0.020172099 0.76700002 0.021516906 1.0235712e-38 335 224
0.021516906 0.76700002 0.021516906 1.0051682e-38 336 224
0.022921326 0.76899999 0.021573013 1.0051682e-38 337 224
0.024269639 0.76899999 0.021573013 9.6839813e-39 338 224
0.025617953 0.76899999 0.021573013 9.5917871e-39 339 224
0.026966266 0.76899999 0.021573013 9.5910822e-39 340 224
0.028388219 0.77100003 0.021629119 9.5910822e-39 341 224
0.029817186 0.773 0.021685226 9.4974615e-39 342 224
0.03117251 0.773 0.021685226 9.3130702e-39 343 224
0.032569919 0.77399999 0.021713279 9.3105675e-39 344 224
0.033927001 0.77399999 0.021713279 9.3105675e-39 345 224
0.035375252 0.77600002 0.021769386 8.6630695e-39 346 224
0.036735836 0.77600002 0.021769386 9.0318521e-39 347 224
0.038096428 0.77600002 0.021769386 1.401153e-38 348 224
-0.032864477 0.78100002 0.020540299 1.3095312e-38 296 225
-0.031495128 0.78100002 0.020540299 1.1804573e-38 297 225
-0.030087199 0.77999997 0.020513998 1.0703191e-38 298 225
-0.028645959 0.778 0.020461399 9.9656255e-39 299 225
-0.027211733 0.77600002 0.0204088 1.1440069e-38 300 225
-0.025784519 0.77399999 0.020356199 1.4482523e-38 301 225
-0.02442744 0.77399999 0.020356199 1.282371e-38 302 225
-0.023040552 0.773 0.0203299 1.0518459e-38 303 225
-0.021685226 0.773 0.0203299 1.0795348e-38 304 225
-0.020356199 0.77399999 0.020356199 1.0518401e-38 305 225
-0.018974574 0.773 0.0203299 9.9645101e-39 306 225
-0.017619247 0.773 0.0203299 9.4117034e-39 307 225
-0.016263919 0.773 0.0203299 9.1354795e-39 308 225
-0.014908593 0.773 0.0203299 9.5960919e-39 309 225
-0.013553266 0.773 0.0203299 1.0146746e-38 310 225
-0.012197939 0.773 0.0203299 9.685775e-39 311 225
-0.010842613 0.773 0.0203299 8.9475037e-39 312 225
-0.0094872871 0.773 0.0203299 8.3943383e-39 313 225
-0.0081319595 0.773 0.0203299 7.5656665e-39 314 225
-0.0067766332 0.773 0.0203299 7.1046953e-39 315 225
-0.0054283198 0.77399999 0.020356199 7.2858552e-39 316 225
-0.0040712398 0.77399999 0.020356199 6.9170783e-39 317 225
-0.0027211732 0.77600002 0.0204088 6.9134909e-39 318 225
-0.0013675999 0.77999997 0.020513998 6.3606843e-39 319 225
0 0.77999997 0.020513998 5.5320124e-39 320 225
0.0013675999 0.77999997 0.020513998 6.8227316e-39 321 225
0.0026896133 0.76700002 0.020172099 7.5692776e-39 322 225
0.00403442 0.76700002 0.020172099 8.4912353e-39 323 225
0.0053792265 0.76700002 0.020172099 8.9528973e-39 324 225
0.006724033 0.76700002 0.020172099 8.676309e-39 325 225
0.00806884 0.76700002 0.020172099 9.227315e-39 326 225
0.0094136465 0.76700002 0.020172099 9.227315e-39 327 225
0.010758453 0.76700002 0.020172099 9.5031802e-39 328 225
0.01210326 0.76700002 0.020172099 9.6875686e-39 329 225
0.013448066 0.76700002 0.020172099 1.0332928e-38 330 225
0.014773586 0.76599997 0.020145798 1.0793899e-38 331 225
0.016116638 0.76599997 0.020145798 1.0973983e-38 332 225
0.017482487 0.76700002 0.020172099 1.0420818e-38 333 225
0.018827293 0.76700002 0.020172099 1.0328623e-38 334 225
0.020172099 0.76700002 0.020172099 1.0236429e-38 335 225
0.021516906 0.76700002 0.020172099 1.0052758e-38 336 225
0.022861714 0.76700002 0.020172099 1.0052758e-38 337 225
0.024206521 0.76700002 0.020172099 9.6846988e-39 338 225
0.025617953 0.76899999 0.0202247 9.6846988e-39 339 225
0.026966266 0.76899999 0.0202247 9.6832779e-39 340 225
0.028388219 0.77100003 0.020277301 9.5910822e-39 341 225
0.029817186 0.773 0.0203299 9.4981804e-39 342 225
0.03117251 0.773 0.0203299 9.2215935e-39 343 225
0.032569919 0.77399999 0.020356199 9.2194481e-39 344 225
0.033927001 0.77399999 0.020356199 9.0350568e-39 345 225
0.035375252 0.77600002 0.0204088 9.0311262e-39 346 225
0.036735836 0.77600002 0.0204088 9.0311262e-39 347 225
0.038096428 0.77600002 0.0204088 1.2813706e-38 348 225
-0.034189999 0.77999997 0.0191464 1.5304452e-38 295 226
-0.032822397 0.77999997 0.0191464 1.2542491e-38 296 226
-0.031454798 0.77999997 0.0191464 1.1620537e-38 297 226
-0.03001005 0.778 0.019097306 1.0794304e-38 298 226
-0.028645959 0.778 0.019097306 1.0241489e-38 299 226
-0.027141599 0.77399999 0.018999118 1.1167442e-38 300 226
-0.025784519 0.77399999 0.018999118 1.2919518e-38 301 226
-0.024395877 0.773 0.018974574 1.2547495e-38 302 226
-0.023040552 0.773 0.018974574 1.0887614e-38 303 226
-0.021685226 0.773 0.018974574 1.1623705e-38 304 226
-0.0203299 0.773 0.018974574 1.1807737e-38 305 226
-0.018974574 0.773 0.018974574 1.1622273e-38 306 226
-0.01757366 0.77100003 0.018925481 1.0239338e-38 307 226
-0.016221842 0.77100003 0.018925481 8.7659851e-39 308 226
-0.01487002 0.77100003 0.018925481 9.134762e-39 309 226
-0.013518199 0.77100003 0.018925481 1.0146387e-38 310 226
-0.01216638 0.77100003 0.018925481 9.685775e-39 311 226
-0.01081456 0.77100003 0.018925481 9.4992341e-39 312 226
-0.0094627403 0.77100003 0.018925481 8.4847389e-39 313 226
-0.0081109209 0.77100003 0.018925481 7.0150122e-39 314 226
-0.0067590997 0.77100003 0.018925481 6.8306238e-39 315 226
-0.0054072798 0.77100003 0.018925481 7.3802018e-39 316 226
-0.0040554604 0.77100003 0.018925481 7.1954546e-39 317 226
-0.0027036399 0.77100003 0.018925481 7.467015e-39 318 226
-0.00135182 0.77100003 0.018925481 7.1900736e-39 319 226
0 0.77999997 0.0191464 5.8161285e-39 320 226
0.0013675999 0.77999997 0.0191464 7.1068547e-39 321 226
0.0026896133 0.76700002 0.018827293 8.3071776e-39 322 226
0.00403442 0.76700002 0.018827293 8.952547e-39 323 226
0.0053722127 0.76599997 0.018802745 9.3202267e-39 324 226
0.0067152665 0.76599997 0.018802745 9.5046151e-39 325 226
0.0080583189 0.76599997 0.018802745 1.0148181e-38 326 226
0.0094013726 0.76599997 0.018802745 1.0148181e-38 327 226
0.010744425 0.76599997 0.018802745 1.0699553e-38 328 226
0.012087479 0.76599997 0.018802745 1.0976135e-38 329 226
0.013430533 0.76599997 0.018802745 1.1619343e-38 330 226
0.014773586 0.76599997 0.018802745 1.1342401e-38 331 226
0.016116638 0.76599997 0.018802745 1.1065101e-38 332 226
0.017459691 0.76599997 0.018802745 1.1065101e-38 333 226
0.018802745 0.76599997 0.018802745 1.0421894e-38 334 226
0.020145798 0.76599997 0.018802745 1.03297e-38 335 226
0.021516906 0.76700002 0.018827293 1.0604489e-38 336 226
0.022861714 0.76700002 0.018827293 1.0511936e-38 337 226
0.024206521 0.76700002 0.018827293 1.0327547e-38 338 226
0.025551327 0.76700002 0.018827293 1.0327547e-38 339 226
0.026896132 0.76700002 0.018827293 1.0326478e-38 340 226
0.028314579 0.76899999 0.018876385 1.0142085e-38 341 226
0.029740039 0.77100003 0.018925481 9.8658713e-39 342 226
0.03117251 0.773 0.018974574 9.5892844e-39 343 226
0.032527838 0.773 0.018974574 9.4034666e-39 344 226
0.033927001 0.77399999 0.018999118 9.311271e-39 345 226
0.035375252 0.77600002 0.019048214 8.7570546e-39 346 226
0.036735836 0.77600002 0.019048214 8.7570546e-39 347 226
0.038096428 0.77600002 0.019048214 1.1708081e-38 348 226
-0.034189999 0.77999997 0.017778799 1.4660162e-38 295 227
-0.032822397 0.77999997 0.017778799 1.2449927e-38 296 227
-0.031374145 0.778 0.017733213 1.1712361e-38 297 227
-0.03001005 0.778 0.017733213 1.1254917e-38 298 227
-0.028572321 0.77600002 0.017687626 1.097833e-38 299 227
-0.027141599 0.77399999 0.01764204 1.061281e-38 300 227
-0.025751207 0.773 0.017619247 1.144257e-38 301 227
-0.024395877 0.773 0.017619247 1.2271665e-38 302 227
-0.02298094 0.77100003 0.01757366 1.3285819e-38 303 227
-0.021629119 0.77100003 0.01757366 1.4756301e-38 304 227
-0.0203299 0.773 0.017619247 1.5125083e-38 305 227
-0.018925481 0.77100003 0.01757366 1.5860831e-38 306 227
-0.017528072 0.76899999 0.017528072 1.2726179e-38 307 227
-0.016179759 0.76899999 0.017528072 9.5010516e-39 308 227
-0.014831445 0.76899999 0.017528072 9.0400735e-39 309 227
-0.013483133 0.76899999 0.017528072 9.4102685e-39 310 227
-0.012134819 0.76899999 0.017528072 9.5028215e-39 311 227
-0.010786506 0.76899999 0.017528072 8.9485799e-39 312 227
-0.0094381925 0.76899999 0.017528072 8.2110261e-39 313 227
-0.0080898795 0.76899999 0.017528072 7.8422491e-39 314 227
-0.0067415666 0.76899999 0.017528072 7.6578607e-39 315 227
-0.0053932532 0.76899999 0.017528072 7.3819955e-39 316 227
-0.0040449398 0.76899999 0.017528072 7.6589397e-39 317 227
-0.0026966266 0.76899999 0.017528072 7.7515053e-39 318 227
-0.0013448066 0.76700002 0.017482487 8.2121233e-39 319 227
0 0.76599997 0.017459691 8.8603696e-39 320 227
0.0013395466 0.764 0.017414106 9.2291535e-39 321 227
0.0026790933 0.764 0.017414106 9.5964674e-39 322 227
0.0040186401 0.764 0.017414106 9.4120762e-39 323 227
0.0053722127 0.76599997 0.017459691 9.8730333e-39 324 227
0.0067152665 0.76599997 0.017459691 9.9652275e-39 325 227
0.0080372803 0.764 0.017414106 1.060987e-38 326 227
0.0093768267 0.764 0.017414106 1.0702064e-38 327 227
0.010716373 0.764 0.017414106 1.2080673e-38 328 227
0.01205592 0.764 0.017414106 1.300263e-38 329 227
0.013430533 0.76599997 0.017459691 1.2998313e-38 330 227
0.014735013 0.764 0.017414106 1.1984174e-38 331 227
0.016074561 0.764 0.017414106 1.079103e-38 332 227
0.017459691 0.76599997 0.017459691 1.0606641e-38 333 227
0.018802745 0.76599997 0.017459691 1.0238582e-38 334 227
0.020145798 0.76599997 0.017459691 1.0330776e-38 335 227
0.021488851 0.76599997 0.017459691 1.0421535e-38 336 227
0.022831906 0.76599997 0.017459691 1.0421535e-38 337 227
0.024174958 0.76599997 0.017459691 1.0512294e-38 338 227
0.025551327 0.76700002 0.017482487 1.0512294e-38 339 227
0.026896132 0.76700002 0.017482487 1.0328272e-38 340 227
0.028314579 0.76899999 0.017528072 1.0051686e-38 341 227
0.02966289 0.76899999 0.017528072 9.8669433e-39 342 227
0.03117251 0.773 0.017619247 9.4981621e-39 343 227
0.032527838 0.773 0.017619247 9.2201543e-39 344 227
0.033927001 0.77399999 0.01764204 9.0354043e-39 345 227
0.03528408 0.77399999 0.01764204 8.9400053e-39 346 227
0.036735836 0.77600002 0.017687626 8.7556155e-39 347 227
0.038096428 0.77600002 0.017687626 1.0785405e-38 348 227
-0.032822397 0.77999997 0.016411198 1.2358081e-38 296 228
-0.031374145 0.778 0.016369121 1.1989299e-38 297 228
-0.029932907 0.77600002 0.01632704 1.1622623e-38 298 228
-0.028572321 0.77600002 0.01632704 1.1069449e-38 299 228
-0.027141599 0.77399999 0.016284959 1.0425897e-38 300 228
-0.025751207 0.773 0.016263919 1.2454201e-38 301 228
-0.024395877 0.773 0.016263919 1.3649578e-38 302 228
-0.02298094 0.77100003 0.016221842 1.466409e-38 303 228
-0.021629119 0.77100003 0.016221842 1.4571581e-38 304 228
-0.020277301 0.77100003 0.016221842 1.4755614e-38 305 228
-0.018925481 0.77100003 0.016221842 1.4941418e-38 306 228
-0.017528072 0.76899999 0.016179759 1.3558125e-38 307 228
-0.016179759 0.76899999 0.016179759 1.0976197e-38 308 228
-0.014831445 0.76899999 0.016179759 9.7776539e-39 309 228
-0.013483133 0.76899999 0.016179759 9.2291086e-39 310 228
-0.012134819 0.76899999 0.016179759 8.9525259e-39 311 228
-0.010786506 0.76899999 0.016179759 9.5006691e-39 312 228
-0.0094381925 0.76899999 0.016179759 8.9478624e-39 313 228
-0.0080898795 0.76899999 0.016179759 8.5794442e-39 314 228
-0.0067415666 0.76899999 0.016179759 8.3950558e-39 315 228
-0.0053932532 0.76899999 0.016179759 8.02879e-39 316 228
-0.00403442 0.76700002 0.01613768 8.2135372e-39 317 228
-0.0026896133 0.76700002 0.01613768 8.0309424e-39 318 228
-0.0013448066 0.76700002 0.01613768 8.4915548e-39 319 228
0 0.76599997 0.016116638 9.2283926e-39 320 228
0.0013395466 0.764 0.016074561 9.6893693e-39 321 228
0.0026790933 0.764 0.016074561 9.8726746e-39 322 228
0.0040186401 0.764 0.016074561 1.0241093e-38 323 228
0.0053722127 0.76599997 0.016116638 1.0792823e-38 324 228
0.006697733 0.764 0.016074561 1.1161959e-38 325 228
0.0080372803 0.764 0.016074561 1.1530018e-38 326 228
0.0093768267 0.764 0.016074561 1.1714407e-38 327 228
0.010716373 0.764 0.016074561 1.2816791e-38 328 228
0.01205592 0.764 0.016074561 1.3093733e-38 329 228
0.013395466 0.764 0.016074561 1.2540567e-38 330 228
0.014735013 0.764 0.016074561 1.1710461e-38 331 228
0.016074561 0.764 0.016074561 1.1342401e-38 332 228
0.017414106 0.764 0.016074561 1.1250207e-38 333 228
0.018753653 0.764 0.016074561 1.079103e-38 334 228
0.020093199 0.764 0.016074561 1.0698835e-38 335 228
0.021432746 0.764 0.016074561 1.0789595e-38 336 228
0.022831906 0.76599997 0.016116638 1.0789595e-38 337 228
0.024174958 0.76599997 0.016116638 1.0972189e-38 338 228
0.025551327 0.76700002 0.01613768 1.0972189e-38 339 228
0.026896132 0.76700002 0.01613768 1.0696324e-38 340 228
0.028314579 0.76899999 0.016179759 1.0511936e-38 341 228
0.02966289 0.76899999 0.016179759 1.0142441e-38 342 228
0.031091858 0.77100003 0.016221842 9.6818289e-39 343 228
0.032527838 0.773 0.016263919 9.5871264e-39 344 228
0.033883166 0.773 0.016263919 9.4030953e-39 345 228
0.03528408 0.77399999 0.016284959 8.9421577e-39 346 228
0.036641158 0.77399999 0.016284959 8.9421577e-39 347 228
0.037998237 0.77399999 0.016284959 1.0785758e-38 348 228
-0.034189999 0.77999997 0.0150436 1.4015499e-38 295 229
-0.032822397 0.77999997 0.0150436 1.2358434e-38 296 229
-0.031374145 0.778 0.015005025 1.2265879e-38 297 229
-0.029932907 0.77600002 0.014966453 1.1806999e-38 298 229
-0.028498679 0.77399999 0.014927879 1.0792846e-38 299 229
-0.027141599 0.77399999 0.014927879 1.1254957e-38 300 229
-0.025751207 0.773 0.014908593 1.4666197e-38 301 229
-0.024395877 0.773 0.014908593 1.5213351e-38 302 229
-0.02298094 0.77100003 0.01487002 1.438359e-38 303 229
-0.021629119 0.77100003 0.01487002 1.2913505e-38 304 229
-0.020277301 0.77100003 0.01487002 1.2728755e-38 305 229
-0.018876385 0.76899999 0.014831445 1.3191515e-38 306 229
-0.017528072 0.76899999 0.014831445 1.3467742e-38 307 229
-0.01613768 0.76700002 0.014792874 1.254571e-38 308 229
-0.014792874 0.76700002 0.014792874 1.0701798e-38 309 229
-0.013448066 0.76700002 0.014792874 9.2312652e-39 310 229
-0.01210326 0.76700002 0.014792874 8.5859014e-39 311 229
-0.010758453 0.76700002 0.014792874 9.227315e-39 312 229
-0.0094136465 0.76700002 0.014792874 8.9503736e-39 313 229
-0.00806884 0.76700002 0.014792874 8.6737909e-39 314 229
-0.006724033 0.76700002 0.014792874 8.5815966e-39 315 229
-0.0053792265 0.76700002 0.014792874 8.2156896e-39 316 229
-0.00403442 0.76700002 0.014792874 8.4919135e-39 317 229
-0.0026896133 0.76700002 0.014792874 8.4011542e-39 318 229
-0.0013448066 0.76700002 0.014792874 8.6773782e-39 319 229
0 0.76599997 0.014773586 9.4127796e-39 320 229
0.0013395466 0.764 0.014735013 9.8737508e-39 321 229
0.0026790933 0.764 0.014735013 1.0333646e-38 322 229
0.0040186401 0.764 0.014735013 1.0794617e-38 323 229
0.0053441599 0.76200002 0.01469644 1.1713331e-38 324 229
0.0066801999 0.76200002 0.01469644 1.1990272e-38 325 229
0.0080372803 0.764 0.014735013 1.235869e-38 326 229
0.0093768267 0.764 0.014735013 1.2727826e-38 327 229
0.010716373 0.764 0.014735013 1.3645105e-38 328 229
0.01205592 0.764 0.014735013 1.3091939e-38 329 229
0.013395466 0.764 0.014735013 1.2356538e-38 330 229
0.014735013 0.764 0.014735013 1.1987761e-38 331 229
0.016074561 0.764 0.014735013 1.1527866e-38 332 229
0.017414106 0.764 0.014735013 1.1343477e-38 333 229
0.018753653 0.764 0.014735013 1.08843e-38 334 229
0.020093199 0.764 0.014735013 1.0699911e-38 335 229
0.021432746 0.764 0.014735013 1.0882148e-38 336 229
0.022772292 0.764 0.014735013 1.0882148e-38 337 229
0.024174958 0.76599997 0.014773586 1.0882148e-38 338 229
0.025518013 0.76599997 0.014773586 1.0789953e-38 339 229
0.026896132 0.76700002 0.014792874 1.0789595e-38 340 229
0.02824094 0.76700002 0.014792874 1.0420818e-38 341 229
0.02966289 0.76899999 0.014831445 1.0235712e-38 342 229
0.031011207 0.76899999 0.014831445 9.7747406e-39 343 229
0.032443684 0.77100003 0.01487002 9.4963657e-39 344 229
0.033883166 0.773 0.014908593 9.40417e-39 345 229
0.03528408 0.77399999 0.014927879 9.127621e-39 346 229
0.036641158 0.77399999 0.014927879 9.127621e-39 347 229
0.037998237 0.77399999 0.014927879 1.0600639e-38 348 229
-0.035603184 0.78100002 0.013693534 1.5121841e-38 294 230
-0.034189999 0.77999997 0.013675999 1.3831102e-38 295 230
-0.032738242 0.778 0.013640933 1.2268037e-38 296 230
-0.031374145 0.778 0.013640933 1.2083286e-38 297 230
-0.029932907 0.77600002 0.013605867 1.1991036e-38 298 230
-0.028498679 0.77399999 0.013570799 1.0976885e-38 299 230
-0.027141599 0.77399999 0.013570799 1.2084016e-38 300 230
-0.025751207 0.773 0.013553266 1.5034275e-38 301 230
-0.024395877 0.773 0.013553266 1.4661273e-38 302 230
-0.022921326 0.76899999 0.013483133 1.3278339e-38 303 230
-0.021573013 0.76899999 0.013483133 1.0611499e-38 304 230
-0.0202247 0.76899999 0.013483133 1.0611499e-38 305 230
-0.018876385 0.76899999 0.013483133 1.2821306e-38 306 230
-0.017482487 0.76700002 0.013448066 1.3743264e-38 307 230
-0.01613768 0.76700002 0.013448066 1.3376219e-38 308 230
-0.014792874 0.76700002 0.013448066 1.1532307e-38 309 230
-0.013448066 0.76700002 0.013448066 9.3252783e-39 310 230
-0.01210326 0.76700002 0.013448066 8.1267366e-39 311 230
-0.010758453 0.76700002 0.013448066 8.7692137e-39 312 230
-0.0094136465 0.76700002 0.013448066 8.7692137e-39 313 230
-0.00806884 0.76700002 0.013448066 8.9518085e-39 314 230
-0.006724033 0.76700002 0.013448066 8.8596143e-39 315 230
-0.0053792265 0.76700002 0.013448066 8.9518085e-39 316 230
-0.0040291594 0.76599997 0.013430533 9.3205854e-39 317 230
-0.0026861064 0.76599997 0.013430533 9.7808391e-39 318 230
-0.0013430532 0.76599997 0.013430533 9.873392e-39 319 230
0 0.76599997 0.013430533 1.0701705e-38 320 230
0.0013395466 0.764 0.013395466 1.1162318e-38 321 230
0.0026790933 0.764 0.013395466 1.1714765e-38 322 230
0.0040186401 0.764 0.013395466 1.2175739e-38 323 230
0.0053441599 0.76200002 0.0133604 1.300263e-38 324 230
0.0066801999 0.76200002 0.0133604 1.3555803e-38 325 230
0.0080162399 0.76200002 0.0133604 1.3831665e-38 326 230
0.0093522798 0.76200002 0.0133604 1.4016056e-38 327 230
0.01068832 0.76200002 0.0133604 1.3738737e-38 328 230
0.01202436 0.76200002 0.0133604 1.2908627e-38 329 230
0.0133604 0.76200002 0.0133604 1.2448732e-38 330 230
0.01469644 0.76200002 0.0133604 1.2264344e-38 331 230
0.01603248 0.76200002 0.0133604 1.1621136e-38 332 230
0.01736852 0.76200002 0.0133604 1.1344912e-38 333 230
0.01870456 0.76200002 0.0133604 1.1159806e-38 334 230
0.020093199 0.764 0.013395466 1.1067612e-38 335 230
0.021432746 0.764 0.013395466 1.1250207e-38 336 230
0.022772292 0.764 0.013395466 1.1250207e-38 337 230
0.024174958 0.76599997 0.013430533 1.0974342e-38 338 230
0.025518013 0.76599997 0.013430533 1.0974342e-38 339 230
0.026861066 0.76599997 0.013430533 1.0881789e-38 340 230
0.02824094 0.76700002 0.013448066 1.0513371e-38 341 230
0.02966289 0.76899999 0.013483133 1.0235712e-38 342 230
0.031011207 0.76899999 0.013483133 9.7750994e-39 343 230
0.032443684 0.77100003 0.013518199 9.4970817e-39 344 230
0.033883166 0.773 0.013553266 9.4048875e-39 345 230
0.03528408 0.77399999 0.013570799 9.0365044e-39 346 230
0.036641158 0.77399999 0.013570799 9.2205369e-39 347 230
0.037998237 0.77399999 0.013570799 1.0416603e-38 348 230
-0.035603184 0.78100002 0.01232418 1.4845249e-38 294 231
-0.034189999 0.77999997 0.012308398 1.3646708e-38 295 231
-0.032738242 0.778 0.012276839 1.2175483e-38 296 231
-0.031374145 0.778 0.012276839 1.2083286e-38 297 231
-0.029932907 0.77600002 0.01224528 1.1714819e-38 298 231
-0.028498679 0.77399999 0.01221372 1.1253842e-38 299 231
-0.027106533 0.773 0.012197939 1.2362413e-38 300 231
-0.025751207 0.773 0.012197939 1.4390717e-38 301 231
-0.02433276 0.77100003 0.01216638 1.4109541e-38 302 231
-0.022921326 0.76899999 0.012134819 1.2726607e-38 303 231
-0.021573013 0.76899999 0.012134819 9.7806653e-39 304 231
-0.0202247 0.76899999 0.012134819 1.0149448e-38 305 231
-0.018876385 0.76899999 0.012134819 1.2175231e-38 306 231
-0.017482487 0.76700002 0.01210326 1.3742917e-38 307 231
-0.01613768 0.76700002 0.01210326 1.4113805e-38 308 231
-0.014792874 0.76700002 0.01210326 1.2454284e-38 309 231
-0.013448066 0.76700002 0.01210326 9.9706618e-39 310 231
-0.01210326 0.76700002 0.01210326 8.7721186e-39 311 231
-0.010744425 0.76599997 0.012087479 9.1379906e-39 312 231
-0.0094013726 0.76599997 0.012087479 9.1379906e-39 313 231
-0.0080583189 0.76599997 0.012087479 9.5964506e-39 314 231
-0.0067152665 0.76599997 0.012087479 9.4120622e-39 315 231
-0.0053722127 0.76599997 0.012087479 9.6879274e-39 316 231
-0.0040291594 0.76599997 0.012087479 1.0148899e-38 317 231
-0.0026861064 0.76599997 0.012087479 1.0793899e-38 318 231
-0.0013395466 0.764 0.01205592 1.1162676e-38 319 231
0 0.764 0.01205592 1.1622571e-38 320 231
0.0013395466 0.764 0.01205592 1.1990989e-38 321 231
0.0026790933 0.764 0.01205592 1.2635632e-38 322 231
0.0040186401 0.764 0.01205592 1.3096604e-38 323 231
0.0053441599 0.76200002 0.01202436 1.3740546e-38 324 231
0.0066801999 0.76200002 0.01202436 1.4017131e-38 325 231
0.0080162399 0.76200002 0.01202436 1.3741255e-38 326 231
0.0093522798 0.76200002 0.01202436 1.3648699e-38 327 231
0.01068832 0.76200002 0.01202436 1.383021e-38 328 231
0.01202436 0.76200002 0.01202436 1.3277404e-38 329 231
0.0133604 0.76200002 0.01202436 1.2633479e-38 330 231
0.01469644 0.76200002 0.01202436 1.2449091e-38 331 231
0.01603248 0.76200002 0.01202436 1.1805166e-38 332 231
0.01736852 0.76200002 0.01202436 1.1528225e-38 333 231
0.01870456 0.76200002 0.01202436 1.1159806e-38 334 231
0.020093199 0.764 0.01205592 1.1067612e-38 335 231
0.021432746 0.764 0.01205592 1.1250207e-38 336 231
0.022772292 0.764 0.01205592 1.1250207e-38 337 231
0.024174958 0.76599997 0.012087479 1.0974342e-38 338 231
0.025518013 0.76599997 0.012087479 1.0974342e-38 339 231
0.026861066 0.76599997 0.012087479 1.0973624e-38 340 231
0.02824094 0.76700002 0.01210326 1.0788877e-38 341 231
0.02966289 0.76899999 0.012134819 1.0511577e-38 342 231
0.031011207 0.76899999 0.012134819 1.0050965e-38 343 231
0.032443684 0.77100003 0.01216638 9.6811115e-39 344 231
0.033883166 0.773 0.012197939 9.5889172e-39 345 231
0.03528408 0.77399999 0.01221372 9.4953259e-39 346 231
0.036641158 0.77399999 0.01221372 9.8644672e-39 347 231
0.037998237 0.77399999 0.01221372 1.0232932e-38 348 231
-0.035603184 0.78100002 0.010954826 1.4661221e-38 294 232
-0.034189999 0.77999997 0.010940799 1.364671e-38 295 232
-0.032738242 0.778 0.010912746 1.2725786e-38 296 232
-0.031374145 0.778 0.010912746 1.2449557e-38 297 232
-0.029932907 0.77600002 0.010884693 1.1623369e-38 298 232
-0.028498679 0.77399999 0.01085664 1.1715564e-38 299 232
-0.027106533 0.773 0.010842613 1.2179845e-38 300 232
-0.025751207 0.773 0.010842613 1.3101443e-38 301 232
-0.02433276 0.77100003 0.01081456 1.2914598e-38 302 232
-0.022921326 0.76899999 0.010786506 1.2730207e-38 303 232
-0.021573013 0.76899999 0.010786506 1.0516788e-38 304 232
-0.0202247 0.76899999 0.010786506 1.0239841e-38 305 232
-0.018827293 0.76700002 0.010758453 1.0519307e-38 306 232
-0.017482487 0.76700002 0.010758453 1.2086632e-38 307 232
-0.01613768 0.76700002 0.010758453 1.3746112e-38 308 232
-0.014792874 0.76700002 0.010758453 1.2639764e-38 309 232
-0.013448066 0.76700002 0.010758453 1.1074135e-38 310 232
-0.01210326 0.76700002 0.010758453 1.0244733e-38 311 232
-0.010744425 0.76599997 0.010744425 1.134707e-38 312 232
-0.0094013726 0.76599997 0.010744425 1.134707e-38 313 232
-0.0080372803 0.764 0.010716373 1.1161241e-38 314 232
-0.006697733 0.764 0.010716373 1.1161241e-38 315 232
-0.0053581866 0.764 0.010716373 1.1712972e-38 316 232
-0.0040186401 0.764 0.010716373 1.2082107e-38 317 232
-0.0026790933 0.764 0.010716373 1.2544529e-38 318 232
-0.0013395466 0.764 0.010716373 1.2912951e-38 319 232
0 0.764 0.010716373 1.337104e-38 320 232
0.0013395466 0.764 0.010716373 1.3186649e-38 321 232
0.0026790933 0.764 0.010716373 1.2729261e-38 322 232
0.0040186401 0.764 0.010716373 1.2821455e-38 323 232
0.0053441599 0.76200002 0.01068832 1.3372468e-38 324 232
0.0066801999 0.76200002 0.01068832 1.3188438e-38 325 232
0.0080162399 0.76200002 0.01068832 1.3371392e-38 326 232
0.0093522798 0.76200002 0.01068832 1.3463945e-38 327 232
0.01068832 0.76200002 0.01068832 1.3647257e-38 328 232
0.01202436 0.76200002 0.01068832 1.3186286e-38 329 232
0.0133604 0.76200002 0.01068832 1.2726391e-38 330 232
0.01469644 0.76200002 0.01068832 1.2449808e-38 331 232
0.01603248 0.76200002 0.01068832 1.1805884e-38 332 232
0.01736852 0.76200002 0.01068832 1.1344912e-38 333 232
0.01870456 0.76200002 0.01068832 1.1252359e-38 334 232
0.020093199 0.764 0.010716373 1.1067612e-38 335 232
0.021432746 0.764 0.010716373 1.115873e-38 336 232
0.022772292 0.764 0.010716373 1.1066536e-38 337 232
0.024174958 0.76599997 0.010744425 1.1066895e-38 338 232
0.025518013 0.76599997 0.010744425 1.1066895e-38 339 232
0.026861066 0.76599997 0.010744425 1.1065468e-38 340 232
0.02824094 0.76700002 0.010758453 1.0881076e-38 341 232
0.029585747 0.76700002 0.010758453 1.0511947e-38 342 232
0.030930554 0.76700002 0.010758453 1.0142804e-38 343 232
0.032443684 0.77100003 0.01081456 9.8647951e-39 344 232
0.033883166 0.773 0.010842613 9.6804052e-39 345 232
0.03528408 0.77399999 0.01085664 9.5878775e-39 346 232
0.036641158 0.77399999 0.01085664 1.0141051e-38 347 232
0.037998237 0.77399999 0.01085664 1.0231484e-38 348 232
0.039355319 0.77399999 0.01085664 1.2812962e-38 349 232
-0.035603184 0.78100002 0.0095854728 1.4752338e-38 294 233
-0.034233831 0.78100002 0.0095854728 1.3553795e-38 295 233
-0.032738242 0.778 0.0095486529 1.2449924e-38 296 233
-0.031374145 0.778 0.0095486529 1.2265532e-38 297 233
-0.029932907 0.77600002 0.009524107 1.1623034e-38 298 233
-0.028498679 0.77399999 0.0094995592 1.2360599e-38 299 233
-0.027106533 0.773 0.0094872871 1.2914912e-38 300 233
-0.025751207 0.773 0.0094872871 1.3283336e-38 301 233
-0.02433276 0.77100003 0.0094627403 1.2913516e-38 302 233
-0.022921326 0.76899999 0.0094381925 1.3098266e-38 303 233
-0.021573013 0.76899999 0.0094381925 1.2173783e-38 304 233
-0.0202247 0.76899999 0.0094381925 1.0790849e-38 305 233
-0.018827293 0.76700002 0.0094136465 1.0979196e-38 306 233
-0.017482487 0.76700002 0.0094136465 1.1808596e-38 307 233
-0.01613768 0.76700002 0.0094136465 1.3652121e-38 308 233
-0.014792874 0.76700002 0.0094136465 1.3006751e-38 309 233
-0.013448066 0.76700002 0.0094136465 1.1259272e-38 310 233
