# .PCD v.7 - Point Cloud Data file format
FIELDS x y z rgb imX imY
SIZE 4 4 4 4 4 4
TYPE F F F F F F
COUNT 1 1 1 1 1 1
WIDTH 865
HEIGHT 1
VIEWPOINT 0 0 0 1 0 0 0
POINTS 865
DATA ascii
-0.014773586 0.76599997 0.029547172 9.6546003e-39 309 218
-0.013448066 0.76700002 0.029585747 8.9234882e-39 310 218
-0.01216638 0.77100003 0.029740039 9.1075194e-39 311 218
-0.01085664 0.77399999 0.029855758 8.0069157e-39 312 218
-0.009524107 0.77600002 0.029932907 7.730689e-39 313 218
-0.0081635201 0.77600002 0.029932907 7.0853294e-39 314 218
-0.0068029333 0.77600002 0.029932907 6.9931337e-39 315 218
-0.0054423464 0.77600002 0.029932907 6.9002375e-39 316 218
-0.0040817601 0.77600002 0.029932907 6.9924331e-39 317 218
-0.0027211732 0.77600002 0.029932907 6.9006102e-39 318 218
-0.0013570799 0.77399999 0.029855758 7.1771971e-39 319 218
0 0.76899999 0.02966289 7.1771971e-39 320 218
0.0013448066 0.76700002 0.029585747 7.5459796e-39 321 218
0.0026896133 0.76700002 0.029585747 8.5572421e-39 322 218
0.0040291594 0.76599997 0.029547172 8.9260232e-39 323 218
0.0053581866 0.764 0.029470026 1.0391797e-38 324 218
0.006697733 0.764 0.029470026 1.011521e-38 325 218
0.0080583189 0.76599997 0.029547172 1.1027462e-38 326 218
0.0094013726 0.76599997 0.029547172 1.0566124e-38 327 218
0.010716373 0.764 0.029470026 1.1484473e-38 328 218
0.01205592 0.764 0.029470026 1.2129843e-38 329 218
0.013395466 0.764 0.029470026 1.2040513e-38 330 218
0.014735013 0.764 0.029470026 1.1856482e-38 331 218
0.016074561 0.764 0.029470026 1.194653e-38 332 218
0.017459691 0.76599997 0.029547172 1.2038726e-38 333 218
0.018802745 0.76599997 0.029547172 1.1857219e-38 334 218
0.020172099 0.76700002 0.029585747 1.2226003e-38 335 218
0.021516906 0.76700002 0.029585747 1.1859017e-38 336 218
0.022861714 0.76700002 0.029585747 1.1859017e-38 337 218
0.024206521 0.76700002 0.029585747 1.1123263e-38 338 218
0.025551327 0.76700002 0.029585747 9.2793508e-39 339 218
0.026790932 0.764 0.029470026 8.9282176e-39 340 218
0.028130481 0.764 0.029470026 1.5750334e-38 341 218
0.029470026 0.764 0.029470026 1.6129193e-38 342 218
-0.04437862 0.76700002 0.02824094 7.100511e-39 287 219
-0.043146025 0.76899999 0.028314579 5.8929799e-39 288 219
-0.041797712 0.76899999 0.028314579 3.2193067e-39 289 219
-0.040344197 0.76700002 0.02824094 4.7758494e-39 290 219
-0.038948543 0.76599997 0.028204117 6.7119576e-39 291 219
-0.037507307 0.764 0.028130481 9.6679813e-39 292 219
-0.036167759 0.764 0.028130481 9.9445682e-39 293 219
-0.034737039 0.76200002 0.028056841 8.828476e-39 294 219
-0.033401001 0.76200002 0.028056841 8.4596921e-39 295 219
-0.032064959 0.76200002 0.028056841 8.6386505e-39 296 219
-0.030688593 0.76099998 0.028020019 8.1780325e-39 297 219
-0.029354304 0.76099998 0.028020019 8.4506719e-39 298 219
-0.028020019 0.76099998 0.028020019 8.2662807e-39 299 219
-0.026685731 0.76099998 0.028020019 8.7312217e-39 300 219
-0.025351444 0.76099998 0.028020019 1.0298547e-38 301 219
-0.024017159 0.76099998 0.028020019 1.1032497e-38 302 219
-0.022682872 0.76099998 0.028020019 1.0110541e-38 303 219
-0.021348584 0.76099998 0.028020019 9.6495626e-39 304 219
-0.020014299 0.76099998 0.028020019 9.7417583e-39 305 219
-0.018680012 0.76099998 0.028020019 9.7421296e-39 306 219
-0.017345725 0.76099998 0.028020019 9.8343266e-39 307 219
-0.016011439 0.76099998 0.028020019 9.8368308e-39 308 219
-0.01469644 0.76200002 0.028056841 1.0021222e-38 309 219
-0.013448066 0.76700002 0.02824094 9.3819426e-39 310 219
-0.01221372 0.77399999 0.028498679 9.4741383e-39 311 219
-0.01085664 0.77399999 0.028498679 8.3735374e-39 312 219
-0.009524107 0.77600002 0.028572321 8.0043962e-39 313 219
-0.0081635201 0.77600002 0.028572321 7.084263e-39 314 219
-0.0068029333 0.77600002 0.028572321 6.6229247e-39 315 219
-0.0054423464 0.77600002 0.028572321 6.2552436e-39 316 219
-0.0040817601 0.77600002 0.028572321 6.2552436e-39 317 219
-0.0027211732 0.77600002 0.028572321 6.0726642e-39 318 219
-0.0013570799 0.77399999 0.028498679 6.1648599e-39 319 219
0 0.76700002 0.02824094 6.900983e-39 320 219
0.0013430532 0.76599997 0.028204117 7.361601e-39 321 219
0.0026861064 0.76599997 0.028204117 8.6472923e-39 322 219
0.0040081199 0.76200002 0.028056841 9.0157147e-39 323 219
0.0053441599 0.76200002 0.028056841 1.0115936e-38 324 219
0.0066801999 0.76200002 0.028056841 9.8393489e-39 325 219
0.0080162399 0.76200002 0.028056841 1.0844872e-38 326 219
0.0093522798 0.76200002 0.028056841 1.0199502e-38 327 219
0.01068832 0.76200002 0.028056841 1.1118579e-38 328 219
0.01205592 0.764 0.028130481 1.148772e-38 329 219
0.0133604 0.76200002 0.028056841 1.1856128e-38 330 219
0.01469644 0.76200002 0.028056841 1.1856128e-38 331 219
0.01603248 0.76200002 0.028056841 1.1946528e-38 332 219
0.017414106 0.764 0.028130481 1.2222756e-38 333 219
0.018802745 0.76599997 0.028204117 1.1948695e-38 334 219
0.020145798 0.76599997 0.028204117 1.2133087e-38 335 219
0.021488851 0.76599997 0.028204117 1.2317474e-38 336 219
0.022861714 0.76700002 0.02824094 1.2409671e-38 337 219
0.024206521 0.76700002 0.02824094 1.1859014e-38 338 219
0.025551327 0.76700002 0.02824094 9.9229055e-39 339 219
0.026861066 0.76599997 0.028204117 7.6288398e-39 340 219
0.028204117 0.76599997 0.028204117 1.4820099e-38 341 219
0.029547172 0.76599997 0.028204117 1.4472193e-38 342 219
-0.04437862 0.76700002 0.026896132 6.1774771e-39 287 220
-0.043033812 0.76700002 0.026896132 6.2585198e-39 288 220
-0.041689005 0.76700002 0.026896132 4.0458233e-39 289 220
-0.040344197 0.76700002 0.026896132 5.7871104e-39 290 220
-0.038948543 0.76599997 0.026861066 6.6168725e-39 291 220
-0.037507307 0.764 0.026790932 8.6491448e-39 292 220
-0.036167759 0.764 0.026790932 8.5569492e-39 293 220
-0.034737039 0.76200002 0.0267208 8.8248817e-39 294 220
-0.033401001 0.76200002 0.0267208 8.4560991e-39 295 220
-0.032022879 0.76099998 0.026685731 8.7305028e-39 296 220
-0.030688593 0.76099998 0.026685731 8.5457514e-39 297 220
-0.029354304 0.76099998 0.026685731 8.5461017e-39 298 220
-0.028020019 0.76099998 0.026685731 8.6386561e-39 299 220
-0.026615599 0.759 0.026615599 9.1885873e-39 300 220
-0.025284819 0.759 0.026615599 1.0294935e-38 301 220
-0.023954039 0.759 0.026615599 1.1031055e-38 302 220
-0.02262326 0.759 0.026615599 1.0938499e-38 303 220
-0.021348584 0.76099998 0.026685731 9.9286705e-39 304 220
-0.020014299 0.76099998 0.026685731 9.283301e-39 305 220
-0.018680012 0.76099998 0.026685731 9.9261565e-39 306 220
-0.017345725 0.76099998 0.026685731 1.0202383e-38 307 220
-0.016011439 0.76099998 0.026685731 9.8375468e-39 308 220
-0.014677152 0.76099998 0.026685731 1.0021938e-38 309 220
-0.0133604 0.76200002 0.0267208 9.2901184e-39 310 220
-0.01202436 0.76200002 0.0267208 9.382314e-39 311 220
-0.010884693 0.77600002 0.027211733 8.2813572e-39 312 220
-0.009524107 0.77600002 0.027211733 7.8203805e-39 313 220
-0.0081635201 0.77600002 0.027211733 6.5296543e-39 314 220
-0.0068029333 0.77600002 0.027211733 6.1612319e-39 315 220
-0.0054423464 0.77600002 0.027211733 6.0683314e-39 316 220
-0.0040817601 0.77600002 0.027211733 5.8839401e-39 317 220
-0.0027211732 0.77600002 0.027211733 5.9757798e-39 318 220
-0.0013448066 0.76700002 0.026896132 6.1605312e-39 319 220
0 0.76700002 0.026896132 7.3561976e-39 320 220
0.0013430532 0.76599997 0.026861066 7.9093713e-39 321 220
0.0026790933 0.764 0.026790932 9.1028783e-39 322 220
0.0040081199 0.76200002 0.0267208 9.5634977e-39 323 220
0.0053441599 0.76200002 0.0267208 1.048186e-38 324 220
0.0066801999 0.76200002 0.0267208 1.0389664e-38 325 220
0.0080162399 0.76200002 0.0267208 1.0844881e-38 326 220
0.0093522798 0.76200002 0.0267208 1.0384263e-38 327 220
0.01068832 0.76200002 0.0267208 1.1299373e-38 328 220
0.01202436 0.76200002 0.0267208 1.1668516e-38 329 220
0.0133604 0.76200002 0.0267208 1.2037644e-38 330 220
0.01469644 0.76200002 0.0267208 1.212984e-38 331 220
0.01603248 0.76200002 0.0267208 1.1946528e-38 332 220
0.01736852 0.76200002 0.0267208 1.2038723e-38 333 220
0.018753653 0.764 0.026790932 1.2132361e-38 334 220
0.020093199 0.764 0.026790932 1.2316752e-38 335 220
0.021488851 0.76599997 0.026861066 1.2133443e-38 336 220
0.022831906 0.76599997 0.026861066 1.2317474e-38 337 220
0.024206521 0.76700002 0.026896132 1.1673185e-38 338 220
0.025551327 0.76700002 0.026896132 1.0658673e-38 339 220
0.026896132 0.76700002 0.026896132 8.1751766e-39 340 220
0.02824094 0.76700002 0.026896132 1.1955197e-38 341 220
0.029585747 0.76700002 0.026896132 1.2168381e-38 342 220
-0.04437862 0.76700002 0.025551327 5.9927187e-39 287 221
-0.043033812 0.76700002 0.025551327 6.3496239e-39 288 221
-0.041689005 0.76700002 0.025551327 4.5057113e-39 289 221
-0.040344197 0.76700002 0.025551327 5.8796634e-39 290 221
-0.038948543 0.76599997 0.025518013 5.971859e-39 291 221
-0.037507307 0.764 0.025451386 7.1700491e-39 292 221
-0.036167759 0.764 0.025451386 8.2763952e-39 293 221
-0.034737039 0.76200002 0.02538476 8.7323133e-39 294 221
-0.033357166 0.76099998 0.025351444 8.6401177e-39 295 221
-0.032022879 0.76099998 0.025351444 9.1914613e-39 296 221
-0.030688593 0.76099998 0.025351444 9.283657e-39 297 221
-0.029277159 0.759 0.025284819 9.7431862e-39 298 221
-0.027946379 0.759 0.025284819 9.8353818e-39 299 221
-0.026615599 0.759 0.025284819 1.0567556e-38 300 221
-0.025284819 0.759 0.025284819 1.112073e-38 301 221
-0.023954039 0.759 0.025284819 1.0939559e-38 302 221
-0.02262326 0.759 0.025284819 1.1216147e-38 303 221
-0.02129248 0.759 0.025284819 1.1213629e-38 304 221
-0.0199617 0.759 0.025284819 1.0844846e-38 305 221
-0.01863092 0.759 0.025284819 1.0845219e-38 306 221
-0.017300138 0.759 0.025284819 1.0937415e-38 307 221
-0.015969358 0.759 0.025284819 1.0939208e-38 308 221
-0.014677152 0.76099998 0.025351444 1.0939208e-38 309 221
-0.013342866 0.76099998 0.025351444 1.038963e-38 310 221
-0.012008579 0.76099998 0.025351444 1.0297433e-38 311 221
-0.010674292 0.76099998 0.025351444 9.3801462e-39 312 221
-0.0093400059 0.76099998 0.025351444 8.8269724e-39 313 221
-0.0079425992 0.755 0.025151566 7.2636138e-39 314 221
-0.0066188332 0.755 0.025151566 7.355808e-39 315 221
-0.0052950666 0.755 0.025151566 7.447303e-39 316 221
-0.0039712996 0.755 0.025151566 7.447303e-39 317 221
-0.0026896133 0.76700002 0.025551327 7.4476673e-39 318 221
-0.0013448066 0.76700002 0.025551327 7.3554703e-39 319 221
0 0.76700002 0.025551327 8.4564144e-39 320 221
0.0013430532 0.76599997 0.025518013 8.9170325e-39 321 221
0.00267208 0.76200002 0.02538476 9.5620515e-39 322 221
0.0040028598 0.76099998 0.025351444 9.9311942e-39 323 221
0.0053371461 0.76099998 0.025351444 1.0389301e-38 324 221
0.0066714329 0.76099998 0.025351444 1.0389301e-38 325 221
0.0080057196 0.76099998 0.025351444 1.0845237e-38 326 221
0.0093400059 0.76099998 0.025351444 1.0199868e-38 327 221
0.010674292 0.76099998 0.025351444 1.1117507e-38 328 221
0.012008579 0.76099998 0.025351444 1.1210061e-38 329 221
0.013342866 0.76099998 0.025351444 1.1578118e-38 330 221
0.014677152 0.76099998 0.025351444 1.1670313e-38 331 221
0.016011439 0.76099998 0.025351444 1.2129487e-38 332 221
0.01736852 0.76200002 0.02538476 1.2222041e-38 333 221
0.01870456 0.76200002 0.02538476 1.2132008e-38 334 221
0.0200406 0.76200002 0.02538476 1.2224203e-38 335 221
0.021432746 0.764 0.025451386 1.2316755e-38 336 221
0.022831906 0.76599997 0.025518013 1.2224559e-38 337 221
0.024174958 0.76599997 0.025518013 1.1763581e-38 338 221
0.025518013 0.76599997 0.025518013 1.0288451e-38 339 221
0.026861066 0.76599997 0.025518013 8.0822593e-39 340 221
0.028204117 0.76599997 0.025518013 1.0018368e-38 341 221
0.029547172 0.76599997 0.025518013 1.0320506e-38 342 221
-0.045961879 0.77100003 0.02433276 1.3827549e-38 286 222
-0.044494338 0.76899999 0.024269639 6.1753121e-39 287 222
-0.043146025 0.76899999 0.024269639 6.6265667e-39 288 222
-0.041689005 0.76700002 0.024206521 4.8744896e-39 289 222
-0.040344197 0.76700002 0.024206521 6.1566034e-39 290 222
-0.038948543 0.76599997 0.024174958 6.0644078e-39 291 222
-0.037507307 0.764 0.024111839 6.9831369e-39 292 222
-0.036073081 0.76200002 0.02404872 7.6285063e-39 293 222
-0.034737039 0.76200002 0.02404872 8.7297938e-39 294 222
-0.033357166 0.76099998 0.024017159 9.0985749e-39 295 222
-0.032022879 0.76099998 0.024017159 9.3765757e-39 296 222
-0.030688593 0.76099998 0.024017159 9.9293893e-39 297 222
-0.029277159 0.759 0.023954039 1.0022294e-38 298 222
-0.027946379 0.759 0.023954039 1.0390718e-38 299 222
-0.026545467 0.75700003 0.02389092 1.1399462e-38 300 222
-0.025218192 0.75700003 0.02389092 1.1491658e-38 301 222
-0.02389092 0.75700003 0.02389092 1.1400894e-38 302 222
-0.022563647 0.75700003 0.02389092 1.1769677e-38 303 222
-0.02129248 0.759 0.023954039 1.1584209e-38 304 222
-0.0199617 0.759 0.023954039 1.1123233e-38 305 222
-0.01863092 0.759 0.023954039 1.1399462e-38 306 222
-0.017300138 0.759 0.023954039 1.1399462e-38 307 222
-0.015969358 0.759 0.023954039 1.1399109e-38 308 222
-0.014638579 0.759 0.023954039 1.1306913e-38 309 222
-0.0133078 0.759 0.023954039 1.075554e-38 310 222
-0.01197702 0.759 0.023954039 1.075554e-38 311 222
-0.010590133 0.755 0.023827799 9.6545849e-39 312 222
-0.0092663663 0.755 0.023827799 9.377998e-39 313 222
-0.0079425992 0.755 0.023827799 8.5507611e-39 314 222
-0.0066188332 0.755 0.023827799 8.5507611e-39 315 222
-0.0052950666 0.755 0.023827799 8.8288025e-39 316 222
-0.0039712996 0.755 0.023827799 9.2901408e-39 317 222
-0.0026440267 0.75400001 0.02379624 9.4745278e-39 318 222
-0.0013220133 0.75400001 0.02379624 9.0135511e-39 319 222
0 0.75400001 0.02379624 9.2843758e-39 320 222
0.0013272733 0.75700003 0.02389092 9.5609641e-39 321 222
0.0026545466 0.75700003 0.02389092 9.9293921e-39 322 222
0.0039818203 0.75700003 0.02389092 1.0113785e-38 323 222
0.0053231199 0.759 0.023954039 1.0296028e-38 324 222
0.0066538998 0.759 0.023954039 1.0296028e-38 325 222
0.0079846792 0.759 0.023954039 1.0751967e-38 326 222
0.00931546 0.759 0.023954039 1.0567576e-38 327 222
0.010674292 0.76099998 0.024017159 1.1117863e-38 328 222
0.012008579 0.76099998 0.024017159 1.1210058e-38 329 222
0.013342866 0.76099998 0.024017159 1.1761783e-38 330 222
0.014677152 0.76099998 0.024017159 1.1946175e-38 331 222
0.016011439 0.76099998 0.024017159 1.1946175e-38 332 222
0.017345725 0.76099998 0.024017159 1.1946175e-38 333 222
0.01870456 0.76200002 0.02404872 1.2039809e-38 334 222
0.0200406 0.76200002 0.02404872 1.2224559e-38 335 222
0.02137664 0.76200002 0.02404872 1.2041244e-38 336 222
0.022772292 0.764 0.024111839 1.1949049e-38 337 222
0.024111839 0.764 0.024111839 1.1396241e-38 338 222
0.025518013 0.76599997 0.024174958 1.0382449e-38 339 222
0.026861066 0.76599997 0.024174958 8.4535558e-39 340 222
0.028204117 0.76599997 0.024174958 8.5457514e-39 341 222
0.029547172 0.76599997 0.024174958 9.9448835e-39 342 222
0.030890226 0.76599997 0.024174958 1.5752849e-38 343 222
-0.045961879 0.77100003 0.02298094 1.3091061e-38 286 223
-0.044610061 0.77100003 0.02298094 6.1760282e-39 287 223
-0.043146025 0.76899999 0.022921326 7.6389165e-39 288 223
-0.041689005 0.76700002 0.022861714 5.7950039e-39 289 223
-0.040344197 0.76700002 0.022861714 6.1583943e-39 290 223
-0.038948543 0.76599997 0.022831906 5.8818088e-39 291 223
-0.037507307 0.764 0.022772292 6.8905741e-39 292 223
-0.036073081 0.76200002 0.02271268 7.4433892e-39 293 223
-0.034691449 0.76099998 0.022682872 8.3628119e-39 294 223
-0.033357166 0.76099998 0.022682872 8.6393988e-39 295 223
-0.031938717 0.759 0.02262326 9.2833067e-39 296 223
-0.030607941 0.759 0.02262326 9.5595348e-39 297 223
-0.029277159 0.759 0.02262326 1.0110894e-38 298 223
-0.027872739 0.75700003 0.022563647 1.0571872e-38 299 223
-0.026545467 0.75700003 0.022563647 1.1310866e-38 300 223
-0.025218192 0.75700003 0.022563647 1.1679289e-38 301 223
-0.02389092 0.75700003 0.022563647 1.2323574e-38 302 223
-0.022563647 0.75700003 0.022563647 1.2046985e-38 303 223
-0.021236373 0.75700003 0.022563647 1.2320327e-38 304 223
-0.019909101 0.75700003 0.022563647 1.1951903e-38 305 223
-0.01863092 0.759 0.02262326 1.1952622e-38 306 223
-0.017300138 0.759 0.02262326 1.1860068e-38 307 223
-0.015969358 0.759 0.02262326 1.1766805e-38 308 223
-0.014638579 0.759 0.02262326 1.148986e-38 309 223
-0.0133078 0.759 0.02262326 1.1305477e-38 310 223
-0.01197702 0.759 0.02262326 1.1213281e-38 311 223
-0.010590133 0.755 0.022504034 1.0204169e-38 312 223
-0.0092663663 0.755 0.022504034 1.0111973e-38 313 223
-0.0079425992 0.755 0.022504034 9.3765687e-39 314 223
-0.0066188332 0.755 0.022504034 9.4691244e-39 315 223
-0.0052950666 0.755 0.022504034 9.1943424e-39 316 223
-0.00396604 0.75400001 0.022474226 9.1943424e-39 317 223
-0.0026440267 0.75400001 0.022474226 9.1936236e-39 318 223
-0.0013220133 0.75400001 0.022474226 9.0092309e-39 319 223
0 0.75400001 0.022474226 9.282222e-39 320 223
0.0013220133 0.75400001 0.022474226 9.3744177e-39 321 223
0.0026440267 0.75400001 0.022474226 9.8336064e-39 322 223
0.00396604 0.75400001 0.022474226 1.020203e-38 323 223
0.0052950666 0.755 0.022504034 1.0293513e-38 324 223
0.0066363667 0.75700003 0.022563647 1.0201317e-38 325 223
0.0079636406 0.75700003 0.022563647 1.0934916e-38 326 223
0.0092909131 0.75700003 0.022563647 1.0842721e-38 327 223
0.010618187 0.75700003 0.022563647 1.121113e-38 328 223
0.01197702 0.759 0.02262326 1.1303326e-38 329 223
0.0133078 0.759 0.02262326 1.1670667e-38 330 223
0.014638579 0.759 0.02262326 1.1854698e-38 331 223
0.016011439 0.76099998 0.022682872 1.1763581e-38 332 223
0.017345725 0.76099998 0.022682872 1.1763581e-38 333 223
0.01870456 0.76200002 0.02271268 1.1673185e-38 334 223
0.0200406 0.76200002 0.02271268 1.1673185e-38 335 223
0.02137664 0.76200002 0.02271268 1.1581708e-38 336 223
0.022772292 0.764 0.022772292 1.1305121e-38 337 223
0.024111839 0.764 0.022772292 1.0935267e-38 338 223
0.025551327 0.76700002 0.022861714 1.0105505e-38 339 223
0.026861066 0.76599997 0.022831906 8.728335e-39 340 223
0.028204117 0.76599997 0.022831906 7.99077e-39 341 223
0.029547172 0.76599997 0.022831906 9.8472802e-39 342 223
0.030890226 0.76599997 0.022831906 1.620842e-38 343 223
-0.045961879 0.77100003 0.021629119 1.2631157e-38 286 224
-0.044610061 0.77100003 0.021629119 6.2693e-39 287 224
-0.043146025 0.76899999 0.021573013 8.0988157e-39 288 224
-0.041797712 0.76899999 0.021573013 6.3474589e-39 289 224
-0.040344197 0.76700002 0.021516906 6.5264523e-39 290 224
-0.038948543 0.76599997 0.021488851 6.0654742e-39 291 224
-0.037507307 0.764 0.021432746 7.0742339e-39 292 224
-0.036073081 0.76200002 0.02137664 7.5355722e-39 293 224
-0.034691449 0.76099998 0.021348584 8.2706093e-39 294 224
-0.033269498 0.759 0.02129248 8.4550019e-39 295 224
-0.031938717 0.759 0.02129248 9.1886041e-39 296 224
-0.030607941 0.759 0.02129248 9.0964071e-39 297 224
-0.029200014 0.75700003 0.021236373 1.0014052e-38 298 224
-0.027872739 0.75700003 0.021236373 1.0475028e-38 299 224
-0.026545467 0.75700003 0.021236373 1.1029999e-38 300 224
-0.025218192 0.75700003 0.021236373 1.2320737e-38 301 224
-0.023827799 0.755 0.021180267 1.287676e-38 302 224
-0.022504034 0.755 0.021180267 1.2323586e-38 303 224
-0.021236373 0.75700003 0.021236373 1.2505793e-38 304 224
-0.019909101 0.75700003 0.021236373 1.2137012e-38 305 224
-0.018581826 0.75700003 0.021236373 1.2412159e-38 306 224
-0.017254554 0.75700003 0.021236373 1.2227408e-38 307 224
-0.015927281 0.75700003 0.021236373 1.2317458e-38 308 224
-0.014600007 0.75700003 0.021236373 1.1764285e-38 309 224
-0.013272733 0.75700003 0.021236373 1.157919e-38 310 224
-0.01194546 0.75700003 0.021236373 1.157919e-38 311 224
-0.010590133 0.755 0.021180267 1.0661919e-38 312 224
-0.0092663663 0.755 0.021180267 1.0569724e-38 313 224
-0.0079425992 0.755 0.021180267 9.8343266e-39 314 224
-0.0066100666 0.75400001 0.021152213 9.649934e-39 315 224
-0.0052880533 0.75400001 0.021152213 9.0971371e-39 316 224
-0.00396604 0.75400001 0.021152213 8.9127445e-39 317 224
-0.0026370131 0.75199997 0.021096105 9.0027863e-39 318 224
-0.0013185065 0.75199997 0.021096105 9.0027863e-39 319 224
0 0.75400001 0.021152213 9.4630316e-39 320 224
0.0013220133 0.75400001 0.021152213 9.4630316e-39 321 224
0.0026440267 0.75400001 0.021152213 1.0106598e-38 322 224
0.00396604 0.75400001 0.021152213 1.0383183e-38 323 224
0.0052880533 0.75400001 0.021152213 1.0566855e-38 324 224
0.0066188332 0.755 0.021180267 1.047466e-38 325 224
0.0079425992 0.755 0.021180267 1.0935269e-38 326 224
0.0092663663 0.755 0.021180267 1.1027465e-38 327 224
0.010618187 0.75700003 0.021236373 1.1395875e-38 328 224
0.01194546 0.75700003 0.021236373 1.1395875e-38 329 224
0.0133078 0.759 0.02129248 1.1854695e-38 330 224
0.014638579 0.759 0.02129248 1.1854695e-38 331 224
0.015969358 0.759 0.02129248 1.167103e-38 332 224
0.017345725 0.76099998 0.021348584 1.167103e-38 333 224
0.018680012 0.76099998 0.021348584 1.1488436e-38 334 224
0.0200406 0.76200002 0.02137664 1.1488436e-38 335 224
0.02137664 0.76200002 0.02137664 1.1305124e-38 336 224
0.022772292 0.764 0.021432746 1.1028537e-38 337 224
0.024111839 0.764 0.021432746 1.0199868e-38 338 224
0.025518013 0.76599997 0.021488851 9.3697486e-39 339 224
0.026861066 0.76599997 0.021488851 8.9109256e-39 340 224
0.028204117 0.76599997 0.021488851 8.2655562e-39 341 224
0.029585747 0.76700002 0.021516906 1.0121341e-38 342 224
0.031011207 0.76899999 0.021573013 1.6298807e-38 343 224
-0.047497798 0.77399999 0.020356199 1.4934973e-38 285 225
-0.046081103 0.773 0.0203299 1.2629003e-38 286 225
-0.044610061 0.77100003 0.020277301 6.6362875e-39 287 225
-0.043146025 0.76899999 0.0202247 8.0080662e-39 288 225
-0.041797712 0.76899999 0.0202247 6.1645123e-39 289 225
-0.040344197 0.76700002 0.020172099 6.1594747e-39 290 225
-0.038948543 0.76599997 0.020145798 5.8825276e-39 291 225
-0.037507307 0.764 0.020093199 7.1664295e-39 292 225
-0.036073081 0.76200002 0.0200406 7.7196033e-39 293 225
-0.034691449 0.76099998 0.020014299 8.1798486e-39 294 225
-0.033269498 0.759 0.0199617 8.3642412e-39 295 225
-0.031938717 0.759 0.0199617 9.0967602e-39 296 225
-0.030527288 0.75700003 0.019909101 9.0045646e-39 297 225
-0.029200014 0.75700003 0.019909101 9.7370947e-39 298 225
-0.027872739 0.75700003 0.019909101 9.8292904e-39 299 225
-0.026475333 0.755 0.0198565 1.0197361e-38 300 225
-0.025151566 0.755 0.0198565 1.102748e-38 301 225
-0.023827799 0.755 0.0198565 1.1490957e-38 302 225
-0.022504034 0.755 0.0198565 1.1951935e-38 303 225
-0.021236373 0.75700003 0.019909101 1.2686238e-38 304 225
-0.019909101 0.75700003 0.019909101 1.2962825e-38 305 225
-0.018581826 0.75700003 0.019909101 1.2596916e-38 306 225
-0.017254554 0.75700003 0.019909101 1.232033e-38 307 225
-0.015927281 0.75700003 0.019909101 1.2592966e-38 308 225
-0.014600007 0.75700003 0.019909101 1.2039794e-38 309 225
-0.013272733 0.75700003 0.019909101 1.176178e-38 310 225
-0.011913899 0.755 0.0198565 1.1577389e-38 311 225
-0.010590133 0.755 0.0198565 1.0659403e-38 312 225
-0.0092663663 0.755 0.0198565 1.0567206e-38 313 225
-0.00793208 0.75400001 0.019830201 9.8307365e-39 314 225
-0.0066100666 0.75400001 0.019830201 9.4615939e-39 315 225
-0.0052880533 0.75400001 0.019830201 8.9080684e-39 316 225
-0.0039555198 0.75199997 0.0197776 8.7243946e-39 317 225
-0.0026370131 0.75199997 0.0197776 9.0917309e-39 318 225
-0.0013185065 0.75199997 0.0197776 9.9211329e-39 319 225
0 0.75400001 0.019830201 9.3740547e-39 320 225
0.0013220133 0.75400001 0.019830201 9.6502815e-39 321 225
0.0026440267 0.75400001 0.019830201 1.0109099e-38 322 225
0.00396604 0.75400001 0.019830201 1.0385686e-38 323 225
0.0052880533 0.75400001 0.019830201 1.0661194e-38 324 225
0.0066100666 0.75400001 0.019830201 1.0661194e-38 325 225
0.00793208 0.75400001 0.019830201 1.1028534e-38 326 225
0.0092663663 0.755 0.0198565 1.112073e-38 327 225
0.010590133 0.755 0.0198565 1.1488786e-38 328 225
0.011913899 0.755 0.0198565 1.1488786e-38 329 225
0.013272733 0.75700003 0.019909101 1.1671383e-38 330 225
0.014600007 0.75700003 0.019909101 1.1579187e-38 331 225
0.015969358 0.759 0.0199617 1.1854701e-38 332 225
0.017300138 0.759 0.0199617 1.1670311e-38 333 225
0.018680012 0.76099998 0.020014299 1.1671748e-38 334 225
0.020014299 0.76099998 0.020014299 1.1671748e-38 335 225
0.02137664 0.76200002 0.0200406 1.0937064e-38 336 225
0.02271268 0.76200002 0.0200406 1.0567922e-38 337 225
0.024111839 0.764 0.020093199 9.8310868e-39 338 225
0.025518013 0.76599997 0.020145798 9.5544985e-39 339 225
0.026896132 0.76700002 0.020172099 9.2797039e-39 340 225
0.02824094 0.76700002 0.020172099 9.2797039e-39 341 225
0.029585747 0.76700002 0.020172099 1.0764548e-38 342 225
0.031011207 0.76899999 0.0202247 1.6480318e-38 343 225
0.032359518 0.76899999 0.0202247 1.5484164e-38 344 225
-0.047497798 0.77399999 0.018999118 1.5393793e-38 285 226
-0.046081103 0.773 0.018974574 1.2628285e-38 286 226
-0.044610061 0.77100003 0.018925481 7.5571648e-39 287 226
-0.043146025 0.76899999 0.018876385 8.1931847e-39 288 226
-0.041689005 0.76700002 0.018827293 5.7960998e-39 289 226
-0.040291596 0.76599997 0.018802745 6.3417177e-39 290 226
-0.038948543 0.76599997 0.018802745 6.3417177e-39 291 226
-0.037409119 0.76200002 0.01870456 7.1685875e-39 292 226
-0.036025736 0.76099998 0.018680012 7.2607832e-39 293 226
-0.034691449 0.76099998 0.018680012 8.3642384e-39 294 226
-0.033269498 0.759 0.01863092 8.6408239e-39 295 226
-0.031938717 0.759 0.01863092 9.2818591e-39 296 226
-0.030527288 0.75700003 0.018581826 9.0971077e-39 297 226
-0.029200014 0.75700003 0.018581826 9.6466914e-39 298 226
-0.027799098 0.755 0.018532733 9.3701045e-39 299 226
-0.026475333 0.755 0.018532733 1.0101934e-38 300 226
-0.025151566 0.755 0.018532733 1.0746945e-38 301 226
-0.023827799 0.755 0.018532733 1.0841664e-38 302 226
-0.022504034 0.755 0.018532733 1.1302641e-38 303 226
-0.021180267 0.755 0.018532733 1.2133106e-38 304 226
-0.0198565 0.755 0.018532733 1.3423845e-38 305 226
-0.018581826 0.75700003 0.018581826 1.2872797e-38 306 226
-0.017208965 0.755 0.018532733 1.2411819e-38 307 226
-0.015885198 0.755 0.018532733 1.2684796e-38 308 226
-0.014561433 0.755 0.018532733 1.1855035e-38 309 226
-0.013237666 0.755 0.018532733 1.1392278e-38 310 226
-0.011913899 0.755 0.018532733 1.1115692e-38 311 226
-0.010590133 0.755 0.018532733 1.0746932e-38 312 226
-0.0092663663 0.755 0.018532733 1.0562539e-38 313 226
-0.00793208 0.75400001 0.018508185 9.8267834e-39 314 226
-0.0066100666 0.75400001 0.018508185 9.4590771e-39 315 226
-0.0052880533 0.75400001 0.018508185 8.9080627e-39 316 226
-0.0039555198 0.75199997 0.018459093 9.0917351e-39 317 226
-0.0026370131 0.75199997 0.018459093 9.5544957e-39 318 226
-0.0013185065 0.75199997 0.018459093 1.0476812e-38 319 226
0 0.75199997 0.018459093 1.0202368e-38 320 226
0.0013185065 0.75199997 0.018459093 1.0202368e-38 321 226
0.0026370131 0.75199997 0.018459093 1.0754093e-38 322 226
0.0039555198 0.75199997 0.018459093 1.0938484e-38 323 226
0.0052880533 0.75400001 0.018508185 1.1213629e-38 324 226
0.0066100666 0.75400001 0.018508185 1.1490216e-38 325 226
0.00793208 0.75400001 0.018508185 1.1673885e-38 326 226
0.0092540924 0.75400001 0.018508185 1.1489493e-38 327 226
0.010576107 0.75400001 0.018508185 1.1764287e-38 328 226
0.011913899 0.755 0.018532733 1.1764287e-38 329 226
0.013237666 0.755 0.018532733 1.1855051e-38 330 226
0.014600007 0.75700003 0.018581826 1.167102e-38 331 226
0.015927281 0.75700003 0.018581826 1.1853979e-38 332 226
0.017300138 0.759 0.01863092 1.1853979e-38 333 226
0.018680012 0.76099998 0.018680012 1.1486641e-38 334 226
0.020014299 0.76099998 0.018680012 1.1486641e-38 335 226
0.02137664 0.76200002 0.01870456 1.075232e-38 336 226
0.02271268 0.76200002 0.01870456 1.0383177e-38 337 226
0.024111839 0.764 0.018753653 9.6467082e-39 338 226
0.025518013 0.76599997 0.018802745 9.1860888e-39 339 226
0.026861066 0.76599997 0.018802745 8.5461045e-39 340 226
0.02824094 0.76700002 0.018827293 9.0992783e-39 341 226
0.029585747 0.76700002 0.018827293 1.1500315e-38 342 226
0.031011207 0.76899999 0.018876385 1.6478879e-38 343 226
0.032359518 0.76899999 0.018876385 1.5207216e-38 344 226
-0.047497798 0.77399999 0.01764204 1.5210481e-38 285 227
-0.046081103 0.773 0.017619247 1.2536808e-38 286 227
-0.044610061 0.77100003 0.01757366 7.8348293e-39 287 227
-0.043146025 0.76899999 0.017528072 8.1928288e-39 288 227
-0.041689005 0.76700002 0.017482487 5.3351244e-39 289 227
-0.040291596 0.76599997 0.017459691 6.5257517e-39 290 227
-0.038846854 0.764 0.017414106 6.3417205e-39 291 227
-0.037360024 0.76099998 0.017345725 7.1678687e-39 292 227
-0.036025736 0.76099998 0.017345725 7.7206837e-39 293 227
-0.034600276 0.759 0.017300138 8.5468346e-39 294 227
-0.033269498 0.759 0.017300138 9.0078114e-39 295 227
-0.031938717 0.759 0.017300138 9.3744233e-39 296 227
-0.030527288 0.75700003 0.017254554 9.2822277e-39 297 227
-0.029122867 0.755 0.017208965 9.7399632e-39 298 227
-0.027799098 0.755 0.017208965 9.6477676e-39 299 227
-0.026475333 0.755 0.017208965 1.0470694e-38 300 227
-0.025151566 0.755 0.017208965 1.0470694e-38 301 227
-0.02379624 0.75400001 0.017186172 1.1112109e-38 302 227
-0.022474226 0.75400001 0.017186172 1.1203946e-38 303 227
-0.021180267 0.755 0.017208965 1.166636e-38 304 227
-0.0198565 0.755 0.017208965 1.2588677e-38 305 227
-0.018532733 0.755 0.017208965 1.2775212e-38 306 227
-0.017208965 0.755 0.017208965 1.3973755e-38 307 227
-0.015885198 0.755 0.017208965 1.2502573e-38 308 227
-0.014561433 0.755 0.017208965 1.1211834e-38 309 227
-0.013237666 0.755 0.017208965 1.1206089e-38 310 227
-0.011913899 0.755 0.017208965 1.1113893e-38 311 227
-0.010590133 0.755 0.017208965 1.0653653e-38 312 227
-0.0092540924 0.75400001 0.017186172 1.0377426e-38 313 227
-0.00793208 0.75400001 0.017186172 9.3672332e-39 314 227
-0.0066100666 0.75400001 0.017186172 9.5516259e-39 315 227
-0.0052880533 0.75400001 0.017186172 9.1867922e-39 316 227
-0.00396604 0.75400001 0.017186172 9.8321616e-39 317 227
-0.0026370131 0.75199997 0.017140586 1.0478597e-38 318 227
-0.0013185065 0.75199997 0.017140586 1.0755543e-38 319 227
0 0.75199997 0.017140586 1.0387481e-38 320 227
0.0013185065 0.75199997 0.017140586 1.0295285e-38 321 227
0.0026370131 0.75199997 0.017140586 1.0938855e-38 322 227
0.0039555198 0.75199997 0.017140586 1.1215444e-38 323 227
0.0052740262 0.75199997 0.017140586 1.1493813e-38 324 227
0.0066100666 0.75400001 0.017186172 1.1678204e-38 325 227
0.00793208 0.75400001 0.017186172 1.1952986e-38 326 227
0.0092540924 0.75400001 0.017186172 1.1768954e-38 327 227
0.010576107 0.75400001 0.017186172 1.2042313e-38 328 227
0.01189812 0.75400001 0.017186172 1.1673532e-38 329 227
0.013237666 0.755 0.017208965 1.1856134e-38 330 227
0.014561433 0.755 0.017208965 1.1763578e-38 331 227
0.015927281 0.75700003 0.017254554 1.1946896e-38 332 227
0.017254554 0.75700003 0.017254554 1.1578115e-38 333 227
0.01863092 0.759 0.017300138 1.1486285e-38 334 227
0.020014299 0.76099998 0.017345725 1.1210058e-38 335 227
0.02137664 0.76200002 0.01736852 1.0566858e-38 336 227
0.02271268 0.76200002 0.01736852 1.0197717e-38 337 227
0.024111839 0.764 0.017414106 9.1868048e-39 338 227
0.025451386 0.764 0.017414106 8.9105781e-39 339 227
0.026861066 0.76599997 0.017459691 7.258237e-39 340 227
0.02824094 0.76700002 0.017482487 9.3787365e-39 341 227
0.029585747 0.76700002 0.017482487 1.2056729e-38 342 227
0.031011207 0.76899999 0.017528072 1.5928945e-38 343 227
0.032359518 0.76899999 0.017528072 1.493243e-38 344 227
0.033707831 0.76899999 0.017528072 1.6315364e-38 345 227
-0.049107358 0.778 0.016369121 1.7423529e-38 284 228
-0.047497798 0.77399999 0.016284959 1.530303e-38 285 228
-0.046081103 0.773 0.016263919 1.3180731e-38 286 228
-0.044610061 0.77100003 0.016221842 8.1099714e-39 287 228
-0.043258239 0.77100003 0.016221842 8.1009863e-39 288 228
-0.041689005 0.76700002 0.01613768 5.2432819e-39 289 228
-0.040291596 0.76599997 0.016116638 6.4328302e-39 290 228
-0.038846854 0.764 0.016074561 6.5250272e-39 291 228
-0.037360024 0.76099998 0.016011439 7.0753199e-39 292 228
-0.036025736 0.76099998 0.016011439 7.3515467e-39 293 228
-0.034600276 0.759 0.015969358 8.5475689e-39 294 228
-0.033269498 0.759 0.015969358 8.9167116e-39 295 228
-0.031854562 0.75700003 0.015927281 9.7446505e-39 296 228
-0.030527288 0.75700003 0.015927281 9.3758694e-39 297 228
-0.029122867 0.755 0.015885198 9.6488466e-39 298 228
-0.027799098 0.755 0.015885198 9.5566509e-39 299 228
-0.026475333 0.755 0.015885198 1.0196275e-38 300 228
-0.025118252 0.75400001 0.01586416 9.9196881e-39 301 228
-0.02379624 0.75400001 0.01586416 1.0836615e-38 302 228
-0.022474226 0.75400001 0.01586416 1.0928452e-38 303 228
-0.021180267 0.755 0.015885198 1.1112137e-38 304 228
-0.0198565 0.755 0.015885198 1.1573114e-38 305 228
-0.018532733 0.755 0.015885198 1.1393033e-38 306 228
-0.017208965 0.755 0.015885198 1.2315348e-38 307 228
-0.015885198 0.755 0.015885198 1.1582434e-38 308 228
-0.014561433 0.755 0.015885198 1.0937064e-38 309 228
-0.013237666 0.755 0.015885198 1.1484473e-38 310 228
-0.011913899 0.755 0.015885198 1.1023497e-38 311 228
-0.010590133 0.755 0.015885198 1.0838751e-38 312 228
-0.0092540924 0.75400001 0.01586416 1.0746555e-38 313 228
-0.00793208 0.75400001 0.01586416 1.001259e-38 314 228
-0.0066100666 0.75400001 0.01586416 1.0196981e-38 315 228
-0.0052880533 0.75400001 0.01586416 9.64955e-39 316 228
-0.0039555198 0.75199997 0.015822079 1.0478951e-38 317 228
-0.0026370131 0.75199997 0.015822079 1.0666563e-38 318 228
-0.0013185065 0.75199997 0.015822079 1.0758759e-38 319 228
0 0.75199997 0.015822079 1.0938484e-38 320 228
0.0013185065 0.75199997 0.015822079 1.0938484e-38 321 228
0.0026370131 0.75199997 0.015822079 1.0848093e-38 322 228
0.0039555198 0.75199997 0.015822079 1.1308711e-38 323 228
0.0052740262 0.75199997 0.015822079 1.1404484e-38 324 228
0.0066100666 0.75400001 0.01586416 1.1681071e-38 325 228
0.00793208 0.75400001 0.01586416 1.2047333e-38 326 228
0.0092540924 0.75400001 0.01586416 1.1862942e-38 327 228
0.010576107 0.75400001 0.01586416 1.2227781e-38 328 228
0.01189812 0.75400001 0.01586416 1.1858998e-38 329 228
0.013237666 0.755 0.015885198 1.1856131e-38 330 228
0.014561433 0.755 0.015885198 1.1763934e-38 331 228
0.015927281 0.75700003 0.015927281 1.1578834e-38 332 228
0.017254554 0.75700003 0.015927281 1.1394443e-38 333 228
0.01863092 0.759 0.015969358 1.0843437e-38 334 228
0.0199617 0.759 0.015969358 1.0567209e-38 335 228
0.021348584 0.76099998 0.016011439 1.0014768e-38 336 228
0.022682872 0.76099998 0.016011439 9.6463438e-39 337 228
0.02404872 0.76200002 0.01603248 8.9109466e-39 338 228
0.025451386 0.764 0.016074561 8.5421655e-39 339 228
0.026861066 0.76599997 0.016116638 6.8923411e-39 340 228
0.02824094 0.76700002 0.01613768 9.9351571e-39 341 228
0.029585747 0.76700002 0.01613768 1.2244361e-38 342 228
0.031011207 0.76899999 0.016179759 1.5379011e-38 343 228
0.032359518 0.76899999 0.016179759 1.4564369e-38 344 228
0.033707831 0.76899999 0.016179759 1.60395e-38 345 228
-0.050601196 0.77999997 0.0150436 1.7422453e-38 283 229
-0.049107358 0.778 0.015005025 1.7056192e-38 284 229
-0.047620531 0.77600002 0.014966453 1.5212279e-38 285 229
-0.046140719 0.77399999 0.014927879 1.3641716e-38 286 229
-0.044610061 0.77100003 0.01487002 8.2943697e-39 287 229
-0.043258239 0.77100003 0.01487002 7.9176684e-39 288 229
-0.041689005 0.76700002 0.014792874 5.1517995e-39 289 229
-0.040291596 0.76599997 0.014773586 6.4331833e-39 290 229
-0.038846854 0.764 0.014735013 6.4331833e-39 291 229
-0.037409119 0.76200002 0.01469644 6.9827669e-39 292 229
-0.036025736 0.76099998 0.014677152 6.9827669e-39 293 229
-0.034691449 0.76099998 0.014677152 8.0884082e-39 294 229
-0.033269498 0.759 0.014638579 9.6560941e-39 295 229
-0.031854562 0.75700003 0.014600007 1.0211779e-38 296 229
-0.030527288 0.75700003 0.014600007 9.1057902e-39 297 229
-0.029122867 0.755 0.014561433 9.1907733e-39 298 229
-0.027799098 0.755 0.014561433 8.9141878e-39 299 229
-0.026475333 0.755 0.014561433 9.7371045e-39 300 229
-0.025118252 0.75400001 0.014542146 9.4608778e-39 301 229
-0.02379624 0.75400001 0.014542146 1.05611e-38 302 229
-0.022474226 0.75400001 0.014542146 1.0652937e-38 303 229
-0.021180267 0.755 0.014561433 1.0836617e-38 304 229
-0.0198565 0.755 0.014561433 1.0652944e-38 305 229
-0.018532733 0.755 0.014561433 9.9182686e-39 306 229
-0.017208965 0.755 0.014561433 1.0378888e-38 307 229
-0.015885198 0.755 0.014561433 1.0843084e-38 308 229
-0.014542146 0.75400001 0.014542146 1.1027834e-38 309 229
-0.013220133 0.75400001 0.014542146 1.1026016e-38 310 229
-0.01189812 0.75400001 0.014542146 1.093382e-38 311 229
-0.010576107 0.75400001 0.014542146 1.0657957e-38 312 229
-0.0092540924 0.75400001 0.014542146 1.0565761e-38 313 229
-0.00793208 0.75400001 0.014542146 1.010802e-38 314 229
-0.0066100666 0.75400001 0.014542146 1.0200215e-38 315 229
-0.0052880533 0.75400001 0.014542146 9.7428303e-39 316 229
-0.0039555198 0.75199997 0.014503572 1.0019777e-38 317 229
-0.0026370131 0.75199997 0.014503572 1.075734e-38 318 229
-0.0013185065 0.75199997 0.014503572 1.0849535e-38 319 229
0 0.75 0.014465 1.0938855e-38 320 229
0.001315 0.75 0.014465 1.0662629e-38 321 229
0.00263 0.75 0.014465 1.084774e-38 322 229
0.0039555198 0.75199997 0.014503572 1.1400912e-38 323 229
0.0052740262 0.75199997 0.014503572 1.1404134e-38 324 229
0.0066100666 0.75400001 0.014542146 1.1680722e-38 325 229
0.00793208 0.75400001 0.014542146 1.1956939e-38 326 229
0.0092540924 0.75400001 0.014542146 1.1864742e-38 327 229
0.010576107 0.75400001 0.014542146 1.1861516e-38 328 229
0.01189812 0.75400001 0.014542146 1.1584928e-38 329 229
0.013237666 0.755 0.014561433 1.1673182e-38 330 229
0.014561433 0.755 0.014561433 1.1396594e-38 331 229
0.015885198 0.755 0.014561433 1.1302973e-38 332 229
0.017254554 0.75700003 0.014600007 1.1118582e-38 333 229
0.01863092 0.759 0.014638579 1.0475379e-38 334 229
0.0199617 0.759 0.014638579 1.0106598e-38 335 229
0.021348584 0.76099998 0.014677152 9.4637519e-39 336 229
0.022682872 0.76099998 0.014677152 9.1868048e-39 337 229
0.02404872 0.76200002 0.01469644 8.4521181e-39 338 229
0.025451386 0.764 0.014735013 8.0833341e-39 339 229
0.026861066 0.76599997 0.014773586 6.7068625e-39 340 229
0.02824094 0.76700002 0.014792874 1.1685425e-38 341 229
0.02966289 0.76899999 0.014831445 1.2065368e-38 342 229
0.031011207 0.76899999 0.014831445 1.4277703e-38 343 229
0.032359518 0.76899999 0.014831445 1.4104111e-38 344 229
0.033707831 0.76899999 0.014831445 1.5671796e-38 345 229
-0.050601196 0.77999997 0.013675999 1.7330257e-38 283 230
-0.049107358 0.778 0.013640933 1.6963996e-38 284 230
-0.047620531 0.77600002 0.013605867 1.5488866e-38 285 230
-0.046140719 0.77399999 0.013570799 1.3734995e-38 286 230
-0.044610061 0.77100003 0.013518199 8.1114204e-39 287 230
-0.043258239 0.77100003 0.013518199 8.0109389e-39 288 230
-0.041689005 0.76700002 0.013448066 5.6138539e-39 289 230
-0.040291596 0.76599997 0.013430533 6.5278872e-39 290 230
-0.038846854 0.764 0.013395466 6.2509416e-39 291 230
-0.037409119 0.76200002 0.0133604 6.5235839e-39 292 230
-0.036025736 0.76099998 0.013342866 6.7079751e-39 293 230
-0.034691449 0.76099998 0.013342866 7.3522921e-39 294 230
-0.033269498 0.759 0.0133078 1.0579138e-38 295 230
-0.031938717 0.759 0.0133078 1.1237462e-38 296 230
-0.030527288 0.75700003 0.013272733 1.086832e-38 297 230
-0.029122867 0.755 0.013237666 1.0496645e-38 298 230
-0.027799098 0.755 0.013237666 9.6672442e-39 299 230
-0.026475333 0.755 0.013237666 1.0576579e-38 300 230
-0.025118252 0.75400001 0.013220133 8.2716897e-39 301 230
-0.02379624 0.75400001 0.013220133 9.6445306e-39 302 230
-0.022474226 0.75400001 0.013220133 9.6445306e-39 303 230
-0.021180267 0.755 0.013237666 1.0011887e-38 304 230
-0.0198565 0.755 0.013237666 9.8271366e-39 305 230
-0.018532733 0.755 0.013237666 9.8264317e-39 306 230
-0.017208965 0.755 0.013237666 9.9182686e-39 307 230
-0.01586416 0.75400001 0.013220133 1.0013333e-38 308 230
-0.014542146 0.75400001 0.013220133 1.0381755e-38 309 230
-0.013220133 0.75400001 0.013220133 1.0657959e-38 310 230
-0.01189812 0.75400001 0.013220133 1.0842351e-38 311 230
-0.010576107 0.75400001 0.013220133 1.0566124e-38 312 230
-0.0092540924 0.75400001 0.013220133 1.0566124e-38 313 230
-0.00793208 0.75400001 0.013220133 9.9218391e-39 314 230
-0.0065925326 0.75199997 0.013185065 1.0014036e-38 315 230
-0.0052740262 0.75199997 0.013185065 9.646697e-39 316 230
-0.0039555198 0.75199997 0.013185065 1.0199512e-38 317 230
-0.00263 0.75 0.01315 1.0664794e-38 318 230
-0.001315 0.75 0.01315 1.1217967e-38 319 230
0 0.75 0.01315 1.0754824e-38 320 230
0.001315 0.75 0.01315 1.0385683e-38 321 230
0.00263 0.75 0.01315 1.0570796e-38 322 230
0.003945 0.75 0.01315 1.0939939e-38 323 230
0.00526 0.75 0.01315 1.1218665e-38 324 230
0.006575 0.75 0.01315 1.1495611e-38 325 230
0.0079110395 0.75199997 0.013185065 1.1772188e-38 326 230
0.0092295464 0.75199997 0.013185065 1.1679992e-38 327 230
0.010576107 0.75400001 0.013220133 1.1768602e-38 328 230
0.01189812 0.75400001 0.013220133 1.1399459e-38 329 230
0.013220133 0.75400001 0.013220133 1.1488792e-38 330 230
0.014561433 0.755 0.013237666 1.1027815e-38 331 230
0.015885198 0.755 0.013237666 1.102603e-38 332 230
0.017254554 0.75700003 0.013272733 1.0749802e-38 333 230
0.018581826 0.75700003 0.013272733 1.0015121e-38 334 230
0.0199617 0.759 0.0133078 9.646697e-39 335 230
0.021348584 0.76099998 0.013342866 9.0042114e-39 336 230
0.02271268 0.76200002 0.0133604 8.6354303e-39 337 230
0.02404872 0.76200002 0.0133604 8.0851334e-39 338 230
0.025451386 0.764 0.013395466 7.347567e-39 339 230
0.026861066 0.76599997 0.013430533 6.6164675e-39 340 230
0.02824094 0.76700002 0.013448066 1.2977966e-38 341 230
0.02966289 0.76899999 0.013483133 1.1977851e-38 342 230
0.031011207 0.76899999 0.013483133 1.3176394e-38 343 230
0.032359518 0.76899999 0.013483133 1.382753e-38 344 230
0.033707831 0.76899999 0.013483133 1.5671442e-38 345 230
-0.050601196 0.77999997 0.012308398 1.7054391e-38 283 231
-0.049107358 0.778 0.012276839 1.6595936e-38 284 231
-0.047620531 0.77600002 0.01224528 1.5673979e-38 285 231
-0.046140719 0.77399999 0.01221372 1.4011941e-38 286 231
-0.044725779 0.773 0.012197939 7.8344747e-39 287 231
-0.043258239 0.77100003 0.01216638 8.01022e-39 288 231
-0.041689005 0.76700002 0.01210326 6.5350899e-39 289 231
-0.040291596 0.76599997 0.012087479 6.7137148e-39 290 231
-0.038846854 0.764 0.01205592 6.0683454e-39 291 231
-0.037409119 0.76200002 0.01202436 6.2480704e-39 292 231
-0.036025736 0.76099998 0.012008579 6.340266e-39 293 231
-0.034691449 0.76099998 0.012008579 6.1555496e-39 294 231
-0.033269498 0.759 0.01197702 1.0211797e-38 295 231
-0.031938717 0.759 0.01197702 1.1058844e-38 296 231
-0.030527288 0.75700003 0.01194546 1.2902757e-38 297 231
-0.029122867 0.755 0.011913899 1.3733225e-38 298 231
-0.027799098 0.755 0.011913899 1.3087856e-38 299 231
-0.026475333 0.755 0.011913899 1.3261055e-38 300 231
-0.025118252 0.75400001 0.01189812 8.9278617e-39 301 231
-0.02379624 0.75400001 0.01189812 9.6506374e-39 302 231
-0.022474226 0.75400001 0.01189812 9.2818563e-39 303 231
-0.021180267 0.755 0.011913899 9.7395961e-39 304 231
-0.0198565 0.755 0.011913899 9.4626504e-39 305 231
-0.018532733 0.755 0.011913899 9.3683164e-39 306 231
-0.017208965 0.755 0.011913899 9.5523475e-39 307 231
-0.01586416 0.75400001 0.01189812 9.369401e-39 308 231
-0.014542146 0.75400001 0.01189812 9.5537923e-39 309 231
-0.013220133 0.75400001 0.01189812 1.0106598e-38 310 231
-0.01189812 0.75400001 0.01189812 1.0383183e-38 311 231
-0.010576107 0.75400001 0.01189812 1.0382459e-38 312 231
-0.0092540924 0.75400001 0.01189812 1.0014036e-38 313 231
-0.0079110395 0.75199997 0.011866559 9.644546e-39 314 231
-0.0065925326 0.75199997 0.011866559 9.644546e-39 315 231
-0.0052740262 0.75199997 0.011866559 9.1860888e-39 316 231
-0.0039555198 0.75199997 0.011866559 9.9236538e-39 317 231
-0.00263 0.75 0.011835 1.0482213e-38 318 231
-0.001315 0.75 0.011835 1.1127582e-38 319 231
0 0.75 0.011835 1.0111267e-38 320 231
0.001315 0.75 0.011835 9.8346798e-39 321 231
0.00263 0.75 0.011835 9.7442764e-39 322 231
0.003945 0.75 0.011835 9.9290264e-39 323 231
0.00526 0.75 0.011835 1.0941008e-38 324 231
0.006575 0.75 0.011835 1.1217595e-38 325 231
0.0079110395 0.75199997 0.011866559 1.112827e-38 326 231
0.0092295464 0.75199997 0.011866559 1.0943879e-38 327 231
0.010548052 0.75199997 0.011866559 1.12158e-38 328 231
0.01189812 0.75400001 0.01189812 1.0754821e-38 329 231
0.013220133 0.75400001 0.01189812 1.0935985e-38 330 231
0.014561433 0.755 0.011913899 1.0567203e-38 331 231
0.015885198 0.755 0.011913899 1.0107672e-38 332 231
0.017254554 0.75700003 0.01194546 1.0015118e-38 333 231
0.018581826 0.75700003 0.01194546 9.0964043e-39 334 231
0.0199617 0.759 0.01197702 8.8201775e-39 335 231
0.021348584 0.76099998 0.012008579 8.3606413e-39 336 231
0.02271268 0.76200002 0.01202436 8.2684457e-39 337 231
0.02404872 0.76200002 0.01202436 7.3522501e-39 338 231
0.025451386 0.764 0.01205592 6.1537069e-39 339 231
0.026861066 0.76599997 0.012087479 6.9848955e-39 340 231
0.02824094 0.76700002 0.01210326 1.3807374e-38 341 231
0.029585747 0.76700002 0.01210326 1.2072567e-38 342 231
0.031011207 0.76899999 0.012134819 1.2902687e-38 343 231
0.032359518 0.76899999 0.012134819 1.4287786e-38 344 231
0.033795502 0.77100003 0.01216638 1.6039503e-38 345 231
-0.050601196 0.77999997 0.010940799 1.6685964e-38 283 232
-0.049107358 0.778 0.010912746 1.6135677e-38 284 232
-0.047743265 0.778 0.010912746 1.5398112e-38 285 232
-0.046140719 0.77399999 0.01085664 1.4289604e-38 286 232
-0.044725779 0.773 0.010842613 7.3745714e-39 287 232
-0.043146025 0.76899999 0.010786506 8.1013338e-39 288 232
-0.041797712 0.76899999 0.010786506 6.9031494e-39 289 232
-0.040291596 0.76599997 0.010744425 6.7155127e-39 290 232
-0.038846854 0.764 0.010716373 5.7935564e-39 291 232
-0.037409119 0.76200002 0.01068832 5.9732813e-39 292 232
-0.036025736 0.76099998 0.010674292 5.8810857e-39 293 232
-0.034691449 0.76099998 0.010674292 5.877525e-39 294 232
-0.033357166 0.76099998 0.010674292 7.9051114e-39 295 232
-0.031938717 0.759 0.01064624 8.7518096e-39 296 232
-0.030607941 0.759 0.01064624 1.3822568e-38 297 232
-0.029200014 0.75700003 0.010618187 1.5670778e-38 298 232
-0.027872739 0.75700003 0.010618187 1.5486387e-38 299 232
-0.026475333 0.755 0.010590133 1.5663197e-38 300 232
-0.025118252 0.75400001 0.010576107 1.1422197e-38 301 232
-0.02379624 0.75400001 0.010576107 1.0578025e-38 302 232
-0.022474226 0.75400001 0.010576107 9.1028937e-39 303 232
-0.021180267 0.755 0.010590133 9.5602663e-39 304 232
-0.0198565 0.755 0.010590133 8.6379499e-39 305 232
-0.018532733 0.755 0.010590133 8.1741046e-39 306 232
-0.017208965 0.755 0.010590133 7.5305289e-39 307 232
-0.01586416 0.75400001 0.010576107 8.9080684e-39 308 232
-0.014542146 0.75400001 0.010576107 9.6438397e-39 309 232
-0.013220133 0.75400001 0.010576107 9.8332532e-39 310 232
-0.01189812 0.75400001 0.010576107 9.9254503e-39 311 232
-0.010576107 0.75400001 0.010576107 1.0016921e-38 312 232
-0.0092540924 0.75400001 0.010576107 9.5559447e-39 313 232
-0.0079110395 0.75199997 0.010548052 9.1878866e-39 314 232
-0.0065925326 0.75199997 0.010548052 9.0034954e-39 315 232
-0.0052740262 0.75199997 0.010548052 8.9112969e-39 316 232
-0.0039555198 0.75199997 0.010548052 9.4644707e-39 317 232
-0.00263 0.75 0.01052 9.1925572e-39 318 232
-0.001315 0.75 0.01052 9.3765883e-39 319 232
0 0.75 0.01052 9.8325274e-39 320 232
0.001315 0.75 0.01052 9.6484962e-39 321 232
0.00263 0.75 0.01052 9.4662532e-39 322 232
0.003945 0.75 0.01052 9.4662532e-39 323 232
0.00526 0.75 0.01052 9.9268558e-39 324 232
0.006575 0.75 0.01052 1.0295638e-38 325 232
0.0079110395 0.75199997 0.010548052 1.0663342e-38 326 232
0.0092295464 0.75199997 0.010548052 1.0478951e-38 327 232
0.010548052 0.75199997 0.010548052 1.0476809e-38 328 232
0.01189812 0.75400001 0.010576107 1.0292417e-38 329 232
0.013220133 0.75400001 0.010576107 9.8310868e-39 330 232
0.014561433 0.755 0.010590133 9.7388912e-39 331 232
0.015885198 0.755 0.010590133 9.6474172e-39 332 232
0.017254554 0.75700003 0.010618187 9.3708304e-39 333 232
0.018581826 0.75700003 0.010618187 9.0034898e-39 334 232
0.0199617 0.759 0.01064624 8.6350674e-39 335 232
0.021348584 0.76099998 0.010674292 7.7174257e-39 336 232
0.02271268 0.76200002 0.01068832 7.8096213e-39 337 232
0.02404872 0.76200002 0.01068832 7.3522473e-39 338 232
0.025451386 0.764 0.010716373 6.0615085e-39 339 232
