# .PCD v.7 - Point Cloud Data file format
FIELDS x y z rgb imX imY
SIZE 4 4 4 4 4 4
TYPE F F F F F F
COUNT 1 1 1 1 1 1
WIDTH 845
HEIGHT 1
VIEWPOINT 0 0 0 1 0 0 0
POINTS 845
DATA ascii
-0.0049794666 0.70999998 -0.062243331 5.6249241e-39 316 290
-0.00372408 0.708 -0.062068 5.440177e-39 317 290
-0.0024792133 0.70700002 -0.061980337 5.1646705e-39 318 290
-0.0012396066 0.70700002 -0.061980337 5.1646705e-39 319 290
0 0.70700002 -0.061980337 5.1650292e-39 320 290
0.0012378532 0.70599997 -0.061892662 5.1650292e-39 321 290
0.0024757064 0.70599997 -0.061892662 5.5330886e-39 322 290
0.0037135598 0.70599997 -0.061892662 5.7174771e-39 323 290
0.0049373866 0.704 -0.061717331 5.8118237e-39 324 290
0.0061717331 0.704 -0.061717331 6.0884064e-39 325 290
0.0073955595 0.70300001 -0.061629668 6.3653492e-39 326 290
0.0086036054 0.70099998 -0.06145433 6.7337716e-39 327 290
0.0098186666 0.69999999 -0.061366666 6.9174482e-39 328 290
0.011045999 0.69999999 -0.061366666 7.1014793e-39 329 290
0.012273333 0.69999999 -0.061366666 7.193675e-39 330 290
0.013500666 0.69999999 -0.061366666 7.1014793e-39 331 290
0.014727999 0.69999999 -0.061366666 6.9174482e-39 332 290
0.015909746 0.69800001 -0.061191335 6.7330556e-39 333 290
0.017133573 0.69800001 -0.061191335 6.7323367e-39 334 290
0.0183574 0.69800001 -0.061191335 6.5475867e-39 335 290
0.019581227 0.69800001 -0.061191335 6.4550407e-39 336 290
0.020805053 0.69800001 -0.061191335 5.9940626e-39 337 290
0.02202888 0.69800001 -0.061191335 6.1766742e-39 338 290
0.023252707 0.69800001 -0.061191335 6.2688698e-39 339 290
0.024476532 0.69800001 -0.061191335 7.0021385e-39 340 290
0.025700359 0.69800001 -0.061191335 7.2787254e-39 341 290
0.026885614 0.69700003 -0.061103668 5.9912137e-39 342 290
0.028107686 0.69700003 -0.061103668 5.43804e-39 343 290
0.02932976 0.69700003 -0.061103668 5.1635985e-39 344 290
0.030595668 0.69800001 -0.061191335 5.2557941e-39 345 290
0.031819493 0.69800001 -0.061191335 5.4394623e-39 346 290
0.033137999 0.69999999 -0.061366666 5.3472667e-39 347 290
0.034365334 0.69999999 -0.061366666 5.163953e-39 348 290
0.035592664 0.69999999 -0.061366666 5.0717588e-39 349 290
0.036819998 0.69999999 -0.061366666 5.0710413e-39 350 290
0.038047329 0.69999999 -0.061366666 4.9788471e-39 351 290
0.039330769 0.70099998 -0.06145433 4.8866528e-39 352 290
0.040559858 0.70099998 -0.06145433 4.8866528e-39 353 290
0.041788943 0.70099998 -0.06145433 4.8870116e-39 354 290
0.043140765 0.70300001 -0.061629668 4.9792058e-39 355 290
0.044436477 0.704 -0.061717331 5.0717588e-39 356 290
0.045670826 0.704 -0.061717331 5.163953e-39 357 290
0.047038425 0.70599997 -0.061892662 5.4394595e-39 358 290
0.048344657 0.70700002 -0.061980337 5.4394595e-39 359 290
0.049654398 0.708 -0.062068 5.622413e-39 360 290
0.051039528 0.70999998 -0.062243331 5.8989957e-39 361 290
0.052284397 0.70999998 -0.062243331 5.8997202e-39 362 290
0.053604662 0.71100003 -0.062331002 6.1763085e-39 363 290
0.055005573 0.713 -0.062506333 7.0024748e-39 364 290
0.0563346 0.71399999 -0.062593997 8.8463874e-39 365 290
0.057586476 0.71399999 -0.062593997 1.0961867e-38 366 290
-0.012553867 0.71600002 -0.064024724 1.004315e-38 310 291
-0.011266919 0.71399999 -0.063845873 9.3055845e-39 311 291
-0.010001013 0.713 -0.063756458 8.2910598e-39 312 291
-0.0087263398 0.71100003 -0.063577622 7.5534948e-39 313 291
-0.0074797203 0.71100003 -0.063577622 6.4521695e-39 314 291
-0.0062330998 0.71100003 -0.063577622 6.2677782e-39 315 291
-0.0049794666 0.70999998 -0.063488193 5.9004306e-39 316 291
-0.00372408 0.708 -0.063309364 5.8078777e-39 317 291
-0.00248272 0.708 -0.063309364 5.2575822e-39 318 291
-0.00124136 0.708 -0.063309364 5.2575822e-39 319 291
0 0.708 -0.063309364 5.0739112e-39 320 291
0.0012396066 0.70700002 -0.063219935 4.9817169e-39 321 291
0.0024757064 0.70599997 -0.063130513 5.3490589e-39 322 291
0.0037135598 0.70599997 -0.063130513 5.6256416e-39 323 291
0.0049514128 0.70599997 -0.063130513 5.6274353e-39 324 291
0.0061717331 0.704 -0.062951677 5.8118237e-39 325 291
0.0073955595 0.70300001 -0.062862262 5.9972884e-39 326 291
0.0086036054 0.70099998 -0.062683418 6.0894826e-39 327 291
0.0098186666 0.69999999 -0.062593997 6.6408571e-39 328 291
0.011045999 0.69999999 -0.062593997 6.7330527e-39 329 291
0.012273333 0.69999999 -0.062593997 6.916365e-39 330 291
0.013500666 0.69999999 -0.062593997 6.7323339e-39 331 291
0.014727999 0.69999999 -0.062593997 6.6401411e-39 332 291
0.015909746 0.69800001 -0.062415157 6.4553911e-39 333 291
0.017133573 0.69800001 -0.062415157 6.5475867e-39 334 291
0.0183574 0.69800001 -0.062415157 6.3631954e-39 335 291
0.019581227 0.69800001 -0.062415157 6.2710012e-39 336 291
0.020805053 0.69800001 -0.062415157 5.9947773e-39 337 291
0.02202888 0.69800001 -0.062415157 6.0855366e-39 338 291
0.023252707 0.69800001 -0.062415157 6.0855366e-39 339 291
0.024476532 0.69800001 -0.062415157 6.2677754e-39 340 291
0.025700359 0.69800001 -0.062415157 6.1755798e-39 341 291
0.026924185 0.69800001 -0.062415157 5.8068015e-39 342 291
0.028148014 0.69800001 -0.062415157 5.622413e-39 343 291
0.029371841 0.69800001 -0.062415157 5.0717588e-39 344 291
0.030595668 0.69800001 -0.062415157 5.163953e-39 345 291
0.031819493 0.69800001 -0.062415157 5.0717588e-39 346 291
0.033137999 0.69999999 -0.062593997 5.0717588e-39 347 291
0.034365334 0.69999999 -0.062593997 5.1635943e-39 348 291
0.035592664 0.69999999 -0.062593997 5.0714e-39 349 291
0.036819998 0.69999999 -0.062593997 5.1625181e-39 350 291
0.038047329 0.69999999 -0.062593997 5.1625181e-39 351 291
0.039330769 0.70099998 -0.062683418 4.8870116e-39 352 291
0.040559858 0.70099998 -0.062683418 4.8870116e-39 353 291
0.041908171 0.70300001 -0.062862262 5.0703238e-39 354 291
0.043140765 0.70300001 -0.062862262 5.1625181e-39 355 291
0.044436477 0.704 -0.062951677 5.2547123e-39 356 291
0.045670826 0.704 -0.062951677 5.4391008e-39 357 291
0.047038425 0.70599997 -0.063130513 5.4391008e-39 358 291
0.048344657 0.70700002 -0.063219935 5.5316537e-39 359 291
0.049654398 0.708 -0.063309364 5.7146072e-39 360 291
0.051039528 0.70999998 -0.063488193 5.9911941e-39 361 291
0.052358042 0.71100003 -0.063577622 6.0841156e-39 362 291
0.053755447 0.713 -0.063756458 6.452538e-39 363 291
0.055005573 0.713 -0.063756458 7.4630998e-39 364 291
0.056492399 0.71600002 -0.064024724 9.4914037e-39 365 291
-0.012553867 0.71600002 -0.06528011 1.0961496e-38 310 292
-0.011266919 0.71399999 -0.065097757 9.8547884e-39 311 292
-0.01001504 0.71399999 -0.065097757 7.6481973e-39 312 292
-0.0087508867 0.713 -0.065006584 7.3712517e-39 313 292
-0.0075007593 0.713 -0.065006584 7.0028251e-39 314 292
-0.0062330998 0.71100003 -0.064824238 6.7258795e-39 315 292
-0.0049864799 0.71100003 -0.064824238 6.1759371e-39 316 292
-0.0037345996 0.70999998 -0.064733058 5.8997132e-39 317 292
-0.00248272 0.708 -0.06455072 5.5330886e-39 318 292
-0.00124136 0.708 -0.06455072 5.3490589e-39 319 292
0 0.708 -0.06455072 5.2575822e-39 320 292
0.0012396066 0.70700002 -0.064459547 5.2575822e-39 321 292
0.0024757064 0.70599997 -0.064368367 5.2575822e-39 322 292
0.0037135598 0.70599997 -0.064368367 5.3501351e-39 323 292
0.0049514128 0.70599997 -0.064368367 5.4426881e-39 324 292
0.0061717331 0.704 -0.064186029 5.6270765e-39 325 292
0.0073955595 0.70300001 -0.064094849 5.7199896e-39 326 292
0.0086036054 0.70099998 -0.063912503 5.812544e-39 327 292
0.0098186666 0.69999999 -0.063821331 6.1802461e-39 328 292
0.011045999 0.69999999 -0.063821331 6.2728005e-39 329 292
0.012273333 0.69999999 -0.063821331 6.4561127e-39 330 292
0.013500666 0.69999999 -0.063821331 6.2720816e-39 331 292
0.014727999 0.69999999 -0.063821331 6.179886e-39 332 292
0.015955333 0.69999999 -0.063821331 6.179886e-39 333 292
0.017182667 0.69999999 -0.063821331 6.0876889e-39 334 292
0.018409999 0.69999999 -0.063821331 5.9954947e-39 335 292
0.019581227 0.69800001 -0.063638985 5.9029418e-39 336 292
0.020805053 0.69800001 -0.063638985 5.8107475e-39 337 292
0.02202888 0.69800001 -0.063638985 5.6267178e-39 338 292
0.023252707 0.69800001 -0.063638985 5.4419706e-39 339 292
0.024476532 0.69800001 -0.063638985 5.5327299e-39 340 292
0.025700359 0.69800001 -0.063638985 5.3487002e-39 341 292
0.026924185 0.69800001 -0.063638985 5.1643117e-39 342 292
0.028148014 0.69800001 -0.063638985 5.0721175e-39 343 292
0.029371841 0.69800001 -0.063638985 5.0714e-39 344 292
0.030595668 0.69800001 -0.063638985 5.0714e-39 345 292
0.031819493 0.69800001 -0.063638985 5.0710413e-39 346 292
0.033137999 0.69999999 -0.063821331 5.1632355e-39 347 292
0.034365334 0.69999999 -0.063821331 5.0714e-39 348 292
0.035592664 0.69999999 -0.063821331 5.0714e-39 349 292
0.036872596 0.70099998 -0.063912503 4.9792058e-39 350 292
0.038101684 0.70099998 -0.063912503 4.8870116e-39 351 292
0.039330769 0.70099998 -0.063912503 5.0703238e-39 352 292
0.040675577 0.70300001 -0.064094849 5.0703238e-39 353 292
0.041908171 0.70300001 -0.064094849 5.1625181e-39 354 292
0.043140765 0.70300001 -0.064094849 5.1625181e-39 355 292
0.044436477 0.704 -0.064186029 5.2543536e-39 356 292
0.04580057 0.70599997 -0.064368367 5.3469065e-39 357 292
0.047038425 0.70599997 -0.064368367 5.622413e-39 358 292
0.048344657 0.70700002 -0.064459547 5.7146072e-39 359 292
0.049794663 0.70999998 -0.064733058 5.8071686e-39 360 292
0.051111419 0.71100003 -0.064824238 5.9915613e-39 361 292
0.052358042 0.71100003 -0.064824238 6.3599865e-39 362 292
0.053755447 0.713 -0.065006584 6.8213247e-39 363 292
0.055005573 0.713 -0.065006584 8.2003117e-39 364 292
0.056492399 0.71600002 -0.06528011 1.0044224e-38 365 292
-0.0125714 0.71700001 -0.066628419 1.0962232e-38 310 293
-0.01129848 0.71600002 -0.066535495 9.8562429e-39 311 293
-0.010043093 0.71600002 -0.066535495 8.3832583e-39 312 293
-0.0087631596 0.71399999 -0.066349633 8.198867e-39 313 293
-0.0075112795 0.71399999 -0.066349633 6.727327e-39 314 293
-0.0062506334 0.713 -0.066256717 6.5429358e-39 315 293
-0.0049864799 0.71100003 -0.066070862 5.8997146e-39 316 293
-0.0037345996 0.70999998 -0.065977924 5.8075189e-39 317 293
-0.0024897333 0.70999998 -0.065977924 5.5327299e-39 318 293
-0.00124136 0.708 -0.065792084 5.5327299e-39 319 293
0 0.708 -0.065792084 5.0739112e-39 320 293
0.0012396066 0.70700002 -0.065699153 5.0739112e-39 321 293
0.0024757064 0.70599997 -0.065606222 5.2575822e-39 322 293
0.0037135598 0.70599997 -0.065606222 5.3497764e-39 323 293
0.0049514128 0.70599997 -0.065606222 5.3497764e-39 324 293
0.0061717331 0.704 -0.065420374 5.5345236e-39 325 293
0.0073955595 0.70300001 -0.065327443 5.8111063e-39 326 293
0.0086281532 0.70300001 -0.065327443 5.8111063e-39 327 293
0.0098326923 0.70099998 -0.065141588 6.2713599e-39 328 293
0.011061779 0.70099998 -0.065141588 6.2713599e-39 329 293
0.012273333 0.69999999 -0.065048665 6.3628367e-39 330 293
0.013500666 0.69999999 -0.065048665 6.3628367e-39 331 293
0.014727999 0.69999999 -0.065048665 6.0873302e-39 332 293
0.015955333 0.69999999 -0.065048665 5.995136e-39 333 293
0.017182667 0.69999999 -0.065048665 5.9947773e-39 334 293
0.018409999 0.69999999 -0.065048665 5.902583e-39 335 293
0.019637333 0.69999999 -0.065048665 5.8107475e-39 336 293
0.020805053 0.69800001 -0.06486281 5.6267178e-39 337 293
0.02202888 0.69800001 -0.06486281 5.6252829e-39 338 293
0.023252707 0.69800001 -0.06486281 5.3487002e-39 339 293
0.024476532 0.69800001 -0.06486281 5.1643117e-39 340 293
0.025700359 0.69800001 -0.06486281 5.1643117e-39 341 293
0.026924185 0.69800001 -0.06486281 4.9799233e-39 342 293
0.028148014 0.69800001 -0.06486281 4.9799233e-39 343 293
0.029371841 0.69800001 -0.06486281 5.0714e-39 344 293
0.030595668 0.69800001 -0.06486281 5.0714e-39 345 293
0.031910665 0.69999999 -0.065048665 5.0714e-39 346 293
0.033137999 0.69999999 -0.065048665 5.0714e-39 347 293
0.034414422 0.70099998 -0.065141588 5.0714e-39 348 293
0.035643511 0.70099998 -0.065141588 4.9788471e-39 349 293
0.036872596 0.70099998 -0.065141588 4.8866528e-39 350 293
0.038101684 0.70099998 -0.065141588 4.8866528e-39 351 293
0.039442986 0.70300001 -0.065327443 5.1625181e-39 352 293
0.040675577 0.70300001 -0.065327443 5.1625181e-39 353 293
0.041908171 0.70300001 -0.065327443 5.2536361e-39 354 293
0.043202132 0.704 -0.065420374 5.3461891e-39 355 293
0.044436477 0.704 -0.065420374 5.5298601e-39 356 293
0.04580057 0.70599997 -0.065606222 5.6220557e-39 357 293
0.047105055 0.70700002 -0.065699153 5.6220557e-39 358 293
0.048413038 0.708 -0.065792084 5.8064469e-39 359 293
0.049794663 0.70999998 -0.065977924 5.8064525e-39 360 293
0.051111419 0.71100003 -0.066070862 6.1748763e-39 361 293
0.052505318 0.713 -0.066256717 6.8184535e-39 362 293
0.053755447 0.713 -0.066256717 7.7404098e-39 363 293
0.055005573 0.713 -0.066256717 9.1197569e-39 364 293
0.056492399 0.71600002 -0.066535495 1.0686722e-38 365 293
-0.01129848 0.71600002 -0.067790881 1.0316142e-38 311 294
-0.010043093 0.71600002 -0.067790881 9.1204576e-39 312 294
-0.0087631596 0.71399999 -0.067601517 8.1059455e-39 313 294
-0.0075112795 0.71399999 -0.067601517 7.095741e-39 314 294
-0.0062506334 0.713 -0.067506835 6.7273172e-39 315 294
-0.0050005065 0.713 -0.067506835 6.2670565e-39 316 294
-0.0037345996 0.70999998 -0.067222796 6.1748609e-39 317 294
-0.0024897333 0.70999998 -0.067222796 5.7167596e-39 318 294
-0.00124136 0.708 -0.067033432 5.6245654e-39 319 294
0 0.708 -0.067033432 5.3497764e-39 320 294
0.00124136 0.708 -0.067033432 5.3497764e-39 321 294
0.0024792133 0.70700002 -0.066938758 5.5330886e-39 322 294
0.0037135598 0.70599997 -0.066844068 5.5330886e-39 323 294
0.0049514128 0.70599997 -0.066844068 5.4419706e-39 324 294
0.0061717331 0.704 -0.066654719 5.6263591e-39 325 294
0.0073955595 0.70300001 -0.066560037 5.4437643e-39 326 294
0.0086281532 0.70300001 -0.066560037 5.4437643e-39 327 294
0.0098326923 0.70099998 -0.066370681 5.7196295e-39 328 294
0.011061779 0.70099998 -0.066370681 5.7196295e-39 329 294
0.012290866 0.70099998 -0.066370681 5.9033005e-39 330 294
0.013500666 0.69999999 -0.066275999 5.9954947e-39 331 294
0.014727999 0.69999999 -0.066275999 5.902583e-39 332 294
0.015955333 0.69999999 -0.066275999 5.902583e-39 333 294
0.017182667 0.69999999 -0.066275999 5.9022243e-39 334 294
0.018409999 0.69999999 -0.066275999 5.9022243e-39 335 294
0.019637333 0.69999999 -0.066275999 5.6263591e-39 336 294
0.020864666 0.69999999 -0.066275999 5.4419706e-39 337 294
0.022091998 0.69999999 -0.066275999 5.5323712e-39 338 294
0.023319334 0.69999999 -0.066275999 5.347624e-39 339 294
0.024546666 0.69999999 -0.066275999 5.347624e-39 340 294
0.025700359 0.69800001 -0.066086642 5.1635943e-39 341 294
0.026924185 0.69800001 -0.066086642 5.0714e-39 342 294
0.028148014 0.69800001 -0.066086642 5.0714e-39 343 294
0.029371841 0.69800001 -0.066086642 5.0714e-39 344 294
0.030683333 0.69999999 -0.066275999 5.0714e-39 345 294
0.031910665 0.69999999 -0.066275999 5.1635943e-39 346 294
0.033137999 0.69999999 -0.066275999 5.1635943e-39 347 294
0.034414422 0.70099998 -0.066370681 4.9795645e-39 348 294
0.035745207 0.70300001 -0.066560037 4.8873703e-39 349 294
0.036977798 0.70300001 -0.066560037 4.8866528e-39 350 294
0.038210396 0.70300001 -0.066560037 4.9788471e-39 351 294
0.039442986 0.70300001 -0.066560037 4.9788471e-39 352 294
0.040733438 0.704 -0.066654719 4.9788471e-39 353 294
0.041967787 0.704 -0.066654719 5.0710413e-39 354 294
0.043202132 0.704 -0.066654719 5.1632355e-39 355 294
0.044562716 0.70599997 -0.066844068 5.3461919e-39 356 294
0.04580057 0.70599997 -0.066844068 5.4387462e-39 357 294
0.047105055 0.70700002 -0.066938758 5.5309391e-39 358 294
0.048549797 0.70999998 -0.067222796 5.8071658e-39 359 294
0.049864799 0.71100003 -0.067317478 5.9908452e-39 360 294
0.051111419 0.71100003 -0.067317478 6.267072e-39 361 294
0.052505318 0.713 -0.067506835 6.5440316e-39 362 294
0.053755447 0.713 -0.067506835 7.374151e-39 363 294
0.05508272 0.71399999 -0.067601517 9.6714986e-39 364 294
-0.010043093 0.71600002 -0.069046266 9.764392e-39 312 295
-0.0087877065 0.71600002 -0.069046266 8.6584032e-39 313 295
-0.00753232 0.71600002 -0.069046266 8.0141002e-39 314 295
-0.0062593995 0.71399999 -0.068853401 7.5534808e-39 315 295
-0.0050075199 0.71399999 -0.068853401 6.359971e-39 316 295
-0.0037398601 0.71100003 -0.068564095 6.1755798e-39 317 295
-0.0024897333 0.70999998 -0.068467662 5.7167596e-39 318 295
-0.0012448666 0.70999998 -0.068467662 5.7167596e-39 319 295
0 0.708 -0.068274796 5.3494177e-39 320 295
0.00124136 0.708 -0.068274796 5.3494177e-39 321 295
0.0024792133 0.70700002 -0.068178371 5.3494177e-39 322 295
0.0037188199 0.70700002 -0.068178371 5.3494177e-39 323 295
0.0049514128 0.70599997 -0.06808193 5.4419706e-39 324 295
0.0061892662 0.70599997 -0.06808193 5.5341648e-39 325 295
0.0074060797 0.704 -0.067889065 5.535241e-39 326 295
0.0086281532 0.70300001 -0.067792632 5.535241e-39 327 295
0.0098607466 0.70300001 -0.067792632 5.6267178e-39 328 295
0.01109334 0.70300001 -0.067792632 5.8107475e-39 329 295
0.012290866 0.70099998 -0.067599766 6.086254e-39 330 295
0.013519952 0.70099998 -0.067599766 6.086254e-39 331 295
0.014727999 0.69999999 -0.067503333 5.9029418e-39 332 295
0.015955333 0.69999999 -0.067503333 5.8103888e-39 333 295
0.017182667 0.69999999 -0.067503333 5.9937011e-39 334 295
0.018409999 0.69999999 -0.067503333 5.9937011e-39 335 295
0.019637333 0.69999999 -0.067503333 5.8100301e-39 336 295
0.020864666 0.69999999 -0.067503333 5.6256416e-39 337 295
0.022091998 0.69999999 -0.067503333 5.5323712e-39 338 295
0.023319334 0.69999999 -0.067503333 5.4398182e-39 339 295
0.024546666 0.69999999 -0.067503333 5.0721175e-39 340 295
0.025773998 0.69999999 -0.067503333 5.0721175e-39 341 295
0.027001332 0.69999999 -0.067503333 5.0714e-39 342 295
0.028228667 0.69999999 -0.067503333 4.9792058e-39 343 295
0.029455997 0.69999999 -0.067503333 5.0714e-39 344 295
0.030683333 0.69999999 -0.067503333 5.0714e-39 345 295
0.031956252 0.70099998 -0.067599766 5.1625181e-39 346 295
0.03318534 0.70099998 -0.067599766 5.255071e-39 347 295
0.034512613 0.70300001 -0.067792632 5.0714e-39 348 295
0.035745207 0.70300001 -0.067792632 5.0714e-39 349 295
0.037030395 0.704 -0.067889065 4.9788471e-39 350 295
0.038264744 0.704 -0.067889065 5.0710413e-39 351 295
0.039499093 0.704 -0.067889065 4.9795645e-39 352 295
0.040733438 0.704 -0.067889065 4.9795645e-39 353 295
0.041967787 0.704 -0.067889065 5.1632355e-39 354 295
0.043324865 0.70599997 -0.06808193 5.1632355e-39 355 295
0.044562716 0.70599997 -0.06808193 5.3461919e-39 356 295
0.045865446 0.70700002 -0.068178371 5.4387462e-39 357 295
0.047304932 0.70999998 -0.068467662 5.7142513e-39 358 295
0.048618179 0.71100003 -0.068564095 5.8990013e-39 359 295
0.049864799 0.71100003 -0.068564095 6.1745134e-39 360 295
0.051255193 0.713 -0.068756968 6.5429358e-39 361 295
0.052578956 0.71399999 -0.068853401 6.8191766e-39 362 295
0.053830836 0.71399999 -0.068853401 7.9255227e-39 363 295
0.05508272 0.71399999 -0.068853401 9.9488043e-39 364 295
-0.010043093 0.71600002 -0.070301652 1.0040987e-38 312 296
-0.0087877065 0.71600002 -0.070301652 9.3034223e-39 313 296
-0.00753232 0.71600002 -0.070301652 8.2906941e-39 314 296
-0.0062593995 0.71399999 -0.070105277 7.7375203e-39 315 296
-0.0050075199 0.71399999 -0.070105277 6.819866e-39 316 296
-0.0037503797 0.713 -0.070007093 6.5429204e-39 317 296
-0.0024932399 0.71100003 -0.069810718 5.9926249e-39 318 296
-0.0012448666 0.70999998 -0.069712527 5.9004306e-39 319 296
0 0.708 -0.069516152 5.5327299e-39 320 296
0.00124136 0.708 -0.069516152 5.5327299e-39 321 296
0.0024792133 0.70700002 -0.069417976 5.5327299e-39 322 296
0.0037188199 0.70700002 -0.069417976 5.6249255e-39 323 296
0.0049514128 0.70599997 -0.069319785 5.4426881e-39 324 296
0.0061892662 0.70599997 -0.069319785 5.2582996e-39 325 296
0.0074060797 0.704 -0.06912341 5.5341648e-39 326 296
0.0086281532 0.70300001 -0.069025226 5.6263591e-39 327 296
0.0098607466 0.70300001 -0.069025226 5.6267178e-39 328 296
0.01109334 0.70300001 -0.069025226 5.6267178e-39 329 296
0.012290866 0.70099998 -0.068828844 5.902583e-39 330 296
0.013519952 0.70099998 -0.068828844 5.902583e-39 331 296
0.014749039 0.70099998 -0.068828844 5.9937011e-39 332 296
0.015978126 0.70099998 -0.068828844 5.9937011e-39 333 296
0.017207211 0.70099998 -0.068828844 5.9937011e-39 334 296
0.018436298 0.70099998 -0.068828844 5.9937011e-39 335 296
0.019637333 0.69999999 -0.068730667 5.9926249e-39 336 296
0.020864666 0.69999999 -0.068730667 5.8082364e-39 337 296
0.022091998 0.69999999 -0.068730667 5.6245654e-39 338 296
0.023319334 0.69999999 -0.068730667 5.5323712e-39 339 296
0.024546666 0.69999999 -0.068730667 5.3479827e-39 340 296
0.025773998 0.69999999 -0.068730667 5.163953e-39 341 296
0.027001332 0.69999999 -0.068730667 5.163953e-39 342 296
0.028228667 0.69999999 -0.068730667 5.0717588e-39 343 296
0.029455997 0.69999999 -0.068730667 5.255071e-39 344 296
0.030683333 0.69999999 -0.068730667 5.255071e-39 345 296
0.031956252 0.70099998 -0.068828844 5.255071e-39 346 296
0.03318534 0.70099998 -0.068828844 5.255071e-39 347 296
0.034512613 0.70300001 -0.069025226 5.1635943e-39 348 296
0.035745207 0.70300001 -0.069025226 5.0714e-39 349 296
0.037030395 0.704 -0.06912341 4.9795645e-39 350 296
0.038264744 0.704 -0.06912341 4.9795645e-39 351 296
0.039499093 0.704 -0.06912341 5.1632355e-39 352 296
0.040733438 0.704 -0.06912341 5.1632355e-39 353 296
0.042087011 0.70599997 -0.069319785 5.3465478e-39 354 296
0.043324865 0.70599997 -0.069319785 5.3465478e-39 355 296
0.044625837 0.70700002 -0.069417976 5.3461919e-39 356 296
0.045865446 0.70700002 -0.069417976 5.4387462e-39 357 296
0.047304932 0.70999998 -0.069712527 5.8064525e-39 358 296
0.048618179 0.71100003 -0.069810718 5.8986482e-39 359 296
0.049864799 0.71100003 -0.069810718 6.2670748e-39 360 296
0.051255193 0.713 -0.070007093 6.5436617e-39 361 296
0.052578956 0.71399999 -0.070105277 7.2798002e-39 362 296
0.053830836 0.71399999 -0.070105277 8.2943122e-39 363 296
-0.01005712 0.71700001 -0.07165698 9.858038e-39 312 297
-0.0087877065 0.71600002 -0.071557038 9.2126686e-39 313 297
-0.00753232 0.71600002 -0.071557038 8.5669208e-39 314 297
-0.0062769335 0.71600002 -0.071557038 7.9215514e-39 315 297
-0.0050075199 0.71399999 -0.071357153 7.0038971e-39 316 297
-0.0037503797 0.713 -0.071257219 6.635116e-39 317 297
-0.0024932399 0.71100003 -0.071057342 6.2681313e-39 318 297
-0.0012448666 0.70999998 -0.070957392 6.1759371e-39 319 297
0 0.70999998 -0.070957392 5.6252829e-39 320 297
0.00124136 0.708 -0.070757516 5.6252829e-39 321 297
0.00248272 0.708 -0.070757516 5.6242067e-39 322 297
0.0037188199 0.70700002 -0.070657574 5.7167596e-39 323 297
0.0049584266 0.70700002 -0.070657574 5.4416119e-39 324 297
0.0061892662 0.70599997 -0.070557632 5.3494177e-39 325 297
0.0074060797 0.704 -0.070357755 5.4419706e-39 326 297
0.0086404262 0.704 -0.070357755 5.4419706e-39 327 297
0.0098747732 0.704 -0.070357755 5.7178358e-39 328 297
0.01109334 0.70300001 -0.070257813 5.8100301e-39 329 297
0.012325933 0.70300001 -0.070257813 6.0858953e-39 330 297
0.013558527 0.70300001 -0.070257813 5.9933423e-39 331 297
0.014749039 0.70099998 -0.070057929 6.0858953e-39 332 297
0.015978126 0.70099998 -0.070057929 5.9933423e-39 333 297
0.017207211 0.70099998 -0.070057929 5.8100301e-39 334 297
0.018436298 0.70099998 -0.070057929 5.7178358e-39 335 297
0.019665385 0.70099998 -0.070057929 5.9926249e-39 336 297
0.020894472 0.70099998 -0.070057929 5.8082364e-39 337 297
0.022123558 0.70099998 -0.070057929 5.5323712e-39 338 297
0.023352645 0.70099998 -0.070057929 5.3479827e-39 339 297
0.024581732 0.70099998 -0.070057929 5.163953e-39 340 297
0.025773998 0.69999999 -0.069957994 5.3479827e-39 341 297
0.027001332 0.69999999 -0.069957994 5.3479827e-39 342 297
0.028228667 0.69999999 -0.069957994 5.3479827e-39 343 297
0.029455997 0.69999999 -0.069957994 5.3479827e-39 344 297
0.030727165 0.70099998 -0.070057929 5.3479827e-39 345 297
0.031956252 0.70099998 -0.070057929 5.3479827e-39 346 297
0.033280019 0.70300001 -0.070257813 5.3479827e-39 347 297
0.034512613 0.70300001 -0.070257813 5.3479827e-39 348 297
0.035796054 0.704 -0.070357755 5.163953e-39 349 297
0.037030395 0.704 -0.070357755 5.1635943e-39 350 297
0.038264744 0.704 -0.070357755 5.1635943e-39 351 297
0.039611302 0.70599997 -0.070557632 5.1632355e-39 352 297
0.040849157 0.70599997 -0.070557632 5.3472653e-39 353 297
0.042087011 0.70599997 -0.070557632 5.3465478e-39 354 297
0.043324865 0.70599997 -0.070557632 5.4387434e-39 355 297
0.044625837 0.70700002 -0.070657574 5.4387434e-39 356 297
0.045930319 0.708 -0.070757516 5.5309391e-39 357 297
0.047304932 0.70999998 -0.070957392 5.9897648e-39 358 297
0.048754938 0.713 -0.071257219 6.1741575e-39 359 297
0.050005067 0.713 -0.071257219 6.6347811e-39 360 297
0.05132708 0.71399999 -0.071357153 7.1879549e-39 361 297
0.052726239 0.71600002 -0.071557038 8.0166491e-39 362 297
-0.0087999795 0.71700001 -0.072914116 9.3045153e-39 313 298
-0.0075428397 0.71700001 -0.072914116 8.5683754e-39 314 298
-0.0062857 0.71700001 -0.072914116 7.923006e-39 315 298
-0.0050215465 0.71600002 -0.072812423 7.1879395e-39 316 298
-0.0037556398 0.71399999 -0.072609037 6.8191569e-39 317 298
-0.0024932399 0.71100003 -0.072303966 6.4525198e-39 318 298
-0.00124662 0.71100003 -0.072303966 6.1759371e-39 319 298
0 0.70999998 -0.072202265 5.7167596e-39 320 298
0.0012448666 0.70999998 -0.072202265 5.6245654e-39 321 298
0.00248272 0.708 -0.071998879 5.6252829e-39 322 298
0.0037188199 0.70700002 -0.071897186 5.5330886e-39 323 298
0.0049584266 0.70700002 -0.071897186 5.5327299e-39 324 298
0.0061892662 0.70599997 -0.071795486 5.3487002e-39 325 298
0.0074271196 0.70599997 -0.071795486 5.5327299e-39 326 298
0.0086404262 0.704 -0.071592107 5.6249255e-39 327 298
0.0098747732 0.704 -0.071592107 5.7167596e-39 328 298
0.011109119 0.704 -0.071592107 5.8089539e-39 329 298
0.012325933 0.70300001 -0.071490414 6.0848191e-39 330 298
0.013558527 0.70300001 -0.071490414 6.0848191e-39 331 298
0.014791119 0.70300001 -0.071490414 6.0848191e-39 332 298
0.016023712 0.70300001 -0.071490414 6.0848191e-39 333 298
0.017256306 0.70300001 -0.071490414 5.8100301e-39 334 298
0.018488899 0.70300001 -0.071490414 5.7178358e-39 335 298
0.019721493 0.70300001 -0.071490414 5.8093126e-39 336 298
0.020894472 0.70099998 -0.071287021 5.6249241e-39 337 298
0.022123558 0.70099998 -0.071287021 5.531295e-39 338 298
0.023352645 0.70099998 -0.071287021 5.3469065e-39 339 298
0.024581732 0.70099998 -0.071287021 5.3461891e-39 340 298
0.025810819 0.70099998 -0.071287021 5.5302188e-39 341 298
0.027039904 0.70099998 -0.071287021 5.347624e-39 342 298
0.028268991 0.70099998 -0.071287021 5.347624e-39 343 298
0.029498078 0.70099998 -0.071287021 5.1643117e-39 344 298
0.030727165 0.70099998 -0.071287021 5.256506e-39 345 298
0.032047424 0.70300001 -0.071490414 5.2568647e-39 346 298
0.033280019 0.70300001 -0.071490414 5.1646705e-39 347 298
0.034561705 0.704 -0.071592107 5.5316537e-39 348 298
0.035796054 0.704 -0.071592107 5.4394595e-39 349 298
0.037030395 0.704 -0.071592107 5.3469065e-39 350 298
0.038373452 0.70599997 -0.071795486 5.3469065e-39 351 298
0.039611302 0.70599997 -0.071795486 5.3472653e-39 352 298
0.040849157 0.70599997 -0.071795486 5.3472653e-39 353 298
0.042087011 0.70599997 -0.071795486 5.3472667e-39 354 298
0.043386232 0.70700002 -0.071897186 5.3472667e-39 355 298
0.044625837 0.70700002 -0.071897186 5.7142513e-39 356 298
0.046060063 0.70999998 -0.072202265 5.8064469e-39 357 298
0.047371563 0.71100003 -0.072303966 6.1745134e-39 358 298
0.048754938 0.713 -0.072507344 6.3589047e-39 359 298
0.050075196 0.71399999 -0.072609037 6.8191737e-39 360 298
0.051470853 0.71600002 -0.072812423 7.6492932e-39 361 298
-0.0075638802 0.71899998 -0.074378148 8.8438805e-39 314 299
-0.0063032326 0.71899998 -0.074378148 8.1985111e-39 315 299
-0.0050285598 0.71700001 -0.07417126 7.5559961e-39 316 299
-0.00376616 0.71600002 -0.074067809 7.095018e-39 317 299
-0.0024932399 0.71100003 -0.073550582 6.6361908e-39 318 299
-0.00124662 0.71100003 -0.073550582 6.3599668e-39 319 299
0 0.70999998 -0.073447131 5.9926249e-39 320 299
0.0012448666 0.70999998 -0.073447131 5.9004306e-39 321 299
0.00248272 0.708 -0.073240235 5.8078777e-39 322 299
0.00372408 0.708 -0.073240235 5.8078777e-39 323 299
0.0049654399 0.708 -0.073240235 5.7156834e-39 324 299
0.0061980332 0.70700002 -0.073136792 5.8078777e-39 325 299
0.0074271196 0.70599997 -0.07303334 5.5330886e-39 326 299
0.0086649731 0.70599997 -0.07303334 5.6252829e-39 327 299
0.0098747732 0.704 -0.072826453 5.6249241e-39 328 299
0.011109119 0.704 -0.072826453 5.6249241e-39 329 299
0.012343466 0.704 -0.072826453 5.9922703e-39 330 299
0.013577812 0.704 -0.072826453 5.9922703e-39 331 299
0.014812159 0.704 -0.072826453 5.9929836e-39 332 299
0.016046507 0.704 -0.072826453 6.0851792e-39 333 299
0.017256306 0.70300001 -0.072723009 5.7174771e-39 334 299
0.018488899 0.70300001 -0.072723009 5.7174771e-39 335 299
0.019721493 0.70300001 -0.072723009 5.7167596e-39 336 299
0.020954086 0.70300001 -0.072723009 5.5323712e-39 337 299
0.02218668 0.70300001 -0.072723009 5.7135324e-39 338 299
0.023419274 0.70300001 -0.072723009 5.4369484e-39 339 299
0.024651866 0.70300001 -0.072723009 5.345473e-39 340 299
0.025884461 0.70300001 -0.072723009 5.345473e-39 341 299
0.027039904 0.70099998 -0.072516106 5.3469065e-39 342 299
0.028268991 0.70099998 -0.072516106 5.531295e-39 343 299
0.029582238 0.70300001 -0.072723009 5.256506e-39 344 299
0.030814834 0.70300001 -0.072723009 5.256506e-39 345 299
0.032047424 0.70300001 -0.072723009 5.4398182e-39 346 299
0.03332736 0.704 -0.072826453 5.347624e-39 347 299
0.034561705 0.704 -0.072826453 5.4391008e-39 348 299
0.035897743 0.70599997 -0.07303334 5.4391008e-39 349 299
0.037135597 0.70599997 -0.07303334 5.6227717e-39 350 299
0.038373452 0.70599997 -0.07303334 5.714966e-39 351 299
0.039611302 0.70599997 -0.07303334 5.531295e-39 352 299
0.040907022 0.70700002 -0.073136792 5.4391008e-39 353 299
0.042146627 0.70700002 -0.073136792 5.4394595e-39 354 299
0.043447599 0.708 -0.073240235 5.4394595e-39 355 299
0.044815198 0.70999998 -0.073447131 5.7146072e-39 356 299
0.046060063 0.70999998 -0.073447131 5.8989985e-39 357 299
0.047371563 0.71100003 -0.073550582 6.2674279e-39 358 299
0.048823316 0.71399999 -0.073860914 6.4518192e-39 359 299
0.050215468 0.71600002 -0.074067809 7.4638257e-39 360 299
-0.0050285598 0.71700001 -0.075428396 7.1890367e-39 316 300
-0.00376616 0.71600002 -0.075323202 6.912091e-39 317 300
-0.0024932399 0.71100003 -0.074797198 6.5443651e-39 318 300
-0.00124662 0.71100003 -0.074797198 6.3599738e-39 319 300
0 0.70999998 -0.074691996 5.9929836e-39 320 300
0.0012448666 0.70999998 -0.074691996 5.8089539e-39 321 300
0.0024897333 0.70999998 -0.074691996 5.7167596e-39 322 300
0.00372408 0.708 -0.074481599 5.6245654e-39 323 300
0.0049654399 0.708 -0.074481599 5.6245654e-39 324 300
0.0062067998 0.708 -0.074481599 5.6245654e-39 325 300
0.0074376399 0.70700002 -0.074376404 5.4419706e-39 326 300
0.008677247 0.70700002 -0.074376404 5.4419706e-39 327 300
0.0099028256 0.70599997 -0.074271195 5.6256416e-39 328 300
0.011109119 0.704 -0.07406079 5.6256416e-39 329 300
0.012343466 0.704 -0.07406079 5.8093126e-39 330 300
0.013577812 0.704 -0.07406079 5.8093126e-39 331 300
0.014812159 0.704 -0.07406079 5.9926249e-39 332 300
0.016046507 0.704 -0.07406079 5.9926249e-39 333 300
0.017280852 0.704 -0.07406079 5.7178358e-39 334 300
0.018515198 0.704 -0.07406079 5.7178358e-39 335 300
0.019749546 0.704 -0.07406079 5.6249241e-39 336 300
0.020983893 0.704 -0.07406079 5.3487002e-39 337 300
0.022218239 0.704 -0.07406079 5.622413e-39 338 300
0.023452586 0.704 -0.07406079 5.3458303e-39 339 300
0.024651866 0.70300001 -0.073955595 5.4362309e-39 340 300
0.025884461 0.70300001 -0.073955595 5.7124548e-39 341 300
0.027117053 0.70300001 -0.073955595 5.3472653e-39 342 300
0.028349647 0.70300001 -0.073955595 5.4394595e-39 343 300
0.029582238 0.70300001 -0.073955595 5.2561472e-39 344 300
0.030814834 0.70300001 -0.073955595 5.163953e-39 345 300
0.032093015 0.704 -0.07406079 5.347624e-39 346 300
0.03332736 0.704 -0.07406079 5.347624e-39 347 300
0.034659892 0.70599997 -0.074271195 5.4391008e-39 348 300
0.035897743 0.70599997 -0.074271195 5.4391008e-39 349 300
0.037135597 0.70599997 -0.074271195 5.4391008e-39 350 300
0.038373452 0.70599997 -0.074271195 5.4391008e-39 351 300
0.039667413 0.70700002 -0.074376404 5.622413e-39 352 300
0.040907022 0.70700002 -0.074376404 5.622413e-39 353 300
0.042206239 0.708 -0.074481599 5.7146072e-39 354 300
0.043570329 0.70999998 -0.074691996 5.7146072e-39 355 300
0.044815198 0.70999998 -0.074691996 5.8064469e-39 356 300
0.046124939 0.71100003 -0.074797198 6.1752295e-39 357 300
0.047504812 0.713 -0.075007595 6.3592704e-39 358 300
0.048823316 0.71399999 -0.075112797 7.0046398e-39 359 300
-0.00124662 0.71100003 -0.076043822 6.4525254e-39 319 301
0 0.71100003 -0.076043822 6.0855366e-39 320 301
0.0012448666 0.70999998 -0.075936861 5.9933423e-39 321 301
0.0024897333 0.70999998 -0.075936861 5.9004306e-39 322 301
0.0037345996 0.70999998 -0.075936861 5.9004306e-39 323 301
0.0049794666 0.70999998 -0.075936861 5.6245654e-39 324 301
0.0062243328 0.70999998 -0.075936861 5.6245654e-39 325 301
0.0074481601 0.708 -0.075722955 5.5330886e-39 326 301
0.008689519 0.708 -0.075722955 5.6252829e-39 327 301
0.0099168532 0.70700002 -0.07561601 5.6252829e-39 328 301
0.011140679 0.70599997 -0.075509049 5.6252829e-39 329 301
0.012378532 0.70599997 -0.075509049 5.6252829e-39 330 301
0.013616386 0.70599997 -0.075509049 5.7174771e-39 331 301
0.014854239 0.70599997 -0.075509049 5.7174771e-39 332 301
0.016092092 0.70599997 -0.075509049 5.7174771e-39 333 301
0.017329946 0.70599997 -0.075509049 5.7178358e-39 334 301
0.018515198 0.704 -0.075295143 5.7178358e-39 335 301
0.019749546 0.704 -0.075295143 5.7167596e-39 336 301
0.020983893 0.704 -0.075295143 5.5323712e-39 337 301
0.022218239 0.704 -0.075295143 5.5298601e-39 338 301
0.023452586 0.704 -0.075295143 5.3458303e-39 339 301
0.024686933 0.704 -0.075295143 5.3458303e-39 340 301
0.02592128 0.704 -0.075295143 5.5298601e-39 341 301
0.027155625 0.704 -0.075295143 5.531295e-39 342 301
0.028389972 0.704 -0.075295143 5.531295e-39 343 301
0.029624319 0.704 -0.075295143 5.4398182e-39 344 301
0.030858666 0.704 -0.075295143 5.347624e-39 345 301
0.032093015 0.704 -0.075295143 5.4398182e-39 346 301
0.033422034 0.70599997 -0.075509049 5.4398182e-39 347 301
0.034659892 0.70599997 -0.075509049 5.4398182e-39 348 301
0.035948593 0.70700002 -0.07561601 5.347624e-39 349 301
0.037188202 0.70700002 -0.07561601 5.4391008e-39 350 301
0.038427804 0.70700002 -0.07561601 5.4391008e-39 351 301
0.039723519 0.708 -0.075722955 5.622413e-39 352 301
0.040964879 0.708 -0.075722955 5.7146072e-39 353 301
0.042325463 0.70999998 -0.075936861 5.7146072e-39 354 301
0.043570329 0.70999998 -0.075936861 5.8989985e-39 355 301
0.044815198 0.70999998 -0.075936861 5.9908452e-39 356 301
0.046124939 0.71100003 -0.076043822 6.267072e-39 357 301
0 0.71100003 -0.077290438 6.3610458e-39 320 302
0.00124662 0.71100003 -0.077290438 6.0844604e-39 321 302
0.0024932399 0.71100003 -0.077290438 5.8089539e-39 322 302
0.0037398601 0.71100003 -0.077290438 5.8089539e-39 323 302
0.0049864799 0.71100003 -0.077290438 5.8078777e-39 324 302
0.0062243328 0.70999998 -0.077181734 5.8078777e-39 325 302
0.0074691991 0.70999998 -0.077181734 5.6245654e-39 326 302
0.0087140659 0.70999998 -0.077181734 5.6245654e-39 327 302
0.0099168532 0.70700002 -0.076855607 5.6252829e-39 328 302
0.011140679 0.70599997 -0.076746903 5.6252829e-39 329 302
0.012378532 0.70599997 -0.076746903 5.7167596e-39 330 302
0.013616386 0.70599997 -0.076746903 5.7167596e-39 331 302
0.014854239 0.70599997 -0.076746903 5.8093126e-39 332 302
0.016092092 0.70599997 -0.076746903 5.8093126e-39 333 302
0.017329946 0.70599997 -0.076746903 5.8096713e-39 334 302
0.018567799 0.70599997 -0.076746903 5.9937011e-39 335 302
0.019805651 0.70599997 -0.076746903 5.9004306e-39 336 302
0.021043506 0.70599997 -0.076746903 5.5316537e-39 337 302
0.022281358 0.70599997 -0.076746903 5.438742e-39 338 302
0.023519212 0.70599997 -0.076746903 5.3465478e-39 339 302
0.024686933 0.704 -0.076529488 5.5302188e-39 340 302
0.02592128 0.704 -0.076529488 5.7146072e-39 341 302
0.027155625 0.704 -0.076529488 5.5320124e-39 342 302
0.028470624 0.70599997 -0.076746903 5.4398182e-39 343 302
0.029708479 0.70599997 -0.076746903 5.4398182e-39 344 302
0.030946331 0.70599997 -0.076746903 5.4398182e-39 345 302
0.032229774 0.70700002 -0.076855607 5.4398182e-39 346 302
0.033469379 0.70700002 -0.076855607 5.4398182e-39 347 302
0.034758076 0.708 -0.076964319 5.4398182e-39 348 302
0.03599944 0.708 -0.076964319 5.4398182e-39 349 302
0.0372408 0.708 -0.076964319 5.4391008e-39 350 302
0.038482159 0.708 -0.076964319 5.4391008e-39 351 302
0.039835732 0.70999998 -0.077181734 5.7146072e-39 352 302
0.041080594 0.70999998 -0.077181734 5.7146072e-39 353 302
0.042325463 0.70999998 -0.077181734 5.8068029e-39 354 302
0.043570329 0.70999998 -0.077181734 5.9911941e-39 355 302
0.044878319 0.71100003 -0.077290438 5.9915669e-39 356 302
0.046254687 0.713 -0.077507854 6.3599893e-39 357 302
0.0024932399 0.71100003 -0.078537062 5.9922675e-39 322 303
0.0037398601 0.71100003 -0.078537062 5.9922675e-39 323 303
0.0049864799 0.71100003 -0.078537062 5.9000719e-39 324 303
0.0062330998 0.71100003 -0.078537062 5.9000719e-39 325 303
0.0074797203 0.71100003 -0.078537062 5.6245654e-39 326 303
0.0087263398 0.71100003 -0.078537062 5.6245654e-39 327 303
0.0099589331 0.70999998 -0.0784266 5.5330886e-39 328 303
0.01117224 0.708 -0.078205675 5.6252829e-39 329 303
0.0124136 0.708 -0.078205675 5.6242067e-39 330 303
0.013654959 0.708 -0.078205675 5.7167596e-39 331 303
0.01489632 0.708 -0.078205675 5.7167596e-39 332 303
0.016114887 0.70700002 -0.07809522 5.7167596e-39 333 303
0.017354494 0.70700002 -0.07809522 5.9919074e-39 334 303
0.018567799 0.70599997 -0.07798475 5.9919074e-39 335 303
0.019805651 0.70599997 -0.07798475 6.0826667e-39 336 303
0.021043506 0.70599997 -0.07798475 5.9904725e-39 337 303
0.022281358 0.70599997 -0.07798475 5.7146072e-39 338 303
0.023519212 0.70599997 -0.07798475 5.7146072e-39 339 303
0.024757065 0.70599997 -0.07798475 5.6227717e-39 340 303
0.025994917 0.70599997 -0.07798475 5.8071602e-39 341 303
0.027232772 0.70599997 -0.07798475 5.531295e-39 342 303
0.028510952 0.70700002 -0.07809522 5.531295e-39 343 303
0.029750559 0.70700002 -0.07809522 5.4398182e-39 344 303
0.031034 0.708 -0.078205675 5.4398182e-39 345 303
0.03227536 0.708 -0.078205675 5.531295e-39 346 303
0.033516716 0.708 -0.078205675 5.531295e-39 347 303
0.034856264 0.70999998 -0.0784266 5.531295e-39 348 303
0.036101133 0.70999998 -0.0784266 5.4391008e-39 349 303
0.037345998 0.70999998 -0.0784266 5.347624e-39 350 303
0.038590867 0.70999998 -0.0784266 5.4398182e-39 351 303
0.039835732 0.70999998 -0.0784266 5.7146072e-39 352 303
0.041138459 0.71100003 -0.078537062 5.8068029e-39 353 303
0.042385083 0.71100003 -0.078537062 5.8990013e-39 354 303
0.043631699 0.71100003 -0.078537062 5.9911969e-39 355 303
0.044878319 0.71100003 -0.078537062 6.084131e-39 356 303
0.0037556398 0.71399999 -0.080120318 5.9922703e-39 323 304
0.0050005065 0.713 -0.080008104 5.9000719e-39 324 304
0.0062506334 0.713 -0.080008104 5.9000719e-39 325 304
0.0075007593 0.713 -0.080008104 5.7167596e-39 326 304
0.0087508867 0.713 -0.080008104 5.6245654e-39 327 304
0.0099729598 0.71100003 -0.079783678 5.6242067e-39 328 304
0.01121958 0.71100003 -0.079783678 5.6242067e-39 329 304
0.0124662 0.71100003 -0.079783678 5.6242067e-39 330 304
0.013693533 0.70999998 -0.079671465 5.6242067e-39 331 304
0.014938398 0.70999998 -0.079671465 5.6242067e-39 332 304
0.01613768 0.708 -0.079447038 5.6242067e-39 333 304
0.017379038 0.708 -0.079447038 5.9915487e-39 334 304
0.018594101 0.70700002 -0.079334825 5.8993544e-39 335 304
0.019833706 0.70700002 -0.079334825 5.8993544e-39 336 304
0.021073313 0.70700002 -0.079334825 5.8071602e-39 337 304
0.022312919 0.70700002 -0.079334825 5.8071602e-39 338 304
0.023552528 0.70700002 -0.079334825 5.8071602e-39 339 304
0.024827199 0.708 -0.079447038 5.7156834e-39 340 304
0.02603174 0.70700002 -0.079334825 5.7156834e-39 341 304
0.027271347 0.70700002 -0.079334825 5.531295e-39 342 304
0.02855128 0.708 -0.079447038 5.7153247e-39 343 304
0.029876797 0.70999998 -0.079671465 5.531295e-39 344 304
0.031121666 0.70999998 -0.079671465 5.531295e-39 345 304
0.032366529 0.70999998 -0.079671465 5.531295e-39 346 304
0.033611398 0.70999998 -0.079671465 5.531295e-39 347 304
0.034856264 0.70999998 -0.079671465 5.531295e-39 348 304
0.036101133 0.70999998 -0.079671465 5.531295e-39 349 304
0.037345998 0.70999998 -0.079671465 5.4398182e-39 350 304
0.038590867 0.70999998 -0.079671465 5.4398182e-39 351 304
0.039891839 0.71100003 -0.079783678 5.7142513e-39 352 304
0.041138459 0.71100003 -0.079783678 5.8990013e-39 353 304
0.042385083 0.71100003 -0.079783678 5.9908424e-39 354 304
0.043631699 0.71100003 -0.079783678 6.2674279e-39 355 304
0.0050075199 0.71399999 -0.081372194 5.8997202e-39 324 305
0.0062593995 0.71399999 -0.081372194 5.9919172e-39 325 305
0.0075112795 0.71399999 -0.081372194 5.7164023e-39 326 305
0.0087631596 0.71399999 -0.081372194 5.7164023e-39 327 305
0.01001504 0.71399999 -0.081372194 5.6245654e-39 328 305
0.011251139 0.713 -0.08125823 5.7167596e-39 329 305
0.012501267 0.713 -0.08125823 5.5330886e-39 330 305
0.01371282 0.71100003 -0.081030294 5.5330886e-39 331 305
0.014959441 0.71100003 -0.081030294 5.7153247e-39 332 305
0.016183265 0.70999998 -0.08091633 5.8075189e-39 333 305
0.017428132 0.70999998 -0.08091633 5.9915501e-39 334 305
0.0186204 0.708 -0.080688395 5.9915501e-39 335 305
0.01986176 0.708 -0.080688395 5.8078777e-39 336 305
0.021103119 0.708 -0.080688395 5.7153247e-39 337 305
0.022344479 0.708 -0.080688395 5.8071602e-39 338 305
0.023652466 0.70999998 -0.08091633 5.8071602e-39 339 305
0.024897331 0.70999998 -0.08091633 5.6245654e-39 340 305
0.026142199 0.70999998 -0.08091633 5.5323712e-39 341 305
0.027387066 0.70999998 -0.08091633 5.7153247e-39 342 305
0.028631933 0.70999998 -0.08091633 5.7153247e-39 343 305
0.029918881 0.71100003 -0.081030294 5.7153247e-39 344 305
0.031165501 0.71100003 -0.081030294 5.531295e-39 345 305
0.032412119 0.71100003 -0.081030294 5.7146072e-39 346 305
0.033658739 0.71100003 -0.081030294 5.8068015e-39 347 305
0.034905359 0.71100003 -0.081030294 5.531295e-39 348 305
0.036151983 0.71100003 -0.081030294 5.531295e-39 349 305
0.037398599 0.71100003 -0.081030294 5.7149702e-39 350 305
0.038645219 0.71100003 -0.081030294 5.7149702e-39 351 305
0.039891839 0.71100003 -0.081030294 5.8986482e-39 352 305
0.041138459 0.71100003 -0.081030294 5.9908452e-39 353 305
0.042385083 0.71100003 -0.081030294 5.9912109e-39 354 305
0.0062769335 0.71600002 -0.082855515 5.9911969e-39 325 306
0.00753232 0.71600002 -0.082855515 5.8997146e-39 326 306
0.0087877065 0.71600002 -0.082855515 5.8997146e-39 327 306
0.01001504 0.71399999 -0.082624078 5.8078777e-39 328 306
0.011266919 0.71399999 -0.082624078 5.9004306e-39 329 306
0.012501267 0.713 -0.082508355 5.6245654e-39 330 306
0.013751393 0.713 -0.082508355 5.6245654e-39 331 306
0.015001519 0.713 -0.082508355 5.6242067e-39 332 306
0.01620606 0.71100003 -0.082276918 5.6242067e-39 333 306
0.017428132 0.70999998 -0.082161188 5.7164051e-39 334 306
0.018672999 0.70999998 -0.082161188 5.6242095e-39 335 306
0.019917866 0.70999998 -0.082161188 5.7153247e-39 336 306
0.021162732 0.70999998 -0.082161188 5.7153247e-39 337 306
0.022407599 0.70999998 -0.082161188 5.8078777e-39 338 306
0.023685781 0.71100003 -0.082276918 5.7153247e-39 339 306
0.024932399 0.71100003 -0.082276918 5.8068015e-39 340 306
0.026179021 0.71100003 -0.082276918 5.8068015e-39 341 306
0.027425639 0.71100003 -0.082276918 5.5316551e-39 342 306
0.028672259 0.71100003 -0.082276918 5.4394595e-39 343 306
0.029918881 0.71100003 -0.082276918 5.5309362e-39 344 306
0.031165501 0.71100003 -0.082276918 5.5309362e-39 345 306
0.032503292 0.713 -0.082508355 5.7146072e-39 346 306
0.033753417 0.713 -0.082508355 5.7146072e-39 347 306
0.035003547 0.713 -0.082508355 5.5309391e-39 348 306
0.036253672 0.713 -0.082508355 5.5309391e-39 349 306
0.037398599 0.71100003 -0.082276918 5.714973e-39 350 306
0.038645219 0.71100003 -0.082276918 5.8071686e-39 351 306
0.039891839 0.71100003 -0.082276918 5.898295e-39 352 306
0.041138459 0.71100003 -0.082276918 6.2670776e-39 353 306
0.00753232 0.71600002 -0.084110901 5.7160562e-39 326 307
0.0087877065 0.71600002 -0.084110901 5.7160562e-39 327 307
0.01001504 0.71399999 -0.083875954 5.8997146e-39 328 307
0.011266919 0.71399999 -0.083875954 5.8075189e-39 329 307
0.012501267 0.713 -0.083758481 5.6242067e-39 330 307
0.01371282 0.71100003 -0.083523542 5.6242067e-39 331 307
0.014959441 0.71100003 -0.083523542 5.6242067e-39 332 307
0.01620606 0.71100003 -0.083523542 5.7167596e-39 333 307
0.017428132 0.70999998 -0.083406061 5.6242067e-39 334 307
0.018672999 0.70999998 -0.083406061 5.6242067e-39 335 307
0.019917866 0.70999998 -0.083406061 5.6238535e-39 336 307
0.021162732 0.70999998 -0.083406061 5.6238535e-39 337 307
0.022407599 0.70999998 -0.083406061 5.8075217e-39 338 307
0.023685781 0.71100003 -0.083523542 5.8075217e-39 339 307
0.025002534 0.713 -0.083758481 5.7153261e-39 340 307
0.026252659 0.713 -0.083758481 5.7153261e-39 341 307
0.027502786 0.713 -0.083758481 5.5309362e-39 342 307
0.028752912 0.713 -0.083758481 5.5309362e-39 343 307
0.030003037 0.713 -0.083758481 5.7142513e-39 344 307
0.031253166 0.713 -0.083758481 5.7142513e-39 345 307
0.032503292 0.713 -0.083758481 5.714973e-39 346 307
0.033753417 0.713 -0.083758481 5.714973e-39 347 307
0.035003547 0.713 -0.083758481 5.7146199e-39 348 307
0.036253672 0.713 -0.083758481 5.7146199e-39 349 307
0.037398599 0.71100003 -0.083523542 5.8064624e-39 350 307
0.038645219 0.71100003 -0.083523542 5.8990181e-39 351 307
0.039891839 0.71100003 -0.083523542 5.9915823e-39 352 307
0.01001504 0.71399999 -0.085127831 5.6238564e-39 328 308
0.011266919 0.71399999 -0.085127831 5.6238564e-39 329 308
0.012501267 0.713 -0.085008614 5.5316551e-39 330 308
0.01371282 0.71100003 -0.084770165 5.5316551e-39 331 308
0.014959441 0.71100003 -0.084770165 5.6242067e-39 332 308
0.016183265 0.70999998 -0.084650926 5.6242067e-39 333 308
0.017354494 0.70700002 -0.084293254 5.6242095e-39 334 308
0.018594101 0.70700002 -0.084293254 5.6242095e-39 335 308
0.019833706 0.70700002 -0.084293254 5.6238535e-39 336 308
0.021103119 0.708 -0.084412478 5.6238535e-39 337 308
0.022407599 0.70999998 -0.084650926 5.5316579e-39 338 308
0.023685781 0.71100003 -0.084770165 5.5316579e-39 339 308
0.025002534 0.713 -0.085008614 5.5316579e-39 340 308
0.026252659 0.713 -0.085008614 5.5316579e-39 341 308
0.027502786 0.713 -0.085008614 5.4394623e-39 342 308
0.028752912 0.713 -0.085008614 5.4394623e-39 343 308
0.030003037 0.713 -0.085008614 5.5316607e-39 344 308
0.031253166 0.713 -0.085008614 5.4394651e-39 345 308
0.032503292 0.713 -0.085008614 5.439112e-39 346 308
0.033753417 0.713 -0.085008614 5.439112e-39 347 308
0.035003547 0.713 -0.085008614 5.7142695e-39 348 308
0.036253672 0.713 -0.085008614 5.5302384e-39 349 308
0.01371282 0.71100003 -0.086016782 5.3479953e-39 331 309
0.014938398 0.70999998 -0.085895792 5.5320237e-39 332 309
0.01613768 0.708 -0.085653841 5.5320237e-39 333 309
0.017329946 0.70599997 -0.085411869 5.5323796e-39 334 309
0.018567799 0.70599997 -0.085411869 5.5323796e-39 335 309
0.019805651 0.70599997 -0.085411869 5.5323768e-39 336 309
0.021103119 0.708 -0.085653841 5.5323768e-39 337 309
0.022407599 0.70999998 -0.085895792 5.5323796e-39 338 309
0.023685781 0.71100003 -0.086016782 5.3479897e-39 339 309
0.025002534 0.713 -0.086258732 5.3479925e-39 340 309
0.026252659 0.713 -0.086258732 5.2557969e-39 341 309
0.027502786 0.713 -0.086258732 5.3479925e-39 342 309
0.031384666 0.71600002 -0.086621679 5.2554438e-39 345 309
0.032640055 0.71600002 -0.086621679 5.347645e-39 346 309
0.03389544 0.71600002 -0.086621679 5.162895e-39 347 309
0.014938398 0.70999998 -0.087140657 5.2558123e-39 332 310
0.01613768 0.708 -0.086895198 5.2558123e-39 333 310
0.017280852 0.704 -0.086404264 5.3476422e-39 334 310
0.018515198 0.704 -0.086404264 5.3476422e-39 335 310
0.019749546 0.704 -0.086404264 5.5313076e-39 336 310
0.021103119 0.708 -0.086895198 5.5313076e-39 337 310
0.022407599 0.70999998 -0.087140657 5.2554438e-39 338 310
