# .PCD v.7 - Point Cloud Data file format
FIELDS x y z rgb imX imY
SIZE 4 4 4 4 4 4
TYPE F F F F F F
COUNT 1 1 1 1 1 1
WIDTH 857
HEIGHT 1
VIEWPOINT 0 0 0 1 0 0 0
POINTS 857
DATA ascii
0.039712999 0.755 0.013237666 1.4378731e-38 350 230
0.041254178 0.759 0.0133078 1.4009588e-38 351 230
0.042584959 0.759 0.0133078 1.4008229e-38 352 230
0.044031456 0.76099998 0.013342866 1.6128728e-38 353 230
-0.0267208 0.76200002 0.01202436 1.6685884e-38 300 231
-0.02538476 0.76200002 0.01202436 1.5395146e-38 301 231
-0.024017159 0.76099998 0.012008579 1.6132285e-38 302 231
-0.022682872 0.76099998 0.012008579 1.6040089e-38 303 231
-0.021348584 0.76099998 0.012008579 1.6316656e-38 304 231
-0.020014299 0.76099998 0.012008579 1.6685079e-38 305 231
-0.01863092 0.759 0.01197702 1.6869823e-38 306 231
-0.017254554 0.75700003 0.01194546 1.6869823e-38 307 231
-0.015885198 0.755 0.011913899 1.7145671e-38 308 231
-0.014542146 0.75400001 0.01189812 1.696128e-38 309 231
-0.013185065 0.75199997 0.011866559 1.7236024e-38 310 231
-0.011866559 0.75199997 0.011866559 1.6959798e-38 311 231
-0.01052 0.75 0.011835 1.7143463e-38 312 231
-0.0092049995 0.75 0.011835 1.6958716e-38 313 231
-0.00789 0.75 0.011835 1.6681774e-38 314 231
-0.006575 0.75 0.011835 1.6313356e-38 315 231
-0.0052740262 0.75199997 0.011866559 1.5944938e-38 316 231
-0.0039555198 0.75199997 0.011866559 1.576055e-38 317 231
-0.00263 0.75 0.011835 1.5484326e-38 318 231
-0.001315 0.75 0.011835 1.5391773e-38 319 231
0 0.75 0.011835 1.5115197e-38 320 231
0.0013185065 0.75199997 0.011866559 1.5023001e-38 321 231
0.0026370131 0.75199997 0.011866559 1.4746437e-38 322 231
0.0039555198 0.75199997 0.011866559 1.4654241e-38 323 231
0.0052740262 0.75199997 0.011866559 1.4285476e-38 324 231
0.0065925326 0.75199997 0.011866559 1.3824856e-38 325 231
0.0079110395 0.75199997 0.011866559 1.3731213e-38 326 231
0.0092540924 0.75400001 0.01189812 1.2255734e-38 327 231
0.010576107 0.75400001 0.01189812 1.0873179e-38 328 231
0.01189812 0.75400001 0.01189812 1.0043431e-38 329 231
0.013220133 0.75400001 0.01189812 1.0232133e-38 330 231
0.014542146 0.75400001 0.01189812 1.1707263e-38 331 231
0.01586416 0.75400001 0.01189812 1.3824872e-38 332 231
0.017140586 0.75199997 0.011866559 1.4562438e-38 333 231
0.018409999 0.75 0.011835 1.5208877e-38 334 231
0.019724999 0.75 0.011835 1.5393268e-38 335 231
0.02104 0.75 0.011835 1.5301425e-38 336 231
0.022355 0.75 0.011835 1.520923e-38 337 231
0.023669999 0.75 0.011835 1.5575472e-38 338 231
0.024984999 0.75 0.011835 1.5483276e-38 339 231
0.026264934 0.74900001 0.01181922 1.5483611e-38 340 231
0.027578179 0.74900001 0.01181922 1.5391415e-38 341 231
0.028891427 0.74900001 0.01181922 1.5392131e-38 342 231
0.030204674 0.74900001 0.01181922 1.5299937e-38 343 231
0.031644158 0.75199997 0.011866559 1.5024072e-38 344 231
0.032962665 0.75199997 0.011866559 1.4931878e-38 345 231
0.034281172 0.75199997 0.011866559 1.4747848e-38 346 231
0.035694357 0.75400001 0.01189812 1.4655654e-38 347 231
0.037016369 0.75400001 0.01189812 1.4562743e-38 348 231
0.038389232 0.755 0.011913899 1.4562743e-38 349 231
0.039712999 0.755 0.011913899 1.456169e-38 350 231
0.041036766 0.755 0.011913899 1.4377298e-38 351 231
0.042584959 0.759 0.01197702 1.3917109e-38 352 231
0.044031456 0.76099998 0.012008579 1.5391879e-38 353 231
0.045365743 0.76099998 0.012008579 1.61288e-38 354 231
-0.0267208 0.76200002 0.01068832 1.6408569e-38 300 232
-0.02538476 0.76200002 0.01068832 1.5579168e-38 301 232
-0.024017159 0.76099998 0.010674292 1.6223037e-38 302 232
-0.022682872 0.76099998 0.010674292 1.6315234e-38 303 232
-0.021348584 0.76099998 0.010674292 1.631593e-38 304 232
-0.0199617 0.759 0.01064624 1.6592517e-38 305 232
-0.01863092 0.759 0.01064624 1.6868731e-38 306 232
-0.017208965 0.755 0.010590133 1.7053123e-38 307 232
-0.015885198 0.755 0.010590133 1.7237138e-38 308 232
-0.014542146 0.75400001 0.010576107 1.7237138e-38 309 232
-0.013185065 0.75199997 0.010548052 1.7236757e-38 310 232
-0.011866559 0.75199997 0.010548052 1.7052365e-38 311 232
-0.01052 0.75 0.01052 1.7143466e-38 312 232
-0.0092049995 0.75 0.01052 1.7050911e-38 313 232
-0.00789 0.75 0.01052 1.6682851e-38 314 232
-0.006575 0.75 0.01052 1.6405909e-38 315 232
-0.00526 0.75 0.01052 1.6405909e-38 316 232
-0.003945 0.75 0.01052 1.6037491e-38 317 232
-0.00263 0.75 0.01052 1.612825e-38 318 232
-0.0013132467 0.74900001 0.010505973 1.6035697e-38 319 232
0 0.74900001 0.010505973 1.5117701e-38 320 232
0.001315 0.75 0.01052 1.5025507e-38 321 232
0.00263 0.75 0.01052 1.5115201e-38 322 232
0.003945 0.75 0.01052 1.5115201e-38 323 232
0.00526 0.75 0.01052 1.4931551e-38 324 232
0.006575 0.75 0.01052 1.4931551e-38 325 232
0.00789 0.75 0.01052 1.4655706e-38 326 232
0.0092049995 0.75 0.01052 1.456351e-38 327 232
0.010477919 0.74699998 0.010477919 1.4470255e-38 328 232
0.011787659 0.74699998 0.010477919 1.4286222e-38 329 232
0.013097399 0.74699998 0.010477919 1.437951e-38 330 232
0.014407139 0.74699998 0.010477919 1.4471705e-38 331 232
0.015716879 0.74699998 0.010477919 1.5115624e-38 332 232
0.017072206 0.74900001 0.010505973 1.539257e-38 333 232
0.018385453 0.74900001 0.010505973 1.5576567e-38 334 232
0.0196987 0.74900001 0.010505973 1.5484372e-38 335 232
0.021011947 0.74900001 0.010505973 1.5392878e-38 336 232
0.022325192 0.74900001 0.010505973 1.5300683e-38 337 232
0.02363844 0.74900001 0.010505973 1.5575106e-38 338 232
0.024951685 0.74900001 0.010505973 1.548291e-38 339 232
0.026264934 0.74900001 0.010505973 1.5482892e-38 340 232
0.027578179 0.74900001 0.010505973 1.5482892e-38 341 232
0.028891427 0.74900001 0.010505973 1.520846e-38 342 232
0.030204674 0.74900001 0.010505973 1.520846e-38 343 232
0.031517919 0.74900001 0.010505973 1.4840401e-38 344 232
0.032874998 0.75 0.01052 1.4748207e-38 345 232
0.034189999 0.75 0.01052 1.4748565e-38 346 232
0.035505001 0.75 0.01052 1.4656012e-38 347 232
0.036918186 0.75199997 0.010548052 1.4471632e-38 348 232
0.038389232 0.755 0.010590133 1.4379078e-38 349 232
0.039712999 0.755 0.010590133 1.4652441e-38 350 232
0.041036766 0.755 0.010590133 1.4652441e-38 351 232
0.042584959 0.759 0.01064624 1.4100759e-38 352 232
0.043915741 0.759 0.01064624 1.4746129e-38 353 232
0.045246519 0.759 0.01064624 1.5577764e-38 354 232
-0.028130481 0.764 0.0093768267 1.61324e-38 299 233
-0.026790932 0.764 0.0093768267 1.6316361e-38 300 233
-0.02538476 0.76200002 0.0093522798 1.5763187e-38 301 233
-0.024017159 0.76099998 0.0093400059 1.6131555e-38 302 233
-0.022682872 0.76099998 0.0093400059 1.6131555e-38 303 233
-0.021348584 0.76099998 0.0093400059 1.6224456e-38 304 233
-0.0199617 0.759 0.00931546 1.6408849e-38 305 233
-0.018581826 0.75700003 0.0092909131 1.6685066e-38 306 233
-0.017208965 0.755 0.0092663663 1.6869457e-38 307 233
-0.01586416 0.75400001 0.0092540924 1.7053823e-38 308 233
-0.014542146 0.75400001 0.0092540924 1.7053823e-38 309 233
-0.013185065 0.75199997 0.0092295464 1.7237105e-38 310 233
-0.011866559 0.75199997 0.0092295464 1.7052712e-38 311 233
-0.01052 0.75 0.0092049995 1.7327134e-38 312 233
-0.0092049995 0.75 0.0092049995 1.7143104e-38 313 233
-0.00789 0.75 0.0092049995 1.7143463e-38 314 233
-0.006575 0.75 0.0092049995 1.6959075e-38 315 233
-0.0052529867 0.74900001 0.0091927266 1.6957998e-38 316 233
-0.0039397399 0.74900001 0.0091927266 1.6865804e-38 317 233
-0.0026264933 0.74900001 0.0091927266 1.640555e-38 318 233
-0.0013132467 0.74900001 0.0091927266 1.640555e-38 319 233
0 0.74900001 0.0091927266 1.5944938e-38 320 233
0.0013132467 0.74900001 0.0091927266 1.5852744e-38 321 233
0.0026264933 0.74900001 0.0091927266 1.5667997e-38 322 233
0.0039397399 0.74900001 0.0091927266 1.5483967e-38 323 233
0.0052389596 0.74699998 0.0091681797 1.5116266e-38 324 233
0.0065486995 0.74699998 0.0091681797 1.5024072e-38 325 233
0.0078584393 0.74699998 0.0091681797 1.4932255e-38 326 233
0.0091681797 0.74699998 0.0091681797 1.5300677e-38 327 233
0.010477919 0.74699998 0.0091681797 1.5300709e-38 328 233
0.011787659 0.74699998 0.0091681797 1.5392905e-38 329 233
0.013097399 0.74699998 0.0091681797 1.5484022e-38 330 233
0.014387853 0.74599999 0.0091559067 1.5299629e-38 331 233
0.015695838 0.74599999 0.0091559067 1.5850985e-38 332 233
0.017026618 0.74699998 0.0091681797 1.5850985e-38 333 233
0.018336359 0.74699998 0.0091681797 1.5484705e-38 334 233
0.019646099 0.74699998 0.0091681797 1.5484705e-38 335 233
0.020955838 0.74699998 0.0091681797 1.5576178e-38 336 233
0.022265578 0.74699998 0.0091681797 1.5483624e-38 337 233
0.023575317 0.74699998 0.0091681797 1.57584e-38 338 233
0.024951685 0.74900001 0.0091927266 1.5666204e-38 339 233
0.026264934 0.74900001 0.0091927266 1.5483608e-38 340 233
0.027578179 0.74900001 0.0091927266 1.5483608e-38 341 233
0.028891427 0.74900001 0.0091927266 1.5483608e-38 342 233
0.030204674 0.74900001 0.0091927266 1.5391414e-38 343 233
0.031517919 0.74900001 0.0091927266 1.5207384e-38 344 233
0.032831166 0.74900001 0.0091927266 1.5023354e-38 345 233
0.034144413 0.74900001 0.0091927266 1.4748207e-38 346 233
0.03545766 0.74900001 0.0091927266 1.4656012e-38 347 233
0.036819998 0.75 0.0092049995 1.4562743e-38 348 233
0.038338386 0.75400001 0.0092540924 1.4470548e-38 349 233
0.039660402 0.75400001 0.0092540924 1.4469131e-38 350 233
0.041036766 0.755 0.0092663663 1.4469131e-38 351 233
0.042472746 0.75700003 0.0092909131 1.3916715e-38 352 233
0.043915741 0.759 0.00931546 1.4101465e-38 353 233
0.045246519 0.759 0.00931546 1.5024568e-38 354 233
-0.028056841 0.76200002 0.0080162399 1.5765411e-38 299 234
-0.0267208 0.76200002 0.0080162399 1.6132671e-38 300 234
-0.025351444 0.76099998 0.0080057196 1.5210716e-38 301 234
-0.024017159 0.76099998 0.0080057196 1.6223006e-38 302 234
-0.02262326 0.759 0.0079846792 1.6315202e-38 303 234
-0.02129248 0.759 0.0079846792 1.6315558e-38 304 234
-0.0199617 0.759 0.0079846792 1.6592146e-38 305 234
-0.018581826 0.75700003 0.0079636406 1.6593218e-38 306 234
-0.017208965 0.755 0.0079425992 1.6777609e-38 307 234
-0.01586416 0.75400001 0.00793208 1.7237489e-38 308 234
-0.014542146 0.75400001 0.00793208 1.7237489e-38 309 234
-0.013185065 0.75199997 0.0079110395 1.7420791e-38 310 234
-0.011835 0.75 0.00789 1.7420791e-38 311 234
-0.01052 0.75 0.00789 1.7144913e-38 312 234
-0.0091927266 0.74900001 0.0078794798 1.7144913e-38 313 234
-0.0078794798 0.74900001 0.0078794798 1.7143822e-38 314 234
-0.0065662335 0.74900001 0.0078794798 1.7051627e-38 315 234
-0.0052529867 0.74900001 0.0078794798 1.7051627e-38 316 234
-0.0039397399 0.74900001 0.0078794798 1.6683209e-38 317 234
-0.0026264933 0.74900001 0.0078794798 1.6406985e-38 318 234
-0.0013097399 0.74699998 0.0078584393 1.6314791e-38 319 234
0 0.74699998 0.0078584393 1.6130761e-38 320 234
0.0013097399 0.74699998 0.0078584393 1.5670149e-38 321 234
0.0026159731 0.74599999 0.0078479191 1.5484326e-38 322 234
0.0039239596 0.74599999 0.0078479191 1.5484326e-38 323 234
0.0052319462 0.74599999 0.0078479191 1.5392131e-38 324 234
0.0065223998 0.74400002 0.0078268806 1.5392131e-38 325 234
0.0078268806 0.74400002 0.0078268806 1.5208466e-38 326 234
0.0091313599 0.74400002 0.0078268806 1.5208466e-38 327 234
0.01043584 0.74400002 0.0078268806 1.5116999e-38 328 234
0.011740319 0.74400002 0.0078268806 1.5116999e-38 329 234
0.013079867 0.74599999 0.0078479191 1.5667652e-38 330 234
0.014387853 0.74599999 0.0078479191 1.5667652e-38 331 234
0.015653761 0.74400002 0.0078268806 1.5576172e-38 332 234
0.016958239 0.74400002 0.0078268806 1.5576172e-38 333 234
0.018311813 0.74599999 0.0078479191 1.5668008e-38 334 234
0.019619798 0.74599999 0.0078479191 1.5668008e-38 335 234
0.020955838 0.74699998 0.0078584393 1.5668005e-38 336 234
0.022265578 0.74699998 0.0078584393 1.5668005e-38 337 234
0.023575317 0.74699998 0.0078584393 1.5851309e-38 338 234
0.024885058 0.74699998 0.0078584393 1.5759115e-38 339 234
0.026194798 0.74699998 0.0078584393 1.5484684e-38 340 234
0.027504537 0.74699998 0.0078584393 1.5484684e-38 341 234
0.028814279 0.74699998 0.0078584393 1.5483967e-38 342 234
0.030124018 0.74699998 0.0078584393 1.5483967e-38 343 234
0.031433757 0.74699998 0.0078584393 1.4932954e-38 344 234
0.032831166 0.74900001 0.0078794798 1.484076e-38 345 234
0.034144413 0.74900001 0.0078794798 1.4748565e-38 346 234
0.03545766 0.74900001 0.0078794798 1.4656371e-38 347 234
0.036819998 0.75 0.00789 1.4471983e-38 348 234
0.038135 0.75 0.00789 1.4287594e-38 349 234
0.039555199 0.75199997 0.0079110395 1.4377636e-38 350 234
0.040982414 0.75400001 0.00793208 1.4285442e-38 351 234
0.042304426 0.75400001 0.00793208 1.4378002e-38 352 234
0.043800019 0.75700003 0.0079636406 1.3824829e-38 353 234
0.045127295 0.75700003 0.0079636406 1.4472798e-38 354 234
0.046454567 0.75700003 0.0079636406 1.6777688e-38 355 234
-0.028056841 0.76200002 0.0066801999 1.5580654e-38 299 235
-0.0267208 0.76200002 0.0066801999 1.6040104e-38 300 235
-0.025351444 0.76099998 0.0066714329 1.5486931e-38 301 235
-0.024017159 0.76099998 0.0066714329 1.6040047e-38 302 235
-0.02262326 0.759 0.0066538998 1.6040047e-38 303 235
-0.02129248 0.759 0.0066538998 1.6039694e-38 304 235
-0.019909101 0.75700003 0.0066363667 1.6316639e-38 305 235
-0.018532733 0.755 0.0066188332 1.6500669e-38 306 235
-0.017186172 0.75400001 0.0066100666 1.6777615e-38 307 235
-0.01586416 0.75400001 0.0066100666 1.7053823e-38 308 235
-0.014542146 0.75400001 0.0066100666 1.7053823e-38 309 235
-0.013185065 0.75199997 0.0065925326 1.7237123e-38 310 235
-0.011835 0.75 0.006575 1.7237123e-38 311 235
-0.01052 0.75 0.006575 1.742042e-38 312 235
-0.0091927266 0.74900001 0.0065662335 1.7512615e-38 313 235
-0.0078794798 0.74900001 0.0065662335 1.7604075e-38 314 235
-0.0065662335 0.74900001 0.0065662335 1.7511881e-38 315 235
-0.0052389596 0.74699998 0.0065486995 1.7418969e-38 316 235
-0.0039292197 0.74699998 0.0065486995 1.7234222e-38 317 235
-0.0026194798 0.74699998 0.0065486995 1.6958716e-38 318 235
-0.0013097399 0.74699998 0.0065486995 1.6866522e-38 319 235
0 0.74699998 0.0065486995 1.631515e-38 320 235
0.0013079866 0.74599999 0.0065399334 1.6038567e-38 321 235
0.0026159731 0.74599999 0.0065399334 1.576055e-38 322 235
0.0039239596 0.74599999 0.0065399334 1.576055e-38 323 235
0.0052319462 0.74599999 0.0065399334 1.5760191e-38 324 235
0.0065223998 0.74400002 0.0065223998 1.5667997e-38 325 235
0.0078268806 0.74400002 0.0065223998 1.5576879e-38 326 235
0.0091313599 0.74400002 0.0065223998 1.5576879e-38 327 235
0.01043584 0.74400002 0.0065223998 1.5852026e-38 328 235
0.011740319 0.74400002 0.0065223998 1.6036415e-38 329 235
0.0130448 0.74400002 0.0065223998 1.6220086e-38 330 235
0.01434928 0.74400002 0.0065223998 1.6220086e-38 331 235
0.015653761 0.74400002 0.0065223998 1.6219727e-38 332 235
0.016958239 0.74400002 0.0065223998 1.6127533e-38 333 235
0.018311813 0.74599999 0.0065399334 1.5852026e-38 334 235
0.019619798 0.74599999 0.0065399334 1.5852026e-38 335 235
0.020927785 0.74599999 0.0065399334 1.6035697e-38 336 235
0.022235774 0.74599999 0.0065399334 1.612825e-38 337 235
0.023543758 0.74599999 0.0065399334 1.6127533e-38 338 235
0.024851745 0.74599999 0.0065399334 1.6127533e-38 339 235
0.026159734 0.74599999 0.0065399334 1.6036056e-38 340 235
0.027504537 0.74699998 0.0065486995 1.5759473e-38 341 235
0.028814279 0.74699998 0.0065486995 1.5667997e-38 342 235
0.030124018 0.74699998 0.0065486995 1.5483967e-38 343 235
0.031433757 0.74699998 0.0065486995 1.5208819e-38 344 235
0.032743499 0.74699998 0.0065486995 1.5024431e-38 345 235
0.034144413 0.74900001 0.0065662335 1.4748924e-38 346 235
0.03545766 0.74900001 0.0065662335 1.465673e-38 347 235
0.036819998 0.75 0.006575 1.456346e-38 348 235
0.038135 0.75 0.006575 1.4378712e-38 349 235
0.039555199 0.75199997 0.0065925326 1.4285442e-38 350 235
0.040982414 0.75400001 0.0066100666 1.4192889e-38 351 235
0.042304426 0.75400001 0.0066100666 1.3918474e-38 352 235
0.043684296 0.755 0.0066188332 1.3457497e-38 353 235
0.045008067 0.755 0.0066188332 1.4102942e-38 354 235
0.04633183 0.755 0.0066188332 1.6315638e-38 355 235
-0.026790932 0.764 0.0053581866 1.5947906e-38 300 236
-0.025351444 0.76099998 0.0053371461 1.5487287e-38 301 236
-0.024017159 0.76099998 0.0053371461 1.5947851e-38 302 236
-0.02262326 0.759 0.0053231199 1.5947851e-38 303 236
-0.02129248 0.759 0.0053231199 1.5947849e-38 304 236
-0.019909101 0.75700003 0.0053090933 1.6224794e-38 305 236
-0.018532733 0.755 0.0052950666 1.6592499e-38 306 236
-0.017186172 0.75400001 0.0052880533 1.696128e-38 307 236
-0.015822079 0.75199997 0.0052740262 1.7146022e-38 308 236
-0.014503572 0.75199997 0.0052740262 1.7146022e-38 309 236
-0.01315 0.75 0.00526 1.7329687e-38 310 236
-0.011835 0.75 0.00526 1.7329687e-38 311 236
-0.010505973 0.74900001 0.0052529867 1.7421867e-38 312 236
-0.0091927266 0.74900001 0.0052529867 1.7421867e-38 313 236
-0.0078794798 0.74900001 0.0052529867 1.7695915e-38 314 236
-0.0065662335 0.74900001 0.0052529867 1.7603718e-38 315 236
-0.0052389596 0.74699998 0.0052389596 1.7418969e-38 316 236
-0.0039292197 0.74699998 0.0052389596 1.7234581e-38 317 236
-0.0026194798 0.74699998 0.0052389596 1.7051269e-38 318 236
-0.0013097399 0.74699998 0.0052389596 1.6959075e-38 319 236
0 0.74699998 0.0052389596 1.6591733e-38 320 236
0.0013079866 0.74599999 0.0052319462 1.631515e-38 321 236
0.00260896 0.74400002 0.0052179201 1.6312997e-38 322 236
0.0039134403 0.74400002 0.0052179201 1.6312997e-38 323 236
0.0052179201 0.74400002 0.0052179201 1.5945655e-38 324 236
0.0065223998 0.74400002 0.0052179201 1.5945655e-38 325 236
0.0078268806 0.74400002 0.0052179201 1.5945655e-38 326 236
0.0091313599 0.74400002 0.0052179201 1.5945655e-38 327 236
0.01043584 0.74400002 0.0052179201 1.6312997e-38 328 236
0.011740319 0.74400002 0.0052179201 1.6497387e-38 329 236
0.0130448 0.74400002 0.0052179201 1.6772534e-38 330 236
0.014310705 0.74199998 0.0052038929 1.6772534e-38 331 236
0.015611678 0.74199998 0.0052038929 1.6312997e-38 332 236
0.016912652 0.74199998 0.0052038929 1.612825e-38 333 236
0.01826272 0.74400002 0.0052179201 1.5944938e-38 334 236
0.019567199 0.74400002 0.0052179201 1.6037132e-38 335 236
0.02087168 0.74400002 0.0052179201 1.6220803e-38 336 236
0.022176161 0.74400002 0.0052179201 1.6220803e-38 337 236
0.023543758 0.74599999 0.0052319462 1.612825e-38 338 236
0.024851745 0.74599999 0.0052319462 1.6036056e-38 339 236
0.026159734 0.74599999 0.0052319462 1.6036056e-38 340 236
0.027467718 0.74599999 0.0052319462 1.5852026e-38 341 236
0.028814279 0.74699998 0.0052389596 1.5483967e-38 342 236
0.030124018 0.74699998 0.0052389596 1.5483967e-38 343 236
0.031433757 0.74699998 0.0052389596 1.5392131e-38 344 236
0.032743499 0.74699998 0.0052389596 1.5299937e-38 345 236
0.034053236 0.74699998 0.0052389596 1.4841118e-38 346 236
0.03545766 0.74900001 0.0052529867 1.465673e-38 347 236
0.036770906 0.74900001 0.0052529867 1.4563101e-38 348 236
0.038135 0.75 0.00526 1.4194683e-38 349 236
0.039449997 0.75 0.00526 1.4376919e-38 350 236
0.040982414 0.75400001 0.0052880533 1.4192171e-38 351 236
0.042304426 0.75400001 0.0052880533 1.4009944e-38 352 236
0.043684296 0.755 0.0052950666 1.3641163e-38 353 236
0.045008067 0.755 0.0052950666 1.3827785e-38 354 236
0.04633183 0.755 0.0052950666 1.5763893e-38 355 236
-0.02824094 0.76700002 0.00403442 1.5763951e-38 299 237
-0.026861066 0.76599997 0.0040291594 1.5764241e-38 300 237
-0.02538476 0.76200002 0.0040081199 1.5672044e-38 301 237
-0.02404872 0.76200002 0.0040081199 1.6039341e-38 302 237
-0.02262326 0.759 0.0039923396 1.5947145e-38 303 237
-0.02129248 0.759 0.0039923396 1.6040047e-38 304 237
-0.0198565 0.755 0.0039712996 1.6224438e-38 305 237
-0.018532733 0.755 0.0039712996 1.6592502e-38 306 237
-0.017186172 0.75400001 0.00396604 1.6960924e-38 307 237
-0.015822079 0.75199997 0.0039555198 1.7053829e-38 308 237
-0.014503572 0.75199997 0.0039555198 1.723822e-38 309 237
-0.01315 0.75 0.003945 1.7513362e-38 310 237
-0.011835 0.75 0.003945 1.7513362e-38 311 237
-0.010505973 0.74900001 0.0039397399 1.7605185e-38 312 237
-0.0091927266 0.74900001 0.0039397399 1.7605185e-38 313 237
-0.0078794798 0.74900001 0.0039397399 1.7788835e-38 314 237
-0.0065662335 0.74900001 0.0039397399 1.7696281e-38 315 237
-0.0052389596 0.74699998 0.0039292197 1.7787388e-38 316 237
-0.0039292197 0.74699998 0.0039292197 1.7511164e-38 317 237
-0.0026194798 0.74699998 0.0039292197 1.714418e-38 318 237
-0.0013079866 0.74599999 0.0039239596 1.7051627e-38 319 237
0 0.74599999 0.0039239596 1.6868315e-38 320 237
0.00130448 0.74400002 0.0039134403 1.6683927e-38 321 237
0.00260896 0.74400002 0.0039134403 1.6590656e-38 322 237
0.0039134403 0.74400002 0.0039134403 1.6590656e-38 323 237
0.0052038929 0.74199998 0.0039029196 1.6314791e-38 324 237
0.0065048663 0.74199998 0.0039029196 1.6591015e-38 325 237
0.0078058392 0.74199998 0.0039029196 1.6222956e-38 326 237
0.009106813 0.74199998 0.0039029196 1.6222956e-38 327 237
0.010407786 0.74199998 0.0039029196 1.6590298e-38 328 237
0.01170876 0.74199998 0.0039029196 1.6590298e-38 329 237
0.013009733 0.74199998 0.0039029196 1.6773969e-38 330 237
0.014310705 0.74199998 0.0039029196 1.6681774e-38 331 237
0.015611678 0.74199998 0.0039029196 1.6405192e-38 332 237
0.016912652 0.74199998 0.0039029196 1.6220803e-38 333 237
0.01826272 0.74400002 0.0039134403 1.6220803e-38 334 237
0.019567199 0.74400002 0.0039134403 1.6312997e-38 335 237
0.02087168 0.74400002 0.0039134403 1.6220803e-38 336 237
0.022176161 0.74400002 0.0039134403 1.6220803e-38 337 237
0.023480639 0.74400002 0.0039134403 1.6219727e-38 338 237
0.024851745 0.74599999 0.0039239596 1.6219727e-38 339 237
0.026159734 0.74599999 0.0039239596 1.5852026e-38 340 237
0.027467718 0.74599999 0.0039239596 1.5759832e-38 341 237
0.028775707 0.74599999 0.0039239596 1.557652e-38 342 237
0.030124018 0.74699998 0.0039292197 1.5484326e-38 343 237
0.031433757 0.74699998 0.0039292197 1.5483967e-38 344 237
0.032743499 0.74699998 0.0039292197 1.5391773e-38 345 237
0.034053236 0.74699998 0.0039292197 1.5116625e-38 346 237
0.03545766 0.74900001 0.0039397399 1.4748207e-38 347 237
0.036770906 0.74900001 0.0039397399 1.456346e-38 348 237
0.038135 0.75 0.003945 1.4194683e-38 349 237
0.039449997 0.75 0.003945 1.4285442e-38 350 237
0.040873703 0.75199997 0.0039555198 1.4008859e-38 351 237
0.042304426 0.75400001 0.00396604 1.4101065e-38 352 237
0.043626439 0.75400001 0.00396604 1.3916673e-38 353 237
0.044948451 0.75400001 0.00396604 1.3918546e-38 354 237
0.04633183 0.755 0.0039712996 1.5670621e-38 355 237
0.047655597 0.755 0.0039712996 1.6223149e-38 356 237
-0.02824094 0.76700002 0.0026896133 1.5671748e-38 299 238
-0.026896132 0.76700002 0.0026896133 1.5947909e-38 300 238
-0.025451386 0.764 0.0026790933 1.5671322e-38 301 238
-0.02404872 0.76200002 0.00267208 1.5947148e-38 302 238
-0.022682872 0.76099998 0.0026685731 1.5947148e-38 303 238
-0.02129248 0.759 0.00266156 1.604005e-38 304 238
-0.0198565 0.755 0.0026475333 1.6224441e-38 305 238
-0.018508185 0.75400001 0.0026440267 1.6592865e-38 306 238
-0.017186172 0.75400001 0.0026440267 1.686981e-38 307 238
-0.015822079 0.75199997 0.0026370131 1.6962003e-38 308 238
-0.014503572 0.75199997 0.0026370131 1.7146395e-38 309 238
-0.01315 0.75 0.00263 1.7514448e-38 310 238
-0.01181922 0.74900001 0.0026264933 1.7330417e-38 311 238
-0.010505973 0.74900001 0.0026264933 1.751336e-38 312 238
-0.0091681797 0.74699998 0.0026194798 1.751336e-38 313 238
-0.0078584393 0.74699998 0.0026194798 1.7605533e-38 314 238
-0.0065486995 0.74699998 0.0026194798 1.7513337e-38 315 238
-0.0052389596 0.74699998 0.0026194798 1.769627e-38 316 238
-0.0039292197 0.74699998 0.0026194798 1.7604075e-38 317 238
-0.0026194798 0.74699998 0.0026194798 1.7328928e-38 318 238
-0.0013079866 0.74599999 0.0026159731 1.7236733e-38 319 238
0 0.74599999 0.0026159731 1.7053062e-38 320 238
0.0013009732 0.74199998 0.0026019465 1.6868674e-38 321 238
0.0026019465 0.74199998 0.0026019465 1.6959792e-38 322 238
0.0039029196 0.74199998 0.0026019465 1.6959792e-38 323 238
0.0052038929 0.74199998 0.0026019465 1.659245e-38 324 238
0.0065048663 0.74199998 0.0026019465 1.6869033e-38 325 238
0.0078058392 0.74199998 0.0026019465 1.6775762e-38 326 238
0.009106813 0.74199998 0.0026019465 1.6683568e-38 327 238
0.010407786 0.74199998 0.0026019465 1.695764e-38 328 238
0.01170876 0.74199998 0.0026019465 1.695764e-38 329 238
0.013009733 0.74199998 0.0026019465 1.6865804e-38 330 238
0.014310705 0.74199998 0.0026019465 1.6865804e-38 331 238
0.015611678 0.74199998 0.0026019465 1.6681057e-38 332 238
0.016912652 0.74199998 0.0026019465 1.6588863e-38 333 238
0.018213626 0.74199998 0.0026019465 1.6588863e-38 334 238
0.0195146 0.74199998 0.0026019465 1.6588863e-38 335 238
0.020815572 0.74199998 0.0026019465 1.649631e-38 336 238
0.022176161 0.74400002 0.00260896 1.631228e-38 337 238
0.023480639 0.74400002 0.00260896 1.6219727e-38 338 238
0.02478512 0.74400002 0.00260896 1.6219727e-38 339 238
0.026089599 0.74400002 0.00260896 1.5852026e-38 340 238
0.027467718 0.74599999 0.0026159731 1.5852026e-38 341 238
0.028775707 0.74599999 0.0026159731 1.5759832e-38 342 238
0.03008369 0.74599999 0.0026159731 1.5667638e-38 343 238
0.031433757 0.74699998 0.0026194798 1.5483967e-38 344 238
0.032743499 0.74699998 0.0026194798 1.5391773e-38 345 238
0.034053236 0.74699998 0.0026194798 1.5115907e-38 346 238
0.03545766 0.74900001 0.0026264933 1.5023713e-38 347 238
0.036770906 0.74900001 0.0026264933 1.4655295e-38 348 238
0.038135 0.75 0.00263 1.4562742e-38 349 238
0.039449997 0.75 0.00263 1.4377277e-38 350 238
0.040873703 0.75199997 0.0026370131 1.4284724e-38 351 238
0.042304426 0.75400001 0.0026440267 1.4008872e-38 352 238
0.043626439 0.75400001 0.0026440267 1.3824481e-38 353 238
0.044948451 0.75400001 0.0026440267 1.3734516e-38 354 238
0.04633183 0.755 0.0026475333 1.5485874e-38 355 238
0.047655597 0.755 0.0026475333 1.622243e-38 356 238
-0.02966289 0.76899999 0.0013483133 1.6410739e-38 298 239
-0.02824094 0.76700002 0.0013448066 1.5212196e-38 299 239
-0.026896132 0.76700002 0.0013448066 1.6130498e-38 300 239
-0.025518013 0.76599997 0.0013430532 1.6038302e-38 301 239
-0.02404872 0.76200002 0.00133604 1.5946798e-38 302 239
-0.02262326 0.759 0.00133078 1.6038993e-38 303 239
-0.021236373 0.75700003 0.0013272733 1.6039341e-38 304 239
-0.0198565 0.755 0.0013237667 1.6224091e-38 305 239
-0.018508185 0.75400001 0.0013220133 1.6316637e-38 306 239
-0.017186172 0.75400001 0.0013220133 1.668506e-38 307 239
-0.015822079 0.75199997 0.0013185065 1.696128e-38 308 239
-0.014503572 0.75199997 0.0013185065 1.7237867e-38 309 239
-0.013132467 0.74900001 0.0013132467 1.7514451e-38 310 239
-0.01181922 0.74900001 0.0013132467 1.7514451e-38 311 239
-0.010505973 0.74900001 0.0013132467 1.7513729e-38 312 239
-0.0091681797 0.74699998 0.0013097399 1.7513729e-38 313 239
-0.0078584393 0.74699998 0.0013097399 1.7697748e-38 314 239
-0.0065486995 0.74699998 0.0013097399 1.7697748e-38 315 239
-0.0052389596 0.74699998 0.0013097399 1.7697734e-38 316 239
-0.0039292197 0.74699998 0.0013097399 1.760518e-38 317 239
-0.0026194798 0.74699998 0.0013097399 1.7238195e-38 318 239
-0.0013079866 0.74599999 0.0013079866 1.6961968e-38 319 239
0 0.74400002 0.00130448 1.6962316e-38 320 239
0.0013009732 0.74199998 0.0013009732 1.6685727e-38 321 239
0.0026019465 0.74199998 0.0013009732 1.7053068e-38 322 239
0.0039029196 0.74199998 0.0013009732 1.7053068e-38 323 239
0.0052038929 0.74199998 0.0013009732 1.6960516e-38 324 239
0.0065048663 0.74199998 0.0013009732 1.6868321e-38 325 239
0.0078058392 0.74199998 0.0013009732 1.7051996e-38 326 239
0.0090945391 0.741 0.0012992199 1.7051996e-38 327 239
0.010393759 0.741 0.0012992199 1.7050911e-38 328 239
0.01169298 0.741 0.0012992199 1.7050911e-38 329 239
0.0129922 0.741 0.0012992199 1.6958716e-38 330 239
0.01429142 0.741 0.0012992199 1.6866522e-38 331 239
0.015611678 0.74199998 0.0013009732 1.677361e-38 332 239
0.016912652 0.74199998 0.0013009732 1.6588863e-38 333 239
0.018213626 0.74199998 0.0013009732 1.6681057e-38 334 239
0.0195146 0.74199998 0.0013009732 1.6681057e-38 335 239
0.020815572 0.74199998 0.0013009732 1.6497745e-38 336 239
0.022116546 0.74199998 0.0013009732 1.6312997e-38 337 239
0.023417519 0.74199998 0.0013009732 1.6220803e-38 338 239
0.02478512 0.74400002 0.00130448 1.612825e-38 339 239
0.026089599 0.74400002 0.00130448 1.5852744e-38 340 239
0.027394081 0.74400002 0.00130448 1.5852744e-38 341 239
0.028775707 0.74599999 0.0013079866 1.5668358e-38 342 239
0.03008369 0.74599999 0.0013079866 1.5576163e-38 343 239
0.031433757 0.74699998 0.0013097399 1.5300299e-38 344 239
0.032743499 0.74699998 0.0013097399 1.5115549e-38 345 239
0.034053236 0.74699998 0.0013097399 1.5207747e-38 346 239
0.03545766 0.74900001 0.0013132467 1.511555e-38 347 239
0.036770906 0.74900001 0.0013132467 1.4747848e-38 348 239
0.038135 0.75 0.001315 1.4470907e-38 349 239
0.039449997 0.75 0.001315 1.4194324e-38 350 239
0.040873703 0.75199997 0.0013185065 1.4009935e-38 351 239
0.042304426 0.75400001 0.0013220133 1.382556e-38 352 239
0.043626439 0.75400001 0.0013220133 1.3548614e-38 353 239
0.044948451 0.75400001 0.0013220133 1.3641236e-38 354 239
0.046270464 0.75400001 0.0013220133 1.5393313e-38 355 239
0.04759248 0.75400001 0.0013220133 1.6222427e-38 356 239
-0.033350151 0.82700002 -0 1.6868534e-38 297 240
-0.02966289 0.76899999 -0 1.6410021e-38 298 240
-0.02824094 0.76700002 -0 1.5303673e-38 299 240
-0.026896132 0.76700002 -0 1.6223404e-38 300 240
-0.025518013 0.76599997 -0 1.6038653e-38 301 240
-0.024174958 0.76599997 -0 1.6039346e-38 302 240
-0.02262326 0.759 -0 1.6039346e-38 303 240
-0.021180267 0.755 -0 1.604006e-38 304 240
-0.019830201 0.75400001 -0 1.622481e-38 305 240
-0.018508185 0.75400001 -0 1.6317007e-38 306 240
-0.017186172 0.75400001 -0 1.6409202e-38 307 240
-0.01578 0.75 -0 1.6594668e-38 308 240
-0.014465 0.75 -0 1.6779061e-38 309 240
-0.013132467 0.74900001 -0 1.7330786e-38 310 240
-0.01181922 0.74900001 -0 1.7330786e-38 311 240
-0.010505973 0.74900001 -0 1.7514804e-38 312 240
-0.0091681797 0.74699998 -0 1.7514804e-38 313 240
-0.0078584393 0.74699998 -0 1.7514433e-38 314 240
-0.0065486995 0.74699998 -0 1.7514433e-38 315 240
-0.0052389596 0.74699998 -0 1.7698098e-38 316 240
-0.0039239596 0.74599999 -0 1.7514066e-38 317 240
-0.00260896 0.74400002 -0 1.742222e-38 318 240
-0.00130448 0.74400002 -0 1.7145634e-38 319 240
0 0.74400002 -0 1.7145978e-38 320 240
0.0013009732 0.74199998 -0 1.6777556e-38 321 240
0.0026019465 0.74199998 -0 1.6960868e-38 322 240
0.0039029196 0.74199998 -0 1.6960868e-38 323 240
0.0052038929 0.74199998 -0 1.6868321e-38 324 240
0.0065048663 0.74199998 -0 1.6960516e-38 325 240
0.0078058392 0.74199998 -0 1.6960151e-38 326 240
0.0090945391 0.741 -0 1.6960151e-38 327 240
0.010393759 0.741 -0 1.7327493e-38 328 240
0.01169298 0.741 -0 1.7327493e-38 329 240
0.0129922 0.741 -0 1.7327134e-38 330 240
0.01429142 0.741 -0 1.7234581e-38 331 240
0.01559064 0.741 -0 1.7141669e-38 332 240
0.016889861 0.741 -0 1.7049475e-38 333 240
0.018213626 0.74199998 -0 1.6865804e-38 334 240
0.0195146 0.74199998 -0 1.6865804e-38 335 240
0.020815572 0.74199998 -0 1.677361e-38 336 240
0.022116546 0.74199998 -0 1.6681057e-38 337 240
0.023417519 0.74199998 -0 1.631228e-38 338 240
0.024718491 0.74199998 -0 1.6220086e-38 339 240
0.026019465 0.74199998 -0 1.5944579e-38 340 240
0.027394081 0.74400002 -0 1.5852385e-38 341 240
0.02869856 0.74400002 -0 1.5759832e-38 342 240
0.03008369 0.74599999 -0 1.5667638e-38 343 240
0.031391677 0.74599999 -0 1.5299943e-38 344 240
0.032743499 0.74699998 -0 1.5207747e-38 345 240
0.034053236 0.74699998 -0 1.5022648e-38 346 240
0.03545766 0.74900001 -0 1.5022648e-38 347 240
0.036770906 0.74900001 -0 1.483789e-38 348 240
0.038135 0.75 -0 1.4653501e-38 349 240
0.039449997 0.75 -0 1.4376919e-38 350 240
0.040873703 0.75199997 -0 1.4376919e-38 351 240
0.042304426 0.75400001 -0 1.4009238e-38 352 240
0.043626439 0.75400001 -0 1.3733011e-38 353 240
0.044948451 0.75400001 -0 1.3916383e-38 354 240
0.046270464 0.75400001 -0 1.5759937e-38 355 240
0.04759248 0.75400001 -0 1.6313897e-38 356 240
-0.032654081 0.77600002 -0.0013605866 1.7513906e-38 296 241
-0.031212838 0.77399999 -0.0013570799 1.6868537e-38 297 241
-0.029740039 0.77100003 -0.00135182 1.6410021e-38 298 241
-0.028314579 0.76899999 -0.0013483133 1.5396227e-38 299 241
-0.026966266 0.76899999 -0.0013483133 1.6130851e-38 300 241
-0.025518013 0.76599997 -0.0013430532 1.6130851e-38 301 241
-0.02404872 0.76200002 -0.00133604 1.6038993e-38 302 241
-0.022682872 0.76099998 -0.0013342865 1.6038993e-38 303 241
-0.021180267 0.755 -0.0013237667 1.5856384e-38 304 241
-0.019830201 0.75400001 -0.0013220133 1.6132611e-38 305 241
-0.018508185 0.75400001 -0.0013220133 1.6224441e-38 306 241
-0.017186172 0.75400001 -0.0013220133 1.6592865e-38 307 241
-0.01578 0.75 -0.001315 1.6685779e-38 308 241
-0.014465 0.75 -0.001315 1.7054922e-38 309 241
-0.013132467 0.74900001 -0.0013132467 1.7422984e-38 310 241
-0.01181922 0.74900001 -0.0013132467 1.7422984e-38 311 241
-0.010477919 0.74699998 -0.0013097399 1.7422984e-38 312 241
-0.0091681797 0.74699998 -0.0013097399 1.7422984e-38 313 241
-0.0078584393 0.74699998 -0.0013097399 1.7515533e-38 314 241
-0.0065486995 0.74699998 -0.0013097399 1.7515533e-38 315 241
-0.0052389596 0.74699998 -0.0013097399 1.7698479e-38 316 241
-0.0039134403 0.74400002 -0.00130448 1.7605925e-38 317 241
-0.00260896 0.74400002 -0.00130448 1.7331489e-38 318 241
-0.00130448 0.74400002 -0.00130448 1.6962707e-38 319 241
0 0.74400002 -0.00130448 1.705488e-38 320 241
0.0013009732 0.74199998 -0.0013009732 1.6593902e-38 321 241
0.0026019465 0.74199998 -0.0013009732 1.68694e-38 322 241
0.0039029196 0.74199998 -0.0013009732 1.6777204e-38 323 241
0.0052038929 0.74199998 -0.0013009732 1.6685374e-38 324 241
0.0065048663 0.74199998 -0.0013009732 1.6685374e-38 325 241
0.0078058392 0.74199998 -0.0013009732 1.7052362e-38 326 241
0.0090945391 0.741 -0.0012992199 1.7144559e-38 327 241
0.010393759 0.741 -0.0012992199 1.7328223e-38 328 241
0.01169298 0.741 -0.0012992199 1.7236027e-38 329 241
0.0129922 0.741 -0.0012992199 1.7327854e-38 330 241
0.01429142 0.741 -0.0012992199 1.7235659e-38 331 241
0.01559064 0.741 -0.0012992199 1.7143104e-38 332 241
0.016889861 0.741 -0.0012992199 1.6958716e-38 333 241
0.018213626 0.74199998 -0.0013009732 1.6775404e-38 334 241
0.0195146 0.74199998 -0.0013009732 1.6683209e-38 335 241
0.020815572 0.74199998 -0.0013009732 1.6774327e-38 336 241
0.022116546 0.74199998 -0.0013009732 1.6497745e-38 337 241
0.023417519 0.74199998 -0.0013009732 1.6312997e-38 338 241
0.024718491 0.74199998 -0.0013009732 1.6220803e-38 339 241
0.026019465 0.74199998 -0.0013009732 1.5944579e-38 340 241
0.027394081 0.74400002 -0.00130448 1.5944579e-38 341 241
0.02869856 0.74400002 -0.00130448 1.5668355e-38 342 241
0.03008369 0.74599999 -0.0013079866 1.5483967e-38 343 241
0.031391677 0.74599999 -0.0013079866 1.529922e-38 344 241
0.032743499 0.74699998 -0.0013097399 1.5207025e-38 345 241
0.034053236 0.74699998 -0.0013097399 1.5023004e-38 346 241
0.03545766 0.74900001 -0.0013132467 1.4930809e-38 347 241
0.036770906 0.74900001 -0.0013132467 1.4654594e-38 348 241
0.038084153 0.74900001 -0.0013132467 1.4562399e-38 349 241
0.039449997 0.75 -0.001315 1.4193619e-38 350 241
0.040873703 0.75199997 -0.0013185065 1.4101065e-38 351 241
0.04219221 0.75199997 -0.0013185065 1.400924e-38 352 241
0.04351072 0.75199997 -0.0013185065 1.3825209e-38 353 241
0.044829223 0.75199997 -0.0013185065 1.4192973e-38 354 241
0.04614773 0.75199997 -0.0013185065 1.5852136e-38 355 241
0.047466237 0.75199997 -0.0013185065 1.63139e-38 356 241
-0.034102332 0.778 -0.0027281865 1.7330242e-38 295 242
-0.032654081 0.77600002 -0.0027211732 1.751355e-38 296 242
-0.031212838 0.77399999 -0.0027141599 1.6960378e-38 297 242
-0.029740039 0.77100003 -0.0027036399 1.6134158e-38 298 242
-0.028314579 0.76899999 -0.0026966266 1.5119647e-38 299 242
-0.026896132 0.76700002 -0.0026896133 1.6223051e-38 300 242
-0.025451386 0.764 -0.0026790933 1.6038658e-38 301 242
-0.02404872 0.76200002 -0.00267208 1.5855681e-38 302 242
-0.022682872 0.76099998 -0.0026685731 1.5855681e-38 303 242
-0.02129248 0.759 -0.00266156 1.604006e-38 304 242
-0.019830201 0.75400001 -0.0026440267 1.6132255e-38 305 242
-0.018508185 0.75400001 -0.0026440267 1.622516e-38 306 242
-0.017186172 0.75400001 -0.0026440267 1.6409553e-38 307 242
-0.015822079 0.75199997 -0.0026370131 1.6594663e-38 308 242
-0.014465 0.75 -0.00263 1.7055641e-38 309 242
-0.013132467 0.74900001 -0.0026264933 1.7331154e-38 310 242
-0.01181922 0.74900001 -0.0026264933 1.742335e-38 311 242
-0.010477919 0.74699998 -0.0026194798 1.7332231e-38 312 242
-0.0091681797 0.74699998 -0.0026194798 1.7608817e-38 313 242
-0.0078584393 0.74699998 -0.0026194798 1.7791408e-38 314 242
-0.0065486995 0.74699998 -0.0026194798 1.7607375e-38 315 242
-0.0052389596 0.74699998 -0.0026194798 1.7515177e-38 316 242
-0.0039134403 0.74400002 -0.00260896 1.7422981e-38 317 242
-0.00260896 0.74400002 -0.00260896 1.7423332e-38 318 242
-0.00130448 0.74400002 -0.00260896 1.723894e-38 319 242
0 0.74199998 -0.0026019465 1.7054164e-38 320 242
0.0013009732 0.74199998 -0.0026019465 1.6869414e-38 321 242
0.0026019465 0.74199998 -0.0026019465 1.6869766e-38 322 242
0.0039029196 0.74199998 -0.0026019465 1.6685374e-38 323 242
0.0052038929 0.74199998 -0.0026019465 1.6501356e-38 324 242
0.0065048663 0.74199998 -0.0026019465 1.6501356e-38 325 242
0.0077953199 0.741 -0.0025984398 1.6684668e-38 326 242
0.0090945391 0.741 -0.0025984398 1.6776864e-38 327 242
0.010393759 0.741 -0.0025984398 1.7327154e-38 328 242
0.01169298 0.741 -0.0025984398 1.7327154e-38 329 242
0.0129922 0.741 -0.0025984398 1.7418976e-38 330 242
0.01429142 0.741 -0.0025984398 1.7326422e-38 331 242
0.01559064 0.741 -0.0025984398 1.7418611e-38 332 242
0.016889861 0.741 -0.0025984398 1.7418611e-38 333 242
0.018189078 0.741 -0.0025984398 1.7234222e-38 334 242
0.0195146 0.74199998 -0.0026019465 1.7142028e-38 335 242
0.020815572 0.74199998 -0.0026019465 1.6866163e-38 336 242
0.022116546 0.74199998 -0.0026019465 1.677361e-38 337 242
0.023417519 0.74199998 -0.0026019465 1.6680339e-38 338 242
0.024718491 0.74199998 -0.0026019465 1.6495951e-38 339 242
0.026019465 0.74199998 -0.0026019465 1.6219727e-38 340 242
0.027394081 0.74400002 -0.00260896 1.6127533e-38 341 242
0.02869856 0.74400002 -0.00260896 1.5759475e-38 342 242
0.03008369 0.74599999 -0.0026159731 1.5482891e-38 343 242
0.031433757 0.74699998 -0.0026194798 1.529922e-38 344 242
0.032743499 0.74699998 -0.0026194798 1.5207025e-38 345 242
0.034053236 0.74699998 -0.0026194798 1.4839692e-38 346 242
0.03545766 0.74900001 -0.0026264933 1.4747138e-38 347 242
0.036770906 0.74900001 -0.0026264933 1.4562399e-38 348 242
0.038084153 0.74900001 -0.0026264933 1.4469844e-38 349 242
0.039449997 0.75 -0.00263 1.4193263e-38 350 242
0.040873703 0.75199997 -0.0026370131 1.4101067e-38 351 242
0.04219221 0.75199997 -0.0026370131 1.4008887e-38 352 242
0.04351072 0.75199997 -0.0026370131 1.3824856e-38 353 242
0.044829223 0.75199997 -0.0026370131 1.410114e-38 354 242
0.04614773 0.75199997 -0.0026370131 1.5668826e-38 355 242
0.047466237 0.75199997 -0.0026370131 1.6130588e-38 356 242
-0.034102332 0.778 -0.0040922803 1.7329519e-38 295 243
-0.032654081 0.77600002 -0.0040817601 1.7237676e-38 296 243
-0.031212838 0.77399999 -0.0040712398 1.6684503e-38 297 243
-0.029817186 0.773 -0.0040659797 1.6134161e-38 298 243
-0.028314579 0.76899999 -0.0040449398 1.511965e-38 299 243
-0.026896132 0.76700002 -0.00403442 1.6039386e-38 300 243
-0.025451386 0.764 -0.0040186401 1.5947189e-38 301 243
-0.02404872 0.76200002 -0.0040081199 1.6039356e-38 302 243
-0.022682872 0.76099998 -0.0040028598 1.6039356e-38 303 243
-0.021348584 0.76099998 -0.0040028598 1.6131895e-38 304 243
-0.0198565 0.755 -0.0039712996 1.6224091e-38 305 243
-0.018508185 0.75400001 -0.00396604 1.6316634e-38 306 243
-0.017186172 0.75400001 -0.00396604 1.6685416e-38 307 243
-0.01586416 0.75400001 -0.00396604 1.6777978e-38 308 243
-0.014465 0.75 -0.003945 1.7054925e-38 309 243
-0.013132467 0.74900001 -0.0039397399 1.7147489e-38 310 243
-0.01181922 0.74900001 -0.0039397399 1.7239685e-38 311 243
-0.010505973 0.74900001 -0.0039397399 1.7240778e-38 312 243
-0.0091681797 0.74699998 -0.0039292197 1.7609559e-38 313 243
-0.0078584393 0.74699998 -0.0039292197 1.760884e-38 314 243
-0.0065486995 0.74699998 -0.0039292197 1.7516644e-38 315 243
-0.0052319462 0.74599999 -0.0039239596 1.7607758e-38 316 243
-0.0039134403 0.74400002 -0.0039134403 1.7423727e-38 317 243
-0.0026019465 0.74199998 -0.0039029196 1.7331897e-38 318 243
-0.0013009732 0.74199998 -0.0039029196 1.72397e-38 319 243
0 0.74199998 -0.0039029196 1.7146039e-38 320 243
0.0013009732 0.74199998 -0.0039029196 1.686981e-38 321 243
0.0026019465 0.74199998 -0.0039029196 1.6961615e-38 322 243
0.0039029196 0.74199998 -0.0039029196 1.6776864e-38 323 243
0.0052038929 0.74199998 -0.0039029196 1.6684668e-38 324 243
0.0065048663 0.74199998 -0.0039029196 1.6684668e-38 325 243
0.0077953199 0.741 -0.0038976599 1.6776148e-38 326 243
0.0090945391 0.741 -0.0038976599 1.6683952e-38 327 243
0.010393759 0.741 -0.0038976599 1.7050937e-38 328 243
0.01169298 0.741 -0.0038976599 1.7050937e-38 329 243
0.0129922 0.741 -0.0038976599 1.7234958e-38 330 243
0.01429142 0.741 -0.0038976599 1.7142762e-38 331 243
0.01559064 0.741 -0.0038976599 1.7418623e-38 332 243
0.016889861 0.741 -0.0038976599 1.7418623e-38 333 243
0.018189078 0.741 -0.0038976599 1.7326778e-38 334 243
0.019488299 0.741 -0.0038976599 1.7050193e-38 335 243
0.020815572 0.74199998 -0.0039029196 1.6957998e-38 336 243
0.022116546 0.74199998 -0.0039029196 1.6865804e-38 337 243
0.023417519 0.74199998 -0.0039029196 1.6681058e-38 338 243
0.024718491 0.74199998 -0.0039029196 1.6404474e-38 339 243
0.026019465 0.74199998 -0.0039029196 1.6127533e-38 340 243
0.027394081 0.74400002 -0.0039134403 1.6127533e-38 341 243
0.02869856 0.74400002 -0.0039134403 1.5575809e-38 342 243
0.03008369 0.74599999 -0.0039239596 1.5483614e-38 343 243
0.031433757 0.74699998 -0.0039292197 1.5391415e-38 344 243
0.032743499 0.74699998 -0.0039292197 1.5207025e-38 345 243
0.034144413 0.74900001 -0.0039397399 1.4930803e-38 346 243
0.03545766 0.74900001 -0.0039397399 1.4838607e-38 347 243
0.036770906 0.74900001 -0.0039397399 1.4562399e-38 348 243
0.038084153 0.74900001 -0.0039397399 1.4469844e-38 349 243
0.039449997 0.75 -0.003945 1.4101786e-38 350 243
0.040873703 0.75199997 -0.0039555198 1.4009591e-38 351 243
0.04219221 0.75199997 -0.0039555198 1.4008887e-38 352 243
0.04351072 0.75199997 -0.0039555198 1.373266e-38 353 243
0.044829223 0.75199997 -0.0039555198 1.3917831e-38 354 243
0.04614773 0.75199997 -0.0039555198 1.5761385e-38 355 243
0.047466237 0.75199997 -0.0039555198 1.6130235e-38 356 243
-0.034102332 0.778 -0.0054563731 1.7329519e-38 295 244
-0.032654081 0.77600002 -0.0054423464 1.6961813e-38 296 244
-0.031212838 0.77399999 -0.0054283198 1.6684866e-38 297 244
-0.029817186 0.773 -0.0054213065 1.6042331e-38 298 244
-0.028314579 0.76899999 -0.0053932532 1.5028181e-38 299 244
-0.026896132 0.76700002 -0.0053792265 1.5947558e-38 300 244
-0.025518013 0.76599997 -0.0053722127 1.5947558e-38 301 244
-0.02404872 0.76200002 -0.0053441599 1.6039362e-38 302 244
-0.02271268 0.76200002 -0.0053441599 1.6039362e-38 303 244
-0.021348584 0.76099998 -0.0053371461 1.6040062e-38 304 244
-0.0198565 0.755 -0.0052950666 1.6132258e-38 305 244
-0.018532733 0.755 -0.0052950666 1.6316639e-38 306 244
-0.017186172 0.75400001 -0.0052880533 1.6592868e-38 307 244
-0.015822079 0.75199997 -0.0052740262 1.6869457e-38 308 244
-0.014465 0.75 -0.00526 1.7145685e-38 309 244
-0.013132467 0.74900001 -0.0052529867 1.705494e-38 310 244
-0.01181922 0.74900001 -0.0052529867 1.7239331e-38 311 244
-0.010505973 0.74900001 -0.0052529867 1.7424814e-38 312 244
-0.0091681797 0.74699998 -0.0052389596 1.7701401e-38 313 244
-0.0078584393 0.74699998 -0.0052389596 1.7701408e-38 314 244
-0.0065486995 0.74699998 -0.0052389596 1.7793604e-38 315 244
-0.0052319462 0.74599999 -0.0052319462 1.7610654e-38 316 244
-0.0039134403 0.74400002 -0.0052179201 1.7518459e-38 317 244
-0.0026019465 0.74199998 -0.0052038929 1.7425187e-38 318 244
-0.0013009732 0.74199998 -0.0052038929 1.7240796e-38 319 244
0 0.74199998 -0.0052038929 1.6777274e-38 320 244
0.0013009732 0.74199998 -0.0052038929 1.686947e-38 321 244
0.0026019465 0.74199998 -0.0052038929 1.6962356e-38 322 244
0.0038976599 0.741 -0.0051968796 1.6777965e-38 323 244
0.0051968796 0.741 -0.0051968796 1.6685045e-38 324 244
0.0065048663 0.74199998 -0.0052038929 1.6592848e-38 325 244
0.0077953199 0.741 -0.0051968796 1.6775071e-38 326 244
0.0090945391 0.741 -0.0051968796 1.6775071e-38 327 244
0.010393759 0.741 -0.0051968796 1.6867617e-38 328 244
0.01169298 0.741 -0.0051968796 1.6775422e-38 329 244
0.0129922 0.741 -0.0051968796 1.7050208e-38 330 244
0.01429142 0.741 -0.0051968796 1.7050208e-38 331 244
0.01559064 0.741 -0.0051968796 1.7142038e-38 332 244
0.016889861 0.741 -0.0051968796 1.7142038e-38 333 244
0.018189078 0.741 -0.0051968796 1.7142394e-38 334 244
0.019488299 0.741 -0.0051968796 1.7142394e-38 335 244
0.020815572 0.74199998 -0.0052038929 1.6958012e-38 336 244
0.022116546 0.74199998 -0.0052038929 1.6681784e-38 337 244
0.023417519 0.74199998 -0.0052038929 1.6680352e-38 338 244
0.024718491 0.74199998 -0.0052038929 1.6496321e-38 339 244
0.026019465 0.74199998 -0.0052038929 1.6127181e-38 340 244
0.027394081 0.74400002 -0.0052179201 1.6034985e-38 341 244
0.028775707 0.74599999 -0.0052319462 1.5482905e-38 342 244
0.03008369 0.74599999 -0.0052319462 1.5482905e-38 343 244
0.031433757 0.74699998 -0.0052389596 1.5207394e-38 344 244
0.032743499 0.74699998 -0.0052389596 1.5023001e-38 345 244
0.034053236 0.74699998 -0.0052389596 1.5022638e-38 346 244
0.035362978 0.74699998 -0.0052389596 1.4745696e-38 347 244
0.036770906 0.74900001 -0.0052529867 1.4378002e-38 348 244
0.038084153 0.74900001 -0.0052529867 1.4193969e-38 349 244
0.0393974 0.74900001 -0.0052529867 1.3825923e-38 350 244
0.040982414 0.75400001 -0.0052880533 1.3825923e-38 351 244
0.042304426 0.75400001 -0.0052880533 1.3825575e-38 352 244
0.043626439 0.75400001 -0.0052880533 1.3456794e-38 353 244
0.044948451 0.75400001 -0.0052880533 1.3734164e-38 354 244
0.046270464 0.75400001 -0.0052880533 1.5670271e-38 355 244
0.04759248 0.75400001 -0.0052880533 1.6497944e-38 356 244
-0.034102332 0.778 -0.0068204664 1.7237326e-38 295 245
-0.032738242 0.778 -0.0068204664 1.7052932e-38 296 245
-0.031293493 0.77600002 -0.0068029333 1.668415e-38 297 245
-0.029817186 0.773 -0.0067766332 1.6043058e-38 298 245
-0.028314579 0.76899999 -0.0067415666 1.5120742e-38 299 245
-0.026896132 0.76700002 -0.006724033 1.6039401e-38 300 245
-0.025518013 0.76599997 -0.0067152665 1.585501e-38 301 245
-0.02404872 0.76200002 -0.0066801999 1.5855691e-38 302 245
-0.02271268 0.76200002 -0.0066801999 1.5855691e-38 303 245
-0.021348584 0.76099998 -0.0066714329 1.6040065e-38 304 245
-0.019909101 0.75700003 -0.0066363667 1.6132261e-38 305 245
-0.018532733 0.755 -0.0066188332 1.6224454e-38 306 245
-0.017186172 0.75400001 -0.0066100666 1.6409205e-38 307 245
-0.015822079 0.75199997 -0.0065925326 1.6777277e-38 308 245
-0.014465 0.75 -0.006575 1.696167e-38 309 245
-0.013132467 0.74900001 -0.0065662335 1.6870922e-38 310 245
-0.01181922 0.74900001 -0.0065662335 1.7055313e-38 311 245
-0.010505973 0.74900001 -0.0065662335 1.7148603e-38 312 245
-0.0091681797 0.74699998 -0.0065486995 1.742519e-38 313 245
-0.0078584393 0.74699998 -0.0065486995 1.7516683e-38 314 245
-0.0065486995 0.74699998 -0.0065486995 1.797766e-38 315 245
-0.0052319462 0.74599999 -0.0065399334 1.7888336e-38 316 245
-0.0039239596 0.74599999 -0.0065399334 1.7795781e-38 317 245
-0.0026019465 0.74199998 -0.0065048663 1.7886884e-38 318 245
-0.0013009732 0.74199998 -0.0065048663 1.7518462e-38 319 245
0 0.74199998 -0.0065048663 1.6870215e-38 320 245
0.0013009732 0.74199998 -0.0065048663 1.6685824e-38 321 245
0.0026019465 0.74199998 -0.0065048663 1.6871272e-38 322 245
0.0038976599 0.741 -0.0064960998 1.6779076e-38 323 245
0.0051968796 0.741 -0.0064960998 1.7053473e-38 324 245
0.0064960998 0.741 -0.0064960998 1.6685051e-38 325 245
0.0077953199 0.741 -0.0064960998 1.6866899e-38 326 245
0.0090945391 0.741 -0.0064960998 1.6866899e-38 327 245
0.010393759 0.741 -0.0064960998 1.6591741e-38 328 245
0.01169298 0.741 -0.0064960998 1.6775772e-38 329 245
