# .PCD v.7 - Point Cloud Data file format
FIELDS x y z rgb imX imY
SIZE 4 4 4 4 4 4
TYPE F F F F F F
COUNT 1 1 1 1 1 1
WIDTH 866
HEIGHT 1
VIEWPOINT 0 0 0 1 0 0 0
POINTS 866
DATA ascii
0.030728921 0.76200002 0.029392879 1.6220941e-38 343 218
-0.032527838 0.773 0.028461859 1.7607153e-38 296 219
-0.031091858 0.77100003 0.028388219 1.6224218e-38 297 219
-0.029585747 0.76700002 0.02824094 1.5762794e-38 298 219
-0.028204117 0.76599997 0.028204117 1.5209621e-38 299 219
-0.026861066 0.76599997 0.028204117 1.5947486e-38 300 219
-0.025451386 0.764 0.028130481 1.6500299e-38 301 219
-0.02404872 0.76200002 0.028056841 1.6592854e-38 302 219
-0.02271268 0.76200002 0.028056841 1.6685051e-38 303 219
-0.02137664 0.76200002 0.028056841 1.6775444e-38 304 219
-0.020014299 0.76099998 0.028020019 1.6683249e-38 305 219
-0.018680012 0.76099998 0.028020019 1.6774353e-38 306 219
-0.017345725 0.76099998 0.028020019 1.6774353e-38 307 219
-0.016011439 0.76099998 0.028020019 1.6774337e-38 308 219
-0.014677152 0.76099998 0.028020019 1.6958368e-38 309 219
-0.013342866 0.76099998 0.028020019 1.7050198e-38 310 219
-0.012008579 0.76099998 0.028020019 1.6773251e-38 311 219
-0.010674292 0.76099998 0.028020019 1.686401e-38 312 219
-0.0093400059 0.76099998 0.028020019 1.6403039e-38 313 219
-0.0080057196 0.76099998 0.028020019 1.5669077e-38 314 219
-0.0066714329 0.76099998 0.028020019 1.5576881e-38 315 219
-0.0053371461 0.76099998 0.028020019 1.5483629e-38 316 219
-0.0040081199 0.76200002 0.028056841 1.5299239e-38 317 219
-0.00267208 0.76200002 0.028056841 1.5481836e-38 318 219
-0.00133604 0.76200002 0.028056841 1.5665867e-38 319 219
0 0.764 0.028130481 1.529744e-38 320 219
0.0013430532 0.76599997 0.028204117 1.529744e-38 321 219
0.0026896133 0.76700002 0.02824094 1.4286535e-38 322 219
0.00403442 0.76700002 0.02824094 1.4378731e-38 323 219
0.0053792265 0.76700002 0.02824094 1.4012838e-38 324 219
0.006724033 0.76700002 0.02824094 1.4289066e-38 325 219
0.00806884 0.76700002 0.02824094 1.456529e-38 326 219
0.0094136465 0.76700002 0.02824094 1.4934071e-38 327 219
0.010758453 0.76700002 0.02824094 1.5669822e-38 328 219
0.01210326 0.76700002 0.02824094 1.5762018e-38 329 219
0.013430533 0.76599997 0.028204117 1.5946756e-38 330 219
0.014773586 0.76599997 0.028204117 1.5946756e-38 331 219
0.016116638 0.76599997 0.028204117 1.6130778e-38 332 219
0.017459691 0.76599997 0.028204117 1.6130778e-38 333 219
0.018753653 0.764 0.028130481 1.649739e-38 334 219
0.020093199 0.764 0.028130481 1.6405195e-38 335 219
0.021432746 0.764 0.028130481 1.667927e-38 336 219
0.022772292 0.764 0.028130481 1.6586716e-38 337 219
0.024111839 0.764 0.028130481 1.6585665e-38 338 219
0.025451386 0.764 0.028130481 1.6401272e-38 339 219
0.0267208 0.76200002 0.028056841 1.6125801e-38 340 219
0.028056841 0.76200002 0.028056841 1.6033605e-38 341 219
0.029392879 0.76200002 0.028056841 1.548119e-38 342 219
0.030728921 0.76200002 0.028056841 1.5942166e-38 343 219
0.032064959 0.76200002 0.028056841 1.5578115e-38 344 219
-0.033883166 0.773 0.027106533 1.7607185e-38 295 220
-0.032527838 0.773 0.027106533 1.6317105e-38 296 220
-0.031091858 0.77100003 0.027036399 1.5026366e-38 297 220
-0.029547172 0.76599997 0.026861066 1.5760627e-38 298 220
-0.028130481 0.764 0.026790932 1.6037215e-38 299 220
-0.026790932 0.764 0.026790932 1.6315558e-38 300 220
-0.02538476 0.76200002 0.0267208 1.6407753e-38 301 220
-0.02404872 0.76200002 0.0267208 1.677722e-38 302 220
-0.02271268 0.76200002 0.0267208 1.6592828e-38 303 220
-0.02137664 0.76200002 0.0267208 1.6867602e-38 304 220
-0.020014299 0.76099998 0.026685731 1.6683209e-38 305 220
-0.018680012 0.76099998 0.026685731 1.6958357e-38 306 220
-0.017345725 0.76099998 0.026685731 1.6773969e-38 307 220
-0.016011439 0.76099998 0.026685731 1.6773969e-38 308 220
-0.014677152 0.76099998 0.026685731 1.6958357e-38 309 220
-0.013342866 0.76099998 0.026685731 1.677433e-38 310 220
-0.012008579 0.76099998 0.026685731 1.6589939e-38 311 220
-0.010674292 0.76099998 0.026685731 1.6495592e-38 312 220
-0.0093400059 0.76099998 0.026685731 1.603498e-38 313 220
-0.0080057196 0.76099998 0.026685731 1.5759832e-38 314 220
-0.0066714329 0.76099998 0.026685731 1.5667279e-38 315 220
-0.0053371461 0.76099998 0.026685731 1.5390342e-38 316 220
-0.0040081199 0.76200002 0.0267208 1.5390342e-38 317 220
-0.00267208 0.76200002 0.0267208 1.5298146e-38 318 220
-0.00133604 0.76200002 0.0267208 1.5205951e-38 319 220
0 0.764 0.026790932 1.5206319e-38 320 220
0.0013430532 0.76599997 0.026861066 1.4745342e-38 321 220
0.0026896133 0.76700002 0.026896132 1.3732282e-38 322 220
0.00403442 0.76700002 0.026896132 1.4101065e-38 323 220
0.0053792265 0.76700002 0.026896132 1.401174e-38 324 220
0.006724033 0.76700002 0.026896132 1.4103936e-38 325 220
0.00806884 0.76700002 0.026896132 1.4839703e-38 326 220
0.0094136465 0.76700002 0.026896132 1.530068e-38 327 220
0.010758453 0.76700002 0.026896132 1.5393961e-38 328 220
0.012087479 0.76599997 0.026861066 1.5946777e-38 329 220
0.013430533 0.76599997 0.026861066 1.5580138e-38 330 220
0.014735013 0.764 0.026790932 1.5672692e-38 331 220
0.016074561 0.764 0.026790932 1.6040379e-38 332 220
0.017414106 0.764 0.026790932 1.5948182e-38 333 220
0.018753653 0.764 0.026790932 1.6589939e-38 334 220
0.020093199 0.764 0.026790932 1.640555e-38 335 220
0.021432746 0.764 0.026790932 1.6496668e-38 336 220
0.022772292 0.764 0.026790932 1.6404474e-38 337 220
0.024111839 0.764 0.026790932 1.6493452e-38 338 220
0.025451386 0.764 0.026790932 1.6400898e-38 339 220
0.0267208 0.76200002 0.0267208 1.6032494e-38 340 220
0.028056841 0.76200002 0.0267208 1.6032494e-38 341 220
0.029392879 0.76200002 0.0267208 1.5757008e-38 342 220
0.030728921 0.76200002 0.0267208 1.5849563e-38 343 220
0.032064959 0.76200002 0.0267208 1.5023823e-38 344 220
0.033401001 0.76200002 0.0267208 1.5853583e-38 345 220
-0.033883166 0.773 0.025751207 1.6870689e-38 295 221
-0.032359518 0.76899999 0.025617953 1.5487676e-38 296 221
-0.031011207 0.76899999 0.025617953 1.4657914e-38 297 221
-0.029547172 0.76599997 0.025518013 1.5669832e-38 298 221
-0.028130481 0.764 0.025451386 1.6223006e-38 299 221
-0.0267208 0.76200002 0.02538476 1.6866911e-38 300 221
-0.025351444 0.76099998 0.025351444 1.7051661e-38 301 221
-0.024017159 0.76099998 0.025351444 1.6960516e-38 302 221
-0.022682872 0.76099998 0.025351444 1.6868321e-38 303 221
-0.021348584 0.76099998 0.025351444 1.6959075e-38 304 221
-0.020014299 0.76099998 0.025351444 1.6682851e-38 305 221
-0.018680012 0.76099998 0.025351444 1.6773969e-38 306 221
-0.017345725 0.76099998 0.025351444 1.6773969e-38 307 221
-0.016011439 0.76099998 0.025351444 1.6865445e-38 308 221
-0.014677152 0.76099998 0.025351444 1.6865445e-38 309 221
-0.0133078 0.759 0.025284819 1.6772892e-38 310 221
-0.01197702 0.759 0.025284819 1.6680339e-38 311 221
-0.01064624 0.759 0.025284819 1.6311204e-38 312 221
-0.00931546 0.759 0.025284819 1.6126815e-38 313 221
-0.0080057196 0.76099998 0.025351444 1.5666926e-38 314 221
-0.0066714329 0.76099998 0.025351444 1.5482895e-38 315 221
-0.0053371461 0.76099998 0.025351444 1.5115204e-38 316 221
-0.0040081199 0.76200002 0.02538476 1.4930453e-38 317 221
-0.00267208 0.76200002 0.02538476 1.4470553e-38 318 221
-0.00133604 0.76200002 0.02538476 1.4470553e-38 319 221
0 0.764 0.025451386 1.44702e-38 320 221
0.0013448066 0.76700002 0.025551327 1.4009222e-38 321 221
0.0026896133 0.76700002 0.025551327 1.2353309e-38 322 221
0.00403442 0.76700002 0.025551327 1.2630253e-38 323 221
0.0053792265 0.76700002 0.025551327 1.3092311e-38 324 221
0.006724033 0.76700002 0.025551327 1.3368537e-38 325 221
0.00806884 0.76700002 0.025551327 1.3921714e-38 326 221
0.0094136465 0.76700002 0.025551327 1.4198302e-38 327 221
0.010744425 0.76599997 0.025518013 1.4842225e-38 328 221
0.012087479 0.76599997 0.025518013 1.557979e-38 329 221
0.013395466 0.764 0.025451386 1.5764887e-38 330 221
0.014735013 0.764 0.025451386 1.5764887e-38 331 221
0.016074561 0.764 0.025451386 1.613185e-38 332 221
0.017414106 0.764 0.025451386 1.6039655e-38 333 221
0.01870456 0.76200002 0.02538476 1.6406627e-38 334 221
0.0200406 0.76200002 0.02538476 1.6314432e-38 335 221
0.02137664 0.76200002 0.02538476 1.6955847e-38 336 221
0.02271268 0.76200002 0.02538476 1.6863652e-38 337 221
0.02404872 0.76200002 0.02538476 1.640197e-38 338 221
0.02538476 0.76200002 0.02538476 1.6217579e-38 339 221
0.0267208 0.76200002 0.02538476 1.6216157e-38 340 221
0.028056841 0.76200002 0.02538476 1.6123961e-38 341 221
0.029392879 0.76200002 0.02538476 1.5665163e-38 342 221
0.030809574 0.764 0.025451386 1.5665163e-38 343 221
0.032022879 0.76099998 0.025351444 1.5112753e-38 344 221
0.033357166 0.76099998 0.025351444 1.5481896e-38 345 221
-0.033707831 0.76899999 0.024269639 1.5857238e-38 295 222
-0.032359518 0.76899999 0.024269639 1.5393663e-38 296 222
-0.030930554 0.76700002 0.024206521 1.520927e-38 297 222
-0.029547172 0.76599997 0.024174958 1.5762031e-38 298 222
-0.028130481 0.764 0.024111839 1.6684347e-38 299 222
-0.0267208 0.76200002 0.02404872 1.7328615e-38 300 222
-0.025351444 0.76099998 0.024017159 1.7144224e-38 301 222
-0.023954039 0.759 0.023954039 1.7144913e-38 302 222
-0.02262326 0.759 0.023954039 1.6867968e-38 303 222
-0.021348584 0.76099998 0.024017159 1.6958357e-38 304 222
-0.020014299 0.76099998 0.024017159 1.6773969e-38 305 222
-0.01863092 0.759 0.023954039 1.6865804e-38 306 222
-0.017300138 0.759 0.023954039 1.6865804e-38 307 222
-0.015969358 0.759 0.023954039 1.6865804e-38 308 222
-0.014638579 0.759 0.023954039 1.677361e-38 309 222
-0.0133078 0.759 0.023954039 1.6681057e-38 310 222
-0.01197702 0.759 0.023954039 1.649631e-38 311 222
-0.01064624 0.759 0.023954039 1.6035697e-38 312 222
-0.00931546 0.759 0.023954039 1.5759473e-38 313 222
-0.0079846792 0.759 0.023954039 1.5391059e-38 314 222
-0.0066714329 0.76099998 0.024017159 1.5206667e-38 315 222
-0.0053371461 0.76099998 0.024017159 1.4837907e-38 316 222
-0.0040081199 0.76200002 0.02404872 1.4469126e-38 317 222
-0.00267208 0.76200002 0.02404872 1.3733714e-38 318 222
-0.00133604 0.76200002 0.02404872 1.3548964e-38 319 222
0 0.764 0.024111839 1.3732277e-38 320 222
0.0013430532 0.76599997 0.024174958 1.3179111e-38 321 222
0.0026896133 0.76700002 0.024206521 1.1155143e-38 322 222
0.00403442 0.76700002 0.024206521 1.152392e-38 323 222
0.0053792265 0.76700002 0.024206521 1.1895232e-38 324 222
0.006724033 0.76700002 0.024206521 1.2540601e-38 325 222
0.00806884 0.76700002 0.024206521 1.3368567e-38 326 222
0.0094013726 0.76599997 0.024174958 1.3829186e-38 327 222
0.010744425 0.76599997 0.024174958 1.4475614e-38 328 222
0.01205592 0.764 0.024111839 1.5028787e-38 329 222
0.013395466 0.764 0.024111839 1.5764533e-38 330 222
0.01469644 0.76200002 0.02404872 1.5764533e-38 331 222
0.01603248 0.76200002 0.02404872 1.6131494e-38 332 222
0.01736852 0.76200002 0.02404872 1.6039299e-38 333 222
0.01870456 0.76200002 0.02404872 1.6314441e-38 334 222
0.0200406 0.76200002 0.02404872 1.6222245e-38 335 222
0.02137664 0.76200002 0.02404872 1.7232088e-38 336 222
0.022682872 0.76099998 0.024017159 1.7047695e-38 337 222
0.024017159 0.76099998 0.024017159 1.6677831e-38 338 222
0.02538476 0.76200002 0.02404872 1.630941e-38 339 222
0.0267208 0.76200002 0.02404872 1.6123588e-38 340 222
0.028056841 0.76200002 0.02404872 1.6123588e-38 341 222
0.029392879 0.76200002 0.02404872 1.5664429e-38 342 222
0.030809574 0.764 0.024111839 1.5848819e-38 343 222
0.032022879 0.76099998 0.024017159 1.5480782e-38 344 222
0.033357166 0.76099998 0.024017159 1.5664813e-38 345 222
0.034691449 0.76099998 0.024017159 1.4839438e-38 346 222
-0.03514732 0.77100003 0.02298094 1.6502232e-38 294 223
-0.033795502 0.77100003 0.02298094 1.5488438e-38 295 223
-0.032359518 0.76899999 0.022921326 1.5484766e-38 296 223
-0.030930554 0.76700002 0.022861714 1.5760994e-38 297 223
-0.029547172 0.76599997 0.022831906 1.6314488e-38 298 223
-0.028056841 0.76200002 0.02271268 1.7420477e-38 299 223
-0.026685731 0.76099998 0.022682872 1.7697045e-38 300 223
-0.025351444 0.76099998 0.022682872 1.7236066e-38 301 223
-0.023954039 0.759 0.02262326 1.7419707e-38 302 223
-0.02262326 0.759 0.02262326 1.7234955e-38 303 223
-0.02129248 0.759 0.02262326 1.7234222e-38 304 223
-0.0199617 0.759 0.02262326 1.7142028e-38 305 223
-0.01863092 0.759 0.02262326 1.6866522e-38 306 223
-0.017300138 0.759 0.02262326 1.6774327e-38 307 223
-0.015969358 0.759 0.02262326 1.6865804e-38 308 223
-0.014638579 0.759 0.02262326 1.677361e-38 309 223
-0.013272733 0.75700003 0.022563647 1.6680339e-38 310 223
-0.01194546 0.75700003 0.022563647 1.6311204e-38 311 223
-0.010618187 0.75700003 0.022563647 1.5667638e-38 312 223
-0.00931546 0.759 0.02262326 1.529922e-38 313 223
-0.0079846792 0.759 0.02262326 1.4839692e-38 314 223
-0.0066714329 0.76099998 0.022682872 1.4654942e-38 315 223
-0.0053371461 0.76099998 0.022682872 1.4286182e-38 316 223
-0.0040028598 0.76099998 0.022682872 1.3825204e-38 317 223
-0.00267208 0.76200002 0.02271268 1.3180187e-38 318 223
-0.00133604 0.76200002 0.02271268 1.2903605e-38 319 223
0 0.764 0.022772292 1.2808899e-38 320 223
0.0013430532 0.76599997 0.022831906 1.2255734e-38 321 223
0.0026896133 0.76700002 0.022861714 1.0322884e-38 322 223
0.00403442 0.76700002 0.022861714 1.0968243e-38 323 223
0.0053792265 0.76700002 0.022861714 1.1157332e-38 324 223
0.006724033 0.76700002 0.022861714 1.2263321e-38 325 223
0.00806884 0.76700002 0.022861714 1.2907605e-38 326 223
0.0094013726 0.76599997 0.022831906 1.3276387e-38 327 223
0.010744425 0.76599997 0.022831906 1.4015003e-38 328 223
0.01205592 0.764 0.022772292 1.4660372e-38 329 223
0.013395466 0.764 0.022772292 1.5764539e-38 330 223
0.01469644 0.76200002 0.02271268 1.5764539e-38 331 223
0.01603248 0.76200002 0.02271268 1.6130778e-38 332 223
0.01736852 0.76200002 0.02271268 1.6038583e-38 333 223
0.018680012 0.76099998 0.022682872 1.6221526e-38 334 223
0.020014299 0.76099998 0.022682872 1.6221526e-38 335 223
0.021348584 0.76099998 0.022682872 1.7323556e-38 336 223
0.022682872 0.76099998 0.022682872 1.6954775e-38 337 223
0.024017159 0.76099998 0.022682872 1.667747e-38 338 223
0.025351444 0.76099998 0.022682872 1.6400887e-38 339 223
0.026685731 0.76099998 0.022682872 1.6215064e-38 340 223
0.028056841 0.76200002 0.02271268 1.6307258e-38 341 223
0.029392879 0.76200002 0.02271268 1.593921e-38 342 223
0.030728921 0.76200002 0.02271268 1.6031765e-38 343 223
0.032064959 0.76200002 0.02271268 1.5572958e-38 344 223
0.033401001 0.76200002 0.02271268 1.5572958e-38 345 223
0.034737039 0.76200002 0.02271268 1.5019485e-38 346 223
-0.03514732 0.77100003 0.021629119 1.6041594e-38 294 224
-0.033795502 0.77100003 0.021629119 1.5119279e-38 295 224
-0.032359518 0.76899999 0.021573013 1.5576939e-38 296 224
-0.030930554 0.76700002 0.021516906 1.5945723e-38 297 224
-0.029547172 0.76599997 0.021488851 1.6682545e-38 298 224
-0.028056841 0.76200002 0.02137664 1.7788893e-38 299 224
-0.026685731 0.76099998 0.021348584 1.7698126e-38 300 224
-0.025284819 0.759 0.02129248 1.7236788e-38 301 224
-0.023954039 0.759 0.02129248 1.7603019e-38 302 224
-0.02262326 0.759 0.02129248 1.7418267e-38 303 224
-0.02129248 0.759 0.02129248 1.7143104e-38 304 224
-0.0199617 0.759 0.02129248 1.705091e-38 305 224
-0.018581826 0.75700003 0.021236373 1.6866522e-38 306 224
-0.017254554 0.75700003 0.021236373 1.6866522e-38 307 224
-0.015927281 0.75700003 0.021236373 1.7049116e-38 308 224
-0.014600007 0.75700003 0.021236373 1.6864728e-38 309 224
-0.013272733 0.75700003 0.021236373 1.6495592e-38 310 224
-0.01194546 0.75700003 0.021236373 1.6311204e-38 311 224
-0.010618187 0.75700003 0.021236373 1.5850233e-38 312 224
-0.0092909131 0.75700003 0.021236373 1.557365e-38 313 224
-0.0079846792 0.759 0.02129248 1.483826e-38 314 224
-0.0066538998 0.759 0.02129248 1.4561674e-38 315 224
-0.0053371461 0.76099998 0.021348584 1.4009225e-38 316 224
-0.0040028598 0.76099998 0.021348584 1.3363858e-38 317 224
-0.00267208 0.76200002 0.02137664 1.2442634e-38 318 224
-0.00133604 0.76200002 0.02137664 1.2073857e-38 319 224
0 0.764 0.021432746 1.1241956e-38 320 224
0.0013430532 0.76599997 0.021488851 1.1149762e-38 321 224
0.0026896133 0.76700002 0.021516906 9.7672072e-39 322 224
0.00403442 0.76700002 0.021516906 1.0228178e-38 323 224
0.0053792265 0.76700002 0.021516906 1.0418342e-38 324 224
0.006724033 0.76700002 0.021516906 1.1616885e-38 325 224
0.00806884 0.76700002 0.021516906 1.244627e-38 326 224
0.0094013726 0.76599997 0.021488851 1.2630661e-38 327 224
0.010744425 0.76599997 0.021488851 1.3369989e-38 328 224
0.01205592 0.764 0.021432746 1.4383781e-38 329 224
0.013395466 0.764 0.021432746 1.5763103e-38 330 224
0.01469644 0.76200002 0.02137664 1.5579072e-38 331 224
0.01603248 0.76200002 0.02137664 1.5946031e-38 332 224
0.017345725 0.76099998 0.021348584 1.576164e-38 333 224
0.018680012 0.76099998 0.021348584 1.6404123e-38 334 224
0.020014299 0.76099998 0.021348584 1.6496318e-38 335 224
0.021348584 0.76099998 0.021348584 1.7323201e-38 336 224
0.022682872 0.76099998 0.021348584 1.6954778e-38 337 224
0.024017159 0.76099998 0.021348584 1.6677828e-38 338 224
0.025351444 0.76099998 0.021348584 1.6400887e-38 339 224
0.026685731 0.76099998 0.021348584 1.6399452e-38 340 224
0.028020019 0.76099998 0.021348584 1.6307258e-38 341 224
0.029392879 0.76200002 0.02137664 1.6031393e-38 342 224
0.030728921 0.76200002 0.02137664 1.6031393e-38 343 224
0.032064959 0.76200002 0.02137664 1.5572235e-38 344 224
0.033401001 0.76200002 0.02137664 1.5664432e-38 345 224
0.034737039 0.76200002 0.02137664 1.5112385e-38 346 224
0.036073081 0.76200002 0.02137664 1.5573361e-38 347 224
-0.036499143 0.77100003 0.020277301 1.6962885e-38 293 225
-0.03514732 0.77100003 0.020277301 1.5763908e-38 294 225
-0.033795502 0.77100003 0.020277301 1.5118539e-38 295 225
-0.032359518 0.76899999 0.0202247 1.5669119e-38 296 225
-0.030930554 0.76700002 0.020172099 1.6314488e-38 297 225
-0.029392879 0.76200002 0.0200406 1.6866941e-38 298 225
-0.028020019 0.76099998 0.020014299 1.7973287e-38 299 225
-0.026615599 0.759 0.0199617 1.7514101e-38 300 225
-0.025284819 0.759 0.0199617 1.7145318e-38 301 225
-0.02389092 0.75700003 0.019909101 1.7602663e-38 302 225
-0.022563647 0.75700003 0.019909101 1.741827e-38 303 225
-0.02129248 0.759 0.0199617 1.7143104e-38 304 225
-0.019909101 0.75700003 0.019909101 1.6958357e-38 305 225
-0.018581826 0.75700003 0.019909101 1.6959433e-38 306 225
-0.017254554 0.75700003 0.019909101 1.6591015e-38 307 225
-0.015927281 0.75700003 0.019909101 1.6865804e-38 308 225
-0.014600007 0.75700003 0.019909101 1.6681057e-38 309 225
-0.013272733 0.75700003 0.019909101 1.6495592e-38 310 225
-0.01194546 0.75700003 0.019909101 1.6310845e-38 311 225
-0.010618187 0.75700003 0.019909101 1.5849517e-38 312 225
-0.0092909131 0.75700003 0.019909101 1.5573291e-38 313 225
-0.0079636406 0.75700003 0.019909101 1.4654226e-38 314 225
-0.0066538998 0.759 0.0199617 1.4377279e-38 315 225
-0.0053231199 0.759 0.0199617 1.3732635e-38 316 225
-0.0040028598 0.76099998 0.020014299 1.3087276e-38 317 225
-0.00267208 0.76200002 0.0200406 1.1429214e-38 318 225
-0.00133604 0.76200002 0.0200406 1.0691661e-38 319 225
0 0.764 0.020093199 8.8445475e-39 320 225
0.0013430532 0.76599997 0.020145798 8.7523533e-39 321 225
0.0026896133 0.76700002 0.020172099 9.1168254e-39 322 225
0.00403442 0.76700002 0.020172099 9.7621878e-39 323 225
0.0053792265 0.76700002 0.020172099 9.1251015e-39 324 225
0.006724033 0.76700002 0.020172099 1.0047058e-38 325 225
0.00806884 0.76700002 0.020172099 1.0511241e-38 326 225
0.0094013726 0.76599997 0.020145798 1.1525393e-38 327 225
0.010744425 0.76599997 0.020145798 1.3091607e-38 328 225
0.01205592 0.764 0.020093199 1.429015e-38 329 225
0.0133604 0.76200002 0.0200406 1.557799e-38 330 225
0.01469644 0.76200002 0.0200406 1.5670185e-38 331 225
0.016011439 0.76099998 0.020014299 1.5946018e-38 332 225
0.017345725 0.76099998 0.020014299 1.5761626e-38 333 225
0.018680012 0.76099998 0.020014299 1.6495592e-38 334 225
0.020014299 0.76099998 0.020014299 1.6680339e-38 335 225
0.021348584 0.76099998 0.020014299 1.750723e-38 336 225
0.022682872 0.76099998 0.020014299 1.7045892e-38 337 225
0.023954039 0.759 0.0199617 1.6768946e-38 338 225
0.025284819 0.759 0.0199617 1.6400169e-38 339 225
0.026685731 0.76099998 0.020014299 1.6307258e-38 340 225
0.028020019 0.76099998 0.020014299 1.6307258e-38 341 225
0.029354304 0.76099998 0.020014299 1.5940274e-38 342 225
0.030728921 0.76200002 0.0200406 1.5756245e-38 343 225
0.032064959 0.76200002 0.0200406 1.5663702e-38 344 225
0.033401001 0.76200002 0.0200406 1.5663702e-38 345 225
0.034737039 0.76200002 0.0200406 1.5296037e-38 346 225
0.036167759 0.764 0.020093199 1.5480429e-38 347 225
0.037605491 0.76599997 0.020145798 1.4563217e-38 348 225
-0.036309779 0.76700002 0.018827293 1.6685575e-38 293 226
-0.034964975 0.76700002 0.018827293 1.5578438e-38 294 226
-0.033576332 0.76599997 0.018802745 1.5486243e-38 295 226
-0.032233275 0.76599997 0.018802745 1.5947148e-38 296 226
-0.030728921 0.76200002 0.01870456 1.6131539e-38 297 226
-0.029392879 0.76200002 0.01870456 1.6683994e-38 298 226
-0.028020019 0.76099998 0.018680012 1.7329363e-38 299 226
-0.026615599 0.759 0.01863092 1.7605222e-38 300 226
-0.025284819 0.759 0.01863092 1.7052407e-38 301 226
-0.02389092 0.75700003 0.018581826 1.7419702e-38 302 226
-0.022563647 0.75700003 0.018581826 1.7142757e-38 303 226
-0.021236373 0.75700003 0.018581826 1.705091e-38 304 226
-0.0198565 0.755 0.018532733 1.705091e-38 305 226
-0.018532733 0.755 0.018532733 1.6866522e-38 306 226
-0.017208965 0.755 0.018532733 1.6774327e-38 307 226
-0.015885198 0.755 0.018532733 1.6956922e-38 308 226
-0.014561433 0.755 0.018532733 1.6864728e-38 309 226
-0.013237666 0.755 0.018532733 1.6678546e-38 310 226
-0.011913899 0.755 0.018532733 1.6310128e-38 311 226
-0.010590133 0.755 0.018532733 1.5849156e-38 312 226
-0.0092663663 0.755 0.018532733 1.5572215e-38 313 226
-0.0079425992 0.755 0.018532733 1.4928649e-38 314 226
-0.0066363667 0.75700003 0.018581826 1.4467678e-38 315 226
-0.0053090933 0.75700003 0.018581826 1.3640082e-38 316 226
-0.0040028598 0.76099998 0.018680012 1.3087276e-38 317 226
-0.0026685731 0.76099998 0.018680012 1.1704721e-38 318 226
-0.00133604 0.76200002 0.01870456 1.0321808e-38 319 226
0 0.764 0.018753653 9.3919731e-39 320 226
0.0013430532 0.76599997 0.018802745 9.207226e-39 321 226
0.0026896133 0.76700002 0.018827293 8.3807247e-39 322 226
0.00403442 0.76700002 0.018827293 8.8417029e-39 323 226
0.0053792265 0.76700002 0.018827293 8.6605542e-39 324 226
0.006724033 0.76700002 0.018827293 9.3059236e-39 325 226
0.00806884 0.76700002 0.018827293 9.5867789e-39 326 226
0.0094013726 0.76599997 0.018802745 1.0969713e-38 327 226
0.010716373 0.764 0.018753653 1.2446603e-38 328 226
0.01202436 0.76200002 0.01870456 1.3737342e-38 329 226
0.0133604 0.76200002 0.01870456 1.5209213e-38 330 226
0.014677152 0.76099998 0.018680012 1.5854582e-38 331 226
0.015969358 0.759 0.01863092 1.6128615e-38 332 226
0.017300138 0.759 0.01863092 1.6036418e-38 333 226
0.01863092 0.759 0.01863092 1.6495951e-38 334 226
0.0199617 0.759 0.01863092 1.6495951e-38 335 226
0.02129248 0.759 0.01863092 1.7046247e-38 336 226
0.02262326 0.759 0.01863092 1.6770023e-38 337 226
0.023954039 0.759 0.01863092 1.6860423e-38 338 226
0.025284819 0.759 0.01863092 1.6583482e-38 339 226
0.026615599 0.759 0.01863092 1.6582406e-38 340 226
0.027946379 0.759 0.01863092 1.6490211e-38 341 226
0.029354304 0.76099998 0.018680012 1.6214346e-38 342 226
0.030688593 0.76099998 0.018680012 1.6214346e-38 343 226
0.032064959 0.76200002 0.01870456 1.5755534e-38 344 226
0.033401001 0.76200002 0.01870456 1.5755534e-38 345 226
0.034828212 0.764 0.018753653 1.5020525e-38 346 226
0.036167759 0.764 0.018753653 1.5296753e-38 347 226
0.037605491 0.76599997 0.018802745 1.437558e-38 348 226
0.038948543 0.76599997 0.018802745 1.5758515e-38 349 226
-0.036309779 0.76700002 0.017482487 1.6408982e-38 293 227
-0.034964975 0.76700002 0.017482487 1.5854657e-38 294 227
-0.033576332 0.76599997 0.017459691 1.5670624e-38 295 227
-0.032233275 0.76599997 0.017459691 1.6039341e-38 296 227
-0.030728921 0.76200002 0.01736852 1.6039341e-38 297 227
-0.029354304 0.76099998 0.017345725 1.6224807e-38 298 227
-0.027946379 0.759 0.017300138 1.6685785e-38 299 227
-0.026615599 0.759 0.017300138 1.7052404e-38 300 227
-0.025218192 0.75700003 0.017254554 1.6960208e-38 301 227
-0.023827799 0.755 0.017208965 1.7327154e-38 302 227
-0.022504034 0.755 0.017208965 1.7234958e-38 303 227
-0.021180267 0.755 0.017208965 1.7051627e-38 304 227
-0.0198565 0.755 0.017208965 1.6775404e-38 305 227
-0.018532733 0.755 0.017208965 1.6958716e-38 306 227
-0.017208965 0.755 0.017208965 1.6774327e-38 307 227
-0.015885198 0.755 0.017208965 1.6865445e-38 308 227
-0.014561433 0.755 0.017208965 1.6681057e-38 309 227
-0.013237666 0.755 0.017208965 1.631228e-38 310 227
-0.011913899 0.755 0.017208965 1.5574726e-38 311 227
-0.010590133 0.755 0.017208965 1.5295991e-38 312 227
-0.0092663663 0.755 0.017208965 1.5572215e-38 313 227
-0.0079425992 0.755 0.017208965 1.4560948e-38 314 227
-0.0066188332 0.755 0.017208965 1.4376919e-38 315 227
-0.0053090933 0.75700003 0.017254554 1.3732277e-38 316 227
-0.0039923396 0.759 0.017300138 1.3179111e-38 317 227
-0.0026685731 0.76099998 0.017345725 1.2258245e-38 318 227
-0.0013342865 0.76099998 0.017345725 1.105972e-38 319 227
0 0.76200002 0.01736852 8.8423951e-39 320 227
0.0013430532 0.76599997 0.017459691 8.1970355e-39 321 227
0.0026861064 0.76599997 0.017459691 8.6555039e-39 322 227
0.00403442 0.76700002 0.017482487 8.4714728e-39 323 227
0.0053792265 0.76700002 0.017482487 8.5643901e-39 324 227
0.006724033 0.76700002 0.017482487 8.9328139e-39 325 227
0.0080583189 0.76599997 0.017459691 8.4782817e-39 326 227
0.0093768267 0.764 0.017414106 9.8611993e-39 327 227
0.010716373 0.764 0.017414106 1.1707591e-38 328 227
0.01202436 0.76200002 0.01736852 1.3735882e-38 329 227
0.013342866 0.76099998 0.017345725 1.5393226e-38 330 227
0.014638579 0.759 0.017300138 1.59464e-38 331 227
0.015969358 0.759 0.017300138 1.6036782e-38 332 227
0.017300138 0.759 0.017300138 1.5852389e-38 333 227
0.01863092 0.759 0.017300138 1.6494875e-38 334 227
0.0199617 0.759 0.017300138 1.6494875e-38 335 227
0.02129248 0.759 0.017300138 1.7136288e-38 336 227
0.022504034 0.755 0.017208965 1.676787e-38 337 227
0.023827799 0.755 0.017208965 1.6674958e-38 338 227
0.025151566 0.755 0.017208965 1.6582764e-38 339 227
0.026475333 0.755 0.017208965 1.6490211e-38 340 227
0.027872739 0.75700003 0.017254554 1.6490211e-38 341 227
0.029200014 0.75700003 0.017254554 1.6122152e-38 342 227
0.030607941 0.759 0.017300138 1.6122152e-38 343 227
0.032022879 0.76099998 0.017345725 1.5663692e-38 344 227
0.033357166 0.76099998 0.017345725 1.5663692e-38 345 227
0.034737039 0.76200002 0.01736852 1.5020503e-38 346 227
0.036167759 0.764 0.017414106 1.4836472e-38 347 227
0.037507307 0.764 0.017414106 1.446667e-38 348 227
0.038846854 0.764 0.017414106 1.5664855e-38 349 227
-0.03775277 0.76899999 0.016179759 1.6686278e-38 292 228
-0.036309779 0.76700002 0.01613768 1.5948354e-38 293 228
-0.034964975 0.76700002 0.01613768 1.5485861e-38 294 228
-0.033576332 0.76599997 0.016116638 1.5669893e-38 295 228
-0.032233275 0.76599997 0.016116638 1.5946782e-38 296 228
-0.030728921 0.76200002 0.01603248 1.6038978e-38 297 228
-0.029354304 0.76099998 0.016011439 1.6315558e-38 298 228
-0.027946379 0.759 0.015969358 1.6499949e-38 299 228
-0.026545467 0.75700003 0.015927281 1.6869079e-38 300 228
-0.025218192 0.75700003 0.015927281 1.6592851e-38 301 228
-0.023827799 0.755 0.015885198 1.7051996e-38 302 228
-0.022504034 0.755 0.015885198 1.69598e-38 303 228
-0.021180267 0.755 0.015885198 1.7051269e-38 304 228
-0.0198565 0.755 0.015885198 1.7051269e-38 305 228
-0.018508185 0.75400001 0.01586416 1.6866522e-38 306 228
-0.017186172 0.75400001 0.01586416 1.6682133e-38 307 228
-0.01586416 0.75400001 0.01586416 1.6864728e-38 308 228
-0.014542146 0.75400001 0.01586416 1.6588145e-38 309 228
-0.013220133 0.75400001 0.01586416 1.6312639e-38 310 228
-0.01189812 0.75400001 0.01586416 1.5667279e-38 311 228
-0.010576107 0.75400001 0.01586416 1.5756245e-38 312 228
-0.0092540924 0.75400001 0.01586416 1.5387468e-38 313 228
-0.00793208 0.75400001 0.01586416 1.4836814e-38 314 228
-0.0066188332 0.755 0.015885198 1.4744619e-38 315 228
-0.0052950666 0.755 0.015885198 1.4192889e-38 316 228
-0.0039712996 0.755 0.015885198 1.3639724e-38 317 228
-0.00266156 0.759 0.015969358 1.290217e-38 318 228
-0.00133078 0.759 0.015969358 1.207278e-38 319 228
0 0.76099998 0.016011439 9.5821013e-39 320 228
0.00133604 0.76200002 0.01603248 8.0144407e-39 321 228
0.00267208 0.76200002 0.01603248 8.1016127e-39 322 228
0.0040291594 0.76599997 0.016116638 7.82503e-39 323 228
0.0053792265 0.76700002 0.01613768 7.5506109e-39 324 228
0.0067152665 0.76599997 0.016116638 8.0112289e-39 325 228
0.0080583189 0.76599997 0.016116638 8.1062762e-39 326 228
0.0093768267 0.764 0.016074561 1.05037e-38 327 228
0.01068832 0.76200002 0.01603248 1.2440481e-38 328 228
0.012008579 0.76099998 0.016011439 1.4652794e-38 329 228
0.013342866 0.76099998 0.016011439 1.5299943e-38 330 228
0.014600007 0.75700003 0.015927281 1.5945312e-38 331 228
0.015927281 0.75700003 0.015927281 1.6036782e-38 332 228
0.017254554 0.75700003 0.015927281 1.5852389e-38 333 228
0.018532733 0.755 0.015885198 1.6402322e-38 334 228
0.0198565 0.755 0.015885198 1.6494516e-38 335 228
0.021180267 0.755 0.015885198 1.6768946e-38 336 228
0.022504034 0.755 0.015885198 1.6492722e-38 337 228
0.023827799 0.755 0.015885198 1.6675317e-38 338 228
0.025151566 0.755 0.015885198 1.6490929e-38 339 228
0.026475333 0.755 0.015885198 1.6398376e-38 340 228
0.027799098 0.755 0.015885198 1.6305823e-38 341 228
0.029200014 0.75700003 0.015927281 1.6122511e-38 342 228
0.030527288 0.75700003 0.015927281 1.6122511e-38 343 228
0.031938717 0.759 0.015969358 1.5755169e-38 344 228
0.033357166 0.76099998 0.016011439 1.5847363e-38 345 228
0.034737039 0.76200002 0.01603248 1.511233e-38 346 228
0.036073081 0.76200002 0.01603248 1.511233e-38 347 228
0.037409119 0.76200002 0.01603248 1.4374469e-38 348 228
0.038745161 0.76200002 0.01603248 1.5296784e-38 349 228
0.040081199 0.76200002 0.01603248 1.5484841e-38 350 228
-0.039101087 0.76899999 0.014831445 1.7514633e-38 291 229
-0.03775277 0.76899999 0.014831445 1.6501513e-38 292 229
-0.036309779 0.76700002 0.014792874 1.5763948e-38 293 229
-0.034964975 0.76700002 0.014792874 1.5485129e-38 294 229
-0.033576332 0.76599997 0.014773586 1.566988e-38 295 229
-0.032233275 0.76599997 0.014773586 1.5946777e-38 296 229
-0.030688593 0.76099998 0.014677152 1.5946777e-38 297 229
-0.029354304 0.76099998 0.014677152 1.6223712e-38 298 229
-0.027946379 0.759 0.014638579 1.6408104e-38 299 229
-0.026545467 0.75700003 0.014600007 1.6593571e-38 300 229
-0.025151566 0.755 0.014561433 1.6501374e-38 301 229
-0.02379624 0.75400001 0.014542146 1.6960166e-38 302 229
-0.022474226 0.75400001 0.014542146 1.6867971e-38 303 229
-0.021180267 0.755 0.014561433 1.7051627e-38 304 229
-0.019830201 0.75400001 0.014542146 1.6775404e-38 305 229
-0.018508185 0.75400001 0.014542146 1.6774327e-38 306 229
-0.017186172 0.75400001 0.014542146 1.6498103e-38 307 229
-0.01586416 0.75400001 0.014542146 1.6680339e-38 308 229
-0.014542146 0.75400001 0.014542146 1.6588145e-38 309 229
-0.013220133 0.75400001 0.014542146 1.6310845e-38 310 229
-0.01189812 0.75400001 0.014542146 1.6034621e-38 311 229
-0.010576107 0.75400001 0.014542146 1.5757321e-38 312 229
-0.0092540924 0.75400001 0.014542146 1.5388903e-38 313 229
-0.00793208 0.75400001 0.014542146 1.4745696e-38 314 229
-0.0066100666 0.75400001 0.014542146 1.4653143e-38 315 229
-0.0052880533 0.75400001 0.014542146 1.4469832e-38 316 229
-0.00396604 0.75400001 0.014542146 1.4285442e-38 317 229
-0.0026475333 0.755 0.014561433 1.3638647e-38 318 229
-0.0013237667 0.755 0.014561433 1.2993288e-38 319 229
0 0.759 0.014638579 1.0963939e-38 320 229
0.0013342865 0.76099998 0.014677152 9.0278598e-39 321 229
0.00267208 0.76200002 0.01469644 7.1814641e-39 322 229
0.0040081199 0.76200002 0.01469644 6.1669688e-39 323 229
0.0053581866 0.764 0.014735013 6.9038052e-39 324 229
0.006697733 0.764 0.014735013 8.1023357e-39 325 229
0.0080372803 0.764 0.014735013 9.303725e-39 326 229
0.0093522798 0.76200002 0.01469644 1.1608599e-38 327 229
0.010674292 0.76099998 0.014677152 1.3086199e-38 328 229
0.01197702 0.759 0.014638579 1.4837907e-38 329 229
0.0133078 0.759 0.014638579 1.5392507e-38 330 229
0.014600007 0.75700003 0.014600007 1.5485061e-38 331 229
0.015885198 0.755 0.014561433 1.5852389e-38 332 229
0.017208965 0.755 0.014561433 1.5668358e-38 333 229
0.018508185 0.75400001 0.014542146 1.6403039e-38 334 229
0.019830201 0.75400001 0.014542146 1.6403039e-38 335 229
0.021180267 0.755 0.014561433 1.6585275e-38 336 229
0.022504034 0.755 0.014561433 1.6400528e-38 337 229
0.023827799 0.755 0.014561433 1.6583123e-38 338 229
0.025151566 0.755 0.014561433 1.6490929e-38 339 229
0.026475333 0.755 0.014561433 1.6215064e-38 340 229
0.027799098 0.755 0.014561433 1.6122869e-38 341 229
0.029122867 0.755 0.014561433 1.5939198e-38 342 229
0.030527288 0.75700003 0.014600007 1.5939198e-38 343 229
0.031938717 0.759 0.014638579 1.5755169e-38 344 229
0.033357166 0.76099998 0.014677152 1.5755169e-38 345 229
0.034737039 0.76200002 0.01469644 1.5295645e-38 346 229
0.036073081 0.76200002 0.01469644 1.5203449e-38 347 229
0.037409119 0.76200002 0.01469644 1.4559214e-38 348 229
0.038745161 0.76200002 0.01469644 1.5112387e-38 349 229
0.040081199 0.76200002 0.01469644 1.5023496e-38 350 229
-0.040554602 0.77100003 0.013518199 1.7700097e-38 290 230
-0.039101087 0.76899999 0.013483133 1.7330955e-38 291 230
-0.03775277 0.76899999 0.013483133 1.5949764e-38 292 230
-0.036309779 0.76700002 0.013448066 1.5212199e-38 293 230
-0.034964975 0.76700002 0.013448066 1.539292e-38 294 230
-0.033576332 0.76599997 0.013430533 1.5577312e-38 295 230
-0.032149121 0.764 0.013395466 1.5854935e-38 296 230
-0.030688593 0.76099998 0.013342866 1.5854935e-38 297 230
-0.029277159 0.759 0.0133078 1.6039325e-38 298 230
-0.027872739 0.75700003 0.013272733 1.6315911e-38 299 230
-0.026545467 0.75700003 0.013272733 1.6501374e-38 300 230
-0.025151566 0.755 0.013237666 1.6317343e-38 301 230
-0.02379624 0.75400001 0.013220133 1.6960163e-38 302 230
-0.022474226 0.75400001 0.013220133 1.6775772e-38 303 230
-0.021152213 0.75400001 0.013220133 1.6775045e-38 304 230
-0.019830201 0.75400001 0.013220133 1.6682851e-38 305 230
-0.018508185 0.75400001 0.013220133 1.6774327e-38 306 230
-0.017186172 0.75400001 0.013220133 1.640555e-38 307 230
-0.015822079 0.75199997 0.013185065 1.6312997e-38 308 230
-0.014503572 0.75199997 0.013185065 1.6128609e-38 309 230
-0.013185065 0.75199997 0.013185065 1.6034621e-38 310 230
-0.011866559 0.75199997 0.013185065 1.5942427e-38 311 230
-0.010576107 0.75400001 0.013220133 1.5574726e-38 312 230
-0.0092295464 0.75199997 0.013185065 1.5206308e-38 313 230
-0.0079110395 0.75199997 0.013185065 1.5022278e-38 314 230
-0.0065925326 0.75199997 0.013185065 1.4838249e-38 315 230
-0.0052740262 0.75199997 0.013185065 1.5021202e-38 316 230
-0.0039555198 0.75199997 0.013185065 1.5113755e-38 317 230
-0.0026370131 0.75199997 0.013185065 1.4743543e-38 318 230
-0.0013185065 0.75199997 0.013185065 1.4190378e-38 319 230
0 0.75199997 0.013185065 1.3268077e-38 320 230
0.0013237667 0.755 0.013237666 1.2161746e-38 321 230
0.0026475333 0.755 0.013237666 1.0684486e-38 322 230
0.0039923396 0.759 0.0133078 9.9469322e-39 323 230
0.0053371461 0.76099998 0.013342866 1.0040942e-38 324 230
0.0066714329 0.76099998 0.013342866 1.1331681e-38 325 230
0.0080057196 0.76099998 0.013342866 1.188843e-38 326 230
0.0092909131 0.75700003 0.013272733 1.336356e-38 327 230
0.010618187 0.75700003 0.013272733 1.4285831e-38 328 230
0.01194546 0.75700003 0.013272733 1.5023397e-38 329 230
0.013237666 0.755 0.013237666 1.502445e-38 330 230
0.014561433 0.755 0.013237666 1.5116646e-38 331 230
0.01586416 0.75400001 0.013220133 1.5667279e-38 332 230
0.017186172 0.75400001 0.013220133 1.5944221e-38 333 230
0.018508185 0.75400001 0.013220133 1.6220086e-38 334 230
0.019830201 0.75400001 0.013220133 1.6220086e-38 335 230
0.021152213 0.75400001 0.013220133 1.6492722e-38 336 230
0.022474226 0.75400001 0.013220133 1.6400169e-38 337 230
0.02379624 0.75400001 0.013220133 1.6307258e-38 338 230
0.025118252 0.75400001 0.013220133 1.6215064e-38 339 230
0.026475333 0.755 0.013237666 1.6122869e-38 340 230
0.027799098 0.755 0.013237666 1.6030316e-38 341 230
0.029122867 0.755 0.013237666 1.5846645e-38 342 230
0.030446632 0.755 0.013237666 1.5846645e-38 343 230
0.031854562 0.75700003 0.013272733 1.5571498e-38 344 230
0.033269498 0.759 0.0133078 1.5571498e-38 345 230
0.034691449 0.76099998 0.013342866 1.4927583e-38 346 230
0.036073081 0.76200002 0.0133604 1.4927583e-38 347 230
0.037409119 0.76200002 0.0133604 1.4651762e-38 348 230
0.038745161 0.76200002 0.0133604 1.5020545e-38 349 230
0.040081199 0.76200002 0.0133604 1.4654706e-38 350 230
-0.040554602 0.77100003 0.01216638 1.7700099e-38 290 231
-0.039101087 0.76899999 0.012134819 1.7146926e-38 291 231
-0.03775277 0.76899999 0.012134819 1.5764651e-38 292 231
-0.036309779 0.76700002 0.01210326 1.5211477e-38 293 231
-0.034919381 0.76599997 0.012087479 1.5577662e-38 294 231
-0.033488665 0.764 0.01205592 1.5577662e-38 295 231
-0.032149121 0.764 0.01205592 1.5670541e-38 296 231
-0.030688593 0.76099998 0.012008579 1.5762737e-38 297 231
-0.029277159 0.759 0.01197702 1.5763809e-38 298 231
-0.027872739 0.75700003 0.01194546 1.6040397e-38 299 231
-0.026475333 0.755 0.011913899 1.6133662e-38 300 231
-0.025151566 0.755 0.011913899 1.6133662e-38 301 231
-0.02379624 0.75400001 0.01189812 1.6592457e-38 302 231
-0.022474226 0.75400001 0.01189812 1.6500261e-38 303 231
-0.021152213 0.75400001 0.01189812 1.6683568e-38 304 231
-0.019830201 0.75400001 0.01189812 1.6591374e-38 305 231
-0.018508185 0.75400001 0.01189812 1.6590656e-38 306 231
-0.017186172 0.75400001 0.01189812 1.6406268e-38 307 231
-0.015822079 0.75199997 0.011866559 1.6220803e-38 308 231
-0.014503572 0.75199997 0.011866559 1.5852026e-38 309 231
-0.013185065 0.75199997 0.011866559 1.5943144e-38 310 231
-0.011835 0.75 0.011835 1.5943144e-38 311 231
-0.01052 0.75 0.011835 1.5850591e-38 312 231
-0.0092049995 0.75 0.011835 1.5850591e-38 313 231
-0.00789 0.75 0.011835 1.5849874e-38 314 231
-0.006575 0.75 0.011835 1.575768e-38 315 231
-0.00526 0.75 0.011835 1.5481456e-38 316 231
-0.003945 0.75 0.011835 1.5389262e-38 317 231
-0.00263 0.75 0.011835 1.5113038e-38 318 231
-0.001315 0.75 0.011835 1.5389262e-38 319 231
0 0.75 0.011835 1.5112327e-38 320 231
0.001315 0.75 0.011835 1.4743543e-38 321 231
0.0026370131 0.75199997 0.011866559 1.3914158e-38 322 231
0.00396604 0.75400001 0.01189812 1.3453183e-38 323 231
0.0053090933 0.75700003 0.01194546 1.3085853e-38 324 231
0.0066363667 0.75700003 0.01194546 1.3823777e-38 325 231
0.0079636406 0.75700003 0.01194546 1.4194727e-38 326 231
0.0092663663 0.755 0.011913899 1.4747901e-38 327 231
0.010590133 0.755 0.011913899 1.5207062e-38 328 231
0.011913899 0.755 0.011913899 1.5114866e-38 329 231
0.013220133 0.75400001 0.01189812 1.5299946e-38 330 231
0.014542146 0.75400001 0.01189812 1.5483977e-38 331 231
0.01586416 0.75400001 0.01189812 1.5852026e-38 332 231
0.017186172 0.75400001 0.01189812 1.6036415e-38 333 231
0.018508185 0.75400001 0.01189812 1.6588145e-38 334 231
0.019830201 0.75400001 0.01189812 1.6311921e-38 335 231
0.021152213 0.75400001 0.01189812 1.6400887e-38 336 231
0.022474226 0.75400001 0.01189812 1.6124304e-38 337 231
0.02379624 0.75400001 0.01189812 1.6214705e-38 338 231
0.025118252 0.75400001 0.01189812 1.6122511e-38 339 231
0.026440267 0.75400001 0.01189812 1.6029958e-38 340 231
0.027762281 0.75400001 0.01189812 1.5937763e-38 341 231
0.029122867 0.755 0.011913899 1.5661898e-38 342 231
0.030446632 0.755 0.011913899 1.5754092e-38 343 231
0.031854562 0.75700003 0.01194546 1.5203079e-38 344 231
0.033269498 0.759 0.01197702 1.5203079e-38 345 231
0.034691449 0.76099998 0.012008579 1.4927586e-38 346 231
0.036073081 0.76200002 0.01202436 1.4927586e-38 347 231
0.037409119 0.76200002 0.01202436 1.4560639e-38 348 231
0.038745161 0.76200002 0.01202436 1.474503e-38 349 231
0.040081199 0.76200002 0.01202436 1.437775e-38 350 231
-0.040554602 0.77100003 0.01081456 1.7607179e-38 290 232
-0.039101087 0.76899999 0.010786506 1.7238395e-38 291 232
-0.037654586 0.76700002 0.010758453 1.5948317e-38 292 232
-0.036262438 0.76599997 0.010744425 1.5302947e-38 293 232
-0.034828212 0.764 0.010716373 1.5671653e-38 294 232
-0.033488665 0.764 0.010716373 1.5118479e-38 295 232
-0.032064959 0.76200002 0.01068832 1.5670536e-38 296 232
-0.030688593 0.76099998 0.010674292 1.5670536e-38 297 232
-0.029277159 0.759 0.01064624 1.5763794e-38 298 232
-0.027872739 0.75700003 0.010618187 1.5948185e-38 299 232
-0.026475333 0.755 0.010590133 1.6225119e-38 300 232
-0.025151566 0.755 0.010590133 1.6225119e-38 301 232
-0.02379624 0.75400001 0.010576107 1.6592457e-38 302 232
-0.022474226 0.75400001 0.010576107 1.6500261e-38 303 232
-0.021152213 0.75400001 0.010576107 1.6683568e-38 304 232
-0.019830201 0.75400001 0.010576107 1.6591374e-38 305 232
-0.018459093 0.75199997 0.010548052 1.6315867e-38 306 232
-0.017140586 0.75199997 0.010548052 1.594709e-38 307 232
-0.015822079 0.75199997 0.010548052 1.5945297e-38 308 232
-0.014465 0.75 0.01052 1.576055e-38 309 232
-0.01315 0.75 0.01052 1.5852026e-38 310 232
-0.011835 0.75 0.01052 1.612825e-38 311 232
-0.010505973 0.74900001 0.010505973 1.612825e-38 312 232
-0.0091927266 0.74900001 0.010505973 1.6312997e-38 313 232
-0.00789 0.75 0.01052 1.6770381e-38 314 232
-0.006575 0.75 0.01052 1.6401604e-38 315 232
-0.00526 0.75 0.01052 1.5667279e-38 316 232
-0.0039397399 0.74900001 0.010505973 1.5482891e-38 317 232
-0.0026264933 0.74900001 0.010505973 1.5298861e-38 318 232
-0.0013132467 0.74900001 0.010505973 1.5298861e-38 319 232
0 0.74900001 0.010505973 1.5573657e-38 320 232
0.0013132467 0.74900001 0.010505973 1.575805e-38 321 232
0.00263 0.75 0.01052 1.5757712e-38 322 232
0.003945 0.75 0.01052 1.5481485e-38 323 232
0.00526 0.75 0.01052 1.5113441e-38 324 232
0.0065925326 0.75199997 0.010548052 1.5482222e-38 325 232
0.00793208 0.75400001 0.010576107 1.5207065e-38 326 232
0.0092540924 0.75400001 0.010576107 1.4930479e-38 327 232
0.010576107 0.75400001 0.010576107 1.52074e-38 328 232
0.01189812 0.75400001 0.010576107 1.5299595e-38 329 232
0.013220133 0.75400001 0.010576107 1.5576163e-38 330 232
0.014542146 0.75400001 0.010576107 1.5668358e-38 331 232
0.015822079 0.75199997 0.010548052 1.6681057e-38 332 232
0.017140586 0.75199997 0.010548052 1.6497027e-38 333 232
0.018459093 0.75199997 0.010548052 1.649631e-38 334 232
0.019830201 0.75400001 0.010576107 1.6219727e-38 335 232
0.021152213 0.75400001 0.010576107 1.6401246e-38 336 232
0.022474226 0.75400001 0.010576107 1.6032469e-38 337 232
0.02379624 0.75400001 0.010576107 1.6121793e-38 338 232
0.025118252 0.75400001 0.010576107 1.6029599e-38 339 232
0.026440267 0.75400001 0.010576107 1.6120358e-38 340 232
0.027762281 0.75400001 0.010576107 1.6028164e-38 341 232
0.029122867 0.755 0.010590133 1.5661181e-38 342 232
0.030446632 0.755 0.010590133 1.5661181e-38 343 232
0.031770397 0.755 0.010590133 1.5385674e-38 344 232
0.033181835 0.75700003 0.010618187 1.5385674e-38 345 232
0.034691449 0.76099998 0.010674292 1.511018e-38 346 232
0.036025736 0.76099998 0.010674292 1.511018e-38 347 232
0.037409119 0.76200002 0.01068832 1.4651387e-38 348 232
0.038846854 0.764 0.010716373 1.4743582e-38 349 232
0.040186398 0.764 0.010716373 1.4468135e-38 350 232
-0.040554602 0.77100003 0.0094627403 1.7422785e-38 290 233
-0.039101087 0.76899999 0.0094381925 1.6962166e-38 291 233
-0.037654586 0.76700002 0.0094136465 1.5672086e-38 292 233
-0.036262438 0.76599997 0.0094013726 1.5118912e-38 293 233
-0.034828212 0.764 0.0093768267 1.5395419e-38 294 233
-0.033401001 0.76200002 0.0093522798 1.5211028e-38 295 233
-0.032064959 0.76200002 0.0093522798 1.5211716e-38 296 233
-0.030688593 0.76099998 0.0093400059 1.5395747e-38 297 233
-0.029277159 0.759 0.00931546 1.5580847e-38 298 233
-0.027872739 0.75700003 0.0092909131 1.576524e-38 299 233
-0.026475333 0.755 0.0092663663 1.5766306e-38 300 233
-0.025118252 0.75400001 0.0092540924 1.585886e-38 301 233
-0.02379624 0.75400001 0.0092540924 1.6317312e-38 302 233
-0.022474226 0.75400001 0.0092540924 1.6225116e-38 303 233
-0.021152213 0.75400001 0.0092540924 1.640842e-38 304 233
-0.0197776 0.75199997 0.0092295464 1.640842e-38 305 233
-0.018459093 0.75199997 0.0092295464 1.6407703e-38 306 233
-0.017140586 0.75199997 0.0092295464 1.631515e-38 307 233
-0.01578 0.75 0.0092049995 1.640555e-38 308 233
-0.014465 0.75 0.0092049995 1.640555e-38 309 233
-0.013132467 0.74900001 0.0091927266 1.6863652e-38 310 233
-0.01181922 0.74900001 0.0091927266 1.6863652e-38 311 233
-0.010505973 0.74900001 0.0091927266 1.7046964e-38 312 233
-0.0091927266 0.74900001 0.0091927266 1.6862934e-38 313 233
-0.00789 0.75 0.0092049995 1.677074e-38 314 233
-0.0065662335 0.74900001 0.0091927266 1.677074e-38 315 233
-0.0052529867 0.74900001 0.0091927266 1.6860782e-38 316 233
-0.0039397399 0.74900001 0.0091927266 1.658384e-38 317 233
-0.0026264933 0.74900001 0.0091927266 1.6124663e-38 318 233
-0.0013132467 0.74900001 0.0091927266 1.6032469e-38 319 233
0 0.74900001 0.0091927266 1.6033186e-38 320 233
0.0013132467 0.74900001 0.0091927266 1.6033186e-38 321 233
0.0026264933 0.74900001 0.0091927266 1.5941709e-38 322 233
0.0039397399 0.74900001 0.0091927266 1.5941709e-38 323 233
0.00526 0.75 0.0092049995 1.5666562e-38 324 233
0.006575 0.75 0.0092049995 1.5666562e-38 325 233
0.00789 0.75 0.0092049995 1.557365e-38 326 233
0.0092295464 0.75199997 0.0092295464 1.5849874e-38 327 233
0.010548052 0.75199997 0.0092295464 1.5666207e-38 328 233
0.011866559 0.75199997 0.0092295464 1.5758403e-38 329 233
0.01315 0.75 0.0092049995 1.5943516e-38 330 233
0.014465 0.75 0.0092049995 1.6496689e-38 331 233
0.01578 0.75 0.0092049995 1.6405195e-38 332 233
0.017095 0.75 0.0092049995 1.6128968e-38 333 233
0.018409999 0.75 0.0092049995 1.6495592e-38 334 233
0.0197776 0.75199997 0.0092295464 1.6311204e-38 335 233
0.021096105 0.75199997 0.0092295464 1.6309769e-38 336 233
0.022414612 0.75199997 0.0092295464 1.5940992e-38 337 233
0.02379624 0.75400001 0.0092540924 1.6121434e-38 338 233
0.025118252 0.75400001 0.0092540924 1.5844493e-38 339 233
0.026440267 0.75400001 0.0092540924 1.5843058e-38 340 233
0.027762281 0.75400001 0.0092540924 1.5750864e-38 341 233
0.029122867 0.755 0.0092663663 1.5476439e-38 342 233
0.030446632 0.755 0.0092663663 1.5568635e-38 343 233
0.031770397 0.755 0.0092663663 1.511018e-38 344 233
0.033181835 0.75700003 0.0092909131 1.5017985e-38 345 233
0.034691449 0.76099998 0.0093400059 1.5017276e-38 346 233
0.036025736 0.76099998 0.0093400059 1.5017276e-38 347 233
0.037409119 0.76200002 0.0093522798 1.4743235e-38 348 233
0.038846854 0.764 0.0093768267 1.4835431e-38 349 233
0.040186398 0.764 0.0093768267 1.4559977e-38 350 233
-0.040554602 0.77100003 0.0081109209 1.7331308e-38 290 234
-0.039101087 0.76899999 0.0080898795 1.6778135e-38 291 234
-0.037654586 0.76700002 0.00806884 1.5487338e-38 292 234
-0.036262438 0.76599997 0.0080583189 1.5026719e-38 293 234
-0.034828212 0.764 0.0080372803 1.5395789e-38 294 234
-0.033401001 0.76200002 0.0080162399 1.5027365e-38 295 234
-0.032064959 0.76200002 0.0080162399 1.5395394e-38 296 234
-0.030688593 0.76099998 0.0080057196 1.5395394e-38 297 234
-0.029277159 0.759 0.0079846792 1.5488649e-38 298 234
-0.027872739 0.75700003 0.0079636406 1.5580844e-38 299 234
-0.026475333 0.755 0.0079425992 1.5858142e-38 300 234
-0.025118252 0.75400001 0.00793208 1.5858142e-38 301 234
-0.02379624 0.75400001 0.00793208 1.6225119e-38 302 234
-0.022474226 0.75400001 0.00793208 1.6317315e-38 303 234
-0.021096105 0.75199997 0.0079110395 1.6317302e-38 304 234
-0.0197776 0.75199997 0.0079110395 1.6224749e-38 305 234
-0.018409999 0.75 0.00789 1.6225467e-38 306 234
-0.017095 0.75 0.00789 1.604072e-38 307 234
-0.01578 0.75 0.00789 1.6315867e-38 308 234
-0.014445714 0.74900001 0.0078794798 1.6500256e-38 309 234
-0.013132467 0.74900001 0.0078794798 1.7509729e-38 310 234
-0.01181922 0.74900001 0.0078794798 1.7325699e-38 311 234
