# .PCD v.7 - Point Cloud Data file format
FIELDS x y z rgb imX imY
SIZE 4 4 4 4 4 4
TYPE F F F F F F
COUNT 1 1 1 1 1 1
WIDTH 841
HEIGHT 1
VIEWPOINT 0 0 0 1 0 0 0
POINTS 841
DATA ascii
-0.0038292799 0.72799999 -0.0076585598 1.2346575e-38 317 246
-0.0025528532 0.72799999 -0.0076585598 1.2437323e-38 318 246
-0.0012764266 0.72799999 -0.0076585598 1.20689e-38 319 246
0 0.72799999 -0.0076585598 1.2344393e-38 320 246
0.0012764266 0.72799999 -0.0076585598 1.2067446e-38 321 246
0.0025528532 0.72799999 -0.0076585598 1.2801754e-38 322 246
0.0038292799 0.72799999 -0.0076585598 1.2709558e-38 323 246
0.0051057064 0.72799999 -0.0076585598 1.2801032e-38 324 246
0.0063821329 0.72799999 -0.0076585598 1.2708837e-38 325 246
0.0076585598 0.72799999 -0.0076585598 1.2892505e-38 326 246
0.0089349858 0.72799999 -0.0076585598 1.2892505e-38 327 246
0.010211413 0.72799999 -0.0076585598 1.270882e-38 328 246
0.01148784 0.72799999 -0.0076585598 1.270882e-38 329 246
0.012764266 0.72799999 -0.0076585598 1.270953e-38 330 246
0.014040692 0.72799999 -0.0076585598 1.289356e-38 331 246
0.01531712 0.72799999 -0.0076585598 1.2710248e-38 332 246
0.016593546 0.72799999 -0.0076585598 1.2710248e-38 333 246
0.017869972 0.72799999 -0.0076585598 1.2709893e-38 334 246
0.019199001 0.73000002 -0.0076795998 1.2709893e-38 335 246
0.020478934 0.73000002 -0.0076795998 1.2434398e-38 336 246
0.021758866 0.73000002 -0.0076795998 1.2618789e-38 337 246
0.023038799 0.73000002 -0.0076795998 1.243549e-38 338 246
0.024252106 0.72799999 -0.0076585598 1.243549e-38 339 246
0.025528532 0.72799999 -0.0076585598 1.2068881e-38 340 246
0.026804959 0.72799999 -0.0076585598 1.2252913e-38 341 246
0.028081384 0.72799999 -0.0076585598 1.2162168e-38 342 246
0.029317487 0.727 -0.0076480396 1.2254363e-38 343 246
0.030592158 0.727 -0.0076480396 1.2438404e-38 344 246
0.031691495 0.72299999 -0.0076059597 1.2991578e-38 345 246
0.032959159 0.72299999 -0.0076059597 1.2807927e-38 346 246
-0.010197386 0.727 -0.0089227129 1.3636258e-38 312 247
-0.0089227129 0.727 -0.0089227129 1.3636258e-38 313 247
-0.0076480396 0.727 -0.0089227129 1.3543324e-38 314 247
-0.0063821329 0.72799999 -0.0089349858 1.3082344e-38 315 247
-0.0051057064 0.72799999 -0.0089349858 1.2989059e-38 316 247
-0.0038292799 0.72799999 -0.0089349858 1.2619916e-38 317 247
-0.0025528532 0.72799999 -0.0089349858 1.2803218e-38 318 247
-0.0012746733 0.727 -0.0089227129 1.2619187e-38 319 247
0 0.727 -0.0089227129 1.2618789e-38 320 247
0.0012764266 0.72799999 -0.0089349858 1.2157811e-38 321 247
0.0025528532 0.72799999 -0.0089349858 1.2617695e-38 322 247
0.0038292799 0.72799999 -0.0089349858 1.2709889e-38 323 247
0.0051057064 0.72799999 -0.0089349858 1.2710248e-38 324 247
0.0063821329 0.72799999 -0.0089349858 1.2710248e-38 325 247
0.0076585598 0.72799999 -0.0089349858 1.2985396e-38 326 247
0.0089349858 0.72799999 -0.0089349858 1.2893201e-38 327 247
0.010211413 0.72799999 -0.0089349858 1.2894278e-38 328 247
0.01148784 0.72799999 -0.0089349858 1.2709889e-38 329 247
0.012764266 0.72799999 -0.0089349858 1.2986472e-38 330 247
0.014040692 0.72799999 -0.0089349858 1.2894278e-38 331 247
0.01531712 0.72799999 -0.0089349858 1.2710965e-38 332 247
0.016593546 0.72799999 -0.0089349858 1.2710965e-38 333 247
0.017869972 0.72799999 -0.0089349858 1.2434741e-38 334 247
0.019199001 0.73000002 -0.0089595336 1.2526936e-38 335 247
0.020478934 0.73000002 -0.0089595336 1.2434751e-38 336 247
0.021758866 0.73000002 -0.0089595336 1.2434751e-38 337 247
0.022975679 0.72799999 -0.0089349858 1.2251449e-38 338 247
0.024218792 0.727 -0.0089227129 1.2251449e-38 339 247
0.025493465 0.727 -0.0089227129 1.2343297e-38 340 247
0.026768139 0.727 -0.0089227129 1.2435493e-38 341 247
0.028042812 0.727 -0.0089227129 1.2252196e-38 342 247
0.029236834 0.72500002 -0.0088981669 1.2344393e-38 343 247
0.030508002 0.72500002 -0.0088981669 1.2436251e-38 344 247
0.031691495 0.72299999 -0.0088736191 1.2621001e-38 345 247
0.032959159 0.72299999 -0.0088736191 1.2805777e-38 346 247
0.034321502 0.72500002 -0.0088981669 1.2990168e-38 347 247
0.035592668 0.72500002 -0.0088981669 1.3636637e-38 348 247
-0.012816866 0.73100001 -0.010253493 1.4005768e-38 310 248
-0.011519399 0.73000002 -0.010239467 1.3636987e-38 311 248
-0.010239467 0.73000002 -0.010239467 1.3542977e-38 312 248
-0.0089349858 0.72799999 -0.010211413 1.3358227e-38 313 248
-0.0076585598 0.72799999 -0.010211413 1.3447519e-38 314 248
-0.0063821329 0.72799999 -0.010211413 1.2894345e-38 315 248
-0.0051057064 0.72799999 -0.010211413 1.2895399e-38 316 248
-0.0038240198 0.727 -0.010197386 1.2711006e-38 317 248
-0.0025493465 0.727 -0.010197386 1.2710985e-38 318 248
-0.0012746733 0.727 -0.010197386 1.2618789e-38 319 248
0 0.727 -0.010197386 1.2802442e-38 320 248
0.0012746733 0.727 -0.010197386 1.2618054e-38 321 248
0.0025528532 0.72799999 -0.010211413 1.2709889e-38 322 248
0.0038292799 0.72799999 -0.010211413 1.2617695e-38 323 248
0.0051057064 0.72799999 -0.010211413 1.2709889e-38 324 248
0.0063996664 0.73000002 -0.010239467 1.2986472e-38 325 248
0.0076795998 0.73000002 -0.010239467 1.2986472e-38 326 248
0.0089595336 0.73000002 -0.010239467 1.2986472e-38 327 248
0.010211413 0.72799999 -0.010211413 1.2986831e-38 328 248
0.01148784 0.72799999 -0.010211413 1.2986831e-38 329 248
0.012799333 0.73000002 -0.010239467 1.2895713e-38 330 248
0.014040692 0.72799999 -0.010211413 1.2895713e-38 331 248
0.01531712 0.72799999 -0.010211413 1.2711683e-38 332 248
0.016593546 0.72799999 -0.010211413 1.2435459e-38 333 248
0.017869972 0.72799999 -0.010211413 1.2527653e-38 334 248
0.0191464 0.72799999 -0.010211413 1.2342906e-38 335 248
0.020422826 0.72799999 -0.010211413 1.2342906e-38 336 248
0.021699252 0.72799999 -0.010211413 1.2342906e-38 337 248
0.022975679 0.72799999 -0.010211413 1.24351e-38 338 248
0.024218792 0.727 -0.010197386 1.24351e-38 339 248
0.025493465 0.727 -0.010197386 1.2342906e-38 340 248
0.026768139 0.727 -0.010197386 1.2435459e-38 341 248
0.027965667 0.72500002 -0.010169334 1.2434748e-38 342 248
0.029156178 0.72299999 -0.01014128 1.2434748e-38 343 248
0.030423839 0.72299999 -0.01014128 1.2342578e-38 344 248
0.031691495 0.72299999 -0.01014128 1.2711e-38 345 248
0.032959159 0.72299999 -0.01014128 1.2709949e-38 346 248
0.03422682 0.72299999 -0.01014128 1.2894342e-38 347 248
0.035494477 0.72299999 -0.01014128 1.2437349e-38 348 248
0.036762137 0.72299999 -0.01014128 1.3174914e-38 349 248
-0.014079267 0.73000002 -0.011519399 1.4005415e-38 309 249
-0.012799333 0.73000002 -0.011519399 1.3821005e-38 310 249
-0.011519399 0.73000002 -0.011519399 1.3175636e-38 311 249
-0.010239467 0.73000002 -0.011519399 1.3357484e-38 312 249
-0.0089349858 0.72799999 -0.01148784 1.2989061e-38 313 249
-0.0076585598 0.72799999 -0.01148784 1.3263102e-38 314 249
-0.0063733663 0.727 -0.01147206 1.3078711e-38 315 249
-0.0050986931 0.727 -0.01147206 1.2803181e-38 316 249
-0.0038240198 0.727 -0.01147206 1.2618789e-38 317 249
-0.0025423334 0.72500002 -0.0114405 1.280316e-38 318 249
-0.0012711667 0.72500002 -0.0114405 1.280316e-38 319 249
0 0.72500002 -0.0114405 1.280316e-38 320 249
0.0012711667 0.72500002 -0.0114405 1.2710965e-38 321 249
0.0025493465 0.727 -0.01147206 1.2526577e-38 322 249
0.0038292799 0.72799999 -0.01148784 1.2618771e-38 323 249
0.0051057064 0.72799999 -0.01148784 1.2617695e-38 324 249
0.0063821329 0.72799999 -0.01148784 1.2709889e-38 325 249
0.0076585598 0.72799999 -0.01148784 1.2618771e-38 326 249
0.0089595336 0.73000002 -0.011519399 1.2710965e-38 327 249
0.010211413 0.72799999 -0.01148784 1.280316e-38 328 249
0.01148784 0.72799999 -0.01148784 1.280316e-38 329 249
0.012764266 0.72799999 -0.01148784 1.2895354e-38 330 249
0.014040692 0.72799999 -0.01148784 1.280316e-38 331 249
0.01531712 0.72799999 -0.01148784 1.2710965e-38 332 249
0.016593546 0.72799999 -0.01148784 1.2710965e-38 333 249
0.017869972 0.72799999 -0.01148784 1.2435459e-38 334 249
0.0191464 0.72799999 -0.01148784 1.2527653e-38 335 249
0.020422826 0.72799999 -0.01148784 1.2435459e-38 336 249
0.021699252 0.72799999 -0.01148784 1.2435459e-38 337 249
0.022944121 0.727 -0.01147206 1.2343623e-38 338 249
0.024152167 0.72500002 -0.0114405 1.2343623e-38 339 249
0.025423333 0.72500002 -0.0114405 1.2343265e-38 340 249
0.026694499 0.72500002 -0.0114405 1.2343265e-38 341 249
0.02788852 0.72299999 -0.01140894 1.2342906e-38 342 249
0.029156178 0.72299999 -0.01140894 1.2342906e-38 343 249
0.030423839 0.72299999 -0.01140894 1.2158533e-38 344 249
0.031647664 0.722 -0.01139316 1.225073e-38 345 249
0.032913569 0.722 -0.01139316 1.2342225e-38 346 249
0.034179479 0.722 -0.01139316 1.2711006e-38 347 249
0.035445385 0.722 -0.01139316 1.2619197e-38 348 249
0.03671129 0.722 -0.01139316 1.3080174e-38 349 249
-0.0153592 0.73000002 -0.012799333 1.4004696e-38 308 250
-0.014079267 0.73000002 -0.012799333 1.372775e-38 309 250
-0.012799333 0.73000002 -0.012799333 1.345185e-38 310 250
-0.01148784 0.72799999 -0.012764266 1.2714285e-38 311 250
-0.010211413 0.72799999 -0.012764266 1.3080865e-38 312 250
-0.0088981669 0.72500002 -0.012711667 1.2896115e-38 313 250
-0.0076270006 0.72500002 -0.012711667 1.2896806e-38 314 250
-0.0063558333 0.72500002 -0.012711667 1.2619859e-38 315 250
-0.0050846669 0.72500002 -0.012711667 1.27124e-38 316 250
-0.0038029798 0.72299999 -0.012676599 1.2620206e-38 317 250
-0.0025353199 0.72299999 -0.012676599 1.2803877e-38 318 250
-0.0012676599 0.72299999 -0.012676599 1.2803877e-38 319 250
0 0.72299999 -0.012676599 1.2804236e-38 320 250
0.0012676599 0.72299999 -0.012676599 1.2712042e-38 321 250
0.0025423334 0.72500002 -0.012711667 1.2343623e-38 322 250
0.0038029798 0.72299999 -0.012676599 1.2159594e-38 323 250
0.0050706398 0.72299999 -0.012676599 1.2250353e-38 324 250
0.0063733663 0.727 -0.012746733 1.2250353e-38 325 250
0.0076585598 0.72799999 -0.012764266 1.2159235e-38 326 250
0.0089349858 0.72799999 -0.012764266 1.2343265e-38 327 250
0.010211413 0.72799999 -0.012764266 1.2435818e-38 328 250
0.01148784 0.72799999 -0.012764266 1.2435818e-38 329 250
0.012764266 0.72799999 -0.012764266 1.2527653e-38 330 250
0.014040692 0.72799999 -0.012764266 1.2435459e-38 331 250
0.015296079 0.727 -0.012746733 1.2434741e-38 332 250
0.016570752 0.727 -0.012746733 1.2434741e-38 333 250
0.017845426 0.727 -0.012746733 1.2343623e-38 334 250
0.0191464 0.72799999 -0.012764266 1.2435818e-38 335 250
0.020394772 0.727 -0.012746733 1.2343623e-38 336 250
0.021669446 0.727 -0.012746733 1.2343623e-38 337 250
0.022944121 0.727 -0.012746733 1.2343623e-38 338 250
0.024152167 0.72500002 -0.012711667 1.2159594e-38 339 250
0.025353199 0.72299999 -0.012676599 1.2160311e-38 340 250
0.026620859 0.72299999 -0.012676599 1.2160311e-38 341 250
0.02788852 0.72299999 -0.012676599 1.2435459e-38 342 250
0.029115854 0.722 -0.012659066 1.2342906e-38 343 250
0.030381758 0.722 -0.012659066 1.2433665e-38 344 250
0.031647664 0.722 -0.012659066 1.2525859e-38 345 250
0.0328224 0.72000003 -0.012624 1.2524439e-38 346 250
0.034084801 0.72000003 -0.012624 1.2801386e-38 347 250
0.035347197 0.72000003 -0.012624 1.2618101e-38 348 250
0.03671129 0.722 -0.012659066 1.2710297e-38 349 250
0.0379772 0.722 -0.012659066 1.1885969e-38 350 250
-0.014079267 0.73000002 -0.014079267 1.2899775e-38 309 251
-0.012764266 0.72799999 -0.014040692 1.326492e-38 310 251
-0.01148784 0.72799999 -0.014040692 1.2803942e-38 311 251
-0.010197386 0.727 -0.014021406 1.3079412e-38 312 251
-0.0088981669 0.72500002 -0.013982833 1.3079412e-38 313 251
-0.0076270006 0.72500002 -0.013982833 1.2711688e-38 314 251
-0.0063558333 0.72500002 -0.013982833 1.2619493e-38 315 251
-0.0050846669 0.72500002 -0.013982833 1.2620565e-38 316 251
-0.0038029798 0.72299999 -0.01394426 1.2712759e-38 317 251
-0.0025353199 0.72299999 -0.01394426 1.2803877e-38 318 251
-0.0012676599 0.72299999 -0.01394426 1.2803877e-38 319 251
0 0.72299999 -0.01394426 1.2895354e-38 320 251
0.0012676599 0.72299999 -0.01394426 1.2710965e-38 321 251
0.0025353199 0.72299999 -0.01394426 1.24351e-38 322 251
0.0038029798 0.72299999 -0.01394426 1.2342906e-38 323 251
0.0050706398 0.72299999 -0.01394426 1.2158159e-38 324 251
0.0063733663 0.727 -0.014021406 1.2158159e-38 325 251
0.0076480396 0.727 -0.014021406 1.2158159e-38 326 251
0.0089349858 0.72799999 -0.014040692 1.2250353e-38 327 251
0.010211413 0.72799999 -0.014040692 1.2342906e-38 328 251
0.01148784 0.72799999 -0.014040692 1.2342906e-38 329 251
0.012764266 0.72799999 -0.014040692 1.2250353e-38 330 251
0.014021406 0.727 -0.014021406 1.2158159e-38 331 251
0.015296079 0.727 -0.014021406 1.2157083e-38 332 251
0.016570752 0.727 -0.014021406 1.2433306e-38 333 251
0.017796334 0.72500002 -0.013982833 1.2159235e-38 334 251
0.0190675 0.72500002 -0.013982833 1.2343265e-38 335 251
0.020338668 0.72500002 -0.013982833 1.2342906e-38 336 251
0.021609833 0.72500002 -0.013982833 1.24351e-38 337 251
0.022880999 0.72500002 -0.013982833 1.2160311e-38 338 251
0.024085538 0.72299999 -0.01394426 1.2160311e-38 339 251
0.025353199 0.72299999 -0.01394426 1.2343623e-38 340 251
0.026584039 0.722 -0.013924973 1.2343623e-38 341 251
0.027849946 0.722 -0.013924973 1.2342906e-38 342 251
0.029035201 0.72000003 -0.0138864 1.2342906e-38 343 251
0.0302976 0.72000003 -0.0138864 1.2432948e-38 344 251
0.03156 0.72000003 -0.0138864 1.2340754e-38 345 251
0.032776814 0.71899998 -0.013867113 1.2615543e-38 346 251
0.03403746 0.71899998 -0.013867113 1.2799934e-38 347 251
0.035298105 0.71899998 -0.013867113 1.2616287e-38 348 251
0.036558751 0.71899998 -0.013867113 1.2800679e-38 349 251
0.037819397 0.71899998 -0.013867113 1.2158943e-38 350 251
-0.014040692 0.72799999 -0.01531712 1.2806125e-38 309 252
-0.012764266 0.72799999 -0.01531712 1.3170907e-38 310 252
-0.01147206 0.727 -0.015296079 1.2986515e-38 311 252
-0.010169334 0.72500002 -0.015254001 1.2986846e-38 312 252
-0.0088981669 0.72500002 -0.015254001 1.289465e-38 313 252
-0.0076059597 0.72299999 -0.015211919 1.2711324e-38 314 252
-0.0063382997 0.72299999 -0.015211919 1.2803518e-38 315 252
-0.0050706398 0.72299999 -0.015211919 1.2528371e-38 316 252
-0.0038029798 0.72299999 -0.015211919 1.2620565e-38 317 252
-0.0025353199 0.72299999 -0.015211919 1.2528729e-38 318 252
-0.0012659066 0.722 -0.015190879 1.23447e-38 319 252
0 0.722 -0.015190879 1.2435459e-38 320 252
0.0012659066 0.722 -0.015190879 1.2343265e-38 321 252
0.0025353199 0.72299999 -0.015211919 1.2067758e-38 322 252
0.0038029798 0.72299999 -0.015211919 1.1883011e-38 323 252
0.0050706398 0.72299999 -0.015211919 1.1606787e-38 324 252
0.0063382997 0.72299999 -0.015211919 1.1606787e-38 325 252
0.0076480396 0.727 -0.015296079 1.1513875e-38 326 252
0.0089227129 0.727 -0.015296079 1.160607e-38 327 252
0.010197386 0.727 -0.015296079 1.1698623e-38 328 252
0.01147206 0.727 -0.015296079 1.1698623e-38 329 252
0.012746733 0.727 -0.015296079 1.1790099e-38 330 252
0.014021406 0.727 -0.015296079 1.1605711e-38 331 252
0.015296079 0.727 -0.015296079 1.123801e-38 332 252
0.016525166 0.72500002 -0.015254001 1.1514593e-38 333 252
0.017796334 0.72500002 -0.015254001 1.1331643e-38 334 252
0.0190675 0.72500002 -0.015254001 1.1516035e-38 335 252
0.020282559 0.72299999 -0.015211919 1.1791534e-38 336 252
0.021550218 0.72299999 -0.015211919 1.1976281e-38 337 252
0.02281788 0.72299999 -0.015211919 1.2159952e-38 338 252
0.024052227 0.722 -0.015190879 1.2159952e-38 339 252
0.025318133 0.722 -0.015190879 1.2343623e-38 340 252
0.026510401 0.72000003 -0.0151488 1.2159594e-38 341 252
0.027772799 0.72000003 -0.0151488 1.2342906e-38 342 252
0.029035201 0.72000003 -0.0151488 1.2250712e-38 343 252
0.0302976 0.72000003 -0.0151488 1.2433306e-38 344 252
0.031516165 0.71899998 -0.01512776 1.2340754e-38 345 252
0.032776814 0.71899998 -0.01512776 1.252299e-38 346 252
0.033942781 0.71700001 -0.015085679 1.2707378e-38 347 252
0.035199918 0.71700001 -0.015085679 1.2431539e-38 348 252
0.036457058 0.71700001 -0.015085679 1.2523735e-38 349 252
0.037819397 0.71899998 -0.01512776 1.2249694e-38 350 252
0.039080046 0.71899998 -0.01512776 1.234189e-38 351 252
0.040340692 0.71899998 -0.01512776 1.160868e-38 352 252
-0.015296079 0.727 -0.016570752 1.2620995e-38 308 253
-0.014021406 0.727 -0.016570752 1.2620995e-38 309 253
-0.012746733 0.727 -0.016570752 1.2896102e-38 310 253
-0.0114405 0.72500002 -0.016525166 1.2803905e-38 311 253
-0.010169334 0.72500002 -0.016525166 1.3078672e-38 312 253
-0.0088736191 0.72299999 -0.01647958 1.2894282e-38 313 253
-0.0076059597 0.72299999 -0.01647958 1.2527294e-38 314 253
-0.0063382997 0.72299999 -0.01647958 1.2527294e-38 315 253
-0.0050706398 0.72299999 -0.01647958 1.2711683e-38 316 253
-0.0038029798 0.72299999 -0.01647958 1.2711683e-38 317 253
-0.0025318132 0.722 -0.016456785 1.2435818e-38 318 253
-0.0012659066 0.722 -0.016456785 1.2343623e-38 319 253
0 0.722 -0.016456785 1.2158876e-38 320 253
0.0012659066 0.722 -0.016456785 1.1974488e-38 321 253
0.0025318132 0.722 -0.016456785 1.1790099e-38 322 253
0.0037977197 0.722 -0.016456785 1.1697546e-38 323 253
0.0050636264 0.722 -0.016456785 1.1605352e-38 324 253
0.0063382997 0.72299999 -0.01647958 1.1329128e-38 325 253
0.0076270006 0.72500002 -0.016525166 1.1236575e-38 326 253
0.0089227129 0.727 -0.016570752 1.1236575e-38 327 253
0.010197386 0.727 -0.016570752 1.1052187e-38 328 253
0.01147206 0.727 -0.016570752 1.0775604e-38 329 253
0.012746733 0.727 -0.016570752 1.0684127e-38 330 253
0.014021406 0.727 -0.016570752 1.0684127e-38 331 253
0.015254001 0.72500002 -0.016525166 1.1051828e-38 332 253
0.016525166 0.72500002 -0.016525166 1.1236216e-38 333 253
0.017747238 0.72299999 -0.01647958 1.1236575e-38 334 253
0.019014901 0.72299999 -0.01647958 1.1420964e-38 335 253
0.020254506 0.722 -0.016456785 1.1606428e-38 336 253
0.021460801 0.72000003 -0.0164112 1.1975205e-38 337 253
0.022723202 0.72000003 -0.0164112 1.2159235e-38 338 253
0.023952285 0.71899998 -0.016388407 1.2343265e-38 339 253
0.025212931 0.71899998 -0.016388407 1.2159235e-38 340 253
0.02647358 0.71899998 -0.016388407 1.2159235e-38 341 253
0.027734226 0.71899998 -0.016388407 1.2526218e-38 342 253
0.028914221 0.71700001 -0.016342819 1.2434024e-38 343 253
0.030171359 0.71700001 -0.016342819 1.2340754e-38 344 253
0.031428497 0.71700001 -0.016342819 1.2248559e-38 345 253
0.032685637 0.71700001 -0.016342819 1.252299e-38 346 253
0.033942781 0.71700001 -0.016342819 1.2430795e-38 347 253
0.035199918 0.71700001 -0.016342819 1.2339684e-38 348 253
0.036457058 0.71700001 -0.016342819 1.243188e-38 349 253
0.037714198 0.71700001 -0.016342819 1.2064918e-38 350 253
0.038971342 0.71700001 -0.016342819 1.2157113e-38 351 253
0.040228479 0.71700001 -0.016342819 1.1698335e-38 352 253
0.041485619 0.71700001 -0.016342819 1.24359e-38 353 253
0.042742759 0.71700001 -0.016342819 1.2989832e-38 354 253
-0.017845426 0.727 -0.017845426 1.3360749e-38 306 254
-0.015254001 0.72500002 -0.017796334 1.2621704e-38 308 254
-0.013982833 0.72500002 -0.017796334 1.2621704e-38 309 254
-0.012676599 0.72299999 -0.017747238 1.2897174e-38 310 254
-0.01140894 0.72299999 -0.017747238 1.2436196e-38 311 254
-0.01014128 0.72299999 -0.017747238 1.2894638e-38 312 254
-0.0088613462 0.722 -0.017722692 1.2710248e-38 313 254
-0.0075954394 0.722 -0.017722692 1.2526936e-38 314 254
-0.0063295332 0.722 -0.017722692 1.2434741e-38 315 254
-0.0050636264 0.722 -0.017722692 1.2343623e-38 316 254
-0.0037977197 0.722 -0.017722692 1.2435818e-38 317 254
-0.0025318132 0.722 -0.017722692 1.2159952e-38 318 254
-0.0012659066 0.722 -0.017722692 1.2067399e-38 319 254
0 0.722 -0.017722692 1.1606787e-38 320 254
0.0012659066 0.722 -0.017722692 1.1514593e-38 321 254
0.0025318132 0.722 -0.017722692 1.1238728e-38 322 254
0.0037977197 0.722 -0.017722692 1.1054339e-38 323 254
0.0050636264 0.722 -0.017722692 1.0868516e-38 324 254
0.0063382997 0.72299999 -0.017747238 1.0592292e-38 325 254
0.0076270006 0.72500002 -0.017796334 1.0407905e-38 326 254
0.0089227129 0.727 -0.017845426 1.0131679e-38 327 254
0.010197386 0.727 -0.017845426 1.0131679e-38 328 254
0.01147206 0.727 -0.017845426 9.9472909e-39 329 254
0.012746733 0.727 -0.017845426 9.6717844e-39 330 254
0.014021406 0.727 -0.017845426 9.6717844e-39 331 254
0.015254001 0.72500002 -0.017796334 9.8561729e-39 332 254
0.01647958 0.72299999 -0.017747238 1.0040203e-38 333 254
0.017747238 0.72299999 -0.017747238 9.8568903e-39 334 254
0.0189886 0.722 -0.017722692 1.0317861e-38 335 254
0.020254506 0.722 -0.017722692 1.1055059e-38 336 254
0.021460801 0.72000003 -0.017673599 1.1516038e-38 337 254
0.022691639 0.71899998 -0.017649053 1.1792252e-38 338 254
0.023952285 0.71899998 -0.017649053 1.1700057e-38 339 254
0.0251428 0.71700001 -0.017599959 1.2067399e-38 340 254
0.02639994 0.71700001 -0.017599959 1.1975205e-38 341 254
0.027657079 0.71700001 -0.017599959 1.2250353e-38 342 254
0.028873893 0.71600002 -0.017575413 1.2158159e-38 343 254
0.03012928 0.71600002 -0.017575413 1.2340754e-38 344 254
0.031384666 0.71600002 -0.017575413 1.2248559e-38 345 254
0.032640055 0.71600002 -0.017575413 1.2523348e-38 346 254
0.033800758 0.71399999 -0.017526319 1.2523348e-38 347 254
0.035052639 0.71399999 -0.017526319 1.2340036e-38 348 254
0.036406212 0.71600002 -0.017575413 1.243223e-38 349 254
0.037661601 0.71600002 -0.017575413 1.224823e-38 350 254
0.038916986 0.71600002 -0.017575413 1.224823e-38 351 254
0.040172372 0.71600002 -0.017575413 1.1696167e-38 352 254
0.041427758 0.71600002 -0.017575413 1.188056e-38 353 254
0.042742759 0.71700001 -0.017599959 1.2067859e-38 354 254
0.043999899 0.71700001 -0.017599959 1.3635185e-38 355 254
-0.019120099 0.727 -0.019120099 1.382067e-38 305 255
-0.017845426 0.727 -0.019120099 1.2621012e-38 306 255
-0.01647958 0.72299999 -0.019014901 1.1883445e-38 307 255
-0.015211919 0.72299999 -0.019014901 1.2345459e-38 308 255
-0.01394426 0.72299999 -0.019014901 1.2438013e-38 309 255
-0.012659066 0.722 -0.0189886 1.2804609e-38 310 255
-0.01139316 0.722 -0.0189886 1.2619859e-38 311 255
-0.010099201 0.72000003 -0.018935999 1.2710965e-38 312 255
-0.0088367993 0.72000003 -0.018935999 1.2526936e-38 313 255
-0.0075743999 0.72000003 -0.018935999 1.2342547e-38 314 255
-0.0063120001 0.72000003 -0.018935999 1.2434741e-38 315 255
-0.0050496003 0.72000003 -0.018935999 1.2343265e-38 316 255
-0.0037872 0.72000003 -0.018935999 1.2159235e-38 317 255
-0.0025248001 0.72000003 -0.018935999 1.2249994e-38 318 255
-0.0012624001 0.72000003 -0.018935999 1.1881576e-38 319 255
0 0.72000003 -0.018935999 1.1697546e-38 320 255
0.0012659066 0.722 -0.0189886 1.1420964e-38 321 255
0.0025318132 0.722 -0.0189886 1.1053622e-38 322 255
0.0037977197 0.722 -0.0189886 1.0869233e-38 323 255
0.0050636264 0.722 -0.0189886 1.0591216e-38 324 255
0.0063382997 0.72299999 -0.019014901 1.0222439e-38 325 255
0.0076059597 0.72299999 -0.019014901 9.7618263e-39 326 255
0.0088981669 0.72500002 -0.0190675 9.5774378e-39 327 255
0.010169334 0.72500002 -0.0190675 9.1161079e-39 328 255
0.0114405 0.72500002 -0.0190675 8.8395252e-39 329 255
0.012711667 0.72500002 -0.0190675 9.1135968e-39 330 255
0.013982833 0.72500002 -0.0190675 9.2061498e-39 331 255
0.015254001 0.72500002 -0.0190675 8.9327971e-39 332 255
0.01647958 0.72299999 -0.019014901 9.0249927e-39 333 255
0.017722692 0.722 -0.0189886 8.9338719e-39 334 255
0.0189886 0.722 -0.0189886 9.6714257e-39 335 255
0.020198401 0.72000003 -0.018935999 1.0595162e-38 336 255
0.021460801 0.72000003 -0.018935999 1.1055777e-38 337 255
0.022691639 0.71899998 -0.018909698 1.1699699e-38 338 255
0.02388566 0.71700001 -0.018857099 1.1791893e-38 339 255
0.025107734 0.71600002 -0.0188308 1.1791893e-38 340 255
0.026363119 0.71600002 -0.0188308 1.1791893e-38 341 255
0.027618507 0.71600002 -0.0188308 1.2067041e-38 342 255
0.028793238 0.71399999 -0.018778199 1.1974846e-38 343 255
0.030045118 0.71399999 -0.018778199 1.2157441e-38 344 255
0.031296998 0.71399999 -0.018778199 1.2157441e-38 345 255
0.032503292 0.713 -0.018751899 1.2340754e-38 346 255
0.033753417 0.713 -0.018751899 1.2340754e-38 347 255
0.035003547 0.713 -0.018751899 1.2248201e-38 348 255
0.036304519 0.71399999 -0.018778199 1.2340754e-38 349 255
0.037556399 0.71399999 -0.018778199 1.2156366e-38 350 255
0.038808275 0.71399999 -0.018778199 1.2156366e-38 351 255
0.040172372 0.71600002 -0.0188308 1.1879815e-38 352 255
0.041427758 0.71600002 -0.0188308 1.1695423e-38 353 255
0.042683143 0.71600002 -0.0188308 1.1422477e-38 354 255
0.043999899 0.71700001 -0.018857099 1.2897607e-38 355 255
0.045257039 0.71700001 -0.018857099 1.3267494e-38 356 255
-0.0190675 0.72500002 -0.020338668 1.3267847e-38 305 256
-0.017796334 0.72500002 -0.020338668 1.1791956e-38 306 256
-0.01647958 0.72299999 -0.020282559 1.1607925e-38 307 256
-0.015211919 0.72299999 -0.020282559 1.2437642e-38 308 256
-0.013924973 0.722 -0.020254506 1.2437642e-38 309 256
-0.012624 0.72000003 -0.020198401 1.2712407e-38 310 256
-0.011361601 0.72000003 -0.020198401 1.2528016e-38 311 256
-0.010085173 0.71899998 -0.020170346 1.2526936e-38 312 256
-0.0087999795 0.71700001 -0.020114239 1.2526936e-38 313 256
-0.0075428397 0.71700001 -0.020114239 1.2252147e-38 314 256
-0.0062857 0.71700001 -0.020114239 1.2159952e-38 315 256
-0.0050285598 0.71700001 -0.020114239 1.2159594e-38 316 256
-0.0037714199 0.71700001 -0.020114239 1.2067399e-38 317 256
-0.0025142799 0.71700001 -0.020114239 1.1974846e-38 318 256
-0.00125714 0.71700001 -0.020114239 1.1698623e-38 319 256
0 0.71899998 -0.020170346 1.1330563e-38 320 256
0.0012624001 0.72000003 -0.020198401 1.1146175e-38 321 256
0.0025318132 0.722 -0.020254506 1.0777756e-38 322 256
0.0037977197 0.722 -0.020254506 1.0501174e-38 323 256
0.0050636264 0.722 -0.020254506 1.0039485e-38 324 256
0.0063382997 0.72299999 -0.020282559 9.3944843e-39 325 256
0.0076059597 0.72299999 -0.020282559 9.1161079e-39 326 256
0.0088981669 0.72500002 -0.020338668 8.4707483e-39 327 256
0.010169334 0.72500002 -0.020338668 8.2856424e-39 328 256
0.0114405 0.72500002 -0.020338668 7.82503e-39 329 256
0.012711667 0.72500002 -0.020338668 7.9165068e-39 330 256
0.013982833 0.72500002 -0.020338668 8.1927307e-39 331 256
0.015254001 0.72500002 -0.020338668 7.7357056e-39 332 256
0.01647958 0.72299999 -0.020282559 7.7357056e-39 333 256
0.017722692 0.722 -0.020254506 8.3785541e-39 334 256
0.0189886 0.722 -0.020254506 9.3004964e-39 335 256
0.020170346 0.71899998 -0.020170346 1.0226745e-38 336 256
0.021371379 0.71700001 -0.020114239 1.0779917e-38 337 256
0.02262852 0.71700001 -0.020114239 1.1240524e-38 338 256
0.023852346 0.71600002 -0.020086186 1.133272e-38 339 256
0.025037598 0.71399999 -0.020030079 1.1516028e-38 340 256
0.026289478 0.71399999 -0.020030079 1.1516028e-38 341 256
0.027502786 0.713 -0.020002026 1.1974846e-38 342 256
0.028752912 0.713 -0.020002026 1.1882652e-38 343 256
0.029918881 0.71100003 -0.01994592 1.2158159e-38 344 256
0.031165501 0.71100003 -0.01994592 1.2158159e-38 345 256
0.032412119 0.71100003 -0.01994592 1.2433306e-38 346 256
0.033658739 0.71100003 -0.01994592 1.2340754e-38 347 256
0.034905359 0.71100003 -0.01994592 1.2340754e-38 348 256
0.036151983 0.71100003 -0.01994592 1.2340754e-38 349 256
0.037398599 0.71100003 -0.01994592 1.2156724e-38 350 256
0.038645219 0.71100003 -0.01994592 1.2156724e-38 351 256
0.040004052 0.713 -0.020002026 1.206348e-38 352 256
0.041427758 0.71600002 -0.020086186 1.206348e-38 353 256
0.042683143 0.71600002 -0.020086186 1.1420306e-38 354 256
0.043938532 0.71600002 -0.020086186 1.2157871e-38 355 256
0.045257039 0.71700001 -0.020114239 1.2623914e-38 356 256
0.046514176 0.71700001 -0.020114239 1.3453314e-38 357 256
-0.020282559 0.72299999 -0.021550218 1.3452226e-38 304 257
-0.019014901 0.72299999 -0.021550218 1.2622465e-38 305 257
-0.017747238 0.72299999 -0.021550218 1.1698317e-38 306 257
-0.016456785 0.722 -0.021520413 1.2159294e-38 307 257
-0.015190879 0.722 -0.021520413 1.2529113e-38 308 257
-0.0138864 0.72000003 -0.021460801 1.2529113e-38 309 257
-0.012606465 0.71899998 -0.021430992 1.280424e-38 310 257
-0.01131426 0.71700001 -0.021371379 1.2527294e-38 311 257
-0.010043093 0.71600002 -0.021341572 1.2435459e-38 312 257
-0.0087877065 0.71600002 -0.021341572 1.2527653e-38 313 257
-0.00753232 0.71600002 -0.021341572 1.2435459e-38 314 257
-0.0062769335 0.71600002 -0.021341572 1.2527653e-38 315 257
-0.0050075199 0.71399999 -0.021281958 1.2343985e-38 316 257
-0.0037556398 0.71399999 -0.021281958 1.2159235e-38 317 257
-0.0025107733 0.71600002 -0.021341572 1.2067399e-38 318 257
-0.00125714 0.71700001 -0.021371379 1.1882652e-38 319 257
0 0.71899998 -0.021430992 1.1698981e-38 320 257
0.0012606466 0.71899998 -0.021430992 1.142204e-38 321 257
0.0025248001 0.72000003 -0.021460801 1.0870309e-38 322 257
0.0037977197 0.722 -0.021520413 1.0593727e-38 323 257
0.0050636264 0.722 -0.021520413 1.0222439e-38 324 257
0.0063295332 0.722 -0.021520413 9.4848848e-39 325 257
0.0076059597 0.72299999 -0.021550218 8.7458961e-39 326 257
0.0088736191 0.72299999 -0.021550218 8.0083423e-39 327 257
0.010169334 0.72500002 -0.021609833 7.1793117e-39 328 257
0.0114405 0.72500002 -0.021609833 7.0871174e-39 329 257
0.012711667 0.72500002 -0.021609833 7.4541007e-39 330 257
0.013982833 0.72500002 -0.021609833 7.8225189e-39 331 257
0.015254001 0.72500002 -0.021609833 7.732477e-39 332 257
0.01647958 0.72299999 -0.021550218 7.6399241e-39 333 257
0.017747238 0.72299999 -0.021550218 8.3764017e-39 334 257
0.0189886 0.722 -0.021520413 9.4830912e-39 335 257
0.020170346 0.71899998 -0.021430992 1.022495e-38 336 257
0.021341572 0.71600002 -0.021341572 1.0870312e-38 337 257
0.022596961 0.71600002 -0.021341572 1.1148686e-38 338 257
0.02378572 0.71399999 -0.021281958 1.1333074e-38 339 257
0.025037598 0.71399999 -0.021281958 1.169934e-38 340 257
0.026252659 0.713 -0.021252153 1.1607146e-38 341 257
0.027425639 0.71100003 -0.021192541 1.1790458e-38 342 257
0.028672259 0.71100003 -0.021192541 1.1882652e-38 343 257
0.029918881 0.71100003 -0.021192541 1.1974846e-38 344 257
0.031165501 0.71100003 -0.021192541 1.2067041e-38 345 257
0.032366529 0.70999998 -0.021162732 1.2433306e-38 346 257
0.033611398 0.70999998 -0.021162732 1.2433306e-38 347 257
0.034856264 0.70999998 -0.021162732 1.2340754e-38 348 257
0.036101133 0.70999998 -0.021162732 1.2340754e-38 349 257
0.037398599 0.71100003 -0.021192541 1.21578e-38 350 257
0.038645219 0.71100003 -0.021192541 1.2065606e-38 351 257
0.039891839 0.71100003 -0.021192541 1.2156013e-38 352 257
0.041254178 0.713 -0.021252153 1.2063818e-38 353 257
0.042504307 0.713 -0.021252153 1.169472e-38 354 257
0.043938532 0.71600002 -0.021341572 1.1602523e-38 355 257
0.045193922 0.71600002 -0.021341572 1.1608683e-38 356 257
0.046449307 0.71600002 -0.021341572 1.3175649e-38 357 257
-0.020282559 0.72299999 -0.02281788 1.2990519e-38 304 258
-0.019014901 0.72299999 -0.02281788 1.169978e-38 305 258
-0.017747238 0.72299999 -0.02281788 1.1606823e-38 306 258
-0.016456785 0.722 -0.022786319 1.2159997e-38 307 258
-0.0151488 0.72000003 -0.022723202 1.2436915e-38 308 258
-0.013867113 0.71899998 -0.022691639 1.252911e-38 309 258
-0.012606465 0.71899998 -0.022691639 1.2711688e-38 310 258
-0.01131426 0.71700001 -0.02262852 1.2527297e-38 311 258
-0.010043093 0.71600002 -0.022596961 1.2527653e-38 312 258
-0.0087631596 0.71399999 -0.022533838 1.2527653e-38 313 258
-0.0075112795 0.71399999 -0.022533838 1.2344341e-38 314 258
-0.0062330998 0.71100003 -0.022439159 1.2528371e-38 315 258
-0.0049864799 0.71100003 -0.022439159 1.2527294e-38 316 258
-0.0037345996 0.70999998 -0.022407599 1.24351e-38 317 258
-0.0024897333 0.70999998 -0.022407599 1.2159594e-38 318 258
-0.00124662 0.71100003 -0.022439159 1.2067399e-38 319 258
0 0.71600002 -0.022596961 1.179261e-38 320 258
0.0012606466 0.71899998 -0.022691639 1.1516028e-38 321 258
0.0025248001 0.72000003 -0.022723202 1.1698623e-38 322 258
0.0037977197 0.722 -0.022786319 1.1421681e-38 323 258
0.0050636264 0.722 -0.022786319 1.1419887e-38 324 258
0.0063295332 0.722 -0.022786319 1.0958916e-38 325 258
0.0076059597 0.72299999 -0.02281788 1.0312122e-38 326 258
0.0088736191 0.72299999 -0.02281788 9.3901795e-39 327 258
0.010169334 0.72500002 -0.022880999 8.3785541e-39 328 258
0.0114405 0.72500002 -0.022880999 8.2863599e-39 329 258
0.012711667 0.72500002 -0.022880999 8.1930894e-39 330 258
0.013982833 0.72500002 -0.022880999 8.2852837e-39 331 258
0.015254001 0.72500002 -0.022880999 7.5516759e-39 332 258
0.01647958 0.72299999 -0.02281788 7.4594817e-39 333 258
0.017747238 0.72299999 -0.02281788 8.7484072e-39 334 258
0.019014901 0.72299999 -0.02281788 9.9469322e-39 335 258
0.020282559 0.72299999 -0.02281788 1.0778115e-38 336 258
0.021341572 0.71600002 -0.022596961 1.1146533e-38 337 258
0.022596961 0.71600002 -0.022596961 1.1333074e-38 338 258
0.023652466 0.70999998 -0.022407599 1.1333074e-38 339 258
0.024897331 0.70999998 -0.022407599 1.1698623e-38 340 258
0.026142199 0.70999998 -0.022407599 1.1698623e-38 341 258
0.027309919 0.708 -0.022344479 1.1790099e-38 342 258
0.02855128 0.708 -0.022344479 1.1882294e-38 343 258
0.02979264 0.708 -0.022344479 1.2249994e-38 344 258
0.031034 0.708 -0.022344479 1.2434024e-38 345 258
0.03227536 0.708 -0.022344479 1.2525501e-38 346 258
0.033516716 0.708 -0.022344479 1.2433306e-38 347 258
0.034758076 0.708 -0.022344479 1.2249635e-38 348 258
0.036101133 0.70999998 -0.022407599 1.2157441e-38 349 258
0.037345998 0.70999998 -0.022407599 1.2065606e-38 350 258
0.038645219 0.71100003 -0.022439159 1.1881576e-38 351 258
0.039891839 0.71100003 -0.022439159 1.1880859e-38 352 258
0.041138459 0.71100003 -0.022439159 1.1880859e-38 353 258
0.042504307 0.713 -0.022502279 1.1603933e-38 354 258
0.043754432 0.713 -0.022502279 1.1235151e-38 355 258
0.045004558 0.713 -0.022502279 1.1145161e-38 356 258
0.046254687 0.713 -0.022502279 1.262065e-38 357 258
-0.020282559 0.72299999 -0.024085538 1.24377e-38 304 259
-0.0189886 0.722 -0.024052227 1.0962568e-38 305 259
-0.017722692 0.722 -0.024052227 1.1700448e-38 306 259
-0.0164112 0.72000003 -0.0239856 1.1977035e-38 307 259
-0.015085679 0.71700001 -0.02388566 1.2345795e-38 308 259
-0.013828539 0.71700001 -0.02388566 1.2345795e-38 309 259
-0.0125714 0.71700001 -0.02388566 1.2712042e-38 310 259
-0.01129848 0.71600002 -0.023852346 1.2619847e-38 311 259
-0.01001504 0.71399999 -0.02378572 1.2620565e-38 312 259
-0.0087631596 0.71399999 -0.02378572 1.2620565e-38 313 259
-0.0075007593 0.713 -0.023752406 1.2803518e-38 314 259
-0.0062330998 0.71100003 -0.023685781 1.2803518e-38 315 259
-0.0049864799 0.71100003 -0.023685781 1.2802442e-38 316 259
-0.0037345996 0.70999998 -0.023652466 1.2802442e-38 317 259
-0.0024792133 0.70700002 -0.023552528 1.2527653e-38 318 259
-0.0012396066 0.70700002 -0.023552528 1.2435459e-38 319 259
0 0.70599997 -0.023519212 1.2343623e-38 320 259
0.0012325933 0.70300001 -0.023419274 1.2343623e-38 321 259
0.0024651866 0.70300001 -0.023419274 1.2159235e-38 322 259
0.0036977797 0.70300001 -0.023419274 1.2067041e-38 323 259
0.0049093333 0.69999999 -0.023319334 1.2435459e-38 324 259
0.0061366665 0.69999999 -0.023319334 1.1974846e-38 325 259
0.0073639993 0.69999999 -0.023319334 1.1697188e-38 326 259
0.0085913334 0.69999999 -0.023319334 1.1236575e-38 327 259
0.0098186666 0.69999999 -0.023319334 1.0775604e-38 328 259
0.011045999 0.69999999 -0.023319334 1.068341e-38 329 259
0.012238266 0.69800001 -0.023252707 1.0406827e-38 330 259
0.013462093 0.69800001 -0.023252707 1.0314633e-38 331 259
0.015296079 0.727 -0.024218792 1.0130244e-38 332 259
0.015909746 0.69800001 -0.023252707 9.8540205e-39 333 259
0.017133573 0.69800001 -0.023252707 1.0406827e-38 334 259
0.018409999 0.69999999 -0.023319334 1.0959994e-38 335 259
0.019637333 0.69999999 -0.023319334 1.1789382e-38 336 259
0.020983893 0.704 -0.023452586 1.1974129e-38 337 259
0.022218239 0.704 -0.023452586 1.1791177e-38 338 259
0.023452586 0.704 -0.023452586 1.1698981e-38 339 259
0.024686933 0.704 -0.023452586 1.2157083e-38 340 259
0.02592128 0.704 -0.023452586 1.2064888e-38 341 259
0.027232772 0.70599997 -0.023519212 1.1881935e-38 342 259
0.028470624 0.70599997 -0.023519212 1.2065965e-38 343 259
0.029750559 0.70700002 -0.023552528 1.2158159e-38 344 259
0.030990168 0.70700002 -0.023552528 1.2250353e-38 345 259
0.032229774 0.70700002 -0.023552528 1.2434024e-38 346 259
0.033469379 0.70700002 -0.023552528 1.2249994e-38 347 259
0.034708988 0.70700002 -0.023552528 1.2157441e-38 348 259
0.03599944 0.708 -0.023585839 1.2157441e-38 349 259
0.0372408 0.708 -0.023585839 1.1881576e-38 350 259
0.038590867 0.70999998 -0.023652466 1.1881576e-38 351 259
0.039835732 0.70999998 -0.023652466 1.1881217e-38 352 259
0.041080594 0.70999998 -0.023652466 1.1789023e-38 353 259
0.042385083 0.71100003 -0.023685781 1.1513163e-38 354 259
0.043631699 0.71100003 -0.023685781 1.1328772e-38 355 259
0.044878319 0.71100003 -0.023685781 1.0868558e-38 356 259
0.046124939 0.71100003 -0.023685781 1.1790515e-38 357 259
-0.021520413 0.722 -0.025318133 1.3452242e-38 303 260
-0.020254506 0.722 -0.025318133 1.2251139e-38 304 260
-0.0189886 0.722 -0.025318133 1.1421378e-38 305 260
-0.017599959 0.71700001 -0.0251428 1.2067786e-38 306 260
-0.016342819 0.71700001 -0.0251428 1.2436209e-38 307 260
-0.01506464 0.71600002 -0.025107734 1.252911e-38 308 260
-0.013809253 0.71600002 -0.025107734 1.2621307e-38 309 260
-0.012518799 0.71399999 -0.025037598 1.2805312e-38 310 260
-0.011266919 0.71399999 -0.025037598 1.2712759e-38 311 260
-0.01001504 0.71399999 -0.025037598 1.2804953e-38 312 260
-0.0087508867 0.713 -0.025002534 1.2712759e-38 313 260
-0.0074797203 0.71100003 -0.024932399 1.2895354e-38 314 260
-0.0062243328 0.70999998 -0.024897331 1.2895354e-38 315 260
-0.0049794666 0.70999998 -0.024897331 1.280316e-38 316 260
-0.00372408 0.708 -0.024827199 1.2895354e-38 317 260
-0.0024757064 0.70599997 -0.024757065 1.2712759e-38 318 260
-0.0012378532 0.70599997 -0.024757065 1.2620565e-38 319 260
0 0.70599997 -0.024757065 1.2620206e-38 320 260
0.0012325933 0.70300001 -0.024651866 1.2435818e-38 321 260
0.0024651866 0.70300001 -0.024651866 1.2252147e-38 322 260
0.0036872597 0.70099998 -0.024581732 1.2344341e-38 323 260
0.0049093333 0.69999999 -0.024546666 1.2345058e-38 324 260
0.0061366665 0.69999999 -0.024546666 1.2252864e-38 325 260
0.0073639993 0.69999999 -0.024546666 1.2159959e-38 326 260
0.0085913334 0.69999999 -0.024546666 1.2897524e-38 327 260
0.0097906133 0.69800001 -0.024476532 1.2804625e-38 328 260
0.01101444 0.69800001 -0.024476532 1.2804625e-38 329 260
0.012238266 0.69800001 -0.024476532 1.2620234e-38 330 260
0.013462093 0.69800001 -0.024476532 1.2435843e-38 331 260
0.01468592 0.69800001 -0.024476532 1.2526597e-38 332 260
0.015909746 0.69800001 -0.024476532 1.2526597e-38 333 260
0.017133573 0.69800001 -0.024476532 1.2526947e-38 334 260
0.018409999 0.69999999 -0.024546666 1.2065969e-38 335 260
0.019637333 0.69999999 -0.024546666 1.2249277e-38 336 260
0.020864666 0.69999999 -0.024546666 1.2249277e-38 337 260
0.022091998 0.69999999 -0.024546666 1.21578e-38 338 260
0.023352645 0.70099998 -0.024581732 1.2249994e-38 339 260
0.024651866 0.70300001 -0.024651866 1.2064888e-38 340 260
0.025884461 0.70300001 -0.024651866 1.2064888e-38 341 260
0.027155625 0.704 -0.024686933 1.2248559e-38 342 260
0.028389972 0.704 -0.024686933 1.2340754e-38 343 260
0.029708479 0.70599997 -0.024757065 1.2250353e-38 344 260
0.030946331 0.70599997 -0.024757065 1.2250353e-38 345 260
0.032184184 0.70599997 -0.024757065 1.2434024e-38 346 260
0.033422034 0.70599997 -0.024757065 1.2249994e-38 347 260
0.034708988 0.70700002 -0.024792133 1.2157441e-38 348 260
0.035948593 0.70700002 -0.024792133 1.2065247e-38 349 260
0.0372408 0.708 -0.024827199 1.1789382e-38 350 260
0.038482159 0.708 -0.024827199 1.1789382e-38 351 260
0.039723519 0.708 -0.024827199 1.1606428e-38 352 260
0.041080594 0.70999998 -0.024897331 1.1514234e-38 353 260
0.042325463 0.70999998 -0.024897331 1.1421322e-38 354 260
0.043631699 0.71100003 -0.024932399 1.1329128e-38 355 260
0.044878319 0.71100003 -0.024932399 1.1142956e-38 356 260
0.046124939 0.71100003 -0.024932399 1.1235151e-38 357 260
-0.021460801 0.72000003 -0.026510401 1.2990538e-38 303 261
-0.020198401 0.72000003 -0.026510401 1.188343e-38 304 261
-0.018935999 0.72000003 -0.026510401 1.1238061e-38 305 261
-0.017599959 0.71700001 -0.02639994 1.1976307e-38 306 261
-0.016320027 0.71600002 -0.026363119 1.2345448e-38 307 261
-0.01506464 0.71600002 -0.026363119 1.2713859e-38 308 261
-0.01377068 0.71399999 -0.026289478 1.2713859e-38 309 261
-0.012518799 0.71399999 -0.026289478 1.2990059e-38 310 261
-0.011251139 0.713 -0.026252659 1.2897506e-38 311 261
-0.0099729598 0.71100003 -0.026179021 1.3173013e-38 312 261
-0.0087263398 0.71100003 -0.026179021 1.3080818e-38 313 261
-0.0074691991 0.70999998 -0.026142199 1.3263413e-38 314 261
-0.0062067998 0.708 -0.026068559 1.3263413e-38 315 261
-0.0049584266 0.70700002 -0.02603174 1.3171937e-38 316 261
-0.0037135598 0.70599997 -0.025994917 1.3171937e-38 317 261
-0.0024686933 0.704 -0.02592128 1.3079742e-38 318 261
-0.0012343467 0.704 -0.02592128 1.3079742e-38 319 261
0 0.70599997 -0.025994917 1.2986831e-38 320 261
0.0012325933 0.70300001 -0.025884461 1.2986831e-38 321 261
0.0024581731 0.70099998 -0.025810819 1.2894278e-38 322 261
0.0036872597 0.70099998 -0.025810819 1.2986472e-38 323 261
0.0049093333 0.69999999 -0.025773998 1.280316e-38 324 261
0.0061366665 0.69999999 -0.025773998 1.280316e-38 325 261
0.0073639993 0.69999999 -0.025773998 1.2803877e-38 326 261
0.0085913334 0.69999999 -0.025773998 1.2711683e-38 327 261
0.0097906133 0.69800001 -0.025700359 1.2711683e-38 328 261
0.01101444 0.69800001 -0.025700359 1.2803877e-38 329 261
0.012238266 0.69800001 -0.025700359 1.280316e-38 330 261
0.013462093 0.69800001 -0.025700359 1.2710965e-38 331 261
0.01468592 0.69800001 -0.025700359 1.2710965e-38 332 261
0.015909746 0.69800001 -0.025700359 1.2710965e-38 333 261
0.017182667 0.69999999 -0.025773998 1.2618054e-38 334 261
0.018409999 0.69999999 -0.025773998 1.2618054e-38 335 261
0.019637333 0.69999999 -0.025773998 1.2708813e-38 336 261
0.020864666 0.69999999 -0.025773998 1.2616619e-38 337 261
0.022091998 0.69999999 -0.025773998 1.261626e-38 338 261
0.023319334 0.69999999 -0.025773998 1.243223e-38 339 261
0.024581732 0.70099998 -0.025810819 1.2615543e-38 340 261
0.025810819 0.70099998 -0.025810819 1.2615543e-38 341 261
0.027039904 0.70099998 -0.025810819 1.2340754e-38 342 261
0.028268991 0.70099998 -0.025810819 1.2433306e-38 343 261
0.029624319 0.704 -0.02592128 1.2434024e-38 344 261
0.030946331 0.70599997 -0.025994917 1.2434024e-38 345 261
0.032184184 0.70599997 -0.025994917 1.2158159e-38 346 261
0.033422034 0.70599997 -0.025994917 1.2065965e-38 347 261
0.034659892 0.70599997 -0.025994917 1.188337e-38 348 261
0.035948593 0.70700002 -0.02603174 1.169934e-38 349 261
0.0372408 0.708 -0.026068559 1.1790099e-38 350 261
0.038482159 0.708 -0.026068559 1.1697905e-38 351 261
0.039723519 0.708 -0.026068559 1.1606428e-38 352 261
0.040964879 0.708 -0.026068559 1.1514234e-38 353 261
0.042325463 0.70999998 -0.026142199 1.1421681e-38 354 261
0.043570329 0.70999998 -0.026142199 1.1237293e-38 355 261
0.044815198 0.70999998 -0.026142199 1.0592652e-38 356 261
0.046060063 0.70999998 -0.026142199 1.0039485e-38 357 261
0.047304932 0.70999998 -0.026142199 1.1515739e-38 358 261
-0.022691639 0.71899998 -0.027734226 1.3635905e-38 302 262
-0.021371379 0.71700001 -0.027657079 1.2437721e-38 303 262
-0.020114239 0.71700001 -0.027657079 1.1699036e-38 304 262
-0.018857099 0.71700001 -0.027657079 1.160684e-38 305 262
-0.017575413 0.71600002 -0.027618507 1.2068505e-38 306 262
-0.016320027 0.71600002 -0.027618507 1.2437289e-38 307 262
-0.015022559 0.71399999 -0.02754136 1.2714578e-38 308 262
-0.013751393 0.713 -0.027502786 1.2898969e-38 309 262
-0.0124662 0.71100003 -0.027425639 1.3174089e-38 310 262
-0.011203799 0.70999998 -0.027387066 1.2990059e-38 311 262
-0.0099589331 0.70999998 -0.027387066 1.317373e-38 312 262
-0.0087140659 0.70999998 -0.027387066 1.3081536e-38 313 262
-0.0074481601 0.708 -0.027309919 1.3264131e-38 314 262
-0.0061980332 0.70700002 -0.027271347 1.3264131e-38 315 262
-0.0049514128 0.70599997 -0.027232772 1.3173371e-38 316 262
-0.0036977797 0.70300001 -0.027117053 1.3081177e-38 317 262
-0.0024651866 0.70300001 -0.027117053 1.3172295e-38 318 262
-0.0012325933 0.70300001 -0.027117053 1.3080101e-38 319 262
0 0.70099998 -0.027039904 1.2895713e-38 320 262
0.0012290865 0.70099998 -0.027039904 1.280316e-38 321 262
0.0024581731 0.70099998 -0.027039904 1.280316e-38 322 262
0.0036872597 0.70099998 -0.027039904 1.280316e-38 323 262
0.0049093333 0.69999999 -0.027001332 1.2895354e-38 324 262
0.0061366665 0.69999999 -0.027001332 1.2895354e-38 325 262
0.0073639993 0.69999999 -0.027001332 1.280316e-38 326 262
0.0085667865 0.69800001 -0.026924185 1.2895713e-38 327 262
0.0097906133 0.69800001 -0.026924185 1.289643e-38 328 262
0.01101444 0.69800001 -0.026924185 1.289643e-38 329 262
0.012238266 0.69800001 -0.026924185 1.2988624e-38 330 262
0.013462093 0.69800001 -0.026924185 1.289643e-38 331 262
0.01468592 0.69800001 -0.026924185 1.289643e-38 332 262
0.015909746 0.69800001 -0.026924185 1.2804236e-38 333 262
0.017133573 0.69800001 -0.026924185 1.2710965e-38 334 262
0.0183574 0.69800001 -0.026924185 1.2618771e-38 335 262
0.019581227 0.69800001 -0.026924185 1.2617695e-38 336 262
0.020805053 0.69800001 -0.026924185 1.2617695e-38 337 262
0.02202888 0.69800001 -0.026924185 1.2617695e-38 338 262
0.023319334 0.69999999 -0.027001332 1.2525501e-38 339 262
0.024546666 0.69999999 -0.027001332 1.2525501e-38 340 262
0.025773998 0.69999999 -0.027001332 1.2525501e-38 341 262
0.027001332 0.69999999 -0.027001332 1.2434024e-38 342 262
0.028268991 0.70099998 -0.027039904 1.2434024e-38 343 262
0.029582238 0.70300001 -0.027117053 1.2249635e-38 344 262
0.030858666 0.704 -0.027155625 1.2249635e-38 345 262
0.032093015 0.704 -0.027155625 1.2250353e-38 346 262
0.033422034 0.70599997 -0.027232772 1.2250353e-38 347 262
0.034659892 0.70599997 -0.027232772 1.188337e-38 348 262
0.035897743 0.70599997 -0.027232772 1.169934e-38 349 262
0.037135597 0.70599997 -0.027232772 1.1606787e-38 350 262
0.038427804 0.70700002 -0.027271347 1.1514593e-38 351 262
0.039667413 0.70700002 -0.027271347 1.1330922e-38 352 262
0.040907022 0.70700002 -0.027271347 1.1238728e-38 353 262
0.042206239 0.708 -0.027309919 1.1054339e-38 354 262
0.043570329 0.70999998 -0.027387066 1.0870309e-38 355 262
0.044815198 0.70999998 -0.027387066 1.0685571e-38 356 262
0.045930319 0.708 -0.027309919 1.0316788e-38 357 262
0.047171678 0.708 -0.027309919 1.1146233e-38 358 262
0.048413038 0.708 -0.027309919 1.2529168e-38 359 262
-0.022691639 0.71899998 -0.028994869 1.3452223e-38 302 263
-0.021430992 0.71899998 -0.028994869 1.1977093e-38 303 263
-0.020114239 0.71700001 -0.028914221 1.1791941e-38 304 263
-0.018857099 0.71700001 -0.028914221 1.1791941e-38 305 263
-0.017575413 0.71600002 -0.028873893 1.2252896e-38 306 263
-0.016320027 0.71600002 -0.028873893 1.2713874e-38 307 263
-0.015022559 0.71399999 -0.028793238 1.2898966e-38 308 263
-0.01371282 0.71100003 -0.028672259 1.2898966e-38 309 263
-0.012448666 0.70999998 -0.028631933 1.3265931e-38 310 263
-0.01117224 0.708 -0.02855128 1.3173736e-38 311 263
-0.0099308798 0.708 -0.02855128 1.3357042e-38 312 263
-0.008677247 0.70700002 -0.028510952 1.3449237e-38 313 263
-0.0074376399 0.70700002 -0.028510952 1.3541072e-38 314 263
-0.0061892662 0.70599997 -0.028470624 1.3448878e-38 315 263
-0.0049303733 0.70300001 -0.028349647 1.3541431e-38 316 263
-0.0036977797 0.70300001 -0.028349647 1.3449237e-38 317 263
-0.0024651866 0.70300001 -0.028349647 1.3356684e-38 318 263
-0.0012325933 0.70300001 -0.028349647 1.3264489e-38 319 263
0 0.70099998 -0.028268991 1.3263413e-38 320 263
0.0012290865 0.70099998 -0.028268991 1.3171219e-38 321 263
0.0024581731 0.70099998 -0.028268991 1.3171219e-38 322 263
0.0036872597 0.70099998 -0.028268991 1.3171219e-38 323 263
0.0049093333 0.69999999 -0.028228667 1.3079025e-38 324 263
0.0061366665 0.69999999 -0.028228667 1.3079025e-38 325 263
0.0073429602 0.69800001 -0.028148014 1.3171219e-38 326 263
0.0085667865 0.69800001 -0.028148014 1.3263413e-38 327 263
0.0097906133 0.69800001 -0.028148014 1.3081177e-38 328 263
0.01101444 0.69800001 -0.028148014 1.3173371e-38 329 263
0.012220734 0.69700003 -0.028107686 1.3357401e-38 330 263
0.013442807 0.69700003 -0.028107686 1.3173371e-38 331 263
0.01466488 0.69700003 -0.028107686 1.3264489e-38 332 263
0.015886955 0.69700003 -0.028107686 1.3080101e-38 333 263
