# .PCD v.7 - Point Cloud Data file format
FIELDS x y z rgb imX imY
SIZE 4 4 4 4 4 4
TYPE F F F F F F
COUNT 1 1 1 1 1 1
WIDTH 852
HEIGHT 1
VIEWPOINT 0 0 0 1 0 0 0
POINTS 852
DATA ascii
0.01210326 0.76700002 0.01210326 9.9645143e-39 329 231
0.013448066 0.76700002 0.01210326 1.0513729e-38 330 231
0.014792874 0.76700002 0.01210326 1.0421535e-38 331 231
0.01613768 0.76700002 0.01210326 8.7684962e-39 332 231
0.017528072 0.76899999 0.012134819 8.4919135e-39 333 231
0.018876385 0.76899999 0.012134819 1.0149696e-38 334 231
0.0202247 0.76899999 0.012134819 1.1072012e-38 335 231
0.021573013 0.76899999 0.012134819 1.2173025e-38 336 231
0.022921326 0.76899999 0.012134819 1.1804243e-38 337 231
0.02433276 0.77100003 0.01216638 1.1802448e-38 338 231
0.02568458 0.77100003 0.01216638 1.0880131e-38 339 231
0.027036399 0.77100003 0.01216638 1.1620573e-38 340 231
0.028388219 0.77100003 0.01216638 1.4386442e-38 341 231
-0.038999394 0.76700002 0.010758453 9.5000525e-39 291 232
-0.037605491 0.76599997 0.010744425 8.4854928e-39 292 232
-0.036167759 0.764 0.010716373 8.9464709e-39 293 232
-0.034737039 0.76200002 0.01068832 1.171199e-38 294 232
-0.033401001 0.76200002 0.01068832 1.171199e-38 295 232
-0.032022879 0.76099998 0.010674292 1.1158816e-38 296 232
-0.030688593 0.76099998 0.010674292 1.0882229e-38 297 232
-0.029277159 0.759 0.01064624 1.1156263e-38 298 232
-0.027946379 0.759 0.01064624 1.0879317e-38 299 232
-0.026615599 0.759 0.01064624 1.0418307e-38 300 232
-0.025218192 0.75700003 0.010618187 1.0418307e-38 301 232
-0.02389092 0.75700003 0.010618187 1.0329341e-38 302 232
-0.022563647 0.75700003 0.010618187 1.0605924e-38 303 232
-0.02129248 0.759 0.01064624 1.0699194e-38 304 232
-0.0199617 0.759 0.01064624 1.0607e-38 305 232
-0.01863092 0.759 0.01064624 1.0789595e-38 306 232
-0.017300138 0.759 0.01064624 1.0421176e-38 307 232
-0.015969358 0.759 0.01064624 9.5942982e-39 308 232
-0.014638579 0.759 0.01064624 9.4099098e-39 309 232
-0.0133078 0.759 0.01064624 8.9489386e-39 310 232
-0.012008579 0.76099998 0.010674292 8.7645502e-39 311 232
-0.010674292 0.76099998 0.010674292 8.1184731e-39 312 232
-0.0093522798 0.76200002 0.01068832 7.5653077e-39 313 232
-0.0080372803 0.764 0.010716373 6.5518887e-39 314 232
-0.0067152665 0.76599997 0.010744425 6.1831118e-39 315 232
-0.0053792265 0.76700002 0.010758453 5.6295877e-39 316 232
-0.00403442 0.76700002 0.010758453 5.5370347e-39 317 232
-0.0026896133 0.76700002 0.010758453 5.537399e-39 318 232
-0.0013483133 0.76899999 0.010786506 5.8139873e-39 319 232
0 0.76700002 0.010758453 5.9991031e-39 320 232
0.0013448066 0.76700002 0.010758453 7.0128963e-39 321 232
0.0026896133 0.76700002 0.010758453 7.1101141e-39 322 232
0.00403442 0.76700002 0.010758453 7.6632879e-39 323 232
0.0053792265 0.76700002 0.010758453 7.9391335e-39 324 232
0.006724033 0.76700002 0.010758453 7.9391335e-39 325 232
0.00806884 0.76700002 0.010758453 8.5815966e-39 326 232
0.0094136465 0.76700002 0.010758453 8.5815966e-39 327 232
0.010758453 0.76700002 0.010758453 8.676302e-39 328 232
0.01210326 0.76700002 0.010758453 9.6900868e-39 329 232
0.013448066 0.76700002 0.010758453 1.0697763e-38 330 232
0.014792874 0.76700002 0.010758453 1.0420818e-38 331 232
0.01613768 0.76700002 0.010758453 8.6759587e-39 332 232
0.017482487 0.76700002 0.010758453 8.7681557e-39 333 232
0.018827293 0.76700002 0.010758453 1.1346464e-38 334 232
0.020172099 0.76700002 0.010758453 1.1899637e-38 335 232
0.021573013 0.76899999 0.010786506 1.2355268e-38 336 232
0.022921326 0.76899999 0.010786506 1.189429e-38 337 232
0.02433276 0.77100003 0.01081456 1.1523718e-38 338 232
0.02568458 0.77100003 0.01081456 1.1799945e-38 339 232
0.027036399 0.77100003 0.01081456 1.1803898e-38 340 232
0.028388219 0.77100003 0.01081456 1.3739647e-38 341 232
-0.040291596 0.76599997 0.0094013726 1.0975173e-38 290 233
-0.038948543 0.76599997 0.0094013726 9.3152913e-39 291 233
-0.037605491 0.76599997 0.0094013726 8.669877e-39 292 233
-0.036167759 0.764 0.0093768267 9.0390197e-39 293 233
-0.034737039 0.76200002 0.0093522798 1.198822e-38 294 233
-0.033401001 0.76200002 0.0093522798 1.1804188e-38 295 233
-0.032022879 0.76099998 0.0093400059 1.1526879e-38 296 233
-0.030607941 0.759 0.00931546 1.1065541e-38 297 233
-0.029277159 0.759 0.00931546 1.1247724e-38 298 233
-0.027872739 0.75700003 0.0092909131 1.0787104e-38 299 233
-0.026545467 0.75700003 0.0092909131 1.0786725e-38 300 233
-0.025218192 0.75700003 0.0092909131 1.0971113e-38 301 233
-0.02389092 0.75700003 0.0092909131 1.1432443e-38 302 233
-0.022563647 0.75700003 0.0092909131 1.1709384e-38 303 233
-0.021236373 0.75700003 0.0092909131 1.1617549e-38 304 233
-0.019909101 0.75700003 0.0092909131 1.1524996e-38 305 233
-0.018532733 0.755 0.0092663663 1.0697759e-38 306 233
-0.017208965 0.755 0.0092663663 1.0513729e-38 307 233
-0.015927281 0.75700003 0.0092909131 9.7779692e-39 308 233
-0.014600007 0.75700003 0.0092909131 9.5013865e-39 309 233
-0.0133078 0.759 0.00931546 8.9485799e-39 310 233
-0.012008579 0.76099998 0.0093400059 8.5794442e-39 311 233
-0.010674292 0.76099998 0.0093400059 8.1177556e-39 312 233
-0.0093522798 0.76200002 0.0093522798 7.3802018e-39 313 233
-0.0080372803 0.764 0.0093768267 6.826319e-39 314 233
-0.0067152665 0.76599997 0.0094013726 6.1809594e-39 315 233
-0.0053792265 0.76700002 0.0094136465 5.9029418e-39 316 233
-0.00403442 0.76700002 0.0094136465 5.6263591e-39 317 233
-0.0026966266 0.76899999 0.0094381925 4.9831701e-39 318 233
-0.0013483133 0.76899999 0.0094381925 5.2601157e-39 319 233
0 0.76899999 0.0094381925 5.629987e-39 320 233
0.0013483133 0.76899999 0.0094381925 6.3675521e-39 321 233
0.0026896133 0.76700002 0.0094136465 7.1065436e-39 322 233
0.00403442 0.76700002 0.0094136465 7.3834893e-39 323 233
0.0053792265 0.76700002 0.0094136465 7.3852591e-39 324 233
0.006724033 0.76700002 0.0094136465 7.3852591e-39 325 233
0.00806884 0.76700002 0.0094136465 7.385594e-39 326 233
0.0094136465 0.76700002 0.0094136465 7.5696251e-39 327 233
0.010758453 0.76700002 0.0094136465 8.4876087e-39 328 233
0.01210326 0.76700002 0.0094136465 1.023932e-38 329 233
0.013448066 0.76700002 0.0094136465 1.0607011e-38 330 233
0.014792874 0.76700002 0.0094136465 1.0145673e-38 331 233
0.01613768 0.76700002 0.0094136465 9.0451251e-39 332 233
0.017482487 0.76700002 0.0094136465 9.9674402e-39 333 233
0.018827293 0.76700002 0.0094136465 1.2175526e-38 334 233
0.020172099 0.76700002 0.0094136465 1.2175526e-38 335 233
0.021516906 0.76700002 0.0094136465 1.2170169e-38 336 233
0.022921326 0.76899999 0.0094381925 1.1156377e-38 337 233
0.024269639 0.76899999 0.0094381925 9.3160746e-39 338 233
0.025617953 0.76899999 0.0094381925 1.0514618e-38 339 233
0.026966266 0.76899999 0.0094381925 1.1620597e-38 340 233
0.028314579 0.76899999 0.0094381925 1.2726943e-38 341 233
0.02966289 0.76899999 0.0094381925 1.5026426e-38 342 233
-0.040291596 0.76599997 0.0080583189 1.0699301e-38 290 234
-0.038948543 0.76599997 0.0080583189 9.68515e-39 291 234
-0.037507307 0.764 0.0080372803 9.1333859e-39 292 234
-0.036167759 0.764 0.0080372803 9.1333859e-39 293 234
-0.034737039 0.76200002 0.0080162399 1.1711642e-38 294 234
-0.033357166 0.76099998 0.0080057196 1.1711642e-38 295 234
-0.031938717 0.759 0.0079846792 1.1342134e-38 296 234
-0.030607941 0.759 0.0079846792 1.1065188e-38 297 234
-0.029277159 0.759 0.0079846792 1.1247026e-38 298 234
-0.027872739 0.75700003 0.0079636406 1.115483e-38 299 234
-0.026545467 0.75700003 0.0079636406 1.1340273e-38 300 234
-0.025151566 0.755 0.0079425992 1.2170392e-38 301 234
-0.023827799 0.755 0.0079425992 1.2907579e-38 302 234
-0.022504034 0.755 0.0079425992 1.2907579e-38 303 234
-0.021180267 0.755 0.0079425992 1.1620419e-38 304 234
-0.0198565 0.755 0.0079425992 1.1159448e-38 305 234
-0.018532733 0.755 0.0079425992 1.0607359e-38 306 234
-0.017208965 0.755 0.0079425992 1.0238582e-38 307 234
-0.015885198 0.755 0.0079425992 9.5028215e-39 308 234
-0.014600007 0.75700003 0.0079636406 9.1340445e-39 309 234
-0.013272733 0.75700003 0.0079636406 8.5808792e-39 310 234
-0.01194546 0.75700003 0.0079636406 8.3039378e-39 311 234
-0.010618187 0.75700003 0.0079636406 7.6578607e-39 312 234
-0.0093400059 0.76099998 0.0080057196 7.1968895e-39 313 234
-0.0080372803 0.764 0.0080372803 6.275306e-39 314 234
-0.006697733 0.764 0.0080372803 5.9061703e-39 315 234
-0.0053792265 0.76700002 0.00806884 5.4444817e-39 316 234
-0.00403442 0.76700002 0.00806884 5.1675403e-39 317 234
-0.0026896133 0.76700002 0.00806884 5.2572234e-39 318 234
-0.0013483133 0.76899999 0.0080898795 5.4419706e-39 319 234
0 0.76700002 0.00806884 5.9944339e-39 320 234
0.0013448066 0.76700002 0.00806884 7.1929771e-39 321 234
0.0026896133 0.76700002 0.00806884 7.3798739e-39 322 234
0.00403442 0.76700002 0.00806884 7.7482963e-39 323 234
0.0053792265 0.76700002 0.00806884 7.5660378e-39 324 234
0.006724033 0.76700002 0.00806884 7.4738422e-39 325 234
0.00806884 0.76700002 0.00806884 7.5678189e-39 326 234
0.0094136465 0.76700002 0.00806884 7.5678189e-39 327 234
0.010758453 0.76700002 0.00806884 8.3057314e-39 328 234
0.012087479 0.76599997 0.0080583189 9.5964548e-39 329 234
0.013430533 0.76599997 0.0080583189 1.0422262e-38 330 234
0.014773586 0.76599997 0.0080583189 9.8694488e-39 331 234
0.016116638 0.76599997 0.0080583189 9.9660151e-39 332 234
0.017459691 0.76599997 0.0080583189 1.0980166e-38 333 234
0.018802745 0.76599997 0.0080583189 1.2268095e-38 334 234
0.020172099 0.76700002 0.00806884 1.1714921e-38 335 234
0.021516906 0.76700002 0.00806884 1.0880514e-38 336 234
0.022921326 0.76899999 0.0080898795 9.9581972e-39 337 234
0.024269639 0.76899999 0.0080898795 1.0416304e-38 338 234
0.025617953 0.76899999 0.0080898795 1.1246425e-38 339 234
0.026966266 0.76899999 0.0080898795 1.0790469e-38 340 234
0.028314579 0.76899999 0.0080898795 1.1896458e-38 341 234
0.02966289 0.76899999 0.0080898795 1.4290655e-38 342 234
-0.041634649 0.76599997 0.0067152665 1.1618779e-38 289 235
-0.040291596 0.76599997 0.0067152665 1.0331591e-38 290 235
-0.038846854 0.764 0.006697733 9.5021909e-39 291 235
-0.037507307 0.764 0.006697733 9.2252284e-39 292 235
-0.036073081 0.76200002 0.0066801999 9.4092596e-39 293 235
-0.034737039 0.76200002 0.0066801999 1.0514535e-38 294 235
-0.033269498 0.759 0.0066538998 1.0791481e-38 295 235
-0.031938717 0.759 0.0066538998 1.0881507e-38 296 235
-0.030527288 0.75700003 0.0066363667 1.0789312e-38 297 235
-0.029200014 0.75700003 0.0066363667 1.106478e-38 298 235
-0.027799098 0.755 0.0066188332 1.1156976e-38 299 235
-0.026475333 0.755 0.0066188332 1.1617566e-38 300 235
-0.025151566 0.755 0.0066188332 1.2447326e-38 301 235
-0.023827799 0.755 0.0066188332 1.2907929e-38 302 235
-0.022504034 0.755 0.0066188332 1.2907929e-38 303 235
-0.021180267 0.755 0.0066188332 1.2263626e-38 304 235
-0.0198565 0.755 0.0066188332 1.1710461e-38 305 235
-0.018532733 0.755 0.0066188332 1.0698835e-38 306 235
-0.017208965 0.755 0.0066188332 1.03297e-38 307 235
-0.015885198 0.755 0.0066188332 9.1340445e-39 308 235
-0.014561433 0.755 0.0066188332 8.9496561e-39 309 235
-0.013237666 0.755 0.0066188332 8.4876087e-39 310 235
-0.011913899 0.755 0.0066188332 8.2110261e-39 311 235
-0.010618187 0.75700003 0.0066363667 7.6582194e-39 312 235
-0.0092909131 0.75700003 0.0066363667 7.1050541e-39 313 235
-0.0080057196 0.76099998 0.0066714329 6.3682177e-39 314 235
-0.0066801999 0.76200002 0.0066801999 5.9068878e-39 315 235
-0.0053722127 0.76599997 0.0067152665 5.8111063e-39 316 235
-0.00403442 0.76700002 0.006724033 5.2582996e-39 317 235
-0.0026896133 0.76700002 0.006724033 5.3472653e-39 318 235
-0.0013448066 0.76700002 0.006724033 5.4394595e-39 319 235
0 0.76700002 0.006724033 5.901888e-39 320 235
0.0013448066 0.76700002 0.006724033 6.73165e-39 321 235
0.0026896133 0.76700002 0.006724033 7.1025738e-39 322 235
0.00403442 0.76700002 0.006724033 7.3795208e-39 323 235
0.0053792265 0.76700002 0.006724033 7.1068547e-39 324 235
0.0067152665 0.76599997 0.0067152665 7.1990503e-39 325 235
0.0080583189 0.76599997 0.0067152665 7.2930298e-39 326 235
0.0094013726 0.76599997 0.0067152665 7.477777e-39 327 235
0.010744425 0.76599997 0.0067152665 8.7663438e-39 328 235
0.012087479 0.76599997 0.0067152665 9.8726816e-39 329 235
0.013430533 0.76599997 0.0067152665 9.7794041e-39 330 235
0.014773586 0.76599997 0.0067152665 8.7649089e-39 331 235
0.016116638 0.76599997 0.0067152665 1.0333349e-38 332 235
0.017459691 0.76599997 0.0067152665 1.1808479e-38 333 235
0.018802745 0.76599997 0.0067152665 1.2359216e-38 334 235
0.020172099 0.76700002 0.006724033 1.1529454e-38 335 235
0.021516906 0.76700002 0.006724033 9.6844914e-39 336 235
0.022921326 0.76899999 0.0067415666 9.49974e-39 337 235
0.024269639 0.76899999 0.0067415666 1.069397e-38 338 235
0.025617953 0.76899999 0.0067415666 1.0601416e-38 339 235
0.026966266 0.76899999 0.0067415666 9.8685071e-39 340 235
0.028314579 0.76899999 0.0067415666 1.1804615e-38 341 235
0.02966289 0.76899999 0.0067415666 1.3921505e-38 342 235
-0.043033812 0.76700002 0.0053792265 1.4016215e-38 288 236
-0.041634649 0.76599997 0.0053722127 1.1526934e-38 289 236
-0.040186398 0.764 0.0053581866 1.0148274e-38 290 236
-0.038846854 0.764 0.0053581866 9.3185129e-39 291 236
-0.037409119 0.76200002 0.0053441599 9.4096155e-39 292 236
-0.036073081 0.76200002 0.0053441599 9.2255844e-39 293 236
-0.034691449 0.76099998 0.0053371461 9.5010923e-39 294 236
-0.033269498 0.759 0.0053231199 9.869516e-39 295 236
-0.031938717 0.759 0.0053231199 1.0880414e-38 296 236
-0.030527288 0.75700003 0.0053090933 1.097261e-38 297 236
-0.029200014 0.75700003 0.0053090933 1.1249527e-38 298 236
-0.027799098 0.755 0.0052950666 1.1341724e-38 299 236
-0.026475333 0.755 0.0052950666 1.171084e-38 300 236
-0.025151566 0.755 0.0052950666 1.1895232e-38 301 236
-0.02379624 0.75400001 0.0052880533 1.2079966e-38 302 236
-0.022474226 0.75400001 0.0052880533 1.2172162e-38 303 236
-0.021180267 0.755 0.0052950666 1.1895208e-38 304 236
-0.0198565 0.755 0.0052950666 1.1249848e-38 305 236
-0.018508185 0.75400001 0.0052880533 1.0606282e-38 306 236
-0.017186172 0.75400001 0.0052880533 1.0053476e-38 307 236
-0.015885198 0.755 0.0052950666 8.9496561e-39 308 236
-0.014561433 0.755 0.0052950666 8.8574619e-39 309 236
-0.013237666 0.755 0.0052950666 8.3957733e-39 310 236
-0.011913899 0.755 0.0052950666 8.1188318e-39 311 236
-0.010590133 0.755 0.0052950666 7.3823542e-39 312 236
-0.0092909131 0.75700003 0.0053090933 7.013936e-39 313 236
-0.0080057196 0.76099998 0.0053371461 6.367859e-39 314 236
-0.0066801999 0.76200002 0.0053441599 5.9068878e-39 315 236
-0.0053581866 0.764 0.0053581866 5.7181946e-39 316 236
-0.0040291594 0.76599997 0.0053722127 5.1650292e-39 317 236
-0.0026896133 0.76700002 0.0053792265 5.2536361e-39 318 236
-0.0013448066 0.76700002 0.0053792265 5.3461891e-39 319 236
0 0.76599997 0.0053722127 6.3589019e-39 320 236
0.0013430532 0.76599997 0.0053722127 7.3730524e-39 321 236
0.0026896133 0.76700002 0.0053792265 7.1018353e-39 322 236
0.0040291594 0.76599997 0.0053722127 7.5628148e-39 323 236
0.0053722127 0.76599997 0.0053722127 7.1068477e-39 324 236
0.0067152665 0.76599997 0.0053722127 7.4756246e-39 325 236
0.0080583189 0.76599997 0.0053722127 7.7532835e-39 326 236
0.0094013726 0.76599997 0.0053722127 8.1217017e-39 327 236
0.010716373 0.764 0.0053581866 9.5017453e-39 328 236
0.01205592 0.764 0.0053581866 1.02393e-38 329 236
0.013395466 0.764 0.0053581866 9.594657e-39 330 236
0.014735013 0.764 0.0053581866 8.6727147e-39 331 236
0.016074561 0.764 0.0053581866 1.097728e-38 332 236
0.017414106 0.764 0.0053581866 1.2728996e-38 333 236
0.018802745 0.76599997 0.0053722127 1.2357772e-38 334 236
0.020145798 0.76599997 0.0053722127 1.0974838e-38 335 236
0.021516906 0.76700002 0.0053792265 8.9472739e-39 336 236
0.022861714 0.76700002 0.0053792265 9.5004463e-39 337 236
0.024269639 0.76899999 0.0053932532 1.115456e-38 338 236
0.025617953 0.76899999 0.0053932532 1.0601386e-38 339 236
0.026896132 0.76700002 0.0053792265 9.5908258e-39 340 236
0.02824094 0.76700002 0.0053792265 1.2264858e-38 341 236
0.029585747 0.76700002 0.0053792265 1.3553444e-38 342 236
0.030930554 0.76700002 0.0053792265 1.5212607e-38 343 236
-0.043033812 0.76700002 0.00403442 1.3004938e-38 288 237
-0.041634649 0.76599997 0.0040291594 1.0792242e-38 289 237
-0.040186398 0.764 0.0040186401 9.9645885e-39 290 237
-0.038846854 0.764 0.0040186401 9.0426322e-39 291 237
-0.037409119 0.76200002 0.0040081199 9.4095945e-39 292 237
-0.036025736 0.76099998 0.0040028598 9.3173988e-39 293 237
-0.034600276 0.759 0.0039923396 9.6847422e-39 294 237
-0.033269498 0.759 0.0039923396 1.014572e-38 295 237
-0.031854562 0.75700003 0.0039818203 1.0605607e-38 296 237
-0.030527288 0.75700003 0.0039818203 1.0881834e-38 297 237
-0.029122867 0.755 0.0039712996 1.1157679e-38 298 237
-0.027799098 0.755 0.0039712996 1.1157679e-38 299 237
-0.026475333 0.755 0.0039712996 1.1433177e-38 300 237
-0.025151566 0.755 0.0039712996 1.1617569e-38 301 237
-0.02379624 0.75400001 0.00396604 1.1526795e-38 302 237
-0.022474226 0.75400001 0.00396604 1.14346e-38 303 237
-0.021180267 0.755 0.0039712996 1.1525714e-38 304 237
-0.019830201 0.75400001 0.00396604 1.1249131e-38 305 237
-0.018508185 0.75400001 0.00396604 1.0238582e-38 306 237
-0.017186172 0.75400001 0.00396604 9.869446e-39 307 237
-0.015885198 0.755 0.0039712996 9.0418503e-39 308 237
-0.014561433 0.755 0.0039712996 8.6727147e-39 309 237
-0.013237666 0.755 0.0039712996 8.2113848e-39 310 237
-0.011913899 0.755 0.0039712996 8.1191906e-39 311 237
-0.010590133 0.755 0.0039712996 7.4749072e-39 312 237
-0.0092663663 0.755 0.0039712996 7.0142948e-39 313 237
-0.0079846792 0.759 0.0039923396 6.4611294e-39 314 237
-0.0066714329 0.76099998 0.0040028598 5.8157698e-39 315 237
-0.0053441599 0.76200002 0.0040081199 5.9029418e-39 316 237
-0.0040186401 0.764 0.0040186401 5.0731937e-39 317 237
-0.0026790933 0.764 0.0040186401 5.3461891e-39 318 237
-0.0013430532 0.76599997 0.0040291594 5.8071602e-39 319 237
0 0.764 0.0040186401 6.3610458e-39 320 237
0.0013395466 0.764 0.0040186401 7.1908065e-39 321 237
0.0026861064 0.76599997 0.0040291594 7.0121424e-39 322 237
0.0040291594 0.76599997 0.0040291594 7.2887264e-39 323 237
0.0053581866 0.764 0.0040186401 7.2926711e-39 324 237
0.006697733 0.764 0.0040186401 7.7532835e-39 325 237
0.0080372803 0.764 0.0040186401 8.1220604e-39 326 237
0.0093522798 0.76200002 0.0040081199 8.76742e-39 327 237
0.01068832 0.76200002 0.0040081199 1.0328982e-38 328 237
0.01202436 0.76200002 0.0040081199 1.0513729e-38 329 237
0.0133604 0.76200002 0.0040081199 9.409551e-39 330 237
0.014735013 0.764 0.0040186401 8.9485799e-39 331 237
0.016074561 0.764 0.0040186401 1.1990369e-38 332 237
0.017414106 0.764 0.0040186401 1.3558054e-38 333 237
0.018753653 0.764 0.0040186401 1.3369047e-38 334 237
0.020145798 0.76599997 0.0040291594 1.1432939e-38 335 237
0.021488851 0.76599997 0.0040291594 8.7607134e-39 336 237
0.022861714 0.76700002 0.00403442 1.0328041e-38 337 237
0.024206521 0.76700002 0.00403442 1.2076513e-38 338 237
0.025551327 0.76700002 0.00403442 1.1154557e-38 339 237
0.026896132 0.76700002 0.00403442 1.0880131e-38 340 237
0.02824094 0.76700002 0.00403442 1.2816239e-38 341 237
0.029585747 0.76700002 0.00403442 1.3368341e-38 342 237
0.030930554 0.76700002 0.00403442 1.465908e-38 343 237
-0.043033812 0.76700002 0.0026896133 1.2912015e-38 288 238
-0.041689005 0.76700002 0.0026896133 1.0607126e-38 289 238
-0.040291596 0.76599997 0.0026861064 9.5039481e-39 290 238
-0.038846854 0.764 0.0026790933 8.5816317e-39 291 238
-0.037409119 0.76200002 0.00267208 9.2262598e-39 292 238
-0.036025736 0.76099998 0.0026685731 9.2262598e-39 293 238
-0.034600276 0.759 0.00266156 9.7776413e-39 294 238
-0.033269498 0.759 0.00266156 1.0146065e-38 295 238
-0.031854562 0.75700003 0.0026545466 1.0422282e-38 296 238
-0.030527288 0.75700003 0.0026545466 1.0606673e-38 297 238
-0.029122867 0.755 0.0026475333 1.1157679e-38 298 238
-0.027799098 0.755 0.0026475333 1.1065484e-38 299 238
-0.026475333 0.755 0.0026475333 1.1065481e-38 300 238
-0.025151566 0.755 0.0026475333 1.0973285e-38 301 238
-0.02379624 0.75400001 0.0026440267 1.0790323e-38 302 238
-0.022474226 0.75400001 0.0026440267 1.0790323e-38 303 238
-0.021152213 0.75400001 0.0026440267 1.0790312e-38 304 238
-0.019830201 0.75400001 0.0026440267 1.0605924e-38 305 238
-0.018508185 0.75400001 0.0026440267 1.0238223e-38 306 238
-0.017186172 0.75400001 0.0026440267 9.869446e-39 307 238
-0.01586416 0.75400001 0.0026440267 9.1329683e-39 308 238
-0.014542146 0.75400001 0.0026440267 8.8567444e-39 309 238
-0.013220133 0.75400001 0.0026440267 8.48725e-39 310 238
-0.01189812 0.75400001 0.0026440267 8.3950558e-39 311 238
-0.010576107 0.75400001 0.0026440267 7.8433253e-39 312 238
-0.0092663663 0.755 0.0026475333 7.4745484e-39 313 238
-0.0079636406 0.75700003 0.0026545466 7.197607e-39 314 238
-0.0066538998 0.759 0.00266156 6.5522474e-39 315 238
-0.0053371461 0.76099998 0.0026685731 5.8136174e-39 316 238
-0.0040081199 0.76200002 0.00267208 4.9835106e-39 317 238
-0.00267208 0.76200002 0.00267208 5.6252829e-39 318 238
-0.0013395466 0.764 0.0026790933 6.1784482e-39 319 238
0 0.76200002 0.00267208 6.8241666e-39 320 238
0.00133604 0.76200002 0.00267208 7.3773319e-39 321 238
0.00267208 0.76200002 0.00267208 7.013936e-39 322 238
0.0040186401 0.764 0.0026790933 7.5671014e-39 323 238
0.0053441599 0.76200002 0.00267208 8.1209842e-39 324 238
0.0066801999 0.76200002 0.00267208 8.5819554e-39 325 238
0.0080162399 0.76200002 0.00267208 8.7670613e-39 326 238
0.0093522798 0.76200002 0.00267208 9.4124209e-39 327 238
0.01068832 0.76200002 0.00267208 1.0331493e-38 328 238
0.01202436 0.76200002 0.00267208 1.0239299e-38 329 238
0.0133604 0.76200002 0.00267208 9.4091923e-39 330 238
0.01469644 0.76200002 0.00267208 9.2248038e-39 331 238
0.01603248 0.76200002 0.00267208 1.1714879e-38 332 238
0.01736852 0.76200002 0.00267208 1.3558792e-38 333 238
0.018753653 0.764 0.0026790933 1.3738553e-38 334 238
0.020145798 0.76599997 0.0026861064 1.2447814e-38 335 238
0.021488851 0.76599997 0.0026861064 9.7730689e-39 336 238
0.022861714 0.76700002 0.0026896133 1.0879415e-38 337 238
0.024206521 0.76700002 0.0026896133 1.1526233e-38 338 238
0.025551327 0.76700002 0.0026896133 1.1341841e-38 339 238
0.026896132 0.76700002 0.0026896133 1.1801028e-38 340 238
0.028204117 0.76599997 0.0026861064 1.2630429e-38 341 238
0.029547172 0.76599997 0.0026861064 1.2816972e-38 342 238
0.030890226 0.76599997 0.0026861064 1.4015515e-38 343 238
-0.043033812 0.76700002 0.0013448066 1.2818379e-38 288 239
-0.041689005 0.76700002 0.0013448066 1.0882271e-38 289 239
-0.040291596 0.76599997 0.0013430532 9.4117497e-39 290 239
-0.038846854 0.764 0.0013395466 8.6741832e-39 291 239
-0.037409119 0.76200002 0.00133604 9.3180897e-39 292 239
-0.036025736 0.76099998 0.0013342865 9.4102853e-39 293 239
-0.034691449 0.76099998 0.0013342865 9.7776385e-39 294 239
-0.033269498 0.759 0.00133078 1.0146421e-38 295 239
-0.031938717 0.759 0.00133078 1.060631e-38 296 239
-0.030527288 0.75700003 0.0013272733 1.0790341e-38 297 239
-0.029122867 0.755 0.0013237667 1.078997e-38 298 239
-0.027799098 0.755 0.0013237667 1.078997e-38 299 239
-0.026440267 0.75400001 0.0013220133 1.0605928e-38 300 239
-0.025118252 0.75400001 0.0013220133 1.0605928e-38 301 239
-0.02379624 0.75400001 0.0013220133 1.0513729e-38 302 239
-0.022474226 0.75400001 0.0013220133 1.0513729e-38 303 239
-0.021152213 0.75400001 0.0013220133 1.0514088e-38 304 239
-0.019830201 0.75400001 0.0013220133 1.0514088e-38 305 239
-0.018508185 0.75400001 0.0013220133 1.0146029e-38 306 239
-0.017186172 0.75400001 0.0013220133 9.9616402e-39 307 239
-0.01586416 0.75400001 0.0013220133 9.0429265e-39 308 239
-0.014542146 0.75400001 0.0013220133 8.6741496e-39 309 239
-0.013220133 0.75400001 0.0013220133 8.3057314e-39 310 239
-0.01189812 0.75400001 0.0013220133 8.121343e-39 311 239
-0.010576107 0.75400001 0.0013220133 7.936237e-39 312 239
-0.0092540924 0.75400001 0.0013220133 7.8440428e-39 313 239
-0.0079425992 0.755 0.0013237667 7.2915949e-39 314 239
-0.0066363667 0.75700003 0.0013272733 7.0150122e-39 315 239
-0.0053231199 0.759 0.00133078 6.3696526e-39 316 239
-0.0040028598 0.76099998 0.0013342865 6.0934287e-39 317 239
-0.00267208 0.76200002 0.00133604 5.7246517e-39 318 239
-0.00133604 0.76200002 0.00133604 6.0012344e-39 319 239
0 0.76200002 0.00133604 6.4611294e-39 320 239
0.00133604 0.76200002 0.00133604 6.9221005e-39 321 239
0.00267208 0.76200002 0.00133604 7.2004769e-39 322 239
0.0040081199 0.76200002 0.00133604 7.7536422e-39 323 239
0.0053441599 0.76200002 0.00133604 8.5823141e-39 324 239
0.0066714329 0.76099998 0.0013342865 8.6745083e-39 325 239
0.0080057196 0.76099998 0.0013342865 9.2280324e-39 326 239
0.0093400059 0.76099998 0.0013342865 9.5971681e-39 327 239
0.010674292 0.76099998 0.0013342865 1.0148181e-38 328 239
0.012008579 0.76099998 0.0013342865 9.9634339e-39 329 239
0.0133604 0.76200002 0.00133604 9.7772517e-39 330 239
0.01469644 0.76200002 0.00133604 9.6850575e-39 331 239
0.01603248 0.76200002 0.00133604 9.5961718e-39 332 239
0.01736852 0.76200002 0.00133604 1.1440084e-38 333 239
0.01870456 0.76200002 0.00133604 1.3095704e-38 334 239
0.020093199 0.764 0.0013395466 1.2727281e-38 335 239
0.021432746 0.764 0.0013395466 1.2169438e-38 336 239
0.022831906 0.76599997 0.0013430532 1.1892492e-38 337 239
0.024174958 0.76599997 0.0013430532 1.1158893e-38 338 239
0.025518013 0.76599997 0.0013430532 1.1343284e-38 339 239
0.026790932 0.764 0.0013395466 1.1526955e-38 340 239
0.028130481 0.764 0.0013395466 1.1065977e-38 341 239
0.029547172 0.76599997 0.0013430532 1.1344712e-38 342 239
-0.046081103 0.773 -0 1.6594122e-38 286 240
-0.044494338 0.76899999 -0 1.4565818e-38 287 240
-0.043033812 0.76700002 -0 1.2358476e-38 288 240
-0.041634649 0.76599997 -0 1.0698594e-38 289 240
-0.040291596 0.76599997 -0 1.0055317e-38 290 240
-0.038846854 0.764 -0 9.2255563e-39 291 240
-0.037360024 0.76099998 -0 9.2266101e-39 292 240
-0.036025736 0.76099998 -0 9.4110014e-39 293 240
-0.034600276 0.759 -0 9.595401e-39 294 240
-0.033269498 0.759 -0 9.9638248e-39 295 240
-0.031854562 0.75700003 -0 1.0240042e-38 296 240
-0.030527288 0.75700003 -0 1.0332237e-38 297 240
-0.029122867 0.755 -0 1.0974345e-38 298 240
-0.027799098 0.755 -0 1.0974345e-38 299 240
-0.026440267 0.75400001 -0 1.0973983e-38 300 240
-0.025118252 0.75400001 -0 1.0789595e-38 301 240
-0.02379624 0.75400001 -0 1.0330776e-38 302 240
-0.022474226 0.75400001 -0 1.0238582e-38 303 240
-0.021152213 0.75400001 -0 9.8712396e-39 304 240
-0.019830201 0.75400001 -0 9.8712396e-39 305 240
-0.018508185 0.75400001 -0 1.0056346e-38 306 240
-0.017186172 0.75400001 -0 9.9641513e-39 307 240
-0.01586416 0.75400001 -0 9.8705222e-39 308 240
-0.014542146 0.75400001 -0 9.5935808e-39 309 240
-0.013220133 0.75400001 -0 9.3169981e-39 310 240
-0.01189812 0.75400001 -0 9.1322509e-39 311 240
-0.010576107 0.75400001 -0 8.8563857e-39 312 240
-0.0092540924 0.75400001 -0 8.579803e-39 313 240
-0.0079425992 0.755 -0 8.3039378e-39 314 240
-0.0066363667 0.75700003 -0 8.1191906e-39 315 240
-0.0053090933 0.75700003 -0 7.7511311e-39 316 240
-0.0039923396 0.759 -0 7.3823542e-39 317 240
-0.00266156 0.759 -0 6.7395057e-39 318 240
-0.0013342865 0.76099998 -0 6.8317e-39 319 240
0 0.76099998 -0 7.1997594e-39 320 240
0.0013342865 0.76099998 -0 7.4759834e-39 321 240
0.0026685731 0.76099998 -0 7.8440428e-39 322 240
0.0040028598 0.76099998 -0 8.2131785e-39 323 240
0.0053371461 0.76099998 -0 8.9496561e-39 324 240
0.0066714329 0.76099998 -0 9.5950157e-39 325 240
0.0080057196 0.76099998 -0 1.0240375e-38 326 240
0.0093400059 0.76099998 -0 1.0148181e-38 327 240
0.010674292 0.76099998 -0 9.9634339e-39 328 240
0.012008579 0.76099998 -0 9.8712396e-39 329 240
0.013342866 0.76099998 -0 9.6868512e-39 330 240
0.014677152 0.76099998 -0 9.6868512e-39 331 240
0.01603248 0.76200002 -0 9.2248529e-39 332 240
0.01736852 0.76200002 -0 1.0331561e-38 333 240
0.01870456 0.76200002 -0 1.1807114e-38 334 240
0.0200406 0.76200002 -0 1.2544679e-38 335 240
0.021432746 0.764 -0 1.2909518e-38 336 240
0.022772292 0.764 -0 1.2264149e-38 337 240
0.024111839 0.764 -0 1.1068129e-38 338 240
0.025451386 0.764 -0 1.1621303e-38 339 240
0.026790932 0.764 -0 1.2815526e-38 340 240
0.028130481 0.764 -0 1.1616983e-38 341 240
0.029470026 0.764 -0 1.2076508e-38 342 240
-0.047497798 0.77399999 -0.0013570799 1.686963e-38 285 241
-0.046081103 0.773 -0.0013553266 1.6686671e-38 286 241
-0.044494338 0.76899999 -0.0013483133 1.438142e-38 287 241
-0.043033812 0.76700002 -0.0013448066 1.1990764e-38 288 241
-0.041634649 0.76599997 -0.0013430532 1.0515632e-38 289 241
-0.040291596 0.76599997 -0.0013430532 1.0515579e-38 290 241
-0.038846854 0.764 -0.0013395466 9.7776539e-39 291 241
-0.037360024 0.76099998 -0.0013342865 9.4117258e-39 292 241
-0.036025736 0.76099998 -0.0013342865 9.4117258e-39 293 241
-0.034600276 0.759 -0.00133078 9.5953954e-39 294 241
-0.033269498 0.759 -0.00133078 9.964178e-39 295 241
-0.031854562 0.75700003 -0.0013272733 1.0423711e-38 296 241
-0.030527288 0.75700003 -0.0013272733 1.0700297e-38 297 241
-0.029122867 0.755 -0.0013237667 1.0975789e-38 298 241
-0.027799098 0.755 -0.0013237667 1.0883594e-38 299 241
-0.026440267 0.75400001 -0.0013220133 1.0607717e-38 300 241
-0.025118252 0.75400001 -0.0013220133 1.0515523e-38 301 241
-0.02379624 0.75400001 -0.0013220133 1.014854e-38 302 241
-0.022474226 0.75400001 -0.0013220133 9.9641513e-39 303 241
-0.021152213 0.75400001 -0.0013220133 9.7801216e-39 304 241
-0.019830201 0.75400001 -0.0013220133 9.9641513e-39 305 241
-0.018508185 0.75400001 -0.0013220133 1.0424046e-38 306 241
-0.017140586 0.75199997 -0.0013185065 1.0516599e-38 307 241
-0.015822079 0.75199997 -0.0013185065 9.7801216e-39 308 241
-0.014542146 0.75400001 -0.0013220133 9.5031802e-39 309 241
-0.013220133 0.75400001 -0.0013220133 9.318433e-39 310 241
-0.01189812 0.75400001 -0.0013220133 9.042209e-39 311 241
-0.010576107 0.75400001 -0.0013220133 8.9496561e-39 312 241
-0.0092540924 0.75400001 -0.0013220133 8.8574619e-39 313 241
-0.0079425992 0.755 -0.0013237667 8.3057314e-39 314 241
-0.0066188332 0.755 -0.0013237667 8.121343e-39 315 241
-0.0052950666 0.755 -0.0013237667 7.7536422e-39 316 241
-0.0039818203 0.75700003 -0.0013272733 7.4774183e-39 317 241
-0.00266156 0.759 -0.00133078 6.926764e-39 318 241
-0.0013342865 0.76099998 -0.0013342865 6.926764e-39 319 241
0 0.76099998 -0.0013342865 7.3859415e-39 320 241
0.0013342865 0.76099998 -0.0013342865 7.5706887e-39 321 241
0.0026685731 0.76099998 -0.0013342865 8.2135372e-39 322 241
0.0039923396 0.759 -0.00133078 9.1354795e-39 323 241
0.0053231199 0.759 -0.00133078 1.079103e-38 324 241
0.0066538998 0.759 -0.00133078 1.079103e-38 325 241
0.0079846792 0.759 -0.00133078 1.0057422e-38 326 241
0.00931546 0.759 -0.00133078 9.7808391e-39 327 241
0.01064624 0.759 -0.00133078 9.9623577e-39 328 241
0.01197702 0.759 -0.00133078 9.8701634e-39 329 241
0.013342866 0.76099998 -0.0013342865 9.5939395e-39 330 241
0.014677152 0.76099998 -0.0013342865 9.7783279e-39 331 241
0.016011439 0.76099998 -0.0013342865 9.8687551e-39 332 241
0.017345725 0.76099998 -0.0013342865 9.9613095e-39 333 241
0.01870456 0.76200002 -0.00133604 9.412512e-39 334 241
0.0200406 0.76200002 -0.00133604 1.116387e-38 335 241
0.02137664 0.76200002 -0.00133604 1.3370496e-38 336 241
0.022772292 0.764 -0.0013395466 1.3462692e-38 337 241
0.024111839 0.764 -0.0013395466 1.2817688e-38 338 241
0.025451386 0.764 -0.0013395466 1.3002438e-38 339 241
0.026790932 0.764 -0.0013395466 1.2909518e-38 340 241
0.028130481 0.764 -0.0013395466 1.2264149e-38 341 241
0.029585747 0.76700002 -0.0013448066 1.2628961e-38 342 241
-0.047497798 0.77399999 -0.0027141599 1.6868911e-38 285 242
-0.046081103 0.773 -0.0027106532 1.6502276e-38 286 242
-0.044725779 0.773 -0.0027106532 1.4289221e-38 287 242
-0.043146025 0.76899999 -0.0026966266 1.2082236e-38 288 242
-0.041689005 0.76700002 -0.0026896133 1.0699301e-38 289 242
-0.040291596 0.76599997 -0.0026861064 1.0239714e-38 290 242
-0.038846854 0.764 -0.0026790933 9.4095945e-39 291 242
-0.037360024 0.76099998 -0.0026685731 9.4113699e-39 292 242
-0.035931058 0.759 -0.00266156 9.2273388e-39 293 242
-0.034600276 0.759 -0.00266156 9.5961143e-39 294 242
-0.033269498 0.759 -0.00266156 9.6883113e-39 295 242
-0.031854562 0.75700003 -0.0026545466 1.0331881e-38 296 242
-0.030527288 0.75700003 -0.0026545466 1.0977251e-38 297 242
-0.029122867 0.755 -0.0026475333 1.1345295e-38 298 242
-0.027799098 0.755 -0.0026475333 1.1068708e-38 299 242
-0.026440267 0.75400001 -0.0026440267 1.0976494e-38 300 242
-0.025118252 0.75400001 -0.0026440267 1.0792106e-38 301 242
-0.02379624 0.75400001 -0.0026440267 1.0057422e-38 302 242
-0.022474226 0.75400001 -0.0026440267 9.7804803e-39 303 242
-0.021152213 0.75400001 -0.0026440267 9.4127796e-39 304 242
-0.019830201 0.75400001 -0.0026440267 9.4127796e-39 305 242
-0.018508185 0.75400001 -0.0026440267 1.0056346e-38 306 242
-0.017140586 0.75199997 -0.0026370131 1.0332928e-38 307 242
-0.015822079 0.75199997 -0.0026370131 1.0790671e-38 308 242
-0.014542146 0.75400001 -0.0026440267 1.0514088e-38 309 242
-0.013220133 0.75400001 -0.0026440267 1.0053834e-38 310 242
-0.01189812 0.75400001 -0.0026440267 9.869446e-39 311 242
-0.010576107 0.75400001 -0.0026440267 9.5935808e-39 312 242
-0.0092540924 0.75400001 -0.0026440267 9.3169981e-39 313 242
-0.00793208 0.75400001 -0.0026440267 9.3169981e-39 314 242
-0.0066100666 0.75400001 -0.0026440267 9.1322509e-39 315 242
-0.0052950666 0.755 -0.0026475333 8.6737909e-39 316 242
-0.0039712996 0.755 -0.0026475333 8.4894024e-39 317 242
-0.0026545466 0.75700003 -0.0026545466 8.3057314e-39 318 242
-0.00133078 0.759 -0.00266156 8.3057314e-39 319 242
0 0.759 -0.00266156 8.4894024e-39 320 242
0.00133078 0.759 -0.00266156 8.5815966e-39 321 242
0.00266156 0.759 -0.00266156 9.868011e-39 322 242
0.0039923396 0.759 -0.00266156 1.0605565e-38 323 242
0.0053090933 0.75700003 -0.0026545466 1.0975421e-38 324 242
0.0066363667 0.75700003 -0.0026545466 1.0606282e-38 325 242
0.0079636406 0.75700003 -0.0026545466 1.0055628e-38 326 242
0.0092909131 0.75700003 -0.0026545466 9.8708809e-39 327 242
0.010618187 0.75700003 -0.0026545466 9.7783279e-39 328 242
0.01197702 0.759 -0.00266156 9.7783279e-39 329 242
0.0133078 0.759 -0.00266156 9.5024627e-39 330 242
0.014638579 0.759 -0.00266156 9.594657e-39 331 242
0.016011439 0.76099998 -0.0026685731 9.5946668e-39 332 242
0.017345725 0.76099998 -0.0026685731 9.5946668e-39 333 242
0.018680012 0.76099998 -0.0026685731 9.5014398e-39 334 242
0.0200406 0.76200002 -0.00267208 1.0331561e-38 335 242
0.02137664 0.76200002 -0.00267208 1.1160649e-38 336 242
0.022772292 0.764 -0.0026790933 1.1713822e-38 337 242
0.024111839 0.764 -0.0026790933 1.1896063e-38 338 242
0.025451386 0.764 -0.0026790933 1.1343248e-38 339 242
0.026790932 0.764 -0.0026790933 1.1252851e-38 340 242
0.028204117 0.76599997 -0.0026861064 1.10681e-38 341 242
0.029585747 0.76700002 -0.0026896133 1.1343611e-38 342 242
0.030930554 0.76700002 -0.0026896133 1.2358123e-38 343 242
-0.047497798 0.77399999 -0.0040712398 1.6776715e-38 285 243
-0.046081103 0.773 -0.0040659797 1.6227487e-38 286 243
-0.044725779 0.773 -0.0040659797 1.3922597e-38 287 243
-0.043146025 0.76899999 -0.0040449398 1.2174076e-38 288 243
-0.041689005 0.76700002 -0.00403442 1.0791142e-38 289 243
-0.040291596 0.76599997 -0.0040291594 1.0148237e-38 290 243
-0.038846854 0.764 -0.0040186401 9.2262822e-39 291 243
-0.037360024 0.76099998 -0.0040028598 9.135862e-39 292 243
-0.035931058 0.759 -0.0039923396 9.135862e-39 293 243
-0.034600276 0.759 -0.0039923396 9.3206092e-39 294 243
-0.033269498 0.759 -0.0039923396 9.5050019e-39 295 243
-0.031854562 0.75700003 -0.0039818203 1.0515945e-38 296 243
-0.030446632 0.755 -0.0039712996 1.1806684e-38 297 243
-0.029122867 0.755 -0.0039712996 1.2083271e-38 298 243
-0.027799098 0.755 -0.0039712996 1.125351e-38 299 243
-0.026440267 0.75400001 -0.00396604 1.0334034e-38 300 243
-0.025118252 0.75400001 -0.00396604 1.0057446e-38 301 243
-0.02379624 0.75400001 -0.00396604 9.8726788e-39 302 243
-0.022474226 0.75400001 -0.00396604 9.6886476e-39 303 243
-0.021152213 0.75400001 -0.00396604 9.5957332e-39 304 243
-0.019830201 0.75400001 -0.00396604 9.4117034e-39 305 243
-0.018508185 0.75400001 -0.00396604 9.7804803e-39 306 243
-0.017186172 0.75400001 -0.00396604 1.0057422e-38 307 243
-0.01586416 0.75400001 -0.00396604 1.0515882e-38 308 243
-0.014542146 0.75400001 -0.00396604 1.0331135e-38 309 243
-0.013220133 0.75400001 -0.00396604 1.0330776e-38 310 243
-0.01189812 0.75400001 -0.00396604 1.0146029e-38 311 243
-0.010576107 0.75400001 -0.00396604 9.7779692e-39 312 243
-0.0092540924 0.75400001 -0.00396604 9.685775e-39 313 243
-0.00793208 0.75400001 -0.00396604 9.593222e-39 314 243
-0.0066100666 0.75400001 -0.00396604 9.5010278e-39 315 243
-0.0052880533 0.75400001 -0.00396604 8.9503736e-39 316 243
-0.0039712996 0.755 -0.0039712996 8.9503736e-39 317 243
-0.0026545466 0.75700003 -0.0039818203 8.4915548e-39 318 243
-0.0013272733 0.75700003 -0.0039818203 8.4915548e-39 319 243
0 0.75700003 -0.0039818203 8.7670613e-39 320 243
0.0013272733 0.75700003 -0.0039818203 8.8592555e-39 321 243
0.0026545466 0.75700003 -0.0039818203 1.014567e-38 322 243
0.0039818203 0.75700003 -0.0039818203 1.0606282e-38 323 243
0.0053090933 0.75700003 -0.0039818203 1.0330058e-38 324 243
0.0066363667 0.75700003 -0.0039818203 1.014567e-38 325 243
0.0079636406 0.75700003 -0.0039818203 9.7783279e-39 326 243
0.0092909131 0.75700003 -0.0039818203 9.5942982e-39 327 243
0.010618187 0.75700003 -0.0039818203 9.5028215e-39 328 243
0.01197702 0.759 -0.0039923396 9.5028215e-39 329 243
0.0133078 0.759 -0.0039923396 9.3191505e-39 330 243
0.014638579 0.759 -0.0039923396 9.3191505e-39 331 243
0.016011439 0.76099998 -0.0040028598 9.1358466e-39 332 243
0.017345725 0.76099998 -0.0040028598 9.2280422e-39 333 243
0.018680012 0.76099998 -0.0040028598 9.6872463e-39 334 243
0.0200406 0.76200002 -0.0040081199 9.8712789e-39 335 243
0.02137664 0.76200002 -0.0040081199 9.0422413e-39 336 243
0.022772292 0.764 -0.0040186401 8.9500456e-39 337 243
0.024111839 0.764 -0.0040186401 9.7754875e-39 338 243
0.025451386 0.764 -0.0040186401 9.4988992e-39 339 243
0.026790932 0.764 -0.0040186401 9.0422567e-39 340 243
0.028204117 0.76599997 -0.0040291594 9.4113993e-39 341 243
0.02966289 0.76899999 -0.0040449398 1.0423434e-38 342 243
-0.047497798 0.77399999 -0.0054283198 1.6501207e-38 285 244
-0.046081103 0.773 -0.0054213065 1.5951624e-38 286 244
-0.044725779 0.773 -0.0054213065 1.3738568e-38 287 244
-0.043258239 0.77100003 -0.0054072798 1.1990769e-38 288 244
-0.041689005 0.76700002 -0.0053792265 1.0700031e-38 289 244
-0.040344197 0.76700002 -0.0053792265 1.0056769e-38 290 244
-0.038846854 0.764 -0.0053581866 9.226648e-39 291 244
-0.037409119 0.76200002 -0.0053441599 8.9532658e-39 292 244
-0.035931058 0.759 -0.0053231199 8.8610702e-39 293 244
-0.034600276 0.759 -0.0053231199 9.2280577e-39 294 244
-0.033269498 0.759 -0.0053231199 9.6890358e-39 295 244
-0.031854562 0.75700003 -0.0053090933 1.0792547e-38 296 244
-0.030446632 0.755 -0.0052950666 1.2452429e-38 297 244
-0.029122867 0.755 -0.0052950666 1.2914145e-38 298 244
-0.027799098 0.755 -0.0052950666 1.2268776e-38 299 244
-0.026440267 0.75400001 -0.0052880533 1.1072712e-38 300 244
-0.025118252 0.75400001 -0.0052880533 1.0335147e-38 301 244
-0.02379624 0.75400001 -0.0052880533 9.7812132e-39 302 244
-0.022474226 0.75400001 -0.0052880533 9.5046249e-39 303 244
-0.021152213 0.75400001 -0.0052880533 9.3223791e-39 304 244
-0.019830201 0.75400001 -0.0052880533 9.1376319e-39 305 244
-0.018508185 0.75400001 -0.0052880533 9.5049739e-39 306 244
-0.017186172 0.75400001 -0.0052880533 9.5971681e-39 307 244
-0.01586416 0.75400001 -0.0052880533 1.0331135e-38 308 244
-0.014542146 0.75400001 -0.0052880533 1.0515882e-38 309 244
-0.013220133 0.75400001 -0.0052880533 1.1526431e-38 310 244
-0.01189812 0.75400001 -0.0052880533 1.1342043e-38 311 244
-0.010576107 0.75400001 -0.0052880533 1.06974e-38 312 244
-0.0092540924 0.75400001 -0.0052880533 1.0328982e-38 313 244
-0.00793208 0.75400001 -0.0052880533 9.5024627e-39 314 244
-0.0066100666 0.75400001 -0.0052880533 9.5024627e-39 315 244
-0.0052880533 0.75400001 -0.0052880533 9.1351207e-39 316 244
-0.0039712996 0.755 -0.0052950666 8.9507323e-39 317 244
-0.0026475333 0.755 -0.0052950666 8.7670613e-39 318 244
-0.0013237667 0.755 -0.0052950666 8.8592555e-39 319 244
0 0.755 -0.0052950666 9.0429265e-39 320 244
0.0013237667 0.755 -0.0052950666 9.227315e-39 321 244
0.0026475333 0.755 -0.0052950666 9.5953744e-39 322 244
0.0039712996 0.755 -0.0052950666 9.6875686e-39 323 244
0.0052950666 0.755 -0.0052950666 9.8701634e-39 324 244
0.0066188332 0.755 -0.0052950666 9.7779692e-39 325 244
0.0079636406 0.75700003 -0.0053090933 9.3198679e-39 326 244
0.0092909131 0.75700003 -0.0053090933 9.3198679e-39 327 244
0.010618187 0.75700003 -0.0053090933 9.5031802e-39 328 244
0.01194546 0.75700003 -0.0053090933 9.410986e-39 329 244
0.0133078 0.759 -0.0053231199 9.2276737e-39 330 244
0.014638579 0.759 -0.0053231199 9.2276737e-39 331 244
0.015969358 0.759 -0.0053231199 9.0436482e-39 332 244
0.017345725 0.76099998 -0.0053371461 9.1358438e-39 333 244
0.018680012 0.76099998 -0.0053371461 9.4113573e-39 334 244
0.020014299 0.76099998 -0.0053371461 9.4113573e-39 335 244
0.02137664 0.76200002 -0.0053441599 9.502104e-39 336 244
0.022772292 0.764 -0.0053581866 9.1336858e-39 337 244
0.024111839 0.764 -0.0053581866 9.6846988e-39 338 244
0.025518013 0.76599997 -0.0053722127 9.9616444e-39 339 244
0.026861066 0.76599997 -0.0053722127 9.7787133e-39 340 244
0.02824094 0.76700002 -0.0053792265 9.8709089e-39 341 244
0.02966289 0.76899999 -0.0053932532 1.1249585e-38 342 244
-0.047620531 0.77600002 -0.0068029333 1.6500124e-38 285 245
-0.046140719 0.77399999 -0.0067853997 1.5858352e-38 286 245
-0.044725779 0.773 -0.0067766332 1.4014439e-38 287 245
-0.043258239 0.77100003 -0.0067590997 1.2449239e-38 288 245
-0.041797712 0.76899999 -0.0067415666 1.11585e-38 289 245
-0.040344197 0.76700002 -0.006724033 1.0424125e-38 290 245
-0.038948543 0.76599997 -0.0067152665 9.6865597e-39 291 245
-0.037409119 0.76200002 -0.0066801999 9.2280605e-39 292 245
-0.036025736 0.76099998 -0.0066714329 9.1355061e-39 293 245
-0.034600276 0.759 -0.0066538998 9.0443895e-39 294 245
-0.033269498 0.759 -0.0066538998 9.5053676e-39 295 245
-0.031854562 0.75700003 -0.0066363667 1.0151148e-38 296 245
-0.030527288 0.75700003 -0.0066363667 1.2179451e-38 297 245
-0.029122867 0.755 -0.0066188332 1.310036e-38 298 245
-0.027799098 0.755 -0.0066188332 1.2823414e-38 299 245
-0.026475333 0.755 -0.0066188332 1.2363139e-38 300 245
-0.025118252 0.75400001 -0.0066100666 1.1348987e-38 301 245
-0.02379624 0.75400001 -0.0066100666 9.6926357e-39 302 245
-0.022474226 0.75400001 -0.0066100666 8.6781237e-39 303 245
-0.021152213 0.75400001 -0.0066100666 9.0457964e-39 304 245
-0.019830201 0.75400001 -0.0066100666 8.8614079e-39 305 245
-0.018508185 0.75400001 -0.0066100666 9.4124209e-39 306 245
-0.017186172 0.75400001 -0.0066100666 9.5046151e-39 307 245
-0.01586416 0.75400001 -0.0066100666 9.5049739e-39 308 245
-0.014542146 0.75400001 -0.0066100666 9.8741151e-39 309 245
-0.013220133 0.75400001 -0.0066100666 1.2081049e-38 310 245
-0.01189812 0.75400001 -0.0066100666 1.1804102e-38 311 245
-0.010576107 0.75400001 -0.0066100666 1.152679e-38 312 245
-0.0092540924 0.75400001 -0.0066100666 1.0973624e-38 313 245
-0.00793208 0.75400001 -0.0066100666 1.0514088e-38 314 245
-0.0066188332 0.755 -0.0066188332 1.0145311e-38 315 245
-0.0052950666 0.755 -0.0066188332 9.318433e-39 316 245
-0.0039712996 0.755 -0.0066188332 9.318433e-39 317 245
-0.0026475333 0.755 -0.0066188332 9.1344033e-39 318 245
-0.0013237667 0.755 -0.0066188332 9.410986e-39 319 245
0 0.755 -0.0066188332 9.410986e-39 320 245
0.0013220133 0.75400001 -0.0066100666 9.410986e-39 321 245
0.0026440267 0.75400001 -0.0066100666 9.5031802e-39 322 245
0.00396604 0.75400001 -0.0066100666 9.5031802e-39 323 245
0.0052880533 0.75400001 -0.0066100666 9.5031802e-39 324 245
0.0066100666 0.75400001 -0.0066100666 9.410986e-39 325 245
0.0079425992 0.755 -0.0066188332 9.2276737e-39 326 245
0.0092663663 0.755 -0.0066188332 9.3198679e-39 327 245
0.010590133 0.755 -0.0066188332 9.2280324e-39 328 245
0.011913899 0.755 -0.0066188332 9.1358382e-39 329 245
0.013272733 0.75700003 -0.0066363667 9.0443614e-39 330 245
0.014600007 0.75700003 -0.0066363667 9.0443614e-39 331 245
0.015969358 0.759 -0.0066538998 8.9514511e-39 332 245
0.017300138 0.759 -0.0066538998 9.1358438e-39 333 245
0.018680012 0.76099998 -0.0066714329 9.0432979e-39 334 245
0.020014299 0.76099998 -0.0066714329 9.0432979e-39 335 245
0.02137664 0.76200002 -0.0066801999 9.5939535e-39 336 245
0.022772292 0.764 -0.006697733 9.5939535e-39 337 245
0.024111839 0.764 -0.006697733 9.6857932e-39 338 245
0.025518013 0.76599997 -0.0067152665 1.0054574e-38 339 245
0.026861066 0.76599997 -0.0067152665 9.9627528e-39 340 245
0.02824094 0.76700002 -0.006724033 9.9627528e-39 341 245
0.029740039 0.77100003 -0.0067590997 1.143398e-38 342 245
-0.046081103 0.773 -0.0081319595 1.604202e-38 286 246
-0.044610061 0.77100003 -0.0081109209 1.43825e-38 287 246
-0.043146025 0.76899999 -0.0080898795 1.3000971e-38 288 246
-0.041689005 0.76700002 -0.00806884 1.1433645e-38 289 246
-0.040344197 0.76700002 -0.00806884 1.0975141e-38 290 246
-0.038948543 0.76599997 -0.0080583189 1.0329771e-38 291 246
-0.037409119 0.76200002 -0.0080162399 9.1347872e-39 292 246
-0.036025736 0.76099998 -0.0080057196 9.0425916e-39 293 246
-0.034691449 0.76099998 -0.0080057196 8.8599954e-39 294 246
-0.033269498 0.759 -0.0079846792 9.2287765e-39 295 246
-0.031854562 0.75700003 -0.0079636406 8.9561945e-39 296 246
-0.030527288 0.75700003 -0.0079636406 1.116889e-38 297 246
-0.029122867 0.755 -0.0079425992 1.1905774e-38 298 246
-0.027799098 0.755 -0.0079425992 1.1444796e-38 299 246
-0.026475333 0.755 -0.0079425992 1.2824859e-38 300 246
-0.025118252 0.75400001 -0.00793208 1.4208153e-38 301 246
-0.02379624 0.75400001 -0.00793208 1.2731922e-38 302 246
-0.022474226 0.75400001 -0.00793208 1.1533379e-38 303 246
-0.021152213 0.75400001 -0.00793208 1.0150387e-38 304 246
-0.019830201 0.75400001 -0.00793208 9.4128217e-39 305 246
-0.018508185 0.75400001 -0.00793208 9.2294674e-39 306 246
-0.017186172 0.75400001 -0.00793208 9.2294674e-39 307 246
-0.01586416 0.75400001 -0.00793208 9.4127796e-39 308 246
-0.014542146 0.75400001 -0.00793208 9.6897224e-39 309 246
-0.013220133 0.75400001 -0.00793208 1.1714077e-38 310 246
-0.01189812 0.75400001 -0.00793208 1.1806273e-38 311 246
-0.010576107 0.75400001 -0.00793208 1.2081062e-38 312 246
-0.0092540924 0.75400001 -0.00793208 1.2265812e-38 313 246
-0.00793208 0.75400001 -0.00793208 1.2354039e-38 314 246
-0.0066188332 0.755 -0.0079425992 1.1155502e-38 315 246
-0.0052950666 0.755 -0.0079425992 9.4120622e-39 316 246
-0.0039712996 0.755 -0.0079425992 9.3198679e-39 317 246
-0.0026475333 0.755 -0.0079425992 9.1361969e-39 318 246
-0.0013237667 0.755 -0.0079425992 9.1361969e-39 319 246
0 0.75400001 -0.00793208 9.2283912e-39 320 246
0.0013220133 0.75400001 -0.00793208 9.2283912e-39 321 246
0.0026440267 0.75400001 -0.00793208 9.5031802e-39 322 246
0.00396604 0.75400001 -0.00793208 9.5953744e-39 323 246
0.0052880533 0.75400001 -0.00793208 9.2276737e-39 324 246
0.0066100666 0.75400001 -0.00793208 9.2276737e-39 325 246
0.0079425992 0.755 -0.0079425992 9.1358382e-39 326 246
0.0092663663 0.755 -0.0079425992 9.1358382e-39 327 246
0.010590133 0.755 -0.0079425992 9.1354795e-39 328 246
0.011913899 0.755 -0.0079425992 9.1354795e-39 329 246
0.013272733 0.75700003 -0.0079636406 8.9518085e-39 330 246
0.014600007 0.75700003 -0.0079636406 8.9518085e-39 331 246
0.015969358 0.759 -0.0079846792 8.9518085e-39 332 246
0.017300138 0.759 -0.0079846792 8.8592555e-39 333 246
0.018680012 0.76099998 -0.0080057196 9.1340445e-39 334 246
0.020014299 0.76099998 -0.0080057196 9.2265975e-39 335 246
0.02137664 0.76200002 -0.0080162399 9.4099098e-39 336 246
0.022772292 0.764 -0.0080372803 9.594301e-39 337 246
0.024174958 0.76599997 -0.0080583189 9.6861463e-39 338 246
0.025551327 0.76700002 -0.00806884 9.9623731e-39 339 246
0.026896132 0.76700002 -0.00806884 1.051413e-38 340 246
0.02824094 0.76700002 -0.00806884 1.0237545e-38 341 246
0.031745855 0.82300001 -0.0086579602 1.1526176e-38 342 246
