# .PCD v.7 - Point Cloud Data file format
FIELDS x y z rgb imX imY
SIZE 4 4 4 4 4 4
TYPE F F F F F F
COUNT 1 1 1 1 1 1
WIDTH 836
HEIGHT 1
VIEWPOINT 0 0 0 1 0 0 0
POINTS 836
DATA ascii
0.047934376 0.70099998 -0.058996156 1.0314992e-38 359 288
0.049303733 0.70300001 -0.059164476 1.0407189e-38 360 288
0.050608214 0.704 -0.059248637 1.059158e-38 361 288
0.051842559 0.704 -0.059248637 1.1051852e-38 362 288
0.053076904 0.704 -0.059248637 1.151283e-38 363 288
0.054311249 0.704 -0.059248637 1.1698323e-38 364 288
-0.017428132 0.70999998 -0.060998458 1.2252588e-38 306 289
-0.016183265 0.70999998 -0.060998458 1.1607219e-38 307 289
-0.01489632 0.708 -0.060826641 1.1424234e-38 308 289
-0.013635674 0.70700002 -0.060740728 1.1239483e-38 309 289
-0.012378532 0.70599997 -0.060654808 1.1147269e-38 310 289
-0.011109119 0.704 -0.060482983 1.1147269e-38 311 289
-0.0098186666 0.69999999 -0.060139328 1.1055427e-38 312 289
-0.0085667865 0.69800001 -0.059967503 1.0963229e-38 313 289
-0.00733244 0.69700003 -0.05988159 1.0962508e-38 314 289
-0.0060840664 0.69400001 -0.059623852 1.0962508e-38 315 289
-0.0048672534 0.69400001 -0.059623852 1.0594804e-38 316 289
-0.0036504399 0.69400001 -0.059623852 1.0594804e-38 317 289
-0.00243012 0.69300002 -0.05953794 1.0502974e-38 318 289
-0.00121506 0.69300002 -0.05953794 1.0502974e-38 319 289
0 0.69300002 -0.05953794 1.0501902e-38 320 289
0.0012115532 0.69099998 -0.059366114 1.0501902e-38 321 289
0.0024231065 0.69099998 -0.059366114 1.077741e-38 322 289
0.0036346598 0.69099998 -0.059366114 1.0685215e-38 323 289
0.0048391996 0.69 -0.059280202 1.0685568e-38 324 289
0.0060489997 0.69 -0.059280202 1.0685568e-38 325 289
0.0072587994 0.69 -0.059280202 1.0777398e-38 326 289
0.0084440531 0.68800002 -0.059108373 1.0777398e-38 327 289
0.0096503468 0.68800002 -0.059108373 1.0594448e-38 328 289
0.010856641 0.68800002 -0.059108373 1.0502253e-38 329 289
0.012062933 0.68800002 -0.059108373 1.0685921e-38 330 289
0.013269227 0.68800002 -0.059108373 1.0501891e-38 331 289
0.014475521 0.68800002 -0.059108373 1.0317861e-38 332 289
0.015681813 0.68800002 -0.059108373 1.0317861e-38 333 289
0.016888106 0.68800002 -0.059108373 1.0409697e-38 334 289
0.0180944 0.68800002 -0.059108373 1.0317144e-38 335 289
0.019300694 0.68800002 -0.059108373 1.0041996e-38 336 289
0.020506985 0.68800002 -0.059108373 1.0041996e-38 337 289
0.021713281 0.68800002 -0.059108373 1.0224595e-38 338 289
0.022919573 0.68800002 -0.059108373 1.0132041e-38 339 289
0.024125867 0.68800002 -0.059108373 1.0407189e-38 340 289
0.02533216 0.68800002 -0.059108373 1.0407189e-38 341 289
0.026538454 0.68800002 -0.059108373 1.0223874e-38 342 289
0.027825398 0.69 -0.059280202 1.0223874e-38 343 289
0.029035198 0.69 -0.059280202 1.0132397e-38 344 289
0.030244999 0.69 -0.059280202 1.0224591e-38 345 289
0.031500384 0.69099998 -0.059366114 9.8576078e-39 346 289
0.032711938 0.69099998 -0.059366114 9.8576078e-39 347 289
0.033923492 0.69099998 -0.059366114 1.0132397e-38 348 289
0.035236739 0.69300002 -0.05953794 1.0040203e-38 349 289
0.036451802 0.69300002 -0.05953794 1.0040203e-38 350 289
0.037666857 0.69300002 -0.05953794 9.8561729e-39 351 289
0.038938027 0.69400001 -0.059623852 9.7643374e-39 352 289
0.040154841 0.69400001 -0.059623852 9.7643374e-39 353 289
0.041490879 0.69599998 -0.059795678 1.0223156e-38 354 289
0.042711195 0.69599998 -0.059795678 1.0130962e-38 355 289
0.043994639 0.69700003 -0.05988159 1.0222797e-38 356 289
0.045281585 0.69800001 -0.059967503 1.0222797e-38 357 289
0.046638668 0.69999999 -0.060139328 1.0039126e-38 358 289
0.047934376 0.70099998 -0.060225245 1.0131322e-38 359 289
0.049373865 0.704 -0.060482983 1.0223167e-38 360 289
0.050608214 0.704 -0.060482983 1.0499753e-38 361 289
0.051842559 0.704 -0.060482983 1.1052223e-38 362 289
0.053076904 0.704 -0.060482983 1.1513203e-38 363 289
0.054311249 0.704 -0.060482983 1.1791603e-38 364 289
-0.016183265 0.70999998 -0.062243331 1.1976001e-38 307 290
-0.01489632 0.708 -0.062068 1.1424231e-38 308 290
-0.013654959 0.708 -0.062068 1.1239839e-38 309 290
-0.012396066 0.70700002 -0.061980337 1.096396e-38 310 290
-0.011140679 0.70599997 -0.061892662 1.096396e-38 311 290
-0.0098326923 0.70099998 -0.06145433 1.1055427e-38 312 290
-0.0085913334 0.69999999 -0.061366666 1.1055427e-38 313 290
-0.0073429602 0.69800001 -0.061191335 1.0871386e-38 314 290
-0.0061015999 0.69599998 -0.061015997 1.0871386e-38 315 290
-0.0048672534 0.69400001 -0.060840666 1.0688073e-38 316 290
-0.0036504399 0.69400001 -0.060840666 1.0595879e-38 317 290
-0.00243012 0.69300002 -0.060752999 1.0502974e-38 318 290
-0.00121506 0.69300002 -0.060752999 1.0502974e-38 319 290
0 0.69300002 -0.060752999 1.05019e-38 320 290
0.00121506 0.69300002 -0.060752999 1.0409704e-38 321 290
0.0024231065 0.69099998 -0.060577665 1.0685568e-38 322 290
0.0036346598 0.69099998 -0.060577665 1.0501537e-38 323 290
0.0048462129 0.69099998 -0.060577665 1.0592652e-38 324 290
0.0060577663 0.69099998 -0.060577665 1.0684849e-38 325 290
0.0072693196 0.69099998 -0.060577665 1.0501891e-38 326 290
0.0084686 0.69 -0.060489997 1.0501891e-38 327 290
0.0096783992 0.69 -0.060489997 1.0502253e-38 328 290
0.010856641 0.68800002 -0.060314666 1.0502253e-38 329 290
0.012062933 0.68800002 -0.060314666 1.0501537e-38 330 290
0.013269227 0.68800002 -0.060314666 1.040934e-38 331 290
0.014475521 0.68800002 -0.060314666 1.0317144e-38 332 290
0.015681813 0.68800002 -0.060314666 1.0317144e-38 333 290
0.016888106 0.68800002 -0.060314666 1.0225667e-38 334 290
0.0180944 0.68800002 -0.060314666 1.0225667e-38 335 290
0.019300694 0.68800002 -0.060314666 9.949802e-39 336 290
0.020506985 0.68800002 -0.060314666 9.949802e-39 337 290
0.021776399 0.69 -0.060489997 1.0041279e-38 338 290
0.022986198 0.69 -0.060489997 9.9490846e-39 339 290
0.024195999 0.69 -0.060489997 1.0407545e-38 340 290
0.025405798 0.69 -0.060489997 1.0407545e-38 341 290
0.026615599 0.69 -0.060489997 1.0223874e-38 342 290
0.027825398 0.69 -0.060489997 1.0223874e-38 343 290
0.029077278 0.69099998 -0.060577665 1.0223874e-38 344 290
0.030288832 0.69099998 -0.060577665 1.0223874e-38 345 290
0.031500384 0.69099998 -0.060577665 9.9490846e-39 346 290
0.03280662 0.69300002 -0.060752999 9.9490846e-39 347 290
0.034021679 0.69300002 -0.060752999 1.0040203e-38 348 290
0.035236739 0.69300002 -0.060752999 1.0040203e-38 349 290
0.036451802 0.69300002 -0.060752999 1.0039485e-38 350 290
0.037666857 0.69300002 -0.060752999 1.0039485e-38 351 290
0.038938027 0.69400001 -0.060840666 9.9476496e-39 352 290
0.040154841 0.69400001 -0.060840666 9.9476496e-39 353 290
0.041490879 0.69599998 -0.061015997 1.0223156e-38 354 290
0.042772565 0.69700003 -0.061103668 1.031535e-38 355 290
0.043994639 0.69700003 -0.061103668 1.0132038e-38 356 290
0.045281585 0.69800001 -0.061191335 1.0224232e-38 357 290
0.046638668 0.69999999 -0.061366666 1.0223874e-38 358 290
0.047865998 0.69999999 -0.061366666 1.0223874e-38 359 290
0.049373865 0.704 -0.061717331 1.0499034e-38 360 290
0.050608214 0.704 -0.061717331 1.0867458e-38 361 290
0.051842559 0.704 -0.061717331 1.1235542e-38 362 290
0.053076904 0.704 -0.061717331 1.1788716e-38 363 290
-0.016183265 0.70999998 -0.063488193 1.1793055e-38 307 291
-0.014938398 0.70999998 -0.063488193 1.1240569e-38 308 291
-0.013654959 0.708 -0.063309364 1.0963622e-38 309 291
-0.0124136 0.708 -0.063309364 1.1239117e-38 310 291
-0.011140679 0.70599997 -0.063130513 1.1239117e-38 311 291
-0.0098326923 0.70099998 -0.062683418 1.096396e-38 312 291
-0.0085913334 0.69999999 -0.062593997 1.096396e-38 313 291
-0.0073429602 0.69800001 -0.062415157 1.0872111e-38 314 291
-0.0061015999 0.69599998 -0.062236317 1.0779914e-38 315 291
-0.0048672534 0.69400001 -0.06205748 1.0871034e-38 316 291
-0.0036504399 0.69400001 -0.06205748 1.0687003e-38 317 291
-0.0024336267 0.69400001 -0.06205748 1.0595173e-38 318 291
-0.0012168133 0.69400001 -0.06205748 1.0318587e-38 319 291
0 0.69400001 -0.06205748 1.0318587e-38 320 291
0.00121506 0.69300002 -0.061968062 1.0226392e-38 321 291
0.00243012 0.69300002 -0.061968062 1.0501539e-38 322 291
0.0036451798 0.69300002 -0.061968062 1.0408985e-38 323 291
0.00486024 0.69300002 -0.061968062 1.0409338e-38 324 291
0.0060577663 0.69099998 -0.061789215 1.0409338e-38 325 291
0.0072693196 0.69099998 -0.061789215 1.0317861e-38 326 291
0.008480873 0.69099998 -0.061789215 1.0410056e-38 327 291
0.0096783992 0.69 -0.061699796 1.040934e-38 328 291
0.010888199 0.69 -0.061699796 1.040934e-38 329 291
0.012097999 0.69 -0.061699796 1.0592652e-38 330 291
0.0133078 0.69 -0.061699796 1.0500456e-38 331 291
0.014475521 0.68800002 -0.06152096 1.0317144e-38 332 291
0.015681813 0.68800002 -0.06152096 1.022495e-38 333 291
0.016888106 0.68800002 -0.06152096 1.0041638e-38 334 291
0.018146999 0.69 -0.061699796 1.0041638e-38 335 291
0.019356798 0.69 -0.061699796 1.0132756e-38 336 291
0.020566599 0.69 -0.061699796 1.0132756e-38 337 291
0.021776399 0.69 -0.061699796 1.0040203e-38 338 291
0.023019511 0.69099998 -0.061789215 1.0132397e-38 339 291
0.024231065 0.69099998 -0.061789215 1.0224232e-38 340 291
0.025442619 0.69099998 -0.061789215 1.0132038e-38 341 291
0.026654173 0.69099998 -0.061789215 1.0131679e-38 342 291
0.027865725 0.69099998 -0.061789215 1.0223874e-38 343 291
0.029077278 0.69099998 -0.061789215 1.0040203e-38 344 291
0.030288832 0.69099998 -0.061789215 1.0040203e-38 345 291
0.031591557 0.69300002 -0.061968062 1.0040203e-38 346 291
0.03280662 0.69300002 -0.061968062 1.0040203e-38 347 291
0.034021679 0.69300002 -0.061968062 1.0039485e-38 348 291
0.035236739 0.69300002 -0.061968062 1.0039485e-38 349 291
0.036504399 0.69400001 -0.06205748 1.0039485e-38 350 291
0.037721213 0.69400001 -0.06205748 9.9472909e-39 351 291
0.038938027 0.69400001 -0.06205748 9.9476496e-39 352 291
0.040270556 0.69599998 -0.062236317 1.0039844e-38 353 291
0.041550495 0.69700003 -0.062325738 1.031535e-38 354 291
0.042772565 0.69700003 -0.062325738 1.031535e-38 355 291
0.04405776 0.69800001 -0.062415157 1.0132397e-38 356 291
0.045281585 0.69800001 -0.062415157 1.0132397e-38 357 291
0.046638668 0.69999999 -0.062593997 1.0132044e-38 358 291
0.047865998 0.69999999 -0.062593997 1.0132044e-38 359 291
0.049373865 0.704 -0.062951677 1.0407204e-38 360 291
0.050608214 0.704 -0.062951677 1.0683792e-38 361 291
0.051989835 0.70599997 -0.063130513 1.1236265e-38 362 291
-0.016183265 0.70999998 -0.064733058 1.1793055e-38 307 292
-0.01489632 0.708 -0.06455072 1.1607193e-38 308 292
-0.013654959 0.708 -0.06455072 1.1330965e-38 309 292
-0.012396066 0.70700002 -0.064459547 1.1239117e-38 310 292
-0.011140679 0.70599997 -0.064368367 1.1239117e-38 311 292
-0.0098326923 0.70099998 -0.063912503 1.096396e-38 312 292
-0.0085913334 0.69999999 -0.063821331 1.096396e-38 313 292
-0.0073429602 0.69800001 -0.063638985 1.0964313e-38 314 292
-0.0061103669 0.69700003 -0.06354782 1.0872117e-38 315 292
-0.0048882933 0.69700003 -0.06354782 1.0963229e-38 316 292
-0.0036504399 0.69400001 -0.063274294 1.0871034e-38 317 292
-0.0024336267 0.69400001 -0.063274294 1.059517e-38 318 292
-0.0012168133 0.69400001 -0.063274294 1.0502974e-38 319 292
0 0.69400001 -0.063274294 1.05019e-38 320 292
0.0012168133 0.69400001 -0.063274294 1.0409704e-38 321 292
0.0024336267 0.69400001 -0.063274294 1.0501537e-38 322 292
0.0036451798 0.69300002 -0.063183114 1.040934e-38 323 292
0.00486024 0.69300002 -0.063183114 1.0317861e-38 324 292
0.0060753003 0.69300002 -0.063183114 1.0317861e-38 325 292
0.0072693196 0.69099998 -0.063000768 1.0317863e-38 326 292
0.008480873 0.69099998 -0.063000768 1.0317863e-38 327 292
0.0096783992 0.69 -0.062909603 1.0225314e-38 328 292
0.010888199 0.69 -0.062909603 1.0225314e-38 329 292
0.012097999 0.69 -0.062909603 1.0316791e-38 330 292
0.0133078 0.69 -0.062909603 1.0316791e-38 331 292
0.014517599 0.69 -0.062909603 1.0408262e-38 332 292
0.015727401 0.69 -0.062909603 1.0223874e-38 333 292
0.0169372 0.69 -0.062909603 1.0224232e-38 334 292
0.018146999 0.69 -0.062909603 1.0224232e-38 335 292
0.019356798 0.69 -0.062909603 1.0132756e-38 336 292
0.020596405 0.69099998 -0.063000768 1.0132756e-38 337 292
0.021807959 0.69099998 -0.063000768 1.0132397e-38 338 292
0.023019511 0.69099998 -0.063000768 1.0040203e-38 339 292
0.024231065 0.69099998 -0.063000768 1.0040203e-38 340 292
0.025442619 0.69099998 -0.063000768 1.0040203e-38 341 292
0.026654173 0.69099998 -0.063000768 1.0132397e-38 342 292
0.027946379 0.69300002 -0.063183114 1.0040203e-38 343 292
0.029161438 0.69300002 -0.063183114 1.0039485e-38 344 292
0.0303765 0.69300002 -0.063183114 1.0131679e-38 345 292
0.031591557 0.69300002 -0.063183114 1.0132038e-38 346 292
0.03280662 0.69300002 -0.063183114 1.0132038e-38 347 292
0.034070771 0.69400001 -0.063274294 1.0039485e-38 348 292
0.035287585 0.69400001 -0.063274294 1.0039485e-38 349 292
0.036504399 0.69400001 -0.063274294 1.0039485e-38 350 292
0.037721213 0.69400001 -0.063274294 1.0039485e-38 351 292
0.039050236 0.69599998 -0.063456632 1.0132038e-38 352 292
0.040270556 0.69599998 -0.063456632 1.0132038e-38 353 292
0.041550495 0.69700003 -0.06354782 1.0131679e-38 354 292
0.042833932 0.69800001 -0.063638985 1.0131679e-38 355 292
0.04405776 0.69800001 -0.063638985 1.0223876e-38 356 292
0.045281585 0.69800001 -0.063638985 1.0407908e-38 357 292
0.046638668 0.69999999 -0.063821331 1.0407552e-38 358 292
0.047865998 0.69999999 -0.063821331 1.0407552e-38 359 292
0.049373865 0.704 -0.064186029 1.0683076e-38 360 292
0.050608214 0.704 -0.064186029 1.0959303e-38 361 292
-0.01489632 0.708 -0.065792084 1.1425692e-38 308 293
-0.013635674 0.70700002 -0.065699153 1.0965074e-38 309 293
-0.012396066 0.70700002 -0.065699153 1.1239483e-38 310 293
-0.011140679 0.70599997 -0.065606222 1.0963256e-38 311 293
-0.0098326923 0.70099998 -0.065141588 1.0963606e-38 312 293
-0.0085913334 0.69999999 -0.065048665 1.0963606e-38 313 293
-0.0073429602 0.69800001 -0.06486281 1.0871764e-38 314 293
-0.006119133 0.69800001 -0.06486281 1.0871764e-38 315 293
-0.0048882933 0.69700003 -0.064769886 1.0596249e-38 316 293
-0.00366622 0.69700003 -0.064769886 1.0504053e-38 317 293
-0.0024406398 0.69599998 -0.064676955 1.0595167e-38 318 293
-0.0012168133 0.69400001 -0.064491108 1.031894e-38 319 293
0 0.69400001 -0.064491108 1.031894e-38 320 293
0.0012168133 0.69400001 -0.064491108 1.0226745e-38 321 293
0.0024336267 0.69400001 -0.064491108 1.0318938e-38 322 293
0.0036504399 0.69400001 -0.064491108 1.0226743e-38 323 293
0.00486024 0.69300002 -0.064398177 1.0317144e-38 324 293
0.0060753003 0.69300002 -0.064398177 1.0409697e-38 325 293
0.0072903596 0.69300002 -0.064398177 1.0225309e-38 326 293
0.0085054198 0.69300002 -0.064398177 1.0225309e-38 327 293
0.0096924258 0.69099998 -0.06421233 1.0316791e-38 328 293
0.01090398 0.69099998 -0.06421233 1.0316791e-38 329 293
0.012115533 0.69099998 -0.06421233 1.05001e-38 330 293
0.013327086 0.69099998 -0.06421233 1.0407905e-38 331 293
0.014517599 0.69 -0.064119399 1.0224232e-38 332 293
0.015727401 0.69 -0.064119399 1.0132038e-38 333 293
0.0169372 0.69 -0.064119399 1.0132756e-38 334 293
0.018146999 0.69 -0.064119399 1.0132756e-38 335 293
0.019384852 0.69099998 -0.06421233 1.0132756e-38 336 293
0.020596405 0.69099998 -0.06421233 1.022495e-38 337 293
0.021807959 0.69099998 -0.06421233 1.0132756e-38 338 293
0.02308614 0.69300002 -0.064398177 1.0040203e-38 339 293
0.024301201 0.69300002 -0.064398177 9.8561729e-39 340 293
0.02551626 0.69300002 -0.064398177 1.0040203e-38 341 293
0.02673132 0.69300002 -0.064398177 1.0040561e-38 342 293
0.027946379 0.69300002 -0.064398177 9.8565316e-39 343 293
0.029161438 0.69300002 -0.064398177 1.0132038e-38 344 293
0.0303765 0.69300002 -0.064398177 1.0039844e-38 345 293
0.031637147 0.69400001 -0.064491108 9.9472909e-39 346 293
0.032853961 0.69400001 -0.064491108 1.0039485e-38 347 293
0.034070771 0.69400001 -0.064491108 1.0039485e-38 348 293
0.035389278 0.69599998 -0.064676955 1.0039485e-38 349 293
0.036609598 0.69599998 -0.064676955 9.8565316e-39 350 293
0.037829921 0.69599998 -0.064676955 1.0040561e-38 351 293
0.039106347 0.69700003 -0.064769886 1.0132038e-38 352 293
0.040328421 0.69700003 -0.064769886 1.0132038e-38 353 293
0.041550495 0.69700003 -0.064769886 1.0314993e-38 354 293
0.042833932 0.69800001 -0.06486281 1.0314993e-38 355 293
0.04405776 0.69800001 -0.06486281 1.0223876e-38 356 293
0.04541133 0.69999999 -0.065048665 1.0407908e-38 357 293
0.046638668 0.69999999 -0.065048665 1.0407552e-38 358 293
0.047934376 0.70099998 -0.065141588 1.0500106e-38 359 293
0.049163464 0.70099998 -0.065141588 1.0590879e-38 360 293
-0.01487528 0.70700002 -0.066938758 1.1885585e-38 308 294
-0.013635674 0.70700002 -0.066938758 1.1516443e-38 309 294
-0.012396066 0.70700002 -0.066938758 1.1331313e-38 310 294
-0.011140679 0.70599997 -0.066844068 1.1239117e-38 311 294
-0.0098326923 0.70099998 -0.066370681 1.0963606e-38 312 294
-0.0086036054 0.70099998 -0.066370681 1.0963606e-38 313 294
-0.0073639993 0.69999999 -0.066275999 1.0871761e-38 314 294
-0.006119133 0.69800001 -0.066086642 1.0871761e-38 315 294
-0.0048953067 0.69800001 -0.066086642 1.0872111e-38 316 294
-0.00366622 0.69700003 -0.06599196 1.0687719e-38 317 294
-0.0024441467 0.69700003 -0.06599196 1.0595523e-38 318 294
-0.0012220733 0.69700003 -0.06599196 1.0503328e-38 319 294
0 0.69599998 -0.065897278 1.0502609e-38 320 294
0.0012203199 0.69599998 -0.065897278 1.0502609e-38 321 294
0.0024336267 0.69400001 -0.065707922 1.0410414e-38 322 294
0.0036504399 0.69400001 -0.065707922 1.0410414e-38 323 294
0.0048672534 0.69400001 -0.065707922 1.0409697e-38 324 294
0.0060753003 0.69300002 -0.06561324 1.0409697e-38 325 294
0.0072903596 0.69300002 -0.06561324 1.0317863e-38 326 294
0.0085054198 0.69300002 -0.06561324 1.0225309e-38 327 294
0.0097204801 0.69300002 -0.06561324 1.0225311e-38 328 294
0.01090398 0.69099998 -0.065423876 1.0225311e-38 329 294
0.012115533 0.69099998 -0.065423876 1.0317144e-38 330 294
0.013327086 0.69099998 -0.065423876 1.0224591e-38 331 294
0.014538639 0.69099998 -0.065423876 1.0224232e-38 332 294
0.015750192 0.69099998 -0.065423876 1.0224232e-38 333 294
0.016961746 0.69099998 -0.065423876 1.0132756e-38 334 294
0.018225901 0.69300002 -0.06561324 1.022495e-38 335 294
0.01944096 0.69300002 -0.06561324 1.0132756e-38 336 294
0.020656019 0.69300002 -0.06561324 1.0040203e-38 337 294
0.021871079 0.69300002 -0.06561324 1.0314992e-38 338 294
0.02308614 0.69300002 -0.06561324 1.0222797e-38 339 294
0.024301201 0.69300002 -0.06561324 9.8561729e-39 340 294
0.02551626 0.69300002 -0.06561324 9.8561729e-39 341 294
0.02673132 0.69300002 -0.06561324 9.7646961e-39 342 294
0.027946379 0.69300002 -0.06561324 9.7646961e-39 343 294
0.029203519 0.69400001 -0.065707922 1.0039485e-38 344 294
0.030420333 0.69400001 -0.065707922 1.0039485e-38 345 294
0.031637147 0.69400001 -0.065707922 1.0039485e-38 346 294
0.032853961 0.69400001 -0.065707922 1.0039485e-38 347 294
0.034168959 0.69599998 -0.065897278 9.8561729e-39 348 294
0.035389278 0.69599998 -0.065897278 9.8561729e-39 349 294
0.036609598 0.69599998 -0.065897278 1.0039485e-38 350 294
0.037884273 0.69700003 -0.06599196 1.0039485e-38 351 294
0.039106347 0.69700003 -0.06599196 1.0039485e-38 352 294
0.040328421 0.69700003 -0.06599196 1.0131679e-38 353 294
0.041610107 0.69800001 -0.066086642 1.0131325e-38 354 294
0.042833932 0.69800001 -0.066086642 1.0131325e-38 355 294
0.04405776 0.69800001 -0.066086642 1.0223523e-38 356 294
0.04541133 0.69999999 -0.066275999 1.0223523e-38 357 294
0.046638668 0.69999999 -0.066275999 1.0407201e-38 358 294
-0.014854239 0.70599997 -0.06808193 1.1701935e-38 308 295
-0.013616386 0.70599997 -0.06808193 1.1424988e-38 309 295
-0.012378532 0.70599997 -0.06808193 1.1423525e-38 310 295
-0.011140679 0.70599997 -0.06808193 1.1146937e-38 311 295
-0.0098747732 0.704 -0.067889065 1.105437e-38 312 295
-0.0086036054 0.70099998 -0.067599766 1.1146924e-38 313 295
-0.0073639993 0.69999999 -0.067503333 1.1055079e-38 314 295
-0.0061366665 0.69999999 -0.067503333 1.1055079e-38 315 295
-0.0048953067 0.69800001 -0.06731046 1.0779564e-38 316 295
-0.0036714801 0.69800001 -0.06731046 1.0687368e-38 317 295
-0.0024441467 0.69700003 -0.067214034 1.0595173e-38 318 295
-0.0012220733 0.69700003 -0.067214034 1.0502618e-38 319 295
0 0.69599998 -0.067117594 1.0502618e-38 320 295
0.0012203199 0.69599998 -0.067117594 1.0318587e-38 321 295
0.0024406398 0.69599998 -0.067117594 1.0502256e-38 322 295
0.0036504399 0.69400001 -0.066924736 1.041006e-38 323 295
0.0048672534 0.69400001 -0.066924736 1.0317508e-38 324 295
0.0060840664 0.69400001 -0.066924736 1.0317508e-38 325 295
0.0073008798 0.69400001 -0.066924736 1.0317508e-38 326 295
0.0085054198 0.69300002 -0.066828303 1.0317508e-38 327 295
0.0097204801 0.69300002 -0.066828303 1.0317508e-38 328 295
0.010935539 0.69300002 -0.066828303 1.0317508e-38 329 295
0.012150601 0.69300002 -0.066828303 1.0225309e-38 330 295
0.01336566 0.69300002 -0.066828303 1.0041279e-38 331 295
0.014580719 0.69300002 -0.066828303 1.0408262e-38 332 295
0.015795778 0.69300002 -0.066828303 1.0223874e-38 333 295
0.01701084 0.69300002 -0.066828303 1.0132397e-38 334 295
0.018225901 0.69300002 -0.066828303 1.0224591e-38 335 295
0.01944096 0.69300002 -0.066828303 1.0224591e-38 336 295
0.020656019 0.69300002 -0.066828303 1.0132397e-38 337 295
0.021902639 0.69400001 -0.066924736 1.0132038e-38 338 295
0.023119451 0.69400001 -0.066924736 1.0132038e-38 339 295
0.024336265 0.69400001 -0.066924736 9.8565316e-39 340 295
0.025553079 0.69400001 -0.066924736 9.8565316e-39 341 295
0.026769891 0.69400001 -0.066924736 1.0040561e-38 342 295
0.027986705 0.69400001 -0.066924736 9.8565316e-39 343 295
0.029203519 0.69400001 -0.066924736 1.0039485e-38 344 295
0.030420333 0.69400001 -0.066924736 1.0039485e-38 345 295
0.031728316 0.69599998 -0.067117594 1.0039485e-38 346 295
0.032948639 0.69599998 -0.067117594 9.9472909e-39 347 295
0.034168959 0.69599998 -0.067117594 9.9472909e-39 348 295
0.035389278 0.69599998 -0.067117594 1.0039485e-38 349 295
0.036662199 0.69700003 -0.067214034 1.0039485e-38 350 295
0.037884273 0.69700003 -0.067214034 1.0039485e-38 351 295
0.039162453 0.69800001 -0.06731046 1.0131679e-38 352 295
0.040386278 0.69800001 -0.06731046 1.0131679e-38 353 295
0.041610107 0.69800001 -0.06731046 1.0131328e-38 354 295
0.042956665 0.69999999 -0.067503333 1.0131328e-38 355 295
0.044183996 0.69999999 -0.067503333 1.022317e-38 356 295
0.04541133 0.69999999 -0.067503333 1.0407201e-38 357 295
0.046705291 0.70099998 -0.067599766 1.0407204e-38 358 295
-0.014854239 0.70599997 -0.069319785 1.2068207e-38 308 296
-0.013616386 0.70599997 -0.069319785 1.1699783e-38 309 296
-0.012378532 0.70599997 -0.069319785 1.1699039e-38 310 296
-0.011140679 0.70599997 -0.069319785 1.1330615e-38 311 296
-0.0098326923 0.70099998 -0.068828844 1.1146568e-38 312 296
-0.0086036054 0.70099998 -0.068828844 1.1054373e-38 313 296
-0.0073639993 0.69999999 -0.068730667 1.1054723e-38 314 296
-0.0061366665 0.69999999 -0.068730667 1.0962527e-38 315 296
-0.0048953067 0.69800001 -0.068534292 1.0962881e-38 316 296
-0.0036714801 0.69800001 -0.068534292 1.0870684e-38 317 296
-0.0024476533 0.69800001 -0.068534292 1.068665e-38 318 296
-0.0012238267 0.69800001 -0.068534292 1.0594454e-38 319 296
0 0.69700003 -0.068436109 1.0502618e-38 320 296
0.0012220733 0.69700003 -0.068436109 1.0318587e-38 321 296
0.0024441467 0.69700003 -0.068436109 1.031859e-38 322 296
0.0036609597 0.69599998 -0.068337917 1.0226395e-38 323 296
0.0048672534 0.69400001 -0.068141542 1.0317511e-38 324 296
0.0060840664 0.69400001 -0.068141542 1.0317511e-38 325 296
0.0073008798 0.69400001 -0.068141542 1.0317511e-38 326 296
0.0085176928 0.69400001 -0.068141542 1.0317511e-38 327 296
0.0097204801 0.69300002 -0.068043359 1.0408988e-38 328 296
0.010935539 0.69300002 -0.068043359 1.0316791e-38 329 296
0.012150601 0.69300002 -0.068043359 1.0224595e-38 330 296
0.01336566 0.69300002 -0.068043359 1.0224595e-38 331 296
0.014580719 0.69300002 -0.068043359 1.0132397e-38 332 296
0.015795778 0.69300002 -0.068043359 1.0132397e-38 333 296
0.017035386 0.69400001 -0.068141542 1.0132397e-38 334 296
0.0182522 0.69400001 -0.068141542 1.0132397e-38 335 296
0.019469013 0.69400001 -0.068141542 1.0223874e-38 336 296
0.020685827 0.69400001 -0.068141542 1.0223874e-38 337 296
0.021902639 0.69400001 -0.068141542 1.0132038e-38 338 296
0.023119451 0.69400001 -0.068141542 1.0132038e-38 339 296
0.024336265 0.69400001 -0.068141542 9.8565316e-39 340 296
0.025553079 0.69400001 -0.068141542 1.0040561e-38 341 296
0.026769891 0.69400001 -0.068141542 1.0040203e-38 342 296
0.027986705 0.69400001 -0.068141542 1.0040203e-38 343 296
0.029203519 0.69400001 -0.068141542 1.0131679e-38 344 296
0.030507999 0.69599998 -0.068337917 1.0039485e-38 345 296
0.031728316 0.69599998 -0.068337917 1.0039485e-38 346 296
0.032948639 0.69599998 -0.068337917 1.0039485e-38 347 296
0.034218054 0.69700003 -0.068436109 9.7636199e-39 348 296
0.035440128 0.69700003 -0.068436109 9.8561729e-39 349 296
0.0367148 0.69800001 -0.068534292 9.8561729e-39 350 296
0.037938625 0.69800001 -0.068534292 9.8561729e-39 351 296
0.039162453 0.69800001 -0.068534292 1.0039126e-38 352 296
0.040386278 0.69800001 -0.068534292 1.0131322e-38 353 296
0.041729331 0.69999999 -0.068730667 1.0130972e-38 354 296
0.042956665 0.69999999 -0.068730667 1.0130972e-38 355 296
0.044183996 0.69999999 -0.068730667 1.0130977e-38 356 296
0.04541133 0.69999999 -0.068730667 1.0223173e-38 357 296
-0.013616386 0.70599997 -0.070557632 1.1792346e-38 309 297
-0.012378532 0.70599997 -0.070557632 1.17916e-38 310 297
-0.011109119 0.704 -0.070357755 1.1330982e-38 311 297
-0.0098326923 0.70099998 -0.070057929 1.1238767e-38 312 297
-0.0086036054 0.70099998 -0.070057929 1.1054376e-38 313 297
-0.0073745195 0.70099998 -0.070057929 1.0962527e-38 314 297
-0.0061454331 0.70099998 -0.070057929 1.0962527e-38 315 297
-0.0049093333 0.69999999 -0.069957994 1.0779564e-38 316 297
-0.0036819996 0.69999999 -0.069957994 1.0687368e-38 317 297
-0.0024476533 0.69800001 -0.069758117 1.0686647e-38 318 297
-0.0012238267 0.69800001 -0.069758117 1.0686647e-38 319 297
0 0.69800001 -0.069758117 1.0594454e-38 320 297
0.0012238267 0.69800001 -0.069758117 1.05019e-38 321 297
0.0024476533 0.69800001 -0.069758117 1.0409707e-38 322 297
0.00366622 0.69700003 -0.069658175 1.0409707e-38 323 297
0.0048882933 0.69700003 -0.069658175 1.0133843e-38 324 297
0.0061015999 0.69599998 -0.069558233 1.0133843e-38 325 297
0.0073008798 0.69400001 -0.069358356 1.0134196e-38 326 297
0.0085176928 0.69400001 -0.069358356 1.0134196e-38 327 297
0.0097204801 0.69300002 -0.069258414 1.0317511e-38 328 297
0.010935539 0.69300002 -0.069258414 1.0225314e-38 329 297
0.012150601 0.69300002 -0.069258414 1.0040924e-38 330 297
0.01336566 0.69300002 -0.069258414 1.0040924e-38 331 297
0.01460176 0.69400001 -0.069358356 1.0132041e-38 332 297
0.015818574 0.69400001 -0.069358356 1.0132041e-38 333 297
0.017035386 0.69400001 -0.069358356 1.0223876e-38 334 297
0.0182522 0.69400001 -0.069358356 1.0223876e-38 335 297
0.019469013 0.69400001 -0.069358356 1.0132397e-38 336 297
0.020685827 0.69400001 -0.069358356 1.0040203e-38 337 297
0.021902639 0.69400001 -0.069358356 1.0040203e-38 338 297
0.023119451 0.69400001 -0.069358356 1.0040203e-38 339 297
0.024336265 0.69400001 -0.069358356 9.9472909e-39 340 297
0.025553079 0.69400001 -0.069358356 1.0039485e-38 341 297
0.026769891 0.69400001 -0.069358356 1.0222797e-38 342 297
0.027986705 0.69400001 -0.069358356 1.0222797e-38 343 297
0.029287677 0.69599998 -0.069558233 1.0131679e-38 344 297
0.030507999 0.69599998 -0.069558233 1.0039485e-38 345 297
0.031728316 0.69599998 -0.069558233 1.0039485e-38 346 297
0.032948639 0.69599998 -0.069558233 1.0039485e-38 347 297
0.034218054 0.69700003 -0.069658175 9.9469322e-39 348 297
0.035490975 0.69800001 -0.069758117 9.9469322e-39 349 297
0.0367148 0.69800001 -0.069758117 9.8561729e-39 350 297
0.037938625 0.69800001 -0.069758117 9.8561729e-39 351 297
0.039274666 0.69999999 -0.069957994 1.0222797e-38 352 297
0.040502001 0.69999999 -0.069957994 1.0222797e-38 353 297
0.041729331 0.69999999 -0.069957994 1.0039132e-38 354 297
0.042956665 0.69999999 -0.069957994 1.0039132e-38 355 297
0.044183996 0.69999999 -0.069957994 1.0130621e-38 356 297
0.04541133 0.69999999 -0.069957994 1.0406848e-38 357 297
-0.013577812 0.704 -0.071592107 1.1700879e-38 309 298
-0.012343466 0.704 -0.071592107 1.169978e-38 310 298
-0.011109119 0.704 -0.071592107 1.1423193e-38 311 298
-0.0098747732 0.704 -0.071592107 1.1330615e-38 312 298
-0.0086281532 0.70300001 -0.071490414 1.1238061e-38 313 298
-0.0073955595 0.70300001 -0.071490414 1.105437e-38 314 298
-0.0061629666 0.70300001 -0.071490414 1.105437e-38 315 298
-0.0049163462 0.70099998 -0.071287021 1.0779564e-38 316 298
-0.0036872597 0.70099998 -0.071287021 1.0595173e-38 317 298
-0.0024546667 0.69999999 -0.071185328 1.0686647e-38 318 298
-0.0012273333 0.69999999 -0.071185328 1.0594451e-38 319 298
0 0.69999999 -0.071185328 1.0502256e-38 320 298
0.0012273333 0.69999999 -0.071185328 1.041006e-38 321 298
0.0024476533 0.69800001 -0.07098195 1.0409704e-38 322 298
0.00366622 0.69700003 -0.070880257 1.0317508e-38 323 298
0.0048882933 0.69700003 -0.070880257 1.0225311e-38 324 298
0.0061103669 0.69700003 -0.070880257 1.0317508e-38 325 298
0.0073008798 0.69400001 -0.07057517 1.0317863e-38 326 298
0.0085176928 0.69400001 -0.07057517 1.0317863e-38 327 298
0.0097345067 0.69400001 -0.07057517 1.0134196e-38 328 298
0.01095132 0.69400001 -0.07057517 1.0041999e-38 329 298
0.012168133 0.69400001 -0.07057517 1.0040924e-38 330 298
0.013384946 0.69400001 -0.07057517 1.0040924e-38 331 298
0.01460176 0.69400001 -0.07057517 1.0132041e-38 332 298
0.015818574 0.69400001 -0.07057517 1.0132041e-38 333 298
0.017084479 0.69599998 -0.070778556 1.0223874e-38 334 298
0.018304799 0.69599998 -0.070778556 1.0223874e-38 335 298
0.019525118 0.69599998 -0.070778556 1.0223874e-38 336 298
0.020745439 0.69599998 -0.070778556 1.0223874e-38 337 298
0.021965759 0.69599998 -0.070778556 1.0039845e-38 338 298
0.023186078 0.69599998 -0.070778556 9.8558141e-39 339 298
0.0244064 0.69599998 -0.070778556 1.0222441e-38 340 298
0.025626717 0.69599998 -0.070778556 1.0222441e-38 341 298
0.026847038 0.69599998 -0.070778556 1.0039126e-38 342 298
0.028067358 0.69599998 -0.070778556 1.0039126e-38 343 298
0.029287677 0.69599998 -0.070778556 1.0039126e-38 344 298
0.030507999 0.69599998 -0.070778556 1.0039126e-38 345 298
0.03177391 0.69700003 -0.070880257 9.8558169e-39 346 298
0.033043321 0.69800001 -0.07098195 9.8558169e-39 347 298
0.034267146 0.69800001 -0.07098195 9.9469336e-39 348 298
0.035490975 0.69800001 -0.07098195 9.9469336e-39 349 298
0.036819998 0.69999999 -0.071185328 9.9472909e-39 350 298
0.038047329 0.69999999 -0.071185328 1.0039485e-38 351 298
0.039274666 0.69999999 -0.071185328 1.0039126e-38 352 298
0.040559858 0.70099998 -0.071287021 1.0039126e-38 353 298
0.041788943 0.70099998 -0.071287021 1.0130972e-38 354 298
0.042956665 0.69999999 -0.071185328 1.0223167e-38 355 298
0.044183996 0.69999999 -0.071185328 1.0131343e-38 356 298
0.04580057 0.70599997 -0.071795486 1.0407931e-38 357 298
-0.012343466 0.704 -0.072826453 1.1607584e-38 310 299
-0.011109119 0.704 -0.072826453 1.1423193e-38 311 299
-0.0098747732 0.704 -0.072826453 1.160612e-38 312 299
-0.0086404262 0.704 -0.072826453 1.1329533e-38 313 299
-0.0074060797 0.704 -0.072826453 1.1054726e-38 314 299
-0.0061717331 0.704 -0.072826453 1.1054726e-38 315 299
-0.0049303733 0.70300001 -0.072723009 1.0687013e-38 316 299
-0.0036872597 0.70099998 -0.072516106 1.0594817e-38 317 299
-0.0024581731 0.70099998 -0.072516106 1.0502618e-38 318 299
-0.0012290865 0.70099998 -0.072516106 1.0502618e-38 319 299
0 0.69999999 -0.072412662 1.0318943e-38 320 299
0.0012273333 0.69999999 -0.072412662 1.0226748e-38 321 299
0.0024546667 0.69999999 -0.072412662 1.0317863e-38 322 299
0.0036714801 0.69800001 -0.072205767 1.0317863e-38 323 299
0.0048953067 0.69800001 -0.072205767 1.0225309e-38 324 299
0.0061103669 0.69700003 -0.072102323 1.0317863e-38 325 299
0.00733244 0.69700003 -0.072102323 1.0134192e-38 326 299
0.0085422397 0.69599998 -0.071998879 1.0134192e-38 327 299
0.0097345067 0.69400001 -0.071791984 1.0134192e-38 328 299
0.01095132 0.69400001 -0.071791984 1.0041996e-38 329 299
0.012168133 0.69400001 -0.071791984 1.0224591e-38 330 299
0.013384946 0.69400001 -0.071791984 1.0224591e-38 331 299
0.014643839 0.69599998 -0.071998879 1.0223874e-38 332 299
0.015864158 0.69599998 -0.071998879 1.0223874e-38 333 299
0.017084479 0.69599998 -0.071998879 9.9490846e-39 334 299
0.018331099 0.69700003 -0.072102323 9.8568903e-39 335 299
0.019553173 0.69700003 -0.072102323 1.0132041e-38 336 299
0.020745439 0.69599998 -0.071998879 1.0039845e-38 337 299
0.021965759 0.69599998 -0.071998879 1.0039132e-38 338 299
0.023219392 0.69700003 -0.072102323 1.0039132e-38 339 299
0.024441468 0.69700003 -0.072102323 1.0222444e-38 340 299
0.025663542 0.69700003 -0.072102323 1.0222444e-38 341 299
0.026885614 0.69700003 -0.072102323 1.0222797e-38 342 299
0.028107686 0.69700003 -0.072102323 1.0314993e-38 343 299
0.02932976 0.69700003 -0.072102323 1.0039485e-38 344 299
0.030551834 0.69700003 -0.072102323 1.0039485e-38 345 299
0.031819493 0.69800001 -0.072205767 9.9469336e-39 346 299
0.033043321 0.69800001 -0.072205767 1.0039129e-38 347 299
0.034365334 0.69999999 -0.072412662 9.9469336e-39 348 299
0.035592664 0.69999999 -0.072412662 1.0039129e-38 349 299
0.036819998 0.69999999 -0.072412662 9.9469322e-39 350 299
0.038101684 0.70099998 -0.072516106 9.9469322e-39 351 299
0.039330769 0.70099998 -0.072516106 1.0039132e-38 352 299
0.040559858 0.70099998 -0.072516106 1.0039132e-38 353 299
0.041908171 0.70300001 -0.072723009 1.0039142e-38 354 299
0.043202132 0.704 -0.072826453 1.0223892e-38 355 299
0.044436477 0.704 -0.072826453 1.0223902e-38 356 299
0.04580057 0.70599997 -0.07303334 1.0408653e-38 357 299
-0.0099028256 0.70599997 -0.074271195 1.1239162e-38 312 300
-0.0086649731 0.70599997 -0.074271195 1.1054411e-38 313 300
-0.0074271196 0.70599997 -0.074271195 1.0870354e-38 314 300
-0.0061717331 0.704 -0.07406079 1.0778159e-38 315 300
-0.0049303733 0.70300001 -0.073955595 1.0686665e-38 316 300
-0.0036977797 0.70300001 -0.073955595 1.0594469e-38 317 300
-0.0024651866 0.70300001 -0.073955595 1.0502268e-38 318 300
-0.0012325933 0.70300001 -0.073955595 1.0318237e-38 319 300
0 0.70099998 -0.073745191 1.0318593e-38 320 300
0.0012290865 0.70099998 -0.073745191 1.0226039e-38 321 300
0.0024581731 0.70099998 -0.073745191 1.0317511e-38 322 300
0.0036819996 0.69999999 -0.073639996 1.0225314e-38 323 300
0.0049093333 0.69999999 -0.073639996 1.0316788e-38 324 300
0.006119133 0.69800001 -0.073429599 1.0316788e-38 325 300
0.0073429602 0.69800001 -0.073429599 1.0134192e-38 326 300
0.0085545136 0.69700003 -0.073324397 1.0041996e-38 327 300
0.0097765867 0.69700003 -0.073324397 1.0317508e-38 328 300
0.010982879 0.69599998 -0.073219195 1.0225311e-38 329 300
0.0122032 0.69599998 -0.073219195 1.0224595e-38 330 300
0.013423519 0.69599998 -0.073219195 1.0132041e-38 331 300
0.014643839 0.69599998 -0.073219195 1.0132047e-38 332 300
0.015886955 0.69700003 -0.073324397 1.0039851e-38 333 300
0.017109027 0.69700003 -0.073324397 9.8565358e-39 334 300
0.0183574 0.69800001 -0.073429599 9.9487314e-39 335 300
0.019581227 0.69800001 -0.073429599 9.9487286e-39 336 300
0.020775247 0.69700003 -0.073324397 9.7643374e-39 337 300
0.02199732 0.69700003 -0.073324397 1.0130246e-38 338 300
0.023252707 0.69800001 -0.073429599 1.0222441e-38 339 300
0.024476532 0.69800001 -0.073429599 1.0130249e-38 340 300
0.025663542 0.69700003 -0.073324397 1.0130249e-38 341 300
0.026885614 0.69700003 -0.073324397 1.0130249e-38 342 300
0.028148014 0.69800001 -0.073429599 1.0130249e-38 343 300
0.029371841 0.69800001 -0.073429599 1.0039129e-38 344 300
0.030595668 0.69800001 -0.073429599 1.0039129e-38 345 300
0.031819493 0.69800001 -0.073429599 1.0039126e-38 346 300
0.033137999 0.69999999 -0.073639996 1.0039126e-38 347 300
0.034365334 0.69999999 -0.073639996 1.0039129e-38 348 300
0.035592664 0.69999999 -0.073639996 1.0039129e-38 349 300
0.036872596 0.70099998 -0.073745191 1.0039129e-38 350 300
0.038101684 0.70099998 -0.073745191 1.0039129e-38 351 300
0.039442986 0.70300001 -0.073955595 1.0038776e-38 352 300
0.040675577 0.70300001 -0.073955595 1.0038776e-38 353 300
0.041967787 0.704 -0.07406079 9.9480252e-39 354 300
0.043324865 0.70599997 -0.074271195 1.0224611e-38 355 300
0.044562716 0.70599997 -0.074271195 1.0040957e-38 356 300
-0.0099028256 0.70599997 -0.075509049 1.1239159e-38 312 301
-0.0086649731 0.70599997 -0.075509049 1.0962571e-38 313 301
-0.0074271196 0.70599997 -0.075509049 1.0778877e-38 314 301
-0.0061892662 0.70599997 -0.075509049 1.0502649e-38 315 301
-0.0049514128 0.70599997 -0.075509049 1.086998e-38 316 301
-0.0037030398 0.704 -0.075295143 1.068559e-38 317 301
-0.0024686933 0.704 -0.075295143 1.0502268e-38 318 301
-0.0012343467 0.704 -0.075295143 1.0502268e-38 319 301
0 0.704 -0.075295143 1.0318587e-38 320 301
0.0012325933 0.70300001 -0.07518819 1.0226392e-38 321 301
0.0024651866 0.70300001 -0.07518819 1.0316788e-38 322 301
0.0036872597 0.70099998 -0.074974284 1.0316788e-38 323 301
0.0049163462 0.70099998 -0.074974284 1.0316788e-38 324 301
0.0061366665 0.69999999 -0.07486733 1.0316788e-38 325 301
0.0073639993 0.69999999 -0.07486733 1.0317144e-38 326 301
0.0085667865 0.69800001 -0.074653424 1.0317144e-38 327 301
0.0097906133 0.69800001 -0.074653424 1.0225667e-38 328 301
0.01099866 0.69700003 -0.074546471 1.0225667e-38 329 301
0.012220734 0.69700003 -0.074546471 1.0407905e-38 330 301
0.013442807 0.69700003 -0.074546471 1.0407905e-38 331 301
0.01466488 0.69700003 -0.074546471 1.0131322e-38 332 301
0.015909746 0.69800001 -0.074653424 1.0223876e-38 333 301
0.017133573 0.69800001 -0.074653424 1.0131322e-38 334 301
0.0183574 0.69800001 -0.074653424 1.0131322e-38 335 301
0.019581227 0.69800001 -0.074653424 1.0223876e-38 336 301
0.020805053 0.69800001 -0.074653424 1.0039126e-38 337 301
0.02202888 0.69800001 -0.074653424 1.0131325e-38 338 301
0.023252707 0.69800001 -0.074653424 1.0039129e-38 339 301
0.024476532 0.69800001 -0.074653424 9.9465805e-39 340 301
0.025700359 0.69800001 -0.074653424 9.9465805e-39 341 301
0.026924185 0.69800001 -0.074653424 1.0038776e-38 342 301
0.028148014 0.69800001 -0.074653424 1.0038776e-38 343 301
0.029455997 0.69999999 -0.07486733 9.8558169e-39 344 301
0.030683333 0.69999999 -0.07486733 9.8558169e-39 345 301
0.031910665 0.69999999 -0.07486733 9.9469322e-39 346 301
0.03318534 0.70099998 -0.074974284 9.9469322e-39 347 301
0.034414422 0.70099998 -0.074974284 9.8558169e-39 348 301
0.035643511 0.70099998 -0.074974284 9.8558169e-39 349 301
0.036977798 0.70300001 -0.07518819 1.0039132e-38 350 301
0.038210396 0.70300001 -0.07518819 1.0039132e-38 351 301
0.039499093 0.704 -0.075295143 1.0130975e-38 352 301
0.040733438 0.704 -0.075295143 1.022317e-38 353 301
0.041967787 0.704 -0.075295143 1.0040226e-38 354 301
0.043324865 0.70599997 -0.075509049 1.0224258e-38 355 301
0.044562716 0.70599997 -0.075509049 9.7651011e-39 356 301
-0.0086649731 0.70599997 -0.076746903 1.0871471e-38 313 302
-0.0074271196 0.70599997 -0.076746903 1.0687057e-38 314 302
-0.0061892662 0.70599997 -0.076746903 1.0502666e-38 315 302
-0.0049654399 0.708 -0.076964319 1.0869624e-38 316 302
-0.0037188199 0.70700002 -0.076855607 1.0685593e-38 317 302
-0.0024757064 0.70599997 -0.076746903 1.0502624e-38 318 302
-0.0012378532 0.70599997 -0.076746903 1.0318593e-38 319 302
0 0.704 -0.076529488 1.0318587e-38 320 302
0.0012343467 0.704 -0.076529488 1.0226392e-38 321 302
0.0024686933 0.704 -0.076529488 1.0409704e-38 322 302
0.0036872597 0.70099998 -0.076203369 1.0317508e-38 323 302
0.0049163462 0.70099998 -0.076203369 1.0317144e-38 324 302
0.0061454331 0.70099998 -0.076203369 1.0317144e-38 325 302
0.0073745195 0.70099998 -0.076203369 1.0317144e-38 326 302
0.0086036054 0.70099998 -0.076203369 1.0317144e-38 327 302
0.0098326923 0.70099998 -0.076203369 1.0317144e-38 328 302
0.01101444 0.69800001 -0.075877249 1.0224591e-38 329 302
0.012238266 0.69800001 -0.075877249 1.004128e-38 330 302
0.013462093 0.69800001 -0.075877249 9.9490846e-39 331 302
0.01468592 0.69800001 -0.075877249 1.0223876e-38 332 302
0.015955333 0.69999999 -0.076094657 1.0131322e-38 333 302
0.017182667 0.69999999 -0.076094657 1.0039126e-38 334 302
0.018409999 0.69999999 -0.076094657 1.0131322e-38 335 302
0.019637333 0.69999999 -0.076094657 1.0131679e-38 336 302
0.020864666 0.69999999 -0.076094657 1.0131679e-38 337 302
0.022091998 0.69999999 -0.076094657 1.0039129e-38 338 302
0.023319334 0.69999999 -0.076094657 1.0039129e-38 339 302
0.024546666 0.69999999 -0.076094657 1.0129893e-38 340 302
0.025773998 0.69999999 -0.076094657 1.0129893e-38 341 302
0.027001332 0.69999999 -0.076094657 9.9465805e-39 342 302
0.028228667 0.69999999 -0.076094657 1.0038776e-38 343 302
0.029455997 0.69999999 -0.076094657 9.8558169e-39 344 302
0.030727165 0.70099998 -0.076203369 9.7636213e-39 345 302
0.031956252 0.70099998 -0.076203369 9.9469322e-39 346 302
0.033280019 0.70300001 -0.076420791 9.9469322e-39 347 302
0.034512613 0.70300001 -0.076420791 9.9469336e-39 348 302
0.035796054 0.704 -0.076529488 1.0039129e-38 349 302
0.037030395 0.704 -0.076529488 1.0039132e-38 350 302
0.038264744 0.704 -0.076529488 1.0131328e-38 351 302
0.039499093 0.704 -0.076529488 9.9483811e-39 352 302
0.040733438 0.704 -0.076529488 9.9483811e-39 353 302
0.042087011 0.70599997 -0.076746903 9.9483965e-39 354 302
0.043324865 0.70599997 -0.076746903 1.0040592e-38 355 302
-0.0074271196 0.70599997 -0.07798475 1.059523e-38 314 303
-0.0061892662 0.70599997 -0.07798475 1.0411199e-38 315 303
-0.0049654399 0.708 -0.078205675 1.0502649e-38 316 303
-0.0037188199 0.70700002 -0.07809522 1.0410454e-38 317 303
-0.0024792133 0.70700002 -0.07809522 1.0502268e-38 318 303
-0.0012396066 0.70700002 -0.07809522 1.0318237e-38 319 303
0 0.70599997 -0.07798475 1.05019e-38 320 303
0.0012378532 0.70599997 -0.07798475 1.05019e-38 321 303
0.0024686933 0.704 -0.077763841 1.0409704e-38 322 303
0.0037030398 0.704 -0.077763841 1.0317508e-38 323 303
0.0049373866 0.704 -0.077763841 1.0408985e-38 324 303
0.0061717331 0.704 -0.077763841 1.0316788e-38 325 303
0.0073955595 0.70300001 -0.077653378 1.040934e-38 326 303
0.0086281532 0.70300001 -0.077653378 1.0317144e-38 327 303
0.0098607466 0.70300001 -0.077653378 1.0224591e-38 328 303
0.01109334 0.70300001 -0.077653378 1.0224591e-38 329 303
0.012290866 0.70099998 -0.077432454 1.0132397e-38 330 303
0.013519952 0.70099998 -0.077432454 1.0040203e-38 331 303
0.014791119 0.70300001 -0.077653378 1.0222797e-38 332 303
0.015978126 0.70099998 -0.077432454 1.0222797e-38 333 303
0.017207211 0.70099998 -0.077432454 1.0130246e-38 334 303
0.018436298 0.70099998 -0.077432454 1.0130246e-38 335 303
0.019665385 0.70099998 -0.077432454 1.0039129e-38 336 303
0.020894472 0.70099998 -0.077432454 1.0039129e-38 337 303
0.022123558 0.70099998 -0.077432454 9.9465776e-39 338 303
0.023352645 0.70099998 -0.077432454 9.9465776e-39 339 303
0.024581732 0.70099998 -0.077432454 9.9465776e-39 340 303
0.025810819 0.70099998 -0.077432454 9.9465776e-39 341 303
0.027039904 0.70099998 -0.077432454 1.0039132e-38 342 303
0.028268991 0.70099998 -0.077432454 1.0039132e-38 343 303
0.029582238 0.70300001 -0.077653378 9.9465776e-39 344 303
0.030814834 0.70300001 -0.077653378 9.9465776e-39 345 303
0.032093015 0.704 -0.077763841 9.8547379e-39 346 303
0.033422034 0.70599997 -0.07798475 9.9469322e-39 347 303
0.034659892 0.70599997 -0.07798475 9.7636213e-39 348 303
0.035897743 0.70599997 -0.07798475 9.8558169e-39 349 303
0.037030395 0.704 -0.077763841 9.8554638e-39 350 303
0.038264744 0.704 -0.077763841 1.0039495e-38 351 303
0.039611302 0.70599997 -0.07798475 9.8558296e-39 352 303
0.040849157 0.70599997 -0.07798475 9.8558296e-39 353 303
0.042087011 0.70599997 -0.07798475 9.854773e-39 354 303
-0.0062243328 0.70999998 -0.079671465 1.0135698e-38 315 304
-0.0049794666 0.70999998 -0.079671465 1.0319701e-38 316 304
-0.0037345996 0.70999998 -0.079671465 1.0135309e-38 317 304
-0.0024897333 0.70999998 -0.079671465 1.0318959e-38 318 304
-0.00124136 0.708 -0.079447038 1.0226763e-38 319 304
0 0.70700002 -0.079334825 1.05019e-38 320 304
0.0012378532 0.70599997 -0.079222605 1.05019e-38 321 304
0.0024757064 0.70599997 -0.079222605 1.0408985e-38 322 304
0.0037135598 0.70599997 -0.079222605 1.0408985e-38 323 304
0.0049514128 0.70599997 -0.079222605 1.0225314e-38 324 304
0.0061892662 0.70599997 -0.079222605 1.0225314e-38 325 304
0.0074271196 0.70599997 -0.079222605 1.0225667e-38 326 304
0.0086649731 0.70599997 -0.079222605 1.0225667e-38 327 304
0.0099028256 0.70599997 -0.079222605 1.022495e-38 328 304
0.011140679 0.70599997 -0.079222605 1.0132756e-38 329 304
0.012343466 0.704 -0.078998186 1.0131679e-38 330 304
0.013577812 0.704 -0.078998186 1.0039485e-38 331 304
0.014812159 0.704 -0.078998186 1.0222441e-38 332 304
0.016046507 0.704 -0.078998186 1.0130246e-38 333 304
0.017256306 0.70300001 -0.078885972 9.9465776e-39 334 304
0.018488899 0.70300001 -0.078885972 1.0039132e-38 335 304
0.019721493 0.70300001 -0.078885972 1.0039132e-38 336 304
0.020954086 0.70300001 -0.078885972 1.0039132e-38 337 304
0.02218668 0.70300001 -0.078885972 1.0222441e-38 338 304
0.023419274 0.70300001 -0.078885972 1.0222441e-38 339 304
0.024651866 0.70300001 -0.078885972 1.0039129e-38 340 304
0.025884461 0.70300001 -0.078885972 9.9469336e-39 341 304
0.027155625 0.704 -0.078998186 9.9469336e-39 342 304
0.028389972 0.704 -0.078998186 1.0039129e-38 343 304
0.029708479 0.70599997 -0.079222605 1.0130246e-38 344 304
0.030946331 0.70599997 -0.079222605 1.0130246e-38 345 304
0.032184184 0.70599997 -0.079222605 9.9469322e-39 346 304
0.033469379 0.70700002 -0.079334825 9.9469322e-39 347 304
0.034708988 0.70700002 -0.079334825 9.8558169e-39 348 304
0.035948593 0.70700002 -0.079334825 9.7636213e-39 349 304
0.037135597 0.70599997 -0.079222605 9.7636311e-39 350 304
0.038373452 0.70599997 -0.079222605 9.7636311e-39 351 304
0.039611302 0.70599997 -0.079222605 9.8547604e-39 352 304
0.040849157 0.70599997 -0.079222605 9.8547604e-39 353 304
0.042087011 0.70599997 -0.079222605 9.5789176e-39 354 304
-0.0037345996 0.70999998 -0.08091633 9.9516602e-39 317 305
-0.0024897333 0.70999998 -0.08091633 1.0318974e-38 318 305
-0.00124136 0.708 -0.080688395 1.0042389e-38 319 305
0 0.708 -0.080688395 1.068522e-38 320 305
0.0012396066 0.70700002 -0.080574431 1.050083e-38 321 305
0.0024792133 0.70700002 -0.080574431 1.0408991e-38 322 305
0.0037188199 0.70700002 -0.080574431 1.0316435e-38 323 305
0.0049584266 0.70700002 -0.080574431 1.0408635e-38 324 305
0.0061980332 0.70700002 -0.080574431 1.0408635e-38 325 305
0.0074271196 0.70599997 -0.080460466 1.0316791e-38 326 305
0.0086649731 0.70599997 -0.080460466 1.0316791e-38 327 305
0.0099168532 0.70700002 -0.080574431 1.0316788e-38 328 305
0.011156459 0.70700002 -0.080574431 1.0224592e-38 329 305
0.012396066 0.70700002 -0.080574431 1.0131325e-38 330 305
0.013616386 0.70599997 -0.080460466 1.0039129e-38 331 305
0.014854239 0.70599997 -0.080460466 1.0039132e-38 332 305
0.016092092 0.70599997 -0.080460466 1.0039132e-38 333 305
0.017280852 0.704 -0.080232531 9.8554638e-39 334 305
0.018515198 0.704 -0.080232531 9.8554638e-39 335 305
0.019749546 0.704 -0.080232531 9.8554638e-39 336 305
0.020983893 0.704 -0.080232531 1.0039495e-38 337 305
0.022218239 0.704 -0.080232531 1.0222444e-38 338 305
0.023452586 0.704 -0.080232531 1.0222444e-38 339 305
0.024686933 0.704 -0.080232531 1.0130249e-38 340 305
0.02592128 0.704 -0.080232531 1.0130249e-38 341 305
0.027232772 0.70599997 -0.080460466 9.9469336e-39 342 305
0.028470624 0.70599997 -0.080460466 1.0039129e-38 343 305
0.029750559 0.70700002 -0.080574431 1.0039129e-38 344 305
0.031034 0.708 -0.080688395 9.9469336e-39 345 305
0.03227536 0.708 -0.080688395 9.9469336e-39 346 305
0.033516716 0.708 -0.080688395 9.9469336e-39 347 305
0.034758076 0.708 -0.080688395 9.7629123e-39 348 305
0.03599944 0.708 -0.080688395 9.8554666e-39 349 305
0.037135597 0.70599997 -0.080460466 9.7636367e-39 350 305
0.038373452 0.70599997 -0.080460466 9.7636367e-39 351 305
0.039723519 0.708 -0.080688395 9.6707348e-39 352 305
0.040964879 0.708 -0.080688395 9.6707348e-39 353 305
-0.0012448666 0.70999998 -0.082161188 9.7672465e-39 319 306
