# .PCD v.7 - Point Cloud Data file format
FIELDS x y z rgb imX imY
SIZE 4 4 4 4 4 4
TYPE F F F F F F
COUNT 1 1 1 1 1 1
WIDTH 848
HEIGHT 1
VIEWPOINT 0 0 0 1 0 0 0
POINTS 848
DATA ascii
-0.023452586 0.704 -0.013577812 1.1067654e-38 301 251
-0.022218239 0.704 -0.013577812 1.1067985e-38 302 251
-0.021043506 0.70599997 -0.013616386 1.0975789e-38 303 251
-0.019805651 0.70599997 -0.013616386 1.1251283e-38 304 251
-0.018515198 0.704 -0.013577812 1.1066895e-38 305 251
-0.017280852 0.704 -0.013577812 1.1158372e-38 306 251
-0.016046507 0.704 -0.013577812 1.1066177e-38 307 251
-0.014812159 0.704 -0.013577812 1.1066177e-38 308 251
-0.013577812 0.704 -0.013577812 1.0973983e-38 309 251
-0.012343466 0.704 -0.013577812 1.0881789e-38 310 251
-0.011109119 0.704 -0.013577812 1.0789236e-38 311 251
-0.0098747732 0.704 -0.013577812 1.0605565e-38 312 251
-0.0086404262 0.704 -0.013577812 1.0513371e-38 313 251
-0.0073955595 0.70300001 -0.013558527 1.0420818e-38 314 251
-0.0061629666 0.70300001 -0.013558527 1.0328623e-38 315 251
-0.0049303733 0.70300001 -0.013558527 1.0327189e-38 316 251
-0.0036977797 0.70300001 -0.013558527 1.0234636e-38 317 251
-0.0024651866 0.70300001 -0.013558527 1.0143159e-38 318 251
-0.0012325933 0.70300001 -0.013558527 1.0050965e-38 319 251
0 0.70300001 -0.013558527 1.0050247e-38 320 251
0.0012325933 0.70300001 -0.013558527 9.9576941e-39 321 251
0.0024686933 0.704 -0.013577812 9.6811115e-39 322 251
0.0037030398 0.704 -0.013577812 9.496723e-39 323 251
0.0049373866 0.704 -0.013577812 9.4031009e-39 324 251
0.0061892662 0.70599997 -0.013616386 9.2183509e-39 325 251
0.0074271196 0.70599997 -0.013616386 9.1258021e-39 326 251
0.0086649731 0.70599997 -0.013616386 9.1258021e-39 327 251
0.0099168532 0.70700002 -0.013635674 9.0336051e-39 328 251
0.01117224 0.708 -0.013654959 9.0336051e-39 329 251
0.0124136 0.708 -0.013654959 9.032889e-39 330 251
0.013654959 0.708 -0.013654959 9.1250846e-39 331 251
0.014938398 0.70999998 -0.013693533 9.032889e-39 332 251
0.016183265 0.70999998 -0.013693533 9.032889e-39 333 251
0.01745268 0.71100003 -0.01371282 9.2161985e-39 334 251
0.0186993 0.71100003 -0.01371282 8.9399717e-39 335 251
0.020030079 0.71399999 -0.01377068 9.1229308e-39 336 251
0.021341572 0.71600002 -0.013809253 8.9385396e-39 337 251
0.022596961 0.71600002 -0.013809253 8.9385424e-39 338 251
0.02388566 0.71700001 -0.013828539 8.8463454e-39 339 251
0.025248 0.72000003 -0.0138864 8.4772293e-39 340 251
0.026584039 0.722 -0.013924973 1.0229306e-38 341 251
0.02788852 0.72299999 -0.01394426 1.3547311e-38 342 251
0.029156178 0.72299999 -0.01394426 1.5944038e-38 343 251
0.030423839 0.72299999 -0.01394426 1.6216682e-38 344 251
-0.046838548 0.722 -0.015190879 1.3915735e-38 283 252
-0.045572639 0.722 -0.015190879 1.0970827e-38 284 252
-0.043999899 0.71700001 -0.015085679 1.0970827e-38 285 252
-0.042742759 0.71700001 -0.015085679 1.134032e-38 286 252
-0.041485619 0.71700001 -0.015085679 1.2354112e-38 287 252
-0.040172372 0.71600002 -0.01506464 1.2721157e-38 288 252
-0.038808275 0.71399999 -0.015022559 1.3459081e-38 289 252
-0.037503798 0.713 -0.015001519 1.4842771e-38 290 252
-0.036151983 0.71100003 -0.014959441 1.548814e-38 291 252
-0.034905359 0.71100003 -0.014959441 1.5122942e-38 292 252
-0.033611398 0.70999998 -0.014938398 1.5122942e-38 293 252
-0.032366529 0.70999998 -0.014938398 1.5582468e-38 294 252
-0.031034 0.708 -0.01489632 1.4015143e-38 295 252
-0.02979264 0.708 -0.01489632 1.1528697e-38 296 252
-0.028510952 0.70700002 -0.01487528 1.0698576e-38 297 252
-0.027232772 0.70599997 -0.014854239 1.0606694e-38 298 252
-0.025994917 0.70599997 -0.014854239 1.0791087e-38 299 252
-0.024686933 0.704 -0.014812159 1.1068358e-38 300 252
-0.023452586 0.704 -0.014812159 1.0791771e-38 301 252
-0.022218239 0.704 -0.014812159 1.0792474e-38 302 252
-0.020983893 0.704 -0.014812159 1.088467e-38 303 252
-0.019749546 0.704 -0.014812159 1.1434954e-38 304 252
-0.018515198 0.704 -0.014812159 1.1434954e-38 305 252
-0.017280852 0.704 -0.014812159 1.1066536e-38 306 252
-0.016046507 0.704 -0.014812159 1.1066536e-38 307 252
-0.014812159 0.704 -0.014812159 1.0606641e-38 308 252
-0.013577812 0.704 -0.014812159 1.0606641e-38 309 252
-0.012343466 0.704 -0.014812159 1.0605924e-38 310 252
-0.011109119 0.704 -0.014812159 1.0513371e-38 311 252
-0.0098747732 0.704 -0.014812159 1.0237505e-38 312 252
-0.0086404262 0.704 -0.014812159 1.0145311e-38 313 252
-0.0073955595 0.70300001 -0.014791119 1.0052758e-38 314 252
-0.0061629666 0.70300001 -0.014791119 9.8683698e-39 315 252
-0.0049303733 0.70300001 -0.014791119 9.6839813e-39 316 252
-0.0036977797 0.70300001 -0.014791119 9.6839813e-39 317 252
-0.0024651866 0.70300001 -0.014791119 9.8665775e-39 318 252
-0.0012325933 0.70300001 -0.014791119 9.8665775e-39 319 252
0 0.70300001 -0.014791119 9.8651426e-39 320 252
0.0012325933 0.70300001 -0.014791119 9.6811115e-39 321 252
0.0024686933 0.704 -0.014812159 9.4963643e-39 322 252
0.0037030398 0.704 -0.014812159 9.40417e-39 323 252
0.0049373866 0.704 -0.014812159 9.2194257e-39 324 252
0.0061892662 0.70599997 -0.014854239 8.9428402e-39 325 252
0.0074271196 0.70599997 -0.014854239 8.9424898e-39 326 252
0.0086649731 0.70599997 -0.014854239 8.7580972e-39 327 252
0.0099168532 0.70700002 -0.01487528 8.9410563e-39 328 252
0.011156459 0.70700002 -0.01487528 8.9410563e-39 329 252
0.012396066 0.70700002 -0.01487528 8.757028e-39 330 252
0.013654959 0.708 -0.01489632 8.9410591e-39 331 252
0.01489632 0.708 -0.01489632 8.7577441e-39 332 252
0.016183265 0.70999998 -0.014938398 8.6655484e-39 333 252
0.01745268 0.71100003 -0.014959441 8.6648268e-39 334 252
0.0186993 0.71100003 -0.014959441 8.6648268e-39 335 252
0.020030079 0.71399999 -0.015022559 8.7555903e-39 336 252
0.021341572 0.71600002 -0.01506464 8.4793621e-39 337 252
0.022596961 0.71600002 -0.01506464 8.6626912e-39 338 252
0.02388566 0.71700001 -0.015085679 8.7552455e-39 339 252
0.0251428 0.71700001 -0.015085679 8.4786755e-39 340 252
0.026584039 0.722 -0.015190879 9.4009905e-39 341 252
0.02788852 0.72299999 -0.015211919 1.2994136e-38 342 252
0.029156178 0.72299999 -0.015211919 1.5483416e-38 343 252
0.030423839 0.72299999 -0.015211919 1.5940454e-38 344 252
-0.046838548 0.722 -0.016456785 1.3640227e-38 283 253
-0.045572639 0.722 -0.016456785 1.0694945e-38 284 253
-0.044122629 0.71899998 -0.016388407 1.0971531e-38 285 253
-0.042742759 0.71700001 -0.016342819 1.1432489e-38 286 253
-0.041485619 0.71700001 -0.016342819 1.1524686e-38 287 253
-0.040172372 0.71600002 -0.016320027 1.1251381e-38 288 253
-0.038808275 0.71399999 -0.016274439 1.1712358e-38 289 253
-0.037503798 0.713 -0.016251646 1.1708788e-38 290 253
-0.036151983 0.71100003 -0.01620606 1.1431841e-38 291 253
-0.034905359 0.71100003 -0.01620606 1.1254274e-38 292 253
-0.033611398 0.70999998 -0.016183265 1.1346469e-38 293 253
-0.032366529 0.70999998 -0.016183265 1.1711642e-38 294 253
-0.031034 0.708 -0.01613768 1.0974077e-38 295 253
-0.02979264 0.708 -0.01613768 1.0147165e-38 296 253
-0.028510952 0.70700002 -0.016114887 1.0239361e-38 297 253
-0.027232772 0.70599997 -0.016092092 1.0607772e-38 298 253
-0.02592128 0.704 -0.016046507 1.0883999e-38 299 253
-0.024686933 0.704 -0.016046507 1.0977999e-38 300 253
-0.023452586 0.704 -0.016046507 1.116239e-38 301 253
-0.022218239 0.704 -0.016046507 1.1991078e-38 302 253
-0.020983893 0.704 -0.016046507 1.2175469e-38 303 253
-0.019749546 0.704 -0.016046507 1.1989257e-38 304 253
-0.018515198 0.704 -0.016046507 1.1159497e-38 305 253
-0.017280852 0.704 -0.016046507 1.0884673e-38 306 253
-0.016046507 0.704 -0.016046507 1.0423336e-38 307 253
-0.014812159 0.704 -0.016046507 1.042297e-38 308 253
-0.013558527 0.70300001 -0.016023712 1.0330776e-38 309 253
-0.012325933 0.70300001 -0.016023712 1.03297e-38 310 253
-0.01109334 0.70300001 -0.016023712 1.0237505e-38 311 253
-0.0098747732 0.704 -0.016046507 9.869446e-39 312 253
-0.0086404262 0.704 -0.016046507 9.869446e-39 313 253
-0.0073955595 0.70300001 -0.016023712 9.6850575e-39 314 253
-0.0061629666 0.70300001 -0.016023712 9.5925046e-39 315 253
-0.0049303733 0.70300001 -0.016023712 9.7750994e-39 316 253
-0.0036977797 0.70300001 -0.016023712 9.7750994e-39 317 253
-0.0024651866 0.70300001 -0.016023712 9.7743819e-39 318 253
-0.0012325933 0.70300001 -0.016023712 9.7743819e-39 319 253
0 0.70300001 -0.016023712 9.774026e-39 320 253
0.0012325933 0.70300001 -0.016023712 9.4974405e-39 321 253
0.0024686933 0.704 -0.016046507 9.40417e-39 322 253
0.0037030398 0.704 -0.016046507 9.3119758e-39 323 253
0.0049373866 0.704 -0.016046507 9.0357547e-39 324 253
0.0061892662 0.70599997 -0.016092092 8.8513634e-39 325 253
0.0074271196 0.70599997 -0.016092092 9.0336079e-39 326 253
0.0086649731 0.70599997 -0.016092092 8.9414122e-39 327 253
0.0099168532 0.70700002 -0.016114887 9.0325331e-39 328 253
0.011156459 0.70700002 -0.016114887 8.9403375e-39 329 253
0.012396066 0.70700002 -0.016114887 8.9406934e-39 330 253
0.013654959 0.708 -0.01613768 8.9406934e-39 331 253
0.01489632 0.708 -0.01613768 8.8484949e-39 332 253
0.016183265 0.70999998 -0.016183265 8.7562993e-39 333 253
0.01745268 0.71100003 -0.01620606 8.8481418e-39 334 253
0.0186993 0.71100003 -0.01620606 8.7559462e-39 335 253
0.020030079 0.71399999 -0.016274439 8.7548714e-39 336 253
0.021341572 0.71600002 -0.016320027 8.6626744e-39 337 253
0.022596961 0.71600002 -0.016320027 8.7548714e-39 338 253
0.02388566 0.71700001 -0.016342819 8.7548714e-39 339 253
0.0251428 0.71700001 -0.016342819 8.662694e-39 340 253
0.026584039 0.722 -0.016456785 9.1240309e-39 341 253
0.02788852 0.72299999 -0.01647958 1.2349838e-38 342 253
0.029156178 0.72299999 -0.01647958 1.4931316e-38 343 253
-0.046838548 0.722 -0.017722692 1.3640224e-38 283 254
-0.045572639 0.722 -0.017722692 1.0787147e-38 284 254
-0.044122629 0.71899998 -0.017649053 1.1155569e-38 285 254
-0.042742759 0.71700001 -0.017599959 1.097331e-38 286 254
-0.041485619 0.71700001 -0.017599959 1.097331e-38 287 254
-0.040172372 0.71600002 -0.017575413 1.0514125e-38 288 254
-0.038808275 0.71399999 -0.017526319 1.0421929e-38 289 254
-0.037503798 0.713 -0.017501773 1.0052411e-38 290 254
-0.036151983 0.71100003 -0.01745268 9.9598564e-39 291 254
-0.034856264 0.70999998 -0.017428132 9.9634591e-39 292 254
-0.033611398 0.70999998 -0.017428132 1.0331881e-38 293 254
-0.032366529 0.70999998 -0.017428132 9.9609382e-39 294 254
-0.031034 0.708 -0.017379038 1.0144969e-38 295 254
-0.02979264 0.708 -0.017379038 1.0332237e-38 296 254
-0.028510952 0.70700002 -0.017354494 1.0608826e-38 297 254
-0.027232772 0.70599997 -0.017329946 1.0792179e-38 298 254
-0.02592128 0.704 -0.017280852 1.1990722e-38 299 254
-0.024686933 0.704 -0.017280852 1.180924e-38 300 254
-0.023452586 0.704 -0.017280852 1.2178382e-38 301 254
-0.022218239 0.704 -0.017280852 1.3373701e-38 302 254
-0.020983893 0.704 -0.017280852 1.3649928e-38 303 254
-0.019749546 0.704 -0.017280852 1.2173331e-38 304 254
-0.018515198 0.704 -0.017280852 1.0882951e-38 305 254
-0.017280852 0.704 -0.017280852 1.0607745e-38 306 254
-0.016046507 0.704 -0.017280852 1.0239323e-38 307 254
-0.014812159 0.704 -0.017280852 1.0147108e-38 308 254
-0.013558527 0.70300001 -0.017256306 1.0054912e-38 309 254
-0.012325933 0.70300001 -0.017256306 9.9623605e-39 310 254
-0.01109334 0.70300001 -0.017256306 9.8701648e-39 311 254
-0.0098747732 0.704 -0.017280852 9.7776161e-39 312 254
-0.0086404262 0.704 -0.017280852 9.5013879e-39 313 254
-0.0073955595 0.70300001 -0.017256306 9.5013879e-39 314 254
-0.0061629666 0.70300001 -0.017256306 9.4088336e-39 315 254
-0.0049303733 0.70300001 -0.017256306 9.5917871e-39 316 254
-0.0036977797 0.70300001 -0.017256306 9.4995929e-39 317 254
-0.0024651866 0.70300001 -0.017256306 9.5914326e-39 318 254
-0.0012325933 0.70300001 -0.017256306 9.4070413e-39 319 254
0 0.70300001 -0.017256306 9.4059665e-39 320 254
0.0012325933 0.70300001 -0.017256306 9.3137695e-39 321 254
0.0024686933 0.704 -0.017280852 9.2208578e-39 322 254
0.0037030398 0.704 -0.017280852 9.0361106e-39 323 254
0.0049373866 0.704 -0.017280852 8.9435618e-39 324 254
0.0061892662 0.70599997 -0.017329946 8.8513648e-39 325 254
0.0074271196 0.70599997 -0.017329946 8.8502928e-39 326 254
0.0086649731 0.70599997 -0.017329946 8.7580972e-39 327 254
0.0099168532 0.70700002 -0.017354494 8.757028e-39 328 254
0.01117224 0.708 -0.017379038 8.6644736e-39 329 254
0.0124136 0.708 -0.017379038 8.7555903e-39 330 254
0.013654959 0.708 -0.017379038 8.8481446e-39 331 254
0.014938398 0.70999998 -0.017428132 8.5726339e-39 332 254
0.016183265 0.70999998 -0.017428132 8.6648296e-39 333 254
0.01745268 0.71100003 -0.01745268 8.4800852e-39 334 254
0.0186993 0.71100003 -0.01745268 8.3878881e-39 335 254
0.020030079 0.71399999 -0.017526319 8.3868133e-39 336 254
0.021341572 0.71600002 -0.017575413 8.3868133e-39 337 254
0.022596961 0.71600002 -0.017575413 8.3871791e-39 338 254
0.02388566 0.71700001 -0.017599959 8.5719305e-39 339 254
0.025212931 0.71899998 -0.017649053 8.2957135e-39 340 254
0.026510401 0.72000003 -0.017673599 8.9410829e-39 341 254
0.02788852 0.72299999 -0.017747238 1.2625336e-38 342 254
0.029156178 0.72299999 -0.017747238 1.5114258e-38 343 254
-0.048104454 0.722 -0.0189886 1.6129506e-38 282 255
-0.046838548 0.722 -0.0189886 1.3824974e-38 283 255
-0.045446403 0.72000003 -0.018935999 1.1155559e-38 284 255
-0.044122629 0.71899998 -0.018909698 1.1063005e-38 285 255
-0.042742759 0.71700001 -0.018857099 1.0973288e-38 286 255
-0.041427758 0.71600002 -0.0188308 1.0789257e-38 287 255
-0.040172372 0.71600002 -0.0188308 1.0422632e-38 288 255
-0.038808275 0.71399999 -0.018778199 1.0146404e-38 289 255
-0.037503798 0.713 -0.018751899 1.0144972e-38 290 255
-0.036151983 0.71100003 -0.0186993 1.042156e-38 291 255
-0.034856264 0.70999998 -0.018672999 1.0423008e-38 292 255
-0.033611398 0.70999998 -0.018672999 1.0423008e-38 293 255
-0.032366529 0.70999998 -0.018672999 1.0238982e-38 294 255
-0.031034 0.708 -0.0186204 1.0515928e-38 295 255
-0.02979264 0.708 -0.0186204 1.0701042e-38 296 255
-0.028510952 0.70700002 -0.018594101 1.0885434e-38 297 255
-0.027271347 0.70700002 -0.018594101 1.1438293e-38 298 255
-0.025994917 0.70599997 -0.018567799 1.4204161e-38 299 255
-0.024686933 0.704 -0.018515198 1.4848847e-38 300 255
-0.023452586 0.704 -0.018515198 1.4756651e-38 301 255
-0.022218239 0.704 -0.018515198 1.5124709e-38 302 255
-0.020983893 0.704 -0.018515198 1.4202751e-38 303 255
-0.019749546 0.704 -0.018515198 1.1069138e-38 304 255
-0.018515198 0.704 -0.018515198 9.7783994e-39 305 255
-0.017280852 0.704 -0.018515198 1.023897e-38 306 255
-0.016046507 0.704 -0.018515198 9.9620228e-39 307 255
-0.014812159 0.704 -0.018515198 9.9620101e-39 308 255
-0.013558527 0.70300001 -0.018488899 9.8698145e-39 309 255
-0.012325933 0.70300001 -0.018488899 9.7769e-39 310 255
-0.011109119 0.704 -0.018515198 9.6843443e-39 311 255
-0.0098747732 0.704 -0.018515198 9.4088392e-39 312 255
-0.0086404262 0.704 -0.018515198 9.4088392e-39 313 255
-0.0073955595 0.70300001 -0.018488899 9.4088364e-39 314 255
-0.0061629666 0.70300001 -0.018488899 9.3166407e-39 315 255
-0.0049303733 0.70300001 -0.018488899 9.4995929e-39 316 255
-0.0036977797 0.70300001 -0.018488899 9.4070399e-39 317 255
-0.0024686933 0.704 -0.018515198 9.3144869e-39 318 255
-0.0012325933 0.70300001 -0.018488899 9.2222927e-39 319 255
0 0.70300001 -0.018488899 9.2212179e-39 320 255
0.0012325933 0.70300001 -0.018488899 9.1290223e-39 321 255
0.0024686933 0.704 -0.018515198 8.8527983e-39 322 255
0.0037030398 0.704 -0.018515198 8.7606041e-39 323 255
0.0049373866 0.704 -0.018515198 8.8513648e-39 324 255
0.0061892662 0.70599997 -0.018567799 8.7591692e-39 325 255
0.0074271196 0.70599997 -0.018567799 8.5747849e-39 326 255
0.0086649731 0.70599997 -0.018567799 8.5747849e-39 327 255
0.0099168532 0.70700002 -0.018594101 8.7570252e-39 328 255
0.011156459 0.70700002 -0.018594101 8.6648296e-39 329 255
0.0124136 0.708 -0.0186204 8.6644736e-39 330 255
0.013654959 0.708 -0.0186204 8.572278e-39 331 255
0.01489632 0.708 -0.0186204 8.4800824e-39 332 255
0.016183265 0.70999998 -0.018672999 8.3878853e-39 333 255
0.01745268 0.71100003 -0.0186993 8.2946177e-39 334 255
0.0186993 0.71100003 -0.0186993 8.2946177e-39 335 255
0.020030079 0.71399999 -0.018778199 8.4779328e-39 336 255
0.021341572 0.71600002 -0.0188308 8.2939017e-39 337 255
0.022596961 0.71600002 -0.0188308 8.5701284e-39 338 255
0.02388566 0.71700001 -0.018857099 8.662324e-39 339 255
0.025212931 0.71899998 -0.018909698 8.3871861e-39 340 255
0.026510401 0.72000003 -0.018935999 9.2169468e-39 341 255
0.02788852 0.72299999 -0.019014901 1.2624615e-38 342 255
0.029156178 0.72299999 -0.019014901 1.5113895e-38 343 255
0.030423839 0.72299999 -0.019014901 1.557058e-38 344 255
-0.049438741 0.72299999 -0.020282559 1.6495793e-38 281 256
-0.048104454 0.722 -0.020254506 1.6221704e-38 282 256
-0.046838548 0.722 -0.020254506 1.3916814e-38 283 256
-0.045446403 0.72000003 -0.020198401 1.1523983e-38 284 256
-0.044122629 0.71899998 -0.020170346 1.1063005e-38 285 256
-0.042742759 0.71700001 -0.020114239 1.0972566e-38 286 256
-0.041427758 0.71600002 -0.020086186 1.0880371e-38 287 256
-0.040060159 0.71399999 -0.020030079 1.0146401e-38 288 256
-0.038808275 0.71399999 -0.020030079 1.0146401e-38 289 256
-0.037503798 0.713 -0.020002026 1.0146048e-38 290 256
-0.036151983 0.71100003 -0.01994592 1.0146048e-38 291 256
-0.034905359 0.71100003 -0.01994592 1.0146418e-38 292 256
-0.033611398 0.70999998 -0.019917866 1.0238614e-38 293 256
-0.032366529 0.70999998 -0.019917866 1.0238982e-38 294 256
-0.031034 0.708 -0.01986176 1.0515928e-38 295 256
-0.02979264 0.708 -0.01986176 1.0425547e-38 296 256
-0.028510952 0.70700002 -0.019833706 1.1255308e-38 297 256
-0.027271347 0.70700002 -0.019833706 1.2359179e-38 298 256
-0.025994917 0.70599997 -0.019805651 1.4755907e-38 299 256
-0.024686933 0.704 -0.019749546 1.5217626e-38 300 256
-0.023452586 0.704 -0.019749546 1.4849202e-38 301 256
-0.022218239 0.704 -0.019749546 1.4019792e-38 302 256
-0.020983893 0.704 -0.019749546 1.2268075e-38 303 256
-0.019749546 0.704 -0.019749546 9.8727418e-39 304 256
-0.018515198 0.704 -0.019749546 8.8585913e-39 305 256
-0.017280852 0.704 -0.019749546 9.7783476e-39 306 256
-0.016046507 0.704 -0.019749546 9.6857932e-39 307 256
-0.014812159 0.704 -0.019749546 9.5932346e-39 308 256
-0.013558527 0.70300001 -0.019721493 9.5932346e-39 309 256
-0.012325933 0.70300001 -0.019721493 9.4084832e-39 310 256
-0.011109119 0.704 -0.019749546 9.3162876e-39 311 256
-0.0098747732 0.704 -0.019749546 9.224092e-39 312 256
-0.0086404262 0.704 -0.019749546 9.224092e-39 313 256
-0.0074060797 0.704 -0.019749546 9.2244451e-39 314 256
-0.0061629666 0.70300001 -0.019721493 9.1322509e-39 315 256
-0.0049303733 0.70300001 -0.019721493 9.3148457e-39 316 256
-0.0037030398 0.704 -0.019749546 9.2226514e-39 317 256
-0.0024686933 0.704 -0.019749546 9.038263e-39 318 256
-0.0012343467 0.704 -0.019749546 9.038263e-39 319 256
0 0.704 -0.019749546 8.8535172e-39 320 256
0.0012343467 0.704 -0.019749546 8.7609628e-39 321 256
0.0024686933 0.704 -0.019749546 8.7602454e-39 322 256
0.0037030398 0.704 -0.019749546 8.6680511e-39 323 256
0.0049373866 0.704 -0.019749546 8.5747807e-39 324 256
0.0061892662 0.70599997 -0.019805651 8.5747807e-39 325 256
0.0074271196 0.70599997 -0.019805651 8.4822306e-39 326 256
0.0086649731 0.70599997 -0.019805651 8.4822306e-39 327 256
0.0099028256 0.70599997 -0.019805651 8.6644736e-39 328 256
0.011156459 0.70700002 -0.019833706 8.572278e-39 329 256
0.012396066 0.70700002 -0.019833706 8.5719249e-39 330 256
0.013654959 0.708 -0.01986176 8.4797292e-39 331 256
0.01489632 0.708 -0.01986176 8.1120215e-39 332 256
0.01613768 0.708 -0.01986176 8.0198259e-39 333 256
0.01745268 0.71100003 -0.01994592 8.2024221e-39 334 256
0.0186993 0.71100003 -0.01994592 8.2024221e-39 335 256
0.020030079 0.71399999 -0.020030079 8.2020662e-39 336 256
0.021341572 0.71600002 -0.020086186 8.2946205e-39 337 256
0.022596961 0.71600002 -0.020086186 8.2942646e-39 338 256
0.023952285 0.71899998 -0.020170346 8.4790146e-39 339 256
0.025212931 0.71899998 -0.020170346 8.4801006e-39 340 256
0.026510401 0.72000003 -0.020198401 9.2176656e-39 341 256
0.027849946 0.722 -0.020254506 1.2715733e-38 342 256
0.029156178 0.72299999 -0.020282559 1.529721e-38 343 256
0.030423839 0.72299999 -0.020282559 1.5478747e-38 344 256
-0.049438741 0.72299999 -0.021550218 1.6495437e-38 281 257
-0.048171077 0.72299999 -0.021550218 1.6220983e-38 282 257
-0.046838548 0.722 -0.021520413 1.4100482e-38 283 257
-0.045446403 0.72000003 -0.021460801 1.1799847e-38 284 257
-0.044122629 0.71899998 -0.021430992 1.1246673e-38 285 257
-0.042742759 0.71700001 -0.021371379 1.0972202e-38 286 257
-0.041427758 0.71600002 -0.021341572 1.0787452e-38 287 257
-0.040060159 0.71399999 -0.021281958 1.0237149e-38 288 257
-0.038808275 0.71399999 -0.021281958 1.0237149e-38 289 257
-0.037503798 0.713 -0.021252153 1.0054203e-38 290 257
-0.036151983 0.71100003 -0.021192541 1.0054203e-38 291 257
-0.034905359 0.71100003 -0.021192541 1.0053853e-38 292 257
-0.033611398 0.70999998 -0.021162732 1.0053853e-38 293 257
-0.032366529 0.70999998 -0.021162732 1.0054951e-38 294 257
-0.031034 0.708 -0.021103119 1.0331178e-38 295 257
-0.02979264 0.708 -0.021103119 1.0517039e-38 296 257
-0.028510952 0.70700002 -0.021073313 1.1346801e-38 297 257
-0.027232772 0.70599997 -0.021043506 1.2268075e-38 298 257
-0.025994917 0.70599997 -0.021043506 1.4019792e-38 299 257
-0.024686933 0.704 -0.020983893 1.4664455e-38 300 257
-0.023452586 0.704 -0.020983893 1.4111282e-38 301 257
-0.022218239 0.704 -0.020983893 1.2268776e-38 302 257
-0.020983893 0.704 -0.020983893 1.0056081e-38 303 257
-0.019749546 0.704 -0.020983893 9.0429629e-39 304 257
-0.018515198 0.704 -0.020983893 8.7663775e-39 305 257
-0.017280852 0.704 -0.020983893 9.5935976e-39 306 257
-0.016046507 0.704 -0.020983893 9.4092049e-39 307 257
-0.014812159 0.704 -0.020983893 9.408486e-39 308 257
-0.013558527 0.70300001 -0.020954086 9.3162904e-39 309 257
-0.012325933 0.70300001 -0.020954086 9.1318964e-39 310 257
-0.01109334 0.70300001 -0.020954086 9.1318964e-39 311 257
-0.0098747732 0.704 -0.020983893 9.1315404e-39 312 257
-0.0086404262 0.704 -0.020983893 9.1315404e-39 313 257
-0.0073955595 0.70300001 -0.020954086 9.0389805e-39 314 257
-0.0061454331 0.70099998 -0.020894472 9.0389805e-39 315 257
-0.0049163462 0.70099998 -0.020894472 9.0389805e-39 316 257
-0.0036977797 0.70300001 -0.020954086 8.854592e-39 317 257
-0.0024686933 0.704 -0.020983893 8.8535158e-39 318 257
-0.0012325933 0.70300001 -0.020954086 8.8535158e-39 319 257
0 0.70300001 -0.020954086 8.6691273e-39 320 257
0.0012343467 0.704 -0.020983893 8.5765744e-39 321 257
0.0024686933 0.704 -0.020983893 8.5765744e-39 322 257
0.0037030398 0.704 -0.020983893 8.3925447e-39 323 257
0.0049373866 0.704 -0.020983893 8.5754982e-39 324 257
0.0061892662 0.70599997 -0.021043506 8.3911097e-39 325 257
0.0074271196 0.70599997 -0.021043506 8.5733472e-39 326 257
0.0086649731 0.70599997 -0.021043506 8.5733472e-39 327 257
0.0099028256 0.70599997 -0.021043506 8.4808012e-39 328 257
0.011156459 0.70700002 -0.021073313 8.2967701e-39 329 257
0.012396066 0.70700002 -0.021073313 8.4797292e-39 330 257
0.013654959 0.708 -0.021103119 8.3875322e-39 331 257
0.01489632 0.708 -0.021103119 8.2953338e-39 332 257
0.01613768 0.708 -0.021103119 8.019107e-39 333 257
0.01745268 0.71100003 -0.021192541 8.019107e-39 334 257
0.0186993 0.71100003 -0.021192541 7.9269114e-39 335 257
0.020030079 0.71399999 -0.021281958 8.2024221e-39 336 257
0.021341572 0.71600002 -0.021341572 8.2024221e-39 337 257
0.022596961 0.71600002 -0.021341572 8.2942646e-39 338 257
0.02388566 0.71700001 -0.021371379 8.4790146e-39 339 257
0.025212931 0.71899998 -0.021430992 8.4801006e-39 340 257
0.02647358 0.71899998 -0.021430992 9.3098613e-39 341 257
0.027849946 0.722 -0.021520413 1.2807927e-38 342 257
0.029156178 0.72299999 -0.021550218 1.5112816e-38 343 257
0.030423839 0.72299999 -0.021550218 1.5478381e-38 344 257
-0.049780637 0.72799999 -0.022975679 1.6771303e-38 281 258
-0.048171077 0.72299999 -0.02281788 1.6313181e-38 282 258
-0.046838548 0.722 -0.022786319 1.419268e-38 283 258
-0.045446403 0.72000003 -0.022723202 1.1984241e-38 284 258
-0.044122629 0.71899998 -0.022691639 1.1338871e-38 285 258
-0.042742759 0.71700001 -0.02262852 1.0971847e-38 286 258
-0.041427758 0.71600002 -0.022596961 1.087965e-38 287 258
-0.040172372 0.71600002 -0.022596961 1.0145673e-38 288 258
-0.038808275 0.71399999 -0.022533838 9.9616416e-39 289 258
-0.037503798 0.713 -0.022502279 1.0054203e-38 290 258
-0.036151983 0.71100003 -0.022439159 9.9620073e-39 291 258
-0.034856264 0.70999998 -0.022407599 9.9623731e-39 292 258
-0.033611398 0.70999998 -0.022407599 9.778342e-39 293 258
-0.032366529 0.70999998 -0.022407599 9.8709061e-39 294 258
-0.031034 0.708 -0.022344479 1.0055658e-38 295 258
-0.02979264 0.708 -0.022344479 9.689061e-39 296 258
-0.028510952 0.70700002 -0.022312919 1.014968e-38 297 258
-0.027232772 0.70599997 -0.022281358 1.0704694e-38 298 258
-0.025994917 0.70599997 -0.022281358 1.1903237e-38 299 258
-0.024686933 0.704 -0.022218239 1.3096394e-38 300 258
-0.023452586 0.704 -0.022218239 1.235847e-38 301 258
-0.022218239 0.704 -0.022218239 1.0612828e-38 302 258
-0.020983893 0.704 -0.022218239 8.7689152e-39 303 258
-0.019749546 0.704 -0.022218239 9.2255395e-39 304 258
-0.018515198 0.704 -0.022218239 9.1333439e-39 305 258
-0.017280852 0.704 -0.022218239 9.3170037e-39 306 258
-0.016046507 0.704 -0.022218239 9.3170037e-39 307 258
-0.014812159 0.704 -0.022218239 9.2240892e-39 308 258
-0.013558527 0.70300001 -0.02218668 9.1318936e-39 309 258
-0.012325933 0.70300001 -0.02218668 9.1311775e-39 310 258
-0.01109334 0.70300001 -0.02218668 9.1311775e-39 311 258
-0.0098747732 0.704 -0.022218239 9.0389805e-39 312 258
-0.0086404262 0.704 -0.022218239 9.0389805e-39 313 258
-0.0073955595 0.70300001 -0.02218668 8.9460688e-39 314 258
-0.0061454331 0.70099998 -0.022123558 8.9460688e-39 315 258
-0.0049163462 0.70099998 -0.022123558 8.6705623e-39 316 258
-0.0036977797 0.70300001 -0.02218668 8.578368e-39 317 258
-0.0024651866 0.70300001 -0.02218668 8.7616803e-39 318 258
-0.0012325933 0.70300001 -0.02218668 8.6691273e-39 319 258
0 0.70300001 -0.02218668 8.5765744e-39 320 258
0.0012343467 0.704 -0.022218239 8.3925447e-39 321 258
0.0024686933 0.704 -0.022218239 8.2999917e-39 322 258
0.0037030398 0.704 -0.022218239 8.3925447e-39 323 258
0.0049373866 0.704 -0.022218239 8.4833054e-39 324 258
0.0061892662 0.70599997 -0.022281358 8.3911097e-39 325 258
0.0074271196 0.70599997 -0.022281358 8.5737045e-39 326 258
0.0086649731 0.70599997 -0.022281358 8.5737045e-39 327 258
0.0099168532 0.70700002 -0.022312919 8.5726311e-39 328 258
0.011156459 0.70700002 -0.022312919 8.4804355e-39 329 258
0.0124136 0.708 -0.022344479 8.4793621e-39 330 258
0.013654959 0.708 -0.022344479 8.2949708e-39 331 258
0.01489632 0.708 -0.022344479 8.2027752e-39 332 258
0.016183265 0.70999998 -0.022407599 8.1102223e-39 333 258
0.01745268 0.71100003 -0.022439159 7.92691e-39 334 258
0.0186993 0.71100003 -0.022439159 7.92691e-39 335 258
0.020030079 0.71399999 -0.022533838 8.1102237e-39 336 258
0.021341572 0.71600002 -0.022596961 8.2024193e-39 337 258
0.022596961 0.71600002 -0.022596961 8.2946149e-39 338 258
0.02388566 0.71700001 -0.02262852 8.4793649e-39 339 258
0.025212931 0.71899998 -0.022691639 8.7563245e-39 340 258
0.02647358 0.71899998 -0.022691639 9.5857251e-39 341 258
0.027772799 0.72000003 -0.022723202 1.2900125e-38 342 258
0.029156178 0.72299999 -0.02281788 1.529721e-38 343 258
0.030423839 0.72299999 -0.02281788 1.5569498e-38 344 258
-0.051057063 0.72799999 -0.024252106 1.6495793e-38 280 259
-0.049712259 0.727 -0.024218792 1.6587988e-38 281 259
-0.048171077 0.72299999 -0.024085538 1.6313184e-38 282 259
-0.046903417 0.72299999 -0.024085538 1.4561107e-38 283 259
-0.045572639 0.722 -0.024052227 1.2260479e-38 284 259
-0.044183999 0.72000003 -0.0239856 1.1430717e-38 285 259
-0.042861983 0.71899998 -0.023952285 1.0697424e-38 286 259
-0.041485619 0.71700001 -0.02388566 1.0329e-38 287 259
-0.040172372 0.71600002 -0.023852346 1.0236802e-38 288 259
-0.038808275 0.71399999 -0.02378572 1.0144606e-38 289 259
-0.037503798 0.713 -0.023752406 9.6868652e-39 290 259
-0.036151983 0.71100003 -0.023685781 9.6868652e-39 291 259
-0.034856264 0.70999998 -0.023652466 9.6868652e-39 292 259
-0.033611398 0.70999998 -0.023652466 9.6868652e-39 293 259
-0.03227536 0.708 -0.023585839 9.595401e-39 294 259
-0.031034 0.708 -0.023585839 9.6875967e-39 295 259
-0.02979264 0.708 -0.023585839 9.5947088e-39 296 259
-0.028510952 0.70700002 -0.023552528 9.8716544e-39 297 259
-0.027271347 0.70700002 -0.023552528 1.0149346e-38 298 259
-0.025994917 0.70599997 -0.023519212 1.1071662e-38 299 259
-0.024686933 0.704 -0.023452586 1.2265166e-38 300 259
-0.023452586 0.704 -0.023452586 1.1804188e-38 301 259
-0.022218239 0.704 -0.023452586 1.0425547e-38 302 259
-0.020983893 0.704 -0.023452586 9.4113965e-39 303 259
-0.019749546 0.704 -0.023452586 9.4099322e-39 304 259
-0.018515198 0.704 -0.023452586 9.1333439e-39 305 259
-0.017280852 0.704 -0.023452586 9.0407769e-39 306 259
-0.016046507 0.704 -0.023452586 9.0407769e-39 307 259
-0.014812159 0.704 -0.023452586 8.9493002e-39 308 259
-0.013558527 0.70300001 -0.023419274 8.765269e-39 309 259
-0.012325933 0.70300001 -0.023419274 9.1315334e-39 310 259
-0.01109334 0.70300001 -0.023419274 9.0389805e-39 311 259
-0.0098747732 0.704 -0.023452586 9.2219368e-39 312 259
-0.0086281532 0.70300001 -0.023419274 8.94571e-39 313 259
-0.0073955595 0.70300001 -0.023419274 8.94571e-39 314 259
-0.0061629666 0.70300001 -0.023419274 8.7613216e-39 315 259
-0.0049303733 0.70300001 -0.023419274 8.5780093e-39 316 259
-0.0036977797 0.70300001 -0.023419274 8.3936209e-39 317 259
-0.0024651866 0.70300001 -0.023419274 8.3010679e-39 318 259
-0.0012343467 0.704 -0.023452586 8.3932621e-39 319 259
0 0.704 -0.023452586 8.300712e-39 320 259
0.0012343467 0.704 -0.023452586 8.2081576e-39 321 259
0.0024686933 0.704 -0.023452586 8.0241293e-39 322 259
0.0037030398 0.704 -0.023452586 8.2081604e-39 323 259
0.0049373866 0.704 -0.023452586 8.2074443e-39 324 259
0.0061892662 0.70599997 -0.023519212 8.11489e-39 325 259
0.0074271196 0.70599997 -0.023519212 8.2978421e-39 326 259
0.0086649731 0.70599997 -0.023519212 8.2056465e-39 327 259
0.0099168532 0.70700002 -0.023552528 8.2052905e-39 328 259
0.011156459 0.70700002 -0.023552528 8.1130935e-39 329 259
0.0124136 0.708 -0.023585839 8.1116572e-39 330 259
0.013654959 0.708 -0.023585839 8.1116572e-39 331 259
0.01489632 0.708 -0.023585839 8.019463e-39 332 259
0.016183265 0.70999998 -0.023652466 7.9272687e-39 333 259
0.01745268 0.71100003 -0.023685781 7.9269114e-39 334 259
0.0186993 0.71100003 -0.023685781 7.8347158e-39 335 259
0.020002026 0.713 -0.023752406 8.1102265e-39 336 259
0.021281958 0.71399999 -0.02378572 8.2946177e-39 337 259
0.022596961 0.71600002 -0.023852346 8.2042228e-39 338 259
0.023852346 0.71600002 -0.023852346 8.5726465e-39 339 259
0.0251428 0.71700001 -0.02388566 8.7574105e-39 340 259
0.02639994 0.71700001 -0.02388566 9.6793668e-39 341 259
0.027772799 0.72000003 -0.0239856 1.3176708e-38 342 259
0.029156178 0.72299999 -0.024085538 1.5205012e-38 343 259
-0.051057063 0.72799999 -0.025528532 1.649579e-38 280 260
-0.049712259 0.727 -0.025493465 1.6403594e-38 281 260
-0.048171077 0.72299999 -0.025353199 1.6220629e-38 282 260
-0.046903417 0.72299999 -0.025353199 1.4837694e-38 283 260
-0.045572639 0.722 -0.025318133 1.2536711e-38 284 260
-0.044306733 0.722 -0.025318133 1.1614756e-38 285 260
-0.042921603 0.72000003 -0.025248 1.0788553e-38 286 260
-0.041485619 0.71700001 -0.0251428 1.0603802e-38 287 260
-0.040172372 0.71600002 -0.025107734 1.0144253e-38 288 260
-0.038808275 0.71399999 -0.025037598 1.0144253e-38 289 260
-0.037503798 0.713 -0.025002534 9.7786979e-39 290 260
-0.036151983 0.71100003 -0.024932399 9.6865023e-39 291 260
-0.034856264 0.70999998 -0.024897331 9.6864995e-39 292 260
-0.033611398 0.70999998 -0.024897331 9.6864995e-39 293 260
-0.03227536 0.708 -0.024827199 9.6872183e-39 294 260
-0.031034 0.708 -0.024827199 9.779414e-39 295 260
-0.02979264 0.708 -0.024827199 9.7790636e-39 296 260
-0.028510952 0.70700002 -0.024792133 9.9634563e-39 297 260
-0.027271347 0.70700002 -0.024792133 9.8705586e-39 298 260
-0.025994917 0.70599997 -0.024757065 9.9627556e-39 299 260
-0.024686933 0.704 -0.024686933 9.8709229e-39 300 260
-0.023452586 0.704 -0.024686933 9.6868904e-39 301 260
-0.022218239 0.704 -0.024686933 9.5950479e-39 302 260
-0.020983893 0.704 -0.024686933 9.4102979e-39 303 260
-0.019749546 0.704 -0.024686933 9.4102881e-39 304 260
-0.018515198 0.704 -0.024686933 9.0411455e-39 305 260
-0.017280852 0.704 -0.024686933 9.0407797e-39 306 260
-0.016046507 0.704 -0.024686933 8.9485841e-39 307 260
-0.014812159 0.704 -0.024686933 8.7649131e-39 308 260
-0.013558527 0.70300001 -0.024651866 8.7649131e-39 309 260
-0.012325933 0.70300001 -0.024651866 8.8553095e-39 310 260
-0.01109334 0.70300001 -0.024651866 8.8553095e-39 311 260
-0.0098607466 0.70300001 -0.024651866 8.9460688e-39 312 260
-0.0086281532 0.70300001 -0.024651866 8.8535158e-39 313 260
-0.0073955595 0.70300001 -0.024651866 8.7616803e-39 314 260
-0.0061629666 0.70300001 -0.024651866 8.6691273e-39 315 260
-0.0049303733 0.70300001 -0.024651866 8.3936209e-39 316 260
-0.0036977797 0.70300001 -0.024651866 8.3014266e-39 317 260
-0.0024651866 0.70300001 -0.024651866 8.3003504e-39 318 260
-0.0012325933 0.70300001 -0.024651866 8.3003504e-39 319 260
0 0.70300001 -0.024651866 8.2999917e-39 320 260
0.0012343467 0.704 -0.024686933 8.1156032e-39 321 260
0.0024686933 0.704 -0.024686933 8.1156032e-39 322 260
0.0037030398 0.704 -0.024686933 8.1156032e-39 323 260
0.0049373866 0.704 -0.024686933 8.1148858e-39 324 260
0.0061892662 0.70599997 -0.024757065 8.0226915e-39 325 260
0.0074271196 0.70599997 -0.024757065 8.0223328e-39 326 260
0.0086649731 0.70599997 -0.024757065 7.9301386e-39 327 260
0.0099168532 0.70700002 -0.024792133 7.9294211e-39 328 260
0.01117224 0.708 -0.024827199 7.9294211e-39 329 260
0.0124136 0.708 -0.024827199 8.1116572e-39 330 260
0.013693533 0.70999998 -0.024897331 8.019463e-39 331 260
0.014938398 0.70999998 -0.024897331 7.92691e-39 332 260
0.016183265 0.70999998 -0.024897331 7.92691e-39 333 260
0.01745268 0.71100003 -0.024932399 8.0180308e-39 334 260
0.0186993 0.71100003 -0.024932399 8.1102265e-39 335 260
0.020002026 0.713 -0.025002534 8.2024221e-39 336 260
0.021281958 0.71399999 -0.025037598 8.2946177e-39 337 260
0.022596961 0.71600002 -0.025107734 8.6633974e-39 338 260
0.023852346 0.71600002 -0.025107734 8.8477887e-39 339 260
0.0251428 0.71700001 -0.0251428 8.7563217e-39 340 260
0.02639994 0.71700001 -0.0251428 1.0323287e-38 341 260
0.027657079 0.71700001 -0.0251428 1.3361099e-38 342 260
-0.051057063 0.72799999 -0.026804959 1.6403597e-38 280 261
-0.049712259 0.727 -0.026768139 1.6403597e-38 281 261
-0.048304334 0.72500002 -0.026694499 1.6220629e-38 282 261
-0.046903417 0.72299999 -0.026620859 1.5206476e-38 283 261
-0.045572639 0.722 -0.026584039 1.3089532e-38 284 261
-0.044306733 0.722 -0.026584039 1.1798793e-38 285 261
-0.042921603 0.72000003 -0.026510401 1.0696005e-38 286 261
-0.041601337 0.71899998 -0.02647358 1.0511253e-38 287 261
-0.040172372 0.71600002 -0.026363119 1.0327568e-38 288 261
-0.038808275 0.71399999 -0.026289478 1.0327568e-38 289 261
-0.037503798 0.713 -0.026252659 9.5946696e-39 290 261
-0.036151983 0.71100003 -0.026179021 9.5946696e-39 291 261
-0.034856264 0.70999998 -0.026142199 9.4109916e-39 292 261
-0.033611398 0.70999998 -0.026142199 9.5950227e-39 293 261
-0.03227536 0.708 -0.026068559 9.5035529e-39 294 261
-0.031034 0.708 -0.026068559 9.5035529e-39 295 261
-0.029750559 0.70700002 -0.02603174 9.5028495e-39 296 261
-0.028510952 0.70700002 -0.02603174 9.5028495e-39 297 261
-0.027232772 0.70599997 -0.025994917 9.4106539e-39 298 261
-0.02592128 0.704 -0.02592128 9.4106539e-39 299 261
-0.024686933 0.704 -0.02592128 9.5032026e-39 300 261
-0.023452586 0.704 -0.02592128 9.5032026e-39 301 261
-0.022218239 0.704 -0.02592128 9.6865177e-39 302 261
-0.020983893 0.704 -0.02592128 9.5939633e-39 303 261
-0.019749546 0.704 -0.02592128 9.2258927e-39 304 261
-0.018515198 0.704 -0.02592128 9.0411427e-39 305 261
-0.017280852 0.704 -0.02592128 8.7649131e-39 306 261
-0.016023712 0.70300001 -0.025884461 8.6727175e-39 307 261
-0.014791119 0.70300001 -0.025884461 8.5801701e-39 308 261
-0.013558527 0.70300001 -0.025884461 8.5801701e-39 309 261
-0.012325933 0.70300001 -0.025884461 8.7634824e-39 310 261
-0.01109334 0.70300001 -0.025884461 8.6712867e-39 311 261
-0.0098607466 0.70300001 -0.025884461 8.6702035e-39 312 261
-0.0086281532 0.70300001 -0.025884461 8.5780093e-39 313 261
-0.0073955595 0.70300001 -0.025884461 8.6691273e-39 314 261
-0.0061629666 0.70300001 -0.025884461 8.5769331e-39 315 261
-0.0049303733 0.70300001 -0.025884461 8.3010679e-39 316 261
-0.0036977797 0.70300001 -0.025884461 8.3010679e-39 317 261
-0.0024651866 0.70300001 -0.025884461 8.0252027e-39 318 261
-0.0012325933 0.70300001 -0.025884461 7.9330084e-39 319 261
0 0.70300001 -0.025884461 7.9319322e-39 320 261
0.0012343467 0.704 -0.02592128 7.839738e-39 321 261
0.0024686933 0.704 -0.02592128 7.5642315e-39 322 261
0.0037030398 0.704 -0.02592128 7.5642315e-39 323 261
0.0049373866 0.704 -0.02592128 7.9308561e-39 324 261
0.0061892662 0.70599997 -0.025994917 7.7464676e-39 325 261
0.0074271196 0.70599997 -0.025994917 7.7464676e-39 326 261
0.008677247 0.70700002 -0.02603174 7.6542734e-39 327 261
0.0099308798 0.708 -0.026068559 7.8375856e-39 328 261
0.01117224 0.708 -0.026068559 7.7453914e-39 329 261
0.012448666 0.70999998 -0.026142199 8.0198217e-39 330 261
0.013693533 0.70999998 -0.026142199 8.0198217e-39 331 261
0.014938398 0.70999998 -0.026142199 7.9272687e-39 332 261
0.016183265 0.70999998 -0.026142199 7.9272687e-39 333 261
0.01745268 0.71100003 -0.026179021 8.0180308e-39 334 261
0.018751899 0.713 -0.026252659 8.1102265e-39 335 261
0.020030079 0.71399999 -0.026289478 8.2020662e-39 336 261
0.021281958 0.71399999 -0.026289478 8.4790118e-39 337 261
0.022596961 0.71600002 -0.026363119 8.2960667e-39 338 261
0.023852346 0.71600002 -0.026363119 8.5722934e-39 339 261
0.0251428 0.71700001 -0.02639994 8.5740983e-39 340 261
0.02639994 0.71700001 -0.02639994 1.0694598e-38 341 261
0.027657079 0.71700001 -0.02639994 1.3636608e-38 342 261
-0.0495755 0.72500002 -0.027965667 1.6403597e-38 281 262
-0.048304334 0.72500002 -0.027965667 1.6496862e-38 282 262
-0.046903417 0.72299999 -0.02788852 1.548271e-38 283 262
-0.045572639 0.722 -0.027849946 1.3641634e-38 284 262
-0.044306733 0.722 -0.027849946 1.1889917e-38 285 262
-0.042921603 0.72000003 -0.027772799 1.0786764e-38 286 262
-0.041485619 0.71700001 -0.027657079 1.0694568e-38 287 262
-0.040228479 0.71700001 -0.027657079 1.0143532e-38 288 262
-0.038916986 0.71600002 -0.027618507 1.0143532e-38 289 262
-0.037556399 0.71399999 -0.02754136 9.7776133e-39 290 262
-0.036253672 0.713 -0.027502786 9.7776133e-39 291 262
-0.034856264 0.70999998 -0.027387066 9.5943038e-39 292 262
-0.033611398 0.70999998 -0.027387066 9.5943038e-39 293 262
-0.03227536 0.708 -0.027309919 9.4106384e-39 294 262
-0.031034 0.708 -0.027309919 9.5946696e-39 295 262
-0.029750559 0.70700002 -0.027271347 9.4102881e-39 296 262
-0.028510952 0.70700002 -0.027271347 9.3177338e-39 297 262
-0.027232772 0.70599997 -0.027232772 9.3177366e-39 298 262
-0.02592128 0.704 -0.027155625 9.3177366e-39 299 262
-0.024686933 0.704 -0.027155625 9.1351432e-39 300 262
-0.023452586 0.704 -0.027155625 9.1351432e-39 301 262
-0.022218239 0.704 -0.027155625 9.226257e-39 302 262
-0.021043506 0.70599997 -0.027232772 9.13406e-39 303 262
-0.019749546 0.704 -0.027155625 9.1329754e-39 304 262
-0.018515198 0.704 -0.027155625 9.0407797e-39 305 262
-0.017280852 0.704 -0.027155625 8.8553095e-39 306 262
-0.016023712 0.70300001 -0.027117053 8.7631152e-39 307 262
-0.014791119 0.70300001 -0.027117053 8.7627635e-39 308 262
-0.013558527 0.70300001 -0.027117053 8.7627635e-39 309 262
-0.012325933 0.70300001 -0.027117053 8.6712895e-39 310 262
-0.011061779 0.70099998 -0.027039904 8.4868997e-39 311 262
-0.0098326923 0.70099998 -0.027039904 8.5776534e-39 312 262
-0.0086036054 0.70099998 -0.027039904 8.3932621e-39 313 262
-0.0073745195 0.70099998 -0.027039904 8.3925447e-39 314 262
-0.0061629666 0.70300001 -0.027117053 8.3003504e-39 315 262
-0.0049303733 0.70300001 -0.027117053 8.2088737e-39 316 262
-0.0036977797 0.70300001 -0.027117053 8.0244852e-39 317 262
-0.0024651866 0.70300001 -0.027117053 7.9319322e-39 318 262
-0.0012343467 0.704 -0.027155625 7.9319322e-39 319 262
0 0.704 -0.027155625 7.839738e-39 320 262
0.0012343467 0.704 -0.027155625 7.7471851e-39 321 262
0.0024686933 0.704 -0.027155625 7.7475438e-39 322 262
0.0037030398 0.704 -0.027155625 7.6553496e-39 323 262
0.0049373866 0.704 -0.027155625 7.8379444e-39 324 262
0.0061892662 0.70599997 -0.027232772 7.8379444e-39 325 262
0.0074376399 0.70700002 -0.027271347 7.8379444e-39 326 262
0.008677247 0.70700002 -0.027271347 7.8379444e-39 327 262
0.0099308798 0.708 -0.027309919 8.0205392e-39 328 262
0.01117224 0.708 -0.027309919 8.0205392e-39 329 262
0.012448666 0.70999998 -0.027387066 8.0198217e-39 330 262
0.013693533 0.70999998 -0.027387066 7.9276275e-39 331 262
0.014938398 0.70999998 -0.027387066 7.9272687e-39 332 262
0.01620606 0.71100003 -0.027425639 7.8350745e-39 333 262
0.01745268 0.71100003 -0.027425639 8.018028e-39 334 262
0.018751899 0.713 -0.027502786 8.1102223e-39 335 262
0.020030079 0.71399999 -0.02754136 8.2946149e-39 336 262
0.021281958 0.71399999 -0.02754136 8.6633974e-39 337 262
0.022596961 0.71600002 -0.027618507 8.5726437e-39 338 262
0.023852346 0.71600002 -0.027618507 8.4804481e-39 339 262
0.0251428 0.71700001 -0.027657079 9.0318352e-39 340 262
0.02639994 0.71700001 -0.027657079 1.2073932e-38 341 262
0.027657079 0.71700001 -0.027657079 1.4005753e-38 342 262
-0.048171077 0.72299999 -0.029156178 1.6588341e-38 282 263
-0.046903417 0.72299999 -0.029156178 1.5850776e-38 283 263
-0.045572639 0.722 -0.029115854 1.4194453e-38 284 263
-0.044306733 0.722 -0.029115854 1.2166149e-38 285 263
-0.042921603 0.72000003 -0.029035201 1.0876811e-38 286 263
-0.041485619 0.71700001 -0.028914221 1.0969007e-38 287 263
-0.040228479 0.71700001 -0.028914221 1.0602357e-38 288 263
-0.038916986 0.71600002 -0.028873893 1.0602357e-38 289 263
-0.037556399 0.71399999 -0.028793238 9.8694488e-39 290 263
-0.036253672 0.713 -0.028752912 9.8694488e-39 291 263
-0.034905359 0.71100003 -0.028672259 9.5017523e-39 292 263
-0.033611398 0.70999998 -0.028631933 9.4095552e-39 293 263
-0.032366529 0.70999998 -0.028631933 9.2258927e-39 294 263
-0.031034 0.708 -0.02855128 9.3180897e-39 295 263
-0.029750559 0.70700002 -0.028510952 9.2255395e-39 296 263
-0.028510952 0.70700002 -0.028510952 9.2255395e-39 297 263
-0.027232772 0.70599997 -0.028470624 9.1333411e-39 298 263
-0.02592128 0.704 -0.028389972 9.1333411e-39 299 263
-0.024686933 0.704 -0.028389972 8.7674326e-39 300 263
-0.023452586 0.704 -0.028389972 8.7674326e-39 301 263
-0.022218239 0.704 -0.028389972 8.950026e-39 302 263
-0.021043506 0.70599997 -0.028470624 8.950026e-39 303 263
-0.019749546 0.704 -0.028389972 8.9485813e-39 304 263
-0.018515198 0.704 -0.028389972 8.8563857e-39 305 263
-0.017280852 0.704 -0.028389972 8.763474e-39 306 263
-0.016023712 0.70300001 -0.028349647 8.6712797e-39 307 263
-0.014791119 0.70300001 -0.028349647 8.5783722e-39 308 263
-0.013558527 0.70300001 -0.028349647 8.5783722e-39 309 263
-0.012325933 0.70300001 -0.028349647 8.4858207e-39 310 263
-0.011061779 0.70099998 -0.028268991 8.4858207e-39 311 263
-0.0098326923 0.70099998 -0.028268991 8.3929048e-39 312 263
-0.0086036054 0.70099998 -0.028268991 8.2085149e-39 313 263
-0.0073745195 0.70099998 -0.028268991 8.2077975e-39 314 263
-0.0061454331 0.70099998 -0.028268991 8.2077975e-39 315 263
-0.0049303733 0.70300001 -0.028349647 7.8408142e-39 316 263
-0.0036977797 0.70300001 -0.028349647 7.8408142e-39 317 263
-0.0024651866 0.70300001 -0.028349647 7.839738e-39 318 263
-0.0012343467 0.704 -0.028389972 7.839738e-39 319 263
0 0.704 -0.028389972 7.5642315e-39 320 263
0.0012343467 0.704 -0.028389972 7.4716786e-39 321 263
0.0024686933 0.704 -0.028389972 7.7468263e-39 322 263
0.0037030398 0.704 -0.028389972 7.6546321e-39 323 263
0.0049514128 0.70599997 -0.028470624 7.6546321e-39 324 263
0.0061892662 0.70599997 -0.028470624 7.6546321e-39 325 263
0.0074376399 0.70700002 -0.028510952 7.5613617e-39 326 263
0.008677247 0.70700002 -0.028510952 7.5613617e-39 327 263
0.0099308798 0.708 -0.02855128 7.6524797e-39 328 263
0.01117224 0.708 -0.02855128 7.7446739e-39 329 263
0.012448666 0.70999998 -0.028631933 7.9283449e-39 330 263
0.013693533 0.70999998 -0.028631933 7.8361507e-39 331 263
0.014938398 0.70999998 -0.028631933 7.8350745e-39 332 263
0.01620606 0.71100003 -0.028672259 7.8350745e-39 333 263
0.01745268 0.71100003 -0.028672259 8.1102223e-39 334 263
0.018751899 0.713 -0.028752912 8.2949708e-39 335 263
0.020030079 0.71399999 -0.028793238 8.2953338e-39 336 263
0.021341572 0.71600002 -0.028873893 8.4800852e-39 337 263
0.022596961 0.71600002 -0.028873893 8.5726437e-39 338 263
0.023852346 0.71600002 -0.028873893 8.5726437e-39 339 263
0.0251428 0.71700001 -0.028914221 9.3066271e-39 340 263
0.02639994 0.71700001 -0.028914221 1.2901898e-38 341 263
-0.046903417 0.72299999 -0.030423839 1.5942616e-38 283 264
-0.04563576 0.72299999 -0.030423839 1.4655082e-38 284 264
-0.044306733 0.722 -0.030381758 1.2442387e-38 285 264
-0.042921603 0.72000003 -0.0302976 1.0968294e-38 286 264
-0.041601337 0.71899998 -0.030255521 1.1336718e-38 287 264
-0.040228479 0.71700001 -0.030171359 1.0694556e-38 288 264
-0.038916986 0.71600002 -0.03012928 1.0694556e-38 289 264
-0.037556399 0.71399999 -0.030045118 9.869446e-39 290 264
-0.036253672 0.713 -0.030003037 9.7772517e-39 291 264
-0.034905359 0.71100003 -0.029918881 9.5935808e-39 292 264
-0.033611398 0.70999998 -0.029876797 9.5013865e-39 293 264
-0.032366529 0.70999998 -0.029876797 9.3170065e-39 294 264
-0.031034 0.708 -0.02979264 9.3170065e-39 295 264
-0.029750559 0.70700002 -0.029750559 8.8578332e-39 296 264
-0.028510952 0.70700002 -0.029750559 8.8578332e-39 297 264
-0.027232772 0.70599997 -0.029708479 8.949303e-39 298 264
-0.025994917 0.70599997 -0.029708479 8.949303e-39 299 264
-0.024686933 0.704 -0.029624319 8.7656348e-39 300 264
-0.023452586 0.704 -0.029624319 8.7656348e-39 301 264
-0.022218239 0.704 -0.029624319 8.765632e-39 302 264
-0.021043506 0.70599997 -0.029708479 8.765632e-39 303 264
-0.019805651 0.70599997 -0.029708479 8.8563857e-39 304 264
-0.018515198 0.704 -0.029624319 8.7641914e-39 305 264
-0.017280852 0.704 -0.029624319 8.7631152e-39 306 264
-0.016023712 0.70300001 -0.029582238 8.5787268e-39 307 264
-0.014791119 0.70300001 -0.029582238 8.4861766e-39 308 264
-0.013558527 0.70300001 -0.029582238 8.3936223e-39 309 264
-0.012325933 0.70300001 -0.029582238 8.3929048e-39 310 264
-0.011061779 0.70099998 -0.029498078 8.3007092e-39 311 264
-0.0098326923 0.70099998 -0.029498078 8.0252027e-39 312 264
-0.0086036054 0.70099998 -0.029498078 7.9326497e-39 313 264
-0.0073745195 0.70099998 -0.029498078 7.9319322e-39 314 264
-0.0061454331 0.70099998 -0.029498078 7.9319322e-39 315 264
-0.0049303733 0.70300001 -0.029582238 7.8404555e-39 316 264
-0.0036977797 0.70300001 -0.029582238 7.8404555e-39 317 264
-0.0024651866 0.70300001 -0.029582238 7.6571432e-39 318 264
-0.0012343467 0.704 -0.029624319 7.564949e-39 319 264
0 0.704 -0.029624319 7.4720373e-39 320 264
0.0012343467 0.704 -0.029624319 7.3798431e-39 321 264
0.0024686933 0.704 -0.029624319 7.5627966e-39 322 264
0.0037030398 0.704 -0.029624319 7.5627966e-39 323 264
0.0049514128 0.70599997 -0.029708479 7.5620791e-39 324 264
0.0061980332 0.70700002 -0.029750559 7.5620791e-39 325 264
0.0074376399 0.70700002 -0.029750559 7.5610029e-39 326 264
0.008689519 0.708 -0.02979264 7.5610029e-39 327 264
0.0099308798 0.708 -0.02979264 7.5610029e-39 328 264
0.011203799 0.70999998 -0.029876797 7.5610029e-39 329 264
0.012448666 0.70999998 -0.029876797 7.7446739e-39 330 264
0.013693533 0.70999998 -0.029876797 7.6524797e-39 331 264
0.014938398 0.70999998 -0.029876797 7.8354332e-39 332 264
0.01620606 0.71100003 -0.029918881 7.8354332e-39 333 264
0.017501773 0.713 -0.030003037 7.9276303e-39 334 264
0.018751899 0.713 -0.030003037 8.1120215e-39 335 264
