# .PCD v.7 - Point Cloud Data file format
FIELDS x y z rgb imX imY
SIZE 4 4 4 4 4 4
TYPE F F F F F F
COUNT 1 1 1 1 1 1
WIDTH 860
HEIGHT 1
VIEWPOINT 0 0 0 1 0 0 0
POINTS 860
DATA ascii
-0.0040554604 0.77100003 0.032443684 9.1143787e-39 317 216
-0.0027036399 0.77100003 0.032443684 9.020737e-39 318 216
-0.0013483133 0.76899999 0.032359518 8.2831719e-39 319 216
0 0.76899999 0.032359518 8.0962569e-39 320 216
0.0013483133 0.76899999 0.032359518 8.5575952e-39 321 216
0.0026896133 0.76700002 0.03227536 1.0850973e-38 322 216
0.00403442 0.76700002 0.03227536 1.0666942e-38 323 216
0.0053722127 0.76599997 0.032233275 1.1396591e-38 324 216
0.0067152665 0.76599997 0.032233275 1.0843417e-38 325 216
0.0080583189 0.76599997 0.032233275 1.148088e-38 326 216
0.0094013726 0.76599997 0.032233275 1.1757467e-38 327 216
0.010744425 0.76599997 0.032233275 1.1761415e-38 328 216
0.012087479 0.76599997 0.032233275 1.2222391e-38 329 216
0.013430533 0.76599997 0.032233275 1.2039797e-38 330 216
0.014773586 0.76599997 0.032233275 1.19476e-38 331 216
0.016116638 0.76599997 0.032233275 1.2039809e-38 332 216
0.017482487 0.76700002 0.03227536 1.2316755e-38 333 216
0.018827293 0.76700002 0.03227536 1.1951226e-38 334 216
0.020172099 0.76700002 0.03227536 1.2043781e-38 335 216
0.021573013 0.76899999 0.032359518 1.1214393e-38 336 216
0.022921326 0.76899999 0.032359518 1.0937447e-38 337 216
0.024269639 0.76899999 0.032359518 9.6693854e-39 338 216
0.025617953 0.76899999 0.032359518 1.4740505e-38 339 216
-0.04437862 0.76700002 0.030930554 5.5349972e-39 287 217
-0.043033812 0.76700002 0.030930554 2.5786204e-39 288 217
-0.041689005 0.76700002 0.030930554 2.3945879e-39 289 217
-0.040291596 0.76599997 0.030890226 7.3623338e-39 290 217
-0.038948543 0.76599997 0.030890226 8.28393e-39 291 217
-0.037409119 0.76200002 0.030728921 8.0966493e-39 292 217
-0.036073081 0.76200002 0.030728921 7.3590842e-39 293 217
-0.034737039 0.76200002 0.030728921 8.0887221e-39 294 217
-0.033357166 0.76099998 0.030688593 7.5355498e-39 295 217
-0.032022879 0.76099998 0.030688593 7.9907826e-39 296 217
-0.030688593 0.76099998 0.030688593 7.7145558e-39 297 217
-0.029354304 0.76099998 0.030688593 7.8081892e-39 298 217
-0.028020019 0.76099998 0.030688593 8.8223425e-39 299 217
-0.026685731 0.76099998 0.030688593 9.5642067e-39 300 217
-0.025351444 0.76099998 0.030688593 8.9188373e-39 301 217
-0.024017159 0.76099998 0.030688593 9.3740674e-39 302 217
-0.022682872 0.76099998 0.030688593 9.2818717e-39 303 217
-0.02137664 0.76200002 0.030728921 9.0078114e-39 304 217
-0.0200406 0.76200002 0.030728921 9.192204e-39 305 217
-0.01870456 0.76200002 0.030728921 9.2865437e-39 306 217
-0.017414106 0.764 0.030809574 9.3787393e-39 307 217
-0.016116638 0.76599997 0.030890226 9.2893981e-39 308 217
-0.014792874 0.76700002 0.030930554 9.1968437e-39 309 217
-0.013518199 0.77100003 0.031091858 8.5561336e-39 310 217
-0.012197939 0.773 0.03117251 8.3713837e-39 311 217
-0.01085664 0.77399999 0.031212838 7.9132796e-39 312 217
-0.0094995592 0.77399999 0.031212838 7.9132796e-39 313 217
-0.0081424797 0.77399999 0.031212838 7.6385032e-39 314 217
-0.0067766332 0.773 0.03117251 7.8228944e-39 315 217
-0.0054213065 0.773 0.03117251 7.5488537e-39 316 217
-0.0040554604 0.77100003 0.031091858 7.5488537e-39 317 217
-0.0027036399 0.77100003 0.031091858 7.1786446e-39 318 217
-0.0013483133 0.76899999 0.031011207 6.4407209e-39 319 217
0 0.76899999 0.031011207 7.544179e-39 320 217
0.0013483133 0.76899999 0.031011207 8.3742984e-39 321 217
0.0026896133 0.76700002 0.030930554 1.0394318e-38 322 217
0.00403442 0.76700002 0.030930554 1.0302122e-38 323 217
0.0053722127 0.76599997 0.030890226 1.139804e-38 324 217
0.0067152665 0.76599997 0.030890226 1.0660475e-38 325 217
0.0080583189 0.76599997 0.030890226 1.148125e-38 326 217
0.0094013726 0.76599997 0.030890226 1.148125e-38 327 217
0.010744425 0.76599997 0.030890226 1.1669588e-38 328 217
0.01205592 0.764 0.030809574 1.203837e-38 329 217
0.013395466 0.764 0.030809574 1.1947244e-38 330 217
0.014735013 0.764 0.030809574 1.2039799e-38 331 217
0.016116638 0.76599997 0.030890226 1.1855778e-38 332 217
0.017459691 0.76599997 0.030890226 1.2224559e-38 333 217
0.018827293 0.76700002 0.030930554 1.1951214e-38 334 217
0.020172099 0.76700002 0.030930554 1.2043409e-38 335 217
0.021516906 0.76700002 0.030930554 1.2133806e-38 336 217
0.022921326 0.76899999 0.031011207 1.0382449e-38 337 217
0.024269639 0.76899999 0.031011207 7.5370071e-39 338 217
0.025617953 0.76899999 0.031011207 1.3714474e-38 339 217
0.026966266 0.76899999 0.031011207 1.438e-38 340 217
-0.045723427 0.76700002 0.029585747 1.3281228e-38 286 218
-0.04437862 0.76700002 0.029585747 1.8489713e-39 287 218
-0.043033812 0.76700002 0.029585747 3.7688875e-39 288 218
-0.041689005 0.76700002 0.029585747 4.6908438e-39 289 218
-0.040291596 0.76599997 0.029547172 7.3626968e-39 290 218
-0.038948543 0.76599997 0.029547172 8.1006206e-39 291 218
-0.037409119 0.76200002 0.029392879 8.1870512e-39 292 218
-0.036073081 0.76200002 0.029392879 7.1729007e-39 293 218
-0.034737039 0.76200002 0.029392879 7.9050539e-39 294 218
-0.033357166 0.76099998 0.029354304 7.4440772e-39 295 218
-0.032022879 0.76099998 0.029354304 7.9000191e-39 296 218
-0.030688593 0.76099998 0.029354304 7.8078234e-39 297 218
-0.029354304 0.76099998 0.029354304 7.9000191e-39 298 218
-0.028020019 0.76099998 0.029354304 8.9138123e-39 299 218
-0.026685731 0.76099998 0.029354304 9.3805385e-39 300 218
-0.025351444 0.76099998 0.029354304 8.6429735e-39 301 218
-0.024017159 0.76099998 0.029354304 9.0992811e-39 302 218
-0.022682872 0.76099998 0.029354304 8.9148913e-39 303 218
-0.02137664 0.76200002 0.029392879 8.9148969e-39 304 218
-0.0200406 0.76200002 0.029392879 9.1911236e-39 305 218
-0.01870456 0.76200002 0.029392879 9.3769414e-39 306 218
-0.01736852 0.76200002 0.029392879 9.6535283e-39 307 218
-0.016074561 0.764 0.029470026 9.1971997e-39 308 218
-0.014792874 0.76700002 0.029585747 9.3815923e-39 309 218
-0.013518199 0.77100003 0.029740039 8.5568525e-39 310 218
-0.012197939 0.773 0.029817186 8.3721025e-39 311 218
-0.01085664 0.77399999 0.029855758 7.7285324e-39 312 218
-0.0094995592 0.77399999 0.029855758 7.7285324e-39 313 218
-0.0081424797 0.77399999 0.029855758 7.2686472e-39 314 218
-0.0067766332 0.773 0.029817186 7.3608429e-39 315 218
-0.0054213065 0.773 0.029817186 7.269027e-39 316 218
-0.0040554604 0.77100003 0.029740039 7.3612226e-39 317 218
-0.0026966266 0.76899999 0.02966289 7.2683179e-39 318 218
-0.0013483133 0.76899999 0.02966289 7.3608723e-39 319 218
0 0.76700002 0.029585747 8.006592e-39 320 218
0.0013448066 0.76700002 0.029585747 8.5597658e-39 321 218
0.0026896133 0.76700002 0.029585747 1.0119173e-38 322 218
0.0040291594 0.76599997 0.029547172 1.0026977e-38 323 218
0.0053722127 0.76599997 0.029547172 1.1123619e-38 324 218
0.006697733 0.764 0.029470026 1.0570446e-38 325 218
0.0080372803 0.764 0.029470026 1.1298657e-38 326 218
0.0093522798 0.76200002 0.029392879 1.1390853e-38 327 218
0.01068832 0.76200002 0.029392879 1.1577389e-38 328 218
0.01205592 0.764 0.029470026 1.194653e-38 329 218
0.013395466 0.764 0.029470026 1.1947244e-38 330 218
0.014735013 0.764 0.029470026 1.1855048e-38 331 218
0.016074561 0.764 0.029470026 1.1947249e-38 332 218
0.017459691 0.76599997 0.029547172 1.2223838e-38 333 218
0.018827293 0.76700002 0.029585747 1.2133443e-38 334 218
0.020172099 0.76700002 0.029585747 1.2501866e-38 335 218
0.021516906 0.76700002 0.029585747 1.2134159e-38 336 218
0.022921326 0.76899999 0.02966289 1.1212202e-38 337 218
0.024269639 0.76899999 0.02966289 8.6332779e-39 338 218
0.025617953 0.76899999 0.02966289 1.1491703e-38 339 218
0.026966266 0.76899999 0.02966289 1.189072e-38 340 218
0.028314579 0.76899999 0.02966289 1.5762935e-38 341 218
-0.045723427 0.76700002 0.02824094 1.1066372e-38 286 219
-0.04437862 0.76700002 0.02824094 1.5698621e-39 287 219
-0.043033812 0.76700002 0.02824094 4.9634678e-39 288 219
-0.041689005 0.76700002 0.02824094 5.1478591e-39 289 219
-0.040291596 0.76599997 0.028204117 6.716261e-39 290 219
-0.038948543 0.76599997 0.028204117 7.2694348e-39 291 219
-0.037409119 0.76200002 0.028056841 7.9994314e-39 292 219
-0.036025736 0.76099998 0.028020019 7.6310076e-39 293 219
-0.034691449 0.76099998 0.028020019 7.9043323e-39 294 219
-0.033357166 0.76099998 0.028020019 7.719941e-39 295 219
-0.032022879 0.76099998 0.028020019 8.1776822e-39 296 219
-0.030688593 0.76099998 0.028020019 7.8085395e-39 297 219
-0.029354304 0.76099998 0.028020019 7.7174257e-39 298 219
-0.027946379 0.759 0.027946379 8.7312189e-39 299 219
-0.026615599 0.759 0.027946379 9.0110302e-39 300 219
-0.025284819 0.759 0.027946379 9.0110302e-39 301 219
-0.023954039 0.759 0.027946379 9.2840227e-39 302 219
-0.022682872 0.76099998 0.028020019 8.823046e-39 303 219
-0.021348584 0.76099998 0.028020019 8.9148969e-39 304 219
-0.020014299 0.76099998 0.028020019 9.1911236e-39 305 219
-0.01870456 0.76200002 0.028056841 9.1932732e-39 306 219
-0.01736852 0.76200002 0.028056841 9.2854689e-39 307 219
-0.01603248 0.76200002 0.028056841 9.1046481e-39 308 219
-0.014735013 0.764 0.028130481 9.2893981e-39 309 219
-0.013483133 0.76899999 0.028314579 8.5568497e-39 310 219
-0.01221372 0.77399999 0.028498679 8.3724584e-39 311 219
-0.01085664 0.77399999 0.028498679 8.0040487e-39 312 219
-0.0094995592 0.77399999 0.028498679 7.5430705e-39 313 219
-0.0081424797 0.77399999 0.028498679 6.6243764e-39 314 219
-0.0067766332 0.773 0.028461859 6.5318221e-39 315 219
-0.0054213065 0.773 0.028461859 6.1644941e-39 316 219
-0.0040554604 0.77100003 0.028388219 6.3485252e-39 317 219
-0.0026966266 0.76899999 0.028314579 6.3496042e-39 318 219
-0.0013483133 0.76899999 0.028314579 6.8105824e-39 319 219
0 0.76700002 0.02824094 7.9162041e-39 320 219
0.0013448066 0.76700002 0.02824094 8.1009555e-39 321 219
0.0026861064 0.76599997 0.028204117 9.5681696e-39 322 219
0.0040081199 0.76200002 0.028056841 9.5681696e-39 323 219
0.0053441599 0.76200002 0.028056841 1.057404e-38 324 219
0.0066801999 0.76200002 0.028056841 1.0021225e-38 325 219
0.0080162399 0.76200002 0.028056841 1.1117863e-38 326 219
0.0093522798 0.76200002 0.028056841 1.0840916e-38 327 219
0.01068832 0.76200002 0.028056841 1.1393727e-38 328 219
0.01202436 0.76200002 0.028056841 1.1670313e-38 329 219
0.0133604 0.76200002 0.028056841 1.1671383e-38 330 219
0.01469644 0.76200002 0.028056841 1.1671383e-38 331 219
0.01603248 0.76200002 0.028056841 1.203837e-38 332 219
0.017414106 0.764 0.028130481 1.2407153e-38 333 219
0.018802745 0.76599997 0.028204117 1.2134161e-38 334 219
0.020145798 0.76599997 0.028204117 1.2134161e-38 335 219
0.021516906 0.76700002 0.02824094 1.2133455e-38 336 219
0.022861714 0.76700002 0.02824094 1.139589e-38 337 219
0.024269639 0.76899999 0.028314579 9.7360354e-39 338 219
0.025617953 0.76899999 0.028314579 9.6438397e-39 339 219
0.026966266 0.76899999 0.028314579 8.7510248e-39 340 219
0.028314579 0.76899999 0.028314579 1.5665698e-38 341 219
-0.051854834 0.84500003 0.029631335 1.2998515e-38 285 220
-0.045723427 0.76700002 0.026896132 7.4725376e-39 286 220
-0.04437862 0.76700002 0.026896132 2.125191e-39 287 220
-0.042977702 0.76599997 0.026861066 5.7924998e-39 288 220
-0.041634649 0.76599997 0.026861066 5.239326e-39 289 220
-0.040291596 0.76599997 0.026861066 6.8934426e-39 290 220
-0.038745161 0.76200002 0.0267208 7.4466163e-39 291 220
-0.037409119 0.76200002 0.0267208 8.087667e-39 292 220
-0.036025736 0.76099998 0.026685731 7.8110801e-39 293 220
-0.034691449 0.76099998 0.026685731 8.0876501e-39 294 220
-0.033357166 0.76099998 0.026685731 8.1798458e-39 295 220
-0.032022879 0.76099998 0.026685731 8.0858467e-39 296 220
-0.030688593 0.76099998 0.026685731 7.7174229e-39 297 220
-0.029277159 0.759 0.026615599 8.265559e-39 298 220
-0.027946379 0.759 0.026615599 8.9109284e-39 299 220
-0.026615599 0.759 0.026615599 9.1035817e-39 300 220
-0.025284819 0.759 0.026615599 8.9188317e-39 301 220
-0.023954039 0.759 0.026615599 9.1943424e-39 302 220
-0.02262326 0.759 0.026615599 8.8259186e-39 303 220
-0.021348584 0.76099998 0.026685731 9.0985595e-39 304 220
-0.020014299 0.76099998 0.026685731 9.2829507e-39 305 220
-0.018680012 0.76099998 0.026685731 9.1925572e-39 306 220
-0.017345725 0.76099998 0.026685731 9.5609795e-39 307 220
-0.016011439 0.76099998 0.026685731 9.2879702e-39 308 220
-0.014735013 0.764 0.026790932 9.5645571e-39 309 220
-0.013395466 0.764 0.026790932 8.5572196e-39 310 220
-0.012197939 0.773 0.027106533 8.3731871e-39 311 220
-0.010842613 0.773 0.027106533 7.4523168e-39 312 220
-0.0094995592 0.77399999 0.027141599 7.0835343e-39 313 220
-0.0081424797 0.77399999 0.027141599 6.3459889e-39 314 220
-0.0067853997 0.77399999 0.027141599 6.2537933e-39 315 220
-0.0054213065 0.773 0.027106533 5.9786511e-39 316 220
-0.0040554604 0.77100003 0.027036399 5.9786511e-39 317 220
-0.0026966266 0.76899999 0.026966266 6.6222213e-39 318 220
-0.0013448066 0.76700002 0.026896132 7.3597877e-39 319 220
0 0.76700002 0.026896132 8.2781497e-39 320 220
0.0013430532 0.76599997 0.026861066 8.6472923e-39 321 220
0.0026790933 0.764 0.026790932 9.9308439e-39 322 220
0.0040081199 0.76200002 0.0267208 1.0299266e-38 323 220
0.0053441599 0.76200002 0.0267208 1.048294e-38 324 220
0.0066801999 0.76200002 0.0267208 1.0298547e-38 325 220
0.0080162399 0.76200002 0.0267208 1.1026386e-38 326 220
0.0093522798 0.76200002 0.0267208 1.1118582e-38 327 220
0.010674292 0.76099998 0.026685731 1.1208609e-38 328 220
0.012008579 0.76099998 0.026685731 1.1393001e-38 329 220
0.013342866 0.76099998 0.026685731 1.1854698e-38 330 220
0.014677152 0.76099998 0.026685731 1.1946893e-38 331 220
0.016011439 0.76099998 0.026685731 1.1946893e-38 332 220
0.01736852 0.76200002 0.0267208 1.2131286e-38 333 220
0.018753653 0.764 0.026790932 1.2224203e-38 334 220
0.020093199 0.764 0.026790932 1.2408953e-38 335 220
0.021488851 0.76599997 0.026861066 1.1949061e-38 336 220
0.022861714 0.76700002 0.026896132 1.1580639e-38 337 220
0.024206521 0.76700002 0.026896132 1.0842012e-38 338 220
0.025551327 0.76700002 0.026896132 8.9998926e-39 339 220
0.026896132 0.76700002 0.026896132 7.5438468e-39 340 220
0.02824094 0.76700002 0.026896132 1.5380475e-38 341 220
-0.053336401 0.84500003 0.028149767 1.7424268e-38 284 221
-0.047068235 0.76700002 0.025551327 1.1155324e-38 285 221
-0.045723427 0.76700002 0.025551327 5.9923684e-39 286 221
-0.04437862 0.76700002 0.025551327 2.857717e-39 287 221
-0.042977702 0.76599997 0.025518013 6.0676476e-39 288 221
-0.041634649 0.76599997 0.025518013 5.9750932e-39 289 221
-0.040186398 0.764 0.025451386 6.6172284e-39 290 221
-0.038745161 0.76200002 0.02538476 6.7094241e-39 291 221
-0.037360024 0.76099998 0.025351444 7.3526257e-39 292 221
-0.036025736 0.76099998 0.025351444 7.5366568e-39 293 221
-0.034691449 0.76099998 0.025351444 8.1798486e-39 294 221
-0.033269498 0.759 0.025284819 8.0872942e-39 295 221
-0.031938717 0.759 0.025284819 8.4531901e-39 296 221
-0.030607941 0.759 0.025284819 8.176243e-39 297 221
-0.029277159 0.759 0.025284819 8.4513908e-39 298 221
-0.027946379 0.759 0.025284819 8.8201747e-39 299 221
-0.026615599 0.759 0.025284819 9.2847234e-39 300 221
-0.025284819 0.759 0.025284819 1.020704e-38 301 221
-0.023954039 0.759 0.025284819 1.0205591e-38 302 221
-0.02262326 0.759 0.025284819 9.3758302e-39 303 221
-0.021348584 0.76099998 0.025351444 9.5570139e-39 304 221
-0.020014299 0.76099998 0.025351444 9.6492095e-39 305 221
-0.018680012 0.76099998 0.025351444 9.6506584e-39 306 221
-0.017345725 0.76099998 0.025351444 9.9272439e-39 307 221
-0.016011439 0.76099998 0.025351444 9.8375496e-39 308 221
-0.01469644 0.76200002 0.02538476 1.0021941e-38 309 221
-0.0133604 0.76200002 0.02538476 9.1060802e-39 310 221
-0.01202436 0.76200002 0.02538476 8.921689e-39 311 221
-0.010842613 0.773 0.025751207 8.0029767e-39 312 221
-0.0094872871 0.773 0.025751207 7.0806602e-39 313 221
-0.0081319595 0.773 0.025751207 6.3441938e-39 314 221
-0.0067766332 0.773 0.025751207 6.4363895e-39 315 221
-0.0054283198 0.77399999 0.025784519 6.4367552e-39 316 221
-0.0040554604 0.77100003 0.02568458 6.5289508e-39 317 221
-0.0026966266 0.76899999 0.025617953 7.3565535e-39 318 221
-0.0013448066 0.76700002 0.025551327 7.8171715e-39 319 221
0 0.76700002 0.025551327 8.7344629e-39 320 221
0.00133604 0.76200002 0.02538476 9.0110484e-39 321 221
0.00267208 0.76200002 0.02538476 9.839014e-39 322 221
0.0040081199 0.76200002 0.02538476 1.0115601e-38 323 221
0.0053371461 0.76099998 0.025351444 1.0481494e-38 324 221
0.0066714329 0.76099998 0.025351444 1.0204907e-38 325 221
0.0080057196 0.76099998 0.025351444 1.075232e-38 326 221
0.0093400059 0.76099998 0.025351444 1.0199146e-38 327 221
0.010674292 0.76099998 0.025351444 1.1118226e-38 328 221
0.012008579 0.76099998 0.025351444 1.121078e-38 329 221
0.013342866 0.76099998 0.025351444 1.1578837e-38 330 221
0.014677152 0.76099998 0.025351444 1.1671032e-38 331 221
0.016011439 0.76099998 0.025351444 1.1763228e-38 332 221
0.01736852 0.76200002 0.02538476 1.2039815e-38 333 221
0.01870456 0.76200002 0.02538476 1.1856866e-38 334 221
0.020093199 0.764 0.025451386 1.1949061e-38 335 221
0.021432746 0.764 0.025451386 1.1763598e-38 336 221
0.022831906 0.76599997 0.025518013 1.130262e-38 337 221
0.024206521 0.76700002 0.025551327 1.0659055e-38 338 221
0.025551327 0.76700002 0.025551327 8.9080543e-39 339 221
0.026861066 0.76599997 0.025518013 7.0738682e-39 340 221
0.028204117 0.76599997 0.025518013 1.5279278e-38 341 221
-0.047068235 0.76700002 0.024206521 9.7720305e-39 285 222
-0.045723427 0.76700002 0.024206521 6.2639134e-39 286 222
-0.04437862 0.76700002 0.024206521 3.8668285e-39 287 222
-0.042977702 0.76599997 0.024174958 5.9758023e-39 288 222
-0.041634649 0.76599997 0.024174958 5.6992154e-39 289 222
-0.040186398 0.764 0.024111839 6.6154137e-39 290 222
-0.038745161 0.76200002 0.02404872 6.9838375e-39 291 222
-0.037360024 0.76099998 0.024017159 7.2607775e-39 292 222
-0.036025736 0.76099998 0.024017159 7.3533319e-39 293 222
-0.034691449 0.76099998 0.024017159 8.1798486e-39 294 222
-0.033269498 0.759 0.023954039 8.1798486e-39 295 222
-0.031938717 0.759 0.023954039 8.7287007e-39 296 222
-0.030607941 0.759 0.023954039 8.6365051e-39 297 222
-0.029277159 0.759 0.023954039 8.8205278e-39 298 222
-0.027872739 0.75700003 0.02389092 9.004559e-39 299 222
-0.026545467 0.75700003 0.02389092 1.0110171e-38 300 222
-0.025218192 0.75700003 0.02389092 1.1216518e-38 301 222
-0.02389092 0.75700003 0.02389092 1.0851323e-38 302 222
-0.022563647 0.75700003 0.02389092 9.7453358e-39 303 222
-0.02129248 0.759 0.023954039 1.0109455e-38 304 222
-0.0199617 0.759 0.023954039 1.0109455e-38 305 222
-0.01863092 0.759 0.023954039 1.0109472e-38 306 222
-0.017300138 0.759 0.023954039 1.057009e-38 307 222
-0.016011439 0.76099998 0.024017159 1.0021225e-38 308 222
-0.014677152 0.76099998 0.024017159 1.0205256e-38 309 222
-0.0133604 0.76200002 0.02404872 9.5649102e-39 310 222
-0.01202436 0.76200002 0.02404872 9.4723544e-39 311 222
-0.010716373 0.764 0.024111839 8.2781216e-39 312 222
-0.0094872871 0.773 0.024395877 7.5401965e-39 313 222
-0.0081319595 0.773 0.024395877 6.6175395e-39 314 222
-0.0067766332 0.773 0.024395877 7.2629089e-39 315 222
-0.0054283198 0.77399999 0.02442744 7.4476701e-39 316 222
-0.0040712398 0.77399999 0.02442744 7.724257e-39 317 222
-0.0026440267 0.75400001 0.02379624 8.0930339e-39 318 222
-0.0013220133 0.75400001 0.02379624 8.1855883e-39 319 222
0 0.76200002 0.02404872 8.9177625e-39 320 222
0.00133604 0.76200002 0.02404872 9.2865437e-39 321 222
0.0026475333 0.755 0.023827799 1.0021958e-38 322 222
0.0039712996 0.755 0.023827799 1.0114153e-38 323 222
0.0053231199 0.759 0.023954039 1.0479343e-38 324 222
0.0066538998 0.759 0.023954039 1.0203115e-38 325 222
0.0079846792 0.759 0.023954039 1.0842368e-38 326 222
0.00931546 0.759 0.023954039 1.075017e-38 327 222
0.01064624 0.759 0.023954039 1.1210058e-38 328 222
0.012008579 0.76099998 0.024017159 1.1486285e-38 329 222
0.013342866 0.76099998 0.024017159 1.1670311e-38 330 222
0.014677152 0.76099998 0.024017159 1.1854701e-38 331 222
0.016011439 0.76099998 0.024017159 1.1855781e-38 332 222
0.017345725 0.76099998 0.024017159 1.1855781e-38 333 222
0.01870456 0.76200002 0.02404872 1.1857219e-38 334 222
0.0200406 0.76200002 0.02404872 1.1857219e-38 335 222
0.021432746 0.764 0.024111839 1.1488439e-38 336 222
0.022772292 0.764 0.024111839 1.1027462e-38 337 222
0.024206521 0.76700002 0.024206521 1.0015118e-38 338 222
0.025551327 0.76700002 0.024206521 9.0935218e-39 339 222
0.026861066 0.76599997 0.024174958 6.8008784e-39 340 222
0.028204117 0.76599997 0.024174958 1.288579e-38 341 222
0.029547172 0.76599997 0.024174958 1.4651177e-38 342 222
-0.048539277 0.76899999 0.022921326 1.5950214e-38 284 223
-0.047068235 0.76700002 0.022861714 8.8511504e-39 285 223
-0.045723427 0.76700002 0.022861714 6.4457852e-39 286 223
-0.044320758 0.76599997 0.022831906 4.5096769e-39 287 223
-0.042977702 0.76599997 0.022831906 5.8825276e-39 288 223
-0.041525945 0.764 0.022772292 5.6063009e-39 289 223
-0.040081199 0.76200002 0.02271268 6.2469984e-39 290 223
-0.038745161 0.76200002 0.02271268 6.6157795e-39 291 223
-0.037360024 0.76099998 0.022682872 7.1685819e-39 292 223
-0.036025736 0.76099998 0.022682872 7.6295587e-39 293 223
-0.034600276 0.759 0.02262326 8.179843e-39 294 223
-0.033269498 0.759 0.02262326 8.27204e-39 295 223
-0.031938717 0.759 0.02262326 9.006361e-39 296 223
-0.030607941 0.759 0.02262326 9.7439261e-39 297 223
-0.029200014 0.75700003 0.022563647 1.0665159e-38 298 223
-0.027872739 0.75700003 0.022563647 1.0757355e-38 299 223
-0.026545467 0.75700003 0.022563647 1.0387834e-38 300 223
-0.025218192 0.75700003 0.022563647 1.0848812e-38 301 223
-0.02389092 0.75700003 0.022563647 1.1032109e-38 302 223
-0.022563647 0.75700003 0.022563647 1.1124305e-38 303 223
-0.02129248 0.759 0.02262326 1.0755175e-38 304 223
-0.0199617 0.759 0.02262326 1.0478229e-38 305 223
-0.01863092 0.759 0.02262326 1.0845941e-38 306 223
-0.017300138 0.759 0.02262326 1.1030332e-38 307 223
-0.015969358 0.759 0.02262326 1.0939936e-38 308 223
-0.014677152 0.76099998 0.022682872 1.084774e-38 309 223
-0.013342866 0.76099998 0.022682872 1.02978e-38 310 223
-0.012008579 0.76099998 0.022682872 1.0205603e-38 311 223
-0.010674292 0.76099998 0.022682872 9.2875946e-39 312 223
-0.0093400059 0.76099998 0.022682872 8.6422252e-39 313 223
-0.0079846792 0.759 0.02262326 8.3660139e-39 314 223
-0.0066363667 0.75700003 0.022563647 8.9191877e-39 315 223
-0.0052950666 0.755 0.022504034 8.8280836e-39 316 223
-0.00396604 0.75400001 0.022474226 8.8280836e-39 317 223
-0.0026440267 0.75400001 0.022474226 9.011033e-39 318 223
-0.0013220133 0.75400001 0.022474226 8.5500548e-39 319 223
0 0.75400001 0.022474226 9.190402e-39 320 223
0.0013220133 0.75400001 0.022474226 9.0982063e-39 321 223
0.0026440267 0.75400001 0.022474226 9.7407045e-39 322 223
0.00396604 0.75400001 0.022474226 9.8329001e-39 323 223
0.0052950666 0.755 0.022504034 1.029208e-38 324 223
0.0066188332 0.755 0.022504034 1.0108048e-38 325 223
0.0079636406 0.75700003 0.022563647 1.0750168e-38 326 223
0.0092909131 0.75700003 0.022563647 1.093456e-38 327 223
0.01064624 0.759 0.02262326 1.1303689e-38 328 223
0.01197702 0.759 0.02262326 1.1303689e-38 329 223
0.0133078 0.759 0.02262326 1.1671748e-38 330 223
0.014638579 0.759 0.02262326 1.1764304e-38 331 223
0.015969358 0.759 0.02262326 1.1673188e-38 332 223
0.017345725 0.76099998 0.022682872 1.1580633e-38 333 223
0.01870456 0.76200002 0.02271268 1.167355e-38 334 223
0.0200406 0.76200002 0.02271268 1.1581355e-38 335 223
0.021432746 0.764 0.022772292 1.1212572e-38 336 223
0.022772292 0.764 0.022772292 1.0659757e-38 337 223
0.024206521 0.76700002 0.022861714 9.4641022e-39 338 223
0.025551327 0.76700002 0.022861714 9.003124e-39 339 223
0.026896132 0.76700002 0.022861714 7.4444457e-39 340 223
0.02824094 0.76700002 0.022861714 1.2238618e-38 341 223
0.029585747 0.76700002 0.022861714 1.4280952e-38 342 223
-0.048539277 0.76899999 0.021573013 1.5580708e-38 284 224
-0.047068235 0.76700002 0.021516906 8.3894492e-39 285 224
-0.045723427 0.76700002 0.021516906 6.9967939e-39 286 224
-0.044320758 0.76599997 0.021488851 4.9684901e-39 287 224
-0.042977702 0.76599997 0.021488851 5.6974147e-39 288 224
-0.041525945 0.764 0.021432746 5.6974147e-39 289 224
-0.040081199 0.76200002 0.02137664 6.1548027e-39 290 224
-0.038745161 0.76200002 0.02137664 6.5235839e-39 291 224
-0.037360024 0.76099998 0.021348584 6.9852725e-39 292 224
-0.036025736 0.76099998 0.021348584 7.3536948e-39 293 224
-0.034600276 0.759 0.02129248 8.4553551e-39 294 224
-0.033269498 0.759 0.02129248 8.6401051e-39 295 224
-0.031938717 0.759 0.02129248 9.191474e-39 296 224
-0.030607941 0.759 0.02129248 1.011379e-38 297 224
-0.029200014 0.75700003 0.021236373 1.1498147e-38 298 224
-0.027799098 0.755 0.021180267 1.1590343e-38 299 224
-0.026475333 0.755 0.021180267 1.1035353e-38 300 224
-0.025151566 0.755 0.021180267 1.085096e-38 301 224
-0.023827799 0.755 0.021180267 1.1216497e-38 302 224
-0.022504034 0.755 0.021180267 1.1585278e-38 303 224
-0.021236373 0.75700003 0.021236373 1.1400166e-38 304 224
-0.019909101 0.75700003 0.021236373 1.1031742e-38 305 224
-0.018581826 0.75700003 0.021236373 1.1582762e-38 306 224
-0.017254554 0.75700003 0.021236373 1.1674957e-38 307 224
-0.015927281 0.75700003 0.021236373 1.1674251e-38 308 224
-0.014638579 0.759 0.02129248 1.148986e-38 309 224
-0.0133078 0.759 0.02129248 1.0938855e-38 310 224
-0.01194546 0.75700003 0.021236373 1.0938855e-38 311 224
-0.010618187 0.75700003 0.021236373 1.0204885e-38 312 224
-0.0092909131 0.75700003 0.021236373 1.0020493e-38 313 224
-0.0079636406 0.75700003 0.021236373 9.9293795e-39 314 224
-0.0066188332 0.755 0.021180267 1.0297803e-38 315 224
-0.0052950666 0.755 0.021180267 9.287987e-39 316 224
-0.00396604 0.75400001 0.021152213 8.6426176e-39 317 224
-0.0026440267 0.75400001 0.021152213 8.9145438e-39 318 224
-0.0013220133 0.75400001 0.021152213 8.4532055e-39 319 224
0 0.75400001 0.021152213 9.1875377e-39 320 224
0.0013220133 0.75400001 0.021152213 9.0949819e-39 321 224
0.0026370131 0.75199997 0.021096105 9.9207797e-39 322 224
0.0039555198 0.75199997 0.021096105 1.0197367e-38 323 224
0.0052880533 0.75400001 0.021152213 1.047466e-38 324 224
0.0066188332 0.755 0.021180267 1.0566855e-38 325 224
0.0079425992 0.755 0.021180267 1.0842718e-38 326 224
0.0092663663 0.755 0.021180267 1.1027109e-38 327 224
0.010618187 0.75700003 0.021236373 1.1396243e-38 328 224
0.01194546 0.75700003 0.021236373 1.1488439e-38 329 224
0.0133078 0.759 0.02129248 1.1671748e-38 330 224
0.014638579 0.759 0.02129248 1.1671748e-38 331 224
0.015969358 0.759 0.02129248 1.1671748e-38 332 224
0.017300138 0.759 0.02129248 1.1487717e-38 333 224
0.018680012 0.76099998 0.021348584 1.1580639e-38 334 224
0.0200406 0.76200002 0.02137664 1.1488083e-38 335 224
0.021432746 0.764 0.021432746 1.1027828e-38 336 224
0.022772292 0.764 0.021432746 1.0475013e-38 337 224
0.024174958 0.76599997 0.021488851 9.5563006e-39 338 224
0.025551327 0.76700002 0.021516906 8.8183768e-39 339 224
0.026896132 0.76700002 0.021516906 7.1664141e-39 340 224
0.02824094 0.76700002 0.021516906 1.2237174e-38 341 224
0.029585747 0.76700002 0.021516906 1.4004007e-38 342 224
-0.048413042 0.76700002 0.020172099 1.511973e-38 284 225
-0.047068235 0.76700002 0.020172099 8.0210254e-39 285 225
-0.045723427 0.76700002 0.020172099 7.0889896e-39 286 225
-0.044320758 0.76599997 0.020145798 5.1528813e-39 287 225
-0.042977702 0.76599997 0.020145798 5.6077358e-39 288 225
-0.041525945 0.764 0.020093199 5.3315091e-39 289 225
-0.040081199 0.76200002 0.0200406 6.0626029e-39 290 225
-0.038745161 0.76200002 0.0200406 6.3395499e-39 291 225
-0.037360024 0.76099998 0.020014299 7.2589825e-39 292 225
-0.036025736 0.76099998 0.020014299 7.9043519e-39 293 225
-0.034600276 0.759 0.0199617 8.4553551e-39 294 225
-0.033269498 0.759 0.0199617 8.5475507e-39 295 225
-0.031938717 0.759 0.0199617 9.2811557e-39 296 225
-0.030446632 0.755 0.0198565 9.4655469e-39 297 225
-0.029122867 0.755 0.0198565 9.9293921e-39 298 225
-0.027799098 0.755 0.0198565 1.0574762e-38 299 225
-0.026475333 0.755 0.0198565 1.1496342e-38 300 225
-0.025151566 0.755 0.0198565 1.1588539e-38 301 225
-0.023827799 0.755 0.0198565 1.1773993e-38 302 225
-0.022504034 0.755 0.0198565 1.1589241e-38 303 225
-0.021236373 0.75700003 0.019909101 1.1769671e-38 304 225
-0.019909101 0.75700003 0.019909101 1.1216497e-38 305 225
-0.018581826 0.75700003 0.019909101 1.1859351e-38 306 225
-0.017208965 0.755 0.0198565 1.1859351e-38 307 225
-0.015885198 0.755 0.0198565 1.2042311e-38 308 225
-0.014600007 0.75700003 0.019909101 1.1581693e-38 309 225
-0.013272733 0.75700003 0.019909101 1.1488436e-38 310 225
-0.01194546 0.75700003 0.019909101 1.1396241e-38 311 225
-0.010590133 0.755 0.0198565 1.0479326e-38 312 225
-0.0092663663 0.755 0.0198565 1.0571522e-38 313 225
-0.0079425992 0.755 0.0198565 9.9275915e-39 314 225
-0.0066188332 0.755 0.0198565 9.7435603e-39 315 225
-0.0052880533 0.75400001 0.019830201 9.4644707e-39 316 225
-0.00396604 0.75400001 0.019830201 8.8191013e-39 317 225
-0.0026440267 0.75400001 0.019830201 9.0917421e-39 318 225
-0.0013220133 0.75400001 0.019830201 9.2754173e-39 319 225
0 0.75400001 0.019830201 9.2786375e-39 320 225
0.0013220133 0.75400001 0.019830201 9.9240069e-39 321 225
0.0026370131 0.75199997 0.0197776 1.001655e-38 322 225
0.0039555198 0.75199997 0.0197776 1.001655e-38 323 225
0.0052880533 0.75400001 0.019830201 1.0660478e-38 324 225
0.0066100666 0.75400001 0.019830201 1.0752673e-38 325 225
0.0079425992 0.755 0.0198565 1.1028537e-38 326 225
0.0092663663 0.755 0.0198565 1.1120733e-38 327 225
0.010590133 0.755 0.0198565 1.1488439e-38 328 225
0.011913899 0.755 0.0198565 1.1580636e-38 329 225
0.013272733 0.75700003 0.019909101 1.1763948e-38 330 225
0.014600007 0.75700003 0.019909101 1.1671751e-38 331 225
0.015969358 0.759 0.0199617 1.1854701e-38 332 225
0.017300138 0.759 0.0199617 1.1854701e-38 333 225
0.018680012 0.76099998 0.020014299 1.1396243e-38 334 225
0.020014299 0.76099998 0.020014299 1.1303689e-38 335 225
0.02137664 0.76200002 0.0200406 1.0567578e-38 336 225
0.02271268 0.76200002 0.0200406 1.01066e-38 337 225
0.024174958 0.76599997 0.020145798 9.1878838e-39 338 225
0.025518013 0.76599997 0.020145798 8.3581232e-39 339 225
0.026896132 0.76700002 0.020172099 6.8909062e-39 340 225
0.02824094 0.76700002 0.020172099 1.2330088e-38 341 225
0.029585747 0.76700002 0.020172099 1.3819611e-38 342 225
-0.048413042 0.76700002 0.018827293 1.4842424e-38 284 226
-0.047068235 0.76700002 0.018827293 8.2043377e-39 285 226
-0.045723427 0.76700002 0.018827293 7.3648534e-39 286 226
-0.044320758 0.76599997 0.018802745 5.7049733e-39 287 226
-0.042977702 0.76599997 0.018802745 6.0679923e-39 288 226
-0.041525945 0.764 0.018753653 5.5151772e-39 289 226
-0.040081199 0.76200002 0.01870456 6.1558775e-39 290 226
-0.038745161 0.76200002 0.01870456 6.1558775e-39 291 226
-0.037360024 0.76099998 0.018680012 6.8934426e-39 292 226
-0.035931058 0.759 0.01863092 7.1700295e-39 293 226
-0.034600276 0.759 0.01863092 8.5468346e-39 294 226
-0.033181835 0.75700003 0.018581826 8.4546376e-39 295 226
-0.031770397 0.755 0.018532733 9.1886069e-39 296 226
-0.030446632 0.755 0.018532733 9.0964099e-39 297 226
-0.029122867 0.755 0.018532733 9.2786375e-39 298 226
-0.027762281 0.75400001 0.018508185 1.0108398e-38 299 226
-0.026440267 0.75400001 0.018508185 1.1032503e-38 300 226
-0.025118252 0.75400001 0.018508185 1.1862263e-38 301 226
-0.02379624 0.75400001 0.018508185 1.1498142e-38 302 226
-0.022474226 0.75400001 0.018508185 1.1405946e-38 303 226
-0.021180267 0.755 0.018532733 1.2227775e-38 304 226
-0.0198565 0.755 0.018532733 1.1951547e-38 305 226
-0.018532733 0.755 0.018532733 1.2592598e-38 306 226
-0.017208965 0.755 0.018532733 1.2500402e-38 307 226
-0.015885198 0.755 0.018532733 1.249933e-38 308 226
-0.014561433 0.755 0.018532733 1.2222742e-38 309 226
-0.013237666 0.755 0.018532733 1.194653e-38 310 226
-0.011913899 0.755 0.018532733 1.176178e-38 311 226
-0.010590133 0.755 0.018532733 1.1210774e-38 312 226
-0.0092663663 0.755 0.018532733 1.1118579e-38 313 226
-0.0079425992 0.755 0.018532733 1.0199515e-38 314 226
-0.0066188332 0.755 0.018532733 9.5541454e-39 315 226
-0.0052880533 0.75400001 0.018508185 9.2754201e-39 316 226
-0.00396604 0.75400001 0.018508185 8.9999081e-39 317 226
-0.0026440267 0.75400001 0.018508185 8.8162315e-39 318 226
-0.0013220133 0.75400001 0.018508185 9.368329e-39 319 226
0 0.75199997 0.018459093 9.6495654e-39 320 226
0.0013185065 0.75199997 0.018459093 1.0294935e-38 321 226
0.0026370131 0.75199997 0.018459093 1.0661544e-38 322 226
0.0039555198 0.75199997 0.018459093 1.075374e-38 323 226
0.0052880533 0.75400001 0.018508185 1.0937768e-38 324 226
0.0066100666 0.75400001 0.018508185 1.1213995e-38 325 226
0.00793208 0.75400001 0.018508185 1.148986e-38 326 226
0.0092540924 0.75400001 0.018508185 1.1582056e-38 327 226
0.010590133 0.755 0.018532733 1.1674254e-38 328 226
0.011913899 0.755 0.018532733 1.1674254e-38 329 226
0.013237666 0.755 0.018532733 1.1764655e-38 330 226
0.014600007 0.75700003 0.018581826 1.1764655e-38 331 226
0.015927281 0.75700003 0.018581826 1.1671739e-38 332 226
0.017300138 0.759 0.01863092 1.1671739e-38 333 226
0.018680012 0.76099998 0.018680012 1.1028184e-38 334 226
0.020014299 0.76099998 0.018680012 1.0843434e-38 335 226
0.02137664 0.76200002 0.01870456 1.0382474e-38 336 226
0.02271268 0.76200002 0.01870456 1.0014052e-38 337 226
0.024111839 0.764 0.018753653 8.9127389e-39 338 226
0.025518013 0.76599997 0.018802745 8.0829782e-39 339 226
0.026896132 0.76700002 0.018827293 7.0767394e-39 340 226
0.02824094 0.76700002 0.018827293 1.2516282e-38 341 226
0.029585747 0.76700002 0.018827293 1.3543384e-38 342 226
-0.048539277 0.76899999 0.017528072 1.4566912e-38 284 227
-0.047068235 0.76700002 0.017482487 8.2972508e-39 285 227
-0.045723427 0.76700002 0.017482487 7.4581224e-39 286 227
-0.044320758 0.76599997 0.017459691 6.1673836e-39 287 227
-0.042977702 0.76599997 0.017459691 6.3456568e-39 288 227
-0.041525945 0.764 0.017414106 5.7002874e-39 289 227
-0.040081199 0.76200002 0.01736852 6.0633232e-39 290 227
-0.038745161 0.76200002 0.01736852 6.3402688e-39 291 227
-0.037360024 0.76099998 0.017345725 6.8930768e-39 292 227
-0.035931058 0.759 0.017300138 7.5384462e-39 293 227
-0.034509107 0.75700003 0.017254554 8.5475563e-39 294 227
-0.033181835 0.75700003 0.017254554 8.5475563e-39 295 227
-0.031770397 0.755 0.017208965 9.0978406e-39 296 227
-0.030446632 0.755 0.017208965 9.005645e-39 297 227
-0.029084291 0.75400001 0.017186172 9.6441774e-39 298 227
-0.027762281 0.75400001 0.017186172 9.0917211e-39 299 227
-0.026440267 0.75400001 0.017186172 9.3679605e-39 300 227
-0.025118252 0.75400001 0.017186172 1.0197361e-38 301 227
-0.02379624 0.75400001 0.017186172 1.1485935e-38 302 227
-0.022474226 0.75400001 0.017186172 1.2039109e-38 303 227
-0.021152213 0.75400001 0.017186172 1.2407153e-38 304 227
-0.019830201 0.75400001 0.017186172 1.2499348e-38 305 227
-0.018532733 0.755 0.017208965 1.2683364e-38 306 227
-0.017208965 0.755 0.017208965 1.2867755e-38 307 227
-0.015885198 0.755 0.017208965 1.2684796e-38 308 227
-0.014561433 0.755 0.017208965 1.2500405e-38 309 227
-0.013237666 0.755 0.017208965 1.2037641e-38 310 227
-0.011913899 0.755 0.017208965 1.1577022e-38 311 227
-0.010590133 0.755 0.017208965 1.1115708e-38 312 227
-0.0092663663 0.755 0.017208965 1.0931316e-38 313 227
-0.0079425992 0.755 0.017208965 1.0011884e-38 314 227
-0.0066100666 0.75400001 0.017186172 9.4590687e-39 315 227
-0.0052880533 0.75400001 0.017186172 8.9080501e-39 316 227
-0.00396604 0.75400001 0.017186172 9.5516259e-39 317 227
-0.0026370131 0.75199997 0.017140586 9.1875111e-39 318 227
-0.0013185065 0.75199997 0.017140586 1.0109469e-38 319 227
0 0.75199997 0.017140586 9.8375468e-39 320 227
0.001315 0.75 0.017095 9.8375468e-39 321 227
0.00263 0.75 0.017095 1.0661547e-38 322 227
0.0039555198 0.75199997 0.017140586 1.0938134e-38 323 227
0.0052740262 0.75199997 0.017140586 1.0941008e-38 324 227
0.0066100666 0.75400001 0.017186172 1.1494181e-38 325 227
0.00793208 0.75400001 0.017186172 1.1679639e-38 326 227
0.0092540924 0.75400001 0.017186172 1.1679639e-38 327 227
0.010576107 0.75400001 0.017186172 1.1586362e-38 328 227
0.011913899 0.755 0.017208965 1.1494165e-38 329 227
0.013237666 0.755 0.017208965 1.1767522e-38 330 227
0.014561433 0.755 0.017208965 1.1399099e-38 331 227
0.015927281 0.75700003 0.017254554 1.1581339e-38 332 227
0.017254554 0.75700003 0.017254554 1.1212197e-38 333 227
0.01863092 0.759 0.017300138 1.1026382e-38 334 227
0.020014299 0.76099998 0.017345725 1.0750155e-38 335 227
0.021348584 0.76099998 0.017345725 1.0106963e-38 336 227
0.02271268 0.76200002 0.01736852 9.7385409e-39 337 227
0.02404872 0.76200002 0.01736852 8.7294266e-39 338 227
0.02538476 0.76200002 0.01736852 7.9918616e-39 339 227
0.026861066 0.76599997 0.017459691 6.8934272e-39 340 227
0.02824094 0.76700002 0.017482487 1.316237e-38 341 227
0.029585747 0.76700002 0.017482487 1.2992731e-38 342 227
-0.050017338 0.77100003 0.016221842 1.6869279e-38 283 228
-0.048539277 0.76899999 0.016179759 1.4842773e-38 284 228
-0.047190964 0.76899999 0.016179759 8.3890806e-39 285 228
-0.045723427 0.76700002 0.01613768 7.7336275e-39 286 228
-0.04437862 0.76700002 0.01613768 6.8120299e-39 287 228
-0.042977702 0.76599997 0.016116638 7.0810582e-39 288 228
-0.041525945 0.764 0.016074561 6.3434932e-39 289 228
-0.040081199 0.76200002 0.01603248 6.3409849e-39 290 228
-0.038694311 0.76099998 0.016011439 6.4331805e-39 291 228
-0.037360024 0.76099998 0.016011439 6.8023259e-39 292 228
-0.035931058 0.759 0.015969358 7.0785527e-39 293 228
-0.034509107 0.75700003 0.015927281 8.3638881e-39 294 228
-0.033181835 0.75700003 0.015927281 8.5479192e-39 295 228
-0.031770397 0.755 0.015885198 9.2818717e-39 296 228
-0.030446632 0.755 0.015885198 8.9134479e-39 297 228
-0.029084291 0.75400001 0.01586416 9.5534265e-39 298 228
-0.027762281 0.75400001 0.01586416 9.1842839e-39 299 228
-0.026440267 0.75400001 0.01586416 9.6427565e-39 300 228
-0.025118252 0.75400001 0.01586416 9.8264317e-39 301 228
-0.02379624 0.75400001 0.01586416 1.0654032e-38 302 228
-0.022474226 0.75400001 0.01586416 1.1299401e-38 303 228
-0.021152213 0.75400001 0.01586416 1.2035869e-38 304 228
-0.019830201 0.75400001 0.01586416 1.2220619e-38 305 228
-0.018532733 0.755 0.015885198 1.2498627e-38 306 228
-0.017208965 0.755 0.015885198 1.2683016e-38 307 228
-0.015885198 0.755 0.015885198 1.2868111e-38 308 228
-0.014542146 0.75400001 0.01586416 1.249933e-38 309 228
-0.013220133 0.75400001 0.01586416 1.2312786e-38 310 228
-0.01189812 0.75400001 0.01586416 1.1667417e-38 311 228
-0.010576107 0.75400001 0.01586416 1.1297938e-38 312 228
-0.0092540924 0.75400001 0.01586416 1.1020991e-38 313 228
-0.00793208 0.75400001 0.01586416 1.0377424e-38 314 228
-0.0066100666 0.75400001 0.01586416 1.0193748e-38 315 228
-0.0052880533 0.75400001 0.01586416 9.4619316e-39 316 228
-0.0039555198 0.75199997 0.015822079 1.0107301e-38 317 228
-0.0026370131 0.75199997 0.015822079 1.0295285e-38 318 228
-0.0013185065 0.75199997 0.015822079 1.103285e-38 319 228
0 0.75 0.01578 1.0572592e-38 320 228
0.001315 0.75 0.01578 1.0111973e-38 321 228
0.00263 0.75 0.01578 1.0570074e-38 322 228
0.0039555198 0.75199997 0.015822079 1.0938855e-38 323 228
0.0052740262 0.75199997 0.015822079 1.0667295e-38 324 228
0.0066100666 0.75400001 0.01586416 1.1312664e-38 325 228
0.00793208 0.75400001 0.01586416 1.1498835e-38 326 228
0.0092540924 0.75400001 0.01586416 1.1406279e-38 327 228
0.010576107 0.75400001 0.01586416 1.1955137e-38 328 228
0.011913899 0.755 0.015885198 1.1586356e-38 329 228
0.013237666 0.755 0.015885198 1.1767522e-38 330 228
0.014561433 0.755 0.015885198 1.1399099e-38 331 228
0.015927281 0.75700003 0.015927281 1.1304395e-38 332 228
0.017254554 0.75700003 0.015927281 1.0843417e-38 333 228
0.01863092 0.759 0.015969358 1.0475729e-38 334 228
0.0199617 0.759 0.015969358 1.0106948e-38 335 228
0.021348584 0.76099998 0.016011439 9.4637519e-39 336 228
0.02271268 0.76200002 0.01603248 9.3711961e-39 337 228
0.02404872 0.76200002 0.01603248 8.3631608e-39 338 228
0.02538476 0.76200002 0.01603248 7.6255958e-39 339 228
0.026861066 0.76599997 0.016116638 6.7093946e-39 340 228
0.02824094 0.76700002 0.01613768 1.3440036e-38 341 228
0.029585747 0.76700002 0.01613768 1.3085643e-38 342 228
-0.050017338 0.77100003 0.01487002 1.6961475e-38 283 229
-0.048539277 0.76899999 0.014831445 1.5027169e-38 284 229
-0.047190964 0.76899999 0.014831445 8.7575058e-39 285 229
-0.045723427 0.76700002 0.014792874 7.8258231e-39 286 229
-0.044320758 0.76599997 0.014773586 7.4573993e-39 287 229
-0.042977702 0.76599997 0.014773586 7.5445503e-39 288 229
-0.041417241 0.76200002 0.01469644 6.4382027e-39 289 229
-0.040081199 0.76200002 0.01469644 6.3431372e-39 290 229
-0.038694311 0.76099998 0.014677152 6.2509416e-39 291 229
-0.037360024 0.76099998 0.014677152 6.8934398e-39 292 229
-0.035931058 0.759 0.014638579 7.1703854e-39 293 229
-0.034600276 0.759 0.014638579 8.5464843e-39 294 229
-0.033181835 0.75700003 0.014600007 8.7305154e-39 295 229
-0.031770397 0.755 0.014561433 9.3740702e-39 296 229
-0.030446632 0.755 0.014561433 9.0978434e-39 297 229
-0.029084291 0.75400001 0.014542146 9.7378108e-39 298 229
-0.027762281 0.75400001 0.014542146 9.3690297e-39 299 229
-0.026440267 0.75400001 0.014542146 9.7345766e-39 300 229
-0.025118252 0.75400001 0.014542146 9.8267736e-39 301 229
-0.02379624 0.75400001 0.014542146 1.0652934e-38 302 229
-0.022474226 0.75400001 0.014542146 1.0837326e-38 303 229
-0.021180267 0.755 0.014561433 1.1573449e-38 304 229
-0.0198565 0.755 0.014561433 1.2126623e-38 305 229
-0.018532733 0.755 0.014561433 1.2128774e-38 306 229
-0.017208965 0.755 0.014561433 1.2589393e-38 307 229
-0.01586416 0.75400001 0.014542146 1.2408948e-38 308 229
-0.014542146 0.75400001 0.014542146 1.2685535e-38 309 229
-0.013220133 0.75400001 0.014542146 1.1854695e-38 310 229
-0.01189812 0.75400001 0.014542146 1.1394077e-38 311 229
-0.010576107 0.75400001 0.014542146 1.1206814e-38 312 229
-0.0092540924 0.75400001 0.014542146 1.1114259e-38 313 229
-0.00793208 0.75400001 0.014542146 1.0288101e-38 314 229
-0.0066100666 0.75400001 0.014542146 1.0288101e-38 315 229
-0.0052880533 0.75400001 0.014542146 9.8328749e-39 316 229
-0.0039555198 0.75199997 0.014503572 1.0662994e-38 317 229
-0.0026370131 0.75199997 0.014503572 1.0850257e-38 318 229
-0.001315 0.75 0.014465 1.1218681e-38 319 229
0 0.75 0.014465 1.0665147e-38 320 229
0.001315 0.75 0.014465 1.0111973e-38 321 229
0.00263 0.75 0.014465 1.04786e-38 322 229
0.003945 0.75 0.014465 1.0570796e-38 323 229
0.0052740262 0.75199997 0.014503572 1.0758058e-38 324 229
0.0066100666 0.75400001 0.014542146 1.1403428e-38 325 229
0.00793208 0.75400001 0.014542146 1.1406652e-38 326 229
0.0092540924 0.75400001 0.014542146 1.1406652e-38 327 229
0.010576107 0.75400001 0.014542146 1.1771838e-38 328 229
0.01189812 0.75400001 0.014542146 1.131122e-38 329 229
0.013237666 0.755 0.014561433 1.1583859e-38 330 229
0.014561433 0.755 0.014561433 1.1030685e-38 331 229
0.015885198 0.755 0.014561433 1.0935983e-38 332 229
0.017208965 0.755 0.014561433 1.0475363e-38 333 229
0.01863092 0.759 0.014638579 1.0107667e-38 334 229
0.0199617 0.759 0.014638579 9.7392443e-39 335 229
0.021348584 0.76099998 0.014677152 9.0042086e-39 336 229
0.02271268 0.76200002 0.01469644 8.8201775e-39 337 229
0.02404872 0.76200002 0.01469644 7.8128583e-39 338 229
0.02538476 0.76200002 0.01469644 7.0752933e-39 339 229
0.026896132 0.76700002 0.014792874 6.5257166e-39 340 229
0.02824094 0.76700002 0.014792874 1.3901007e-38 341 229
0.029585747 0.76700002 0.014792874 1.290305e-38 342 229
-0.050017338 0.77100003 0.013518199 1.6778163e-38 283 230
-0.048539277 0.76899999 0.013483133 1.5487424e-38 284 230
-0.047190964 0.76899999 0.013483133 9.4947079e-39 285 230
-0.045723427 0.76700002 0.013448066 7.7354254e-39 286 230
-0.044320758 0.76599997 0.013430533 7.8279797e-39 287 230
-0.042977702 0.76599997 0.013430533 7.6378291e-39 288 230
-0.041417241 0.76200002 0.0133604 6.1626976e-39 289 230
-0.040081199 0.76200002 0.0133604 6.7111995e-39 290 230
-0.038694311 0.76099998 0.013342866 6.5264495e-39 291 230
-0.037360024 0.76099998 0.013342866 6.9849165e-39 292 230
-0.035931058 0.759 0.0133078 7.3536976e-39 293 230
-0.034600276 0.759 0.0133078 8.3642538e-39 294 230
-0.033181835 0.75700003 0.013272733 8.825232e-39 295 230
-0.031770397 0.755 0.013237666 9.1925698e-39 296 230
-0.030406307 0.75400001 0.013220133 8.7319504e-39 297 230
-0.029084291 0.75400001 0.013220133 9.0027709e-39 298 230
-0.027762281 0.75400001 0.013220133 8.5414326e-39 299 230
-0.026440267 0.75400001 0.013220133 9.7363731e-39 300 230
-0.025118252 0.75400001 0.013220133 9.7363731e-39 301 230
-0.02379624 0.75400001 0.013220133 1.0377789e-38 302 230
-0.022474226 0.75400001 0.013220133 1.0470344e-38 303 230
-0.021180267 0.755 0.013237666 1.1296505e-38 304 230
-0.019830201 0.75400001 0.013220133 1.1665647e-38 305 230
-0.018508185 0.75400001 0.013220133 1.1483417e-38 306 230
-0.017186172 0.75400001 0.013220133 1.1391221e-38 307 230
-0.01586416 0.75400001 0.013220133 1.0840921e-38 308 230
-0.014542146 0.75400001 0.013220133 1.1393736e-38 309 230
-0.013220133 0.75400001 0.013220133 1.1485919e-38 310 230
-0.01189812 0.75400001 0.013220133 1.1301527e-38 311 230
-0.010576107 0.75400001 0.013220133 1.1116414e-38 312 230
-0.0092540924 0.75400001 0.013220133 1.1208609e-38 313 230
-0.00793208 0.75400001 0.013220133 1.0473565e-38 314 230
-0.0066100666 0.75400001 0.013220133 1.0196978e-38 315 230
-0.0052740262 0.75199997 0.013185065 9.8303624e-39 316 230
-0.0039555198 0.75199997 0.013185065 1.0199146e-38 317 230
-0.00263 0.75 0.01315 1.0204181e-38 318 230
-0.001315 0.75 0.01315 1.1034302e-38 319 230
0 0.75 0.01315 1.0847387e-38 320 230
0.001315 0.75 0.01315 1.0202018e-38 321 230
0.00263 0.75 0.01315 1.0109818e-38 322 230
0.003945 0.75 0.01315 1.0294569e-38 323 230
0.00526 0.75 0.01315 1.0297083e-38 324 230
0.0065925326 0.75199997 0.013185065 1.0758061e-38 325 230
0.0079110395 0.75199997 0.013185065 1.1127917e-38 326 230
0.0092540924 0.75400001 0.013220133 1.1127917e-38 327 230
0.010576107 0.75400001 0.013220133 1.1494179e-38 328 230
0.01189812 0.75400001 0.013220133 1.1033201e-38 329 230
0.013237666 0.755 0.013237666 1.1305121e-38 330 230
0.014561433 0.755 0.013237666 1.0936339e-38 331 230
0.015885198 0.755 0.013237666 1.0567206e-38 332 230
0.017208965 0.755 0.013237666 1.0382814e-38 333 230
0.018581826 0.75700003 0.013272733 9.4640994e-39 334 230
0.0199617 0.759 0.0133078 9.1875111e-39 335 230
0.021348584 0.76099998 0.013342866 8.4539089e-39 336 230
0.022682872 0.76099998 0.013342866 8.4539089e-39 337 230
0.02404872 0.76200002 0.0133604 7.6291901e-39 338 230
0.025451386 0.764 0.013395466 6.4306469e-39 339 230
0.026896132 0.76700002 0.013448066 7.0792561e-39 340 230
0.02824094 0.76700002 0.013448066 1.4362711e-38 341 230
0.029585747 0.76700002 0.013448066 1.2812653e-38 342 230
-0.050017338 0.77100003 0.01216638 1.6778163e-38 283 231
-0.04866552 0.77100003 0.01216638 1.5855488e-38 284 231
-0.047190964 0.76899999 0.012134819 1.0415585e-38 285 231
-0.045842651 0.76899999 0.012134819 8.1960504e-39 286 231
-0.04437862 0.76700002 0.01210326 8.1960504e-39 287 231
-0.042977702 0.76599997 0.012087479 7.8225889e-39 288 231
-0.041525945 0.764 0.01205592 5.7942851e-39 289 231
-0.040081199 0.76200002 0.01202436 6.5260992e-39 290 231
-0.038694311 0.76099998 0.012008579 6.5260992e-39 291 231
-0.037360024 0.76099998 0.012008579 6.8923678e-39 292 231
-0.035931058 0.759 0.01197702 7.3533445e-39 293 231
-0.034600276 0.759 0.01197702 8.6415792e-39 294 231
-0.033181835 0.75700003 0.01194546 9.4716986e-39 295 231
-0.031770397 0.755 0.011913899 9.0136043e-39 296 231
-0.030406307 0.75400001 0.01189812 8.3682349e-39 297 231
-0.029084291 0.75400001 0.01189812 8.6372478e-39 298 231
-0.027762281 0.75400001 0.01189812 7.8074857e-39 299 231
-0.026440267 0.75400001 0.01189812 9.3690297e-39 300 231
-0.025118252 0.75400001 0.01189812 9.7378108e-39 301 231
-0.02379624 0.75400001 0.01189812 1.0470694e-38 302 231
-0.022474226 0.75400001 0.01189812 1.0378498e-38 303 231
-0.021180267 0.755 0.011913899 1.0470341e-38 304 231
-0.019830201 0.75400001 0.01189812 1.0746929e-38 305 231
