# .PCD v.7 - Point Cloud Data file format
FIELDS x y z rgb imX imY
SIZE 4 4 4 4 4 4
TYPE F F F F F F
COUNT 1 1 1 1 1 1
WIDTH 830
HEIGHT 1
VIEWPOINT 0 0 0 1 0 0 0
POINTS 830
DATA ascii
-0.042325463 0.70999998 0.0049794666 9.5588145e-39 286 236
-0.040964879 0.708 0.0049654399 9.0978378e-39 287 236
-0.039723519 0.708 0.0049654399 8.5453885e-39 288 236
-0.038482159 0.708 0.0049654399 8.3606385e-39 289 236
-0.037188202 0.70700002 0.0049584266 7.901468e-39 290 236
-0.035948593 0.70700002 0.0049584266 7.809271e-39 291 236
-0.034708988 0.70700002 0.0049584266 7.7167222e-39 292 236
-0.033422034 0.70599997 0.0049514128 7.6241679e-39 293 236
-0.032093015 0.704 0.0049373866 7.2579119e-39 294 236
-0.030858666 0.704 0.0049373866 7.4419444e-39 295 236
-0.029582238 0.70300001 0.0049303733 7.3515495e-39 296 236
-0.028349647 0.70300001 0.0049303733 7.6281363e-39 297 236
-0.027039904 0.70099998 0.0049163462 7.9061498e-39 298 236
-0.025773998 0.69999999 0.0049093333 8.1823765e-39 299 236
-0.024546666 0.69999999 0.0049093333 7.7246228e-39 300 236
-0.023352645 0.70099998 0.0049163462 7.3562004e-39 301 236
-0.022123558 0.70099998 0.0049163462 6.714068e-39 302 236
-0.021699252 0.72799999 0.0051057064 6.6218709e-39 303 236
-0.020422826 0.72799999 0.0051057064 6.6218681e-39 304 236
-0.0191464 0.72799999 0.0051057064 6.8988151e-39 305 236
-0.017869972 0.72799999 0.0051057064 7.8171743e-39 306 236
-0.016593546 0.72799999 0.0051057064 7.9093713e-39 307 236
-0.01531712 0.72799999 0.0051057064 8.8248621e-39 308 236
-0.013500666 0.69999999 0.0049093333 8.3638853e-39 309 236
-0.012273333 0.69999999 0.0049093333 9.1864573e-39 310 236
-0.011045999 0.69999999 0.0049093333 9.0020675e-39 311 236
-0.0098186666 0.69999999 0.0049093333 8.9138151e-39 312 236
-0.0085913334 0.69999999 0.0049093333 9.190402e-39 313 236
-0.0073639993 0.69999999 0.0049093333 9.1943424e-39 314 236
-0.0061366665 0.69999999 0.0049093333 9.5634837e-39 315 236
-0.0049093333 0.69999999 0.0049093333 1.038928e-38 316 236
-0.0036819996 0.69999999 0.0049093333 1.038928e-38 317 236
-0.0024546667 0.69999999 0.0049093333 1.029673e-38 318 236
-0.0012290865 0.70099998 0.0049163462 9.9279474e-39 319 236
0 0.70099998 0.0049163462 9.8346798e-39 320 236
0.0012290865 0.70099998 0.0049163462 9.7424827e-39 321 236
0.0024581731 0.70099998 0.0049163462 8.9159633e-39 322 236
0.0036977797 0.70300001 0.0049303733 8.8237676e-39 323 236
0.0049303733 0.70300001 0.0049303733 7.9979726e-39 324 236
0.0061629666 0.70300001 0.0049303733 7.9979726e-39 325 236
0.0074060797 0.704 0.0049373866 6.8973928e-39 326 236
0.0086404262 0.704 0.0049373866 6.8973928e-39 327 236
0.0098747732 0.704 0.0049373866 6.4400202e-39 328 236
0.011140679 0.70599997 0.0049514128 6.6244129e-39 329 236
0.012378532 0.70599997 0.0049514128 6.5343809e-39 330 236
0.013693533 0.70999998 0.0049794666 6.8113279e-39 331 236
0.014938398 0.70999998 0.0049794666 6.8134943e-39 332 236
0.016183265 0.70999998 0.0049794666 6.5365487e-39 333 236
0.017428132 0.70999998 0.0049794666 2.9585643e-39 334 236
0.0186993 0.71100003 0.0049864799 8.6746933e-39 335 236
-0.051542737 0.71700001 0.0037714199 9.4036081e-39 279 237
-0.050215468 0.71600002 0.00376616 9.293773e-39 280 237
-0.048960082 0.71600002 0.00376616 9.939141e-39 281 237
-0.047704693 0.71600002 0.00376616 1.0578731e-38 282 237
-0.046319555 0.71399999 0.0037556398 1.0025558e-38 283 237
-0.045004558 0.713 0.0037503797 1.0021236e-38 284 237
-0.043570329 0.70999998 0.0037345996 9.7446477e-39 285 237
-0.042325463 0.70999998 0.0037345996 9.3762225e-39 286 237
-0.040964879 0.708 0.00372408 8.9152444e-39 287 237
-0.039723519 0.708 0.00372408 8.3627923e-39 288 237
-0.038427804 0.70700002 0.0037188199 8.0858467e-39 289 237
-0.037188202 0.70700002 0.0037188199 7.2586125e-39 290 237
-0.035948593 0.70700002 0.0037188199 7.1664169e-39 291 237
-0.034659892 0.70599997 0.0037135598 7.3493788e-39 292 237
-0.033422034 0.70599997 0.0037135598 7.2571832e-39 293 237
-0.032093015 0.704 0.0037030398 6.7987288e-39 294 237
-0.030727165 0.70099998 0.0036872597 6.7987288e-39 295 237
-0.029498078 0.70099998 0.0036872597 6.523581e-39 296 237
-0.028268991 0.70099998 0.0036872597 7.2611461e-39 297 237
-0.027039904 0.70099998 0.0036872597 7.6324299e-39 298 237
-0.025773998 0.69999999 0.0036819996 7.8168212e-39 299 237
-0.024546666 0.69999999 0.0036819996 7.9075693e-39 300 237
-0.023319334 0.69999999 0.0036819996 7.9075693e-39 301 237
-0.022091998 0.69999999 0.0036819996 7.3562004e-39 302 237
-0.020864666 0.69999999 0.0036819996 7.3562004e-39 303 237
-0.019637333 0.69999999 0.0036819996 7.3569192e-39 304 237
-0.018409999 0.69999999 0.0036819996 7.4491149e-39 305 237
-0.017182667 0.69999999 0.0036819996 7.9990516e-39 306 237
-0.015955333 0.69999999 0.0036819996 7.722106e-39 307 237
-0.014727999 0.69999999 0.0036819996 8.7294294e-39 308 237
-0.013462093 0.69800001 0.0036714801 8.7294294e-39 309 237
-0.012238266 0.69800001 0.0036714801 9.2800809e-39 310 237
-0.011045999 0.69999999 0.0036819996 9.7410576e-39 311 237
-0.0098186666 0.69999999 0.0036819996 9.6513605e-39 312 237
-0.0085913334 0.69999999 0.0036819996 1.0020143e-38 313 237
-0.0073639993 0.69999999 0.0036819996 1.0019774e-38 314 237
-0.0061366665 0.69999999 0.0036819996 1.0204166e-38 315 237
-0.0049093333 0.69999999 0.0036819996 1.066586e-38 316 237
-0.0036819996 0.69999999 0.0036819996 1.1035003e-38 317 237
-0.0024546667 0.69999999 0.0036819996 1.1031052e-38 318 237
-0.0012273333 0.69999999 0.0036819996 1.0477879e-38 319 237
0 0.69999999 0.0036819996 9.7435603e-39 320 237
0.0012273333 0.69999999 0.0036819996 9.5591677e-39 321 237
0.0024546667 0.69999999 0.0036819996 9.1907523e-39 322 237
0.0036872597 0.70099998 0.0036872597 9.006361e-39 323 237
0.0049163462 0.70099998 0.0036872597 7.8135856e-39 324 237
0.0061454331 0.70099998 0.0036872597 7.7213886e-39 325 237
0.0073955595 0.70300001 0.0036977797 6.6204458e-39 326 237
0.0086404262 0.704 0.0037030398 6.7126428e-39 327 237
0.0098747732 0.704 0.0037030398 6.071595e-39 328 237
0.011109119 0.704 0.0037030398 6.1637907e-39 329 237
0.012378532 0.70599997 0.0037135598 6.0737614e-39 330 237
0.013635674 0.70700002 0.0037188199 6.2581541e-39 331 237
0.01489632 0.708 0.00372408 6.4439887e-39 332 237
0.01613768 0.708 0.00372408 6.4439887e-39 333 237
0.017379038 0.708 0.00372408 3.1353927e-39 334 237
0.018672999 0.70999998 0.0037345996 7.1920018e-39 335 237
-0.051542737 0.71700001 0.0025142799 6.912524e-39 279 238
-0.050215468 0.71600002 0.0025107733 9.2916079e-39 280 238
-0.048960082 0.71600002 0.0025107733 1.0213204e-38 281 238
-0.047571439 0.71399999 0.0025037599 1.030394e-38 282 238
-0.046254687 0.713 0.0025002533 9.6585702e-39 283 238
-0.044878319 0.71100003 0.0024932399 1.0022311e-38 284 238
-0.043447599 0.708 0.00248272 9.469137e-39 285 238
-0.042206239 0.708 0.00248272 9.2840227e-39 286 238
-0.040907022 0.70700002 0.0024792133 9.0996315e-39 287 238
-0.039611302 0.70599997 0.0024757064 8.6386561e-39 288 238
-0.038373452 0.70599997 0.0024757064 8.269875e-39 289 238
-0.037030395 0.704 0.0024686933 7.6266706e-39 290 238
-0.035796054 0.704 0.0024686933 7.5344736e-39 291 238
-0.034512613 0.70300001 0.0024651866 7.5344764e-39 292 238
-0.033280019 0.70300001 0.0024651866 7.5344764e-39 293 238
-0.031956252 0.70099998 0.0024581731 7.6273895e-39 294 238
-0.030683333 0.69999999 0.0024546667 7.7199438e-39 295 238
-0.029455997 0.69999999 0.0024546667 7.3526004e-39 296 238
-0.028228667 0.69999999 0.0024546667 7.9979698e-39 297 238
-0.027001332 0.69999999 0.0024546667 8.4596612e-39 298 238
-0.025700359 0.69800001 0.0024476533 8.3674642e-39 299 238
-0.024476532 0.69800001 0.0024476533 8.3660265e-39 300 238
-0.023319334 0.69999999 0.0024546667 8.1819954e-39 301 238
-0.022091998 0.69999999 0.0024546667 8.0905214e-39 302 238
-0.020864666 0.69999999 0.0024546667 8.0905214e-39 303 238
-0.019637333 0.69999999 0.0024546667 8.458578e-39 304 238
-0.018409999 0.69999999 0.0024546667 8.3663824e-39 305 238
-0.017182667 0.69999999 0.0024546667 8.9152444e-39 306 238
-0.015955333 0.69999999 0.0024546667 8.7308531e-39 307 238
-0.014727999 0.69999999 0.0024546667 9.8314428e-39 308 238
-0.013462093 0.69800001 0.0024476533 1.0015474e-38 309 238
-0.012238266 0.69800001 0.0024476533 1.0292414e-38 310 238
-0.01101444 0.69800001 0.0024476533 1.0476807e-38 311 238
-0.0097906133 0.69800001 0.0024476533 1.0202015e-38 312 238
-0.0085667865 0.69800001 0.0024476533 1.0202015e-38 313 238
-0.0073429602 0.69800001 0.0024476533 1.0383886e-38 314 238
-0.006119133 0.69800001 0.0024476533 1.1213647e-38 315 238
-0.0048953067 0.69800001 0.0024476533 1.1677128e-38 316 238
-0.0036714801 0.69800001 0.0024476533 1.1861519e-38 317 238
-0.0024476533 0.69800001 0.0024476533 1.121615e-38 318 238
-0.0012238267 0.69800001 0.0024476533 1.0662976e-38 319 238
0 0.69800001 0.0024476533 9.8350287e-39 320 238
0.0012238267 0.69800001 0.0024476533 9.4662476e-39 321 238
0.0024546667 0.69999999 0.0024546667 8.8230516e-39 322 238
0.0036819996 0.69999999 0.0024546667 8.6383002e-39 323 238
0.0049093333 0.69999999 0.0024546667 7.5373602e-39 324 238
0.0061366665 0.69999999 0.0024546667 7.5373602e-39 325 238
0.0073745195 0.70099998 0.0024581731 6.3449379e-39 326 238
0.0086281532 0.70300001 0.0024651866 6.3449379e-39 327 238
0.0098607466 0.70300001 0.0024651866 5.8872024e-39 328 238
0.011109119 0.704 0.0024686933 5.9793994e-39 329 238
0.012343466 0.704 0.0024686933 5.7968158e-39 330 238
0.013616386 0.70599997 0.0024757064 5.8893702e-39 331 238
0.01489632 0.708 0.00248272 5.7986193e-39 332 238
0.01613768 0.708 0.00248272 5.8908163e-39 333 238
0.017379038 0.708 0.00248272 3.867197e-39 334 238
0.018672999 0.70999998 0.0024897333 6.356479e-39 335 238
0.01994592 0.71100003 0.0024932399 1.1342236e-38 336 238
-0.051542737 0.71700001 0.00125714 5.5252708e-39 279 239
-0.050215468 0.71600002 0.0012553866 9.1050587e-39 280 239
-0.048823316 0.71399999 0.00125188 1.0119571e-38 281 239
-0.047571439 0.71399999 0.00125188 1.0211389e-38 282 239
-0.046124939 0.71100003 0.00124662 1.0211389e-38 283 239
-0.044815198 0.70999998 0.0012448666 9.6567709e-39 284 239
-0.043447599 0.708 0.00124136 9.1957928e-39 285 239
-0.042146627 0.70700002 0.0012396066 9.0078058e-39 286 239
-0.040849157 0.70599997 0.0012378532 8.8234145e-39 287 239
-0.039499093 0.704 0.0012343467 8.2727589e-39 288 239
-0.038264744 0.704 0.0012343467 8.0883662e-39 289 239
-0.036977798 0.70300001 0.0012325933 7.5373476e-39 290 239
-0.035643511 0.70099998 0.0012290865 7.6295433e-39 291 239
-0.034414422 0.70099998 0.0012290865 7.538414e-39 292 239
-0.033137999 0.69999999 0.0012273333 7.815361e-39 293 239
-0.031910665 0.69999999 0.0012273333 8.3703299e-39 294 239
-0.030595668 0.69800001 0.0012238267 9.2000905e-39 295 239
-0.029371841 0.69800001 0.0012238267 9.8443866e-39 296 239
-0.028148014 0.69800001 0.0012238267 9.8443866e-39 297 239
-0.026924185 0.69800001 0.0012238267 9.5660046e-39 298 239
-0.025700359 0.69800001 0.0012238267 8.8284396e-39 299 239
-0.024476532 0.69800001 0.0012238267 8.4596584e-39 300 239
-0.023319334 0.69999999 0.0012273333 8.3674614e-39 301 239
-0.022091998 0.69999999 0.0012273333 8.2752658e-39 302 239
-0.020864666 0.69999999 0.0012273333 8.4596584e-39 303 239
-0.019637333 0.69999999 0.0012273333 8.8259186e-39 304 239
-0.018409999 0.69999999 0.0012273333 8.9181157e-39 305 239
-0.017133573 0.69800001 0.0012238267 9.3765715e-39 306 239
-0.015909746 0.69800001 0.0012238267 9.5609641e-39 307 239
-0.01468592 0.69800001 0.0012238267 1.0387481e-38 308 239
-0.013462093 0.69800001 0.0012238267 1.0295285e-38 309 239
-0.012238266 0.69800001 0.0012238267 1.0477879e-38 310 239
-0.01101444 0.69800001 0.0012238267 1.0293486e-38 311 239
-0.0097906133 0.69800001 0.0012238267 1.0475007e-38 312 239
-0.0085545136 0.69700003 0.0012220733 1.0382812e-38 313 239
-0.00733244 0.69700003 0.0012220733 1.0753389e-38 314 239
-0.006119133 0.69800001 0.0012238267 1.2413271e-38 315 239
-0.0048953067 0.69800001 0.0012238267 1.2416138e-38 316 239
-0.0036714801 0.69800001 0.0012238267 1.1678573e-38 317 239
-0.0024476533 0.69800001 0.0012238267 1.1216516e-38 318 239
-0.0012238267 0.69800001 0.0012238267 1.0294919e-38 319 239
0 0.69800001 0.0012238267 9.9250733e-39 320 239
0.0012238267 0.69800001 0.0012238267 9.4644553e-39 321 239
0.0024546667 0.69999999 0.0012273333 8.0869285e-39 322 239
0.0036819996 0.69999999 0.0012273333 8.0869285e-39 323 239
0.0049093333 0.69999999 0.0012273333 6.8937901e-39 324 239
0.0061366665 0.69999999 0.0012273333 6.9863445e-39 325 239
0.0073639993 0.69999999 0.0012273333 5.9775945e-39 326 239
0.0086036054 0.70099998 0.0012290865 5.8853989e-39 327 239
0.0098607466 0.70300001 0.0012325933 5.5187744e-39 328 239
0.011109119 0.704 0.0012343467 5.7950011e-39 329 239
0.012343466 0.704 0.0012343467 5.6113357e-39 330 239
0.013577812 0.704 0.0012343467 5.8879226e-39 331 239
0.014854239 0.70599997 0.0012378532 5.6138595e-39 332 239
0.016114887 0.70700002 0.0012396066 5.7060551e-39 333 239
0.017354494 0.70700002 0.0012396066 5.0599823e-39 334 239
0.018672999 0.70999998 0.0012448666 6.6269478e-39 335 239
0.019917866 0.70999998 0.0012448666 9.4064906e-39 336 239
-0.052799881 0.71700001 -0 7.3659464e-39 278 240
-0.051542737 0.71700001 -0 4.7844688e-39 279 240
-0.050215468 0.71600002 -0 8.9195926e-39 280 240
-0.048823316 0.71399999 -0 1.021033e-38 281 240
-0.047504812 0.713 -0 1.0492294e-38 282 240
-0.046060063 0.70999998 -0 9.8469243e-39 283 240
-0.044688959 0.708 -0 9.6585702e-39 284 240
-0.043386232 0.70700002 -0 8.5522226e-39 285 240
-0.042146627 0.70700002 -0 9.100007e-39 286 240
-0.040733438 0.704 -0 8.7308658e-39 287 240
-0.039499093 0.704 -0 8.4557082e-39 288 240
-0.038210396 0.70300001 -0 8.4557082e-39 289 240
-0.036872596 0.70099998 -0 8.1812695e-39 290 240
-0.035592664 0.69999999 -0 8.1812695e-39 291 240
-0.034365334 0.69999999 -0 8.1812667e-39 292 240
-0.033043321 0.69800001 -0 8.2734623e-39 293 240
-0.031819493 0.69800001 -0 8.1848666e-39 294 240
-0.030595668 0.69800001 -0 8.6458434e-39 295 240
-0.029371841 0.69800001 -0 9.0164181e-39 296 240
-0.028148014 0.69800001 -0 9.0164181e-39 297 240
-0.026885614 0.69700003 -0 9.3837615e-39 298 240
-0.025663542 0.69700003 -0 8.8305878e-39 299 240
-0.024441468 0.69700003 -0 8.5536449e-39 300 240
-0.023319334 0.69999999 -0 8.2774182e-39 301 240
-0.022091998 0.69999999 -0 8.7355223e-39 302 240
-0.020864666 0.69999999 -0 8.6433266e-39 303 240
-0.019637333 0.69999999 -0 9.7442792e-39 304 240
-0.018409999 0.69999999 -0 1.0021225e-38 305 240
-0.017133573 0.69800001 -0 1.1029979e-38 306 240
-0.015909746 0.69800001 -0 1.1122176e-38 307 240
-0.01468592 0.69800001 -0 1.1304398e-38 308 240
-0.013462093 0.69800001 -0 1.1212202e-38 309 240
-0.012220734 0.69700003 -0 1.1210765e-38 310 240
-0.01099866 0.69700003 -0 1.1118209e-38 311 240
-0.0097765867 0.69700003 -0 1.1211128e-38 312 240
-0.0085545136 0.69700003 -0 1.1395519e-38 313 240
-0.00733244 0.69700003 -0 1.1308358e-38 314 240
-0.0061103669 0.69700003 -0 1.2599097e-38 315 240
-0.0048882933 0.69700003 -0 1.2690579e-38 316 240
-0.00366622 0.69700003 -0 1.1768264e-38 317 240
-0.0024476533 0.69800001 -0 1.0294935e-38 318 240
-0.0012238267 0.69800001 -0 9.8339567e-39 319 240
0 0.69800001 -0 8.4549851e-39 320 240
0.0012238267 0.69800001 -0 8.5475409e-39 321 240
0.0024476533 0.69800001 -0 7.3533263e-39 322 240
0.0036714801 0.69800001 -0 7.168935e-39 323 240
0.0048953067 0.69800001 -0 6.159825e-39 324 240
0.006119133 0.69800001 -0 6.159825e-39 325 240
0.0073639993 0.69999999 -0 5.8854017e-39 326 240
0.0086036054 0.70099998 -0 5.7932061e-39 327 240
0.0098326923 0.70099998 -0 5.4269473e-39 328 240
0.01109334 0.70300001 -0 5.4269473e-39 329 240
0.012343466 0.704 -0 5.1528813e-39 330 240
0.013577812 0.704 -0 5.3369125e-39 331 240
0.014854239 0.70599997 -0 5.1532471e-39 332 240
0.016092092 0.70599997 -0 5.2454441e-39 333 240
0.017354494 0.70700002 -0 4.5089735e-39 334 240
0.0186204 0.708 -0 5.615321e-39 335 240
0.01986176 0.708 -0 8.4805756e-39 336 240
-0.052799881 0.71700001 -0.00125714 6.4396699e-39 278 241
-0.051542737 0.71700001 -0.00125714 5.2411267e-39 279 241
-0.050215468 0.71600002 -0.0012553866 8.5497241e-39 280 241
-0.048823316 0.71399999 -0.00125188 1.0578028e-38 281 241
-0.047504812 0.713 -0.0012501266 1.1232382e-38 282 241
-0.046060063 0.70999998 -0.0012448666 1.021787e-38 283 241
-0.044625837 0.70700002 -0.0012396066 9.7522133e-39 284 241
-0.043324865 0.70599997 -0.0012378532 8.1845289e-39 285 241
-0.042087011 0.70599997 -0.0012378532 8.7308658e-39 286 241
-0.040733438 0.704 -0.0012343467 8.5468346e-39 287 241
-0.039499093 0.704 -0.0012343467 8.3631608e-39 288 241
-0.038210396 0.70300001 -0.0012325933 8.2709652e-39 289 241
-0.036872596 0.70099998 -0.0012290865 8.179843e-39 290 241
-0.035592664 0.69999999 -0.0012273333 8.0876473e-39 291 241
-0.034365334 0.69999999 -0.0012273333 8.0869313e-39 292 241
-0.033043321 0.69800001 -0.0012238267 7.9021813e-39 293 241
-0.031819493 0.69800001 -0.0012238267 7.9940266e-39 294 241
-0.030595668 0.69800001 -0.0012238267 7.7174397e-39 295 241
-0.02932976 0.69700003 -0.0012220733 6.5242845e-39 296 241
-0.028107686 0.69700003 -0.0012220733 6.7086758e-39 297 241
-0.026885614 0.69700003 -0.0012220733 7.3536822e-39 298 241
-0.025663542 0.69700003 -0.0012220733 7.629909e-39 299 241
-0.024441468 0.69700003 -0.0012220733 8.2752784e-39 300 241
-0.023252707 0.69800001 -0.0012238267 7.9990516e-39 301 241
-0.02202888 0.69800001 -0.0012238267 8.6422532e-39 302 241
-0.020805053 0.69800001 -0.0012238267 9.010677e-39 303 241
-0.019581227 0.69800001 -0.0012238267 1.0480045e-38 304 241
-0.0183574 0.69800001 -0.0012238267 1.0664438e-38 305 241
-0.017133573 0.69800001 -0.0012238267 1.1581708e-38 306 241
-0.015909746 0.69800001 -0.0012238267 1.1305121e-38 307 241
-0.01466488 0.69700003 -0.0012220733 1.1304398e-38 308 241
-0.013442807 0.69700003 -0.0012220733 1.1212202e-38 309 241
-0.012220734 0.69700003 -0.0012220733 1.1212202e-38 310 241
-0.01099866 0.69700003 -0.0012220733 1.1396594e-38 311 241
-0.0097765867 0.69700003 -0.0012220733 1.1213995e-38 312 241
-0.0085545136 0.69700003 -0.0012220733 1.1398746e-38 313 241
-0.00733244 0.69700003 -0.0012220733 1.1768252e-38 314 241
-0.0061103669 0.69700003 -0.0012220733 1.305899e-38 315 241
-0.0048882933 0.69700003 -0.0012220733 1.2506907e-38 316 241
-0.00366622 0.69700003 -0.0012220733 1.1216168e-38 317 241
-0.0024476533 0.69800001 -0.0012238267 9.4659e-39 318 241
-0.0012238267 0.69800001 -0.0012238267 9.0967574e-39 319 241
0 0.69800001 -0.0012238267 7.44408e-39 320 241
0.0012238267 0.69800001 -0.0012238267 7.44408e-39 321 241
0.0024476533 0.69800001 -0.0012238267 6.8008742e-39 322 241
0.0036714801 0.69800001 -0.0012238267 6.8008742e-39 323 241
0.0048953067 0.69800001 -0.0012238267 5.885036e-39 324 241
0.006119133 0.69800001 -0.0012238267 5.885036e-39 325 241
0.0073639993 0.69999999 -0.0012273333 5.609891e-39 326 241
0.0085913334 0.69999999 -0.0012273333 5.609891e-39 327 241
0.0098326923 0.70099998 -0.0012290865 5.2425532e-39 328 241
0.01109334 0.70300001 -0.0012325933 5.3347489e-39 329 241
0.012343466 0.704 -0.0012343467 5.1521555e-39 330 241
0.013577812 0.704 -0.0012343467 5.2443511e-39 331 241
0.014854239 0.70599997 -0.0012378532 5.0606829e-39 332 241
0.016092092 0.70599997 -0.0012378532 5.3369097e-39 333 241
0.017329946 0.70599997 -0.0012378532 4.967781e-39 334 241
0.018594101 0.70700002 -0.0012396066 5.4287592e-39 335 241
0.019833706 0.70700002 -0.0012396066 7.7412085e-39 336 241
-0.05294716 0.71899998 -0.0025212932 6.0683706e-39 278 242
-0.051542737 0.71700001 -0.0025142799 5.8839794e-39 279 242
-0.050215468 0.71600002 -0.0025107733 8.5475661e-39 280 242
-0.048823316 0.71399999 -0.0025037599 1.0576229e-38 281 242
-0.047504812 0.713 -0.0025002533 1.169337e-38 282 242
-0.046060063 0.70999998 -0.0024897333 1.0218601e-38 283 242
-0.044625837 0.70700002 -0.0024792133 9.017535e-39 284 242
-0.043324865 0.70599997 -0.0024757064 7.5424063e-39 285 242
-0.042087011 0.70599997 -0.0024757064 8.6404708e-39 286 242
-0.040733438 0.704 -0.0024686933 8.1794926e-39 287 242
-0.039330769 0.70099998 -0.0024581731 8.0880131e-39 288 242
-0.038101684 0.70099998 -0.0024581731 7.9039819e-39 289 242
-0.036819998 0.69999999 -0.0024546667 8.2709596e-39 290 242
-0.035592664 0.69999999 -0.0024546667 8.0869285e-39 291 242
-0.034267146 0.69800001 -0.0024476533 7.8099885e-39 292 242
-0.033043321 0.69800001 -0.0024476533 7.6255958e-39 293 242
-0.031819493 0.69800001 -0.0024476533 7.0742367e-39 294 242
-0.030551834 0.69700003 -0.0024441467 6.8902056e-39 295 242
-0.02932976 0.69700003 -0.0024441467 6.3391968e-39 296 242
-0.028107686 0.69700003 -0.0024441467 6.5232279e-39 297 242
-0.026885614 0.69700003 -0.0024441467 6.4324644e-39 298 242
-0.025663542 0.69700003 -0.0024441467 6.8012469e-39 299 242
-0.024441468 0.69700003 -0.0024441467 7.1693008e-39 300 242
-0.023252707 0.69800001 -0.0024476533 7.2614964e-39 301 242
-0.02202888 0.69800001 -0.0024476533 8.0901655e-39 302 242
-0.020805053 0.69800001 -0.0024476533 8.9202849e-39 303 242
-0.019581227 0.69800001 -0.0024476533 1.0848103e-38 304 242
-0.0183574 0.69800001 -0.0024476533 1.0755907e-38 305 242
-0.017133573 0.69800001 -0.0024476533 1.1488789e-38 306 242
-0.015909746 0.69800001 -0.0024476533 1.1304398e-38 307 242
-0.01466488 0.69700003 -0.0024441467 1.1395872e-38 308 242
-0.013442807 0.69700003 -0.0024441467 1.1488068e-38 309 242
-0.012220734 0.69700003 -0.0024441467 1.1489142e-38 310 242
-0.01099866 0.69700003 -0.0024441467 1.1581339e-38 311 242
-0.0097765867 0.69700003 -0.0024441467 1.1489507e-38 312 242
-0.0085422397 0.69599998 -0.0024406398 1.1489507e-38 313 242
-0.0073219193 0.69599998 -0.0024406398 1.1490591e-38 314 242
-0.0061103669 0.69700003 -0.0024441467 1.1951211e-38 315 242
-0.0048882933 0.69700003 -0.0024441467 1.1400557e-38 316 242
-0.00366622 0.69700003 -0.0024441467 1.0294569e-38 317 242
-0.0024441467 0.69700003 -0.0024441467 8.3627923e-39 318 242
-0.0012220733 0.69700003 -0.0024441467 8.2705967e-39 319 242
0 0.69800001 -0.0024476533 6.893074e-39 320 242
0.0012238267 0.69800001 -0.0024476533 6.8008784e-39 321 242
0.0024476533 0.69800001 -0.0024476533 5.9750764e-39 322 242
0.0036714801 0.69800001 -0.0024476533 5.9750764e-39 323 242
0.0048953067 0.69800001 -0.0024476533 5.3340272e-39 324 242
0.006119133 0.69800001 -0.0024476533 5.3340272e-39 325 242
0.0073639993 0.69999999 -0.0024546667 5.2425532e-39 326 242
0.0085913334 0.69999999 -0.0024546667 5.2425532e-39 327 242
0.0098326923 0.70099998 -0.0024581731 4.9666852e-39 328 242
0.01109334 0.70300001 -0.0024651866 5.0588822e-39 329 242
0.012343466 0.704 -0.0024686933 4.7851722e-39 330 242
0.013577812 0.704 -0.0024686933 4.7851722e-39 331 242
0.014854239 0.70599997 -0.0024757064 4.7858939e-39 332 242
0.016092092 0.70599997 -0.0024757064 4.8780895e-39 333 242
0.017329946 0.70599997 -0.0024757064 4.6926235e-39 334 242
0.018594101 0.70700002 -0.0024792133 5.0614046e-39 335 242
0.019833706 0.70700002 -0.0024792133 6.0845612e-39 336 242
-0.054283202 0.72000003 -0.0037872 5.4395618e-39 277 243
-0.05294716 0.71899998 -0.0037819401 6.1580439e-39 278 243
-0.051542737 0.71700001 -0.0037714199 6.987806e-39 279 243
-0.050215468 0.71600002 -0.00376616 8.362456e-39 280 243
-0.048823316 0.71399999 -0.0037556398 1.0114532e-38 281 243
-0.047371563 0.71100003 -0.0037398601 1.1416792e-38 282 243
-0.045930319 0.708 -0.00372408 1.0126053e-38 283 243
-0.044625837 0.70700002 -0.0037188199 8.7398719e-39 284 243
-0.043324865 0.70599997 -0.0037135598 7.6335257e-39 285 243
-0.041967787 0.704 -0.0037030398 8.2724085e-39 286 243
-0.040733438 0.704 -0.0037030398 8.0880159e-39 287 243
-0.039330769 0.70099998 -0.0036872597 8.0876501e-39 288 243
-0.038101684 0.70099998 -0.0036872597 7.9954545e-39 289 243
-0.036819998 0.69999999 -0.0036819996 8.0869313e-39 290 243
-0.035592664 0.69999999 -0.0036819996 7.9947356e-39 291 243
-0.034267146 0.69800001 -0.0036714801 7.6266706e-39 292 243
-0.033043321 0.69800001 -0.0036714801 7.4422779e-39 293 243
-0.03177391 0.69700003 -0.00366622 7.0742213e-39 294 243
-0.030551834 0.69700003 -0.00366622 6.88983e-39 295 243
-0.02932976 0.69700003 -0.00366622 6.4310169e-39 296 243
-0.028107686 0.69700003 -0.00366622 6.3388212e-39 297 243
-0.026847038 0.69599998 -0.0036609597 6.3388212e-39 298 243
-0.025626717 0.69599998 -0.0036609597 6.4310169e-39 299 243
-0.024441468 0.69700003 -0.00366622 6.5232153e-39 300 243
-0.023252707 0.69800001 -0.0036714801 6.8916377e-39 301 243
-0.02202888 0.69800001 -0.0036714801 7.4465995e-39 302 243
-0.020805053 0.69800001 -0.0036714801 8.921731e-39 303 243
-0.019581227 0.69800001 -0.0036714801 1.1400559e-38 304 243
-0.0183574 0.69800001 -0.0036714801 1.1123614e-38 305 243
-0.017133573 0.69800001 -0.0036714801 1.1489507e-38 306 243
-0.015886955 0.69700003 -0.00366622 1.1305474e-38 307 243
-0.01466488 0.69700003 -0.00366622 1.1213279e-38 308 243
-0.013442807 0.69700003 -0.00366622 1.1305474e-38 309 243
-0.012220734 0.69700003 -0.00366622 1.130655e-38 310 243
-0.010982879 0.69599998 -0.0036609597 1.1398746e-38 311 243
-0.0097625591 0.69599998 -0.0036609597 1.1213281e-38 312 243
-0.0085422397 0.69599998 -0.0036609597 1.0936336e-38 313 243
-0.0073219193 0.69599998 -0.0036609597 1.0660478e-38 314 243
-0.0061015999 0.69599998 -0.0036609597 1.0383531e-38 315 243
-0.0048882933 0.69700003 -0.00366622 9.3719023e-39 316 243
-0.00366622 0.69700003 -0.00366622 9.0031212e-39 317 243
-0.0024441467 0.69700003 -0.00366622 7.0760191e-39 318 243
-0.0012220733 0.69700003 -0.00366622 7.0760191e-39 319 243
0 0.69700003 -0.00366622 6.1576726e-39 320 243
0.0012238267 0.69800001 -0.0036714801 6.1576726e-39 321 243
0.0024476533 0.69800001 -0.0036714801 5.3322307e-39 322 243
0.0036714801 0.69800001 -0.0036714801 5.3322307e-39 323 243
0.0048953067 0.69800001 -0.0036714801 4.9659663e-39 324 243
0.006119133 0.69800001 -0.0036714801 5.058162e-39 325 243
0.0073429602 0.69800001 -0.0036714801 4.9666852e-39 326 243
0.0085913334 0.69999999 -0.0036819996 4.9666852e-39 327 243
0.0098326923 0.70099998 -0.0036872597 4.7833729e-39 328 243
0.01109334 0.70300001 -0.0036977797 4.7833729e-39 329 243
0.012343466 0.704 -0.0037030398 4.7840932e-39 330 243
0.013577812 0.704 -0.0037030398 4.7840932e-39 331 243
0.014812159 0.704 -0.0037030398 4.6929766e-39 332 243
0.016092092 0.70599997 -0.0037135598 4.7851722e-39 333 243
0.017329946 0.70599997 -0.0037135598 4.9684873e-39 334 243
0.018594101 0.70700002 -0.0037188199 5.1528785e-39 335 243
0.019833706 0.70700002 -0.0037188199 5.1608057e-39 336 243
0.021162732 0.70999998 -0.0037345996 1.143011e-38 337 243
-0.057044696 0.72299999 -0.0050706398 1.6043134e-38 275 244
-0.055699892 0.722 -0.0050636264 1.0878025e-38 276 244
-0.054283202 0.72000003 -0.0050496003 3.7789614e-39 277 244
-0.05294716 0.71899998 -0.0050425865 6.4321141e-39 278 244
-0.051542737 0.71700001 -0.0050285598 7.4459073e-39 279 244
-0.050215468 0.71600002 -0.0050215465 8.3624588e-39 280 244
-0.048823316 0.71399999 -0.0050075199 8.9156312e-39 281 244
-0.047371563 0.71100003 -0.0049864799 9.4767321e-39 282 244
-0.045930319 0.708 -0.0049654399 8.9235583e-39 283 244
-0.044562716 0.70599997 -0.0049514128 8.5518877e-39 284 244
-0.043202132 0.704 -0.0049373866 8.090911e-39 285 244
-0.041967787 0.704 -0.0049373866 8.1812947e-39 286 244
-0.040675577 0.70300001 -0.0049303733 7.9969035e-39 287 244
-0.039330769 0.70099998 -0.0049163462 8.1802101e-39 288 244
-0.038101684 0.70099998 -0.0049163462 7.9039819e-39 289 244
-0.036819998 0.69999999 -0.0049093333 7.9039819e-39 290 244
-0.035490975 0.69800001 -0.0048953067 7.9039819e-39 291 244
-0.034267146 0.69800001 -0.0048953067 7.4437241e-39 292 244
-0.033043321 0.69800001 -0.0048953067 6.890909e-39 293 244
-0.03177391 0.69700003 -0.0048882933 6.6146851e-39 294 244
-0.030551834 0.69700003 -0.0048882933 6.7068807e-39 295 244
-0.02932976 0.69700003 -0.0048882933 6.2484263e-39 296 244
-0.028067358 0.69599998 -0.0048812795 6.1558719e-39 297 244
-0.026847038 0.69599998 -0.0048812795 6.0629588e-39 298 244
-0.025626717 0.69599998 -0.0048812795 6.0629588e-39 299 244
-0.0244064 0.69599998 -0.0048812795 6.0629588e-39 300 244
-0.023252707 0.69800001 -0.0048953067 6.3395471e-39 301 244
-0.02202888 0.69800001 -0.0048953067 7.3522501e-39 302 244
-0.020775247 0.69700003 -0.0048882933 8.6429889e-39 303 244
-0.019553173 0.69700003 -0.0048882933 1.0572964e-38 304 244
-0.018331099 0.69700003 -0.0048882933 1.0572964e-38 305 244
-0.017109027 0.69700003 -0.0048882933 1.1305121e-38 306 244
-0.015886955 0.69700003 -0.0048882933 1.1212925e-38 307 244
-0.01466488 0.69700003 -0.0048882933 1.1304398e-38 308 244
-0.013423519 0.69599998 -0.0048812795 1.1212202e-38 309 244
-0.0122032 0.69599998 -0.0048812795 1.1027815e-38 310 244
-0.010982879 0.69599998 -0.0048812795 1.0658673e-38 311 244
-0.0097625591 0.69599998 -0.0048812795 1.0290263e-38 312 244
-0.0085422397 0.69599998 -0.0048812795 1.0014036e-38 313 244
-0.0073219193 0.69599998 -0.0048812795 9.188237e-39 314 244
-0.0061015999 0.69599998 -0.0048812795 8.9116501e-39 315 244
-0.0048812795 0.69599998 -0.0048812795 7.5351938e-39 316 244
-0.0036609597 0.69599998 -0.0048812795 7.2589657e-39 317 244
-0.0024406398 0.69599998 -0.0048812795 6.0654742e-39 318 244
-0.0012203199 0.69599998 -0.0048812795 6.0654742e-39 319 244
0 0.69700003 -0.0048882933 5.4233516e-39 320 244
0.0012220733 0.69700003 -0.0048882933 5.3311559e-39 321 244
0.0024441467 0.69700003 -0.0048882933 4.9648901e-39 322 244
0.0036714801 0.69800001 -0.0048953067 4.9648901e-39 323 244
0.0048953067 0.69800001 -0.0048953067 4.7815779e-39 324 244
0.006119133 0.69800001 -0.0048953067 4.9659691e-39 325 244
0.0073429602 0.69800001 -0.0048953067 4.6908242e-39 326 244
0.0085913334 0.69999999 -0.0049093333 4.6908242e-39 327 244
0.0098326923 0.70099998 -0.0049163462 4.6908214e-39 328 244
0.01109334 0.70300001 -0.0049303733 4.6908214e-39 329 244
0.012343466 0.704 -0.0049373866 4.6911773e-39 330 244
0.013577812 0.704 -0.0049373866 4.6911773e-39 331 244
0.014812159 0.704 -0.0049373866 4.600781e-39 332 244
0.016092092 0.70599997 -0.0049514128 4.600781e-39 333 244
0.017329946 0.70599997 -0.0049514128 5.1514464e-39 334 244
0.018594101 0.70700002 -0.0049584266 5.428392e-39 335 244
0.019833706 0.70700002 -0.0049584266 4.5139985e-39 336 244
0.021103119 0.708 -0.0049654399 1.0414519e-38 337 244
-0.058473669 0.72500002 -0.0063558333 1.6317923e-38 274 245
-0.057044696 0.72299999 -0.0063382997 1.5856945e-38 275 245
-0.055699892 0.722 -0.0063295332 9.9539106e-39 276 245
-0.054283202 0.72000003 -0.0063120001 2.9466826e-39 277 245
-0.053020801 0.72000003 -0.0063120001 6.800891e-39 278 245
-0.05168651 0.71899998 -0.0063032326 7.538456e-39 279 245
-0.050215468 0.71600002 -0.0062769335 7.9036316e-39 280 245
-0.048754938 0.713 -0.0062506334 7.811436e-39 281 245
-0.047304932 0.70999998 -0.0062243328 8.0909138e-39 282 245
-0.045930319 0.708 -0.0062067998 8.0909138e-39 283 245
-0.044562716 0.70599997 -0.0061892662 7.9065155e-39 284 245
-0.043202132 0.704 -0.0061717331 7.9065155e-39 285 245
-0.041967787 0.704 -0.0061717331 8.0898123e-39 286 245
-0.040559858 0.70099998 -0.0061454331 8.0898123e-39 287 245
-0.039330769 0.70099998 -0.0061454331 8.2727617e-39 288 245
-0.038047329 0.69999999 -0.0061366665 8.180566e-39 289 245
-0.0367148 0.69800001 -0.006119133 8.1805632e-39 290 245
-0.035490975 0.69800001 -0.006119133 7.9043351e-39 291 245
-0.034267146 0.69800001 -0.006119133 7.169291e-39 292 245
-0.03299598 0.69700003 -0.0061103669 6.3391702e-39 293 245
-0.03177391 0.69700003 -0.0061103669 6.4313728e-39 294 245
-0.030551834 0.69700003 -0.0061103669 6.5235684e-39 295 245
-0.02932976 0.69700003 -0.0061103669 6.6164829e-39 296 245
-0.028067358 0.69599998 -0.0061015999 6.5242873e-39 297 245
-0.026847038 0.69599998 -0.0061015999 6.7068835e-39 298 245
-0.025626717 0.69599998 -0.0061015999 6.430298e-39 299 245
-0.0244064 0.69599998 -0.0061015999 6.4299449e-39 300 245
-0.023219392 0.69700003 -0.0061103669 6.4299449e-39 301 245
-0.02199732 0.69700003 -0.0061103669 6.9827641e-39 302 245
-0.020775247 0.69700003 -0.0061103669 7.7206893e-39 303 245
-0.019553173 0.69700003 -0.0061103669 9.1918537e-39 304 245
-0.018331099 0.69700003 -0.0061103669 9.1918537e-39 305 245
-0.017109027 0.69700003 -0.0061103669 1.0384629e-38 306 245
-0.015864158 0.69599998 -0.0061015999 1.0292434e-38 307 245
-0.014643839 0.69599998 -0.0061015999 1.0292066e-38 308 245
-0.013423519 0.69599998 -0.0061015999 1.0199512e-38 309 245
-0.0122032 0.69599998 -0.0061015999 9.8318085e-39 310 245
-0.01095132 0.69400001 -0.0060840664 9.2786347e-39 311 245
-0.0097345067 0.69400001 -0.0060840664 8.910941e-39 312 245
-0.0085176928 0.69400001 -0.0060840664 8.8187454e-39 313 245
-0.0073008798 0.69400001 -0.0060840664 8.2680953e-39 314 245
-0.0060840664 0.69400001 -0.0060840664 7.9915085e-39 315 245
-0.0048812795 0.69599998 -0.0061015999 6.5239342e-39 316 245
-0.0036609597 0.69599998 -0.0061015999 6.339903e-39 317 245
-0.0024406398 0.69599998 -0.0061015999 5.2393162e-39 318 245
-0.0012203199 0.69599998 -0.0061015999 5.3315119e-39 319 245
0 0.69700003 -0.0061103669 4.9638153e-39 320 245
0.0012220733 0.69700003 -0.0061103669 4.8716197e-39 321 245
0.0024441467 0.69700003 -0.0061103669 4.6890291e-39 322 245
0.00366622 0.69700003 -0.0061103669 4.6890291e-39 323 245
0.0048882933 0.69700003 -0.0061103669 4.506077e-39 324 245
0.006119133 0.69800001 -0.006119133 4.5986314e-39 325 245
0.0073429602 0.69800001 -0.006119133 4.5986286e-39 326 245
0.0085913334 0.69999999 -0.0061366665 4.5986286e-39 327 245
0.0098186666 0.69999999 -0.0061366665 4.5986258e-39 328 245
0.011061779 0.70099998 -0.0061454331 4.5986258e-39 329 245
0.012325933 0.70300001 -0.0061629666 4.5064301e-39 330 245
0.013577812 0.704 -0.0061717331 4.5986258e-39 331 245
0.014812159 0.704 -0.0061717331 4.4160352e-39 332 245
0.016092092 0.70599997 -0.0061892662 4.4160352e-39 333 245
0.017329946 0.70599997 -0.0061892662 4.7844716e-39 334 245
0.018594101 0.70700002 -0.0061980332 5.0606983e-39 335 245
0.019833706 0.70700002 -0.0061980332 4.1441398e-39 336 245
0.021103119 0.708 -0.0062067998 1.0136857e-38 337 245
0.022407599 0.70999998 -0.0062243328 1.5485623e-38 338 245
-0.058312356 0.72299999 -0.0076059597 1.6684538e-38 274 246
-0.057044696 0.72299999 -0.0076059597 1.557819e-38 275 246
-0.055699892 0.722 -0.0075954394 9.2156155e-39 276 246
-0.054283202 0.72000003 -0.0075743999 2.4856947e-39 277 246
-0.053020801 0.72000003 -0.0075743999 6.8923678e-39 278 246
-0.05168651 0.71899998 -0.0075638802 7.5377372e-39 279 246
-0.050215468 0.71600002 -0.00753232 7.9036288e-39 280 246
-0.048754938 0.713 -0.0075007593 7.7192376e-39 281 246
-0.047304932 0.70999998 -0.0074691991 7.8118017e-39 282 246
-0.045930319 0.708 -0.0074481601 7.535575e-39 283 246
-0.044562716 0.70599997 -0.0074271196 7.7196061e-39 284 246
-0.043202132 0.704 -0.0074060797 7.7196061e-39 285 246
-0.041967787 0.704 -0.0074060797 7.9976195e-39 286 246
-0.040559858 0.70099998 -0.0073745195 7.9976195e-39 287 246
-0.039330769 0.70099998 -0.0073745195 8.1827296e-39 288 246
-0.038047329 0.69999999 -0.0073639993 7.9986985e-39 289 246
-0.0367148 0.69800001 -0.0073429602 7.5380931e-39 290 246
-0.035490975 0.69800001 -0.0073429602 8.2756581e-39 291 246
-0.034267146 0.69800001 -0.0073429602 9.1133432e-39 292 246
-0.03299598 0.69700003 -0.00733244 9.7587126e-39 293 246
-0.03177391 0.69700003 -0.00733244 9.2076884e-39 294 246
-0.030551834 0.69700003 -0.00733244 7.6403627e-39 295 246
-0.02932976 0.69700003 -0.00733244 7.9994202e-39 296 246
-0.028107686 0.69700003 -0.00733244 7.6306391e-39 297 246
-0.026847038 0.69599998 -0.0073219193 6.8015973e-39 298 246
-0.025626717 0.69599998 -0.0073219193 6.4328147e-39 299 246
-0.0244064 0.69599998 -0.0073219193 6.4303008e-39 300 246
-0.023219392 0.69700003 -0.00733244 6.4303008e-39 301 246
-0.02199732 0.69700003 -0.00733244 7.2571832e-39 302 246
-0.020775247 0.69700003 -0.00733244 7.7185215e-39 303 246
-0.019553173 0.69700003 -0.00733244 9.3694038e-39 304 246
-0.018304799 0.69599998 -0.0073219193 9.5537951e-39 305 246
-0.017084479 0.69599998 -0.0073219193 1.0103726e-38 306 246
-0.015864158 0.69599998 -0.0073219193 1.0196281e-38 307 246
-0.014643839 0.69599998 -0.0073219193 1.0011884e-38 308 246
-0.013384946 0.69400001 -0.0073008798 9.9196881e-39 309 246
-0.012168133 0.69400001 -0.0073008798 9.3697514e-39 310 246
-0.01095132 0.69400001 -0.0073008798 9.0013276e-39 311 246
-0.0097345067 0.69400001 -0.0073008798 7.9003848e-39 312 246
-0.0085176928 0.69400001 -0.0073008798 7.8081892e-39 313 246
-0.0073008798 0.69400001 -0.0073008798 7.0738682e-39 314 246
-0.0060840664 0.69400001 -0.0073008798 6.9816725e-39 315 246
-0.0048812795 0.69599998 -0.0073219193 5.9725597e-39 316 246
-0.0036609597 0.69599998 -0.0073219193 5.9725597e-39 317 246
-0.0024406398 0.69599998 -0.0073219193 5.1471178e-39 318 246
-0.0012203199 0.69599998 -0.0073219193 5.2393134e-39 319 246
0 0.69700003 -0.00733244 4.8719756e-39 320 246
0.0012220733 0.69700003 -0.00733244 4.8719756e-39 321 246
0.0024441467 0.69700003 -0.00733244 4.5968307e-39 322 246
0.00366622 0.69700003 -0.00733244 4.5968307e-39 323 246
0.0048882933 0.69700003 -0.00733244 4.5057113e-39 324 246
0.006119133 0.69800001 -0.0073429602 4.5979069e-39 325 246
0.0073429602 0.69800001 -0.0073429602 4.5986286e-39 326 246
0.0085913334 0.69999999 -0.0073639993 4.5986286e-39 327 246
0.0098186666 0.69999999 -0.0073639993 4.4153163e-39 328 246
0.011061779 0.70099998 -0.0073745195 4.3231207e-39 329 246
0.012325933 0.70300001 -0.0073955595 4.4142345e-39 330 246
0.013577812 0.704 -0.0074060797 4.4142345e-39 331 246
0.014812159 0.704 -0.0074060797 4.5064329e-39 332 246
0.016046507 0.704 -0.0074060797 4.5986286e-39 333 246
0.017329946 0.70599997 -0.0074271196 4.9663377e-39 334 246
0.018594101 0.70700002 -0.0074376399 5.1507303e-39 335 246
0.019833706 0.70700002 -0.0074376399 3.6824358e-39 336 246
0.021073313 0.70700002 -0.0074376399 9.7673488e-39 337 246
0.022344479 0.708 -0.0074481601 1.4932805e-38 338 246
-0.059580017 0.72299999 -0.0088736191 1.6500857e-38 273 247
-0.058312356 0.72299999 -0.0088736191 1.6866758e-38 274 247
-0.056965802 0.722 -0.0088613462 1.5299433e-38 275 247
-0.055699892 0.722 -0.0088613462 9.3056419e-39 276 247
-0.054283202 0.72000003 -0.0088367993 2.9445022e-39 277 247
-0.053020801 0.72000003 -0.0088367993 7.2614992e-39 278 247
-0.05168651 0.71899998 -0.0088245263 7.6306419e-39 279 247
-0.050215468 0.71600002 -0.0087877065 7.5373602e-39 280 247
-0.048754938 0.713 -0.0087508867 7.3533291e-39 281 247
-0.047171678 0.708 -0.008689519 6.9838403e-39 282 247
-0.045865446 0.70700002 -0.008677247 6.9838403e-39 283 247
-0.044562716 0.70599997 -0.0086649731 7.0760388e-39 284 247
-0.043202132 0.704 -0.0086404262 7.26043e-39 285 247
-0.041967787 0.704 -0.0086404262 7.5370071e-39 286 247
-0.040559858 0.70099998 -0.0086036054 7.8139541e-39 287 247
-0.039330769 0.70099998 -0.0086036054 7.9990643e-39 288 247
-0.038047329 0.69999999 -0.0085913334 8.4600424e-39 289 247
-0.0367148 0.69800001 -0.0085667865 8.27747e-39 290 247
-0.035490975 0.69800001 -0.0085667865 9.1994249e-39 291 247
-0.034267146 0.69800001 -0.0085667865 1.0504561e-38 292 247
-0.03299598 0.69700003 -0.0085545136 1.2532865e-38 293 247
-0.03177391 0.69700003 -0.0085545136 1.2347012e-38 294 247
-0.030551834 0.69700003 -0.0085545136 1.0318708e-38 295 247
-0.02932976 0.69700003 -0.0085545136 9.1997626e-39 296 247
-0.028107686 0.69700003 -0.0085545136 7.4480457e-39 297 247
-0.026847038 0.69599998 -0.0085422397 8.0872998e-39 298 247
-0.025626717 0.69599998 -0.0085422397 7.349376e-39 299 247
-0.0244064 0.69599998 -0.0085422397 6.6157641e-39 300 247
-0.023219392 0.69700003 -0.0085545136 6.5235684e-39 301 247
-0.02199732 0.69700003 -0.0085545136 7.1660638e-39 302 247
-0.020775247 0.69700003 -0.0085545136 7.4426507e-39 303 247
-0.019553173 0.69700003 -0.0085545136 8.2677394e-39 304 247
-0.018304799 0.69599998 -0.0085422397 8.359935e-39 305 247
-0.017084479 0.69599998 -0.0085422397 8.6350828e-39 306 247
-0.015864158 0.69599998 -0.0085422397 8.6350828e-39 307 247
-0.014643839 0.69599998 -0.0085422397 8.3595721e-39 308 247
-0.013384946 0.69400001 -0.0085176928 8.3595721e-39 309 247
-0.012168133 0.69400001 -0.0085176928 7.7174397e-39 310 247
-0.01095132 0.69400001 -0.0085176928 7.6252427e-39 311 247
-0.0097345067 0.69400001 -0.0085176928 7.0745898e-39 312 247
-0.0085176928 0.69400001 -0.0085176928 6.7980043e-39 313 247
-0.0073008798 0.69400001 -0.0085176928 6.1558747e-39 314 247
-0.0060840664 0.69400001 -0.0085176928 6.0636791e-39 315 247
-0.0048672534 0.69400001 -0.0085176928 5.3304301e-39 316 247
-0.0036504399 0.69400001 -0.0085176928 5.3304301e-39 317 247
-0.0024406398 0.69599998 -0.0085422397 4.6886606e-39 318 247
-0.0012203199 0.69599998 -0.0085422397 4.5964636e-39 319 247
0 0.69599998 -0.0085422397 4.4127982e-39 320 247
0.0012203199 0.69599998 -0.0085422397 4.4127982e-39 321 247
0.0024406398 0.69599998 -0.0085422397 4.4127982e-39 322 247
0.00366622 0.69700003 -0.0085545136 4.5968307e-39 323 247
0.0048882933 0.69700003 -0.0085545136 4.4142373e-39 324 247
0.006119133 0.69800001 -0.0085667865 4.4142373e-39 325 247
0.0073429602 0.69800001 -0.0085667865 4.3231179e-39 326 247
0.0085913334 0.69999999 -0.0085913334 4.3231179e-39 327 247
0.0098186666 0.69999999 -0.0085913334 4.2309222e-39 328 247
0.01109334 0.70300001 -0.0086281532 4.1387266e-39 329 247
0.012325933 0.70300001 -0.0086281532 3.9550584e-39 330 247
0.013577812 0.704 -0.0086404262 3.8628614e-39 331 247
0.014812159 0.704 -0.0086404262 4.1372973e-39 332 247
0.016046507 0.704 -0.0086404262 4.229853e-39 333 247
0.017329946 0.70599997 -0.0086649731 4.5068057e-39 334 247
0.018594101 0.70700002 -0.008677247 4.5068057e-39 335 247
0.019833706 0.70700002 -0.008677247 3.4022504e-39 336 247
0.021073313 0.70700002 -0.008677247 9.3953251e-39 337 247
0.022344479 0.708 -0.008689519 1.4838808e-38 338 247
0.023585839 0.708 -0.008689519 1.6406135e-38 339 247
-0.060847677 0.72299999 -0.01014128 1.6681645e-38 272 248
-0.059580017 0.72299999 -0.01014128 1.6866395e-38 273 248
-0.058312356 0.72299999 -0.01014128 1.6959311e-38 274 248
-0.056965802 0.722 -0.010127253 1.4931006e-38 275 248
-0.055699892 0.722 -0.010127253 9.58114e-39 276 248
-0.054283202 0.72000003 -0.010099201 3.6806197e-39 277 248
-0.053020801 0.72000003 -0.010099201 7.2636516e-39 278 248
-0.05168651 0.71899998 -0.010085173 7.4480429e-39 279 248
-0.050215468 0.71600002 -0.010043093 7.4465967e-39 280 248
-0.048754938 0.713 -0.010001013 7.1696511e-39 281 248
-0.047171678 0.708 -0.0099308798 6.9841865e-39 282 248
-0.045865446 0.70700002 -0.0099168532 6.7079597e-39 283 248
-0.044562716 0.70599997 -0.0099028256 6.8912748e-39 284 248
-0.043202132 0.704 -0.0098747732 7.0756674e-39 285 248
-0.041908171 0.70300001 -0.0098607466 7.351897e-39 286 248
-0.040559858 0.70099998 -0.0098326923 7.5362882e-39 287 248
-0.039330769 0.70099998 -0.0098326923 7.9979923e-39 288 248
-0.038047329 0.69999999 -0.0098186666 9.0121442e-39 289 248
-0.0367148 0.69800001 -0.0097906133 1.0125351e-38 290 248
-0.035490975 0.69800001 -0.0097906133 1.2337686e-38 291 248
-0.034218054 0.69700003 -0.0097765867 1.3003215e-38 292 248
-0.03299598 0.69700003 -0.0097765867 1.4017368e-38 293 248
-0.03177391 0.69700003 -0.0097765867 1.4934635e-38 294 248
-0.030507999 0.69599998 -0.0097625591 1.1984734e-38 295 248
-0.029287677 0.69599998 -0.0097625591 1.0124621e-38 296 248
-0.028067358 0.69599998 -0.0097625591 7.0821666e-39 297 248
-0.026847038 0.69599998 -0.0097625591 7.3508278e-39 298 248
-0.025626717 0.69599998 -0.0097625591 7.2586322e-39 299 248
-0.0244064 0.69599998 -0.0097625591 6.9834732e-39 300 248
-0.023219392 0.69700003 -0.0097765867 6.7987232e-39 301 248
-0.02199732 0.69700003 -0.0097765867 7.1664169e-39 302 248
-0.020775247 0.69700003 -0.0097765867 7.2586125e-39 303 248
-0.019553173 0.69700003 -0.0097765867 8.1762458e-39 304 248
-0.018331099 0.69700003 -0.0097765867 8.2684429e-39 305 248
-0.017109027 0.69700003 -0.0097765867 8.0833313e-39 306 248
-0.015864158 0.69599998 -0.0097625591 8.175527e-39 307 248
-0.014643839 0.69599998 -0.0097625591 7.8996659e-39 308 248
-0.013423519 0.69599998 -0.0097625591 7.8996659e-39 309 248
-0.012168133 0.69400001 -0.0097345067 6.891272e-39 310 248
-0.01095132 0.69400001 -0.0097345067 6.7990763e-39 311 248
-0.0097345067 0.69400001 -0.0097345067 6.2477046e-39 312 248
-0.0085176928 0.69400001 -0.0097345067 6.155509e-39 313 248
-0.0073008798 0.69400001 -0.0097345067 5.6959714e-39 314 248
-0.0060840664 0.69400001 -0.0097345067 5.6959714e-39 315 248
-0.0048672534 0.69400001 -0.0097345067 4.9623664e-39 316 248
-0.0036504399 0.69400001 -0.0097345067 5.0549208e-39 317 248
-0.0024406398 0.69599998 -0.0097625591 4.779773e-39 318 248
-0.0012203199 0.69599998 -0.0097625591 4.779773e-39 319 248
0 0.69599998 -0.0097625591 4.5964636e-39 320 248
0.0012203199 0.69599998 -0.0097625591 4.5039092e-39 321 248
0.0024406398 0.69599998 -0.0097625591 4.5039092e-39 322 248
0.00366622 0.69700003 -0.0097765867 4.5964636e-39 323 248
0.0048882933 0.69700003 -0.0097765867 4.4135128e-39 324 248
0.006119133 0.69800001 -0.0097906133 4.4135128e-39 325 248
0.0073429602 0.69800001 -0.0097906133 4.1387238e-39 326 248
0.0085913334 0.69999999 -0.0098186666 4.1387238e-39 327 248
0.0098326923 0.70099998 -0.0098326923 3.8632145e-39 328 248
0.01109334 0.70300001 -0.0098607466 3.8632145e-39 329 248
0.012325933 0.70300001 -0.0098607466 3.7699441e-39 330 248
0.013577812 0.704 -0.0098747732 3.7699441e-39 331 248
0.014812159 0.704 -0.0098747732 3.9532591e-39 332 248
0.016092092 0.70599997 -0.0099028256 4.0454548e-39 333 248
0.017329946 0.70599997 -0.0099028256 4.5064329e-39 334 248
0.018594101 0.70700002 -0.0099168532 4.5064329e-39 335 248
0.019833706 0.70700002 -0.0099168532 3.3986378e-39 336 248
0.021103119 0.708 -0.0099308798 9.3913538e-39 337 248
0.022344479 0.708 -0.0099308798 1.4836641e-38 338 248
0.023585839 0.708 -0.0099308798 1.6772749e-38 339 248
-0.061016005 0.72500002 -0.0114405 1.6957144e-38 272 249
-0.059744831 0.72500002 -0.0114405 1.7049339e-38 273 249
-0.058473669 0.72500002 -0.0114405 1.6867467e-38 274 249
-0.057044696 0.72299999 -0.01140894 1.4838805e-38 275 249
-0.055699892 0.722 -0.01139316 1.0131793e-38 276 249
-0.054283202 0.72000003 -0.011361601 4.4156638e-39 277 249
-0.053020801 0.72000003 -0.011361601 7.1714518e-39 278 249
-0.05168651 0.71899998 -0.01134582 7.3562032e-39 279 249
-0.050215468 0.71600002 -0.01129848 7.3536822e-39 280 249
-0.048754938 0.713 -0.011251139 6.9845396e-39 281 249
-0.047304932 0.70999998 -0.011203799 6.891272e-39 282 249
-0.045930319 0.708 -0.01117224 6.7990763e-39 283 249
-0.044562716 0.70599997 -0.011140679 6.7987232e-39 284 249
-0.043202132 0.704 -0.011109119 6.8909188e-39 285 249
-0.041908171 0.70300001 -0.01109334 6.9831201e-39 286 249
-0.040559858 0.70099998 -0.011061779 7.1675127e-39 287 249
-0.039274666 0.69999999 -0.011045999 7.53774e-39 288 249
-0.037938625 0.69800001 -0.01101444 8.8284788e-39 289 249
-0.0367148 0.69800001 -0.01101444 9.2970352e-39 290 249
-0.035440128 0.69700003 -0.01099866 1.150937e-38 291 249
-0.034218054 0.69700003 -0.01099866 1.2995308e-38 292 249
-0.03299598 0.69700003 -0.01099866 1.4286047e-38 293 249
-0.03177391 0.69700003 -0.01099866 1.4839215e-38 294 249
-0.030507999 0.69599998 -0.010982879 1.2349933e-38 295 249
-0.029287677 0.69599998 -0.010982879 9.0229594e-39 296 249
-0.028067358 0.69599998 -0.010982879 6.165255e-39 297 249
-0.026847038 0.69599998 -0.010982879 7.076036e-39 298 249
-0.025626717 0.69599998 -0.010982879 7.076036e-39 299 249
-0.0244064 0.69599998 -0.010982879 6.8919936e-39 300 249
-0.023219392 0.69700003 -0.01099866 6.7079625e-39 301 249
-0.02199732 0.69700003 -0.01099866 7.0738654e-39 302 249
-0.020775247 0.69700003 -0.01099866 7.0738654e-39 303 249
-0.019553173 0.69700003 -0.01099866 7.0742213e-39 304 249
-0.018331099 0.69700003 -0.01099866 7.1664169e-39 305 249
-0.017109027 0.69700003 -0.01099866 7.0738654e-39 306 249
-0.015864158 0.69599998 -0.010982879 6.9816697e-39 307 249
-0.014643839 0.69599998 -0.010982879 6.7068835e-39 308 249
-0.013423519 0.69599998 -0.010982879 6.7068835e-39 309 249
-0.012168133 0.69400001 -0.01095132 6.0651112e-39 310 249
-0.01095132 0.69400001 -0.01095132 6.0651112e-39 311 249
-0.0097345067 0.69400001 -0.01095132 5.6970518e-39 312 249
