# .PCD v.7 - Point Cloud Data file format
FIELDS x y z rgb imX imY
SIZE 4 4 4 4 4 4
TYPE F F F F F F
COUNT 1 1 1 1 1 1
WIDTH 847
HEIGHT 1
VIEWPOINT 0 0 0 1 0 0 0
POINTS 847
DATA ascii
0.042588469 0.69400001 -0.037721213 5.7863537e-39 355 271
0.043805279 0.69400001 -0.037721213 5.4190117e-39 356 271
0.045022093 0.69400001 -0.037721213 5.234982e-39 357 271
0.046372157 0.69599998 -0.037829921 4.8683589e-39 358 271
0.047592476 0.69599998 -0.037829921 4.8683589e-39 359 271
0.048812799 0.69599998 -0.037829921 4.4099017e-39 360 271
0.050105009 0.69700003 -0.037884273 4.3177061e-39 361 271
0.051327083 0.69700003 -0.037884273 4.4095458e-39 362 271
0.052549154 0.69700003 -0.037884273 4.4095458e-39 363 271
0.053848371 0.69800001 -0.037938625 4.1347595e-39 364 271
0.0550722 0.69800001 -0.037938625 4.2269566e-39 365 271
0.056296028 0.69800001 -0.037938625 4.0436443e-39 366 271
0.05768466 0.69999999 -0.038047329 4.0436443e-39 367 271
0.058996156 0.70099998 -0.038101684 3.9518088e-39 368 271
0.060225245 0.70099998 -0.038101684 3.7677763e-39 369 271
0.061892662 0.70599997 -0.038373452 4.2266006e-39 370 271
0.063219935 0.70700002 -0.038427804 4.1344036e-39 371 271
0.064459547 0.70700002 -0.038427804 4.9673915e-39 372 271
0.065792084 0.708 -0.038482159 8.4708268e-39 373 271
0.067033432 0.708 -0.038482159 1.280652e-38 374 271
-0.0074797203 0.71100003 -0.039891839 1.0131779e-38 314 272
-0.0062330998 0.71100003 -0.039891839 5.0606605e-39 315 272
-0.0049864799 0.71100003 -0.039891839 4.9652377e-39 316 272
-0.0037345996 0.70999998 -0.039835732 4.3198683e-39 317 272
-0.00248272 0.708 -0.039723519 3.6737828e-39 318 272
-0.0012396066 0.70700002 -0.039667413 3.3060779e-39 319 272
0 0.70700002 -0.039667413 3.8570908e-39 320 272
0.0012378532 0.70599997 -0.039611302 3.8570908e-39 321 272
0.0024686933 0.704 -0.039499093 4.4999407e-39 322 272
0.0036977797 0.70300001 -0.039442986 4.7754514e-39 323 272
0.0049163462 0.70099998 -0.039330769 5.5108584e-39 324 272
0.0061366665 0.69999999 -0.039274666 6.0640322e-39 325 272
0.0073429602 0.69800001 -0.039162453 6.4378398e-39 326 272
0.0085545136 0.69700003 -0.039106347 6.6218709e-39 327 272
0.0097625591 0.69599998 -0.039050236 7.3551172e-39 328 272
0.010982879 0.69599998 -0.039050236 6.8944991e-39 329 272
0.012168133 0.69400001 -0.038938027 7.9911329e-39 330 272
0.013384946 0.69400001 -0.038938027 7.8071018e-39 331 272
0.01460176 0.69400001 -0.038938027 7.9900511e-39 332 272
0.015818574 0.69400001 -0.038938027 7.9900511e-39 333 272
0.01701084 0.69300002 -0.03888192 8.448867e-39 334 272
0.018225901 0.69300002 -0.03888192 8.5407039e-39 335 272
0.01944096 0.69300002 -0.03888192 8.9080431e-39 336 272
0.020656019 0.69300002 -0.03888192 9.1842685e-39 337 272
0.021807959 0.69099998 -0.038769703 9.1867782e-39 338 272
0.023019511 0.69099998 -0.038769703 9.7399464e-39 339 272
0.024231065 0.69099998 -0.038769703 9.4666007e-39 340 272
0.025405798 0.69 -0.038713597 8.8212313e-39 341 272
0.026615599 0.69 -0.038713597 9.185702e-39 342 272
0.027825398 0.69 -0.038713597 9.5544803e-39 343 272
0.029035198 0.69 -0.038713597 8.7261658e-39 344 272
0.030244999 0.69 -0.038713597 8.2651947e-39 345 272
0.031500384 0.69099998 -0.038769703 7.8978527e-39 346 272
0.032711938 0.69099998 -0.038769703 7.8978527e-39 347 272
0.033923492 0.69099998 -0.038769703 7.4386752e-39 348 272
0.035135046 0.69099998 -0.038769703 7.1631687e-39 349 272
0.036346599 0.69099998 -0.038769703 6.3366492e-39 350 272
0.037666857 0.69300002 -0.03888192 6.3366492e-39 351 272
0.03888192 0.69300002 -0.03888192 5.969666e-39 352 272
0.04009698 0.69300002 -0.03888192 5.7856363e-39 353 272
0.041312039 0.69300002 -0.03888192 5.5104885e-39 354 272
0.042588469 0.69400001 -0.038938027 5.5104885e-39 355 272
0.043805279 0.69400001 -0.038938027 5.234982e-39 356 272
0.045022093 0.69400001 -0.038938027 5.234982e-39 357 272
0.046238903 0.69400001 -0.038938027 4.6839718e-39 358 272
0.047455717 0.69400001 -0.038938027 4.6839718e-39 359 272
0.048812799 0.69599998 -0.039050236 4.4095458e-39 360 272
0.050033119 0.69599998 -0.039050236 4.4095458e-39 361 272
0.051253434 0.69599998 -0.039050236 4.4099017e-39 362 272
0.052549154 0.69700003 -0.039106347 4.4099017e-39 363 272
0.053771228 0.69700003 -0.039106347 4.2265894e-39 364 272
0.0550722 0.69800001 -0.039162453 4.1340351e-39 365 272
0.056296028 0.69800001 -0.039162453 3.9510885e-39 366 272
0.05768466 0.69999999 -0.039274666 4.0436443e-39 367 272
0.058911994 0.69999999 -0.039274666 3.8588929e-39 368 272
0.060225245 0.70099998 -0.039330769 3.7666973e-39 369 272
0.061717331 0.704 -0.039499093 4.2258804e-39 370 272
0.063130513 0.70599997 -0.039611302 4.3184361e-39 371 272
0.064459547 0.70700002 -0.039667413 4.6911619e-39 372 272
0.065792084 0.708 -0.039723519 7.8258133e-39 373 272
0.067033432 0.708 -0.039723519 1.2714321e-38 374 272
-0.0074797203 0.71100003 -0.041138459 1.0315811e-38 314 273
-0.0062330998 0.71100003 -0.041138459 5.429443e-39 315 273
-0.0049864799 0.71100003 -0.041138459 5.2407357e-39 316 273
-0.0037345996 0.70999998 -0.041080594 4.5953663e-39 317 273
-0.00248272 0.708 -0.040964879 4.0411206e-39 318 273
-0.0012396066 0.70700002 -0.040907022 3.6734198e-39 319 273
0 0.70599997 -0.040849157 3.6734198e-39 320 273
0.0012378532 0.70599997 -0.040849157 3.7652567e-39 321 273
0.0024686933 0.704 -0.040733438 3.9489347e-39 322 273
0.0036977797 0.70300001 -0.040675577 4.224444e-39 323 273
0.0049163462 0.70099998 -0.040559858 4.4081262e-39 324 273
0.0061366665 0.69999999 -0.040502001 5.6066694e-39 325 273
0.0073429602 0.69800001 -0.040386278 5.612042e-39 326 273
0.0085545136 0.69700003 -0.040328421 6.9949765e-39 327 273
0.0097625591 0.69599998 -0.040270556 7.45054e-39 328 273
0.01095132 0.69400001 -0.040154841 6.6207807e-39 329 273
0.012168133 0.69400001 -0.040154841 7.5348239e-39 330 273
0.013384946 0.69400001 -0.040154841 7.4426283e-39 331 273
0.014580719 0.69300002 -0.04009698 7.8088898e-39 332 273
0.015795778 0.69300002 -0.04009698 7.8088898e-39 333 273
0.01701084 0.69300002 -0.04009698 8.266631e-39 334 273
0.018225901 0.69300002 -0.04009698 8.266631e-39 335 273
0.01944096 0.69300002 -0.04009698 8.3588266e-39 336 273
0.020596405 0.69099998 -0.039981257 8.5432179e-39 337 273
0.021807959 0.69099998 -0.039981257 8.6372086e-39 338 273
0.023019511 0.69099998 -0.039981257 8.9137955e-39 339 273
0.024231065 0.69099998 -0.039981257 9.1878586e-39 340 273
0.025442619 0.69099998 -0.039981257 8.727242e-39 341 273
0.026615599 0.69 -0.0399234 8.2666296e-39 342 273
0.027825398 0.69 -0.0399234 8.2666296e-39 343 273
0.029035198 0.69 -0.0399234 7.8978597e-39 344 273
0.030244999 0.69 -0.0399234 7.8060228e-39 345 273
0.031454802 0.69 -0.0399234 7.1631785e-39 346 273
0.032664597 0.69 -0.0399234 6.9795061e-39 347 273
0.0338744 0.69 -0.0399234 6.6121627e-39 348 273
0.035084199 0.69 -0.0399234 6.4284889e-39 349 273
0.036293998 0.69 -0.0399234 6.1529824e-39 350 273
0.03755815 0.69099998 -0.039981257 6.1529824e-39 351 273
0.038769703 0.69099998 -0.039981257 5.6019681e-39 352 273
0.04009698 0.69300002 -0.04009698 5.693805e-39 353 273
0.041312039 0.69300002 -0.04009698 5.5101368e-39 354 273
0.042527102 0.69300002 -0.04009698 5.3264616e-39 355 273
0.043805279 0.69400001 -0.040154841 5.3264644e-39 356 273
0.045022093 0.69400001 -0.040154841 5.1427906e-39 357 273
0.046238903 0.69400001 -0.040154841 4.77545e-39 358 273
0.047455717 0.69400001 -0.040154841 4.8672869e-39 359 273
0.048812799 0.69599998 -0.040270556 4.2262335e-39 360 273
0.050033119 0.69599998 -0.040270556 4.2262335e-39 361 273
0.051253434 0.69599998 -0.040270556 4.1340351e-39 362 273
0.052549154 0.69700003 -0.040328421 4.2265894e-39 363 273
0.053771228 0.69700003 -0.040328421 4.1340379e-39 364 273
0.054993302 0.69700003 -0.040328421 4.2262335e-39 365 273
0.056296028 0.69800001 -0.040386278 3.9510913e-39 366 273
0.05768466 0.69999999 -0.040502001 3.8588957e-39 367 273
0.058911994 0.69999999 -0.040502001 3.5830319e-39 368 273
0.060225245 0.70099998 -0.040559858 3.5830319e-39 369 273
0.061629668 0.70300001 -0.040675577 3.9511054e-39 370 273
0.063130513 0.70599997 -0.040849157 4.3202466e-39 371 273
0.064459547 0.70700002 -0.040907022 4.5067805e-39 372 273
0.065977924 0.70999998 -0.041080594 7.1804537e-39 373 273
0.067222796 0.70999998 -0.041080594 1.2438812e-38 374 273
-0.0074797203 0.71100003 -0.042385083 1.0409086e-38 314 274
-0.0062330998 0.71100003 -0.042385083 5.4301619e-39 315 274
-0.0049794666 0.70999998 -0.042325463 4.7815597e-39 316 274
-0.0037345996 0.70999998 -0.042325463 3.8592432e-39 317 274
-0.00248272 0.708 -0.042206239 3.9489277e-39 318 274
-0.0012396066 0.70700002 -0.042146627 3.6734198e-39 319 274
0 0.70599997 -0.042087011 3.6734198e-39 320 274
0.0012378532 0.70599997 -0.042087011 3.5815844e-39 321 274
0.0024686933 0.704 -0.041967787 4.0407632e-39 322 274
0.0036977797 0.70300001 -0.041908171 4.1326001e-39 323 274
0.0049163462 0.70099998 -0.041788943 4.5917902e-39 324 274
0.0061366665 0.69999999 -0.041729331 5.3275616e-39 325 274
0.0073429602 0.69800001 -0.041610107 5.8861304e-39 326 274
0.0085545136 0.69700003 -0.041550495 7.0846736e-39 327 274
0.0097625591 0.69599998 -0.041490879 7.5456461e-39 328 274
0.01095132 0.69400001 -0.041371655 6.5318529e-39 329 274
0.012168133 0.69400001 -0.041371655 7.4469639e-39 330 274
0.013384946 0.69400001 -0.041371655 7.4469639e-39 331 274
0.014580719 0.69300002 -0.041312039 7.7224619e-39 332 274
0.015795778 0.69300002 -0.041312039 7.6302649e-39 333 274
0.01701084 0.69300002 -0.041312039 7.9954489e-39 334 274
0.0181733 0.69099998 -0.041192811 7.4426339e-39 335 274
0.019384852 0.69099998 -0.041192811 8.175164e-39 336 274
0.020596405 0.69099998 -0.041192811 8.0826097e-39 337 274
0.021807959 0.69099998 -0.041192811 8.5421417e-39 338 274
0.023019511 0.69099998 -0.041192811 8.6343373e-39 339 274
0.024231065 0.69099998 -0.041192811 8.6361338e-39 340 274
0.025442619 0.69099998 -0.041192811 8.3595455e-39 341 274
0.026615599 0.69 -0.041133199 8.0815237e-39 342 274
0.027825398 0.69 -0.041133199 7.8978527e-39 343 274
0.029035198 0.69 -0.041133199 7.6223462e-39 344 274
0.030244999 0.69 -0.041133199 7.3468397e-39 345 274
0.031454802 0.69 -0.041133199 6.8876622e-39 346 274
0.032664597 0.69 -0.041133199 7.1631729e-39 347 274
0.0338744 0.69 -0.041133199 6.6121557e-39 348 274
0.035084199 0.69 -0.041133199 6.7039912e-39 349 274
0.036293998 0.69 -0.041133199 5.8774718e-39 350 274
0.037503798 0.69 -0.041133199 5.8774718e-39 351 274
0.038769703 0.69099998 -0.041192811 5.6019653e-39 352 274
0.04009698 0.69300002 -0.041312039 5.6938008e-39 353 274
0.041312039 0.69300002 -0.041312039 5.3264588e-39 354 274
0.042527102 0.69300002 -0.041312039 5.2346233e-39 355 274
0.043805279 0.69400001 -0.041371655 5.1427934e-39 356 274
0.045022093 0.69400001 -0.041371655 5.2346303e-39 357 274
0.046238903 0.69400001 -0.041371655 4.5921419e-39 358 274
0.047455717 0.69400001 -0.041371655 4.5921419e-39 359 274
0.048672531 0.69400001 -0.041371655 4.1340407e-39 360 274
0.050033119 0.69599998 -0.041490879 4.1340407e-39 361 274
0.051253434 0.69599998 -0.041490879 4.3173501e-39 362 274
0.052549154 0.69700003 -0.041550495 4.3173501e-39 363 274
0.053771228 0.69700003 -0.041550495 3.9507228e-39 364 274
0.054993302 0.69700003 -0.041550495 3.9507228e-39 365 274
0.056215372 0.69700003 -0.041550495 3.6755778e-39 366 274
0.057519849 0.69800001 -0.041610107 3.6755778e-39 367 274
0.058911994 0.69999999 -0.041729331 3.4904705e-39 368 274
0.060139328 0.69999999 -0.041729331 3.7666973e-39 369 274
0.061629668 0.70300001 -0.041908171 3.7677791e-39 370 274
0.062862262 0.70300001 -0.041908171 4.2283985e-39 371 274
0.064368367 0.70599997 -0.042087011 4.6900801e-39 372 274
0.065792084 0.708 -0.042206239 7.2715577e-39 373 274
0.067033432 0.708 -0.042206239 1.2346614e-38 374 274
-0.0074797203 0.71100003 -0.043631699 1.0870059e-38 314 275
-0.0062330998 0.71100003 -0.043631699 5.7996577e-39 315 275
-0.0049794666 0.70999998 -0.043570329 5.1499722e-39 316 275
-0.0037345996 0.70999998 -0.043570329 4.5967985e-39 317 275
-0.00248272 0.708 -0.043447599 4.1336735e-39 318 275
-0.0012396066 0.70700002 -0.043386232 3.6734198e-39 319 275
0 0.70599997 -0.043324865 3.3979134e-39 320 275
0.0012378532 0.70599997 -0.043324865 3.3979134e-39 321 275
0.0024686933 0.704 -0.043202132 3.5815872e-39 322 275
0.0036977797 0.70300001 -0.043140765 3.5815872e-39 323 275
0.0049163462 0.70099998 -0.043018032 3.8571105e-39 324 275
0.0061366665 0.69999999 -0.042956665 4.6854362e-39 325 275
0.0073429602 0.69800001 -0.042833932 5.0581844e-39 326 275
0.0085545136 0.69700003 -0.042772565 6.2563674e-39 327 275
0.0097345067 0.69400001 -0.042588469 7.3619779e-39 328 275
0.01095132 0.69400001 -0.042588469 7.2697823e-39 329 275
0.012168133 0.69400001 -0.042588469 7.8218476e-39 330 275
0.01336566 0.69300002 -0.042527102 7.9140433e-39 331 275
0.014580719 0.69300002 -0.042527102 8.3724977e-39 332 275
0.015795778 0.69300002 -0.042527102 8.188105e-39 333 275
0.01701084 0.69300002 -0.042527102 8.275263e-39 334 275
0.0181733 0.69099998 -0.042404365 7.6298936e-39 335 275
0.019384852 0.69099998 -0.042404365 7.7174229e-39 336 275
0.020596405 0.69099998 -0.042404365 7.5330316e-39 337 275
0.021776399 0.69 -0.042342998 7.9000163e-39 338 275
0.022986198 0.69 -0.042342998 8.176243e-39 339 275
0.024195999 0.69 -0.042342998 8.2680729e-39 340 275
0.025442619 0.69099998 -0.042404365 7.8074549e-39 341 275
0.026654173 0.69099998 -0.042404365 7.438678e-39 342 275
0.027865725 0.69099998 -0.042404365 7.0713332e-39 343 275
0.029035198 0.69 -0.042342998 6.3366534e-39 344 275
0.030244999 0.69 -0.042342998 6.2448165e-39 345 275
0.031454802 0.69 -0.042342998 6.061147e-39 346 275
0.032664597 0.69 -0.042342998 6.061147e-39 347 275
0.0338744 0.69 -0.042342998 5.8774746e-39 348 275
0.035084199 0.69 -0.042342998 5.9693115e-39 349 275
0.036293998 0.69 -0.042342998 5.6938022e-39 350 275
0.037503798 0.69 -0.042342998 5.6019653e-39 351 275
0.038713597 0.69 -0.042342998 5.3264588e-39 352 275
0.039981257 0.69099998 -0.042404365 5.3264588e-39 353 275
0.041192811 0.69099998 -0.042404365 5.3264644e-39 354 275
0.042527102 0.69300002 -0.042527102 5.2346275e-39 355 275
0.043742158 0.69300002 -0.042527102 4.8672883e-39 356 275
0.045022093 0.69400001 -0.042588469 5.0509607e-39 357 275
0.046238903 0.69400001 -0.042588469 4.4088297e-39 358 275
0.047455717 0.69400001 -0.042588469 4.5010253e-39 359 275
0.048672531 0.69400001 -0.042588469 4.0418422e-39 360 275
0.050033119 0.69599998 -0.042711195 4.1340379e-39 361 275
0.051253434 0.69599998 -0.042711195 4.133319e-39 362 275
0.052473757 0.69599998 -0.042711195 4.133319e-39 363 275
0.053771228 0.69700003 -0.042772565 3.85853e-39 364 275
0.054993302 0.69700003 -0.042772565 3.85853e-39 365 275
0.056215372 0.69700003 -0.042772565 3.7666973e-39 366 275
0.057519849 0.69800001 -0.042833932 3.6745016e-39 367 275
0.058911994 0.69999999 -0.042956665 3.4908335e-39 368 275
0.060139328 0.69999999 -0.042956665 3.5833878e-39 369 275
0.061629668 0.70300001 -0.043140765 3.7681434e-39 370 275
0.062862262 0.70300001 -0.043140765 3.9528934e-39 371 275
0.064094849 0.70300001 -0.043140765 4.5993292e-39 372 275
0.065141588 0.70099998 -0.043018032 7.1808068e-39 373 275
0.066370681 0.70099998 -0.043018032 1.2345898e-38 374 275
-0.0074797203 0.71100003 -0.044878319 1.1238121e-38 314 276
-0.0062330998 0.71100003 -0.044878319 6.2595582e-39 315 276
-0.0049794666 0.70999998 -0.044815198 5.3350824e-39 316 276
-0.0037345996 0.70999998 -0.044815198 4.78191e-39 317 276
-0.00248272 0.708 -0.044688959 4.3198556e-39 318 276
-0.0012396066 0.70700002 -0.044625837 3.674496e-39 319 276
0 0.70599997 -0.044562716 3.4897489e-39 320 276
0.0012343467 0.704 -0.044436477 3.4897489e-39 321 276
0.0024686933 0.704 -0.044436477 3.4897489e-39 322 276
0.0036977797 0.70300001 -0.04437336 3.4897489e-39 323 276
0.0049163462 0.70099998 -0.044247117 3.9489361e-39 324 276
0.0061366665 0.69999999 -0.044183996 4.4091954e-39 325 276
0.0073429602 0.69800001 -0.04405776 4.5954084e-39 326 276
0.0085545136 0.69700003 -0.043994639 5.425169e-39 327 276
0.0097345067 0.69400001 -0.043805279 6.3482142e-39 328 276
0.01095132 0.69400001 -0.043805279 7.823703e-39 329 276
0.012168133 0.69400001 -0.043805279 8.4701388e-39 330 276
0.01336566 0.69300002 -0.043742158 8.4701388e-39 331 276
0.014580719 0.69300002 -0.043742158 9.0207916e-39 332 276
0.015795778 0.69300002 -0.043742158 8.928596e-39 333 276
0.01701084 0.69300002 -0.043742158 8.2788951e-39 334 276
0.0181733 0.69099998 -0.043615919 7.1725476e-39 335 276
0.019384852 0.69099998 -0.043615919 7.3522473e-39 336 276
0.020596405 0.69099998 -0.043615919 6.8916279e-39 337 276
0.021776399 0.69 -0.043552797 7.5326757e-39 338 276
0.022986198 0.69 -0.043552797 7.6248713e-39 339 276
0.024195999 0.69 -0.043552797 7.6241525e-39 340 276
0.025405798 0.69 -0.043552797 7.1631729e-39 341 276
0.026615599 0.69 -0.043552797 6.8876636e-39 342 276
0.027825398 0.69 -0.043552797 6.7039912e-39 343 276
0.029035198 0.69 -0.043552797 5.9693073e-39 344 276
0.030244999 0.69 -0.043552797 5.9693073e-39 345 276
0.031454802 0.69 -0.043552797 5.6938008e-39 346 276
0.032664597 0.69 -0.043552797 5.8774746e-39 347 276
0.0338744 0.69 -0.043552797 5.6019667e-39 348 276
0.035084199 0.69 -0.043552797 5.7856391e-39 349 276
0.036293998 0.69 -0.043552797 5.4182971e-39 350 276
0.037503798 0.69 -0.043552797 5.4182971e-39 351 276
0.038713597 0.69 -0.043552797 5.2346275e-39 352 276
0.039981257 0.69099998 -0.043615919 5.2346275e-39 353 276
0.041192811 0.69099998 -0.043615919 5.0509593e-39 354 276
0.042527102 0.69300002 -0.043742158 5.0509593e-39 355 276
0.043742158 0.69300002 -0.043742158 4.7754528e-39 356 276
0.045022093 0.69400001 -0.043805279 4.8672897e-39 357 276
0.046238903 0.69400001 -0.043805279 4.3173529e-39 358 276
0.047455717 0.69400001 -0.043805279 4.3173529e-39 359 276
0.048672531 0.69400001 -0.043805279 4.0414863e-39 360 276
0.050033119 0.69599998 -0.043931518 4.0414863e-39 361 276
0.051253434 0.69599998 -0.043931518 4.1340407e-39 362 276
0.052473757 0.69599998 -0.043931518 4.1340407e-39 363 276
0.053771228 0.69700003 -0.043994639 3.9496466e-39 364 276
0.054993302 0.69700003 -0.043994639 3.9496466e-39 365 276
0.056215372 0.69700003 -0.043994639 3.857095e-39 366 276
0.057519849 0.69800001 -0.04405776 3.857095e-39 367 276
0.058911994 0.69999999 -0.044183996 3.3986378e-39 368 276
0.060139328 0.69999999 -0.044183996 3.5833878e-39 369 276
0.061629668 0.70300001 -0.04437336 3.9518116e-39 370 276
0.062862262 0.70300001 -0.04437336 4.0440072e-39 371 276
0.064094849 0.70300001 -0.04437336 4.9677446e-39 372 276
0.065141588 0.70099998 -0.044247117 7.6414179e-39 373 276
0.066370681 0.70099998 -0.044247117 1.2529566e-38 374 276
-0.0075007593 0.713 -0.046254687 1.1606547e-38 314 277
-0.0062330998 0.71100003 -0.046124939 6.7205378e-39 315 277
-0.0049864799 0.71100003 -0.046124939 5.7056628e-39 316 277
-0.0037345996 0.70999998 -0.046060063 5.1524904e-39 317 277
-0.0024897333 0.70999998 -0.046060063 4.5053217e-39 318 277
-0.0012396066 0.70700002 -0.045865446 3.8599607e-39 319 277
0 0.70599997 -0.04580057 3.4908251e-39 320 277
0.0012343467 0.704 -0.045670826 3.3064366e-39 321 277
0.0024686933 0.704 -0.045670826 3.3060779e-39 322 277
0.0036977797 0.70300001 -0.04560595 3.3060779e-39 323 277
0.0049163462 0.70099998 -0.045476202 3.7652609e-39 324 277
0.0061366665 0.69999999 -0.04541133 3.8570992e-39 325 277
0.0073429602 0.69800001 -0.045281585 4.2244566e-39 326 277
0.0085545136 0.69700003 -0.045216713 4.6836397e-39 327 277
0.0097345067 0.69400001 -0.045022093 5.1507458e-39 328 277
0.01095132 0.69400001 -0.045022093 7.086854e-39 329 277
0.012168133 0.69400001 -0.045022093 7.8265742e-39 330 277
0.013384946 0.69400001 -0.045022093 8.1949966e-39 331 277
0.014580719 0.69300002 -0.044957221 8.6527322e-39 332 277
0.015795778 0.69300002 -0.044957221 8.1921127e-39 333 277
0.01701084 0.69300002 -0.044957221 7.4498604e-39 334 277
0.0181733 0.69099998 -0.044827472 6.7122953e-39 335 277
0.019384852 0.69099998 -0.044827472 7.0756674e-39 336 277
0.020566599 0.69 -0.0447626 6.7990791e-39 337 277
0.021776399 0.69 -0.0447626 7.0742185e-39 338 277
0.022986198 0.69 -0.0447626 7.0742185e-39 339 277
0.024195999 0.69 -0.0447626 7.072422e-39 340 277
0.025405798 0.69 -0.0447626 6.5203258e-39 341 277
0.026615599 0.69 -0.0447626 6.5203216e-39 342 277
0.027825398 0.69 -0.0447626 6.4284847e-39 343 277
0.029035198 0.69 -0.0447626 5.6019653e-39 344 277
0.030244999 0.69 -0.0447626 5.6019653e-39 345 277
0.031454802 0.69 -0.0447626 5.2346233e-39 346 277
0.032664597 0.69 -0.0447626 5.2346233e-39 347 277
0.0338744 0.69 -0.0447626 5.3264602e-39 348 277
0.035084199 0.69 -0.0447626 5.3264602e-39 349 277
0.036293998 0.69 -0.0447626 5.4182999e-39 350 277
0.037503798 0.69 -0.0447626 5.326463e-39 351 277
0.038713597 0.69 -0.0447626 5.2346275e-39 352 277
0.039981257 0.69099998 -0.044827472 5.2346275e-39 353 277
0.041192811 0.69099998 -0.044827472 4.9591182e-39 354 277
0.042527102 0.69300002 -0.044957221 5.2346275e-39 355 277
0.043742158 0.69300002 -0.044957221 4.4999463e-39 356 277
0.045022093 0.69400001 -0.045022093 4.4999463e-39 357 277
0.046238903 0.69400001 -0.045022093 4.4999463e-39 358 277
0.047455717 0.69400001 -0.045022093 4.4999463e-39 359 277
0.048672531 0.69400001 -0.045022093 4.1333218e-39 360 277
0.050033119 0.69599998 -0.045151837 4.1333218e-39 361 277
0.051253434 0.69599998 -0.045151837 4.133319e-39 362 277
0.052473757 0.69599998 -0.045151837 4.0411234e-39 363 277
0.053771228 0.69700003 -0.045216713 3.8570936e-39 364 277
0.054993302 0.69700003 -0.045216713 3.7652553e-39 365 277
0.056215372 0.69700003 -0.045216713 3.58159e-39 366 277
0.057519849 0.69800001 -0.045281585 3.58159e-39 367 277
0.058911994 0.69999999 -0.04541133 3.3986406e-39 368 277
0.060139328 0.69999999 -0.04541133 3.6752275e-39 369 277
0.061629668 0.70300001 -0.04560595 4.0440072e-39 370 277
0.062862262 0.70300001 -0.04560595 4.0440072e-39 371 277
0.064094849 0.70300001 -0.04560595 5.6123923e-39 372 277
0.065327443 0.70300001 -0.04560595 8.2860656e-39 373 277
0.066560037 0.70300001 -0.04560595 1.2622478e-38 374 277
-0.0075007593 0.713 -0.047504812 1.2067881e-38 314 278
-0.0062506334 0.713 -0.047504812 7.2737087e-39 315 278
-0.0049864799 0.71100003 -0.047371563 5.8882561e-39 316 278
-0.0037345996 0.70999998 -0.047304932 5.3350824e-39 317 278
-0.0024897333 0.70999998 -0.047304932 4.8730224e-39 318 278
-0.0012396066 0.70700002 -0.047105055 4.2280201e-39 319 278
0 0.70599997 -0.047038425 4.1347497e-39 320 278
0.0012378532 0.70599997 -0.047038425 3.6737786e-39 321 278
0.0024686933 0.704 -0.046905171 3.5815844e-39 322 278
0.0037030398 0.704 -0.046905171 3.5815844e-39 323 278
0.0049303733 0.70300001 -0.046838548 3.6734198e-39 324 278
0.0061366665 0.69999999 -0.046638668 3.8570908e-39 325 278
0.0073429602 0.69800001 -0.046505414 4.1326029e-39 326 278
0.0085545136 0.69700003 -0.046438783 4.0407646e-39 327 278
0.0097625591 0.69599998 -0.046372157 5.3286406e-39 328 278
0.01095132 0.69400001 -0.046238903 6.9878032e-39 329 278
0.012168133 0.69400001 -0.046238903 7.36055e-39 330 278
0.013384946 0.69400001 -0.046238903 7.8218883e-39 331 278
0.014580719 0.69300002 -0.04617228 7.9130049e-39 332 278
0.015795778 0.69300002 -0.04617228 7.5442238e-39 333 278
0.01701084 0.69300002 -0.04617228 7.0785555e-39 334 278
0.0181733 0.69099998 -0.046039023 6.7097744e-39 335 278
0.019384852 0.69099998 -0.046039023 6.6154109e-39 336 278
0.020566599 0.69 -0.045972396 6.6154109e-39 337 278
0.021776399 0.69 -0.045972396 6.6161172e-39 338 278
0.022986198 0.69 -0.045972396 6.4313672e-39 339 278
0.024195999 0.69 -0.045972396 6.5217636e-39 340 278
0.025405798 0.69 -0.045972396 5.9693073e-39 341 278
0.026615599 0.69 -0.045972396 5.9693073e-39 342 278
0.027825398 0.69 -0.045972396 5.7856363e-39 343 278
0.029035198 0.69 -0.045972396 5.4182943e-39 344 278
0.030244999 0.69 -0.045972396 5.4182943e-39 345 278
0.031454802 0.69 -0.045972396 5.1427878e-39 346 278
0.032664597 0.69 -0.045972396 5.1427878e-39 347 278
0.0338744 0.69 -0.045972396 5.0509565e-39 348 278
0.035084199 0.69 -0.045972396 5.1427934e-39 349 278
0.036293998 0.69 -0.045972396 5.2346247e-39 350 278
0.037503798 0.69 -0.045972396 5.2346247e-39 351 278
0.038713597 0.69 -0.045972396 5.3264602e-39 352 278
0.039981257 0.69099998 -0.046039023 5.2346233e-39 353 278
0.041192811 0.69099998 -0.046039023 4.9591196e-39 354 278
0.042527102 0.69300002 -0.04617228 4.9591196e-39 355 278
0.043742158 0.69300002 -0.04617228 4.6836159e-39 356 278
0.045022093 0.69400001 -0.046238903 4.6836159e-39 357 278
0.046238903 0.69400001 -0.046238903 4.2244398e-39 358 278
0.047455717 0.69400001 -0.046238903 4.4081122e-39 359 278
0.048672531 0.69400001 -0.046238903 3.9492935e-39 360 278
0.050033119 0.69599998 -0.046372157 3.9492935e-39 361 278
0.051253434 0.69599998 -0.046372157 3.9492935e-39 362 278
0.052549154 0.69700003 -0.046438783 3.8570978e-39 363 278
0.053771228 0.69700003 -0.046438783 3.6734241e-39 364 278
0.0550722 0.69800001 -0.046505414 3.5815872e-39 365 278
0.056296028 0.69800001 -0.046505414 3.4897531e-39 366 278
0.05768466 0.69999999 -0.046638668 3.58159e-39 367 278
0.058911994 0.69999999 -0.046638668 3.4908335e-39 368 278
0.060225245 0.70099998 -0.046705291 3.6755835e-39 369 278
0.061629668 0.70300001 -0.046838548 3.8603419e-39 370 278
0.062862262 0.70300001 -0.046838548 4.229123e-39 371 278
0.064094849 0.70300001 -0.046838548 5.8896995e-39 372 278
0.065420374 0.704 -0.046905171 8.4711771e-39 373 278
0.066654719 0.704 -0.046905171 1.2714307e-38 374 278
-0.0075007593 0.713 -0.048754938 1.252886e-38 314 279
-0.0062506334 0.713 -0.048754938 7.8268825e-39 315 279
-0.0049864799 0.71100003 -0.048618179 5.8882533e-39 316 279
-0.0037345996 0.70999998 -0.048549797 5.2428839e-39 317 279
-0.00248272 0.708 -0.048413038 5.0574235e-39 318 279
-0.0012396066 0.70700002 -0.048344657 4.4120541e-39 319 279
0 0.70599997 -0.048276275 4.0439904e-39 320 279
0.0012378532 0.70599997 -0.048276275 3.7674077e-39 321 279
0.0024686933 0.704 -0.048139516 3.6741373e-39 322 279
0.0037030398 0.704 -0.048139516 3.1224069e-39 323 279
0.0049303733 0.70300001 -0.048071139 3.3060863e-39 324 279
0.0061454331 0.70099998 -0.047934376 5.5184241e-39 325 279
0.0073429602 0.69800001 -0.047729239 6.3471057e-39 326 279
0.0085545136 0.69700003 -0.047660861 6.3471057e-39 327 279
0.0097345067 0.69400001 -0.047455717 7.9976223e-39 328 279
0.01095132 0.69400001 -0.047455717 8.0898179e-39 329 279
0.012168133 0.69400001 -0.047455717 7.9086707e-39 330 279
0.013384946 0.69400001 -0.047455717 8.0008663e-39 331 279
0.014580719 0.69300002 -0.047387339 8.1823821e-39 332 279
0.015795778 0.69300002 -0.047387339 7.7214054e-39 333 279
0.01701084 0.69300002 -0.047387339 7.0756702e-39 334 279
0.0181733 0.69099998 -0.047250576 6.7065276e-39 335 279
0.019384852 0.69099998 -0.047250576 6.4313728e-39 336 279
0.020566599 0.69 -0.047182199 6.4313728e-39 337 279
0.021776399 0.69 -0.047182199 6.43137e-39 338 279
0.022986198 0.69 -0.047182199 6.339173e-39 339 279
0.024195999 0.69 -0.047182199 6.0615113e-39 340 279
0.025405798 0.69 -0.047182199 5.5101312e-39 341 279
0.026654173 0.69099998 -0.047250576 5.6938008e-39 342 279
0.027865725 0.69099998 -0.047250576 5.6938008e-39 343 279
0.029035198 0.69 -0.047182199 5.3264588e-39 344 279
0.030244999 0.69 -0.047182199 5.1427878e-39 345 279
0.031454802 0.69 -0.047182199 5.0509523e-39 346 279
0.032664597 0.69 -0.047182199 5.0509523e-39 347 279
0.0338744 0.69 -0.047182199 4.9591168e-39 348 279
0.035084199 0.69 -0.047182199 5.1427878e-39 349 279
0.036293998 0.69 -0.047182199 5.2346233e-39 350 279
0.037503798 0.69 -0.047182199 5.2346233e-39 351 279
0.038713597 0.69 -0.047182199 5.3264616e-39 352 279
0.039981257 0.69099998 -0.047250576 5.1427878e-39 353 279
0.041312039 0.69300002 -0.047387339 4.8672827e-39 354 279
0.042527102 0.69300002 -0.047387339 4.8672827e-39 355 279
0.043742158 0.69300002 -0.047387339 4.6836131e-39 356 279
0.045022093 0.69400001 -0.047455717 4.5917762e-39 357 279
0.046238903 0.69400001 -0.047455717 4.2244356e-39 358 279
0.047455717 0.69400001 -0.047455717 4.1325987e-39 359 279
0.048672531 0.69400001 -0.047455717 3.8570908e-39 360 279
0.050033119 0.69599998 -0.047592476 3.8570908e-39 361 279
0.051327083 0.69700003 -0.047660861 3.7652553e-39 362 279
0.052549154 0.69700003 -0.047660861 3.6734198e-39 363 279
0.053771228 0.69700003 -0.047660861 3.5815844e-39 364 279
0.0550722 0.69800001 -0.047729239 3.5815844e-39 365 279
0.056296028 0.69800001 -0.047729239 3.4897503e-39 366 279
0.05768466 0.69999999 -0.047865998 3.6734255e-39 367 279
0.058996156 0.70099998 -0.047934376 3.7666973e-39 368 279
0.060225245 0.70099998 -0.047934376 3.9510885e-39 369 279
0.061629668 0.70300001 -0.048071139 4.1369119e-39 370 279
0.062862262 0.70300001 -0.048071139 4.2291076e-39 371 279
0.064094849 0.70300001 -0.048071139 6.6261743e-39 372 279
0.065420374 0.704 -0.048139516 9.2998476e-39 373 279
0.066654719 0.704 -0.048139516 1.2804352e-38 374 279
-0.0062330998 0.71100003 -0.049864799 8.8413904e-39 315 280
-0.0049864799 0.71100003 -0.049864799 6.9013137e-39 316 280
-0.0037345996 0.70999998 -0.049794663 5.9793574e-39 317 280
-0.00248272 0.708 -0.049654398 5.7009754e-39 318 280
-0.0012396066 0.70700002 -0.049584266 5.14781e-39 319 280
0 0.70599997 -0.04951413 4.0443492e-39 320 280
0.0012378532 0.70599997 -0.04951413 3.8599607e-39 321 280
0.0024686933 0.704 -0.049373865 3.4908251e-39 322 280
0.0037030398 0.704 -0.049373865 3.6748548e-39 323 280
0.0049303733 0.70300001 -0.049303733 4.5979125e-39 324 280
0.0061454331 0.70099998 -0.049163464 7.7322052e-39 325 280
0.0073639993 0.69999999 -0.049093332 8.197135e-39 326 280
0.0085545136 0.69700003 -0.048882935 7.4592112e-39 327 280
0.0097345067 0.69400001 -0.048672531 8.4664968e-39 328 280
0.01095132 0.69400001 -0.048672531 8.0973555e-39 329 280
0.012168133 0.69400001 -0.048672531 8.4603899e-39 330 280
0.013384946 0.69400001 -0.048672531 7.9075749e-39 331 280
0.014580719 0.69300002 -0.048602402 7.9947483e-39 332 280
0.015795778 0.69300002 -0.048602402 7.9025526e-39 333 280
0.01701084 0.69300002 -0.048602402 7.7167166e-39 334 280
0.0181733 0.69099998 -0.04846213 7.5323254e-39 335 280
0.019384852 0.69099998 -0.04846213 6.706159e-39 336 280
0.020566599 0.69 -0.048391998 6.613962e-39 337 280
0.021776399 0.69 -0.048391998 5.8799969e-39 338 280
0.022986198 0.69 -0.048391998 5.6956056e-39 339 280
0.024195999 0.69 -0.048391998 5.5101368e-39 340 280
0.025405798 0.69 -0.048391998 5.2346247e-39 341 280
0.026654173 0.69099998 -0.04846213 5.2346233e-39 342 280
0.027865725 0.69099998 -0.04846213 5.1427878e-39 343 280
0.029077278 0.69099998 -0.04846213 5.1427878e-39 344 280
0.030288832 0.69099998 -0.04846213 4.8672813e-39 345 280
0.031500384 0.69099998 -0.04846213 4.9591168e-39 346 280
0.032711938 0.69099998 -0.04846213 5.1427878e-39 347 280
0.033923492 0.69099998 -0.04846213 4.6836103e-39 348 280
0.035084199 0.69 -0.048391998 4.6836103e-39 349 280
0.036293998 0.69 -0.048391998 4.8672827e-39 350 280
0.037503798 0.69 -0.048391998 4.7754458e-39 351 280
0.038769703 0.69099998 -0.04846213 4.9591168e-39 352 280
0.039981257 0.69099998 -0.04846213 4.9591168e-39 353 280
0.041312039 0.69300002 -0.048602402 4.9591168e-39 354 280
0.042527102 0.69300002 -0.048602402 4.9591168e-39 355 280
0.043742158 0.69300002 -0.048602402 4.500298e-39 356 280
0.045022093 0.69400001 -0.048672531 4.4081038e-39 357 280
0.046238903 0.69400001 -0.048672531 3.9489263e-39 358 280
0.047455717 0.69400001 -0.048672531 3.9489263e-39 359 280
0.048812799 0.69599998 -0.048812799 3.4897489e-39 360 280
0.050033119 0.69599998 -0.048812799 3.4897489e-39 361 280
0.051327083 0.69700003 -0.048882935 3.3060779e-39 362 280
0.052549154 0.69700003 -0.048882935 3.2142424e-39 363 280
0.053771228 0.69700003 -0.048882935 3.3060793e-39 364 280
0.0550722 0.69800001 -0.048953064 3.4897517e-39 365 280
0.056296028 0.69800001 -0.048953064 3.1224069e-39 366 280
0.05768466 0.69999999 -0.049093332 3.3989938e-39 367 280
0.058996156 0.70099998 -0.049163464 3.6755806e-39 368 280
0.060225245 0.70099998 -0.049163464 3.7677763e-39 369 280
0.061629668 0.70300001 -0.049303733 4.2298208e-39 370 280
0.062951677 0.704 -0.049373865 4.4145708e-39 371 280
0.064186029 0.704 -0.049373865 7.272264e-39 372 280
0.065420374 0.704 -0.049373865 9.8537402e-39 373 280
0.066654719 0.704 -0.049373865 1.2897272e-38 374 280
-0.0050005065 0.713 -0.051255193 7.7296478e-39 316 281
-0.0037345996 0.70999998 -0.051039528 5.8857366e-39 317 281
-0.00248272 0.708 -0.050895758 5.3350852e-39 318 281
-0.0012396066 0.70700002 -0.050823875 4.5971614e-39 319 281
0 0.70599997 -0.050751984 3.9535941e-39 320 281
0.0012378532 0.70599997 -0.050751984 3.49226e-39 321 281
0.0024686933 0.704 -0.050608214 3.3060779e-39 322 281
0.0037030398 0.704 -0.050608214 4.8723232e-39 323 281
0.0049303733 0.70300001 -0.050536323 7.3662967e-39 324 281
0.0061366665 0.69999999 -0.050320663 9.9477744e-39 325 281
0.0073639993 0.69999999 -0.050320663 8.1124924e-39 326 281
0.0085667865 0.69800001 -0.050176892 7.5593186e-39 327 281
0.0097765867 0.69700003 -0.050105009 8.9332525e-39 328 281
0.01095132 0.69400001 -0.049889345 8.1031331e-39 329 281
0.012168133 0.69400001 -0.049889345 8.650179e-39 330 281
0.013384946 0.69400001 -0.049889345 7.9122538e-39 331 281
0.014580719 0.69300002 -0.049817458 8.0019201e-39 332 281
0.015795778 0.69300002 -0.049817458 7.3565507e-39 333 281
0.01701084 0.69300002 -0.049817458 7.6298964e-39 334 281
0.0181733 0.69099998 -0.049673684 7.3529508e-39 335 281
0.019384852 0.69099998 -0.049673684 6.9838207e-39 336 281
0.020566599 0.69 -0.049601797 6.4306469e-39 337 281
0.021776399 0.69 -0.049601797 5.8785648e-39 338 281
0.022986198 0.69 -0.049601797 5.602338e-39 339 281
0.024195999 0.69 -0.049601797 5.1427962e-39 340 281
0.025405798 0.69 -0.049601797 5.0509593e-39 341 281
0.026654173 0.69099998 -0.049673684 5.1427878e-39 342 281
0.027865725 0.69099998 -0.049673684 5.1427878e-39 343 281
0.029077278 0.69099998 -0.049673684 4.9591168e-39 344 281
0.030288832 0.69099998 -0.049673684 4.8672813e-39 345 281
0.031500384 0.69099998 -0.049673684 4.8672813e-39 346 281
0.032711938 0.69099998 -0.049673684 4.8672813e-39 347 281
0.033923492 0.69099998 -0.049673684 4.6836103e-39 348 281
0.035135046 0.69099998 -0.049673684 4.7754458e-39 349 281
0.036346599 0.69099998 -0.049673684 4.6836103e-39 350 281
0.03755815 0.69099998 -0.049673684 4.5917748e-39 351 281
0.038769703 0.69099998 -0.049673684 4.7754458e-39 352 281
0.039981257 0.69099998 -0.049673684 4.7754458e-39 353 281
0.041312039 0.69300002 -0.049817458 4.6836103e-39 354 281
0.042527102 0.69300002 -0.049817458 4.7754458e-39 355 281
0.043742158 0.69300002 -0.049817458 4.500298e-39 356 281
0.045022093 0.69400001 -0.049889345 4.4081038e-39 357 281
0.046238903 0.69400001 -0.049889345 3.8574496e-39 358 281
0.047455717 0.69400001 -0.049889345 3.5815844e-39 359 281
0.048812799 0.69599998 -0.050033119 3.4897489e-39 360 281
0.050033119 0.69599998 -0.050033119 3.3979134e-39 361 281
0.051327083 0.69700003 -0.050105009 3.3060779e-39 362 281
0.052549154 0.69700003 -0.050105009 3.4897489e-39 363 281
0.053848371 0.69800001 -0.050176892 3.2142424e-39 364 281
0.0550722 0.69800001 -0.050176892 3.2142424e-39 365 281
0.056457333 0.69999999 -0.050320663 3.3982749e-39 366 281
0.057767071 0.70099998 -0.050392549 3.4904705e-39 367 281
0.059164476 0.70300001 -0.050536323 3.584457e-39 368 281
0.06039707 0.70300001 -0.050536323 3.8610453e-39 369 281
0.061717331 0.704 -0.050608214 4.1390601e-39 370 281
0.062951677 0.704 -0.050608214 4.2312557e-39 371 281
0.064186029 0.704 -0.050608214 7.9176292e-39 372 281
0.065420374 0.704 -0.050608214 1.0315076e-38 373 281
0.066654719 0.704 -0.050608214 1.2989821e-38 374 281
-0.0049864799 0.71100003 -0.052358042 8.2824657e-39 316 282
-0.0037398601 0.71100003 -0.052358042 5.8857394e-39 317 282
-0.0024897333 0.70999998 -0.052284397 5.0602933e-39 318 282
-0.0012396066 0.70700002 -0.05206348 4.507121e-39 319 282
0 0.70700002 -0.05206348 4.5053217e-39 320 282
0.0012378532 0.70599997 -0.051989835 3.9521549e-39 321 282
0.0024757064 0.70599997 -0.051989835 3.0305714e-39 322 282
0.0037030398 0.704 -0.051842559 4.6890109e-39 323 282
0.0049303733 0.70300001 -0.051768921 7.0039812e-39 324 282
0.0061366665 0.69999999 -0.051547997 8.3869156e-39 325 282
0.0073639993 0.69999999 -0.051547997 7.1923311e-39 326 282
0.0085667865 0.69800001 -0.051400717 6.9157456e-39 327 282
0.0097765867 0.69700003 -0.051327083 8.2925676e-39 328 282
0.01095132 0.69400001 -0.051106159 7.8315909e-39 329 282
0.012168133 0.69400001 -0.051106159 8.1052869e-39 330 282
0.013384946 0.69400001 -0.051106159 7.5521131e-39 331 282
0.01460176 0.69400001 -0.051106159 8.1002254e-39 332 282
0.015795778 0.69300002 -0.051032521 7.6392486e-39 333 282
0.01701084 0.69300002 -0.051032521 8.6454748e-39 334 282
0.0181733 0.69099998 -0.050885238 8.0001054e-39 335 282
0.019384852 0.69099998 -0.050885238 8.0872788e-39 336 282
0.020596405 0.69099998 -0.050885238 7.2575181e-39 337 282
0.021776399 0.69 -0.050811596 6.1537069e-39 338 282
0.022986198 0.69 -0.050811596 6.0615113e-39 339 282
0.024195999 0.69 -0.050811596 5.0509579e-39 340 282
0.025405798 0.69 -0.050811596 4.7754486e-39 341 282
0.026615599 0.69 -0.050811596 4.7754458e-39 342 282
0.027825398 0.69 -0.050811596 4.7754458e-39 343 282
0.029077278 0.69099998 -0.050885238 4.8672813e-39 344 282
0.030288832 0.69099998 -0.050885238 4.7754458e-39 345 282
0.031500384 0.69099998 -0.050885238 4.5917748e-39 346 282
0.032711938 0.69099998 -0.050885238 4.4999393e-39 347 282
0.033923492 0.69099998 -0.050885238 4.3162683e-39 348 282
0.035135046 0.69099998 -0.050885238 4.4081038e-39 349 282
0.036346599 0.69099998 -0.050885238 4.4081038e-39 350 282
0.03755815 0.69099998 -0.050885238 4.5002994e-39 351 282
0.038769703 0.69099998 -0.050885238 4.5917762e-39 352 282
0.04009698 0.69300002 -0.051032521 4.4999393e-39 353 282
0.041312039 0.69300002 -0.051032521 4.6836103e-39 354 282
0.042588469 0.69400001 -0.051106159 4.6836103e-39 355 282
0.043805279 0.69400001 -0.051106159 4.2244342e-39 356 282
0.045022093 0.69400001 -0.051106159 4.1325973e-39 357 282
0.046238903 0.69400001 -0.051106159 3.6734198e-39 358 282
0.047455717 0.69400001 -0.051106159 3.5815844e-39 359 282
0.048812799 0.69599998 -0.051253434 3.3060779e-39 360 282
0.050105009 0.69700003 -0.051327083 3.3060779e-39 361 282
0.051327083 0.69700003 -0.051327083 3.2142424e-39 362 282
0.052549154 0.69700003 -0.051327083 3.3060779e-39 363 282
0.053848371 0.69800001 -0.051400717 3.0305714e-39 364 282
0.055229999 0.69999999 -0.051547997 3.1224069e-39 365 282
0.056457333 0.69999999 -0.051547997 3.2153228e-39 366 282
0.057767071 0.70099998 -0.051621638 3.4919083e-39 367 282
0.059164476 0.70300001 -0.051768921 3.9521647e-39 368 282
0.060482983 0.704 -0.051842559 4.2287516e-39 369 282
0.061717331 0.704 -0.051842559 4.4152883e-39 370 282
0.062951677 0.704 -0.051842559 4.1390601e-39 371 282
0.064186029 0.704 -0.051842559 8.3789647e-39 372 282
0.065420374 0.704 -0.051842559 1.0868247e-38 373 282
0.066654719 0.704 -0.051842559 1.2989818e-38 374 282
-0.0050075199 0.71399999 -0.053830836 8.8356394e-39 316 283
-0.0037556398 0.71399999 -0.053830836 5.977935e-39 317 283
-0.0024897333 0.70999998 -0.053529263 5.3354467e-39 318 283
-0.0012396066 0.70700002 -0.053303085 4.9670229e-39 319 283
0 0.70700002 -0.053303085 4.5978803e-39 320 283
0.0012396066 0.70700002 -0.053303085 4.0450666e-39 321 283
0.0024757064 0.70599997 -0.053227689 3.3979134e-39 322 283
0.0037030398 0.704 -0.053076904 5.2403854e-39 323 283
0.0049373866 0.704 -0.053076904 7.0968957e-39 324 283
0.0061454331 0.70099998 -0.052850723 7.9266564e-39 325 283
0.0073639993 0.69999999 -0.052775331 7.3745742e-39 326 283
0.0085667865 0.69800001 -0.052624546 6.8214004e-39 327 283
0.0097906133 0.69800001 -0.052624546 7.2805877e-39 328 283
0.01099866 0.69700003 -0.052549154 7.2805877e-39 329 283
0.0122032 0.69599998 -0.052473757 7.6490003e-39 330 283
0.013384946 0.69400001 -0.052322973 8.0174227e-39 331 283
0.01460176 0.69400001 -0.052322973 8.1067358e-39 332 283
0.015818574 0.69400001 -0.052322973 7.6453975e-39 333 283
0.01701084 0.69300002 -0.05224758 8.7445382e-39 334 283
0.018225901 0.69300002 -0.05224758 8.1913658e-39 335 283
0.019384852 0.69099998 -0.052096792 8.2767147e-39 336 283
0.020596405 0.69099998 -0.052096792 6.8012245e-39 337 283
0.021776399 0.69 -0.052021399 5.694884e-39 338 283
0.022986198 0.69 -0.052021399 5.6026883e-39 339 283
0.024195999 0.69 -0.052021399 5.3264672e-39 340 283
0.025405798 0.69 -0.052021399 5.1427934e-39 341 283
0.026615599 0.69 -0.052021399 4.6836103e-39 342 283
0.027825398 0.69 -0.052021399 4.6836103e-39 343 283
0.029077278 0.69099998 -0.052096792 4.8672813e-39 344 283
0.030288832 0.69099998 -0.052096792 4.8672813e-39 345 283
0.031500384 0.69099998 -0.052096792 4.5917748e-39 346 283
0.032711938 0.69099998 -0.052096792 4.4999393e-39 347 283
0.033923492 0.69099998 -0.052096792 4.0407618e-39 348 283
0.035135046 0.69099998 -0.052096792 4.1326001e-39 349 283
0.036346599 0.69099998 -0.052096792 4.2244342e-39 350 283
0.03755815 0.69099998 -0.052096792 4.4081066e-39 351 283
0.038769703 0.69099998 -0.052096792 4.6836103e-39 352 283
0.04009698 0.69300002 -0.05224758 4.5917748e-39 353 283
0.041312039 0.69300002 -0.05224758 4.6836103e-39 354 283
0.042588469 0.69400001 -0.052322973 4.5917748e-39 355 283
0.043805279 0.69400001 -0.052322973 4.3162711e-39 356 283
0.045022093 0.69400001 -0.052322973 4.0407618e-39 357 283
0.046238903 0.69400001 -0.052322973 3.6734198e-39 358 283
0.047592476 0.69599998 -0.052473757 3.5815844e-39 359 283
0.048882935 0.69700003 -0.052549154 3.3060779e-39 360 283
0.050105009 0.69700003 -0.052549154 3.3060779e-39 361 283
0.051327083 0.69700003 -0.052549154 3.2142424e-39 362 283
0.052549154 0.69700003 -0.052549154 3.2142424e-39 363 283
0.053848371 0.69800001 -0.052624546 3.2142424e-39 364 283
0.055229999 0.69999999 -0.052775331 3.3982749e-39 365 283
0.056537982 0.70099998 -0.052850723 3.583385e-39 366 283
0.057931885 0.70300001 -0.053001512 3.6755806e-39 367 283
0.059248637 0.704 -0.053076904 4.0443604e-39 368 283
0.060654808 0.70599997 -0.053227689 4.4135016e-39 369 283
0.061717331 0.704 -0.053076904 4.507121e-39 370 283
0.062951677 0.704 -0.053076904 4.4149239e-39 371 283
0.064186029 0.704 -0.053076904 9.3923921e-39 372 283
0.065420374 0.704 -0.053076904 1.1789477e-38 373 283
0.066654719 0.704 -0.053076904 1.2528841e-38 374 283
-0.0037556398 0.71399999 -0.05508272 6.3463602e-39 317 284
-0.0024897333 0.70999998 -0.054774132 5.4297989e-39 318 284
-0.00124136 0.708 -0.054619838 4.8766252e-39 319 284
0 0.70700002 -0.054542694 4.5989635e-39 320 284
0.0012396066 0.70700002 -0.054542694 4.0457897e-39 321 284
0.0024757064 0.70599997 -0.054465543 3.857095e-39 322 284
0.0037030398 0.704 -0.054311249 6.0701489e-39 323 284
0.0049373866 0.704 -0.054311249 8.2014482e-39 324 284
0.0061454331 0.70099998 -0.054079808 8.5702307e-39 325 284
0.0073639993 0.69999999 -0.054002665 7.3756532e-39 326 284
0.0085667865 0.69800001 -0.053848371 7.0987076e-39 327 284
0.0097906133 0.69800001 -0.053848371 6.913966e-39 328 284
0.01099866 0.69700003 -0.053771228 6.6377378e-39 329 284
0.0122032 0.69599998 -0.053694077 7.2809408e-39 330 284
0.013423519 0.69599998 -0.053694077 8.3869283e-39 331 284
0.01460176 0.69400001 -0.053539783 8.2950829e-39 332 284
0.015818574 0.69400001 -0.053539783 8.2028873e-39 333 284
0.01701084 0.69300002 -0.053462639 8.6609816e-39 334 284
0.018225901 0.69300002 -0.053462639 8.5684258e-39 335 284
0.019384852 0.69099998 -0.053308345 8.838889e-39 336 284
0.020596405 0.69099998 -0.053308345 7.3634002e-39 337 284
0.021807959 0.69099998 -0.053308345 6.9881395e-39 338 284
0.022986198 0.69 -0.053231198 4.7754458e-39 339 284
0.024195999 0.69 -0.053231198 5.3264588e-39 340 284
0.025442619 0.69099998 -0.053308345 5.4182943e-39 341 284
0.026615599 0.69 -0.053231198 4.4081038e-39 342 284
0.027825398 0.69 -0.053231198 4.4081038e-39 343 284
0.029077278 0.69099998 -0.053308345 4.8672813e-39 344 284
0.030288832 0.69099998 -0.053308345 4.7754458e-39 345 284
0.031500384 0.69099998 -0.053308345 4.4999393e-39 346 284
0.032711938 0.69099998 -0.053308345 4.4081038e-39 347 284
0.033923492 0.69099998 -0.053308345 3.8570908e-39 348 284
0.035135046 0.69099998 -0.053308345 3.9489263e-39 349 284
0.036346599 0.69099998 -0.053308345 4.0407618e-39 350 284
0.037666857 0.69300002 -0.053462639 4.1325973e-39 351 284
0.03888192 0.69300002 -0.053462639 4.4081038e-39 352 284
0.04009698 0.69300002 -0.053462639 4.4081038e-39 353 284
0.041371655 0.69400001 -0.053539783 4.4081038e-39 354 284
0.042588469 0.69400001 -0.053539783 4.3162683e-39 355 284
0.043805279 0.69400001 -0.053539783 4.0407618e-39 356 284
0.045022093 0.69400001 -0.053539783 3.7652553e-39 357 284
0.046372157 0.69599998 -0.053694077 3.5815844e-39 358 284
0.047592476 0.69599998 -0.053694077 3.4897489e-39 359 284
0.048882935 0.69700003 -0.053771228 3.2142424e-39 360 284
0.050105009 0.69700003 -0.053771228 3.2142424e-39 361 284
0.051400717 0.69800001 -0.053848371 3.1224069e-39 362 284
0.052624546 0.69800001 -0.053848371 3.3060779e-39 363 284
0.054002665 0.69999999 -0.054002665 3.1227656e-39 364 284
0.055229999 0.69999999 -0.054002665 3.398991e-39 365 284
0.056699295 0.70300001 -0.054234106 3.400786e-39 366 284
0.058014292 0.704 -0.054311249 3.5855374e-39 367 284
0.059416957 0.70599997 -0.054465543 3.9532437e-39 368 284
0.060654808 0.70599997 -0.054465543 4.2294705e-39 369 284
0.061892662 0.70599997 -0.054465543 4.5993166e-39 370 284
0.063130513 0.70599997 -0.054465543 5.244686e-39 371 284
0.064368367 0.70599997 -0.054465543 1.0498741e-38 372 284
0.065606222 0.70599997 -0.054465543 1.2434849e-38 373 284
-0.0024897333 0.70999998 -0.056018997 5.887903e-39 318 285
-0.00124136 0.708 -0.055861197 5.3347292e-39 319 285
0 0.70700002 -0.055782299 4.965588e-39 320 285
0.0012396066 0.70700002 -0.055782299 4.5971642e-39 321 285
0.0024757064 0.70599997 -0.055703394 4.1344036e-39 322 285
0.0037135598 0.70599997 -0.055703394 6.4396545e-39 323 285
0.0049303733 0.70300001 -0.0554667 8.662076e-39 324 285
0.0061366665 0.69999999 -0.055229999 8.8464673e-39 325 285
0.0073639993 0.69999999 -0.055229999 7.4685691e-39 326 285
0.0085913334 0.69999999 -0.055229999 7.3763735e-39 327 285
0.0097906133 0.69800001 -0.0550722 7.3742211e-39 328 285
0.01099866 0.69700003 -0.054993302 7.0979943e-39 329 285
0.0122032 0.69599998 -0.054914396 6.8228494e-39 330 285
0.013423519 0.69599998 -0.054914396 7.3760231e-39 331 285
0.01460176 0.69400001 -0.054756597 7.4707327e-39 332 285
0.015818574 0.69400001 -0.054756597 7.4707327e-39 333 285
0.017035386 0.69400001 -0.054756597 8.756787e-39 334 285
0.018225901 0.69300002 -0.054677699 9.1255681e-39 335 285
0.019384852 0.69099998 -0.054519895 9.8591675e-39 336 285
0.020596405 0.69099998 -0.054519895 9.213798e-39 337 285
0.021807959 0.69099998 -0.054519895 8.8370912e-39 338 285
0.023019511 0.69099998 -0.054519895 4.8726791e-39 339 285
0.024231065 0.69099998 -0.054519895 4.4999393e-39 340 285
0.025442619 0.69099998 -0.054519895 4.7754458e-39 341 285
0.026654173 0.69099998 -0.054519895 4.3162683e-39 342 285
0.027865725 0.69099998 -0.054519895 4.2244328e-39 343 285
0.029077278 0.69099998 -0.054519895 4.5917748e-39 344 285
0.030288832 0.69099998 -0.054519895 4.4081038e-39 345 285
0.031500384 0.69099998 -0.054519895 4.2244328e-39 346 285
0.032711938 0.69099998 -0.054519895 4.2244328e-39 347 285
0.034021679 0.69300002 -0.054677699 3.3979134e-39 348 285
0.035236739 0.69300002 -0.054677699 3.3979134e-39 349 285
0.036451802 0.69300002 -0.054677699 3.5815844e-39 350 285
0.037666857 0.69300002 -0.054677699 3.6734198e-39 351 285
0.03888192 0.69300002 -0.054677699 3.8570908e-39 352 285
0.04009698 0.69300002 -0.054677699 3.8570908e-39 353 285
0.041371655 0.69400001 -0.054756597 4.2244328e-39 354 285
0.042588469 0.69400001 -0.054756597 4.0407618e-39 355 285
0.043805279 0.69400001 -0.054756597 3.7652553e-39 356 285
0.045022093 0.69400001 -0.054756597 3.6734198e-39 357 285
0.046372157 0.69599998 -0.054914396 3.3060779e-39 358 285
0.047660861 0.69700003 -0.054993302 3.2142424e-39 359 285
0.048882935 0.69700003 -0.054993302 3.2142424e-39 360 285
0.050176892 0.69800001 -0.0550722 3.3060779e-39 361 285
0.051400717 0.69800001 -0.0550722 3.2142424e-39 362 285
