# .PCD v.7 - Point Cloud Data file format
FIELDS x y z rgb imX imY
SIZE 4 4 4 4 4 4
TYPE F F F F F F
COUNT 1 1 1 1 1 1
WIDTH 840
HEIGHT 1
VIEWPOINT 0 0 0 1 0 0 0
POINTS 840
DATA ascii
0.024476532 0.69800001 -0.048953064 6.177372e-39 340 280
0.025700359 0.69800001 -0.048953064 6.0851778e-39 341 280
0.026924185 0.69800001 -0.048953064 5.9933423e-39 342 280
0.028148014 0.69800001 -0.048953064 5.9933423e-39 343 280
0.029371841 0.69800001 -0.048953064 6.0848191e-39 344 280
0.030683333 0.69999999 -0.049093332 5.9926249e-39 345 280
0.031910665 0.69999999 -0.049093332 5.8093126e-39 346 280
0.033137999 0.69999999 -0.049093332 5.8093126e-39 347 280
0.034414422 0.70099998 -0.049163464 5.7167596e-39 348 280
0.035643511 0.70099998 -0.049163464 5.6245654e-39 349 280
0.036872596 0.70099998 -0.049163464 5.5320124e-39 350 280
0.038210396 0.70300001 -0.049303733 5.5320124e-39 351 280
0.039442986 0.70300001 -0.049303733 5.5316579e-39 352 280
0.040733438 0.704 -0.049373865 5.4394623e-39 353 280
0.042087011 0.70599997 -0.04951413 5.531295e-39 354 280
0.043386232 0.70700002 -0.049584266 5.7153247e-39 355 280
0.044688959 0.708 -0.049654398 5.714966e-39 356 280
0.046060063 0.70999998 -0.049794663 5.8071602e-39 357 280
0.047304932 0.70999998 -0.049794663 6.0826667e-39 358 280
0.048618179 0.71100003 -0.049864799 6.1748609e-39 359 280
0.049864799 0.71100003 -0.049864799 6.7273172e-39 360 280
0.051255193 0.713 -0.050005067 7.095741e-39 361 280
0.052578956 0.71399999 -0.050075196 7.3719776e-39 362 280
0.054057021 0.71700001 -0.0502856 8.4783251e-39 363 280
-0.0189886 0.722 -0.051902171 1.2531728e-38 305 281
-0.017649053 0.71899998 -0.05168651 1.0136417e-38 306 281
-0.016388407 0.71899998 -0.05168651 9.3988521e-39 307 281
-0.015085679 0.71700001 -0.051542737 8.2042396e-39 308 281
-0.013828539 0.71700001 -0.051542737 7.4663158e-39 309 281
-0.012553867 0.71600002 -0.051470853 7.3733873e-39 310 281
-0.011266919 0.71399999 -0.05132708 7.0964445e-39 311 281
-0.010001013 0.713 -0.051255193 7.0035328e-39 312 281
-0.0087263398 0.71100003 -0.051111419 6.9113386e-39 313 281
-0.0074797203 0.71100003 -0.051111419 6.6354733e-39 314 281
-0.0062243328 0.70999998 -0.051039528 6.6354733e-39 315 281
-0.0049654399 0.708 -0.050895758 6.8195129e-39 316 281
-0.0037188199 0.70700002 -0.050823875 7.1879367e-39 317 281
-0.0024757064 0.70599997 -0.050751984 6.0855744e-39 318 281
-0.0012378532 0.70599997 -0.050751984 7.0997249e-39 319 281
0 0.70599997 -0.050751984 8.9458249e-39 320 281
0.0012343467 0.704 -0.050608214 1.0236564e-38 321 281
0.0024651866 0.70300001 -0.050536323 1.0418794e-38 322 281
0.0036977797 0.70300001 -0.050536323 9.4964778e-39 323 281
0.0049163462 0.70099998 -0.050392549 8.392263e-39 324 281
0.0061454331 0.70099998 -0.050392549 7.3781111e-39 325 281
0.0073639993 0.69999999 -0.050320663 7.7454418e-39 326 281
0.0085913334 0.69999999 -0.050320663 7.4692151e-39 327 281
0.0098186666 0.69999999 -0.050320663 7.2851728e-39 328 281
0.011045999 0.69999999 -0.050320663 7.1929771e-39 329 281
0.012273333 0.69999999 -0.050320663 7.1922526e-39 330 281
0.013462093 0.69800001 -0.050176892 7.1922526e-39 331 281
0.01468592 0.69800001 -0.050176892 6.9170979e-39 332 281
0.015909746 0.69800001 -0.050176892 6.7327052e-39 333 281
0.017133573 0.69800001 -0.050176892 6.5483112e-39 334 281
0.0183574 0.69800001 -0.050176892 6.2717257e-39 335 281
0.019581227 0.69800001 -0.050176892 6.2710012e-39 336 281
0.020805053 0.69800001 -0.050176892 5.9944185e-39 337 281
0.02202888 0.69800001 -0.050176892 6.1780895e-39 338 281
0.023252707 0.69800001 -0.050176892 6.0858953e-39 339 281
0.024476532 0.69800001 -0.050176892 5.9937011e-39 340 281
0.025700359 0.69800001 -0.050176892 5.9937011e-39 341 281
0.026924185 0.69800001 -0.050176892 5.9926249e-39 342 281
0.028148014 0.69800001 -0.050176892 6.0851778e-39 343 281
0.029371841 0.69800001 -0.050176892 5.9926249e-39 344 281
0.030683333 0.69999999 -0.050320663 5.9004306e-39 345 281
0.031910665 0.69999999 -0.050320663 5.9004306e-39 346 281
0.03318534 0.70099998 -0.050392549 5.9004306e-39 347 281
0.034414422 0.70099998 -0.050392549 5.5323712e-39 348 281
0.035643511 0.70099998 -0.050392549 5.440177e-39 349 281
0.036872596 0.70099998 -0.050392549 5.347624e-39 350 281
0.038210396 0.70300001 -0.050536323 5.347624e-39 351 281
0.039442986 0.70300001 -0.050536323 5.3469065e-39 352 281
0.040733438 0.704 -0.050608214 5.3469065e-39 353 281
0.042087011 0.70599997 -0.050751984 5.4391008e-39 354 281
0.043386232 0.70700002 -0.050823875 5.531295e-39 355 281
0.044688959 0.708 -0.050895758 5.7153247e-39 356 281
0.046060063 0.70999998 -0.051039528 5.7153247e-39 357 281
0.047304932 0.70999998 -0.051039528 5.8989957e-39 358 281
0.048618179 0.71100003 -0.051111419 6.2677782e-39 359 281
0.049864799 0.71100003 -0.051111419 6.8195101e-39 360 281
0.051255193 0.713 -0.051255193 7.1882926e-39 361 281
0.052578956 0.71399999 -0.05132708 7.555643e-39 362 281
-0.0189886 0.722 -0.053168077 1.2623924e-38 305 282
-0.017649053 0.71899998 -0.05294716 1.0321167e-38 306 282
-0.016388407 0.71899998 -0.05294716 9.4910477e-39 307 282
-0.015085679 0.71700001 -0.052799881 8.5715774e-39 308 282
-0.013828539 0.71700001 -0.052799881 7.9262079e-39 309 282
-0.012553867 0.71600002 -0.052726239 7.4659389e-39 310 282
-0.011266919 0.71399999 -0.052578956 7.1889974e-39 311 282
-0.010001013 0.713 -0.052505318 7.095727e-39 312 282
-0.0087263398 0.71100003 -0.052358042 6.8191443e-39 313 282
-0.0074797203 0.71100003 -0.052358042 6.6358377e-39 314 282
-0.0062243328 0.70999998 -0.052284397 6.543642e-39 315 282
-0.0049654399 0.708 -0.052137118 6.6354817e-39 316 282
-0.0037188199 0.70700002 -0.05206348 6.8202317e-39 317 282
-0.0024757064 0.70599997 -0.051989835 6.5440316e-39 318 282
-0.0012378532 0.70599997 -0.051989835 6.7287816e-39 319 282
0 0.704 -0.051842559 8.1138937e-39 320 282
0.0012343467 0.704 -0.051842559 9.3124368e-39 321 282
0.0024651866 0.70300001 -0.051768921 9.0351143e-39 322 282
0.0036977797 0.70300001 -0.051768921 8.3897449e-39 323 282
0.0049163462 0.70099998 -0.051621638 7.4699312e-39 324 282
0.0061454331 0.70099998 -0.051621638 7.0093117e-39 325 282
0.0073639993 0.69999999 -0.051547997 7.1015046e-39 326 282
0.0085913334 0.69999999 -0.051547997 6.9171133e-39 327 282
0.0098186666 0.69999999 -0.051547997 6.9174664e-39 328 282
0.011045999 0.69999999 -0.051547997 6.8252708e-39 329 282
0.012273333 0.69999999 -0.051547997 6.9167448e-39 330 282
0.013500666 0.69999999 -0.051547997 6.8245491e-39 331 282
0.01468592 0.69800001 -0.051400717 6.549037e-39 332 282
0.015909746 0.69800001 -0.051400717 6.3646458e-39 333 282
0.017133573 0.69800001 -0.051400717 6.2717285e-39 334 282
0.0183574 0.69800001 -0.051400717 6.0873358e-39 335 282
0.019581227 0.69800001 -0.051400717 5.9029418e-39 336 282
0.020805053 0.69800001 -0.051400717 5.8107475e-39 337 282
0.02202888 0.69800001 -0.051400717 5.902583e-39 338 282
0.023252707 0.69800001 -0.051400717 5.8103888e-39 339 282
0.024476532 0.69800001 -0.051400717 5.9937011e-39 340 282
0.025700359 0.69800001 -0.051400717 5.8096713e-39 341 282
0.026924185 0.69800001 -0.051400717 5.7171184e-39 342 282
0.028148014 0.69800001 -0.051400717 5.7171184e-39 343 282
0.029455997 0.69999999 -0.051547997 5.7167596e-39 344 282
0.030683333 0.69999999 -0.051547997 5.6245654e-39 345 282
0.031910665 0.69999999 -0.051547997 5.6245654e-39 346 282
0.03318534 0.70099998 -0.051621638 5.5323712e-39 347 282
0.034414422 0.70099998 -0.051621638 5.256506e-39 348 282
0.035643511 0.70099998 -0.051621638 5.1643117e-39 349 282
0.036872596 0.70099998 -0.051621638 5.1632355e-39 350 282
0.038210396 0.70300001 -0.051768921 5.1632355e-39 351 282
0.039442986 0.70300001 -0.051768921 5.2543536e-39 352 282
0.040733438 0.704 -0.051842559 5.2543536e-39 353 282
0.042087011 0.70599997 -0.051989835 5.1635943e-39 354 282
0.043386232 0.70700002 -0.05206348 5.347624e-39 355 282
0.044688959 0.708 -0.052137118 5.4398182e-39 356 282
0.046060063 0.70999998 -0.052284397 5.6242067e-39 357 282
0.047304932 0.70999998 -0.052284397 5.9922675e-39 358 282
0.048618179 0.71100003 -0.052358042 6.1766588e-39 359 282
0.049864799 0.71100003 -0.052358042 7.003544e-39 360 282
0.051255193 0.713 -0.052505318 7.1879367e-39 361 282
0.052505318 0.713 -0.052505318 7.9237052e-39 362 282
-0.0189886 0.722 -0.054433983 1.2808318e-38 305 283
-0.017649053 0.71899998 -0.054207806 1.0505563e-38 306 283
-0.016388407 0.71899998 -0.054207806 9.5832462e-39 307 283
-0.015085679 0.71700001 -0.054057021 8.663773e-39 308 283
-0.013828539 0.71700001 -0.054057021 8.0184036e-39 309 283
-0.012553867 0.71600002 -0.053981625 7.7425215e-39 310 283
-0.011266919 0.71399999 -0.053830836 7.3737446e-39 311 283
-0.010001013 0.713 -0.053755447 7.1879212e-39 312 283
-0.0087263398 0.71100003 -0.053604662 7.0035328e-39 313 283
-0.0074797203 0.71100003 -0.053604662 6.4525226e-39 314 283
-0.0062243328 0.70999998 -0.053529263 6.360327e-39 315 283
-0.0049654399 0.708 -0.053378478 6.359971e-39 316 283
-0.0037188199 0.70700002 -0.053303085 6.544721e-39 317 283
-0.0024757064 0.70599997 -0.053227689 6.5450896e-39 318 283
-0.0012378532 0.70599997 -0.053227689 6.7294822e-39 319 283
0 0.704 -0.053076904 6.8241988e-39 320 283
0.0012343467 0.704 -0.053076904 6.7320018e-39 321 283
0.0024651866 0.70300001 -0.053001512 7.0993438e-39 322 283
0.0036977797 0.70300001 -0.053001512 7.0993438e-39 323 283
0.0049163462 0.70099998 -0.052850723 6.8245491e-39 324 283
0.0061454331 0.70099998 -0.052850723 6.7323521e-39 325 283
0.0073745195 0.70099998 -0.052850723 6.7330696e-39 326 283
0.0085913334 0.69999999 -0.052775331 6.7330696e-39 327 283
0.0098186666 0.69999999 -0.052775331 6.7330696e-39 328 283
0.011045999 0.69999999 -0.052775331 6.7330696e-39 329 283
0.012273333 0.69999999 -0.052775331 6.7334255e-39 330 283
0.013500666 0.69999999 -0.052775331 6.5490342e-39 331 283
0.01468592 0.69800001 -0.052624546 6.5479552e-39 332 283
0.015909746 0.69800001 -0.052624546 6.2717285e-39 333 283
0.017133573 0.69800001 -0.052624546 6.2706481e-39 334 283
0.0183574 0.69800001 -0.052624546 6.086617e-39 335 283
0.019581227 0.69800001 -0.052624546 5.9944185e-39 336 283
0.020805053 0.69800001 -0.052624546 5.9022243e-39 337 283
0.02199732 0.69700003 -0.052549154 5.8103888e-39 338 283
0.023219392 0.69700003 -0.052549154 5.8103888e-39 339 283
0.024476532 0.69800001 -0.052624546 5.8093126e-39 340 283
0.025700359 0.69800001 -0.052624546 5.8093126e-39 341 283
0.026924185 0.69800001 -0.052624546 5.6245654e-39 342 283
0.028148014 0.69800001 -0.052624546 5.6245654e-39 343 283
0.029371841 0.69800001 -0.052624546 5.6245654e-39 344 283
0.030683333 0.69999999 -0.052775331 5.5323712e-39 345 283
0.031910665 0.69999999 -0.052775331 5.7160422e-39 346 283
0.03318534 0.70099998 -0.052850723 5.5316537e-39 347 283
0.034414422 0.70099998 -0.052850723 5.3479827e-39 348 283
0.035643511 0.70099998 -0.052850723 5.3479827e-39 349 283
0.036872596 0.70099998 -0.052850723 5.0714e-39 350 283
0.038210396 0.70300001 -0.053001512 5.0714e-39 351 283
0.039442986 0.70300001 -0.053001512 5.2543536e-39 352 283
0.040733438 0.704 -0.053076904 5.2543536e-39 353 283
0.042087011 0.70599997 -0.053227689 5.3472653e-39 354 283
0.043386232 0.70700002 -0.053303085 5.4394595e-39 355 283
0.044688959 0.708 -0.053378478 5.5320124e-39 356 283
0.046060063 0.70999998 -0.053529263 5.8089553e-39 357 283
0.047371563 0.71100003 -0.053604662 6.3599767e-39 358 283
0.048618179 0.71100003 -0.053604662 6.4521723e-39 359 283
0.050005067 0.713 -0.053755447 7.0035468e-39 360 283
0.05132708 0.71399999 -0.053830836 7.2801351e-39 361 283
0.052578956 0.71399999 -0.053830836 8.0155491e-39 362 283
-0.0189886 0.722 -0.055699892 1.2809039e-38 305 284
-0.017649053 0.71899998 -0.055468451 1.0689241e-38 306 284
-0.016388407 0.71899998 -0.055468451 9.6754488e-39 307 284
-0.015085679 0.71700001 -0.055314157 8.6641415e-39 308 284
-0.013828539 0.71700001 -0.055314157 8.0187721e-39 309 284
-0.0125714 0.71700001 -0.055314157 7.8343654e-39 310 284
-0.01129848 0.71600002 -0.055237014 7.4655829e-39 311 284
-0.010001013 0.713 -0.055005573 7.0053278e-39 312 284
-0.0087263398 0.71100003 -0.054851279 6.9131322e-39 313 284
-0.0074797203 0.71100003 -0.054851279 6.4525226e-39 314 284
-0.0062067998 0.708 -0.054619838 6.4525226e-39 315 284
-0.0049654399 0.708 -0.054619838 6.3599738e-39 316 284
-0.0037188199 0.70700002 -0.054542694 6.5443651e-39 317 284
-0.0024757064 0.70599997 -0.054465543 6.2695761e-39 318 284
-0.0012378532 0.70599997 -0.054465543 6.4539687e-39 319 284
0 0.70599997 -0.054465543 6.7305514e-39 320 284
0.0012343467 0.704 -0.054311249 6.7305514e-39 321 284
0.0024651866 0.70300001 -0.054234106 6.8227471e-39 322 284
0.0036977797 0.70300001 -0.054234106 6.9149427e-39 323 284
0.0049163462 0.70099998 -0.054079808 6.6401537e-39 324 284
0.0061454331 0.70099998 -0.054079808 6.6401537e-39 325 284
0.0073745195 0.70099998 -0.054079808 6.4568414e-39 326 284
0.0085913334 0.69999999 -0.054002665 6.4568414e-39 327 284
0.0098186666 0.69999999 -0.054002665 6.5490342e-39 328 284
0.011045999 0.69999999 -0.054002665 6.5490342e-39 329 284
0.012273333 0.69999999 -0.054002665 6.4575575e-39 330 284
0.013500666 0.69999999 -0.054002665 6.2731662e-39 331 284
0.014727999 0.69999999 -0.054002665 6.1802517e-39 332 284
0.015955333 0.69999999 -0.054002665 5.9036648e-39 333 284
0.017133573 0.69800001 -0.053848371 6.0866127e-39 334 284
0.0183574 0.69800001 -0.053848371 5.9944185e-39 335 284
0.019581227 0.69800001 -0.053848371 5.9022243e-39 336 284
0.020805053 0.69800001 -0.053848371 5.8100301e-39 337 284
0.02199732 0.69700003 -0.053771228 5.5345236e-39 338 284
0.023219392 0.69700003 -0.053771228 5.5345236e-39 339 284
0.024476532 0.69800001 -0.053848371 5.6256416e-39 340 284
0.025700359 0.69800001 -0.053848371 5.6256416e-39 341 284
0.026924185 0.69800001 -0.053848371 5.5323712e-39 342 284
0.028148014 0.69800001 -0.053848371 5.5323712e-39 343 284
0.029371841 0.69800001 -0.053848371 5.256506e-39 344 284
0.030683333 0.69999999 -0.054002665 5.256506e-39 345 284
0.031910665 0.69999999 -0.054002665 5.440177e-39 346 284
0.03318534 0.70099998 -0.054079808 5.3479827e-39 347 284
0.034414422 0.70099998 -0.054079808 5.347624e-39 348 284
0.035643511 0.70099998 -0.054079808 5.1635943e-39 349 284
0.036872596 0.70099998 -0.054079808 5.2547123e-39 350 284
0.038210396 0.70300001 -0.054234106 5.2547123e-39 351 284
0.039442986 0.70300001 -0.054234106 5.1625181e-39 352 284
0.040733438 0.704 -0.054311249 5.1625181e-39 353 284
0.042087011 0.70599997 -0.054465543 5.2547123e-39 354 284
0.043386232 0.70700002 -0.054542694 5.5316537e-39 355 284
0.044815198 0.70999998 -0.054774132 5.8075189e-39 356 284
0.046060063 0.70999998 -0.054774132 5.9922703e-39 357 284
0.047371563 0.71100003 -0.054851279 6.542933e-39 358 284
0.048618179 0.71100003 -0.054851279 6.727683e-39 359 284
0.050075196 0.71399999 -0.05508272 7.0953879e-39 360 284
0.051470853 0.71600002 -0.055237014 7.3723335e-39 361 284
0.052726239 0.71600002 -0.055237014 8.015196e-39 362 284
-0.0189886 0.722 -0.056965802 1.317675e-38 305 285
-0.017673599 0.72000003 -0.056808002 1.1056231e-38 306 285
-0.016388407 0.71899998 -0.056729097 1.0226111e-38 307 285
-0.01512776 0.71899998 -0.056729097 9.031129e-39 308 285
-0.013828539 0.71700001 -0.056571297 8.4779566e-39 309 285
-0.0125714 0.71700001 -0.056571297 8.1098705e-39 310 285
-0.01129848 0.71600002 -0.056492399 7.8336424e-39 311 285
-0.01001504 0.71399999 -0.0563346 7.3733873e-39 312 285
-0.0087508867 0.713 -0.056255698 7.1889974e-39 313 285
-0.0074797203 0.71100003 -0.056097899 7.0038943e-39 314 285
-0.0062067998 0.708 -0.055861197 6.7276676e-39 315 285
-0.0049654399 0.708 -0.055861197 6.4525254e-39 316 285
-0.0037188199 0.70700002 -0.055782299 6.544721e-39 317 285
-0.0024757064 0.70599997 -0.055703394 6.2702921e-39 318 285
-0.0012378532 0.70599997 -0.055703394 6.3628479e-39 319 285
0 0.70599997 -0.055703394 6.4550435e-39 320 285
0.0012343467 0.704 -0.055545598 6.4550435e-39 321 285
0.0024686933 0.704 -0.055545598 6.5472392e-39 322 285
0.0036977797 0.70300001 -0.0554667 6.5472392e-39 323 285
0.0049303733 0.70300001 -0.0554667 6.2720914e-39 324 285
0.0061454331 0.70099998 -0.055308893 6.2720914e-39 325 285
0.0073745195 0.70099998 -0.055308893 6.089498e-39 326 285
0.0085913334 0.69999999 -0.055229999 6.089498e-39 327 285
0.0098186666 0.69999999 -0.055229999 6.1816937e-39 328 285
0.011045999 0.69999999 -0.055229999 6.1816937e-39 329 285
0.012273333 0.69999999 -0.055229999 6.2728103e-39 330 285
0.013500666 0.69999999 -0.055229999 6.0887792e-39 331 285
0.014727999 0.69999999 -0.055229999 5.812544e-39 332 285
0.015955333 0.69999999 -0.055229999 5.812544e-39 333 285
0.017182667 0.69999999 -0.055229999 5.9029418e-39 334 285
0.0183574 0.69800001 -0.0550722 5.9029418e-39 335 285
0.019581227 0.69800001 -0.0550722 5.9022243e-39 336 285
0.020805053 0.69800001 -0.0550722 5.7178358e-39 337 285
0.02202888 0.69800001 -0.0550722 5.6252829e-39 338 285
0.023252707 0.69800001 -0.0550722 5.5330886e-39 339 285
0.024476532 0.69800001 -0.0550722 5.5330886e-39 340 285
0.025700359 0.69800001 -0.0550722 5.5330886e-39 341 285
0.026924185 0.69800001 -0.0550722 5.3487002e-39 342 285
0.028148014 0.69800001 -0.0550722 5.256506e-39 343 285
0.029371841 0.69800001 -0.0550722 5.4398182e-39 344 285
0.030683333 0.69999999 -0.055229999 5.4398182e-39 345 285
0.031910665 0.69999999 -0.055229999 5.1643117e-39 346 285
0.03318534 0.70099998 -0.055308893 5.0721175e-39 347 285
0.034414422 0.70099998 -0.055308893 5.0714e-39 348 285
0.035643511 0.70099998 -0.055308893 5.0714e-39 349 285
0.036872596 0.70099998 -0.055308893 5.1625181e-39 350 285
0.038210396 0.70300001 -0.0554667 5.1625181e-39 351 285
0.039442986 0.70300001 -0.0554667 5.2539948e-39 352 285
0.040733438 0.704 -0.055545598 5.3461891e-39 353 285
0.042087011 0.70599997 -0.055703394 5.3469065e-39 354 285
0.043386232 0.70700002 -0.055782299 5.531295e-39 355 285
0.044815198 0.70999998 -0.056018997 5.8075217e-39 356 285
0.046060063 0.70999998 -0.056018997 6.08411e-39 357 285
0.047371563 0.71100003 -0.056097899 6.4518164e-39 358 285
0.048754938 0.713 -0.056255698 6.5443707e-39 359 285
0.050075196 0.71399999 -0.0563346 7.4630942e-39 360 285
0.051542737 0.71700001 -0.056571297 7.7400398e-39 361 285
0.052799881 0.71700001 -0.056571297 8.7509674e-39 362 285
-0.0189886 0.722 -0.058231708 1.3453693e-38 305 286
-0.017673599 0.72000003 -0.058070403 1.1425011e-38 306 286
-0.0164112 0.72000003 -0.058070403 1.0134272e-38 307 286
-0.01512776 0.71899998 -0.057989739 8.5708739e-39 308 286
-0.013867113 0.71899998 -0.057989739 8.3864826e-39 309 286
-0.0125714 0.71700001 -0.057828441 8.0180504e-39 310 286
-0.01129848 0.71600002 -0.057747785 7.9258548e-39 311 286
-0.01001504 0.71399999 -0.057586476 7.2830035e-39 312 286
-0.0087508867 0.713 -0.057505824 7.0986109e-39 313 286
-0.0074797203 0.71100003 -0.057344519 6.8209464e-39 314 286
-0.0062243328 0.70999998 -0.057263866 6.6369139e-39 315 286
-0.0049654399 0.708 -0.057102561 6.3614018e-39 316 286
-0.0037188199 0.70700002 -0.057021905 6.5457902e-39 317 286
-0.0024757064 0.70599997 -0.056941248 6.1798832e-39 318 286
-0.0012378532 0.70599997 -0.056941248 6.2720788e-39 319 286
0 0.70599997 -0.056941248 6.180602e-39 320 286
0.0012343467 0.704 -0.056779943 6.0884064e-39 321 286
0.0024686933 0.704 -0.056779943 6.2720816e-39 322 286
0.0036977797 0.70300001 -0.056699295 6.2720816e-39 323 286
0.0049303733 0.70300001 -0.056699295 6.1802461e-39 324 286
0.0061454331 0.70099998 -0.056537982 6.2728005e-39 325 286
0.0073745195 0.70099998 -0.056537982 6.0891323e-39 326 286
0.0086036054 0.70099998 -0.056537982 6.2731634e-39 327 286
0.0098186666 0.69999999 -0.056457333 6.2731662e-39 328 286
0.011045999 0.69999999 -0.056457333 6.2731662e-39 329 286
0.012273333 0.69999999 -0.056457333 6.1802517e-39 330 286
0.013500666 0.69999999 -0.056457333 5.9036648e-39 331 286
0.014727999 0.69999999 -0.056457333 5.8118237e-39 332 286
0.015955333 0.69999999 -0.056457333 5.7196295e-39 333 286
0.017182667 0.69999999 -0.056457333 5.9033005e-39 334 286
0.0183574 0.69800001 -0.056296028 5.8111063e-39 335 286
0.019581227 0.69800001 -0.056296028 5.8100301e-39 336 286
0.020805053 0.69800001 -0.056296028 5.6256416e-39 337 286
0.02202888 0.69800001 -0.056296028 5.6242067e-39 338 286
0.023252707 0.69800001 -0.056296028 5.5320124e-39 339 286
0.024476532 0.69800001 -0.056296028 5.3487002e-39 340 286
0.025700359 0.69800001 -0.056296028 5.256506e-39 341 286
0.026924185 0.69800001 -0.056296028 5.3487002e-39 342 286
0.028148014 0.69800001 -0.056296028 5.256506e-39 343 286
0.029455997 0.69999999 -0.056457333 5.4398182e-39 344 286
0.030683333 0.69999999 -0.056457333 5.4398182e-39 345 286
0.031910665 0.69999999 -0.056457333 5.1646705e-39 346 286
0.03318534 0.70099998 -0.056537982 5.0721175e-39 347 286
0.034512613 0.70300001 -0.056699295 5.0714e-39 348 286
0.035745207 0.70300001 -0.056699295 4.9792058e-39 349 286
0.036977798 0.70300001 -0.056699295 5.2547123e-39 350 286
0.038264744 0.704 -0.056779943 5.2547123e-39 351 286
0.039499093 0.704 -0.056779943 5.3469065e-39 352 286
0.040849157 0.70599997 -0.056941248 5.3469065e-39 353 286
0.042087011 0.70599997 -0.056941248 5.622413e-39 354 286
0.043386232 0.70700002 -0.057021905 5.8071602e-39 355 286
0.044815198 0.70999998 -0.057263866 5.9915487e-39 356 286
0.046060063 0.70999998 -0.057263866 6.2677754e-39 357 286
0.047371563 0.71100003 -0.057344519 6.7269613e-39 358 286
0.048754938 0.713 -0.057505824 7.0957438e-39 359 286
0.050215468 0.71600002 -0.057747785 7.5552926e-39 360 286
0.051542737 0.71700001 -0.057828441 8.0162708e-39 361 286
0.052799881 0.71700001 -0.057828441 9.1197513e-39 362 286
-0.0189886 0.722 -0.059497613 1.2903753e-38 305 287
-0.017722692 0.722 -0.059497613 1.1426087e-38 306 287
-0.0164112 0.72000003 -0.059332799 1.0227544e-38 307 287
-0.01512776 0.71899998 -0.059250388 8.3882777e-39 308 287
-0.013867113 0.71899998 -0.059250388 8.2960821e-39 309 287
-0.0125714 0.71700001 -0.059085581 8.1113181e-39 310 287
-0.01129848 0.71600002 -0.059003171 7.9269268e-39 311 287
-0.01001504 0.71399999 -0.058838356 7.8343654e-39 312 287
-0.0087508867 0.713 -0.058755953 7.649614e-39 313 287
-0.0074797203 0.71100003 -0.058591139 7.2811917e-39 314 287
-0.0062243328 0.70999998 -0.058508728 7.1889974e-39 315 287
-0.0049654399 0.708 -0.058343921 7.0053278e-39 316 287
-0.0037188199 0.70700002 -0.05826151 7.0053278e-39 317 287
-0.0024757064 0.70599997 -0.058179103 6.4557484e-39 318 287
-0.0012378532 0.70599997 -0.058179103 6.4557484e-39 319 287
0 0.70599997 -0.058179103 6.180602e-39 320 287
0.0012378532 0.70599997 -0.058179103 6.180602e-39 321 287
0.0024686933 0.704 -0.058014292 6.0880505e-39 322 287
0.0037030398 0.704 -0.058014292 6.1802461e-39 323 287
0.0049373866 0.704 -0.058014292 5.9969367e-39 324 287
0.0061629666 0.70300001 -0.057931885 5.9969367e-39 325 287
0.0073955595 0.70300001 -0.057931885 6.1802517e-39 326 287
0.0086036054 0.70099998 -0.057767071 6.1802517e-39 327 287
0.0098186666 0.69999999 -0.05768466 5.9973024e-39 328 287
0.011045999 0.69999999 -0.05768466 5.9973024e-39 329 287
0.012273333 0.69999999 -0.05768466 6.0877002e-39 330 287
0.013500666 0.69999999 -0.05768466 5.811472e-39 331 287
0.014727999 0.69999999 -0.05768466 5.6277968e-39 332 287
0.015955333 0.69999999 -0.05768466 5.4437657e-39 333 287
0.017182667 0.69999999 -0.05768466 5.6263591e-39 334 287
0.018409999 0.69999999 -0.05768466 5.6263591e-39 335 287
0.019637333 0.69999999 -0.05768466 5.7174771e-39 336 287
0.020805053 0.69800001 -0.057519849 5.5330886e-39 337 287
0.02202888 0.69800001 -0.057519849 5.5320124e-39 338 287
0.023252707 0.69800001 -0.057519849 5.5320124e-39 339 287
0.024546666 0.69999999 -0.05768466 5.256506e-39 340 287
0.025773998 0.69999999 -0.05768466 5.3487002e-39 341 287
0.027001332 0.69999999 -0.05768466 5.3487002e-39 342 287
0.028228667 0.69999999 -0.05768466 5.256506e-39 343 287
0.029455997 0.69999999 -0.05768466 5.440177e-39 344 287
0.030683333 0.69999999 -0.05768466 5.440177e-39 345 287
0.031956252 0.70099998 -0.057767071 5.1646705e-39 346 287
0.03318534 0.70099998 -0.057767071 5.0724762e-39 347 287
0.034561705 0.704 -0.058014292 4.9799233e-39 348 287
0.035796054 0.704 -0.058014292 4.9799233e-39 349 287
0.037030395 0.704 -0.058014292 5.0714e-39 350 287
0.038264744 0.704 -0.058014292 5.1635943e-39 351 287
0.039611302 0.70599997 -0.058179103 5.3461891e-39 352 287
0.040849157 0.70599997 -0.058179103 5.622413e-39 353 287
0.042146627 0.70700002 -0.05826151 5.438742e-39 354 287
0.043386232 0.70700002 -0.05826151 5.7153261e-39 355 287
0.044815198 0.70999998 -0.058508728 5.8997202e-39 356 287
0.046124939 0.71100003 -0.058591139 6.0841128e-39 357 287
0.047371563 0.71100003 -0.058591139 6.5440148e-39 358 287
0.048823316 0.71399999 -0.058838356 6.8206017e-39 359 287
0.050215468 0.71600002 -0.059003171 7.3719832e-39 360 287
0.051542737 0.71700001 -0.059085581 7.9247982e-39 361 287
0.052799881 0.71700001 -0.059085581 1.0226099e-38 362 287
-0.0189886 0.722 -0.060763516 1.2169057e-38 305 288
-0.017722692 0.722 -0.060763516 1.1611204e-38 306 288
-0.0164112 0.72000003 -0.060595199 1.0688887e-38 307 288
-0.01512776 0.71899998 -0.060511041 8.6652345e-39 308 288
-0.013867113 0.71899998 -0.060511041 8.3886462e-39 309 288
-0.0125714 0.71700001 -0.060342718 8.0205714e-39 310 288
-0.01129848 0.71600002 -0.06025856 7.7439831e-39 311 288
-0.01001504 0.71399999 -0.060090236 7.6507099e-39 312 288
-0.0087508867 0.713 -0.060006075 7.4663186e-39 313 288
-0.0074797203 0.71100003 -0.059837762 7.4655983e-39 314 288
-0.0062243328 0.70999998 -0.059753593 7.3734027e-39 315 288
-0.0049654399 0.708 -0.059585281 7.098964e-39 316 288
-0.00372408 0.708 -0.059585281 7.0067684e-39 317 288
-0.0024792133 0.70700002 -0.059501119 6.5475867e-39 318 288
-0.0012396066 0.70700002 -0.059501119 6.5475867e-39 319 288
0 0.70700002 -0.059501119 6.2720816e-39 320 288
0.0012378532 0.70599997 -0.059416957 6.2720816e-39 321 288
0.0024757064 0.70599997 -0.059416957 6.1802461e-39 322 288
0.0037030398 0.704 -0.059248637 6.2728005e-39 323 288
0.0049373866 0.704 -0.059248637 6.0891295e-39 324 288
0.0061717331 0.704 -0.059248637 5.9969338e-39 325 288
0.0074060797 0.704 -0.059248637 6.1802489e-39 326 288
0.0086036054 0.70099998 -0.058996156 6.1802489e-39 327 288
0.0098326923 0.70099998 -0.058996156 6.1802517e-39 328 288
0.011061779 0.70099998 -0.058996156 6.0880561e-39 329 288
0.012273333 0.69999999 -0.058911994 5.9036648e-39 330 288
0.013500666 0.69999999 -0.058911994 5.7192736e-39 331 288
0.014727999 0.69999999 -0.058911994 5.6270765e-39 332 288
0.015955333 0.69999999 -0.058911994 5.4426881e-39 333 288
0.017182667 0.69999999 -0.058911994 5.6252829e-39 334 288
0.018409999 0.69999999 -0.058911994 5.6252829e-39 335 288
0.019637333 0.69999999 -0.058911994 5.6245654e-39 336 288
0.020864666 0.69999999 -0.058911994 5.6245654e-39 337 288
0.022091998 0.69999999 -0.058911994 5.3487002e-39 338 288
0.023319334 0.69999999 -0.058911994 5.3487002e-39 339 288
0.024546666 0.69999999 -0.058911994 5.3487002e-39 340 288
0.025773998 0.69999999 -0.058911994 5.3487002e-39 341 288
0.027001332 0.69999999 -0.058911994 5.256506e-39 342 288
0.028228667 0.69999999 -0.058911994 5.3487002e-39 343 288
0.029455997 0.69999999 -0.058911994 5.4398182e-39 344 288
0.030727165 0.70099998 -0.058996156 5.347624e-39 345 288
0.031956252 0.70099998 -0.058996156 5.347624e-39 346 288
0.033280019 0.70300001 -0.059164476 5.0714e-39 347 288
0.034561705 0.704 -0.059248637 5.0714e-39 348 288
0.035796054 0.704 -0.059248637 4.9792058e-39 349 288
0.037030395 0.704 -0.059248637 5.2547123e-39 350 288
0.038264744 0.704 -0.059248637 5.2547123e-39 351 288
0.039611302 0.70599997 -0.059416957 5.3469065e-39 352 288
0.040849157 0.70599997 -0.059416957 5.3469065e-39 353 288
0.042146627 0.70700002 -0.059501119 5.5309362e-39 354 288
0.043386232 0.70700002 -0.059501119 5.7153261e-39 355 288
0.044815198 0.70999998 -0.059753593 5.8990013e-39 356 288
0.046124939 0.71100003 -0.059837762 6.2674251e-39 357 288
0.047371563 0.71100003 -0.059837762 6.727683e-39 358 288
0.048823316 0.71399999 -0.060090236 7.0042713e-39 359 288
0.050215468 0.71600002 -0.06025856 7.5545738e-39 360 288
0.051758397 0.72000003 -0.060595199 8.4765287e-39 361 288
-0.017747238 0.72299999 -0.062115334 1.1888512e-38 306 289
-0.016456785 0.722 -0.062029421 1.0966197e-38 307 289
-0.015190879 0.722 -0.062029421 8.9407452e-39 308 289
-0.0138864 0.72000003 -0.061857603 8.756354e-39 309 289
-0.0125714 0.71700001 -0.061599858 8.1131229e-39 310 289
-0.01129848 0.71600002 -0.061513945 7.8361759e-39 311 289
-0.01001504 0.71399999 -0.061342116 7.8354571e-39 312 289
-0.0087508867 0.713 -0.061256204 7.6510658e-39 313 289
-0.0074797203 0.71100003 -0.061084379 7.6503441e-39 314 289
-0.0062243328 0.70999998 -0.060998458 7.6503441e-39 315 289
-0.0049794666 0.70999998 -0.060998458 7.4670207e-39 316 289
-0.00372408 0.708 -0.060826641 7.2829895e-39 317 289
-0.0024792133 0.70700002 -0.060740728 7.0081977e-39 318 289
-0.0012396066 0.70700002 -0.060740728 7.0081977e-39 319 289
0 0.70700002 -0.060740728 6.3653492e-39 320 289
0.0012396066 0.70700002 -0.060740728 6.3653492e-39 321 289
0.0024757064 0.70599997 -0.060654808 6.2728005e-39 322 289
0.0037135598 0.70599997 -0.060654808 6.2728005e-39 323 289
0.0049373866 0.704 -0.060482983 6.0891295e-39 324 289
0.0061717331 0.704 -0.060482983 5.9969338e-39 325 289
0.0074060797 0.704 -0.060482983 5.9969367e-39 326 289
0.0086281532 0.70300001 -0.06039707 5.904741e-39 327 289
0.0098326923 0.70099998 -0.060225245 6.0880561e-39 328 289
0.011061779 0.70099998 -0.060225245 5.9036648e-39 329 289
0.012290866 0.70099998 -0.060225245 5.8118251e-39 330 289
0.013519952 0.70099998 -0.060225245 5.7192708e-39 331 289
0.014727999 0.69999999 -0.060139328 5.6263591e-39 332 289
0.015955333 0.69999999 -0.060139328 5.4419706e-39 333 289
0.017182667 0.69999999 -0.060139328 5.5330886e-39 334 289
0.018409999 0.69999999 -0.060139328 5.5330886e-39 335 289
0.019637333 0.69999999 -0.060139328 5.5323712e-39 336 289
0.020864666 0.69999999 -0.060139328 5.4398182e-39 337 289
0.022091998 0.69999999 -0.060139328 5.256506e-39 338 289
0.023319334 0.69999999 -0.060139328 5.3487002e-39 339 289
0.024546666 0.69999999 -0.060139328 5.2572234e-39 340 289
0.025773998 0.69999999 -0.060139328 5.2572234e-39 341 289
0.027001332 0.69999999 -0.060139328 5.3487002e-39 342 289
0.028228667 0.69999999 -0.060139328 5.3487002e-39 343 289
0.029498078 0.70099998 -0.060225245 5.2561472e-39 344 289
0.030727165 0.70099998 -0.060225245 5.2561472e-39 345 289
0.032047424 0.70300001 -0.06039707 5.347624e-39 346 289
0.033280019 0.70300001 -0.06039707 5.347624e-39 347 289
0.034561705 0.704 -0.060482983 5.3469065e-39 348 289
0.035796054 0.704 -0.060482983 5.2547123e-39 349 289
0.037030395 0.704 -0.060482983 5.2547123e-39 350 289
0.038373452 0.70599997 -0.060654808 5.2547123e-39 351 289
0.039611302 0.70599997 -0.060654808 5.3469065e-39 352 289
0.040907022 0.70700002 -0.060740728 5.4391008e-39 353 289
0.042206239 0.708 -0.060826641 5.6220557e-39 354 289
0.043570329 0.70999998 -0.060998458 5.8064469e-39 355 289
0.044878319 0.71100003 -0.061084379 5.9911969e-39 356 289
0.046124939 0.71100003 -0.061084379 6.3596207e-39 357 289
0.047504812 0.713 -0.061256204 6.727327e-39 358 289
0.048823316 0.71399999 -0.061342116 7.1883052e-39 359 289
0.050215468 0.71600002 -0.061513945 7.7396909e-39 360 289
0.051470853 0.71600002 -0.061513945 8.8456783e-39 361 289
-0.01647958 0.72299999 -0.063382991 1.1335336e-38 307 290
-0.015190879 0.722 -0.063295327 9.5843182e-39 308 290
-0.0138864 0.72000003 -0.06312 9.1233414e-39 309 290
-0.012606465 0.71899998 -0.063032329 8.4808265e-39 310 290
-0.01129848 0.71600002 -0.062769331 8.1116852e-39 311 290
-0.01001504 0.71399999 -0.062593997 7.9280086e-39 312 290
-0.0087508867 0.713 -0.062506333 7.835813e-39 313 290
-0.0075007593 0.713 -0.062506333 7.6514189e-39 314 290
-0.0062330998 0.71100003 -0.062331002 7.6514189e-39 315 290
-0.0049794666 0.70999998 -0.062243331 7.3766243e-39 316 290
-0.0037345996 0.70999998 -0.062243331 7.3766243e-39 317 290
-0.00248272 0.708 -0.062068 7.1011164e-39 318 290
-0.00124136 0.708 -0.062068 7.0085606e-39 319 290
0 0.708 -0.062068 6.5504636e-39 320 290
0.0012396066 0.70700002 -0.061980337 6.4579078e-39 321 290
0.0024792133 0.70700002 -0.061980337 6.3657122e-39 322 290
0.0037135598 0.70599997 -0.061892662 6.2735165e-39 323 290
0.0049514128 0.70599997 -0.061892662 6.1802461e-39 324 290
0.0061892662 0.70599997 -0.061892662 6.1802461e-39 325 290
0.0074060797 0.704 -0.061717331 5.9969338e-39 326 290
0.0086404262 0.704 -0.061717331 5.9969338e-39 327 290
0.0098607466 0.70300001 -0.061629668 6.0880505e-39 328 290
0.01109334 0.70300001 -0.061629668 5.904018e-39 329 290
0.012325933 0.70300001 -0.061629668 5.8118237e-39 330 290
0.013519952 0.70099998 -0.06145433 5.6274353e-39 331 290
0.014749039 0.70099998 -0.06145433 5.7178358e-39 332 290
0.015978126 0.70099998 -0.06145433 5.5330886e-39 333 290
0.017207211 0.70099998 -0.06145433 5.5323712e-39 334 290
0.018436298 0.70099998 -0.06145433 5.5323712e-39 335 290
0.019665385 0.70099998 -0.06145433 5.5323712e-39 336 290
0.020894472 0.70099998 -0.06145433 5.5323712e-39 337 290
0.022123558 0.70099998 -0.06145433 5.5330886e-39 338 290
0.023352645 0.70099998 -0.06145433 5.5330886e-39 339 290
0.024581732 0.70099998 -0.06145433 5.2572234e-39 340 290
0.025810819 0.70099998 -0.06145433 5.2572234e-39 341 290
0.027039904 0.70099998 -0.06145433 5.3487002e-39 342 290
0.028268991 0.70099998 -0.06145433 5.3487002e-39 343 290
0.029498078 0.70099998 -0.06145433 5.3483429e-39 344 290
0.030814834 0.70300001 -0.061629668 5.3483429e-39 345 290
0.032047424 0.70300001 -0.061629668 5.4394595e-39 346 290
0.033280019 0.70300001 -0.061629668 5.4394595e-39 347 290
0.034561705 0.704 -0.061717331 5.347624e-39 348 290
0.035796054 0.704 -0.061717331 5.1635943e-39 349 290
0.037135597 0.70599997 -0.061892662 5.3469065e-39 350 290
0.038373452 0.70599997 -0.061892662 5.4391008e-39 351 290
0.039611302 0.70599997 -0.061892662 5.438742e-39 352 290
0.040907022 0.70700002 -0.061980337 5.438742e-39 353 290
0.042206239 0.708 -0.062068 5.5309391e-39 354 290
0.043570329 0.70999998 -0.062243331 5.8997202e-39 355 290
0.044878319 0.71100003 -0.062331002 6.0841128e-39 356 290
0.046254687 0.713 -0.062506333 6.3603396e-39 357 290
0.047571439 0.71399999 -0.062593997 7.0953935e-39 358 290
0.048960082 0.71600002 -0.062769331 7.2797848e-39 359 290
0.0502856 0.71700001 -0.062856995 8.1073944e-39 360 290
0.051542737 0.71700001 -0.062856995 9.3059376e-39 361 290
-0.017869972 0.72799999 -0.065097757 1.1888157e-38 306 291
-0.01647958 0.72299999 -0.064650662 1.1703765e-38 307 291
-0.015211919 0.72299999 -0.064650662 1.0045303e-38 308 291
-0.013924973 0.722 -0.064561233 9.3077383e-39 309 291
-0.012606465 0.71899998 -0.064292975 8.6641415e-39 310 291
-0.01129848 0.71600002 -0.064024724 8.4797503e-39 311 291
-0.01001504 0.71399999 -0.063845873 8.1120411e-39 312 291
-0.0087508867 0.713 -0.063756458 7.9280086e-39 313 291
-0.0075007593 0.713 -0.063756458 7.7443334e-39 314 291
-0.0062330998 0.71100003 -0.063577622 7.7443334e-39 315 291
-0.0049864799 0.71100003 -0.063577622 7.3777061e-39 316 291
-0.0037345996 0.70999998 -0.063488193 7.3777061e-39 317 291
-0.0024897333 0.70999998 -0.063488193 7.1014821e-39 318 291
-0.0012448666 0.70999998 -0.063488193 6.917451e-39 319 291
0 0.70999998 -0.063488193 6.6423061e-39 320 291
0.00124136 0.708 -0.063309364 6.5501104e-39 321 291
0.0024792133 0.70700002 -0.063219935 6.4579106e-39 322 291
0.0037188199 0.70700002 -0.063219935 6.365715e-39 323 291
0.0049514128 0.70599997 -0.063130513 6.2735193e-39 324 291
0.0061892662 0.70599997 -0.063130513 6.0891295e-39 325 291
0.0074271196 0.70599997 -0.063130513 5.9976527e-39 326 291
0.0086404262 0.704 -0.062951677 5.9976527e-39 327 291
0.0098607466 0.70300001 -0.062862262 5.9969367e-39 328 291
0.01109334 0.70300001 -0.062862262 5.904741e-39 329 291
0.012325933 0.70300001 -0.062862262 5.8125412e-39 330 291
0.013519952 0.70099998 -0.062683418 5.720347e-39 331 291
0.014749039 0.70099998 -0.062683418 5.535241e-39 332 291
0.015978126 0.70099998 -0.062683418 5.2586584e-39 333 291
0.017207211 0.70099998 -0.062683418 5.5330886e-39 334 291
0.018436298 0.70099998 -0.062683418 5.5330886e-39 335 291
0.019665385 0.70099998 -0.062683418 5.6245654e-39 336 291
0.020894472 0.70099998 -0.062683418 5.6245654e-39 337 291
0.02218668 0.70300001 -0.062862262 5.5330886e-39 338 291
0.023419274 0.70300001 -0.062862262 5.5330886e-39 339 291
0.024651866 0.70300001 -0.062862262 5.3487002e-39 340 291
0.025884461 0.70300001 -0.062862262 5.3487002e-39 341 291
0.027117053 0.70300001 -0.062862262 5.3487002e-39 342 291
0.028349647 0.70300001 -0.062862262 5.3487002e-39 343 291
0.029582238 0.70300001 -0.062862262 5.5320124e-39 344 291
0.030814834 0.70300001 -0.062862262 5.5320124e-39 345 291
0.032093015 0.704 -0.062951677 5.5316551e-39 346 291
0.03332736 0.704 -0.062951677 5.4394595e-39 347 291
0.034561705 0.704 -0.062951677 5.347624e-39 348 291
0.035897743 0.70599997 -0.063130513 5.347624e-39 349 291
0.037135597 0.70599997 -0.063130513 5.3472653e-39 350 291
0.038373452 0.70599997 -0.063130513 5.3472653e-39 351 291
0.039667413 0.70700002 -0.063219935 5.4394595e-39 352 291
0.040964879 0.708 -0.063309364 5.4394595e-39 353 291
0.042325463 0.70999998 -0.063488193 5.8989957e-39 354 291
0.043570329 0.70999998 -0.063488193 6.1755826e-39 355 291
0.044878319 0.71100003 -0.063577622 6.3599767e-39 356 291
0.046254687 0.713 -0.063756458 6.5443679e-39 357 291
0.047571439 0.71399999 -0.063845873 7.1875863e-39 358 291
0.048960082 0.71600002 -0.064024724 7.6485631e-39 359 291
0.0502856 0.71700001 -0.064114138 8.5683754e-39 360 291
0.051542737 0.71700001 -0.064114138 9.7665584e-39 361 291
-0.017845426 0.727 -0.06628301 1.1795608e-38 306 292
-0.016570752 0.727 -0.06628301 1.1795608e-38 307 292
-0.015254001 0.72500002 -0.066100664 1.0781436e-38 308 292
-0.01394426 0.72299999 -0.065918319 9.9516756e-39 309 292
-0.012624 0.72000003 -0.065644801 8.8481811e-39 310 292
-0.01131426 0.71700001 -0.065371275 8.5715928e-39 311 292
-0.010043093 0.71600002 -0.06528011 8.2957135e-39 312 292
-0.0087631596 0.71399999 -0.065097757 8.2957135e-39 313 292
-0.0075112795 0.71399999 -0.065097757 7.7454138e-39 314 292
-0.0062506334 0.713 -0.065006584 7.7454138e-39 315 292
-0.0049864799 0.71100003 -0.064824238 7.6539328e-39 316 292
-0.0037398601 0.71100003 -0.064824238 7.3777061e-39 317 292
-0.0024897333 0.70999998 -0.064733058 7.193675e-39 318 292
-0.0012448666 0.70999998 -0.064733058 7.1014793e-39 319 292
0 0.70999998 -0.064733058 6.7334227e-39 320 292
0.0012448666 0.70999998 -0.064733058 6.7334227e-39 321 292
0.00248272 0.708 -0.06455072 6.5493874e-39 322 292
0.0037188199 0.70700002 -0.064459547 6.5493874e-39 323 292
0.0049514128 0.70599997 -0.064368367 6.3649961e-39 324 292
0.0061892662 0.70599997 -0.064368367 6.2728005e-39 325 292
0.0074271196 0.70599997 -0.064368367 6.0891323e-39 326 292
0.0086404262 0.704 -0.064186029 6.0891323e-39 327 292
0.0098747732 0.704 -0.064186029 6.1802489e-39 328 292
0.01109334 0.70300001 -0.064094849 6.1802489e-39 329 292
0.012325933 0.70300001 -0.064094849 5.9047382e-39 330 292
0.013558527 0.70300001 -0.064094849 5.720347e-39 331 292
0.014749039 0.70099998 -0.063912503 5.8111063e-39 332 292
0.015978126 0.70099998 -0.063912503 5.6267178e-39 333 292
0.017207211 0.70099998 -0.063912503 5.7171184e-39 334 292
0.018436298 0.70099998 -0.063912503 5.7171184e-39 335 292
0.019721493 0.70300001 -0.064094849 5.6252829e-39 336 292
0.020954086 0.70300001 -0.064094849 5.6252829e-39 337 292
0.02218668 0.70300001 -0.064094849 5.5330886e-39 338 292
0.023419274 0.70300001 -0.064094849 5.3487002e-39 339 292
0.024651866 0.70300001 -0.064094849 5.3487002e-39 340 292
0.025884461 0.70300001 -0.064094849 5.3487002e-39 341 292
0.027117053 0.70300001 -0.064094849 5.2568661e-39 342 292
0.028389972 0.704 -0.064186029 5.2568661e-39 343 292
0.029624319 0.704 -0.064186029 5.5316551e-39 344 292
0.030858666 0.704 -0.064186029 5.5316551e-39 345 292
0.032093015 0.704 -0.064186029 5.5316551e-39 346 292
0.03332736 0.704 -0.064186029 5.4394595e-39 347 292
0.034659892 0.70599997 -0.064368367 5.4394623e-39 348 292
0.035897743 0.70599997 -0.064368367 5.3472667e-39 349 292
0.037188202 0.70700002 -0.064459547 5.0714e-39 350 292
0.038427804 0.70700002 -0.064459547 5.1639544e-39 351 292
0.039723519 0.708 -0.06455072 5.5316551e-39 352 292
0.040964879 0.708 -0.06455072 5.6242095e-39 353 292
0.042325463 0.70999998 -0.064733058 5.7164023e-39 354 292
0.043570329 0.70999998 -0.064733058 5.9929892e-39 355 292
0.044878319 0.71100003 -0.064824238 6.4528911e-39 356 292
0.046254687 0.713 -0.065006584 6.6372838e-39 357 292
0.047504812 0.713 -0.065006584 7.3727021e-39 358 292
0.048960082 0.71600002 -0.06528011 7.8333215e-39 359 292
0.0502856 0.71700001 -0.065371275 8.9382439e-39 360 292
-0.017845426 0.727 -0.067557678 1.1795611e-38 306 293
-0.016570752 0.727 -0.067557678 1.1611219e-38 307 293
-0.015254001 0.72500002 -0.067371838 1.1150942e-38 308 293
-0.013924973 0.722 -0.067093052 1.0228986e-38 309 293
-0.012624 0.72000003 -0.066907197 9.2158902e-39 310 293
-0.01131426 0.71700001 -0.066628419 9.0314989e-39 311 293
-0.010043093 0.71600002 -0.066535495 8.1134887e-39 312 293
-0.0087877065 0.71600002 -0.066535495 7.9287387e-39 313 293
-0.00753232 0.71600002 -0.066535495 7.6535839e-39 314 293
-0.0062593995 0.71399999 -0.066349633 7.6535839e-39 315 293
-0.0050005065 0.713 -0.066256717 7.56174e-39 316 293
-0.0037398601 0.71100003 -0.066070862 7.3773502e-39 317 293
-0.0024932399 0.71100003 -0.066070862 7.1936778e-39 318 293
-0.0012448666 0.70999998 -0.065977924 6.917451e-39 319 293
0 0.70999998 -0.065977924 6.6423061e-39 320 293
0.0012448666 0.70999998 -0.065977924 6.4579134e-39 321 293
0.00248272 0.708 -0.065792084 6.5493902e-39 322 293
0.0037188199 0.70700002 -0.065699153 6.5493902e-39 323 293
0.0049584266 0.70700002 -0.065699153 6.2731634e-39 324 293
0.0061980332 0.70700002 -0.065699153 6.2731634e-39 325 293
0.0074271196 0.70599997 -0.065606222 6.089854e-39 326 293
0.0086404262 0.704 -0.065420374 6.089854e-39 327 293
0.0098747732 0.704 -0.065420374 5.9965835e-39 328 293
0.011109119 0.704 -0.065420374 5.9043879e-39 329 293
0.012343466 0.704 -0.065420374 5.8121881e-39 330 293
0.013558527 0.70300001 -0.065327443 5.7199924e-39 331 293
0.014791119 0.70300001 -0.065327443 5.7199896e-39 332 293
0.016023712 0.70300001 -0.065327443 5.35157e-39 333 293
0.017256306 0.70300001 -0.065327443 5.5341648e-39 334 293
0.018488899 0.70300001 -0.065327443 5.4419706e-39 335 293
0.019721493 0.70300001 -0.065327443 5.4419706e-39 336 293
0.020954086 0.70300001 -0.065327443 5.4419706e-39 337 293
0.02218668 0.70300001 -0.065327443 5.5330886e-39 338 293
0.023452586 0.704 -0.065420374 5.5330886e-39 339 293
0.024686933 0.704 -0.065420374 5.2561472e-39 340 293
0.02592128 0.704 -0.065420374 5.2561472e-39 341 293
0.027155625 0.704 -0.065420374 5.1646705e-39 342 293
0.028389972 0.704 -0.065420374 5.1646705e-39 343 293
0.029624319 0.704 -0.065420374 5.4394595e-39 344 293
0.030858666 0.704 -0.065420374 5.4394595e-39 345 293
0.032184184 0.70599997 -0.065606222 5.4394595e-39 346 293
0.033422034 0.70599997 -0.065606222 5.4394595e-39 347 293
0.034659892 0.70599997 -0.065606222 5.3472667e-39 348 293
0.035948593 0.70700002 -0.065699153 5.1632355e-39 349 293
0.037188202 0.70700002 -0.065699153 5.3469107e-39 350 293
0.038482159 0.708 -0.065792084 5.4394651e-39 351 293
0.039723519 0.708 -0.065792084 5.8071658e-39 352 293
0.041080594 0.70999998 -0.065977924 5.8071658e-39 353 293
0.042325463 0.70999998 -0.065977924 5.8086049e-39 354 293
0.043570329 0.70999998 -0.065977924 6.0848317e-39 355 293
0.044878319 0.71100003 -0.066070862 6.5440148e-39 356 293
0.046254687 0.713 -0.066256717 6.9127973e-39 357 293
0.047504812 0.713 -0.066256717 7.4638257e-39 358 293
0.048960082 0.71600002 -0.066535495 8.3854233e-39 359 293
-0.017845426 0.727 -0.06883236 1.15201e-38 306 294
-0.016570752 0.727 -0.06883236 1.1427904e-38 307 294
-0.015254001 0.72500002 -0.068643004 1.1335339e-38 308 294
-0.013924973 0.722 -0.068358958 1.0689969e-38 309 294
-0.012624 0.72000003 -0.068169601 1.0227524e-38 310 294
-0.01131426 0.71700001 -0.067885563 9.6743502e-39 311 294
-0.01005712 0.71700001 -0.067885563 8.6641387e-39 312 294
-0.0087877065 0.71600002 -0.067790881 8.2957163e-39 313 294
-0.00753232 0.71600002 -0.067790881 7.7450579e-39 314 294
-0.0062593995 0.71399999 -0.067601517 7.6528609e-39 315 294
-0.0050075199 0.71399999 -0.067601517 7.6532168e-39 316 294
-0.0037398601 0.71100003 -0.067317478 7.5610212e-39 317 294
-0.0024932399 0.71100003 -0.067317478 7.4688227e-39 318 294
-0.00124662 0.71100003 -0.067317478 7.3766271e-39 319 294
0 0.70999998 -0.067222796 6.8248967e-39 320 294
0.0012448666 0.70999998 -0.067222796 6.7326996e-39 321 294
0.0024897333 0.70999998 -0.067222796 6.4568386e-39 322 294
0.00372408 0.708 -0.067033432 6.4568386e-39 323 294
0.0049584266 0.70700002 -0.066938758 6.2731662e-39 324 294
0.0061980332 0.70700002 -0.066938758 6.2731662e-39 325 294
0.0074271196 0.70599997 -0.066844068 6.2724445e-39 326 294
0.0086649731 0.70599997 -0.066844068 6.3646402e-39 327 294
0.0098747732 0.704 -0.066654719 6.4557568e-39 328 294
0.011109119 0.704 -0.066654719 6.2717257e-39 329 294
0.012343466 0.704 -0.066654719 6.087333e-39 330 294
0.013577812 0.704 -0.066654719 5.9951374e-39 331 294
0.014791119 0.70300001 -0.066560037 5.9029418e-39 332 294
0.016023712 0.70300001 -0.066560037 5.8103888e-39 333 294
0.017256306 0.70300001 -0.066560037 5.8093126e-39 334 294
0.018515198 0.704 -0.066654719 5.8093126e-39 335 294
0.019749546 0.704 -0.066654719 5.6267178e-39 336 294
0.020983893 0.704 -0.066654719 5.4419706e-39 337 294
0.022218239 0.704 -0.066654719 5.6245654e-39 338 294
0.023452586 0.704 -0.066654719 5.5323712e-39 339 294
0.024686933 0.704 -0.066654719 5.5316551e-39 340 294
0.02592128 0.704 -0.066654719 5.4394595e-39 341 294
0.027155625 0.704 -0.066654719 5.2561472e-39 342 294
0.028389972 0.704 -0.066654719 5.2561472e-39 343 294
0.029708479 0.70599997 -0.066844068 5.3472667e-39 344 294
0.030946331 0.70599997 -0.066844068 5.3472667e-39 345 294
0.032184184 0.70599997 -0.066844068 5.5309391e-39 346 294
0.033422034 0.70599997 -0.066844068 5.5309391e-39 347 294
0.034708988 0.70700002 -0.066938758 5.6220557e-39 348 294
0.03599944 0.708 -0.067033432 5.6220557e-39 349 294
0.0372408 0.708 -0.067033432 5.6220585e-39 350 294
0.038482159 0.708 -0.067033432 5.7142541e-39 351 294
0.039835732 0.70999998 -0.067222796 5.7149702e-39 352 294
0.041080594 0.70999998 -0.067222796 5.8997202e-39 353 294
0.042325463 0.70999998 -0.067222796 5.9919172e-39 354 294
0.043631699 0.71100003 -0.067317478 6.1763085e-39 355 294
0.044878319 0.71100003 -0.067317478 6.6362146e-39 356 294
0.046254687 0.713 -0.067506835 7.004637e-39 357 294
0.04777132 0.71700001 -0.067885563 8.0166435e-39 358 294
-0.016593546 0.72799999 -0.070203468 1.1427551e-38 307 295
-0.015296079 0.727 -0.070107035 1.1335341e-38 308 295
-0.013924973 0.722 -0.069624864 1.0874005e-38 309 295
-0.012624 0.72000003 -0.069432005 1.0045301e-38 310 295
-0.01134582 0.71899998 -0.069335558 9.3999311e-39 311 295
-0.01005712 0.71700001 -0.069142699 8.572669e-39 312 295
-0.0087999795 0.71700001 -0.069142699 8.3882777e-39 313 295
-0.00753232 0.71600002 -0.069046266 7.928373e-39 314 295
-0.0062769335 0.71600002 -0.069046266 7.8361759e-39 315 295
-0.0050075199 0.71399999 -0.068853401 7.836529e-39 316 295
-0.0037503797 0.713 -0.068756968 7.7443334e-39 317 295
-0.0025002533 0.713 -0.068756968 7.4688199e-39 318 295
-0.00124662 0.71100003 -0.068564095 7.2844287e-39 319 295
0 0.71100003 -0.068564095 6.8252526e-39 320 295
0.0012448666 0.70999998 -0.068467662 6.6408599e-39 321 295
0.0024897333 0.70999998 -0.068467662 6.4571945e-39 322 295
0.00372408 0.708 -0.068274796 6.3646402e-39 323 295
0.0049654399 0.708 -0.068274796 6.3646402e-39 324 295
0.0061980332 0.70700002 -0.068178371 6.3646402e-39 325 295
0.0074271196 0.70599997 -0.06808193 6.5483112e-39 326 295
0.0086649731 0.70599997 -0.06808193 6.5483112e-39 327 295
0.0099028256 0.70599997 -0.06808193 6.2724445e-39 328 295
0.011140679 0.70599997 -0.06808193 6.1802489e-39 329 295
0.012343466 0.704 -0.067889065 6.0873358e-39 330 295
