# .PCD v.7 - Point Cloud Data file format
FIELDS x y z rgb imX imY
SIZE 4 4 4 4 4 4
TYPE F F F F F F
COUNT 1 1 1 1 1 1
WIDTH 858
HEIGHT 1
VIEWPOINT 0 0 0 1 0 0 0
POINTS 858
DATA ascii
-0.013675999 0.77999997 0.034189999 9.4127796e-39 310 215
-0.012308398 0.77999997 0.034189999 9.5971681e-39 311 215
-0.010940799 0.77999997 0.034189999 9.9652275e-39 312 215
-0.0095731998 0.77999997 0.034189999 1.0241451e-38 313 215
-0.0082055992 0.77999997 0.034189999 1.079283e-38 314 215
-0.0068379994 0.77999997 0.034189999 1.060808e-38 315 215
-0.0054563731 0.778 0.034102332 9.2287499e-39 316 215
-0.0040922803 0.778 0.034102332 8.5833903e-39 317 215
-0.0027281865 0.778 0.034102332 8.7670613e-39 318 215
-0.0013640933 0.778 0.034102332 8.8592555e-39 319 215
0 0.77600002 0.034014668 9.0457964e-39 320 215
0.0013605866 0.77600002 0.034014668 9.4145733e-39 321 215
0.0027211732 0.77600002 0.034014668 9.8751857e-39 322 215
0.0040712398 0.77399999 0.033927001 1.015141e-38 323 215
0.0054283198 0.77399999 0.033927001 1.0335439e-38 324 215
0.0067853997 0.77399999 0.033927001 1.0335439e-38 325 215
0.0081424797 0.77399999 0.033927001 1.0701705e-38 326 215
0.0094995592 0.77399999 0.033927001 1.0701705e-38 327 215
0.01085664 0.77399999 0.033927001 1.0976494e-38 328 215
0.012197939 0.773 0.033883166 1.0976494e-38 329 215
0.013553266 0.773 0.033883166 1.1436389e-38 330 215
0.014908593 0.773 0.033883166 1.1805166e-38 331 215
0.016263919 0.773 0.033883166 1.1525355e-38 332 215
0.017619247 0.773 0.033883166 1.0879995e-38 333 215
0.018974574 0.773 0.033883166 1.0512294e-38 334 215
0.0203299 0.773 0.033883166 1.0327906e-38 335 215
0.021713279 0.77399999 0.033927001 1.0233945e-38 336 215
0.02307036 0.77399999 0.033927001 1.0141748e-38 337 215
0.024490559 0.77600002 0.034014668 9.6818682e-39 338 215
0.025851147 0.77600002 0.034014668 9.5896725e-39 339 215
0.027211733 0.77600002 0.034014668 8.3929468e-39 340 215
0.028645959 0.778 0.034102332 6.8256211e-39 341 215
0.030125774 0.78100002 0.034233831 8.763935e-39 342 215
0.031495128 0.78100002 0.034233831 1.2359925e-38 343 215
-0.028830061 0.78299999 0.032948639 1.3921515e-38 299 216
-0.027387068 0.78100002 0.032864477 1.0795071e-38 300 216
-0.026017714 0.78100002 0.032864477 9.0433539e-39 301 216
-0.024648361 0.78100002 0.032864477 1.0150021e-38 302 216
-0.023249198 0.77999997 0.032822397 1.0150021e-38 303 216
-0.021881599 0.77999997 0.032822397 1.0149641e-38 304 216
-0.020513998 0.77999997 0.032822397 9.6886645e-39 305 216
-0.0191464 0.77999997 0.032822397 9.4134971e-39 306 216
-0.017778799 0.77999997 0.032822397 9.1369144e-39 307 216
-0.016411198 0.77999997 0.032822397 9.3198679e-39 308 216
-0.0150436 0.77999997 0.032822397 9.5964506e-39 309 216
-0.013675999 0.77999997 0.032822397 9.7808391e-39 310 216
-0.012308398 0.77999997 0.032822397 9.7808391e-39 311 216
-0.010940799 0.77999997 0.032822397 9.7797629e-39 312 216
-0.0095731998 0.77999997 0.032822397 9.9637926e-39 313 216
-0.0082055992 0.77999997 0.032822397 9.8723158e-39 314 216
-0.0068379994 0.77999997 0.032822397 9.6875686e-39 315 216
-0.0054563731 0.778 0.032738242 9.319512e-39 316 216
-0.0040922803 0.778 0.032738242 8.9507323e-39 317 216
-0.0027281865 0.778 0.032738242 8.7703039e-39 318 216
-0.0013640933 0.778 0.032738242 9.0465307e-39 319 216
0 0.77600002 0.032654081 9.4160236e-39 320 216
0.0013605866 0.77600002 0.032654081 9.323828e-39 321 216
0.0027211732 0.77600002 0.032654081 9.6918734e-39 322 216
0.0040712398 0.77399999 0.032569919 9.8759032e-39 323 216
0.0054283198 0.77399999 0.032569919 1.0242886e-38 324 216
0.0067853997 0.77399999 0.032569919 1.0335081e-38 325 216
0.0081424797 0.77399999 0.032569919 1.060987e-38 326 216
0.0094872871 0.773 0.032527838 1.042584e-38 327 216
0.010842613 0.773 0.032527838 1.0516958e-38 328 216
0.012197939 0.773 0.032527838 1.0609152e-38 329 216
0.013553266 0.773 0.032527838 1.1252359e-38 330 216
0.014908593 0.773 0.032527838 1.1713689e-38 331 216
0.016263919 0.773 0.032527838 1.1527507e-38 332 216
0.017619247 0.773 0.032527838 1.0789953e-38 333 216
0.018974574 0.773 0.032527838 1.0696683e-38 334 216
0.0203299 0.773 0.032527838 1.0328265e-38 335 216
0.021713279 0.77399999 0.032569919 1.0142101e-38 336 216
0.02307036 0.77399999 0.032569919 1.0049905e-38 337 216
0.02442744 0.77399999 0.032569919 9.8655336e-39 338 216
0.025851147 0.77600002 0.032654081 9.6811423e-39 339 216
0.027211733 0.77600002 0.032654081 9.1294175e-39 340 216
0.028572321 0.77600002 0.032654081 7.8386786e-39 341 216
0.030087199 0.77999997 0.032822397 7.6546938e-39 342 216
0.031495128 0.78100002 0.032864477 1.005214e-38 343 216
0.032864477 0.78100002 0.032864477 1.355454e-38 344 216
-0.03020292 0.78299999 0.031575777 1.5124361e-38 298 217
-0.028756421 0.78100002 0.031495128 1.0791167e-38 299 217
-0.027387068 0.78100002 0.031495128 8.030997e-39 300 217
-0.025984399 0.77999997 0.031454798 8.6763665e-39 301 217
-0.024616797 0.77999997 0.031454798 1.0148938e-38 302 217
-0.023249198 0.77999997 0.031454798 1.0056742e-38 303 217
-0.021881599 0.77999997 0.031454798 9.8741179e-39 304 217
-0.020513998 0.77999997 0.031454798 9.5049753e-39 305 217
-0.019097306 0.778 0.031374145 9.2294674e-39 306 217
-0.017733213 0.778 0.031374145 9.1372731e-39 307 217
-0.016369121 0.778 0.031374145 9.4134971e-39 308 217
-0.015005025 0.778 0.031374145 9.5056913e-39 309 217
-0.013640933 0.778 0.031374145 9.8712396e-39 310 217
-0.012276839 0.778 0.031374145 9.7786867e-39 311 217
-0.010940799 0.77999997 0.031454798 9.318433e-39 312 217
-0.0095731998 0.77999997 0.031454798 9.4106272e-39 313 217
-0.0082055992 0.77999997 0.031454798 9.1347634e-39 314 217
-0.0068379994 0.77999997 0.031454798 8.9507323e-39 315 217
-0.0054563731 0.778 0.031374145 8.3990229e-39 316 217
-0.0040922803 0.778 0.031374145 8.7678054e-39 317 217
-0.0027281865 0.778 0.031374145 9.2316898e-39 318 217
-0.0013640933 0.778 0.031374145 9.9692549e-39 319 217
0 0.77600002 0.031293493 9.8770396e-39 320 217
0.0013605866 0.77600002 0.031293493 9.6004527e-39 321 217
0.0027211732 0.77600002 0.031293493 9.6011239e-39 322 217
0.0040712398 0.77399999 0.031212838 9.416374e-39 323 217
0.0054283198 0.77399999 0.031212838 9.8755444e-39 324 217
0.0067853997 0.77399999 0.031212838 9.8755444e-39 325 217
0.0081424797 0.77399999 0.031212838 1.0058498e-38 326 217
0.0094872871 0.773 0.03117251 9.9663037e-39 327 217
0.010842613 0.773 0.03117251 9.9655863e-39 328 217
0.012197939 0.773 0.03117251 1.005778e-38 329 217
0.013553266 0.773 0.03117251 1.0976853e-38 330 217
0.014908593 0.773 0.03117251 1.1806607e-38 331 217
0.016263919 0.773 0.03117251 1.180409e-38 332 217
0.017619247 0.773 0.03117251 1.134276e-38 333 217
0.018974574 0.773 0.03117251 1.0788877e-38 334 217
0.0203299 0.773 0.03117251 1.0511936e-38 335 217
0.021685226 0.773 0.03117251 9.9591389e-39 336 217
0.023040552 0.773 0.03117251 9.8669433e-39 337 217
0.02442744 0.77399999 0.031212838 9.6825716e-39 338 217
0.025784519 0.77399999 0.031212838 9.590376e-39 339 217
0.027141599 0.77399999 0.031212838 9.6804234e-39 340 217
0.028572321 0.77600002 0.031293493 9.2194453e-39 341 217
0.03001005 0.778 0.031374145 8.0209399e-39 342 217
0.031374145 0.778 0.031374145 8.0209399e-39 343 217
0.032822397 0.77999997 0.031454798 1.1158879e-38 344 217
-0.03020292 0.78299999 0.03020292 1.300384e-38 298 218
-0.028756421 0.78100002 0.030125774 9.4082086e-39 299 218
-0.027351998 0.77999997 0.030087199 8.2160932e-39 300 218
-0.025984399 0.77999997 0.030087199 9.3224393e-39 301 218
-0.024553679 0.778 0.03001005 9.8737802e-39 302 218
-0.023189586 0.778 0.03001005 9.7815846e-39 303 218
-0.021825492 0.778 0.03001005 9.873392e-39 304 218
-0.020461399 0.778 0.03001005 9.5046151e-39 305 218
-0.019097306 0.778 0.03001005 9.3205854e-39 306 218
-0.017733213 0.778 0.03001005 9.5049739e-39 307 218
-0.016369121 0.778 0.03001005 9.5978855e-39 308 218
-0.015005025 0.778 0.03001005 9.5978855e-39 309 218
-0.013640933 0.778 0.03001005 9.7786867e-39 310 218
-0.012276839 0.778 0.03001005 9.5024627e-39 311 218
-0.010912746 0.778 0.03001005 8.9503736e-39 312 218
-0.0095731998 0.77999997 0.030087199 9.0425678e-39 313 218
-0.0082055992 0.77999997 0.030087199 8.6737909e-39 314 218
-0.0068379994 0.77999997 0.030087199 8.4894024e-39 315 218
-0.0054703997 0.77999997 0.030087199 7.8462218e-39 316 218
-0.0040922803 0.778 0.03001005 8.4915912e-39 317 218
-0.0027281865 0.778 0.03001005 9.1398669e-39 318 218
-0.0013640933 0.778 0.03001005 9.6930407e-39 319 218
0 0.778 0.03001005 1.0060732e-38 320 218
0.0013605866 0.77600002 0.029932907 9.876339e-39 321 218
0.0027211732 0.77600002 0.029932907 9.6007876e-39 322 218
0.0040712398 0.77399999 0.029855758 9.1398095e-39 323 218
0.0054283198 0.77399999 0.029855758 9.5993233e-39 324 218
0.0067766332 0.773 0.029817186 9.414932e-39 325 218
0.0081319595 0.773 0.029817186 9.9652275e-39 326 218
0.0094872871 0.773 0.029817186 9.8730333e-39 327 218
0.01081456 0.77100003 0.029740039 9.873392e-39 328 218
0.01216638 0.77100003 0.029740039 9.873392e-39 329 218
0.013518199 0.77100003 0.029740039 1.0516599e-38 330 218
0.01487002 0.77100003 0.029740039 1.1714774e-38 331 218
0.016221842 0.77100003 0.029740039 1.2263995e-38 332 218
0.017619247 0.773 0.029817186 1.1526431e-38 333 218
0.018974574 0.773 0.029817186 1.0695965e-38 334 218
0.0203299 0.773 0.029817186 1.0511577e-38 335 218
0.021685226 0.773 0.029817186 9.8676593e-39 336 218
0.023040552 0.773 0.029817186 9.5914326e-39 337 218
0.024395877 0.773 0.029817186 9.5907263e-39 338 218
0.025784519 0.77399999 0.029855758 9.5907263e-39 339 218
0.027141599 0.77399999 0.029855758 9.6807738e-39 340 218
0.028498679 0.77399999 0.029855758 9.4963825e-39 341 218
0.029932907 0.77600002 0.029932907 9.0339876e-39 342 218
0.031374145 0.778 0.03001005 8.2960639e-39 343 218
0.032822397 0.77999997 0.030087199 9.6819284e-39 344 218
0.034189999 0.77999997 0.030087199 1.3277199e-38 345 218
-0.031575777 0.78299999 0.028830061 1.4107711e-38 297 219
-0.030125774 0.78100002 0.028756421 1.0517052e-38 298 219
-0.028756421 0.78100002 0.028756421 8.580945e-39 299 219
-0.027351998 0.77999997 0.028719598 8.8628555e-39 300 219
-0.025984399 0.77999997 0.028719598 9.4156705e-39 301 219
-0.024553679 0.778 0.028645959 9.8751871e-39 302 219
-0.023129974 0.77600002 0.028572321 9.6904385e-39 303 219
-0.021769386 0.77600002 0.028572321 9.8730333e-39 304 219
-0.0204088 0.77600002 0.028572321 9.6882861e-39 305 219
-0.019048214 0.77600002 0.028572321 9.5960919e-39 306 219
-0.017687626 0.77600002 0.028572321 9.6882861e-39 307 219
-0.01632704 0.77600002 0.028572321 9.873392e-39 308 219
-0.014966453 0.77600002 0.028572321 9.5046151e-39 309 219
-0.013605867 0.77600002 0.028572321 8.9514497e-39 310 219
-0.01224528 0.77600002 0.028572321 8.8592555e-39 311 219
-0.010912746 0.778 0.028645959 8.9492974e-39 312 219
-0.0095486529 0.778 0.028645959 8.7649089e-39 313 219
-0.0081845606 0.778 0.028645959 7.9366028e-39 314 219
-0.0068379994 0.77999997 0.028719598 7.8444071e-39 315 219
-0.0054703997 0.77999997 0.028719598 7.1101141e-39 316 219
-0.0041027996 0.77999997 0.028719598 7.6632879e-39 317 219
-0.0027351999 0.77999997 0.028719598 8.034611e-39 318 219
-0.0013640933 0.778 0.028645959 8.772176e-39 319 219
0 0.77600002 0.028572321 9.7856049e-39 320 219
0.0013605866 0.77600002 0.028572321 9.7856049e-39 321 219
0.0027211732 0.77600002 0.028572321 9.0472789e-39 322 219
0.0040712398 0.77399999 0.028498679 8.6784978e-39 323 219
0.0054213065 0.773 0.028461859 8.8628555e-39 324 219
0.0067766332 0.773 0.028461859 9.0468866e-39 325 219
0.0081319595 0.773 0.028461859 9.5053326e-39 326 219
0.0094627403 0.77100003 0.028388219 9.2287499e-39 327 219
0.01081456 0.77100003 0.028388219 9.4124209e-39 328 219
0.012134819 0.76899999 0.028314579 9.4124209e-39 329 219
0.013483133 0.76899999 0.028314579 1.0055628e-38 330 219
0.014831445 0.76899999 0.028314579 1.1438563e-38 331 219
0.016221842 0.77100003 0.028388219 1.1988499e-38 332 219
0.01757366 0.77100003 0.028388219 1.1435327e-38 333 219
0.018925481 0.77100003 0.028388219 1.0880354e-38 334 219
0.020277301 0.77100003 0.028388219 1.0603771e-38 335 219
0.021685226 0.773 0.028461859 9.868011e-39 336 219
0.023040552 0.773 0.028461859 9.6839813e-39 337 219
0.024395877 0.773 0.028461859 9.3152184e-39 338 219
0.025784519 0.77399999 0.028498679 9.3152184e-39 339 219
0.027141599 0.77399999 0.028498679 9.4974587e-39 340 219
0.028498679 0.77399999 0.028498679 9.4052631e-39 341 219
0.029932907 0.77600002 0.028572321 9.4031163e-39 342 219
0.031293493 0.77600002 0.028572321 8.6651925e-39 343 219
0.032738242 0.778 0.028645959 8.8510719e-39 344 219
0.034189999 0.77999997 0.028719598 1.1524747e-38 345 219
0.035603184 0.78100002 0.028756421 1.5301931e-38 346 219
-0.031495128 0.78100002 0.027387068 1.2263423e-38 297 220
-0.030125774 0.78100002 0.027387068 8.4926828e-39 298 220
-0.028719598 0.77999997 0.027351998 8.216096e-39 299 220
-0.027351998 0.77999997 0.027351998 9.781579e-39 300 220
-0.025917772 0.778 0.027281865 1.0058525e-38 301 220
-0.024490559 0.77600002 0.027211733 1.0058875e-38 302 220
-0.023129974 0.77600002 0.027211733 9.782288e-39 303 220
-0.021769386 0.77600002 0.027211733 9.7804803e-39 304 220
-0.0204088 0.77600002 0.027211733 9.5957332e-39 305 220
-0.019048214 0.77600002 0.027211733 9.7786867e-39 306 220
-0.017687626 0.77600002 0.027211733 9.9630751e-39 307 220
-0.01632704 0.77600002 0.027211733 1.0148181e-38 308 220
-0.014966453 0.77600002 0.027211733 9.6872099e-39 309 220
-0.013605867 0.77600002 0.027211733 8.3057314e-39 310 220
-0.01224528 0.77600002 0.027211733 8.6745083e-39 311 220
-0.010884693 0.77600002 0.027211733 8.5812379e-39 312 220
-0.0095486529 0.778 0.027281865 8.3046552e-39 313 220
-0.0081845606 0.778 0.027281865 7.8422491e-39 314 220
-0.0068204664 0.778 0.027281865 7.7500549e-39 315 220
-0.0054703997 0.77999997 0.027351998 7.2905271e-39 316 220
-0.0041027996 0.77999997 0.027351998 7.6593096e-39 317 220
-0.0027351999 0.77999997 0.027351998 6.3790329e-39 318 220
-0.0013675999 0.77999997 0.027351998 6.9322067e-39 319 220
0 0.77600002 0.027211733 7.8523539e-39 320 220
0.0013605866 0.77600002 0.027211733 7.4832127e-39 321 220
0.0027211732 0.77600002 0.027211733 7.4810294e-39 322 220
0.0040712398 0.77399999 0.027141599 8.2185945e-39 323 220
0.0054213065 0.773 0.027106533 9.2298569e-39 324 220
0.0067590997 0.77100003 0.027036399 9.2298569e-39 325 220
0.0081109209 0.77100003 0.027036399 9.4120622e-39 326 220
0.0094381925 0.76899999 0.026966266 9.3198679e-39 327 220
0.010786506 0.76899999 0.026966266 9.318433e-39 328 220
0.012134819 0.76899999 0.026966266 9.318433e-39 329 220
0.013483133 0.76899999 0.026966266 9.6875686e-39 330 220
0.014831445 0.76899999 0.026966266 1.0793899e-38 331 220
0.016179759 0.76899999 0.026966266 1.1894137e-38 332 220
0.017528072 0.76899999 0.026966266 1.1524996e-38 333 220
0.018876385 0.76899999 0.026966266 1.00524e-38 334 220
0.0202247 0.76899999 0.026966266 1.00524e-38 335 220
0.021629119 0.77100003 0.027036399 9.6843401e-39 336 220
0.02298094 0.77100003 0.027036399 9.5917871e-39 337 220
0.02433276 0.77100003 0.027036399 9.4988866e-39 338 220
0.025751207 0.773 0.027106533 9.4063322e-39 339 220
0.027106533 0.773 0.027106533 9.4059819e-39 340 220
0.028498679 0.77399999 0.027141599 9.3137863e-39 341 220
0.029932907 0.77600002 0.027211733 9.4960322e-39 342 220
0.031293493 0.77600002 0.027211733 9.2194453e-39 343 220
0.032738242 0.778 0.027281865 8.4804761e-39 344 220
0.034189999 0.77999997 0.027351998 9.6790193e-39 345 220
0.035603184 0.78100002 0.027387068 1.4197013e-38 346 220
0.036972538 0.78100002 0.027387068 1.6409708e-38 347 220
-0.031495128 0.78100002 0.026017714 1.1250693e-38 297 221
-0.030125774 0.78100002 0.026017714 8.4916038e-39 298 221
-0.028719598 0.77999997 0.025984399 9.2291689e-39 299 221
-0.027281865 0.778 0.025917772 9.9659912e-39 300 221
-0.025851147 0.77600002 0.025851147 1.0703558e-38 301 221
-0.024490559 0.77600002 0.025851147 1.0977957e-38 302 221
-0.02307036 0.77399999 0.025784519 1.0240392e-38 303 221
-0.021713279 0.77399999 0.025784519 9.9641513e-39 304 221
-0.020356199 0.77399999 0.025784519 9.7801216e-39 305 221
-0.018999118 0.77399999 0.025784519 9.8705222e-39 306 221
-0.01764204 0.77399999 0.025784519 1.023894e-38 307 221
-0.016284959 0.77399999 0.025784519 1.0423329e-38 308 221
-0.014927879 0.77399999 0.025784519 1.0146746e-38 309 221
-0.013570799 0.77399999 0.025784519 9.1340445e-39 310 221
-0.01221372 0.77399999 0.025784519 8.9496561e-39 311 221
-0.010884693 0.77600002 0.025851147 8.947145e-39 312 221
-0.009524107 0.77600002 0.025851147 8.3017854e-39 313 221
-0.0081845606 0.778 0.025917772 7.8404555e-39 314 221
-0.0068204664 0.778 0.025917772 7.4720373e-39 315 221
-0.0054703997 0.77999997 0.025984399 6.7384421e-39 316 221
-0.0041027996 0.77999997 0.025984399 6.7384421e-39 317 221
-0.0027351999 0.77999997 0.025984399 6.2821541e-39 318 221
-0.0013675999 0.77999997 0.025984399 7.0197192e-39 319 221
0 0.77999997 0.025984399 7.389931e-39 320 221
0.0013640933 0.778 0.025917772 7.4821267e-39 321 221
0.0027211732 0.77600002 0.025851147 7.297364e-39 322 221
0.0040712398 0.77399999 0.025784519 7.7583422e-39 323 221
0.0054072798 0.77100003 0.02568458 8.2189476e-39 324 221
0.0067590997 0.77100003 0.02568458 8.126752e-39 325 221
0.0081109209 0.77100003 0.02568458 8.6766607e-39 326 221
0.0094381925 0.76899999 0.025617953 8.4004368e-39 327 221
0.010786506 0.76899999 0.025617953 8.7667026e-39 328 221
0.012134819 0.76899999 0.025617953 8.6745083e-39 329 221
0.013483133 0.76899999 0.025617953 9.3202267e-39 330 221
0.014831445 0.76899999 0.025617953 1.0149975e-38 331 221
0.016179759 0.76899999 0.025617953 1.0790671e-38 332 221
0.017528072 0.76899999 0.025617953 1.0698477e-38 333 221
0.018876385 0.76899999 0.025617953 1.0329341e-38 334 221
0.0202247 0.76899999 0.025617953 9.960564e-39 335 221
0.021629119 0.77100003 0.02568458 9.5921458e-39 336 221
0.02298094 0.77100003 0.02568458 9.4999516e-39 337 221
0.02433276 0.77100003 0.02568458 9.3159247e-39 338 221
0.025751207 0.773 0.025751207 9.3159247e-39 339 221
0.027106533 0.773 0.025751207 9.3152156e-39 340 221
0.028498679 0.77399999 0.025784519 9.1308244e-39 341 221
0.029855758 0.77399999 0.025784519 9.4963825e-39 342 221
0.031293493 0.77600002 0.025851147 9.1276e-39 343 221
0.032738242 0.778 0.025917772 8.3886308e-39 344 221
0.034189999 0.77999997 0.025984399 8.3886308e-39 345 221
0.035557598 0.77999997 0.025984399 1.2815511e-38 346 221
0.036925197 0.77999997 0.025984399 1.5673215e-38 347 221
-0.031495128 0.78100002 0.024648361 1.0331238e-38 297 222
-0.030125774 0.78100002 0.024648361 8.6763328e-39 298 222
-0.028719598 0.77999997 0.024616797 9.6904833e-39 299 222
-0.027211733 0.77600002 0.024490559 1.0245084e-38 300 222
-0.025851147 0.77600002 0.024490559 1.0798257e-38 301 222
-0.02442744 0.77399999 0.02442744 1.0887191e-38 302 222
-0.02307036 0.77399999 0.02442744 1.0334017e-38 303 222
-0.021713279 0.77399999 0.02442744 1.005778e-38 304 222
-0.020356199 0.77399999 0.02442744 9.7808391e-39 305 222
-0.018999118 0.77399999 0.02442744 9.9634339e-39 306 222
-0.01764204 0.77399999 0.02442744 1.0055628e-38 307 222
-0.016284959 0.77399999 0.02442744 1.0424046e-38 308 222
-0.014927879 0.77399999 0.02442744 1.0147822e-38 309 222
-0.013570799 0.77399999 0.02442744 9.9612815e-39 310 222
-0.01221372 0.77399999 0.02442744 9.5928633e-39 311 222
-0.010884693 0.77600002 0.024490559 8.6716385e-39 312 222
-0.009524107 0.77600002 0.024490559 8.1184731e-39 313 222
-0.0081635201 0.77600002 0.024490559 7.5645903e-39 314 222
-0.0068029333 0.77600002 0.024490559 7.3798431e-39 315 222
-0.0054703997 0.77999997 0.024616797 7.1043366e-39 316 222
-0.0041027996 0.77999997 0.024616797 7.1965308e-39 317 222
-0.0027351999 0.77999997 0.024616797 6.4625797e-39 318 222
-0.0013693533 0.78100002 0.024648361 7.0157535e-39 319 222
0 0.77999997 0.024616797 7.201944e-39 320 222
0.0013640933 0.778 0.024553679 7.3859752e-39 321 222
0.0027211732 0.77600002 0.024490559 7.5703566e-39 322 222
0.0040659797 0.773 0.024395877 7.8465848e-39 323 222
0.0053932532 0.76899999 0.024269639 8.0327543e-39 324 222
0.0067415666 0.76899999 0.024269639 8.2171455e-39 325 222
0.0080898795 0.76899999 0.024269639 8.583749e-39 326 222
0.0094381925 0.76899999 0.024269639 8.4915548e-39 327 222
0.010758453 0.76700002 0.024206521 8.6745083e-39 328 222
0.01210326 0.76700002 0.024206521 8.5823141e-39 329 222
0.013448066 0.76700002 0.024206521 9.6882861e-39 330 222
0.014792874 0.76700002 0.024206521 1.042584e-38 331 222
0.01613768 0.76700002 0.024206521 1.0238223e-38 332 222
0.017482487 0.76700002 0.024206521 1.0053834e-38 333 222
0.018876385 0.76899999 0.024269639 1.0328623e-38 334 222
0.0202247 0.76899999 0.024269639 1.0144235e-38 335 222
0.021573013 0.76899999 0.024269639 9.7754581e-39 336 222
0.022921326 0.76899999 0.024269639 9.7754581e-39 337 222
0.024269639 0.76899999 0.024269639 9.5003103e-39 338 222
0.02568458 0.77100003 0.02433276 9.5003103e-39 339 222
0.027036399 0.77100003 0.02433276 9.5914354e-39 340 222
0.028461859 0.773 0.024395877 9.4066854e-39 341 222
0.029855758 0.77399999 0.02442744 9.4963783e-39 342 222
0.031212838 0.77399999 0.02442744 9.4041827e-39 343 222
0.032654081 0.77600002 0.024490559 9.0325513e-39 344 222
0.034102332 0.778 0.024553679 8.9403557e-39 345 222
0.035466425 0.778 0.024553679 1.1801349e-38 346 222
0.036925197 0.77999997 0.024616797 1.4475022e-38 347 222
0.038292799 0.77999997 0.024616797 1.6590875e-38 348 222
-0.032864477 0.78100002 0.023279008 1.0979109e-38 296 223
-0.031495128 0.78100002 0.023279008 9.3199478e-39 297 223
-0.030087199 0.77999997 0.023249198 8.952547e-39 298 223
-0.028645959 0.778 0.023189586 1.0519513e-38 299 223
-0.027211733 0.77600002 0.023129974 1.1073402e-38 300 223
-0.025784519 0.77399999 0.02307036 1.1073402e-38 301 223
-0.02442744 0.77399999 0.02307036 1.1163774e-38 302 223
-0.023040552 0.773 0.023040552 1.0702797e-38 303 223
-0.021685226 0.773 0.023040552 1.0425481e-38 304 223
-0.020356199 0.77399999 0.02307036 1.0056346e-38 305 223
-0.018999118 0.77399999 0.02307036 1.0239299e-38 306 223
-0.01764204 0.77399999 0.02307036 1.0331493e-38 307 223
-0.016284959 0.77399999 0.02307036 1.0608076e-38 308 223
-0.014927879 0.77399999 0.02307036 1.0331493e-38 309 223
-0.013570799 0.77399999 0.02307036 1.0053476e-38 310 223
-0.01221372 0.77399999 0.02307036 9.5006691e-39 311 223
-0.01085664 0.77399999 0.02307036 8.6716385e-39 312 223
-0.009524107 0.77600002 0.023129974 7.9340846e-39 313 223
-0.0081635201 0.77600002 0.023129974 7.4731135e-39 314 223
-0.0068029333 0.77600002 0.023129974 7.1968895e-39 315 223
-0.0054703997 0.77999997 0.023249198 7.1036191e-39 316 223
-0.0041080597 0.78100002 0.023279008 6.8270364e-39 317 223
-0.0027387065 0.78100002 0.023279008 6.6426564e-39 318 223
-0.0013693533 0.78100002 0.023279008 6.9188831e-39 319 223
0 0.77999997 0.023249198 6.4633e-39 320 223
0.0013640933 0.778 0.023189586 6.5554956e-39 321 223
0.0027211732 0.77600002 0.023129974 6.5576438e-39 322 223
0.0040659797 0.773 0.023040552 7.1108176e-39 323 223
0.0053932532 0.76899999 0.022921326 7.4817357e-39 324 223
0.0067415666 0.76899999 0.022921326 7.6661269e-39 325 223
0.0080898795 0.76899999 0.022921326 8.4919135e-39 326 223
0.0094136465 0.76700002 0.022861714 8.3997193e-39 327 223
0.010758453 0.76700002 0.022861714 8.7670613e-39 328 223
0.01210326 0.76700002 0.022861714 8.8592555e-39 329 223
0.013448066 0.76700002 0.022861714 1.0240375e-38 330 223
0.014792874 0.76700002 0.022861714 1.107049e-38 331 223
0.01613768 0.76700002 0.022861714 1.0605924e-38 332 223
0.017482487 0.76700002 0.022861714 1.0145311e-38 333 223
0.018827293 0.76700002 0.022861714 1.0052758e-38 334 223
0.020172099 0.76700002 0.022861714 9.960564e-39 335 223
0.021573013 0.76899999 0.022921326 9.960564e-39 336 223
0.022921326 0.76899999 0.022921326 9.960564e-39 337 223
0.024269639 0.76899999 0.022921326 9.8683698e-39 338 223
0.02568458 0.77100003 0.02298094 9.6843401e-39 339 223
0.027036399 0.77100003 0.02298094 9.5921486e-39 340 223
0.028461859 0.773 0.023040552 9.3159219e-39 341 223
0.029855758 0.77399999 0.02307036 9.405619e-39 342 223
0.031212838 0.77399999 0.02307036 9.2208676e-39 343 223
0.032654081 0.77600002 0.023129974 9.0339876e-39 344 223
0.034014668 0.77600002 0.023129974 8.8492362e-39 345 223
0.035466425 0.778 0.023189586 1.0601361e-38 346 223
0.036830518 0.778 0.023189586 1.3828208e-38 347 223
0.038194612 0.778 0.023189586 1.6682705e-38 348 223
-0.032864477 0.78100002 0.021909652 1.0149699e-38 296 224
-0.031495128 0.78100002 0.021909652 9.2281025e-39 297 224
-0.030087199 0.77999997 0.021881599 9.7808783e-39 298 224
-0.028645959 0.778 0.021825492 1.1071617e-38 299 224
-0.027141599 0.77399999 0.021713279 1.1901381e-38 300 224
-0.025784519 0.77399999 0.021713279 1.1440404e-38 301 224
-0.024395877 0.773 0.021685226 1.1348169e-38 302 224
-0.023040552 0.773 0.021685226 1.0794995e-38 303 224
-0.021685226 0.773 0.021685226 1.0701346e-38 304 224
-0.0203299 0.773 0.021685226 1.0424405e-38 305 224
-0.018974574 0.773 0.021685226 1.0239299e-38 306 224
-0.01764204 0.77399999 0.021713279 1.0331493e-38 307 224
-0.016263919 0.773 0.021685226 1.0515882e-38 308 224
-0.014908593 0.773 0.021685226 1.0239299e-38 309 224
-0.013553266 0.773 0.021685226 9.9612815e-39 310 224
-0.01221372 0.77399999 0.021713279 9.4081161e-39 311 224
-0.01085664 0.77399999 0.021713279 8.48725e-39 312 224
-0.0094995592 0.77399999 0.021713279 7.8418904e-39 313 224
-0.0081635201 0.77600002 0.021769386 7.4731135e-39 314 224
-0.0068029333 0.77600002 0.021769386 7.1046953e-39 315 224
-0.0054703997 0.77999997 0.021881599 7.1021842e-39 316 224
-0.0041027996 0.77999997 0.021881599 6.641213e-39 317 224
-0.0027351999 0.77999997 0.021881599 6.7305388e-39 318 224
-0.0013693533 0.78100002 0.021909652 6.5457902e-39 319 224
0 0.78100002 0.021909652 6.3653618e-39 320 224
0.0013693533 0.78100002 0.021909652 6.9185356e-39 321 224
0.0027387065 0.78100002 0.021909652 6.8324356e-39 322 224
0.0040659797 0.773 0.021685226 7.477805e-39 323 224
0.0053792265 0.76700002 0.021516906 8.3075307e-39 324 224
0.006724033 0.76700002 0.021516906 8.5837574e-39 325 224
0.00806884 0.76700002 0.021516906 8.8592555e-39 326 224
0.0094136465 0.76700002 0.021516906 8.7670613e-39 327 224
0.010758453 0.76700002 0.021516906 9.1351207e-39 328 224
0.01210326 0.76700002 0.021516906 9.5960919e-39 329 224
0.013448066 0.76700002 0.021516906 1.0883941e-38 330 224
0.014792874 0.76700002 0.021516906 1.1252359e-38 331 224
0.01613768 0.76700002 0.021516906 1.0881789e-38 332 224
0.017482487 0.76700002 0.021516906 1.06974e-38 333 224
0.018827293 0.76700002 0.021516906 1.0145311e-38 334 224
0.020172099 0.76700002 0.021516906 1.0053117e-38 335 224
0.021573013 0.76899999 0.021573013 1.0052758e-38 336 224
0.022921326 0.76899999 0.021573013 1.0052758e-38 337 224
0.024269639 0.76899999 0.021573013 1.00524e-38 338 224
0.025617953 0.76899999 0.021573013 1.00524e-38 339 224
0.027036399 0.77100003 0.021629119 9.9594892e-39 340 224
0.028461859 0.773 0.021685226 9.7750994e-39 341 224
0.029855758 0.77399999 0.021713279 9.68148e-39 342 224
0.031212838 0.77399999 0.021713279 9.404533e-39 343 224
0.032569919 0.77399999 0.021713279 9.1268993e-39 344 224
0.034014668 0.77600002 0.021769386 8.7577567e-39 345 224
0.035466425 0.778 0.021825492 9.2198587e-39 346 224
0.036830518 0.778 0.021825492 1.2631097e-38 347 224
0.038194612 0.778 0.021825492 1.6590504e-38 348 224
-0.034189999 0.77999997 0.020513998 1.3187181e-38 295 225
-0.032822397 0.77999997 0.020513998 1.0057132e-38 296 225
-0.031454798 0.77999997 0.020513998 9.872739e-39 297 225
-0.03001005 0.778 0.020461399 1.0517346e-38 298 225
-0.028572321 0.77600002 0.0204088 1.0886487e-38 299 225
-0.027141599 0.77399999 0.020356199 1.1073402e-38 300 225
-0.025751207 0.773 0.0203299 1.1073402e-38 301 225
-0.024395877 0.773 0.0203299 1.1164504e-38 302 225
-0.023040552 0.773 0.0203299 1.0795361e-38 303 225
-0.021685226 0.773 0.0203299 1.051911e-38 304 225
-0.0203299 0.773 0.0203299 9.965945e-39 305 225
-0.018974574 0.773 0.0203299 9.873392e-39 306 225
-0.017619247 0.773 0.0203299 9.6886448e-39 307 225
-0.016263919 0.773 0.0203299 1.0330417e-38 308 225
-0.014908593 0.773 0.0203299 1.0238223e-38 309 225
-0.013553266 0.773 0.0203299 9.502104e-39 310 225
-0.012197939 0.773 0.0203299 9.1329683e-39 311 225
-0.01085664 0.77399999 0.020356199 8.2103086e-39 312 225
-0.0094995592 0.77399999 0.020356199 7.9337259e-39 313 225
-0.0081424797 0.77399999 0.020356199 7.3805605e-39 314 225
-0.0067853997 0.77399999 0.020356199 6.9199481e-39 315 225
-0.0054423464 0.77600002 0.0204088 6.9167195e-39 316 225
-0.0040922803 0.778 0.020461399 6.4561071e-39 317 225
-0.0027351999 0.77999997 0.020513998 6.4532373e-39 318 225
-0.0013693533 0.78100002 0.020540299 6.2688488e-39 319 225
0 0.78100002 0.020540299 5.995136e-39 320 225
0.0013693533 0.78100002 0.020540299 7.6542832e-39 321 225
0.0026966266 0.76899999 0.0202247 7.9387706e-39 322 225
0.0040449398 0.76899999 0.0202247 8.58414e-39 323 225
0.0053792265 0.76700002 0.020172099 8.8603359e-39 324 225
0.006724033 0.76700002 0.020172099 8.7681389e-39 325 225
0.00806884 0.76700002 0.020172099 9.2280324e-39 326 225
0.0094136465 0.76700002 0.020172099 9.2280324e-39 327 225
0.010758453 0.76700002 0.020172099 1.0056346e-38 328 225
0.012087479 0.76599997 0.020145798 1.0701705e-38 329 225
0.013430533 0.76599997 0.020145798 1.1344195e-38 330 225
0.014773586 0.76599997 0.020145798 1.1159806e-38 331 225
0.016116638 0.76599997 0.020145798 1.0974342e-38 332 225
0.017482487 0.76700002 0.020172099 1.0513729e-38 333 225
0.018827293 0.76700002 0.020172099 1.0146029e-38 334 225
0.020172099 0.76700002 0.020172099 1.0146029e-38 335 225
0.021516906 0.76700002 0.020172099 1.0144952e-38 336 225
0.022861714 0.76700002 0.020172099 1.0328982e-38 337 225
0.024269639 0.76899999 0.0202247 1.0144957e-38 338 225
0.025617953 0.76899999 0.0202247 1.0052761e-38 339 225
0.027036399 0.77100003 0.020277301 1.0051336e-38 340 225
0.028388219 0.77100003 0.020277301 9.9591389e-39 341 225
0.029817186 0.773 0.0203299 9.6818457e-39 342 225
0.031212838 0.77399999 0.020356199 9.3130632e-39 343 225
0.032569919 0.77399999 0.020356199 9.0357757e-39 344 225
0.034014668 0.77600002 0.0204088 8.6669946e-39 345 225
0.035375252 0.77600002 0.0204088 8.942899e-39 346 225
0.036830518 0.778 0.020461399 1.1616574e-38 347 225
0.038194612 0.778 0.020461399 1.6130956e-38 348 225
-0.034102332 0.778 0.019097306 1.2542514e-38 295 226
-0.032738242 0.778 0.019097306 1.0425544e-38 296 226
-0.031374145 0.778 0.019097306 1.0425544e-38 297 226
-0.03001005 0.778 0.019097306 1.0793939e-38 298 226
-0.028572321 0.77600002 0.019048214 1.0886134e-38 299 226
-0.027141599 0.77399999 0.018999118 1.0338355e-38 300 226
-0.025751207 0.773 0.018974574 1.0430551e-38 301 226
-0.024395877 0.773 0.018974574 1.1163771e-38 302 226
-0.02298094 0.77100003 0.018925481 1.0887544e-38 303 226
-0.021629119 0.77100003 0.018925481 1.0886094e-38 304 226
-0.020277301 0.77100003 0.018925481 1.0793899e-38 305 226
-0.018925481 0.77100003 0.018925481 1.0607359e-38 306 226
-0.017619247 0.773 0.018974574 1.0331135e-38 307 226
-0.016263919 0.773 0.018974574 1.0146746e-38 308 226
-0.014908593 0.773 0.018974574 9.8701634e-39 309 226
-0.013518199 0.77100003 0.018925481 9.502104e-39 310 226
-0.01216638 0.77100003 0.018925481 8.9489386e-39 311 226
-0.010842613 0.773 0.018974574 8.8542333e-39 312 226
-0.0094872871 0.773 0.018974574 8.1166794e-39 313 226
-0.0081109209 0.77100003 0.018925481 7.2898012e-39 314 226
-0.0067590997 0.77100003 0.018925481 6.7366359e-39 315 226
-0.0054213065 0.773 0.018974574 7.1018255e-39 316 226
-0.0040817601 0.77600002 0.019048214 6.824884e-39 317 226
-0.0027351999 0.77999997 0.0191464 6.8216554e-39 318 226
-0.0013675999 0.77999997 0.0191464 6.5450728e-39 319 226
0 0.764 0.018753653 6.0012344e-39 320 226
0.0013395466 0.764 0.018753653 7.5685559e-39 321 226
0.0026896133 0.76700002 0.018827293 8.8603513e-39 322 226
0.00403442 0.76700002 0.018827293 8.8603513e-39 323 226
0.0053722127 0.76599997 0.018802745 9.5953744e-39 324 226
0.0067152665 0.76599997 0.018802745 9.9637926e-39 325 226
0.0080583189 0.76599997 0.018802745 1.0241093e-38 326 226
0.0094013726 0.76599997 0.018802745 1.0241093e-38 327 226
0.010744425 0.76599997 0.018802745 1.1068688e-38 328 226
0.012087479 0.76599997 0.018802745 1.2082469e-38 329 226
0.013430533 0.76599997 0.018802745 1.2448015e-38 330 226
0.014773586 0.76599997 0.018802745 1.1341684e-38 331 226
0.016116638 0.76599997 0.018802745 1.0882506e-38 332 226
0.017459691 0.76599997 0.018802745 1.0974701e-38 333 226
0.018802745 0.76599997 0.018802745 1.0606641e-38 334 226
0.020145798 0.76599997 0.018802745 1.0514447e-38 335 226
0.021516906 0.76700002 0.018827293 1.0514088e-38 336 226
0.022861714 0.76700002 0.018827293 1.0421535e-38 337 226
0.024206521 0.76700002 0.018827293 1.0697042e-38 338 226
0.025617953 0.76899999 0.018876385 1.0697042e-38 339 226
0.026966266 0.76899999 0.018876385 1.0878922e-38 340 226
0.028388219 0.77100003 0.018925481 1.0510501e-38 341 226
0.029740039 0.77100003 0.018925481 1.0233205e-38 342 226
0.031212838 0.77399999 0.018999118 9.8644237e-39 343 226
0.032569919 0.77399999 0.018999118 9.4953119e-39 344 226
0.033927001 0.77399999 0.018999118 9.4953119e-39 345 226
0.035375252 0.77600002 0.019048214 8.9407354e-39 346 226
0.036735836 0.77600002 0.019048214 1.0599897e-38 347 226
0.038096428 0.77600002 0.019048214 1.5485581e-38 348 226
-0.034189999 0.77999997 0.017778799 1.2173726e-38 295 227
-0.032738242 0.778 0.017733213 1.1070195e-38 296 227
-0.031374145 0.778 0.017733213 1.0885804e-38 297 227
-0.029932907 0.77600002 0.017687626 1.0702444e-38 298 227
-0.028498679 0.77399999 0.01764204 1.0610248e-38 299 227
-0.027141599 0.77399999 0.01764204 1.0704951e-38 300 227
-0.025751207 0.773 0.017619247 1.0797146e-38 301 227
-0.02433276 0.77100003 0.01757366 1.0980105e-38 302 227
-0.02298094 0.77100003 0.01757366 1.0795714e-38 303 227
-0.021629119 0.77100003 0.01757366 1.0887191e-38 304 227
-0.020277301 0.77100003 0.01757366 1.0518048e-38 305 227
-0.018925481 0.77100003 0.01757366 1.0423692e-38 306 227
-0.01757366 0.77100003 0.01757366 9.8705222e-39 307 227
-0.016221842 0.77100003 0.01757366 8.7663438e-39 308 227
-0.01487002 0.77100003 0.01757366 9.227315e-39 309 227
-0.013518199 0.77100003 0.01757366 9.4124209e-39 310 227
-0.01216638 0.77100003 0.01757366 8.8592555e-39 311 227
-0.01081456 0.77100003 0.01757366 8.3957733e-39 312 227
-0.0094627403 0.77100003 0.01757366 8.0266376e-39 313 227
-0.0081109209 0.77100003 0.01757366 7.0146535e-39 314 227
-0.0067415666 0.76899999 0.017528072 6.830265e-39 315 227
-0.0053932532 0.76899999 0.017528072 7.1050541e-39 316 227
-0.0040449398 0.76899999 0.017528072 7.1050541e-39 317 227
-0.0026966266 0.76899999 0.017528072 6.8295476e-39 318 227
-0.0013483133 0.76899999 0.017528072 7.65966e-39 319 227
0 0.764 0.017414106 8.3071902e-39 320 227
0.0013395466 0.764 0.017414106 9.0451139e-39 321 227
0.0026790933 0.764 0.017414106 9.5968206e-39 322 227
0.0040186401 0.764 0.017414106 9.4124293e-39 323 227
0.0053722127 0.76599997 0.017459691 9.9652275e-39 324 227
0.0067152665 0.76599997 0.017459691 1.024181e-38 325 227
0.0080583189 0.76599997 0.017459691 1.1252359e-38 326 227
0.0094013726 0.76599997 0.017459691 1.1713331e-38 327 227
0.010744425 0.76599997 0.017459691 1.2449456e-38 328 227
0.012087479 0.76599997 0.017459691 1.3371411e-38 329 227
0.013430533 0.76599997 0.017459691 1.2907561e-38 330 227
0.014735013 0.764 0.017414106 1.1801579e-38 331 227
0.016074561 0.764 0.017414106 1.1067612e-38 332 227
0.017459691 0.76599997 0.017459691 1.0975418e-38 333 227
0.018802745 0.76599997 0.017459691 1.0424046e-38 334 227
0.020145798 0.76599997 0.017459691 1.0424046e-38 335 227
0.021516906 0.76700002 0.017482487 1.0606282e-38 336 227
0.022861714 0.76700002 0.017482487 1.0606282e-38 337 227
0.024206521 0.76700002 0.017482487 1.0881073e-38 338 227
0.025551327 0.76700002 0.017482487 1.0788877e-38 339 227
0.026966266 0.76899999 0.017528072 1.0696328e-38 340 227
0.028314579 0.76899999 0.017528072 1.0512297e-38 341 227
0.029740039 0.77100003 0.01757366 1.0142807e-38 342 227
0.03117251 0.773 0.017619247 9.774026e-39 343 227
0.032569919 0.77399999 0.01764204 9.4963825e-39 344 227
0.033927001 0.77399999 0.01764204 9.5885781e-39 345 227
0.035375252 0.77600002 0.017687626 9.3995402e-39 346 227
0.036735836 0.77600002 0.017687626 1.0598082e-38 347 227
0.038096428 0.77600002 0.017687626 1.4565057e-38 348 227
-0.034189999 0.77999997 0.016411198 1.2355952e-38 295 228
-0.032654081 0.77600002 0.01632704 1.1255658e-38 296 228
-0.031293493 0.77600002 0.01632704 1.0702484e-38 297 228
-0.029855758 0.77399999 0.016284959 1.0885756e-38 298 228
-0.028498679 0.77399999 0.016284959 1.097831e-38 299 228
-0.027106533 0.773 0.016263919 1.0704948e-38 300 228
-0.02568458 0.77100003 0.016221842 1.0981176e-38 301 228
-0.02433276 0.77100003 0.016221842 1.1532207e-38 302 228
-0.02298094 0.77100003 0.016221842 1.2085381e-38 303 228
-0.021629119 0.77100003 0.016221842 1.2913751e-38 304 228
-0.020277301 0.77100003 0.016221842 1.3098501e-38 305 228
-0.018925481 0.77100003 0.016221842 1.3739918e-38 306 228
-0.01757366 0.77100003 0.016221842 1.180381e-38 307 228
-0.016179759 0.76899999 0.016179759 8.7659851e-39 308 228
-0.014831445 0.76899999 0.016179759 8.5815966e-39 309 228
-0.013483133 0.76899999 0.016179759 9.3191505e-39 310 228
-0.012134819 0.76899999 0.016179759 9.2269562e-39 311 228
-0.010786506 0.76899999 0.016179759 8.8571031e-39 312 228
-0.0094381925 0.76899999 0.016179759 8.2117435e-39 313 228
-0.0080898795 0.76899999 0.016179759 7.5678189e-39 314 228
-0.006724033 0.76700002 0.01613768 7.3830717e-39 315 228
-0.0053792265 0.76700002 0.01613768 7.5674601e-39 316 228
-0.00403442 0.76700002 0.01613768 7.8440428e-39 317 228
-0.0026896133 0.76700002 0.01613768 7.8454777e-39 318 228
-0.0013430532 0.76599997 0.016116638 8.3060901e-39 319 228
0 0.76599997 0.016116638 8.6770195e-39 320 228
0.0013395466 0.764 0.016074561 9.2301848e-39 321 228
0.0026790933 0.764 0.016074561 9.6882861e-39 322 228
0.0040186401 0.764 0.016074561 1.0057422e-38 323 228
0.0053581866 0.764 0.016074561 1.0977212e-38 324 228
0.006697733 0.764 0.016074561 1.1438183e-38 325 228
0.0080372803 0.764 0.016074561 1.1897719e-38 326 228
0.0093768267 0.764 0.016074561 1.2450884e-38 327 228
0.010716373 0.764 0.016074561 1.3093374e-38 328 228
0.01205592 0.764 0.016074561 1.3277404e-38 329 228
0.013395466 0.764 0.016074561 1.2724238e-38 330 228
0.014735013 0.764 0.016074561 1.2078879e-38 331 228
0.016074561 0.764 0.016074561 1.1527866e-38 332 228
0.017414106 0.764 0.016074561 1.1343477e-38 333 228
0.018753653 0.764 0.016074561 1.1067612e-38 334 228
0.020145798 0.76599997 0.016116638 1.0975418e-38 335 228
0.021488851 0.76599997 0.016116638 1.1157654e-38 336 228
0.022831906 0.76599997 0.016116638 1.1157654e-38 337 228
0.024206521 0.76700002 0.01613768 1.0973983e-38 338 228
0.025551327 0.76700002 0.01613768 1.0881789e-38 339 228
0.026966266 0.76899999 0.016179759 1.0973266e-38 340 228
0.028314579 0.76899999 0.016179759 1.0788877e-38 341 228
0.02966289 0.76899999 0.016179759 1.0511218e-38 342 228
0.031091858 0.77100003 0.016221842 1.0050606e-38 343 228
0.032527838 0.773 0.016263919 9.956269e-39 344 228
0.033927001 0.77399999 0.016284959 1.0048465e-38 345 228
0.035375252 0.77600002 0.01632704 9.5857223e-39 346 228
0.036735836 0.77600002 0.01632704 1.0323287e-38 347 228
0.038096428 0.77600002 0.01632704 1.4012599e-38 348 228
-0.035603184 0.78100002 0.015062887 1.3646694e-38 294 229
-0.034189999 0.77999997 0.0150436 1.2263759e-38 295 229
-0.032654081 0.77600002 0.014966453 1.1714471e-38 296 229
-0.031293493 0.77600002 0.014966453 1.134569e-38 297 229
-0.029855758 0.77399999 0.014927879 1.1070859e-38 298 229
-0.028461859 0.773 0.014908593 1.1070859e-38 299 229
-0.027106533 0.773 0.014908593 1.1163771e-38 300 229
-0.02568458 0.77100003 0.01487002 1.1348163e-38 301 229
-0.02433276 0.77100003 0.01487002 1.2913404e-38 302 229
-0.02298094 0.77100003 0.01487002 1.466512e-38 303 229
-0.021629119 0.77100003 0.01487002 1.5401684e-38 304 229
-0.020277301 0.77100003 0.01487002 1.567863e-38 305 229
-0.018876385 0.76899999 0.014831445 1.6780642e-38 306 229
-0.017528072 0.76899999 0.014831445 1.4383557e-38 307 229
-0.016179759 0.76899999 0.014831445 1.0790717e-38 308 229
-0.014831445 0.76899999 0.014831445 9.4999782e-39 309 229
-0.013483133 0.76899999 0.014831445 8.6766607e-39 310 229
-0.012134819 0.76899999 0.014831445 8.8614079e-39 311 229
-0.010786506 0.76899999 0.014831445 8.9514497e-39 312 229
-0.0094136465 0.76700002 0.014792874 8.3060901e-39 313 229
-0.00806884 0.76700002 0.014792874 8.396132e-39 314 229
-0.006724033 0.76700002 0.014792874 8.2117435e-39 315 229
-0.0053792265 0.76700002 0.014792874 8.3968494e-39 316 229
-0.0040291594 0.76599997 0.014773586 8.6737909e-39 317 229
-0.0026861064 0.76599997 0.014773586 8.3997193e-39 318 229
-0.0013430532 0.76599997 0.014773586 8.6766607e-39 319 229
0 0.764 0.014735013 8.8614079e-39 320 229
0.0013395466 0.764 0.014735013 9.3223791e-39 321 229
0.00267208 0.76200002 0.01469644 1.0240375e-38 322 229
0.0040081199 0.76200002 0.01469644 1.0885735e-38 323 229
0.0053581866 0.764 0.014735013 1.1621854e-38 324 229
0.006697733 0.764 0.014735013 1.2359412e-38 325 229
0.0080372803 0.764 0.014735013 1.3095898e-38 326 229
0.0093768267 0.764 0.014735013 1.3372843e-38 327 229
0.010716373 0.764 0.014735013 1.3461792e-38 328 229
0.01205592 0.764 0.014735013 1.3093374e-38 329 229
0.013395466 0.764 0.014735013 1.2724597e-38 330 229
0.014735013 0.764 0.014735013 1.235582e-38 331 229
0.016074561 0.764 0.014735013 1.1621136e-38 332 229
0.017414106 0.764 0.014735013 1.1344912e-38 333 229
0.018753653 0.764 0.014735013 1.1159806e-38 334 229
0.020093199 0.764 0.014735013 1.1067612e-38 335 229
0.021488851 0.76599997 0.014773586 1.1066536e-38 336 229
0.022831906 0.76599997 0.014773586 1.1066536e-38 337 229
0.024174958 0.76599997 0.014773586 1.1066177e-38 338 229
0.025551327 0.76700002 0.014792874 1.0973983e-38 339 229
0.026896132 0.76700002 0.014792874 1.0973624e-38 340 229
0.028314579 0.76899999 0.014831445 1.0789236e-38 341 229
0.02966289 0.76899999 0.014831445 1.04201e-38 342 229
0.031091858 0.77100003 0.01487002 1.0050965e-38 343 229
0.032443684 0.77100003 0.01487002 9.9569907e-39 344 229
0.033795502 0.77100003 0.01487002 1.0049186e-38 345 229
0.03528408 0.77399999 0.014927879 9.9552279e-39 346 229
0.036641158 0.77399999 0.014927879 1.0324371e-38 347 229
0.037998237 0.77399999 0.014927879 1.3460146e-38 348 229
-0.035603184 0.78100002 0.013693534 1.2909126e-38 294 230
-0.034189999 0.77999997 0.013675999 1.1987169e-38 295 230
-0.032654081 0.77600002 0.013605867 1.1805945e-38 296 230
-0.031293493 0.77600002 0.013605867 1.1529358e-38 297 230
-0.029855758 0.77399999 0.013570799 1.1163774e-38 298 230
-0.028461859 0.773 0.013553266 1.0794992e-38 299 230
-0.027036399 0.77100003 0.013518199 1.1071249e-38 300 230
-0.02568458 0.77100003 0.013518199 1.291516e-38 301 230
-0.02433276 0.77100003 0.013518199 1.4384982e-38 302 230
-0.022921326 0.76899999 0.013483133 1.5030351e-38 303 230
-0.021573013 0.76899999 0.013483133 1.4662701e-38 304 230
-0.0202247 0.76899999 0.013483133 1.4662701e-38 305 230
-0.018876385 0.76899999 0.013483133 1.5858708e-38 306 230
-0.017528072 0.76899999 0.013483133 1.5766153e-38 307 230
-0.016179759 0.76899999 0.013483133 1.3739921e-38 308 230
-0.014831445 0.76899999 0.013483133 1.1342834e-38 309 230
-0.013448066 0.76700002 0.013448066 8.8624841e-39 310 230
-0.01210326 0.76700002 0.013448066 8.401513e-39 311 230
-0.010758453 0.76700002 0.013448066 8.859973e-39 312 230
-0.0094013726 0.76599997 0.013430533 8.4915548e-39 313 230
-0.0080583189 0.76599997 0.013430533 8.6737909e-39 314 230
-0.0067152665 0.76599997 0.013430533 8.5815966e-39 315 230
-0.0053722127 0.76599997 0.013430533 8.6748671e-39 316 230
-0.0040291594 0.76599997 0.013430533 8.9514497e-39 317 230
-0.0026861064 0.76599997 0.013430533 9.1361969e-39 318 230
-0.0013395466 0.764 0.013395466 9.5049739e-39 319 230
0 0.764 0.013395466 1.0333646e-38 320 230
0.0013395466 0.764 0.013395466 1.0794258e-38 321 230
0.00267208 0.76200002 0.0133604 1.1714048e-38 322 230
0.0040081199 0.76200002 0.0133604 1.226686e-38 323 230
0.0053441599 0.76200002 0.0133604 1.3185942e-38 324 230
0.0066801999 0.76200002 0.0133604 1.3555084e-38 325 230
0.0080162399 0.76200002 0.0133604 1.3924211e-38 326 230
0.0093768267 0.764 0.013395466 1.3555787e-38 327 230
0.01068832 0.76200002 0.0133604 1.3555421e-38 328 230
0.01202436 0.76200002 0.0133604 1.309445e-38 329 230
0.0133604 0.76200002 0.0133604 1.2817509e-38 330 230
0.01469644 0.76200002 0.0133604 1.2449091e-38 331 230
0.016074561 0.764 0.013395466 1.1713331e-38 332 230
0.017414106 0.764 0.013395466 1.1437107e-38 333 230
0.018753653 0.764 0.013395466 1.1527866e-38 334 230
0.020093199 0.764 0.013395466 1.1343477e-38 335 230
0.021488851 0.76599997 0.013430533 1.115873e-38 336 230
0.022831906 0.76599997 0.013430533 1.115873e-38 337 230
0.024174958 0.76599997 0.013430533 1.1066895e-38 338 230
0.025551327 0.76700002 0.013448066 1.1066895e-38 339 230
0.026896132 0.76700002 0.013448066 1.1066177e-38 340 230
0.028314579 0.76899999 0.013483133 1.088143e-38 341 230
0.02966289 0.76899999 0.013483133 1.0696326e-38 342 230
0.031011207 0.76899999 0.013483133 1.0235712e-38 343 230
0.032443684 0.77100003 0.013518199 1.0141379e-38 344 230
0.033795502 0.77100003 0.013518199 1.0141379e-38 345 230
0.03528408 0.77399999 0.013570799 1.0048498e-38 346 230
0.036641158 0.77399999 0.013570799 1.0509837e-38 347 230
0.037998237 0.77399999 0.013570799 1.336723e-38 348 230
-0.03725658 0.787 0.01241886 1.7331684e-38 293 231
-0.035603184 0.78100002 0.01232418 1.2631814e-38 294 231
-0.034189999 0.77999997 0.012308398 1.1986445e-38 295 231
-0.032738242 0.778 0.012276839 1.1990332e-38 296 231
-0.031293493 0.77600002 0.01224528 1.1713747e-38 297 231
-0.029855758 0.77399999 0.01221372 1.1255968e-38 298 231
-0.028461859 0.773 0.012197939 1.0518401e-38 299 231
-0.027036399 0.77100003 0.01216638 1.1346422e-38 300 231
-0.02568458 0.77100003 0.01216638 1.4665464e-38 301 231
-0.02433276 0.77100003 0.01216638 1.5215503e-38 302 231
-0.022921326 0.76899999 0.012134819 1.4293187e-38 303 231
-0.021573013 0.76899999 0.012134819 1.2820953e-38 304 231
-0.0202247 0.76899999 0.012134819 1.2359977e-38 305 231
-0.018876385 0.76899999 0.012134819 1.3832219e-38 306 231
-0.017482487 0.76700002 0.01210326 1.5215153e-38 307 231
-0.01613768 0.76700002 0.01210326 1.4848108e-38 308 231
-0.014792874 0.76700002 0.01210326 1.2819445e-38 309 231
-0.013448066 0.76700002 0.01210326 1.05195e-38 310 231
-0.01210326 0.76700002 0.01210326 9.6897393e-39 311 231
-0.010744425 0.76599997 0.012087479 8.8624841e-39 312 231
-0.0094013726 0.76599997 0.012087479 8.7702899e-39 313 231
-0.0080583189 0.76599997 0.012087479 9.594657e-39 314 231
-0.0067152665 0.76599997 0.012087479 9.5024627e-39 315 231
-0.0053722127 0.76599997 0.012087479 9.594657e-39 316 231
-0.0040186401 0.764 0.01205592 9.7786867e-39 317 231
-0.0026790933 0.764 0.01205592 1.0056704e-38 318 231
-0.0013395466 0.764 0.01205592 1.060987e-38 319 231
0 0.764 0.01205592 1.1254512e-38 320 231
0.0013395466 0.764 0.01205592 1.1715124e-38 321 231
0.00267208 0.76200002 0.01202436 1.2635632e-38 322 231
0.0040081199 0.76200002 0.01202436 1.3096248e-38 323 231
0.0053441599 0.76200002 0.01202436 1.3187725e-38 324 231
0.0066801999 0.76200002 0.01202436 1.346431e-38 325 231
0.0080162399 0.76200002 0.01202436 1.3465021e-38 326 231
0.0093522798 0.76200002 0.01202436 1.3465021e-38 327 231
0.01068832 0.76200002 0.01202436 1.3647974e-38 328 231
0.01202436 0.76200002 0.01202436 1.3279198e-38 329 231
0.0133604 0.76200002 0.01202436 1.3001539e-38 330 231
0.01469644 0.76200002 0.01202436 1.2724597e-38 331 231
0.01603248 0.76200002 0.01202436 1.2080673e-38 332 231
0.01736852 0.76200002 0.01202436 1.1896284e-38 333 231
0.018753653 0.764 0.01205592 1.1435672e-38 334 231
0.020093199 0.764 0.01205592 1.1343477e-38 335 231
0.021432746 0.764 0.01205592 1.115873e-38 336 231
0.022831906 0.76599997 0.012087479 1.115873e-38 337 231
0.024174958 0.76599997 0.012087479 1.0883224e-38 338 231
0.025551327 0.76700002 0.01210326 1.0883224e-38 339 231
