# .PCD v.7 - Point Cloud Data file format
FIELDS x y z rgb imX imY
SIZE 4 4 4 4 4 4
TYPE F F F F F F
COUNT 1 1 1 1 1 1
WIDTH 846
HEIGHT 1
VIEWPOINT 0 0 0 1 0 0 0
POINTS 846
DATA ascii
0.031517919 0.74900001 0.0091927266 7.2607775e-39 344 233
0.032874998 0.75 0.0092049995 7.2607775e-39 345 233
0.034189999 0.75 0.0092049995 6.9859885e-39 346 233
0.035599679 0.75199997 0.0092295464 6.9859885e-39 347 233
0.036918186 0.75199997 0.0092295464 6.1583943e-39 348 233
0.038338386 0.75400001 0.0092540924 5.2364394e-39 349 233
0.039660402 0.75400001 0.0092540924 3.5841277e-39 350 233
0.040982414 0.75400001 0.0092540924 9.7612335e-39 351 233
0.042304426 0.75400001 0.0092540924 1.3274729e-38 352 233
-0.030809574 0.764 0.0080372803 9.402162e-39 297 234
-0.029470026 0.764 0.0080372803 1.021393e-38 298 234
-0.028020019 0.76099998 0.0080057196 8.3700188e-39 299 234
-0.026615599 0.759 0.0079846792 8.821995e-39 300 234
-0.025218192 0.75700003 0.0079636406 8.7297994e-39 301 234
-0.023827799 0.755 0.0079425992 1.001298e-38 302 234
-0.022474226 0.75400001 0.00793208 1.0473956e-38 303 234
-0.021152213 0.75400001 0.00793208 1.1117159e-38 304 234
-0.019830201 0.75400001 0.00793208 1.1209355e-38 305 234
-0.018459093 0.75199997 0.0079110395 1.1208978e-38 306 234
-0.017095 0.75 0.00789 1.1301175e-38 307 234
-0.01578 0.75 0.00789 1.1669222e-38 308 234
-0.014445714 0.74900001 0.0078794798 1.2222036e-38 309 234
-0.013132467 0.74900001 0.0078794798 1.2133061e-38 310 234
-0.01181922 0.74900001 0.0078794798 1.2317811e-38 311 234
-0.010505973 0.74900001 0.0078794798 1.2132708e-38 312 234
-0.0091927266 0.74900001 0.0078794798 1.1856482e-38 313 234
-0.00789 0.75 0.00789 1.1669585e-38 314 234
-0.0065925326 0.75199997 0.0079110395 1.1669585e-38 315 234
-0.0052740262 0.75199997 0.0079110395 1.0202371e-38 316 234
-0.00396604 0.75400001 0.00793208 1.0017978e-38 317 234
-0.0026440267 0.75400001 0.00793208 8.4592815e-39 318 234
-0.0013220133 0.75400001 0.00793208 8.0905004e-39 319 234
0 0.755 0.0079425992 6.3470637e-39 320 234
0.0013272733 0.75700003 0.0079636406 5.7938899e-39 321 234
0.00266156 0.759 0.0079846792 5.9768518e-39 322 234
0.0040028598 0.76099998 0.0080057196 6.2537989e-39 323 234
0.0053371461 0.76099998 0.0080057196 6.6243764e-39 324 234
0.0066714329 0.76099998 0.0080057196 7.5463327e-39 325 234
0.0080057196 0.76099998 0.0080057196 7.7353875e-39 326 234
0.0093400059 0.76099998 0.0080057196 9.0261263e-39 327 234
0.01064624 0.759 0.0079846792 9.3945333e-39 328 234
0.01197702 0.759 0.0079846792 9.3945333e-39 329 234
0.013237666 0.755 0.0079425992 1.0767399e-38 330 234
0.014542146 0.75400001 0.00793208 1.012203e-38 331 234
0.015822079 0.75199997 0.0079110395 1.0758414e-38 332 234
0.017095 0.75 0.00789 1.0205241e-38 333 234
0.018409999 0.75 0.00789 1.0568278e-38 334 234
0.0196987 0.74900001 0.0078794798 9.5541272e-39 335 234
0.021011947 0.74900001 0.0078794798 9.3672318e-39 336 234
0.022325192 0.74900001 0.0078794798 9.0917211e-39 337 234
0.02363844 0.74900001 0.0078794798 8.7261798e-39 338 234
0.024951685 0.74900001 0.0078794798 9.187158e-39 339 234
0.026264934 0.74900001 0.0078794798 8.5464549e-39 340 234
0.027578179 0.74900001 0.0078794798 8.4542592e-39 341 234
0.028891427 0.74900001 0.0078794798 8.0858467e-39 342 234
0.030204674 0.74900001 0.0078794798 8.0858467e-39 343 234
0.031517919 0.74900001 0.0078794798 7.1689378e-39 344 234
0.032831166 0.74900001 0.0078794798 7.0767422e-39 345 234
0.034189999 0.75 0.00789 6.9852697e-39 346 234
0.035505001 0.75 0.00789 6.893074e-39 347 234
0.036918186 0.75199997 0.0079110395 6.3420653e-39 348 234
0.038338386 0.75400001 0.00793208 5.9732813e-39 349 234
0.039660402 0.75400001 0.00793208 4.1347806e-39 350 234
0.040982414 0.75400001 0.00793208 7.3616276e-39 351 234
0.042304426 0.75400001 0.00793208 1.0234794e-38 352 234
-0.030809574 0.764 0.006697733 9.0315816e-39 297 235
-0.029470026 0.764 0.006697733 9.9384193e-39 298 235
-0.028020019 0.76099998 0.0066714329 7.7257242e-39 299 235
-0.026615599 0.759 0.0066538998 9.370494e-39 300 235
-0.025218192 0.75700003 0.0066363667 9.0020703e-39 301 235
-0.02379624 0.75400001 0.0066100666 9.5530888e-39 302 235
-0.022474226 0.75400001 0.0066100666 9.7378402e-39 303 235
-0.021152213 0.75400001 0.0066100666 1.019809e-38 304 235
-0.0197776 0.75199997 0.0065925326 1.0474675e-38 305 235
-0.018409999 0.75 0.006575 1.0842e-38 306 235
-0.017095 0.75 0.006575 1.1210424e-38 307 235
-0.01575896 0.74900001 0.0065662335 1.1764655e-38 308 235
-0.014445714 0.74900001 0.0065662335 1.2041241e-38 309 235
-0.013132467 0.74900001 0.0065662335 1.2317456e-38 310 235
-0.01181922 0.74900001 0.0065662335 1.2317456e-38 311 235
-0.010505973 0.74900001 0.0065662335 1.231566e-38 312 235
-0.0091927266 0.74900001 0.0065662335 1.1946878e-38 313 235
-0.00789 0.75 0.006575 1.1579537e-38 314 235
-0.006575 0.75 0.006575 1.1579537e-38 315 235
-0.00526 0.75 0.006575 1.0845569e-38 316 235
-0.0039555198 0.75199997 0.0065925326 1.0661178e-38 317 235
-0.0026370131 0.75199997 0.0065925326 8.5521834e-39 318 235
-0.0013220133 0.75400001 0.0066100666 8.1834037e-39 319 235
0 0.755 0.0066188332 6.2555757e-39 320 235
0.0013272733 0.75700003 0.0066363667 5.7946046e-39 321 235
0.00266156 0.759 0.0066538998 5.1499722e-39 322 235
0.0040028598 0.76099998 0.0066714329 5.5183946e-39 323 235
0.0053441599 0.76200002 0.0066801999 5.3372474e-39 324 235
0.0066714329 0.76099998 0.0066714329 5.9826168e-39 325 235
0.0080057196 0.76099998 0.0066714329 5.8965126e-39 326 235
0.0093400059 0.76099998 0.0066714329 7.3716427e-39 327 235
0.01064624 0.759 0.0066538998 9.2087029e-39 328 235
0.01194546 0.75700003 0.0066363667 9.1165073e-39 329 235
0.013237666 0.755 0.0066188332 1.00302e-38 330 235
0.014503572 0.75199997 0.0065925326 9.5692234e-39 331 235
0.01578 0.75 0.006575 1.029745e-38 332 235
0.017095 0.75 0.006575 9.9290264e-39 333 235
0.018385453 0.74900001 0.0065662335 9.8343098e-39 334 235
0.0196987 0.74900001 0.0065662335 9.1889404e-39 335 235
0.021011947 0.74900001 0.0065662335 9.1849873e-39 336 235
0.022265578 0.74699998 0.0065486995 9.0927917e-39 337 235
0.023575317 0.74699998 0.0065486995 8.6372058e-39 338 235
0.024885058 0.74699998 0.0065486995 8.9141514e-39 339 235
0.026194798 0.74699998 0.0065486995 8.6382876e-39 340 235
0.027504537 0.74699998 0.0065486995 8.4538963e-39 341 235
0.028814279 0.74699998 0.0065486995 7.9025372e-39 342 235
0.030124018 0.74699998 0.0065486995 7.8103416e-39 343 235
0.031517919 0.74900001 0.0065662335 7.1682162e-39 344 235
0.032831166 0.74900001 0.0065662335 7.3522473e-39 345 235
0.034144413 0.74900001 0.0065662335 6.7104778e-39 346 235
0.035505001 0.75 0.006575 6.7104778e-39 347 235
0.036918186 0.75199997 0.0065925326 6.2509444e-39 348 235
0.038338386 0.75400001 0.0066100666 5.9743575e-39 349 235
0.039660402 0.75400001 0.0066100666 4.2287698e-39 350 235
0.040982414 0.75400001 0.0066100666 5.2432819e-39 351 235
0.042304426 0.75400001 0.0066100666 7.3767252e-39 352 235
0.043626439 0.75400001 0.0066100666 1.4383234e-38 353 235
-0.030728921 0.76200002 0.0053441599 8.8450225e-39 297 236
-0.029392879 0.76200002 0.0053441599 9.8465768e-39 298 236
-0.027946379 0.759 0.0053231199 7.0807079e-39 299 236
-0.026545467 0.75700003 0.0053090933 9.5516441e-39 300 236
-0.025151566 0.755 0.0052950666 9.367613e-39 301 236
-0.02379624 0.75400001 0.0052880533 9.7345962e-39 302 236
-0.022474226 0.75400001 0.0052880533 1.0011183e-38 303 236
-0.021152213 0.75400001 0.0052880533 1.0013333e-38 304 236
-0.019724999 0.75 0.00526 1.0474309e-38 305 236
-0.018409999 0.75 0.00526 1.1026033e-38 306 236
-0.017072206 0.74900001 0.0052529867 1.1395174e-38 307 236
-0.01575896 0.74900001 0.0052529867 1.1491307e-38 308 236
-0.014445714 0.74900001 0.0052529867 1.1952286e-38 309 236
-0.013132467 0.74900001 0.0052529867 1.2135232e-38 310 236
-0.01181922 0.74900001 0.0052529867 1.1858645e-38 311 236
-0.010505973 0.74900001 0.0052529867 1.2040162e-38 312 236
-0.0091927266 0.74900001 0.0052529867 1.1671739e-38 313 236
-0.0078794798 0.74900001 0.0052529867 1.1395872e-38 314 236
-0.006575 0.75 0.00526 1.1488068e-38 315 236
-0.00526 0.75 0.00526 1.0755175e-38 316 236
-0.003945 0.75 0.00526 1.0478229e-38 317 236
-0.00263 0.75 0.00526 8.9202442e-39 318 236
-0.0013185065 0.75199997 0.0052740262 8.4592689e-39 319 236
0 0.75400001 0.0052880533 6.6236352e-39 320 236
0.0013272733 0.75700003 0.0053090933 5.7942458e-39 321 236
0.00266156 0.759 0.0053231199 5.2414392e-39 322 236
0.0040028598 0.76099998 0.0053371461 5.2414392e-39 323 236
0.0053371461 0.76099998 0.0053371461 5.3350796e-39 324 236
0.0066714329 0.76099998 0.0053371461 5.7960577e-39 325 236
0.0080057196 0.76099998 0.0053371461 5.8007142e-39 326 236
0.00931546 0.759 0.0053231199 7.4598754e-39 327 236
0.010618187 0.75700003 0.0053090933 9.0217907e-39 328 236
0.01189812 0.75400001 0.0052880533 8.8373995e-39 329 236
0.013220133 0.75400001 0.0052880533 9.8422131e-39 330 236
0.014465 0.75 0.00526 9.3815951e-39 331 236
0.01575896 0.74900001 0.0052529867 1.0019787e-38 332 236
0.017072206 0.74900001 0.0052529867 9.7435603e-39 333 236
0.018336359 0.74699998 0.0052389596 9.4662532e-39 334 236
0.019646099 0.74699998 0.0052389596 9.0049149e-39 335 236
0.020955838 0.74699998 0.0052389596 8.8190831e-39 336 236
0.022265578 0.74699998 0.0052389596 8.7268861e-39 337 236
0.023575317 0.74699998 0.0052389596 8.7297573e-39 338 236
0.024885058 0.74699998 0.0052389596 8.9141486e-39 339 236
0.026194798 0.74699998 0.0052389596 8.5468108e-39 340 236
0.027504537 0.74699998 0.0052389596 8.2702253e-39 341 236
0.028814279 0.74699998 0.0052389596 7.5351966e-39 342 236
0.030124018 0.74699998 0.0052389596 7.5351966e-39 343 236
0.031433757 0.74699998 0.0052389596 7.0767422e-39 344 236
0.032831166 0.74900001 0.0052529867 7.0767422e-39 345 236
0.034144413 0.74900001 0.0052529867 6.5268054e-39 346 236
0.03545766 0.74900001 0.0052529867 6.5268054e-39 347 236
0.036819998 0.75 0.00526 5.9757967e-39 348 236
0.038236689 0.75199997 0.0052740262 5.7917641e-39 349 236
0.039555199 0.75199997 0.0052740262 4.7815779e-39 350 236
0.040873703 0.75199997 0.0052740262 4.0436541e-39 351 236
0.04219221 0.75199997 0.0052740262 4.9756773e-39 352 236
0.043626439 0.75400001 0.0052880533 1.4103045e-38 353 236
-0.030688593 0.76099998 0.0040028598 8.8424988e-39 297 237
-0.029354304 0.76099998 0.0040028598 9.9373277e-39 298 237
-0.027946379 0.759 0.0039923396 7.4480457e-39 299 237
-0.026545467 0.75700003 0.0039818203 9.5519972e-39 300 237
-0.025151566 0.755 0.0039712996 9.2754103e-39 301 237
-0.02379624 0.75400001 0.00396604 9.3672444e-39 302 237
-0.022474226 0.75400001 0.00396604 9.643474e-39 303 237
-0.021152213 0.75400001 0.00396604 9.9222091e-39 304 237
-0.019724999 0.75 0.003945 1.0382827e-38 305 237
-0.018409999 0.75 0.003945 1.0935269e-38 306 237
-0.017072206 0.74900001 0.0039397399 1.1395887e-38 307 237
-0.01575896 0.74900001 0.0039397399 1.1399115e-38 308 237
-0.014445714 0.74900001 0.0039397399 1.1675701e-38 309 237
-0.013132467 0.74900001 0.0039397399 1.1582784e-38 310 237
-0.01181922 0.74900001 0.0039397399 1.1490589e-38 311 237
-0.010505973 0.74900001 0.0039397399 1.1489512e-38 312 237
-0.0091927266 0.74900001 0.0039397399 1.112073e-38 313 237
-0.0078794798 0.74900001 0.0039397399 1.112073e-38 314 237
-0.0065662335 0.74900001 0.0039397399 1.1028534e-38 315 237
-0.0052529867 0.74900001 0.0039397399 1.0478232e-38 316 237
-0.0039397399 0.74900001 0.0039397399 1.0386036e-38 317 237
-0.0026264933 0.74900001 0.0039397399 9.1946773e-39 318 237
-0.001315 0.75 0.003945 8.918089e-39 319 237
0 0.75199997 0.0039555198 7.0820952e-39 320 237
0.0013237667 0.755 0.0039712996 6.5285711e-39 321 237
0.0026545466 0.75700003 0.0039818203 5.2410833e-39 322 237
0.0039923396 0.759 0.0039923396 4.9648565e-39 323 237
0.0053371461 0.76099998 0.0040028598 5.1503352e-39 324 237
0.0066538998 0.759 0.0039923396 5.4272822e-39 325 237
0.0079846792 0.759 0.0039923396 6.1648206e-39 326 237
0.0092909131 0.75700003 0.0039818203 7.8243434e-39 327 237
0.010590133 0.755 0.0039712996 9.199715e-39 328 237
0.011866559 0.75199997 0.0039555198 8.9234882e-39 329 237
0.01315 0.75 0.003945 9.6538786e-39 330 237
0.014465 0.75 0.003945 9.4694874e-39 331 237
0.01575896 0.74900001 0.0039397399 9.3755023e-39 332 237
0.017026618 0.74699998 0.0039292197 8.9141654e-39 333 237
0.018336359 0.74699998 0.0039292197 9.187158e-39 334 237
0.019646099 0.74699998 0.0039292197 8.7261798e-39 335 237
0.020955838 0.74699998 0.0039292197 8.9102011e-39 336 237
0.022235774 0.74599999 0.0039239596 9.1867894e-39 337 237
0.023543758 0.74599999 0.0039239596 8.821597e-39 338 237
0.024851745 0.74599999 0.0039239596 8.821597e-39 339 237
0.026159734 0.74599999 0.0039239596 8.4539061e-39 340 237
0.027467718 0.74599999 0.0039239596 8.0854837e-39 341 237
0.028775707 0.74599999 0.0039239596 7.1682162e-39 342 237
0.030124018 0.74699998 0.0039292197 7.1682162e-39 343 237
0.031433757 0.74699998 0.0039292197 6.7094016e-39 344 237
0.032743499 0.74699998 0.0039292197 6.5250104e-39 345 237
0.034144413 0.74900001 0.0039397399 6.1587474e-39 346 237
0.03545766 0.74900001 0.0039397399 6.1587474e-39 347 237
0.036819998 0.75 0.003945 5.6077386e-39 348 237
0.038236689 0.75199997 0.0039555198 5.4237075e-39 349 237
0.039555199 0.75199997 0.0039555198 5.2411141e-39 350 237
0.040873703 0.75199997 0.0039555198 4.5031903e-39 351 237
0.04219221 0.75199997 0.0039555198 4.5085811e-39 352 237
0.04351072 0.75199997 0.0039555198 1.4096927e-38 353 237
-0.030688593 0.76099998 0.0026685731 8.8417757e-39 297 238
-0.029354304 0.76099998 0.0026685731 9.844409e-39 298 238
-0.027946379 0.759 0.00266156 8.0923333e-39 299 238
-0.026545467 0.75700003 0.0026545466 9.8296589e-39 300 238
-0.025218192 0.75700003 0.0026545466 9.1842895e-39 301 238
-0.02379624 0.75400001 0.0026440267 9.0917379e-39 302 238
-0.022474226 0.75400001 0.0026440267 9.2761306e-39 303 238
-0.021096105 0.75199997 0.0026370131 9.4626757e-39 304 238
-0.019724999 0.75 0.00263 9.9236538e-39 305 238
-0.018385453 0.74900001 0.0026264933 1.0475379e-38 306 238
-0.017072206 0.74900001 0.0026264933 1.0844163e-38 307 238
-0.01575896 0.74900001 0.0026264933 1.0938505e-38 308 238
-0.014445714 0.74900001 0.0026264933 1.1215093e-38 309 238
-0.013132467 0.74900001 0.0026264933 1.1307642e-38 310 238
-0.01181922 0.74900001 0.0026264933 1.1123251e-38 311 238
-0.010505973 0.74900001 0.0026264933 1.1306197e-38 312 238
-0.0091927266 0.74900001 0.0026264933 1.1121446e-38 313 238
-0.0078794798 0.74900001 0.0026264933 1.0937415e-38 314 238
-0.0065662335 0.74900001 0.0026264933 1.0753024e-38 315 238
-0.0052529867 0.74900001 0.0026264933 1.0202015e-38 316 238
-0.0039397399 0.74900001 0.0026264933 1.0017622e-38 317 238
-0.0026264933 0.74900001 0.0026264933 9.2847234e-39 318 238
-0.001315 0.75 0.00263 9.1925277e-39 319 238
0 0.75 0.00263 7.9986565e-39 320 238
0.0013220133 0.75400001 0.0026440267 7.3532969e-39 321 238
0.0026475333 0.755 0.0026475333 6.2519884e-39 322 238
0.0039818203 0.75700003 0.0026545466 5.975047e-39 323 238
0.0053231199 0.759 0.00266156 5.6094986e-39 324 238
0.0066363667 0.75700003 0.0026545466 5.9786385e-39 325 238
0.0079636406 0.75700003 0.0026545466 6.5325255e-39 326 238
0.0092540924 0.75400001 0.0026440267 7.2700906e-39 327 238
0.010548052 0.75199997 0.0026370131 9.2872471e-39 328 238
0.01181922 0.74900001 0.0026264933 9.1950515e-39 329 238
0.013132467 0.74900001 0.0026264933 9.3762197e-39 330 238
0.014445714 0.74900001 0.0026264933 9.1918271e-39 331 238
0.015716879 0.74699998 0.0026194798 9.1889572e-39 332 238
0.017026618 0.74699998 0.0026194798 8.6357834e-39 333 238
0.018311813 0.74599999 0.0026159731 8.9080543e-39 334 238
0.019619798 0.74599999 0.0026159731 9.0917281e-39 335 238
0.020927785 0.74599999 0.0026159731 9.0034744e-39 336 238
0.022235774 0.74599999 0.0026159731 9.3722555e-39 337 238
0.023543758 0.74599999 0.0026159731 9.098544e-39 338 238
0.02478512 0.74400002 0.00260896 8.7294014e-39 339 238
0.026089599 0.74400002 0.00260896 8.3606385e-39 340 238
0.027467718 0.74599999 0.0026159731 8.1762458e-39 341 238
0.028775707 0.74599999 0.0026159731 6.9834676e-39 342 238
0.03008369 0.74599999 0.0026159731 6.9834676e-39 343 238
0.031433757 0.74699998 0.0026194798 6.2502242e-39 344 238
0.032743499 0.74699998 0.0026194798 6.1580285e-39 345 238
0.034053236 0.74699998 0.0026194798 5.7917669e-39 346 238
0.03545766 0.74900001 0.0026264933 5.7917669e-39 347 238
0.036770906 0.74900001 0.0026264933 5.3322307e-39 348 238
0.038135 0.75 0.00263 5.2396764e-39 349 238
0.039449997 0.75 0.00263 5.1496345e-39 350 238
0.040873703 0.75199997 0.0026370131 4.4120695e-39 351 238
0.04219221 0.75199997 0.0026370131 4.2287544e-39 352 238
0.04351072 0.75199997 0.0026370131 1.3816741e-38 353 238
0.044829223 0.75199997 0.0026370131 1.5577079e-38 354 238
-0.030728921 0.76200002 0.00133604 8.9336182e-39 297 239
-0.029354304 0.76099998 0.0013342865 1.0120284e-38 298 239
-0.027946379 0.759 0.00133078 9.1064908e-39 299 239
-0.026615599 0.759 0.00133078 9.3704828e-39 300 239
-0.025218192 0.75700003 0.0013272733 9.0013416e-39 301 239
-0.02379624 0.75400001 0.0013220133 8.9080599e-39 302 239
-0.022474226 0.75400001 0.0013220133 9.2757663e-39 303 239
-0.021096105 0.75199997 0.0013185065 9.5534294e-39 304 239
-0.019724999 0.75 0.001315 1.0014049e-38 305 239
-0.018385453 0.74900001 0.0013132467 1.0290266e-38 306 239
-0.017072206 0.74900001 0.0013132467 1.065905e-38 307 239
-0.01575896 0.74900001 0.0013132467 1.0844872e-38 308 239
-0.014445714 0.74900001 0.0013132467 1.1305491e-38 309 239
-0.013097399 0.74699998 0.0013097399 1.1125765e-38 310 239
-0.011787659 0.74699998 0.0013097399 1.0849538e-38 311 239
-0.010477919 0.74699998 0.0013097399 1.1031405e-38 312 239
-0.0091681797 0.74699998 0.0013097399 1.0939208e-38 313 239
-0.0078794798 0.74900001 0.0013132467 1.0571875e-38 314 239
-0.0065662335 0.74900001 0.0013132467 1.0295288e-38 315 239
-0.0052389596 0.74699998 0.0013097399 9.8343126e-39 316 239
-0.0039292197 0.74699998 0.0013097399 9.8343126e-39 317 239
-0.0026194798 0.74699998 0.0013097399 9.2836542e-39 318 239
-0.0013132467 0.74900001 0.0013132467 9.2836542e-39 319 239
0 0.75 0.001315 8.3670831e-39 320 239
0.0013185065 0.75199997 0.0013185065 7.8139093e-39 321 239
0.0026440267 0.75400001 0.0013220133 6.5296473e-39 322 239
0.0039712996 0.755 0.0013237667 6.5296473e-39 323 239
0.0052950666 0.755 0.0013237667 6.162664e-39 324 239
0.0066188332 0.755 0.0013237667 6.4392467e-39 325 239
0.00793208 0.75400001 0.0013220133 7.633834e-39 326 239
0.0092295464 0.75199997 0.0013185065 7.8182253e-39 327 239
0.010505973 0.74900001 0.0013132467 9.1932564e-39 328 239
0.011787659 0.74699998 0.0013097399 9.0088652e-39 329 239
0.013097399 0.74699998 0.0013097399 9.3747736e-39 330 239
0.014407139 0.74699998 0.0013097399 8.9137955e-39 331 239
0.015695838 0.74599999 0.0013079866 9.0938777e-39 332 239
0.017003827 0.74599999 0.0013079866 8.8169307e-39 333 239
0.01826272 0.74400002 0.00130448 8.7243721e-39 334 239
0.019567199 0.74400002 0.00130448 9.2753865e-39 335 239
0.02087168 0.74400002 0.00130448 8.915945e-39 336 239
0.022176161 0.74400002 0.00130448 9.5613145e-39 337 239
0.023480639 0.74400002 0.00130448 9.0070673e-39 338 239
0.02478512 0.74400002 0.00130448 8.6382848e-39 339 239
0.026089599 0.74400002 0.00130448 8.1762486e-39 340 239
0.027394081 0.74400002 0.00130448 7.9922175e-39 341 239
0.028775707 0.74599999 0.0013079866 6.7079625e-39 342 239
0.03008369 0.74599999 0.0013079866 6.7079625e-39 343 239
0.031391677 0.74599999 0.0013079866 6.1580285e-39 344 239
0.032743499 0.74699998 0.0013097399 6.1580285e-39 345 239
0.034053236 0.74699998 0.0013097399 5.6077358e-39 346 239
0.03545766 0.74900001 0.0013132467 5.6077358e-39 347 239
0.036770906 0.74900001 0.0013132467 5.3315091e-39 348 239
0.038135 0.75 0.001315 5.2393134e-39 349 239
0.039449997 0.75 0.001315 5.2403826e-39 350 239
0.040873703 0.75199997 0.0013185065 4.3187865e-39 351 239
0.04219221 0.75199997 0.0013185065 4.7804793e-39 352 239
0.04351072 0.75199997 0.0013185065 1.344687e-38 353 239
0.045008067 0.755 0.0013237667 1.4749118e-38 354 239
-0.030728921 0.76200002 -0 9.3034797e-39 297 240
-0.029354304 0.76099998 -0 1.039758e-38 298 240
-0.027946379 0.759 -0 8.4614717e-39 299 240
-0.026615599 0.759 -0 9.188237e-39 300 240
-0.025218192 0.75700003 -0 8.6350646e-39 301 240
-0.023827799 0.755 -0 8.7251134e-39 302 240
-0.022414612 0.75199997 -0 8.9091445e-39 303 240
-0.021096105 0.75199997 -0 8.544685e-39 304 240
-0.019724999 0.75 -0 9.0053045e-39 305 240
-0.018385453 0.74900001 -0 9.4659155e-39 306 240
-0.017072206 0.74900001 -0 9.5581111e-39 307 240
-0.01575896 0.74900001 -0 9.5581083e-39 308 240
-0.014445714 0.74900001 -0 1.0019086e-38 309 240
-0.013097399 0.74699998 -0 1.0759154e-38 310 240
-0.011787659 0.74699998 -0 1.0666957e-38 311 240
-0.010477919 0.74699998 -0 1.085061e-38 312 240
-0.0091681797 0.74699998 -0 1.0573664e-38 313 240
-0.0078584393 0.74699998 -0 1.0848088e-38 314 240
-0.0065486995 0.74699998 -0 1.0755891e-38 315 240
-0.0052389596 0.74699998 -0 1.0019774e-38 316 240
-0.0039292197 0.74699998 -0 9.7431862e-39 317 240
-0.0026194798 0.74699998 -0 9.0085092e-39 318 240
-0.0013097399 0.74699998 -0 8.824118e-39 319 240
0 0.74900001 -0 8.732623e-39 320 240
0.001315 0.75 -0 8.5485933e-39 321 240
0.0026370131 0.75199997 -0 8.1819687e-39 322 240
0.00396604 0.75400001 -0 8.1819687e-39 323 240
0.0052880533 0.75400001 -0 7.7235087e-39 324 240
0.0066100666 0.75400001 -0 7.9997327e-39 325 240
0.0079110395 0.75199997 -0 9.1921648e-39 326 240
0.0091927266 0.74900001 -0 9.2843604e-39 327 240
0.010477919 0.74699998 -0 9.6506346e-39 328 240
0.011771879 0.74599999 -0 9.2818535e-39 329 240
0.013079867 0.74599999 -0 9.3711835e-39 330 240
0.014387853 0.74599999 -0 9.0020422e-39 331 240
0.015653761 0.74400002 -0 8.9091263e-39 332 240
0.016958239 0.74400002 -0 8.448867e-39 333 240
0.01826272 0.74400002 -0 9.0956602e-39 334 240
0.0195146 0.74199998 -0 9.8332154e-39 335 240
0.020815572 0.74199998 -0 9.6524143e-39 336 240
0.022116546 0.74199998 -0 9.5602186e-39 337 240
0.023417519 0.74199998 -0 9.1896635e-39 338 240
0.024718491 0.74199998 -0 8.7286853e-39 339 240
0.026019465 0.74199998 -0 8.1762486e-39 340 240
0.027394081 0.74400002 -0 7.8996631e-39 341 240
0.02869856 0.74400002 -0 7.0745842e-39 342 240
0.030003037 0.74400002 -0 7.1671386e-39 343 240
0.031391677 0.74599999 -0 6.3406219e-39 344 240
0.032699663 0.74599999 -0 6.4328175e-39 345 240
0.034053236 0.74699998 -0 5.6077386e-39 346 240
0.035362978 0.74699998 -0 5.4237075e-39 347 240
0.036770906 0.74900001 -0 5.0563641e-39 348 240
0.038135 0.75 -0 5.0563641e-39 349 240
0.039449997 0.75 -0 4.7833701e-39 350 240
0.040982414 0.75400001 -0 5.059957e-39 351 240
0.042304426 0.75400001 -0 5.5173282e-39 352 240
0.043684296 0.755 -0 1.2708587e-38 353 240
0.045008067 0.755 -0 1.4378534e-38 354 240
0.04633183 0.755 -0 1.6591228e-38 355 240
-0.032064959 0.76200002 -0.00133604 1.1700561e-38 296 241
-0.030728921 0.76200002 -0.00133604 9.3034741e-39 297 241
-0.029354304 0.76099998 -0.0013342865 1.085639e-38 298 241
-0.028020019 0.76099998 -0.0013342865 9.2887059e-39 299 241
-0.026615599 0.759 -0.00133078 9.4666161e-39 300 241
-0.025218192 0.75700003 -0.0013272733 8.8212467e-39 301 241
-0.023827799 0.755 -0.0013237667 8.5414382e-39 302 241
-0.022414612 0.75199997 -0.0013185065 8.7258295e-39 303 241
-0.021096105 0.75199997 -0.0013185065 8.63508e-39 304 241
-0.019724999 0.75 -0.001315 9.0960567e-39 305 241
-0.018385453 0.74900001 -0.0013132467 9.2808025e-39 306 241
-0.017072206 0.74900001 -0.0013132467 9.3729982e-39 307 241
-0.015716879 0.74699998 -0.0013097399 9.4641148e-39 308 241
-0.014407139 0.74699998 -0.0013097399 9.2800837e-39 309 241
-0.013097399 0.74699998 -0.0013097399 9.6513773e-39 310 241
-0.011787659 0.74699998 -0.0013097399 1.0296747e-38 311 241
-0.010477919 0.74699998 -0.0013097399 1.1037166e-38 312 241
-0.0091681797 0.74699998 -0.0013097399 1.0668384e-38 313 241
-0.0078584393 0.74699998 -0.0013097399 1.0485422e-38 314 241
-0.0065486995 0.74699998 -0.0013097399 1.0393225e-38 315 241
-0.0052389596 0.74699998 -0.0013097399 9.8389817e-39 316 241
-0.0039292197 0.74699998 -0.0013097399 9.101058e-39 317 241
-0.0026194798 0.74699998 -0.0013097399 9.0989098e-39 318 241
-0.0013097399 0.74699998 -0.0013097399 9.1911054e-39 319 241
0 0.74699998 -0.0013097399 8.7319223e-39 320 241
0.0013132467 0.74900001 -0.0013132467 8.5478912e-39 321 241
0.00263 0.75 -0.001315 8.4564102e-39 322 241
0.0039397399 0.74900001 -0.0013132467 8.4564102e-39 323 241
0.0052389596 0.74699998 -0.0013097399 8.7319195e-39 324 241
0.0065486995 0.74699998 -0.0013097399 9.0088652e-39 325 241
0.0078794798 0.74900001 -0.0013132467 9.4669664e-39 326 241
0.0091681797 0.74699998 -0.0013097399 9.4669664e-39 327 241
0.01043584 0.74400002 -0.00130448 9.7403163e-39 328 241
0.011740319 0.74400002 -0.00130448 9.4637294e-39 329 241
0.0130448 0.74400002 -0.00130448 9.5534041e-39 330 241
0.01434928 0.74400002 -0.00130448 9.0924316e-39 331 241
0.015611678 0.74199998 -0.0013009732 8.9094781e-39 332 241
0.016912652 0.74199998 -0.0013009732 9.7388674e-39 333 241
0.018213626 0.74199998 -0.0013009732 9.5605774e-39 334 241
0.0195146 0.74199998 -0.0013009732 1.0574368e-38 335 241
0.020815572 0.74199998 -0.0013009732 9.7460546e-39 336 241
0.022116546 0.74199998 -0.0013009732 9.1006852e-39 337 241
0.023417519 0.74199998 -0.0013009732 8.8216026e-39 338 241
0.024718491 0.74199998 -0.0013009732 8.3606259e-39 339 241
0.026019465 0.74199998 -0.0013009732 7.7181445e-39 340 241
0.027320439 0.74199998 -0.0013009732 7.6255902e-39 341 241
0.028621411 0.74199998 -0.0013009732 6.8916279e-39 342 241
0.030003037 0.74400002 -0.00130448 6.9838235e-39 343 241
0.031307522 0.74400002 -0.00130448 6.1580285e-39 344 241
0.032699663 0.74599999 -0.0013079866 6.0654742e-39 345 241
0.034007654 0.74599999 -0.0013079866 5.6077358e-39 346 241
0.035362978 0.74699998 -0.0013097399 5.4237047e-39 347 241
0.036672719 0.74699998 -0.0013097399 5.1478339e-39 348 241
0.038084153 0.74900001 -0.0013132467 4.9638027e-39 349 241
0.0393974 0.74900001 -0.0013132467 5.2429036e-39 350 241
0.040873703 0.75199997 -0.0013185065 5.8882716e-39 351 241
0.042304426 0.75400001 -0.0013220133 6.4425229e-39 352 241
0.043684296 0.755 -0.0013237667 1.1697674e-38 353 241
0.045008067 0.755 -0.0013237667 1.4100871e-38 354 241
0.04633183 0.755 -0.0013237667 1.6682349e-38 355 241
-0.033401001 0.76200002 -0.00267208 1.5118639e-38 295 242
-0.032064959 0.76200002 -0.00267208 1.1885308e-38 296 242
-0.030728921 0.76200002 -0.00267208 9.580417e-39 297 242
-0.029354304 0.76099998 -0.0026685731 1.0858908e-38 298 242
-0.028020019 0.76099998 -0.0026685731 9.475974e-39 299 242
-0.026615599 0.759 -0.00266156 9.0106798e-39 300 242
-0.025218192 0.75700003 -0.0026545466 7.4433527e-39 301 242
-0.02379624 0.75400001 -0.0026440267 8.4506845e-39 302 242
-0.022474226 0.75400001 -0.0026440267 8.4506845e-39 303 242
-0.021152213 0.75400001 -0.0026440267 7.9940294e-39 304 242
-0.019724999 0.75 -0.00263 8.2702561e-39 305 242
-0.018385453 0.74900001 -0.0026264933 8.7305126e-39 306 242
-0.017072206 0.74900001 -0.0026264933 8.7305126e-39 307 242
-0.015716879 0.74699998 -0.0026194798 8.6379527e-39 308 242
-0.014407139 0.74699998 -0.0026194798 8.6379527e-39 309 242
-0.013097399 0.74699998 -0.0026194798 9.0049387e-39 310 242
-0.011787659 0.74699998 -0.0026194798 9.4659155e-39 311 242
-0.010477919 0.74699998 -0.0026194798 9.9319131e-39 312 242
-0.0091681797 0.74699998 -0.0026194798 1.0024109e-38 313 242
-0.0078584393 0.74699998 -0.0026194798 9.8422159e-39 314 242
-0.0065486995 0.74699998 -0.0026194798 9.6578247e-39 315 242
-0.0052389596 0.74699998 -0.0026194798 9.7446323e-39 316 242
-0.0039292197 0.74699998 -0.0026194798 9.0992629e-39 317 242
-0.0026159731 0.74599999 -0.0026159731 8.8230516e-39 318 242
-0.0013079866 0.74599999 -0.0026159731 8.7304972e-39 319 242
0 0.74699998 -0.0026194798 8.6386533e-39 320 242
0.0013097399 0.74699998 -0.0026194798 8.6386533e-39 321 242
0.0026194798 0.74699998 -0.0026194798 8.9141514e-39 322 242
0.0039397399 0.74900001 -0.0026264933 9.006347e-39 323 242
0.0052389596 0.74699998 -0.0026194798 9.4651686e-39 324 242
0.0065486995 0.74699998 -0.0026194798 9.6499186e-39 325 242
0.0078584393 0.74699998 -0.0026194798 9.8332308e-39 326 242
0.0091559067 0.74599999 -0.0026159731 9.8332308e-39 327 242
0.01043584 0.74400002 -0.00260896 1.0014385e-38 328 242
0.011740319 0.74400002 -0.00260896 9.8299938e-39 329 242
0.013009733 0.74199998 -0.0026019465 9.7403023e-39 330 242
0.014310705 0.74199998 -0.0026019465 1.0108723e-38 331 242
0.015611678 0.74199998 -0.0026019465 9.8357251e-39 332 242
0.016912652 0.74199998 -0.0026019465 1.0296696e-38 333 242
0.018189078 0.741 -0.0025984398 1.0573285e-38 334 242
0.019488299 0.741 -0.0025984398 1.0388535e-38 335 242
0.020787518 0.741 -0.0025984398 9.8328651e-39 336 242
0.02208674 0.741 -0.0025984398 9.3718869e-39 337 242
0.023417519 0.74199998 -0.0026019465 8.7283322e-39 338 242
0.024718491 0.74199998 -0.0026019465 8.6361366e-39 339 242
0.026019465 0.74199998 -0.0026019465 8.0851278e-39 340 242
0.027320439 0.74199998 -0.0026019465 7.8085395e-39 341 242
0.028621411 0.74199998 -0.0026019465 7.1664169e-39 342 242
0.029922385 0.74199998 -0.0026019465 7.1664169e-39 343 242
0.031307522 0.74400002 -0.00260896 6.3413408e-39 344 242
0.032612 0.74400002 -0.00260896 6.1573097e-39 345 242
0.034007654 0.74599999 -0.0026159731 5.4237047e-39 346 242
0.035362978 0.74699998 -0.0026194798 5.2393134e-39 347 242
0.036672719 0.74699998 -0.0026194798 4.9638055e-39 348 242
0.038084153 0.74900001 -0.0026264933 4.9638055e-39 349 242
0.0393974 0.74900001 -0.0026264933 5.0585151e-39 350 242
0.040873703 0.75199997 -0.0026370131 6.8102321e-39 351 242
0.042304426 0.75400001 -0.0026440267 7.365554e-39 352 242
0.043626439 0.75400001 -0.0026440267 1.123777e-38 353 242
0.045008067 0.755 -0.0026475333 1.3916116e-38 354 242
0.04633183 0.755 -0.0026475333 1.6773821e-38 355 242
-0.034737039 0.76200002 -0.0040081199 1.6962547e-38 294 243
-0.033401001 0.76200002 -0.0040081199 1.5210831e-38 295 243
-0.032064959 0.76200002 -0.0040081199 1.2346279e-38 296 243
-0.030728921 0.76200002 -0.0040081199 9.8569982e-39 297 243
-0.029354304 0.76099998 -0.0040028598 1.0768511e-38 298 243
-0.028020019 0.76099998 -0.0040028598 9.4777718e-39 299 243
-0.026615599 0.759 -0.0039923396 8.9210037e-39 300 243
-0.025218192 0.75700003 -0.0039818203 6.9848955e-39 301 243
-0.02379624 0.75400001 -0.00396604 8.2673695e-39 302 243
-0.022474226 0.75400001 -0.00396604 8.3599252e-39 303 243
-0.021152213 0.75400001 -0.00396604 7.9021869e-39 304 243
-0.0197776 0.75199997 -0.0039555198 8.0865781e-39 305 243
-0.018385453 0.74900001 -0.0039397399 8.4553579e-39 306 243
-0.017072206 0.74900001 -0.0039397399 8.3631608e-39 307 243
-0.01575896 0.74900001 -0.0039397399 8.6375841e-39 308 243
-0.014407139 0.74699998 -0.0039292197 8.4531929e-39 309 243
-0.013097399 0.74699998 -0.0039292197 8.6354359e-39 310 243
-0.011787659 0.74699998 -0.0039292197 7.9900665e-39 311 243
-0.010477919 0.74699998 -0.0039292197 7.901468e-39 312 243
-0.0091681797 0.74699998 -0.0039292197 8.9152598e-39 313 243
-0.0078584393 0.74699998 -0.0039292197 9.1936264e-39 314 243
-0.0065486995 0.74699998 -0.0039292197 9.1936264e-39 315 243
-0.0052319462 0.74599999 -0.0039239596 9.1007105e-39 316 243
-0.0039239596 0.74599999 -0.0039239596 8.7315692e-39 317 243
-0.0026159731 0.74599999 -0.0039239596 8.5461017e-39 318 243
-0.0013079866 0.74599999 -0.0039239596 8.4539061e-39 319 243
0 0.74699998 -0.0039292197 8.7301301e-39 320 243
0.0013097399 0.74699998 -0.0039292197 8.7301301e-39 321 243
0.0026194798 0.74699998 -0.0039292197 9.1889404e-39 322 243
0.0039292197 0.74699998 -0.0039292197 9.281136e-39 323 243
0.0052389596 0.74699998 -0.0039292197 9.7399604e-39 324 243
0.0065399334 0.74599999 -0.0039239596 9.7399604e-39 325 243
0.0078479191 0.74599999 -0.0039239596 1.0198064e-38 326 243
0.0091313599 0.74400002 -0.0039134403 1.0198064e-38 327 243
0.01043584 0.74400002 -0.0039134403 1.0196978e-38 328 243
0.01170876 0.74199998 -0.0039029196 1.0473565e-38 329 243
0.013009733 0.74199998 -0.0039029196 9.8353762e-39 330 243
0.014310705 0.74199998 -0.0039029196 1.0480746e-38 331 243
0.015611678 0.74199998 -0.0039029196 1.0022642e-38 332 243
0.016912652 0.74199998 -0.0039029196 9.9304459e-39 333 243
0.018189078 0.741 -0.0038976599 1.0113042e-38 334 243
0.019488299 0.741 -0.0038976599 9.5598683e-39 335 243
0.020787518 0.741 -0.0038976599 9.8307099e-39 336 243
0.02208674 0.741 -0.0038976599 9.3697331e-39 337 243
0.023417519 0.74199998 -0.0039029196 8.6357708e-39 338 243
0.024718491 0.74199998 -0.0039029196 8.6357708e-39 339 243
0.026019465 0.74199998 -0.0039029196 8.1755242e-39 340 243
0.027320439 0.74199998 -0.0039029196 8.0833285e-39 341 243
0.028621411 0.74199998 -0.0039029196 7.2575335e-39 342 243
0.029922385 0.74199998 -0.0039029196 7.2575335e-39 343 243
0.031307522 0.74400002 -0.0039134403 6.0647553e-39 344 243
0.032612 0.74400002 -0.0039134403 6.0647553e-39 345 243
0.034007654 0.74599999 -0.0039239596 5.4226257e-39 346 243
0.035362978 0.74699998 -0.0039292197 5.1463975e-39 347 243
0.036672719 0.74699998 -0.0039292197 4.7790541e-39 348 243
0.038084153 0.74900001 -0.0039397399 4.9638055e-39 349 243
0.0393974 0.74900001 -0.0039397399 5.4254955e-39 350 243
0.040764999 0.75 -0.003945 7.4537994e-39 351 243
0.04219221 0.75199997 -0.0039555198 7.8265294e-39 352 243
0.04351072 0.75199997 -0.0039555198 1.1329963e-38 353 243
0.045008067 0.755 -0.0039712996 1.3823917e-38 354 243
-0.034737039 0.76200002 -0.0053441599 1.6594488e-38 294 244
-0.033401001 0.76200002 -0.0053441599 1.5303749e-38 295 244
-0.032064959 0.76200002 -0.0053441599 1.2992729e-38 296 244
-0.030728921 0.76200002 -0.0053441599 1.0134663e-38 297 244
-0.029354304 0.76099998 -0.0053371461 1.0860709e-38 298 244
-0.028020019 0.76099998 -0.0053371461 9.5699703e-39 299 244
-0.026615599 0.759 -0.0053231199 9.1050405e-39 300 244
-0.025151566 0.755 -0.0052950666 7.3536822e-39 301 244
-0.02379624 0.75400001 -0.0052880533 8.2680925e-39 302 244
-0.022414612 0.75199997 -0.0052740262 8.1758955e-39 303 244
-0.021096105 0.75199997 -0.0052740262 7.8089193e-39 304 244
-0.0197776 0.75199997 -0.0052740262 8.085146e-39 305 244
-0.018385453 0.74900001 -0.0052529867 8.2698932e-39 306 244
-0.017072206 0.74900001 -0.0052529867 8.7305126e-39 307 244
-0.01575896 0.74900001 -0.0052529867 8.5475507e-39 308 244
-0.014407139 0.74699998 -0.0052389596 8.363158e-39 309 244
-0.013097399 0.74699998 -0.0052389596 8.3606441e-39 310 244
-0.011787659 0.74699998 -0.0052389596 7.8996659e-39 311 244
-0.010477919 0.74699998 -0.0052389596 7.6227259e-39 312 244
-0.0091681797 0.74699998 -0.0052389596 7.6227259e-39 313 244
-0.0078479191 0.74599999 -0.0052319462 7.4419248e-39 314 244
-0.0065399334 0.74599999 -0.0052319462 8.1798486e-39 315 244
-0.0052319462 0.74599999 -0.0052319462 8.8237704e-39 316 244
-0.0039239596 0.74599999 -0.0052319462 8.7312161e-39 317 244
-0.00260896 0.74400002 -0.0052179201 8.1801961e-39 318 244
-0.00130448 0.74400002 -0.0052179201 8.0880005e-39 319 244
0 0.74400002 -0.0052179201 8.8234019e-39 320 244
0.0013079866 0.74599999 -0.0052319462 9.2840199e-39 321 244
0.0026159731 0.74599999 -0.0052319462 9.6506346e-39 322 244
0.0039239596 0.74599999 -0.0052319462 9.4666035e-39 323 244
0.0052319462 0.74599999 -0.0052319462 9.9225538e-39 324 244
0.0065399334 0.74599999 -0.0052319462 9.9225538e-39 325 244
0.0078268806 0.74400002 -0.0052179201 1.0290619e-38 326 244
0.0091313599 0.74400002 -0.0052179201 1.0290619e-38 327 244
0.010407786 0.74199998 -0.0052038929 1.0473565e-38 328 244
0.01170876 0.74199998 -0.0052038929 1.0473565e-38 329 244
0.013009733 0.74199998 -0.0052038929 9.832512e-39 330 244
0.014310705 0.74199998 -0.0052038929 9.9247076e-39 331 244
0.015611678 0.74199998 -0.0052038929 1.0012953e-38 332 244
0.016889861 0.741 -0.0051968796 1.0197346e-38 333 244
0.018189078 0.741 -0.0051968796 1.0199853e-38 334 244
0.019488299 0.741 -0.0051968796 1.0660472e-38 335 244
0.020787518 0.741 -0.0051968796 1.0660108e-38 336 244
0.02208674 0.741 -0.0051968796 1.0014738e-38 337 244
0.023417519 0.74199998 -0.0052038929 9.3697387e-39 338 244
0.024718491 0.74199998 -0.0052038929 9.4619344e-39 339 244
0.026019465 0.74199998 -0.0052038929 8.3584763e-39 340 244
0.027320439 0.74199998 -0.0052038929 8.3584763e-39 341 244
0.028621411 0.74199998 -0.0052038929 7.2575363e-39 342 244
0.029922385 0.74199998 -0.0052038929 7.2575363e-39 343 244
0.031223357 0.74199998 -0.0052038929 6.1558719e-39 344 244
0.032612 0.74400002 -0.0052179201 6.1558719e-39 345 244
0.033916477 0.74400002 -0.0052179201 5.1463947e-39 346 244
0.03531564 0.74599999 -0.0052319462 5.0541991e-39 347 244
0.036672719 0.74699998 -0.0052389596 4.7790541e-39 348 244
0.038084153 0.74900001 -0.0052529867 5.1478367e-39 349 244
0.0393974 0.74900001 -0.0052529867 5.4265787e-39 350 244
0.040764999 0.75 -0.00526 7.362687e-39 351 244
0.04219221 0.75199997 -0.0052740262 7.7361344e-39 352 244
0.04351072 0.75199997 -0.0052740262 1.1700547e-38 353 244
0.044829223 0.75199997 -0.0052740262 1.3823917e-38 354 244
-0.034737039 0.76200002 -0.0066801999 1.6502292e-38 294 245
-0.033401001 0.76200002 -0.0066801999 1.5580696e-38 295 245
-0.032064959 0.76200002 -0.0066801999 1.3731018e-38 296 245
-0.030728921 0.76200002 -0.0066801999 1.0596367e-38 297 245
-0.029354304 0.76099998 -0.0066714329 1.0953269e-38 298 245
-0.027946379 0.759 -0.0066538998 9.8472802e-39 299 245
-0.026615599 0.759 -0.0066538998 9.1071971e-39 300 245
-0.025151566 0.755 -0.0066188332 7.35512e-39 301 245
-0.02379624 0.75400001 -0.0066100666 7.7174397e-39 302 245
-0.022414612 0.75199997 -0.0065925326 7.6252427e-39 303 245
-0.021096105 0.75199997 -0.0065925326 7.8071298e-39 304 245
-0.0197776 0.75199997 -0.0065925326 7.9918812e-39 305 245
-0.018409999 0.75 -0.006575 8.0858719e-39 306 245
-0.017072206 0.74900001 -0.0065662335 8.54685e-39 307 245
-0.01575896 0.74900001 -0.0065662335 8.6433392e-39 308 245
-0.014407139 0.74699998 -0.0065486995 8.0901655e-39 309 245
-0.013097399 0.74699998 -0.0065486995 8.7283294e-39 310 245
-0.011771879 0.74599999 -0.0065399334 8.1755144e-39 311 245
-0.010463892 0.74599999 -0.0065399334 7.8067515e-39 312 245
-0.0091559067 0.74599999 -0.0065399334 7.438685e-39 313 245
-0.0078268806 0.74400002 -0.0065223998 6.8887706e-39 314 245
-0.0065223998 0.74400002 -0.0065223998 7.53414e-39 315 245
-0.0052179201 0.74400002 -0.0065223998 7.9972538e-39 316 245
-0.0039134403 0.74400002 -0.0065223998 8.3656762e-39 317 245
-0.00260896 0.74400002 -0.0065223998 8.6411588e-39 318 245
-0.00130448 0.74400002 -0.0065223998 8.6411588e-39 319 245
0 0.74400002 -0.0065223998 9.0092155e-39 320 245
0.00130448 0.74400002 -0.0065223998 9.1936067e-39 321 245
0.00260896 0.74400002 -0.0065223998 1.0110888e-38 322 245
0.0039134403 0.74400002 -0.0065223998 9.8346601e-39 323 245
0.0052179201 0.74400002 -0.0065223998 1.0290969e-38 324 245
0.0065223998 0.74400002 -0.0065223998 1.0198774e-38 325 245
0.0078058392 0.74199998 -0.0065048663 1.0565405e-38 326 245
0.009106813 0.74199998 -0.0065048663 1.0473209e-38 327 245
0.010407786 0.74199998 -0.0065048663 1.0380663e-38 328 245
0.01169298 0.741 -0.0064960998 1.0104435e-38 329 245
0.0129922 0.741 -0.0064960998 9.5519972e-39 330 245
0.01429142 0.741 -0.0064960998 9.2754103e-39 331 245
0.01559064 0.741 -0.0064960998 9.1835776e-39 332 245
0.016889861 0.741 -0.0064960998 9.734599e-39 333 245
0.018189078 0.741 -0.0064960998 1.020202e-38 334 245
0.019488299 0.741 -0.0064960998 1.084739e-38 335 245
0.020787518 0.741 -0.0064960998 1.093884e-38 336 245
0.02208674 0.741 -0.0064960998 1.0201275e-38 337 245
0.023417519 0.74199998 -0.0065048663 9.6474004e-39 338 245
0.024718491 0.74199998 -0.0065048663 9.1864237e-39 339 245
0.026019465 0.74199998 -0.0065048663 8.7254637e-39 340 245
0.027320439 0.74199998 -0.0065048663 8.6332681e-39 341 245
0.028621411 0.74199998 -0.0065048663 7.5323254e-39 342 245
0.029922385 0.74199998 -0.0065048663 7.4401297e-39 343 245
0.031223357 0.74199998 -0.0065048663 6.2477046e-39 344 245
0.032524332 0.74199998 -0.0065048663 6.155509e-39 345 245
0.033916477 0.74400002 -0.0065223998 5.054918e-39 346 245
0.03531564 0.74599999 -0.0065399334 4.7786912e-39 347 245
0.036672719 0.74699998 -0.0065486995 4.8712498e-39 348 245
0.03798246 0.74699998 -0.0065486995 5.3322279e-39 349 245
0.0393974 0.74900001 -0.0065662335 5.3358279e-39 350 245
0.040710647 0.74900001 -0.0065662335 7.1797405e-39 351 245
0.04219221 0.75199997 -0.0065925326 7.9212459e-39 352 245
0.043626439 0.75400001 -0.0066100666 1.2162245e-38 353 245
0.044948451 0.75400001 -0.0066100666 1.4283818e-38 354 245
-0.034691449 0.76099998 -0.0080057196 1.6226428e-38 294 246
-0.033357166 0.76099998 -0.0080057196 1.5488863e-38 295 246
-0.032064959 0.76200002 -0.0080162399 1.4285634e-38 296 246
-0.030728921 0.76200002 -0.0080162399 1.1058788e-38 297 246
-0.029354304 0.76099998 -0.0080057196 1.0679562e-38 298 246
-0.027946379 0.759 -0.0079846792 9.5728542e-39 299 246
-0.026615599 0.759 -0.0079846792 9.3827022e-39 300 246
-0.025151566 0.755 -0.0079425992 7.9075721e-39 301 246
-0.02379624 0.75400001 -0.00793208 7.9950986e-39 302 246
-0.022414612 0.75199997 -0.0079110395 7.6266762e-39 303 246
-0.021096105 0.75199997 -0.0079110395 7.8067641e-39 304 246
-0.0197776 0.75199997 -0.0079110395 7.9915141e-39 305 246
-0.018409999 0.75 -0.00789 8.3595875e-39 306 246
-0.017072206 0.74900001 -0.0078794798 1.02035e-38 307 246
-0.01575896 0.74900001 -0.0078794798 1.067671e-38 308 246
-0.014407139 0.74699998 -0.0078584393 9.1090244e-39 309 246
-0.013097399 0.74699998 -0.0078584393 8.917415e-39 310 246
-0.011771879 0.74599999 -0.0078479191 7.0735024e-39 311 246
-0.010463892 0.74599999 -0.0078479191 7.0713332e-39 312 246
-0.0091559067 0.74599999 -0.0078479191 7.7145502e-39 313 246
-0.0078268806 0.74400002 -0.0078268806 7.255014e-39 314 246
-0.0065223998 0.74400002 -0.0078268806 7.9918616e-39 315 246
-0.0052179201 0.74400002 -0.0078268806 8.3635084e-39 316 246
-0.0039134403 0.74400002 -0.0078268806 9.1010748e-39 317 246
-0.0026019465 0.74199998 -0.0078058392 8.4600102e-39 318 246
-0.0013009732 0.74199998 -0.0078058392 8.4600102e-39 319 246
0 0.74199998 -0.0078058392 9.1950515e-39 320 246
0.00130448 0.74400002 -0.0078268806 9.2872471e-39 321 246
0.0026019465 0.74199998 -0.0078058392 1.011197e-38 322 246
0.0039029196 0.74199998 -0.0078058392 1.011197e-38 323 246
0.0052179201 0.74400002 -0.0078268806 1.0567906e-38 324 246
0.0065048663 0.74199998 -0.0078058392 1.0567906e-38 325 246
0.0078058392 0.74199998 -0.0078058392 1.0840903e-38 326 246
0.009106813 0.74199998 -0.0078058392 1.0563956e-38 327 246
0.010407786 0.74199998 -0.0078058392 1.0193753e-38 328 246
0.01169298 0.741 -0.0077953199 1.0101916e-38 329 246
0.0129922 0.741 -0.0077953199 9.2754075e-39 330 246
0.01429142 0.741 -0.0077953199 8.9998982e-39 331 246
0.01559064 0.741 -0.0077953199 8.9080501e-39 332 246
0.016889861 0.741 -0.0077953199 9.4594288e-39 333 246
0.018189078 0.741 -0.0077953199 1.0754821e-38 334 246
0.019488299 0.741 -0.0077953199 1.1123604e-38 335 246
0.020787518 0.741 -0.0077953199 1.0846291e-38 336 246
0.02208674 0.741 -0.0077953199 1.0200922e-38 337 246
0.023417519 0.74199998 -0.0078058392 1.0105502e-38 338 246
0.024718491 0.74199998 -0.0078058392 9.7370793e-39 339 246
0.026019465 0.74199998 -0.0078058392 8.5421417e-39 340 246
0.027320439 0.74199998 -0.0078058392 8.6343373e-39 341 246
0.028621411 0.74199998 -0.0078058392 7.3493662e-39 342 246
0.029922385 0.74199998 -0.0078058392 7.2568119e-39 343 246
0.031223357 0.74199998 -0.0078058392 6.1562251e-39 344 246
0.032524332 0.74199998 -0.0078058392 5.8799969e-39 345 246
0.033916477 0.74400002 -0.0078268806 4.9630727e-39 346 246
0.03531564 0.74599999 -0.0078479191 4.7790415e-39 347 246
0.036672719 0.74699998 -0.0078584393 4.7794045e-39 348 246
0.03798246 0.74699998 -0.0078584393 5.3325782e-39 349 246
0.0393974 0.74900001 -0.0078794798 5.1521499e-39 350 246
0.040710647 0.74900001 -0.0078794798 6.7198343e-39 351 246
0.04219221 0.75199997 -0.0079110395 7.5531823e-39 352 246
0.043626439 0.75400001 -0.00793208 1.2808333e-38 353 246
0.044948451 0.75400001 -0.00793208 1.4653677e-38 354 246
-0.034691449 0.76099998 -0.0093400059 1.5949118e-38 294 247
-0.033357166 0.76099998 -0.0093400059 1.548814e-38 295 247
-0.032064959 0.76200002 -0.0093522798 1.4932803e-38 296 247
-0.030728921 0.76200002 -0.0093522798 1.1705956e-38 297 247
-0.029354304 0.76099998 -0.0093400059 1.1231657e-38 298 247
-0.028020019 0.76099998 -0.0093400059 1.0033113e-38 299 247
-0.026615599 0.759 -0.00931546 9.7536329e-39 300 247
-0.025218192 0.75700003 -0.0092909131 8.462894e-39 301 247
-0.02379624 0.75400001 -0.0092540924 8.5482597e-39 302 247
-0.022474226 0.75400001 -0.0092540924 7.810336e-39 303 247
-0.021152213 0.75400001 -0.0092540924 7.623449e-39 304 247
-0.0197776 0.75199997 -0.0092295464 7.8078389e-39 305 247
-0.018409999 0.75 -0.0092049995 7.623833e-39 306 247
-0.017072206 0.74900001 -0.0091927266 1.0297508e-38 307 247
-0.015716879 0.74699998 -0.0091681797 1.1233859e-38 308 247
-0.014407139 0.74699998 -0.0091681797 1.1141664e-38 309 247
-0.013097399 0.74699998 -0.0091681797 1.0584139e-38 310 247
-0.011771879 0.74599999 -0.0091559067 7.9104658e-39 311 247
-0.010463892 0.74599999 -0.0091559067 7.2575153e-39 312 247
-0.0091313599 0.74400002 -0.0091313599 6.7047087e-39 313 247
-0.0078268806 0.74400002 -0.0091313599 6.8876706e-39 314 247
-0.0065048663 0.74199998 -0.009106813 7.5323226e-39 315 247
-0.0052038929 0.74199998 -0.009106813 7.9043477e-39 316 247
-0.0039029196 0.74199998 -0.009106813 8.3653258e-39 317 247
-0.0026019465 0.74199998 -0.009106813 8.6422532e-39 318 247
-0.0013009732 0.74199998 -0.009106813 8.6422532e-39 319 247
0 0.74199998 -0.009106813 9.0106672e-39 320 247
0.0013009732 0.74199998 -0.009106813 9.0106672e-39 321 247
0.0026019465 0.74199998 -0.009106813 1.0110538e-38 322 247
0.0039029196 0.74199998 -0.009106813 9.9265054e-39 323 247
0.0052038929 0.74199998 -0.009106813 1.0751221e-38 324 247
0.0065048663 0.74199998 -0.009106813 1.056683e-38 325 247
0.0078058392 0.74199998 -0.009106813 1.0930228e-38 326 247
0.009106813 0.74199998 -0.009106813 1.0285576e-38 327 247
0.010407786 0.74199998 -0.009106813 1.001008e-38 328 247
0.01169298 0.741 -0.0090945391 1.0193754e-38 329 247
0.0129922 0.741 -0.0090945391 9.5523321e-39 330 247
0.01429142 0.741 -0.0090945391 9.5523321e-39 331 247
0.01559064 0.741 -0.0090945391 9.4601323e-39 332 247
0.016889861 0.741 -0.0090945391 1.029025e-38 333 247
0.018189078 0.741 -0.0090945391 1.0476079e-38 334 247
0.019488299 0.741 -0.0090945391 1.0660472e-38 335 247
0.020787518 0.741 -0.0090945391 1.1026732e-38 336 247
0.02208674 0.741 -0.0090945391 1.0566114e-38 337 247
0.023417519 0.74199998 -0.009106813 1.0471763e-38 338 247
0.024718491 0.74199998 -0.009106813 1.0010787e-38 339 247
0.026019465 0.74199998 -0.009106813 9.0016779e-39 340 247
0.027320439 0.74199998 -0.009106813 8.8169279e-39 341 247
0.028621411 0.74199998 -0.009106813 7.2571678e-39 342 247
0.029922385 0.74199998 -0.009106813 7.1649722e-39 343 247
0.031223357 0.74199998 -0.009106813 5.6974049e-39 344 247
0.032524332 0.74199998 -0.009106813 5.5126535e-39 345 247
0.033916477 0.74400002 -0.0091313599 4.4117009e-39 346 247
0.03531564 0.74599999 -0.0091559067 4.5038966e-39 347 247
0.036672719 0.74699998 -0.0091681797 4.4142219e-39 348 247
0.03798246 0.74699998 -0.0091681797 4.9670355e-39 349 247
0.0393974 0.74900001 -0.0091927266 5.3376187e-39 350 247
0.040710647 0.74900001 -0.0091927266 6.8127502e-39 351 247
0.042023893 0.74900001 -0.0091927266 8.1041925e-39 352 247
0.043684296 0.755 -0.0092663663 1.363593e-38 353 247
-0.033357166 0.76099998 -0.010674292 1.5856204e-38 295 248
-0.032064959 0.76200002 -0.01068832 1.5210468e-38 296 248
-0.030728921 0.76200002 -0.01068832 1.2259848e-38 297 248
-0.029354304 0.76099998 -0.010674292 1.1511481e-38 298 248
-0.027946379 0.759 -0.01064624 9.8523179e-39 299 248
-0.026545467 0.75700003 -0.010618187 9.7554475e-39 300 248
-0.025151566 0.755 -0.010590133 8.5569044e-39 301 248
-0.02379624 0.75400001 -0.010576107 8.3656762e-39 302 248
-0.022474226 0.75400001 -0.010576107 7.7203068e-39 303 248
-0.021152213 0.75400001 -0.010576107 7.8092654e-39 304 248
