# .PCD v.7 - Point Cloud Data file format
FIELDS x y z rgb imX imY
SIZE 4 4 4 4 4 4
TYPE F F F F F F
COUNT 1 1 1 1 1 1
WIDTH 850
HEIGHT 1
VIEWPOINT 0 0 0 1 0 0 0
POINTS 850
DATA ascii
0.0039397399 0.74900001 0.0091927266 1.7602999e-38 323 233
0.0052529867 0.74900001 0.0091927266 1.7233508e-38 324 233
0.0065662335 0.74900001 0.0091927266 1.6772892e-38 325 233
0.0078794798 0.74900001 0.0091927266 1.6680698e-38 326 233
0.0091927266 0.74900001 0.0091927266 1.6311921e-38 327 233
0.010505973 0.74900001 0.0091927266 1.6403398e-38 328 233
0.01181922 0.74900001 0.0091927266 1.6311204e-38 329 233
0.013132467 0.74900001 0.0091927266 1.6310128e-38 330 233
0.014445714 0.74900001 0.0091927266 1.6310128e-38 331 233
0.01575896 0.74900001 0.0091927266 1.6125739e-38 332 233
0.017072206 0.74900001 0.0091927266 1.6125739e-38 333 233
0.018409999 0.75 0.0092049995 1.5942427e-38 334 233
0.0197776 0.75199997 0.0092295464 1.6034621e-38 335 233
0.021096105 0.75199997 0.0092295464 1.5942786e-38 336 233
0.022414612 0.75199997 0.0092295464 1.5850591e-38 337 233
0.02379624 0.75400001 0.0092540924 1.5574726e-38 338 233
0.025118252 0.75400001 0.0092540924 1.5390338e-38 339 233
0.026440267 0.75400001 0.0092540924 1.5022637e-38 340 233
0.027762281 0.75400001 0.0092540924 1.4930443e-38 341 233
0.029122867 0.755 0.0092663663 1.4470548e-38 342 233
0.030446632 0.755 0.0092663663 1.4378354e-38 343 233
0.031770397 0.755 0.0092663663 1.4010653e-38 344 233
0.033094164 0.755 0.0092663663 1.3642235e-38 345 233
0.034600276 0.759 0.00931546 1.3548967e-38 346 233
0.036025736 0.76099998 0.0093400059 1.3548967e-38 347 233
0.037360024 0.76099998 0.0093400059 1.3178433e-38 348 233
0.038745161 0.76200002 0.0093522798 1.4284422e-38 349 233
0.040186398 0.764 0.0093768267 1.5026016e-38 350 233
-0.03227536 0.76700002 0.00806884 1.6408556e-38 296 234
-0.030930554 0.76700002 0.00806884 1.6408556e-38 297 234
-0.029547172 0.76599997 0.0080583189 1.6501429e-38 298 234
-0.028130481 0.764 0.0080372803 1.6317398e-38 299 234
-0.0267208 0.76200002 0.0080162399 1.6593962e-38 300 234
-0.025351444 0.76099998 0.0080057196 1.6593962e-38 301 234
-0.023954039 0.759 0.0079846792 1.696202e-38 302 234
-0.022563647 0.75700003 0.0079636406 1.7330801e-38 303 234
-0.021236373 0.75700003 0.0079636406 1.7515548e-38 304 234
-0.0198565 0.755 0.0079425992 1.7699941e-38 305 234
-0.018532733 0.755 0.0079425992 1.8250947e-38 306 234
-0.017186172 0.75400001 0.00793208 1.8250947e-38 307 234
-0.01586416 0.75400001 0.00793208 1.82513e-38 308 234
-0.014542146 0.75400001 0.00793208 1.82513e-38 309 234
-0.013185065 0.75199997 0.0079110395 1.8342047e-38 310 234
-0.011866559 0.75199997 0.0079110395 1.8249851e-38 311 234
-0.010548052 0.75199997 0.0079110395 1.8432073e-38 312 234
-0.0092049995 0.75 0.00789 1.8339878e-38 313 234
-0.00789 0.75 0.00789 1.8063274e-38 314 234
-0.006575 0.75 0.00789 1.8063274e-38 315 234
-0.00526 0.75 0.00789 1.7880678e-38 316 234
-0.0039397399 0.74900001 0.0078794798 1.7788482e-38 317 234
-0.0026264933 0.74900001 0.0078794798 1.7421139e-38 318 234
-0.0013132467 0.74900001 0.0078794798 1.7144911e-38 319 234
0 0.74900001 0.0078794798 1.7696281e-38 320 234
0.0013132467 0.74900001 0.0078794798 1.7696281e-38 321 234
0.0026194798 0.74699998 0.0078584393 1.7420053e-38 322 234
0.0039292197 0.74699998 0.0078584393 1.7235661e-38 323 234
0.0052529867 0.74900001 0.0078794798 1.7051269e-38 324 234
0.0065662335 0.74900001 0.0078794798 1.6405909e-38 325 234
0.0078794798 0.74900001 0.0078794798 1.6864369e-38 326 234
0.0091927266 0.74900001 0.0078794798 1.6680339e-38 327 234
0.010505973 0.74900001 0.0078794798 1.631228e-38 328 234
0.01181922 0.74900001 0.0078794798 1.631228e-38 329 234
0.013132467 0.74900001 0.0078794798 1.6311204e-38 330 234
0.014445714 0.74900001 0.0078794798 1.6218651e-38 331 234
0.01575896 0.74900001 0.0078794798 1.6034621e-38 332 234
0.017072206 0.74900001 0.0078794798 1.6034621e-38 333 234
0.018385453 0.74900001 0.0078794798 1.6034621e-38 334 234
0.0197776 0.75199997 0.0079110395 1.6034621e-38 335 234
0.021096105 0.75199997 0.0079110395 1.5759473e-38 336 234
0.022414612 0.75199997 0.0079110395 1.5667279e-38 337 234
0.02379624 0.75400001 0.00793208 1.5299937e-38 338 234
0.025118252 0.75400001 0.00793208 1.5023354e-38 339 234
0.026440267 0.75400001 0.00793208 1.4654936e-38 340 234
0.027762281 0.75400001 0.00793208 1.4654936e-38 341 234
0.029084291 0.75400001 0.00793208 1.4470551e-38 342 234
0.030446632 0.755 0.0079425992 1.4378355e-38 343 234
0.031770397 0.755 0.0079425992 1.4010294e-38 344 234
0.033094164 0.755 0.0079425992 1.3641876e-38 345 234
0.034509107 0.75700003 0.0079636406 1.3365655e-38 346 234
0.035931058 0.759 0.0079846792 1.3180905e-38 347 234
0.037360024 0.76099998 0.0080057196 1.3178077e-38 348 234
0.038745161 0.76200002 0.0080162399 1.4468816e-38 349 234
0.040081199 0.76200002 0.0080162399 1.502566e-38 350 234
-0.03227536 0.76700002 0.006724033 1.6500752e-38 296 235
-0.030930554 0.76700002 0.006724033 1.6408556e-38 297 235
-0.029547172 0.76599997 0.0067152665 1.6501785e-38 298 235
-0.028130481 0.764 0.006697733 1.6501785e-38 299 235
-0.0267208 0.76200002 0.0066801999 1.631917e-38 300 235
-0.025351444 0.76099998 0.0066714329 1.6503563e-38 301 235
-0.023954039 0.759 0.0066538998 1.6963095e-38 302 235
-0.022563647 0.75700003 0.0066363667 1.7239682e-38 303 235
-0.021236373 0.75700003 0.0066363667 1.7424077e-38 304 235
-0.0198565 0.755 0.0066188332 1.7608108e-38 305 235
-0.018532733 0.755 0.0066188332 1.8251313e-38 306 235
-0.017186172 0.75400001 0.0066100666 1.8343508e-38 307 235
-0.01586416 0.75400001 0.0066100666 1.8435691e-38 308 235
-0.014542146 0.75400001 0.0066100666 1.8343496e-38 309 235
-0.013185065 0.75199997 0.0065925326 1.8434244e-38 310 235
-0.011866559 0.75199997 0.0065925326 1.8342047e-38 311 235
-0.010548052 0.75199997 0.0065925326 1.8432429e-38 312 235
-0.0092049995 0.75 0.006575 1.8340234e-38 313 235
-0.00789 0.75 0.006575 1.8155823e-38 314 235
-0.006575 0.75 0.006575 1.8248018e-38 315 235
-0.0052529867 0.74900001 0.0065662335 1.8248387e-38 316 235
-0.0039397399 0.74900001 0.0065662335 1.8248387e-38 317 235
-0.0026264933 0.74900001 0.0065662335 1.7697012e-38 318 235
-0.0013132467 0.74900001 0.0065662335 1.7420425e-38 319 235
0 0.74900001 0.0065662335 1.7697716e-38 320 235
0.0013132467 0.74900001 0.0065662335 1.7697716e-38 321 235
0.0026194798 0.74699998 0.0065486995 1.7788467e-38 322 235
0.0039292197 0.74699998 0.0065486995 1.7511522e-38 323 235
0.0052389596 0.74699998 0.0065486995 1.7143104e-38 324 235
0.0065486995 0.74699998 0.0065486995 1.6958357e-38 325 235
0.0078584393 0.74699998 0.0065486995 1.7140234e-38 326 235
0.0091927266 0.74900001 0.0065662335 1.6863293e-38 327 235
0.010505973 0.74900001 0.0065662335 1.6587786e-38 328 235
0.01181922 0.74900001 0.0065662335 1.6495592e-38 329 235
0.013132467 0.74900001 0.0065662335 1.6403398e-38 330 235
0.014445714 0.74900001 0.0065662335 1.6311204e-38 331 235
0.01575896 0.74900001 0.0065662335 1.6218651e-38 332 235
0.017072206 0.74900001 0.0065662335 1.6218651e-38 333 235
0.018385453 0.74900001 0.0065662335 1.5943144e-38 334 235
0.019724999 0.75 0.006575 1.5943144e-38 335 235
0.021096105 0.75199997 0.0065925326 1.5759473e-38 336 235
0.022414612 0.75199997 0.0065925326 1.5667279e-38 337 235
0.023733119 0.75199997 0.0065925326 1.5482532e-38 338 235
0.025118252 0.75400001 0.0066100666 1.5206308e-38 339 235
0.026440267 0.75400001 0.0066100666 1.5114114e-38 340 235
0.027762281 0.75400001 0.0066100666 1.4837531e-38 341 235
0.029084291 0.75400001 0.0066100666 1.4470189e-38 342 235
0.030446632 0.755 0.0066188332 1.4377995e-38 343 235
0.031770397 0.755 0.0066188332 1.4009218e-38 344 235
0.033094164 0.755 0.0066188332 1.3824829e-38 345 235
0.034509107 0.75700003 0.0066363667 1.3364576e-38 346 235
0.035931058 0.759 0.0066538998 1.345677e-38 347 235
0.037360024 0.76099998 0.0066714329 1.31788e-38 348 235
0.038745161 0.76200002 0.0066801999 1.4284787e-38 349 235
0.040081199 0.76200002 0.0066801999 1.5116779e-38 350 235
-0.03227536 0.76700002 0.0053792265 1.6225247e-38 296 236
-0.030930554 0.76700002 0.0053792265 1.6225247e-38 297 236
-0.029547172 0.76599997 0.0053722127 1.6318116e-38 298 236
-0.028130481 0.764 0.0053581866 1.6318116e-38 299 236
-0.0267208 0.76200002 0.0053441599 1.631917e-38 300 236
-0.025351444 0.76099998 0.0053371461 1.6411366e-38 301 236
-0.023954039 0.759 0.0053231199 1.6963092e-38 302 236
-0.022563647 0.75700003 0.0053090933 1.7147483e-38 303 236
-0.021180267 0.755 0.0052950666 1.7699588e-38 304 236
-0.0198565 0.755 0.0052950666 1.7791784e-38 305 236
-0.018508185 0.75400001 0.0052880533 1.8343158e-38 306 236
-0.017186172 0.75400001 0.0052880533 1.8527551e-38 307 236
-0.01586416 0.75400001 0.0052880533 1.8620099e-38 308 236
-0.014542146 0.75400001 0.0052880533 1.8527904e-38 309 236
-0.013185065 0.75199997 0.0052740262 1.8618653e-38 310 236
-0.011866559 0.75199997 0.0052740262 1.8434262e-38 311 236
-0.010548052 0.75199997 0.0052740262 1.8616839e-38 312 236
-0.0092049995 0.75 0.00526 1.8432089e-38 313 236
-0.0078794798 0.74900001 0.0052529867 1.8248757e-38 314 236
-0.0065662335 0.74900001 0.0052529867 1.8248757e-38 315 236
-0.0052529867 0.74900001 0.0052529867 1.8340234e-38 316 236
-0.0039397399 0.74900001 0.0052529867 1.8248038e-38 317 236
-0.0026194798 0.74699998 0.0052389596 1.7880696e-38 318 236
-0.0013097399 0.74699998 0.0052389596 1.7696306e-38 319 236
0 0.74699998 0.0052389596 1.788069e-38 320 236
0.0013097399 0.74699998 0.0052389596 1.7696659e-38 321 236
0.0026194798 0.74699998 0.0052389596 1.7880312e-38 322 236
0.0039292197 0.74699998 0.0052389596 1.7603365e-38 323 236
0.0052389596 0.74699998 0.0052389596 1.7510805e-38 324 236
0.0065486995 0.74699998 0.0052389596 1.7418611e-38 325 236
0.0078584393 0.74699998 0.0052389596 1.695764e-38 326 236
0.0091681797 0.74699998 0.0052389596 1.6772892e-38 327 236
0.010477919 0.74699998 0.0052389596 1.6588504e-38 328 236
0.01181922 0.74900001 0.0052529867 1.649631e-38 329 236
0.013132467 0.74900001 0.0052529867 1.6220086e-38 330 236
0.014445714 0.74900001 0.0052529867 1.6220086e-38 331 236
0.01575896 0.74900001 0.0052529867 1.6035339e-38 332 236
0.017072206 0.74900001 0.0052529867 1.5943144e-38 333 236
0.018385453 0.74900001 0.0052529867 1.585095e-38 334 236
0.0196987 0.74900001 0.0052529867 1.585095e-38 335 236
0.02104 0.75 0.00526 1.5667279e-38 336 236
0.022355 0.75 0.00526 1.5575085e-38 337 236
0.023733119 0.75199997 0.0052740262 1.5482173e-38 338 236
0.025051624 0.75199997 0.0052740262 1.5389979e-38 339 236
0.026440267 0.75400001 0.0052880533 1.502192e-38 340 236
0.027762281 0.75400001 0.0052880533 1.4745696e-38 341 236
0.029084291 0.75400001 0.0052880533 1.4561666e-38 342 236
0.030446632 0.755 0.0052950666 1.4377277e-38 343 236
0.031770397 0.755 0.0052950666 1.3917741e-38 344 236
0.033094164 0.755 0.0052950666 1.3548964e-38 345 236
0.034509107 0.75700003 0.0053090933 1.3364576e-38 346 236
0.035931058 0.759 0.0053231199 1.3364576e-38 347 236
0.037360024 0.76099998 0.0053371461 1.3270999e-38 348 236
0.038745161 0.76200002 0.0053441599 1.4469183e-38 349 236
0.040081199 0.76200002 0.0053441599 1.4933111e-38 350 236
-0.03227536 0.76700002 0.00403442 1.6408553e-38 296 237
-0.030930554 0.76700002 0.00403442 1.6408553e-38 297 237
-0.029547172 0.76599997 0.0040291594 1.6501429e-38 298 237
-0.028130481 0.764 0.0040186401 1.6501429e-38 299 237
-0.0267208 0.76200002 0.0040081199 1.6502485e-38 300 237
-0.025351444 0.76099998 0.0040028598 1.6502485e-38 301 237
-0.024017159 0.76099998 0.0040028598 1.6963095e-38 302 237
-0.02262326 0.759 0.0039923396 1.7147486e-38 303 237
-0.021180267 0.755 0.0039712996 1.7424093e-38 304 237
-0.0198565 0.755 0.0039712996 1.7701038e-38 305 237
-0.018508185 0.75400001 0.00396604 1.8529014e-38 306 237
-0.017186172 0.75400001 0.00396604 1.8621211e-38 307 237
-0.01586416 0.75400001 0.00396604 1.8898147e-38 308 237
-0.014542146 0.75400001 0.00396604 1.8437168e-38 309 237
-0.013185065 0.75199997 0.0039555198 1.8803052e-38 310 237
-0.011866559 0.75199997 0.0039555198 1.8526105e-38 311 237
-0.01052 0.75 0.003945 1.8525006e-38 312 237
-0.0092049995 0.75 0.003945 1.8525006e-38 313 237
-0.0078794798 0.74900001 0.0039397399 1.8157653e-38 314 237
-0.0065662335 0.74900001 0.0039397399 1.8157653e-38 315 237
-0.0052389596 0.74699998 0.0039292197 1.8157287e-38 316 237
-0.0039292197 0.74699998 0.0039292197 1.8065091e-38 317 237
-0.0026194798 0.74699998 0.0039292197 1.7789581e-38 318 237
-0.0013097399 0.74699998 0.0039292197 1.7604829e-38 319 237
0 0.74699998 0.0039292197 1.7697012e-38 320 237
0.0013097399 0.74699998 0.0039292197 1.7604817e-38 321 237
0.0026159731 0.74599999 0.0039239596 1.7880309e-38 322 237
0.0039239596 0.74599999 0.0039239596 1.7880309e-38 323 237
0.0052389596 0.74699998 0.0039292197 1.7788467e-38 324 237
0.0065399334 0.74599999 0.0039239596 1.7419328e-38 325 237
0.0078479191 0.74599999 0.0039239596 1.7050551e-38 326 237
0.0091681797 0.74699998 0.0039292197 1.6773969e-38 327 237
0.010477919 0.74699998 0.0039292197 1.6497386e-38 328 237
0.011787659 0.74699998 0.0039292197 1.6312997e-38 329 237
0.013132467 0.74900001 0.0039397399 1.6220086e-38 330 237
0.014445714 0.74900001 0.0039397399 1.6127533e-38 331 237
0.01575896 0.74900001 0.0039397399 1.6127533e-38 332 237
0.017072206 0.74900001 0.0039397399 1.6035339e-38 333 237
0.018385453 0.74900001 0.0039397399 1.5942786e-38 334 237
0.0196987 0.74900001 0.0039397399 1.5850591e-38 335 237
0.02104 0.75 0.003945 1.5391414e-38 336 237
0.022355 0.75 0.003945 1.5391414e-38 337 237
0.023733119 0.75199997 0.0039555198 1.5298502e-38 338 237
0.025051624 0.75199997 0.0039555198 1.5206308e-38 339 237
0.026440267 0.75400001 0.00396604 1.5021561e-38 340 237
0.027762281 0.75400001 0.00396604 1.4837531e-38 341 237
0.029084291 0.75400001 0.00396604 1.4377995e-38 342 237
0.030446632 0.755 0.0039712996 1.4009218e-38 343 237
0.031770397 0.755 0.0039712996 1.3733353e-38 344 237
0.033094164 0.755 0.0039712996 1.345677e-38 345 237
0.034509107 0.75700003 0.0039818203 1.3364218e-38 346 237
0.035931058 0.759 0.0039923396 1.3456414e-38 347 237
0.037360024 0.76099998 0.0040028598 1.3362838e-38 348 237
0.038745161 0.76200002 0.0040081199 1.4376989e-38 349 237
0.040081199 0.76200002 0.0040081199 1.5116779e-38 350 237
-0.03227536 0.76700002 0.0026896133 1.6500026e-38 296 238
-0.030930554 0.76700002 0.0026896133 1.6500026e-38 297 238
-0.029547172 0.76599997 0.0026861064 1.6501785e-38 298 238
-0.028130481 0.764 0.0026790933 1.6317395e-38 299 238
-0.026790932 0.764 0.0026790933 1.6318101e-38 300 238
-0.025351444 0.76099998 0.0026685731 1.6502132e-38 301 238
-0.024017159 0.76099998 0.0026685731 1.668616e-38 302 238
-0.02262326 0.759 0.00266156 1.7147139e-38 303 238
-0.021236373 0.75700003 0.0026545466 1.7147881e-38 304 238
-0.0198565 0.755 0.0026475333 1.7793251e-38 305 238
-0.018508185 0.75400001 0.0026440267 1.8530128e-38 306 238
-0.017186172 0.75400001 0.0026440267 1.8807075e-38 307 238
-0.01586416 0.75400001 0.0026440267 1.9176203e-38 308 238
-0.014542146 0.75400001 0.0026440267 1.862303e-38 309 238
-0.013185065 0.75199997 0.0026370131 1.8713385e-38 310 238
-0.011835 0.75 0.00263 1.8252409e-38 311 238
-0.01052 0.75 0.00263 1.8433891e-38 312 238
-0.0091927266 0.74900001 0.0026264933 1.8433891e-38 313 238
-0.0078794798 0.74900001 0.0026264933 1.83424e-38 314 238
-0.0065662335 0.74900001 0.0026264933 1.8249846e-38 315 238
-0.0052389596 0.74699998 0.0026194798 1.8158003e-38 316 238
-0.0039292197 0.74699998 0.0026194798 1.7881776e-38 317 238
-0.0026194798 0.74699998 0.0026194798 1.7697734e-38 318 238
-0.0013097399 0.74699998 0.0026194798 1.760518e-38 319 238
0 0.74699998 0.0026194798 1.7513334e-38 320 238
0.0013097399 0.74699998 0.0026194798 1.7513334e-38 321 238
0.0026159731 0.74599999 0.0026159731 1.7788832e-38 322 238
0.0039239596 0.74599999 0.0026159731 1.7881028e-38 323 238
0.0052319462 0.74599999 0.0026159731 1.8157242e-38 324 238
0.0065399334 0.74599999 0.0026159731 1.7604075e-38 325 238
0.0078479191 0.74599999 0.0026159731 1.6868315e-38 326 238
0.0091681797 0.74699998 0.0026194798 1.6591374e-38 327 238
0.010477919 0.74699998 0.0026194798 1.6681774e-38 328 238
0.011787659 0.74699998 0.0026194798 1.6312997e-38 329 238
0.013097399 0.74699998 0.0026194798 1.6220086e-38 330 238
0.014407139 0.74699998 0.0026194798 1.6127892e-38 331 238
0.015716879 0.74699998 0.0026194798 1.6127533e-38 332 238
0.017072206 0.74900001 0.0026264933 1.6035339e-38 333 238
0.018385453 0.74900001 0.0026264933 1.585095e-38 334 238
0.0196987 0.74900001 0.0026264933 1.585095e-38 335 238
0.021011947 0.74900001 0.0026264933 1.5483608e-38 336 238
0.022355 0.75 0.00263 1.5298861e-38 337 238
0.023669999 0.75 0.00263 1.538962e-38 338 238
0.025051624 0.75199997 0.0026370131 1.538962e-38 339 238
0.026440267 0.75400001 0.0026440267 1.4837531e-38 340 238
0.027762281 0.75400001 0.0026440267 1.4744978e-38 341 238
0.029084291 0.75400001 0.0026440267 1.4285801e-38 342 238
0.030446632 0.755 0.0026475333 1.4009577e-38 343 238
0.031770397 0.755 0.0026475333 1.3549682e-38 344 238
0.033094164 0.755 0.0026475333 1.3180905e-38 345 238
0.034509107 0.75700003 0.0026545466 1.3088357e-38 346 238
0.035931058 0.759 0.00266156 1.3272749e-38 347 238
0.03726184 0.759 0.00266156 1.3179166e-38 348 238
0.038694311 0.76099998 0.0026685731 1.4101481e-38 349 238
0.040028598 0.76099998 0.0026685731 1.5116776e-38 350 238
-0.03227536 0.76700002 0.0013448066 1.6592224e-38 296 239
-0.030930554 0.76700002 0.0013448066 1.6592224e-38 297 239
-0.029547172 0.76599997 0.0013430532 1.6318119e-38 298 239
-0.028204117 0.76599997 0.0013430532 1.6225565e-38 299 239
-0.026790932 0.764 0.0013395466 1.6500694e-38 300 239
-0.025351444 0.76099998 0.0013342865 1.6684726e-38 301 239
-0.023954039 0.759 0.00133078 1.6869826e-38 302 239
-0.02262326 0.759 0.00133078 1.7054218e-38 303 239
-0.021180267 0.755 0.0013237667 1.7056039e-38 304 239
-0.0198565 0.755 0.0013237667 1.7701408e-38 305 239
-0.018508185 0.75400001 0.0013220133 1.8162421e-38 306 239
-0.017186172 0.75400001 0.0013220133 1.8439008e-38 307 239
-0.01586416 0.75400001 0.0013220133 1.8717396e-38 308 239
-0.014542146 0.75400001 0.0013220133 1.8624841e-38 309 239
-0.013220133 0.75400001 0.0013220133 1.8715576e-38 310 239
-0.011835 0.75 0.001315 1.8070206e-38 311 239
-0.01052 0.75 0.001315 1.8435726e-38 312 239
-0.0091927266 0.74900001 0.0013132467 1.8435726e-38 313 239
-0.0078794798 0.74900001 0.0013132467 1.8252041e-38 314 239
-0.0065662335 0.74900001 0.0013132467 1.7975455e-38 315 239
-0.0052389596 0.74699998 0.0013097399 1.7883604e-38 316 239
-0.0039292197 0.74699998 0.0013097399 1.7791408e-38 317 239
-0.0026194798 0.74699998 0.0013097399 1.7606634e-38 318 239
-0.0013097399 0.74699998 0.0013097399 1.7421883e-38 319 239
0 0.74699998 0.0013097399 1.7422942e-38 320 239
0.0013097399 0.74699998 0.0013097399 1.7238192e-38 321 239
0.0026159731 0.74599999 0.0013079866 1.7696281e-38 322 239
0.0039239596 0.74599999 0.0013079866 1.7973226e-38 323 239
0.0052319462 0.74599999 0.0013079866 1.7882474e-38 324 239
0.0065399334 0.74599999 0.0013079866 1.6960516e-38 325 239
0.0078479191 0.74599999 0.0013079866 1.6499541e-38 326 239
0.0091681797 0.74699998 0.0013097399 1.6407345e-38 327 239
0.010477919 0.74699998 0.0013097399 1.6405909e-38 328 239
0.011787659 0.74699998 0.0013097399 1.6129685e-38 329 239
0.013097399 0.74699998 0.0013097399 1.612825e-38 330 239
0.014407139 0.74699998 0.0013097399 1.6036056e-38 331 239
0.015716879 0.74699998 0.0013097399 1.6035697e-38 332 239
0.017026618 0.74699998 0.0013097399 1.5851668e-38 333 239
0.018385453 0.74900001 0.0013132467 1.5759473e-38 334 239
0.0196987 0.74900001 0.0013132467 1.5574726e-38 335 239
0.021011947 0.74900001 0.0013132467 1.5482173e-38 336 239
0.022355 0.75 0.001315 1.5482173e-38 337 239
0.023669999 0.75 0.001315 1.538962e-38 338 239
0.024984999 0.75 0.001315 1.5205591e-38 339 239
0.02637013 0.75199997 0.0013185065 1.4653501e-38 340 239
0.027762281 0.75400001 0.0013220133 1.4653501e-38 341 239
0.029084291 0.75400001 0.0013220133 1.4101771e-38 342 239
0.030446632 0.755 0.0013237667 1.3917382e-38 343 239
0.031770397 0.755 0.0013237667 1.3548964e-38 344 239
0.033181835 0.75700003 0.0013272733 1.3364576e-38 345 239
0.034509107 0.75700003 0.0013272733 1.2904692e-38 346 239
0.035931058 0.759 0.00133078 1.3181279e-38 347 239
0.03726184 0.759 0.00133078 1.3178097e-38 348 239
0.038694311 0.76099998 0.0013342865 1.4468835e-38 349 239
0.040028598 0.76099998 0.0013342865 1.4933111e-38 350 239
-0.03227536 0.76700002 -0 1.6500752e-38 296 240
-0.030930554 0.76700002 -0 1.6408556e-38 297 240
-0.029547172 0.76599997 -0 1.6318116e-38 298 240
-0.028204117 0.76599997 -0 1.6225921e-38 299 240
-0.026790932 0.764 -0 1.6409218e-38 300 240
-0.02538476 0.76200002 -0 1.6593609e-38 301 240
-0.023954039 0.759 -0 1.6686881e-38 302 240
-0.022563647 0.75700003 -0 1.6871272e-38 303 240
-0.021180267 0.755 -0 1.7239351e-38 304 240
-0.0198565 0.755 -0 1.7515938e-38 305 240
-0.018508185 0.75400001 -0 1.7700352e-38 306 240
-0.017186172 0.75400001 -0 1.8345721e-38 307 240
-0.01586416 0.75400001 -0 1.8807794e-38 308 240
-0.014542146 0.75400001 -0 1.8992185e-38 309 240
-0.013220133 0.75400001 -0 1.8808507e-38 310 240
-0.011835 0.75 -0 1.8440083e-38 311 240
-0.01052 0.75 -0 1.8530831e-38 312 240
-0.0091927266 0.74900001 -0 1.8438636e-38 313 240
-0.0078794798 0.74900001 -0 1.8438267e-38 314 240
-0.0065662335 0.74900001 -0 1.8253874e-38 315 240
-0.0052389596 0.74699998 -0 1.816166e-38 316 240
-0.0039292197 0.74699998 -0 1.7884713e-38 317 240
-0.0026194798 0.74699998 -0 1.788289e-38 318 240
-0.0013097399 0.74699998 -0 1.7605943e-38 319 240
0 0.74699998 -0 1.7330393e-38 320 240
0.0013097399 0.74699998 -0 1.7053808e-38 321 240
0.0026159731 0.74599999 -0 1.7513334e-38 322 240
0.0039239596 0.74599999 -0 1.7513334e-38 323 240
0.0052319462 0.74599999 -0 1.7603385e-38 324 240
0.0065399334 0.74599999 -0 1.6958015e-38 325 240
0.0078479191 0.74599999 -0 1.6223324e-38 326 240
0.0091681797 0.74699998 -0 1.6038933e-38 327 240
0.010477919 0.74699998 -0 1.6129326e-38 328 240
0.011787659 0.74699998 -0 1.6037132e-38 329 240
0.013097399 0.74699998 -0 1.612825e-38 330 240
0.014407139 0.74699998 -0 1.6036056e-38 331 240
0.015716879 0.74699998 -0 1.5852026e-38 332 240
0.017026618 0.74699998 -0 1.5759473e-38 333 240
0.018385453 0.74900001 -0 1.5667279e-38 334 240
0.0196987 0.74900001 -0 1.5574726e-38 335 240
0.021011947 0.74900001 -0 1.5298502e-38 336 240
0.022325192 0.74900001 -0 1.5206308e-38 337 240
0.023669999 0.75 -0 1.5205591e-38 338 240
0.024984999 0.75 -0 1.5021202e-38 339 240
0.02637013 0.75199997 -0 1.4745337e-38 340 240
0.027762281 0.75400001 -0 1.4653143e-38 341 240
0.029084291 0.75400001 -0 1.4193248e-38 342 240
0.030446632 0.755 -0 1.3917024e-38 343 240
0.031770397 0.755 -0 1.3548606e-38 344 240
0.033181835 0.75700003 -0 1.3364217e-38 345 240
0.034600276 0.759 -0 1.2905411e-38 346 240
0.035931058 0.759 -0 1.2997608e-38 347 240
0.03726184 0.759 -0 1.3089146e-38 348 240
0.038592618 0.759 -0 1.4195135e-38 349 240
0.0399234 0.759 -0 1.5024956e-38 350 240
-0.030930554 0.76700002 -0.0013448066 1.6224541e-38 297 241
-0.029547172 0.76599997 -0.0013430532 1.631741e-38 298 241
-0.028204117 0.76599997 -0.0013430532 1.6225215e-38 299 241
-0.026861066 0.76599997 -0.0013430532 1.6501045e-38 300 241
-0.02538476 0.76200002 -0.00133604 1.6685435e-38 301 241
-0.023954039 0.759 -0.00133078 1.6594668e-38 302 241
-0.022563647 0.75700003 -0.0013272733 1.6963092e-38 303 241
-0.021236373 0.75700003 -0.0013272733 1.7146067e-38 304 241
-0.0198565 0.755 -0.0013237667 1.7422293e-38 305 241
-0.018508185 0.75400001 -0.0013220133 1.733084e-38 306 241
-0.017186172 0.75400001 -0.0013220133 1.7607786e-38 307 241
-0.01586416 0.75400001 -0.0013220133 1.7885099e-38 308 241
-0.014542146 0.75400001 -0.0013220133 1.8345718e-38 309 241
-0.013220133 0.75400001 -0.0013220133 1.8162775e-38 310 241
-0.011835 0.75 -0.001315 1.8347166e-38 311 241
-0.01052 0.75 -0.001315 1.8163869e-38 312 241
-0.0092049995 0.75 -0.001315 1.8440097e-38 313 241
-0.0078794798 0.74900001 -0.0013132467 1.8807803e-38 314 241
-0.0065662335 0.74900001 -0.0013132467 1.8531577e-38 315 241
-0.0052389596 0.74699998 -0.0013097399 1.8808157e-38 316 241
-0.0039292197 0.74699998 -0.0013097399 1.8624125e-38 317 241
-0.0026194798 0.74699998 -0.0013097399 1.8344269e-38 318 241
-0.0013097399 0.74699998 -0.0013097399 1.7606704e-38 319 241
0 0.74699998 -0.0013097399 1.6962003e-38 320 241
0.0013097399 0.74699998 -0.0013097399 1.7146395e-38 321 241
0.0026159731 0.74599999 -0.0013079866 1.733004e-38 322 241
0.0039239596 0.74599999 -0.0013079866 1.7237845e-38 323 241
0.0052319462 0.74599999 -0.0013079866 1.6961965e-38 324 241
0.0065399334 0.74599999 -0.0013079866 1.6132203e-38 325 241
0.0078479191 0.74599999 -0.0013079866 1.6131479e-38 326 241
0.0091681797 0.74699998 -0.0013097399 1.6039285e-38 327 241
0.010477919 0.74699998 -0.0013097399 1.603785e-38 328 241
0.011787659 0.74699998 -0.0013097399 1.603785e-38 329 241
0.013097399 0.74699998 -0.0013097399 1.5944938e-38 330 241
0.014407139 0.74699998 -0.0013097399 1.5852744e-38 331 241
0.015716879 0.74699998 -0.0013097399 1.6035697e-38 332 241
0.017026618 0.74699998 -0.0013097399 1.5759473e-38 333 241
0.018385453 0.74900001 -0.0013132467 1.5667638e-38 334 241
0.0196987 0.74900001 -0.0013132467 1.5391055e-38 335 241
0.021011947 0.74900001 -0.0013132467 1.5298502e-38 336 241
0.022325192 0.74900001 -0.0013132467 1.5114114e-38 337 241
0.023669999 0.75 -0.001315 1.5021561e-38 338 241
0.024984999 0.75 -0.001315 1.4837531e-38 339 241
0.02637013 0.75199997 -0.0013185065 1.4561307e-38 340 241
0.027762281 0.75400001 -0.0013220133 1.4377277e-38 341 241
0.029084291 0.75400001 -0.0013220133 1.3916665e-38 342 241
0.030446632 0.755 -0.0013237667 1.3824471e-38 343 241
0.031854562 0.75700003 -0.0013272733 1.3364576e-38 344 241
0.033181835 0.75700003 -0.0013272733 1.3180546e-38 345 241
0.034600276 0.759 -0.00133078 1.2812496e-38 346 241
0.035931058 0.759 -0.00133078 1.3273475e-38 347 241
0.03726184 0.759 -0.00133078 1.3271737e-38 348 241
0.038592618 0.759 -0.00133078 1.4746866e-38 349 241
0.0399234 0.759 -0.00133078 1.5485213e-38 350 241
-0.031011207 0.76899999 -0.0026966266 1.5949751e-38 297 242
-0.02966289 0.76899999 -0.0026966266 1.6317044e-38 298 242
-0.02824094 0.76700002 -0.0026896133 1.6317044e-38 299 242
-0.026861066 0.76599997 -0.0026861064 1.6501764e-38 300 242
-0.025451386 0.764 -0.0026790933 1.6501764e-38 301 242
-0.023954039 0.759 -0.00266156 1.6595034e-38 302 242
-0.02262326 0.759 -0.00266156 1.6779427e-38 303 242
-0.021236373 0.75700003 -0.0026545466 1.7053518e-38 304 242
-0.0198565 0.755 -0.0026475333 1.7145713e-38 305 242
-0.018532733 0.755 -0.0026475333 1.7238275e-38 306 242
-0.017186172 0.75400001 -0.0026440267 1.7330831e-38 307 242
-0.01586416 0.75400001 -0.0026440267 1.7423742e-38 308 242
-0.014542146 0.75400001 -0.0026440267 1.7608134e-38 309 242
-0.013185065 0.75199997 -0.0026370131 1.7701068e-38 310 242
-0.011866559 0.75199997 -0.0026370131 1.7978013e-38 311 242
-0.01052 0.75 -0.00263 1.7795812e-38 312 242
-0.0092049995 0.75 -0.00263 1.8348627e-38 313 242
-0.0078794798 0.74900001 -0.0026264933 1.8623788e-38 314 242
-0.0065662335 0.74900001 -0.0026264933 1.8715983e-38 315 242
-0.0052529867 0.74900001 -0.0026264933 1.9084763e-38 316 242
-0.0039292197 0.74699998 -0.0026194798 1.9361709e-38 317 242
-0.0026194798 0.74699998 -0.0026194798 1.8623395e-38 318 242
-0.0013097399 0.74699998 -0.0026194798 1.7424854e-38 319 242
0 0.74699998 -0.0026194798 1.6963092e-38 320 242
0.0013097399 0.74699998 -0.0026194798 1.6779061e-38 321 242
0.0026194798 0.74699998 -0.0026194798 1.7146728e-38 322 242
0.0039239596 0.74599999 -0.0026159731 1.6961978e-38 323 242
0.0052319462 0.74599999 -0.0026159731 1.6868696e-38 324 242
0.0065399334 0.74599999 -0.0026159731 1.6499555e-38 325 242
0.0078479191 0.74599999 -0.0026159731 1.6406271e-38 326 242
0.0091681797 0.74699998 -0.0026194798 1.6221879e-38 327 242
0.010477919 0.74699998 -0.0026194798 1.6130044e-38 328 242
0.011787659 0.74699998 -0.0026194798 1.603785e-38 329 242
0.013097399 0.74699998 -0.0026194798 1.5853103e-38 330 242
0.014407139 0.74699998 -0.0026194798 1.5669073e-38 331 242
0.015716879 0.74699998 -0.0026194798 1.5667997e-38 332 242
0.017026618 0.74699998 -0.0026194798 1.5667997e-38 333 242
0.018385453 0.74900001 -0.0026264933 1.5574726e-38 334 242
0.0196987 0.74900001 -0.0026264933 1.5482532e-38 335 242
0.021011947 0.74900001 -0.0026264933 1.5206667e-38 336 242
0.022325192 0.74900001 -0.0026264933 1.5022278e-38 337 242
0.023669999 0.75 -0.00263 1.502192e-38 338 242
0.024984999 0.75 -0.00263 1.4745337e-38 339 242
0.026440267 0.75400001 -0.0026440267 1.4377277e-38 340 242
0.027762281 0.75400001 -0.0026440267 1.4192889e-38 341 242
0.029122867 0.755 -0.0026475333 1.4008142e-38 342 242
0.030446632 0.755 -0.0026475333 1.3915589e-38 343 242
0.031854562 0.75700003 -0.0026545466 1.3363858e-38 344 242
0.033269498 0.759 -0.00266156 1.3271664e-38 345 242
0.034600276 0.759 -0.00266156 1.2813218e-38 346 242
0.035931058 0.759 -0.00266156 1.2997611e-38 347 242
0.03726184 0.759 -0.00266156 1.3273176e-38 348 242
0.038694311 0.76099998 -0.0026685731 1.4563915e-38 349 242
0.040028598 0.76099998 -0.0026685731 1.5853994e-38 350 242
-0.031011207 0.76899999 -0.0040449398 1.6041597e-38 297 243
-0.02966289 0.76899999 -0.0040449398 1.6500728e-38 298 243
-0.02824094 0.76700002 -0.00403442 1.6316697e-38 299 243
-0.026861066 0.76599997 -0.0040291594 1.6593612e-38 300 243
-0.025451386 0.764 -0.0040186401 1.6685809e-38 301 243
-0.02404872 0.76200002 -0.0040081199 1.6686158e-38 302 243
-0.022682872 0.76099998 -0.0040028598 1.6778355e-38 303 243
-0.021348584 0.76099998 -0.0040028598 1.7144985e-38 304 243
-0.0199617 0.759 -0.0039923396 1.723718e-38 305 243
-0.018581826 0.75700003 -0.0039818203 1.7053518e-38 306 243
-0.017208965 0.755 -0.0039712996 1.7329745e-38 307 243
-0.015885198 0.755 -0.0039712996 1.7053515e-38 308 243
-0.014542146 0.75400001 -0.00396604 1.7053515e-38 309 243
-0.013185065 0.75199997 -0.0039555198 1.7054963e-38 310 243
-0.011866559 0.75199997 -0.0039555198 1.7423745e-38 311 243
-0.010548052 0.75199997 -0.0039555198 1.7242263e-38 312 243
-0.0092049995 0.75 -0.003945 1.7979828e-38 313 243
-0.00789 0.75 -0.003945 1.8255713e-38 314 243
-0.0065662335 0.74900001 -0.0039397399 1.8532298e-38 315 243
-0.0052529867 0.74900001 -0.0039397399 1.8808532e-38 316 243
-0.0039397399 0.74900001 -0.0039397399 1.9177315e-38 317 243
-0.0026194798 0.74699998 -0.0039292197 1.8164589e-38 318 243
-0.0013097399 0.74699998 -0.0039292197 1.7150437e-38 319 243
0 0.74699998 -0.0039292197 1.696347e-38 320 243
0.0013097399 0.74699998 -0.0039292197 1.6779079e-38 321 243
0.0026159731 0.74599999 -0.0039239596 1.7146378e-38 322 243
0.0039239596 0.74599999 -0.0039239596 1.6961628e-38 323 243
0.0052319462 0.74599999 -0.0039239596 1.6776145e-38 324 243
0.0065486995 0.74699998 -0.0039292197 1.6499558e-38 325 243
0.0078584393 0.74699998 -0.0039292197 1.640592e-38 326 243
0.0091681797 0.74699998 -0.0039292197 1.6313725e-38 327 243
0.010477919 0.74699998 -0.0039292197 1.6128968e-38 328 243
0.011787659 0.74699998 -0.0039292197 1.6036415e-38 329 243
0.013097399 0.74699998 -0.0039292197 1.5852744e-38 330 243
0.014407139 0.74699998 -0.0039292197 1.5668714e-38 331 243
0.015716879 0.74699998 -0.0039292197 1.5759832e-38 332 243
0.017072206 0.74900001 -0.0039397399 1.5483249e-38 333 243
0.018385453 0.74900001 -0.0039397399 1.5483608e-38 334 243
0.0196987 0.74900001 -0.0039397399 1.5391055e-38 335 243
0.021011947 0.74900001 -0.0039397399 1.5207384e-38 336 243
0.022355 0.75 -0.003945 1.4930802e-38 337 243
0.023669999 0.75 -0.003945 1.4746054e-38 338 243
0.024984999 0.75 -0.003945 1.4561666e-38 339 243
0.026440267 0.75400001 -0.00396604 1.419253e-38 340 243
0.027762281 0.75400001 -0.00396604 1.4008142e-38 341 243
0.029122867 0.755 -0.0039712996 1.3732635e-38 342 243
0.030527288 0.75700003 -0.0039818203 1.3640082e-38 343 243
0.031854562 0.75700003 -0.0039818203 1.3180546e-38 344 243
0.033269498 0.759 -0.0039923396 1.3180546e-38 345 243
0.034691449 0.76099998 -0.0040028598 1.2996891e-38 346 243
0.036025736 0.76099998 -0.0040028598 1.2996891e-38 347 243
0.037360024 0.76099998 -0.0040028598 1.336573e-38 348 243
0.038694311 0.76099998 -0.0040028598 1.4840861e-38 349 243
0.040028598 0.76099998 -0.0040028598 1.6038386e-38 350 243
-0.031011207 0.76899999 -0.0053932532 1.6040891e-38 297 244
-0.02966289 0.76899999 -0.0053932532 1.6499656e-38 298 244
-0.02824094 0.76700002 -0.0053792265 1.6591853e-38 299 244
-0.026861066 0.76599997 -0.0053722127 1.6593261e-38 300 244
-0.025518013 0.76599997 -0.0053722127 1.6593261e-38 301 244
-0.02404872 0.76200002 -0.0053441599 1.6686528e-38 302 244
-0.022682872 0.76099998 -0.0053371461 1.6686528e-38 303 244
-0.021348584 0.76099998 -0.0053371461 1.696167e-38 304 244
-0.0199617 0.759 -0.0053231199 1.6869473e-38 305 244
-0.018581826 0.75700003 -0.0053090933 1.686947e-38 306 244
-0.017254554 0.75700003 -0.0053090933 1.6962026e-38 307 244
-0.015885198 0.755 -0.0052950666 1.6961305e-38 308 244
-0.014542146 0.75400001 -0.0052880533 1.7145338e-38 309 244
-0.013220133 0.75400001 -0.0052880533 1.6962391e-38 310 244
-0.011866559 0.75199997 -0.0052740262 1.7054587e-38 311 244
-0.010548052 0.75199997 -0.0052740262 1.6872017e-38 312 244
-0.0092295464 0.75199997 -0.0052740262 1.7517387e-38 313 244
-0.00789 0.75 -0.00526 1.7518121e-38 314 244
-0.0065662335 0.74900001 -0.0052529867 1.7702512e-38 315 244
-0.0052529867 0.74900001 -0.0052529867 1.7703967e-38 316 244
-0.0039397399 0.74900001 -0.0052529867 1.7980194e-38 317 244
-0.0026194798 0.74699998 -0.0052389596 1.7334822e-38 318 244
-0.0013097399 0.74699998 -0.0052389596 1.6874203e-38 319 244
0 0.74699998 -0.0052389596 1.6870919e-38 320 244
0.0013097399 0.74699998 -0.0052389596 1.6778723e-38 321 244
0.0026159731 0.74599999 -0.0052319462 1.6962359e-38 322 244
0.0039239596 0.74599999 -0.0052319462 1.6685414e-38 323 244
0.0052319462 0.74599999 -0.0052319462 1.6592122e-38 324 244
0.0065486995 0.74699998 -0.0052389596 1.6223341e-38 325 244
0.0078584393 0.74699998 -0.0052389596 1.6221898e-38 326 244
0.0091681797 0.74699998 -0.0052389596 1.6129702e-38 327 244
0.010477919 0.74699998 -0.0052389596 1.5944588e-38 328 244
0.011787659 0.74699998 -0.0052389596 1.5944588e-38 329 244
0.013097399 0.74699998 -0.0052389596 1.5668002e-38 330 244
0.014407139 0.74699998 -0.0052389596 1.5575807e-38 331 244
0.015716879 0.74699998 -0.0052389596 1.5483611e-38 332 244
0.017072206 0.74900001 -0.0052529867 1.5391415e-38 333 244
0.018385453 0.74900001 -0.0052529867 1.5208102e-38 334 244
0.0196987 0.74900001 -0.0052529867 1.5023713e-38 335 244
0.02104 0.75 -0.00526 1.5022996e-38 336 244
0.022355 0.75 -0.00526 1.4746413e-38 337 244
0.023669999 0.75 -0.00526 1.4561307e-38 338 244
0.025051624 0.75199997 -0.0052740262 1.4285083e-38 339 244
0.026440267 0.75400001 -0.0052880533 1.4008142e-38 340 244
0.027762281 0.75400001 -0.0052880533 1.3915589e-38 341 244
0.029122867 0.755 -0.0052950666 1.3640082e-38 342 244
0.030607941 0.759 -0.0053231199 1.3640082e-38 343 244
0.031938717 0.759 -0.0053231199 1.3180546e-38 344 244
0.033357166 0.76099998 -0.0053371461 1.3364576e-38 345 244
0.034691449 0.76099998 -0.0053371461 1.3180576e-38 346 244
0.036025736 0.76099998 -0.0053371461 1.3457162e-38 347 244
0.037360024 0.76099998 -0.0053371461 1.3732731e-38 348 244
0.038694311 0.76099998 -0.0053371461 1.5207862e-38 349 244
0.040028598 0.76099998 -0.0053371461 1.6130588e-38 350 244
-0.02966289 0.76899999 -0.0067415666 1.6315993e-38 298 245
-0.02824094 0.76700002 -0.006724033 1.6315993e-38 299 245
-0.026896132 0.76700002 -0.006724033 1.6500359e-38 300 245
-0.025518013 0.76599997 -0.0067152665 1.6684752e-38 301 245
-0.02404872 0.76200002 -0.0066801999 1.6502862e-38 302 245
-0.022682872 0.76099998 -0.0066714329 1.6502862e-38 303 245
-0.021348584 0.76099998 -0.0066714329 1.686947e-38 304 245
-0.0199617 0.759 -0.0066538998 1.6777274e-38 305 245
-0.018581826 0.75700003 -0.0066363667 1.650212e-38 306 245
-0.017254554 0.75700003 -0.0066363667 1.650212e-38 307 245
-0.015885198 0.755 -0.0066188332 1.6685435e-38 308 245
-0.014542146 0.75400001 -0.0066100666 1.677763e-38 309 245
-0.013220133 0.75400001 -0.0066100666 1.6962023e-38 310 245
-0.011866559 0.75199997 -0.0065925326 1.6962023e-38 311 245
-0.010548052 0.75199997 -0.0065925326 1.6869473e-38 312 245
-0.0092295464 0.75199997 -0.0065925326 1.7514842e-38 313 245
-0.00789 0.75 -0.006575 1.7240427e-38 314 245
-0.006575 0.75 -0.006575 1.7424458e-38 315 245
-0.0052529867 0.74900001 -0.0065662335 1.733371e-38 316 245
-0.0039397399 0.74900001 -0.0065662335 1.733371e-38 317 245
-0.0026194798 0.74699998 -0.0065486995 1.7240796e-38 318 245
-0.0013097399 0.74699998 -0.0065486995 1.6872373e-38 319 245
0 0.74699998 -0.0065486995 1.6963468e-38 320 245
0.0013097399 0.74699998 -0.0065486995 1.6686881e-38 321 245
0.0026194798 0.74699998 -0.0065486995 1.6869808e-38 322 245
0.0039292197 0.74699998 -0.0065486995 1.6501025e-38 323 245
0.0052389596 0.74699998 -0.0065486995 1.6591406e-38 324 245
0.0065486995 0.74699998 -0.0065486995 1.6222624e-38 325 245
0.0078584393 0.74699998 -0.0065486995 1.6221545e-38 326 245
0.0091681797 0.74699998 -0.0065486995 1.5945318e-38 327 245
0.010477919 0.74699998 -0.0065486995 1.5760922e-38 328 245
0.011787659 0.74699998 -0.0065486995 1.5668727e-38 329 245
0.013097399 0.74699998 -0.0065486995 1.5484333e-38 330 245
0.014407139 0.74699998 -0.0065486995 1.5484333e-38 331 245
0.015716879 0.74699998 -0.0065486995 1.5208466e-38 332 245
0.017072206 0.74900001 -0.0065662335 1.511627e-38 333 245
0.018385453 0.74900001 -0.0065662335 1.511555e-38 334 245
0.0196987 0.74900001 -0.0065662335 1.493116e-38 335 245
0.02104 0.75 -0.006575 1.483789e-38 336 245
0.022355 0.75 -0.006575 1.4561307e-38 337 245
0.023733119 0.75199997 -0.0065925326 1.4284724e-38 338 245
0.025051624 0.75199997 -0.0065925326 1.419253e-38 339 245
0.026475333 0.755 -0.0066188332 1.3915589e-38 340 245
0.027799098 0.755 -0.0066188332 1.3731559e-38 341 245
0.029200014 0.75700003 -0.0066363667 1.3364217e-38 342 245
0.030607941 0.759 -0.0066538998 1.3456411e-38 343 245
0.031938717 0.759 -0.0066538998 1.3180909e-38 344 245
0.033357166 0.76099998 -0.0066714329 1.3180909e-38 345 245
0.034691449 0.76099998 -0.0066714329 1.3272418e-38 346 245
0.036025736 0.76099998 -0.0066714329 1.3456809e-38 347 245
0.037360024 0.76099998 -0.0066714329 1.3917492e-38 348 245
0.038694311 0.76099998 -0.0066714329 1.5392981e-38 349 245
-0.029740039 0.77100003 -0.0081109209 1.6132692e-38 298 246
-0.02824094 0.76700002 -0.00806884 1.5763908e-38 299 246
-0.026896132 0.76700002 -0.00806884 1.6500359e-38 300 246
-0.025518013 0.76599997 -0.0080583189 1.6500359e-38 301 246
-0.024111839 0.764 -0.0080372803 1.6593982e-38 302 246
-0.02271268 0.76200002 -0.0080162399 1.6686177e-38 303 246
-0.02137664 0.76200002 -0.0080162399 1.6686158e-38 304 246
-0.020014299 0.76099998 -0.0080057196 1.6593962e-38 305 246
-0.01863092 0.759 -0.0079846792 1.6502473e-38 306 246
-0.017300138 0.759 -0.0079846792 1.6409918e-38 307 246
-0.015885198 0.755 -0.0079425992 1.6868378e-38 308 246
-0.014561433 0.755 -0.0079425992 1.6960574e-38 309 246
-0.013220133 0.75400001 -0.00793208 1.6870179e-38 310 246
-0.01189812 0.75400001 -0.00793208 1.6870179e-38 311 246
-0.010548052 0.75199997 -0.0079110395 1.6870179e-38 312 246
-0.0092295464 0.75199997 -0.0079110395 1.6962376e-38 313 246
-0.00789 0.75 -0.00789 1.7054937e-38 314 246
-0.006575 0.75 -0.00789 1.6962742e-38 315 246
-0.0052529867 0.74900001 -0.0078794798 1.6779798e-38 316 246
-0.0039397399 0.74900001 -0.0078794798 1.6779798e-38 317 246
-0.0026194798 0.74699998 -0.0078584393 1.7055313e-38 318 246
-0.0013097399 0.74699998 -0.0078584393 1.6963117e-38 319 246
0 0.74699998 -0.0078584393 1.7054587e-38 320 246
0.0013097399 0.74699998 -0.0078584393 1.6962391e-38 321 246
0.0026194798 0.74699998 -0.0078584393 1.6594668e-38 322 246
0.0039292197 0.74699998 -0.0078584393 1.6133692e-38 323 246
0.0052389596 0.74699998 -0.0078584393 1.6315542e-38 324 246
0.0065486995 0.74699998 -0.0078584393 1.613115e-38 325 246
0.0078584393 0.74699998 -0.0078584393 1.5945681e-38 326 246
0.0091681797 0.74699998 -0.0078584393 1.5853485e-38 327 246
0.010477919 0.74699998 -0.0078584393 1.5577254e-38 328 246
0.011787659 0.74699998 -0.0078584393 1.5392863e-38 329 246
0.013097399 0.74699998 -0.0078584393 1.5483608e-38 330 246
0.014407139 0.74699998 -0.0078584393 1.5391414e-38 331 246
0.015716879 0.74699998 -0.0078584393 1.5115907e-38 332 246
0.017072206 0.74900001 -0.0078794798 1.5023713e-38 333 246
0.018385453 0.74900001 -0.0078794798 1.5022996e-38 334 246
0.0196987 0.74900001 -0.0078794798 1.4746413e-38 335 246
0.02104 0.75 -0.00789 1.465386e-38 336 246
0.022355 0.75 -0.00789 1.4285442e-38 337 246
0.02379624 0.75400001 -0.00793208 1.4009577e-38 338 246
0.025118252 0.75400001 -0.00793208 1.3825188e-38 339 246
0.026475333 0.755 -0.0079425992 1.3640082e-38 340 246
0.027799098 0.755 -0.0079425992 1.3640082e-38 341 246
0.029200014 0.75700003 -0.0079636406 1.3364217e-38 342 246
0.030607941 0.759 -0.0079846792 1.3364217e-38 343 246
0.032022879 0.76099998 -0.0080057196 1.3271305e-38 344 246
0.033357166 0.76099998 -0.0080057196 1.3455695e-38 345 246
0.034691449 0.76099998 -0.0080057196 1.3179866e-38 346 246
0.036025736 0.76099998 -0.0080057196 1.3456812e-38 347 246
0.037360024 0.76099998 -0.0080057196 1.4195884e-38 348 246
0.038694311 0.76099998 -0.0080057196 1.5210034e-38 349 246
-0.029585747 0.76700002 -0.0094136465 1.58572e-38 298 247
-0.02824094 0.76700002 -0.0094136465 1.5396222e-38 299 247
-0.026896132 0.76700002 -0.0094136465 1.6224861e-38 300 247
-0.025518013 0.76599997 -0.0094013726 1.6224861e-38 301 247
-0.024111839 0.764 -0.0093768267 1.6318119e-38 302 247
-0.022772292 0.764 -0.0093768267 1.6318119e-38 303 247
-0.02137664 0.76200002 -0.0093522798 1.6593609e-38 304 247
-0.0200406 0.76200002 -0.0093522798 1.6501413e-38 305 247
-0.01863092 0.759 -0.00931546 1.6501398e-38 306 247
-0.017300138 0.759 -0.00931546 1.6501398e-38 307 247
-0.015927281 0.75700003 -0.0092909131 1.668471e-38 308 247
-0.014561433 0.755 -0.0092663663 1.6776906e-38 309 247
-0.013220133 0.75400001 -0.0092540924 1.6777274e-38 310 247
-0.01189812 0.75400001 -0.0092540924 1.6777274e-38 311 247
-0.010576107 0.75400001 -0.0092540924 1.6594684e-38 312 247
-0.0092295464 0.75199997 -0.0092295464 1.6594684e-38 313 247
-0.00789 0.75 -0.0092049995 1.6502859e-38 314 247
-0.006575 0.75 -0.0092049995 1.6502859e-38 315 247
-0.0052529867 0.74900001 -0.0091927266 1.6502512e-38 316 247
-0.0039397399 0.74900001 -0.0091927266 1.6778739e-38 317 247
-0.0026194798 0.74699998 -0.0091681797 1.6778739e-38 318 247
-0.0013097399 0.74699998 -0.0091681797 1.6778739e-38 319 247
0 0.74699998 -0.0091681797 1.6779079e-38 320 247
0.0013097399 0.74699998 -0.0091681797 1.6686525e-38 321 247
0.0026194798 0.74699998 -0.0091681797 1.6501748e-38 322 247
0.0039292197 0.74699998 -0.0091681797 1.622516e-38 323 247
0.0052389596 0.74699998 -0.0091681797 1.6223344e-38 324 247
0.0065486995 0.74699998 -0.0091681797 1.5946756e-38 325 247
0.0078584393 0.74699998 -0.0091681797 1.5762722e-38 326 247
0.0091681797 0.74699998 -0.0091681797 1.5485775e-38 327 247
0.010477919 0.74699998 -0.0091681797 1.5485056e-38 328 247
0.011787659 0.74699998 -0.0091681797 1.5300664e-38 329 247
0.013097399 0.74699998 -0.0091681797 1.5391415e-38 330 247
0.014445714 0.74900001 -0.0091927266 1.529922e-38 331 247
0.01575896 0.74900001 -0.0091927266 1.5023354e-38 332 247
0.017072206 0.74900001 -0.0091927266 1.5023354e-38 333 247
0.018385453 0.74900001 -0.0091927266 1.4654936e-38 334 247
0.0196987 0.74900001 -0.0091927266 1.4470548e-38 335 247
0.02104 0.75 -0.0092049995 1.4286159e-38 336 247
0.022414612 0.75199997 -0.0092295464 1.4193606e-38 337 247
0.02379624 0.75400001 -0.0092540924 1.4100336e-38 338 247
0.025151566 0.755 -0.0092663663 1.3915948e-38 339 247
0.026475333 0.755 -0.0092663663 1.3732277e-38 340 247
0.027872739 0.75700003 -0.0092909131 1.3547888e-38 341 247
0.029277159 0.759 -0.00931546 1.3180546e-38 342 247
0.030688593 0.76099998 -0.0093400059 1.3180546e-38 343 247
0.032022879 0.76099998 -0.0093400059 1.3180553e-38 344 247
0.033357166 0.76099998 -0.0093400059 1.3272749e-38 345 247
0.034691449 0.76099998 -0.0093400059 1.2998005e-38 346 247
0.036025736 0.76099998 -0.0093400059 1.3366428e-38 347 247
0.037360024 0.76099998 -0.0093400059 1.4656157e-38 348 247
0.038694311 0.76099998 -0.0093400059 1.5393723e-38 349 247
-0.028314579 0.76899999 -0.010786506 1.5396243e-38 299 248
-0.026896132 0.76700002 -0.010758453 1.6131962e-38 300 248
-0.025551327 0.76700002 -0.010758453 1.6131962e-38 301 248
-0.024174958 0.76599997 -0.010744425 1.6317047e-38 302 248
-0.022831906 0.76599997 -0.010744425 1.6501078e-38 303 248
-0.021432746 0.764 -0.010716373 1.6593259e-38 304 248
-0.0200406 0.76200002 -0.01068832 1.6593259e-38 305 248
-0.018680012 0.76099998 -0.010674292 1.6502488e-38 306 248
-0.017345725 0.76099998 -0.010674292 1.6318098e-38 307 248
-0.015927281 0.75700003 -0.010618187 1.6685081e-38 308 248
-0.014561433 0.755 -0.010590133 1.6685081e-38 309 248
-0.013237666 0.755 -0.010590133 1.6777277e-38 310 248
-0.01189812 0.75400001 -0.010576107 1.6777277e-38 311 248
-0.010576107 0.75400001 -0.010576107 1.6685081e-38 312 248
-0.0092295464 0.75199997 -0.010548052 1.6685081e-38 313 248
-0.0079110395 0.75199997 -0.010548052 1.6593962e-38 314 248
-0.006575 0.75 -0.01052 1.6593962e-38 315 248
-0.00526 0.75 -0.01052 1.6593965e-38 316 248
-0.0039397399 0.74900001 -0.010505973 1.6778357e-38 317 248
-0.0026264933 0.74900001 -0.010505973 1.6686881e-38 318 248
-0.0013132467 0.74900001 -0.010505973 1.6779076e-38 319 248
0 0.74900001 -0.010505973 1.6779792e-38 320 248
0.0013097399 0.74699998 -0.010477919 1.6503566e-38 321 248
0.0026194798 0.74699998 -0.010477919 1.6318802e-38 322 248
0.0039292197 0.74699998 -0.010477919 1.6042215e-38 323 248
0.0052389596 0.74699998 -0.010477919 1.60404e-38 324 248
0.0065486995 0.74699998 -0.010477919 1.5763453e-38 325 248
0.0078584393 0.74699998 -0.010477919 1.557834e-38 326 248
0.0091927266 0.74900001 -0.010505973 1.557834e-38 327 248
0.010505973 0.74900001 -0.010505973 1.5484705e-38 328 248
0.01181922 0.74900001 -0.010505973 1.539251e-38 329 248
0.013132467 0.74900001 -0.010505973 1.5299948e-38 330 248
0.014445714 0.74900001 -0.010505973 1.5207394e-38 331 248
0.01575896 0.74900001 -0.010505973 1.4840761e-38 332 248
0.017072206 0.74900001 -0.010505973 1.4656012e-38 333 248
0.018385453 0.74900001 -0.010505973 1.456346e-38 334 248
0.019724999 0.75 -0.01052 1.4195041e-38 335 248
0.02104 0.75 -0.01052 1.4193606e-38 336 248
0.022414612 0.75199997 -0.010548052 1.4009577e-38 337 248
0.02379624 0.75400001 -0.010576107 1.3917024e-38 338 248
0.025151566 0.755 -0.010590133 1.3824471e-38 339 248
0.026545467 0.75700003 -0.010618187 1.3640082e-38 340 248
0.027872739 0.75700003 -0.010618187 1.3547529e-38 341 248
0.029354304 0.76099998 -0.010674292 1.3180546e-38 342 248
0.030688593 0.76099998 -0.010674292 1.3364576e-38 343 248
0.032022879 0.76099998 -0.010674292 1.3180926e-38 344 248
0.033357166 0.76099998 -0.010674292 1.3457513e-38 345 248
0.034691449 0.76099998 -0.010674292 1.3090214e-38 346 248
0.036073081 0.76200002 -0.01068832 1.3551191e-38 347 248
0.037409119 0.76200002 -0.01068832 1.4933111e-38 348 248
0.038745161 0.76200002 -0.01068832 1.5486285e-38 349 248
-0.028461859 0.773 -0.012197939 1.5488452e-38 299 249
-0.026966266 0.76899999 -0.012134819 1.5764637e-38 300 249
-0.025551327 0.76700002 -0.01210326 1.5764637e-38 301 249
-0.024206521 0.76700002 -0.01210326 1.6041905e-38 302 249
-0.022831906 0.76599997 -0.012087479 1.6041905e-38 303 249
-0.021432746 0.764 -0.01205592 1.6317395e-38 304 249
-0.020093199 0.764 -0.01205592 1.6317395e-38 305 249
-0.01870456 0.76200002 -0.01202436 1.6593612e-38 306 249
-0.017345725 0.76099998 -0.012008579 1.6501416e-38 307 249
-0.015969358 0.759 -0.01197702 1.6593612e-38 308 249
-0.014600007 0.75700003 -0.01194546 1.6501416e-38 309 249
-0.013237666 0.755 -0.011913899 1.6501416e-38 310 249
-0.011913899 0.755 -0.011913899 1.6501416e-38 311 249
-0.010576107 0.75400001 -0.01189812 1.6501769e-38 312 249
