# .PCD v.7 - Point Cloud Data file format
FIELDS x y z rgb imX imY
SIZE 4 4 4 4 4 4
TYPE F F F F F F
COUNT 1 1 1 1 1 1
WIDTH 832
HEIGHT 1
VIEWPOINT 0 0 0 1 0 0 0
POINTS 832
DATA ascii
-0.037345998 0.70999998 -0.024897331 7.2690368e-39 290 260
-0.036101133 0.70999998 -0.024897331 6.5314718e-39 291 260
-0.034856264 0.70999998 -0.024897331 5.9783008e-39 292 260
-0.033516716 0.708 -0.024827199 5.425127e-39 293 260
-0.032229774 0.70700002 -0.024792133 5.4244109e-39 294 260
-0.030946331 0.70599997 -0.024757065 5.2396609e-39 295 260
-0.029708479 0.70599997 -0.024757065 5.329707e-39 296 260
-0.028389972 0.704 -0.024686933 5.2375114e-39 297 260
-0.027117053 0.70300001 -0.024651866 5.3289909e-39 298 260
-0.025810819 0.70099998 -0.024581732 5.3289909e-39 299 260
-0.024546666 0.69999999 -0.024546666 5.3304273e-39 300 260
-0.023252707 0.69800001 -0.024476532 5.3304273e-39 301 260
-0.02202888 0.69800001 -0.024476532 5.0567144e-39 302 260
-0.020805053 0.69800001 -0.024476532 5.0567144e-39 303 260
-0.019553173 0.69700003 -0.024441468 5.0567144e-39 304 260
-0.018331099 0.69700003 -0.024441468 4.9645188e-39 305 260
-0.017084479 0.69599998 -0.0244064 4.9637999e-39 306 260
-0.015864158 0.69599998 -0.0244064 4.8716029e-39 307 260
-0.01460176 0.69400001 -0.024336265 4.7786884e-39 308 260
-0.013384946 0.69400001 -0.024336265 4.6864928e-39 309 260
-0.012168133 0.69400001 -0.024336265 4.5939412e-39 310 260
-0.01095132 0.69400001 -0.024336265 4.5939412e-39 311 260
-0.0097345067 0.69400001 -0.024336265 4.593944e-39 312 260
-0.0085054198 0.69300002 -0.024301201 4.5017484e-39 313 260
-0.0072903596 0.69300002 -0.024301201 4.5017484e-39 314 260
-0.0060753003 0.69300002 -0.024301201 4.593944e-39 315 260
-0.00486024 0.69300002 -0.024301201 4.3184333e-39 316 260
-0.0036451798 0.69300002 -0.024301201 4.3184333e-39 317 260
-0.00243012 0.69300002 -0.024301201 4.4095486e-39 318 260
-0.00121506 0.69300002 -0.024301201 4.5017456e-39 319 260
0 0.69300002 -0.024301201 4.5017456e-39 320 260
0.0012168133 0.69400001 -0.024336265 4.5017456e-39 321 260
0.0024336267 0.69400001 -0.024336265 4.3184333e-39 322 260
0.0036504399 0.69400001 -0.024336265 4.2262363e-39 323 260
0.0048672534 0.69400001 -0.024336265 4.1347595e-39 324 260
0.0060840664 0.69400001 -0.024336265 4.1347595e-39 325 260
0.0073219193 0.69599998 -0.0244064 4.1347595e-39 326 260
0.0085422397 0.69599998 -0.0244064 4.2269566e-39 327 260
0.0097625591 0.69599998 -0.0244064 4.0432884e-39 328 260
0.01099866 0.69700003 -0.024441468 4.0432884e-39 329 260
0.012220734 0.69700003 -0.024441468 4.1344036e-39 330 260
0.013462093 0.69800001 -0.024476532 4.1344036e-39 331 260
0.01468592 0.69800001 -0.024476532 4.1347595e-39 332 260
0.015909746 0.69800001 -0.024476532 4.3191522e-39 333 260
0.017182667 0.69999999 -0.024546666 4.5028204e-39 334 260
0.018436298 0.70099998 -0.024581732 4.595016e-39 335 260
0.019665385 0.70099998 -0.024581732 4.5038994e-39 336 260
0.020954086 0.70300001 -0.024651866 4.7801261e-39 337 260
0.022218239 0.704 -0.024686933 4.7801233e-39 338 260
0.023452586 0.704 -0.024686933 4.7801233e-39 339 260
0.024757065 0.70599997 -0.024757065 4.9655936e-39 340 260
0.02603174 0.70700002 -0.024792133 5.0577892e-39 341 260
0.027271347 0.70700002 -0.024792133 5.4265731e-39 342 260
0.028631933 0.70999998 -0.024897331 6.0719426e-39 343 260
0.029918881 0.71100003 -0.024932399 6.5321752e-39 344 260
0.031165501 0.71100003 -0.024932399 6.1637514e-39 345 260
0.032503292 0.713 -0.025002534 1.1605439e-38 346 260
0.033753417 0.713 -0.025002534 1.4371308e-38 347 260
-0.042563915 0.71399999 -0.026289478 1.6956767e-38 286 261
-0.041312039 0.71399999 -0.026289478 1.2531378e-38 287 261
-0.040004052 0.713 -0.026252659 9.9423443e-39 288 261
-0.038753927 0.713 -0.026252659 7.5448978e-39 289 261
-0.037398599 0.71100003 -0.026179021 7.3597905e-39 290 261
-0.036151983 0.71100003 -0.026179021 7.0832036e-39 291 261
-0.034856264 0.70999998 -0.026142199 6.7137008e-39 292 261
-0.033516716 0.708 -0.026068559 6.2527241e-39 293 261
-0.032229774 0.70700002 -0.02603174 5.9764987e-39 294 261
-0.030946331 0.70599997 -0.025994917 5.700272e-39 295 261
-0.029708479 0.70599997 -0.025994917 5.7913914e-39 296 261
-0.028389972 0.704 -0.02592128 5.6070015e-39 297 261
-0.027155625 0.704 -0.02592128 5.8814332e-39 298 261
-0.025810819 0.70099998 -0.025810819 5.9736289e-39 299 261
-0.024581732 0.70099998 -0.025810819 5.6070043e-39 300 261
-0.023319334 0.69999999 -0.025773998 5.6070043e-39 301 261
-0.022091998 0.69999999 -0.025773998 5.424055e-39 302 261
-0.020805053 0.69800001 -0.025700359 5.424055e-39 303 261
-0.019581227 0.69800001 -0.025700359 5.5151716e-39 304 261
-0.018331099 0.69700003 -0.025663542 5.607726e-39 305 261
-0.017109027 0.69700003 -0.025663542 5.3322153e-39 306 261
-0.015864158 0.69599998 -0.025626717 5.2396609e-39 307 261
-0.014643839 0.69599998 -0.025626717 5.1467451e-39 308 261
-0.013384946 0.69400001 -0.025553079 5.0545494e-39 309 261
-0.012168133 0.69400001 -0.025553079 4.9620007e-39 310 261
-0.01095132 0.69400001 -0.025553079 4.869805e-39 311 261
-0.0097345067 0.69400001 -0.025553079 4.8690862e-39 312 261
-0.0085176928 0.69400001 -0.025553079 5.0531173e-39 313 261
-0.0072903596 0.69300002 -0.02551626 4.869805e-39 314 261
-0.0060753003 0.69300002 -0.02551626 4.7776094e-39 315 261
-0.00486024 0.69300002 -0.02551626 4.6864928e-39 316 261
-0.0036451798 0.69300002 -0.02551626 4.5942971e-39 317 261
-0.00243012 0.69300002 -0.02551626 4.7768905e-39 318 261
-0.00121506 0.69300002 -0.02551626 4.7768905e-39 319 261
0 0.69300002 -0.02551626 4.685411e-39 320 261
0.0012168133 0.69400001 -0.025553079 4.7776066e-39 321 261
0.0024336267 0.69400001 -0.025553079 4.2265894e-39 322 261
0.0036504399 0.69400001 -0.025553079 4.2265894e-39 323 261
0.0048672534 0.69400001 -0.025553079 4.2262335e-39 324 261
0.0060840664 0.69400001 -0.025553079 4.3184305e-39 325 261
0.0073219193 0.69599998 -0.025626717 4.2269538e-39 326 261
0.0085422397 0.69599998 -0.025626717 4.3191494e-39 327 261
0.0097765867 0.69700003 -0.025663542 4.5028204e-39 328 261
0.01099866 0.69700003 -0.025663542 4.5028204e-39 329 261
0.012238266 0.69800001 -0.025700359 4.3184305e-39 330 261
0.013462093 0.69800001 -0.025700359 4.2262335e-39 331 261
0.01468592 0.69800001 -0.025700359 4.5942971e-39 332 261
0.015955333 0.69999999 -0.025773998 4.5942971e-39 333 261
0.017207211 0.70099998 -0.025810819 4.6872116e-39 334 261
0.018436298 0.70099998 -0.025810819 4.6872116e-39 335 261
0.019721493 0.70300001 -0.025884461 4.9630755e-39 336 261
0.020954086 0.70300001 -0.025884461 5.0552711e-39 337 261
0.022218239 0.704 -0.02592128 4.8719588e-39 338 261
0.023452586 0.704 -0.02592128 5.148187e-39 339 261
0.024757065 0.70599997 -0.025994917 5.149266e-39 340 261
0.02603174 0.70700002 -0.02603174 5.5180471e-39 341 261
0.027271347 0.70700002 -0.02603174 5.7953571e-39 342 261
0.028631933 0.70999998 -0.026142199 6.3481721e-39 343 261
0.029918881 0.71100003 -0.026179021 6.809118e-39 344 261
0.031165501 0.71100003 -0.026179021 6.6247268e-39 345 261
0.032503292 0.713 -0.026252659 1.2619947e-38 346 261
-0.042683143 0.71600002 -0.027618507 1.6957494e-38 286 262
-0.041427758 0.71600002 -0.027618507 1.4007232e-38 287 262
-0.040060159 0.71399999 -0.02754136 1.1603664e-38 288 262
-0.038753927 0.713 -0.027502786 7.3623044e-39 289 262
-0.037503798 0.713 -0.027502786 7.1761251e-39 290 262
-0.036151983 0.71100003 -0.027425639 6.9913737e-39 291 262
-0.034856264 0.70999998 -0.027387066 6.6229541e-39 292 262
-0.033516716 0.708 -0.027309919 6.2538115e-39 293 262
-0.032229774 0.70700002 -0.027271347 5.9775847e-39 294 262
-0.030946331 0.70599997 -0.027232772 5.8850304e-39 295 262
-0.029708479 0.70599997 -0.027232772 5.7921145e-39 296 262
-0.028389972 0.704 -0.027155625 5.7921145e-39 297 262
-0.027155625 0.704 -0.027155625 5.9754267e-39 298 262
-0.025884461 0.70300001 -0.027117053 5.9754267e-39 299 262
-0.024581732 0.70099998 -0.027039904 5.7921145e-39 300 262
-0.023319334 0.69999999 -0.027001332 5.7921145e-39 301 262
-0.022091998 0.69999999 -0.027001332 5.6084449e-39 302 262
-0.020864666 0.69999999 -0.027001332 5.6084449e-39 303 262
-0.019581227 0.69800001 -0.026924185 5.6084449e-39 304 262
-0.0183574 0.69800001 -0.026924185 5.7006405e-39 305 262
-0.017109027 0.69700003 -0.026885614 5.4251298e-39 306 262
-0.015886955 0.69700003 -0.026885614 5.3329342e-39 307 262
-0.014643839 0.69599998 -0.026847038 5.148187e-39 308 262
-0.013423519 0.69599998 -0.026847038 4.9641559e-39 309 262
-0.012168133 0.69400001 -0.026769891 4.8716029e-39 310 262
-0.01095132 0.69400001 -0.026769891 4.7794073e-39 311 262
-0.0097345067 0.69400001 -0.026769891 4.9620035e-39 312 262
-0.0085176928 0.69400001 -0.026769891 4.9620035e-39 313 262
-0.0072903596 0.69300002 -0.02673132 4.7786912e-39 314 262
-0.0060753003 0.69300002 -0.02673132 4.7786912e-39 315 262
-0.00486024 0.69300002 -0.02673132 4.7786884e-39 316 262
-0.0036451798 0.69300002 -0.02673132 4.6864928e-39 317 262
-0.00243012 0.69300002 -0.02673132 4.6864928e-39 318 262
-0.0012168133 0.69400001 -0.026769891 4.6864928e-39 319 262
0 0.69400001 -0.026769891 4.595016e-39 320 262
0.0012168133 0.69400001 -0.026769891 4.5028204e-39 321 262
0.0024336267 0.69400001 -0.026769891 4.5028204e-39 322 262
0.0036504399 0.69400001 -0.026769891 4.5028204e-39 323 262
0.0048672534 0.69400001 -0.026769891 4.3195053e-39 324 262
0.0061015999 0.69599998 -0.026847038 4.4117009e-39 325 262
0.00733244 0.69700003 -0.026885614 4.3191494e-39 326 262
0.0085545136 0.69700003 -0.026885614 4.3191494e-39 327 262
0.0097765867 0.69700003 -0.026885614 4.4113478e-39 328 262
0.01101444 0.69800001 -0.026924185 4.4113478e-39 329 262
0.012238266 0.69800001 -0.026924185 4.411345e-39 330 262
0.013462093 0.69800001 -0.026924185 4.3191494e-39 331 262
0.014727999 0.69999999 -0.027001332 4.68649e-39 332 262
0.015955333 0.69999999 -0.027001332 4.7786856e-39 333 262
0.017207211 0.70099998 -0.027039904 4.7797604e-39 334 262
0.018436298 0.70099998 -0.027039904 4.871956e-39 335 262
0.019721493 0.70300001 -0.027117053 4.9641559e-39 336 262
0.020983893 0.704 -0.027155625 4.9641559e-39 337 262
0.022218239 0.704 -0.027155625 4.9648747e-39 338 262
0.023519212 0.70599997 -0.027232772 5.149266e-39 339 262
0.024792133 0.70700002 -0.027271347 5.2414616e-39 340 262
0.026068559 0.708 -0.027309919 5.6102441e-39 341 262
0.027387066 0.70999998 -0.027387066 5.8875527e-39 342 262
0.028631933 0.70999998 -0.027387066 6.4407265e-39 343 262
0.029876797 0.70999998 -0.027387066 7.5441635e-39 344 262
0.031165501 0.71100003 -0.027425639 7.9129447e-39 345 262
0.032412119 0.71100003 -0.027425639 1.3542621e-38 346 262
-0.042683143 0.71600002 -0.028873893 1.6865301e-38 286 263
-0.041427758 0.71600002 -0.028873893 1.5482008e-38 287 263
-0.040060159 0.71399999 -0.028793238 1.3447576e-38 288 263
-0.038808275 0.71399999 -0.028793238 8.1924252e-39 289 263
-0.037503798 0.713 -0.028752912 7.5441818e-39 290 263
-0.036253672 0.713 -0.028752912 7.3597905e-39 291 263
-0.034905359 0.71100003 -0.028672259 6.9906576e-39 292 263
-0.033611398 0.70999998 -0.028631933 6.4374839e-39 293 263
-0.03227536 0.708 -0.02855128 6.3452882e-39 294 263
-0.030990168 0.70700002 -0.028510952 6.160897e-39 295 263
-0.029708479 0.70599997 -0.028470624 6.1601781e-39 296 263
-0.028389972 0.704 -0.028389972 6.0679811e-39 297 263
-0.027155625 0.704 -0.028389972 5.9754267e-39 298 263
-0.02592128 0.704 -0.028389972 5.9754267e-39 299 263
-0.024651866 0.70300001 -0.028349647 5.7921145e-39 300 263
-0.023352645 0.70099998 -0.028268991 5.7921145e-39 301 263
-0.022123558 0.70099998 -0.028268991 5.7921145e-39 302 263
-0.020864666 0.69999999 -0.028228667 5.7921145e-39 303 263
-0.019637333 0.69999999 -0.028228667 5.5173254e-39 304 263
-0.0183574 0.69800001 -0.028148014 5.6095211e-39 305 263
-0.017133573 0.69800001 -0.028148014 5.5173254e-39 306 263
-0.015886955 0.69700003 -0.028107686 5.4251298e-39 307 263
-0.014643839 0.69599998 -0.028067358 5.4244109e-39 308 263
-0.013423519 0.69599998 -0.028067358 5.3322153e-39 309 263
-0.012168133 0.69400001 -0.027986705 4.9641559e-39 310 263
-0.01095132 0.69400001 -0.027986705 4.8719588e-39 311 263
-0.0097345067 0.69400001 -0.027986705 4.9627223e-39 312 263
-0.0085176928 0.69400001 -0.027986705 4.9627223e-39 313 263
-0.0072903596 0.69300002 -0.027946379 4.7786912e-39 314 263
-0.0060753003 0.69300002 -0.027946379 4.9627223e-39 315 263
-0.00486024 0.69300002 -0.027946379 4.7794073e-39 316 263
-0.0036504399 0.69400001 -0.027986705 4.7794073e-39 317 263
-0.0024336267 0.69400001 -0.027986705 4.9630755e-39 318 263
-0.0012168133 0.69400001 -0.027986705 4.7786856e-39 319 263
0 0.69400001 -0.027986705 4.6872088e-39 320 263
0.0012168133 0.69400001 -0.027986705 4.5950132e-39 321 263
0.0024336267 0.69400001 -0.027986705 4.5950132e-39 322 263
0.0036504399 0.69400001 -0.027986705 4.5950132e-39 323 263
0.0048672534 0.69400001 -0.027986705 4.5038994e-39 324 263
0.0061015999 0.69599998 -0.028067358 4.411345e-39 325 263
0.00733244 0.69700003 -0.028107686 4.4113478e-39 326 263
0.0085545136 0.69700003 -0.028107686 4.4113478e-39 327 263
0.0097765867 0.69700003 -0.028107686 4.5038994e-39 328 263
0.01101444 0.69800001 -0.028148014 4.5038994e-39 329 263
0.012238266 0.69800001 -0.028148014 4.6875648e-39 330 263
0.013500666 0.69999999 -0.028228667 4.6875648e-39 331 263
0.014727999 0.69999999 -0.028228667 4.6875648e-39 332 263
0.015955333 0.69999999 -0.028228667 4.871956e-39 333 263
0.017207211 0.70099998 -0.028268991 5.0552683e-39 334 263
0.018436298 0.70099998 -0.028268991 5.1474639e-39 335 263
0.019721493 0.70300001 -0.028349647 4.9641517e-39 336 263
0.020983893 0.704 -0.028389972 5.1481842e-39 337 263
0.022218239 0.704 -0.028389972 5.0577864e-39 338 263
0.023519212 0.70599997 -0.028470624 5.1499821e-39 339 263
0.024827199 0.708 -0.02855128 5.2414616e-39 340 263
0.026142199 0.70999998 -0.028631933 5.6102441e-39 341 263
0.027387066 0.70999998 -0.028631933 6.2556107e-39 342 263
0.028631933 0.70999998 -0.028631933 6.440002e-39 343 263
0.029876797 0.70999998 -0.028631933 8.1888085e-39 344 263
0.031165501 0.71100003 -0.028672259 9.9405268e-39 345 263
0.032412119 0.71100003 -0.028672259 1.4924476e-38 346 263
-0.042683143 0.71600002 -0.03012928 1.6956418e-38 286 264
-0.041427758 0.71600002 -0.03012928 1.649544e-38 287 264
-0.040172372 0.71600002 -0.03012928 1.4648633e-38 288 264
-0.038916986 0.71600002 -0.03012928 9.1172556e-39 289 264
-0.037556399 0.71399999 -0.030045118 8.1891854e-39 290 264
-0.036253672 0.713 -0.030003037 7.8200428e-39 291 264
-0.034905359 0.71100003 -0.029918881 7.0828533e-39 292 264
-0.033611398 0.70999998 -0.029876797 6.7140708e-39 293 264
-0.03227536 0.708 -0.02979264 6.3452882e-39 294 264
-0.030990168 0.70700002 -0.029750559 6.2530926e-39 295 264
-0.029708479 0.70599997 -0.029708479 6.1605411e-39 296 264
-0.028470624 0.70599997 -0.029708479 5.9761484e-39 297 264
-0.027155625 0.704 -0.029624319 5.9761484e-39 298 264
-0.02592128 0.704 -0.029624319 5.7921173e-39 299 264
-0.024651866 0.70300001 -0.029582238 5.7928361e-39 300 264
-0.023352645 0.70099998 -0.029498078 5.7928361e-39 301 264
-0.022123558 0.70099998 -0.029498078 5.6095211e-39 302 264
-0.020894472 0.70099998 -0.029498078 5.5173254e-39 303 264
-0.019637333 0.69999999 -0.029455997 5.5173282e-39 304 264
-0.018409999 0.69999999 -0.029455997 5.5173282e-39 305 264
-0.017133573 0.69800001 -0.029371841 5.4254927e-39 306 264
-0.015886955 0.69700003 -0.02932976 5.4254927e-39 307 264
-0.01466488 0.69700003 -0.02932976 5.1492632e-39 308 264
-0.013423519 0.69599998 -0.029287677 4.9648719e-39 309 264
-0.0122032 0.69599998 -0.029287677 4.9648747e-39 310 264
-0.010982879 0.69599998 -0.029287677 4.7801233e-39 311 264
-0.0097345067 0.69400001 -0.029203519 4.9627223e-39 312 264
-0.0085176928 0.69400001 -0.029203519 4.7786912e-39 313 264
-0.0073008798 0.69400001 -0.029203519 4.7794101e-39 314 264
-0.0060840664 0.69400001 -0.029203519 4.6868557e-39 315 264
-0.0048672534 0.69400001 -0.029203519 4.5038994e-39 316 264
-0.0036504399 0.69400001 -0.029203519 4.596095e-39 317 264
-0.0024336267 0.69400001 -0.029203519 4.5038994e-39 318 264
-0.0012168133 0.69400001 -0.029203519 4.5038994e-39 319 264
0 0.69400001 -0.029203519 4.5038994e-39 320 264
0.0012168133 0.69400001 -0.029203519 4.5038994e-39 321 264
0.0024336267 0.69400001 -0.029203519 4.6872116e-39 322 264
0.0036504399 0.69400001 -0.029203519 4.6872116e-39 323 264
0.0048812795 0.69599998 -0.029287677 4.6868557e-39 324 264
0.0061015999 0.69599998 -0.029287677 4.6868557e-39 325 264
0.00733244 0.69700003 -0.02932976 4.5035435e-39 326 264
0.0085545136 0.69700003 -0.02932976 4.5035435e-39 327 264
0.0097906133 0.69800001 -0.029371841 4.5038994e-39 328 264
0.01101444 0.69800001 -0.029371841 4.5038994e-39 329 264
0.012273333 0.69999999 -0.029455997 4.5038966e-39 330 264
0.013500666 0.69999999 -0.029455997 4.5038966e-39 331 264
0.014727999 0.69999999 -0.029455997 4.596095e-39 332 264
0.015955333 0.69999999 -0.029455997 4.596095e-39 333 264
0.017207211 0.70099998 -0.029498078 4.8716029e-39 334 264
0.018488899 0.70300001 -0.029582238 4.9637999e-39 335 264
0.019749546 0.704 -0.029624319 4.9648747e-39 336 264
0.020983893 0.704 -0.029624319 5.0570704e-39 337 264
0.022218239 0.704 -0.029624319 5.0577864e-39 338 264
0.023519212 0.70599997 -0.029708479 5.2425364e-39 339 264
0.024827199 0.708 -0.02979264 5.2428993e-39 340 264
0.026142199 0.70999998 -0.029876797 5.5198464e-39 341 264
0.027387066 0.70999998 -0.029876797 6.1648444e-39 342 264
0.028631933 0.70999998 -0.029876797 6.3488756e-39 343 264
0.029876797 0.70999998 -0.029876797 9.4795445e-39 344 264
0.031165501 0.71100003 -0.029918881 1.2153218e-38 345 264
0.032412119 0.71100003 -0.029918881 1.5201792e-38 346 264
-0.041427758 0.71600002 -0.031384666 1.6772747e-38 287 265
-0.040172372 0.71600002 -0.031384666 1.5572392e-38 288 265
-0.038916986 0.71600002 -0.031384666 1.0870414e-38 289 265
-0.037556399 0.71399999 -0.031296998 8.8341989e-39 290 265
-0.036253672 0.713 -0.031253166 7.8200456e-39 291 265
-0.034905359 0.71100003 -0.031165501 6.9938946e-39 292 265
-0.033611398 0.70999998 -0.031121666 6.1644941e-39 293 265
-0.03227536 0.708 -0.031034 6.4374867e-39 294 265
-0.030990168 0.70700002 -0.030990168 6.1605411e-39 295 265
-0.029708479 0.70599997 -0.030946331 6.1605439e-39 296 265
-0.028470624 0.70599997 -0.030946331 6.0683482e-39 297 265
-0.027155625 0.704 -0.030858666 5.9761526e-39 298 265
-0.02592128 0.704 -0.030858666 5.9761526e-39 299 265
-0.024686933 0.704 -0.030858666 5.7928361e-39 300 265
-0.023419274 0.70300001 -0.030814834 5.7928361e-39 301 265
-0.02218668 0.70300001 -0.030814834 5.6095211e-39 302 265
-0.020894472 0.70099998 -0.030727165 5.5173254e-39 303 265
-0.019637333 0.69999999 -0.030683333 5.4254927e-39 304 265
-0.018409999 0.69999999 -0.030683333 5.2414616e-39 305 265
-0.017133573 0.69800001 -0.030595668 5.4254927e-39 306 265
-0.015886955 0.69700003 -0.030551834 5.2414616e-39 307 265
-0.01466488 0.69700003 -0.030551834 5.149266e-39 308 265
-0.013442807 0.69700003 -0.030551834 5.0570704e-39 309 265
-0.0122032 0.69599998 -0.030507999 4.9645188e-39 310 265
-0.010982879 0.69599998 -0.030507999 4.8723232e-39 311 265
-0.0097625591 0.69599998 -0.030507999 4.7801289e-39 312 265
-0.0085176928 0.69400001 -0.030420333 4.5957391e-39 313 265
-0.0073008798 0.69400001 -0.030420333 4.7794101e-39 314 265
-0.0060840664 0.69400001 -0.030420333 4.6868557e-39 315 265
-0.0048672534 0.69400001 -0.030420333 4.6868557e-39 316 265
-0.0036504399 0.69400001 -0.030420333 4.6868557e-39 317 265
-0.0024336267 0.69400001 -0.030420333 4.5035435e-39 318 265
-0.0012168133 0.69400001 -0.030420333 4.5035435e-39 319 265
0 0.69400001 -0.030420333 4.6872116e-39 320 265
0.0012203199 0.69599998 -0.030507999 4.6872116e-39 321 265
0.0024406398 0.69599998 -0.030507999 4.6868557e-39 322 265
0.0036609597 0.69599998 -0.030507999 4.6868557e-39 323 265
0.0048812795 0.69599998 -0.030507999 4.5035435e-39 324 265
0.0061103669 0.69700003 -0.030551834 4.5035435e-39 325 265
0.0073429602 0.69800001 -0.030595668 4.5035435e-39 326 265
0.0085667865 0.69800001 -0.030595668 4.5035435e-39 327 265
0.0097906133 0.69800001 -0.030595668 4.5038994e-39 328 265
0.011045999 0.69999999 -0.030683333 4.5038994e-39 329 265
0.012273333 0.69999999 -0.030683333 4.595016e-39 330 265
0.013500666 0.69999999 -0.030683333 4.6872116e-39 331 265
0.014727999 0.69999999 -0.030683333 4.596095e-39 332 265
0.015978126 0.70099998 -0.030727165 4.596095e-39 333 265
0.017256306 0.70300001 -0.030814834 4.7801261e-39 334 265
0.018488899 0.70300001 -0.030814834 4.8723232e-39 335 265
0.019749546 0.704 -0.030858666 5.1478311e-39 336 265
0.020983893 0.704 -0.030858666 5.1478311e-39 337 265
0.022281358 0.70599997 -0.030946331 5.149266e-39 338 265
0.023552528 0.70700002 -0.030990168 5.2414616e-39 339 265
0.024897331 0.70999998 -0.031121666 5.4276479e-39 340 265
0.026142199 0.70999998 -0.031121666 5.7042348e-39 341 265
0.027387066 0.70999998 -0.031121666 6.3492287e-39 342 265
0.028672259 0.71100003 -0.031165501 6.1651976e-39 343 265
0.029918881 0.71100003 -0.031165501 1.0862479e-38 344 265
0.031165501 0.71100003 -0.031165501 1.4273719e-38 345 265
-0.041427758 0.71600002 -0.032640055 1.6772026e-38 287 266
-0.040172372 0.71600002 -0.032640055 1.6218483e-38 288 266
-0.038916986 0.71600002 -0.032640055 1.2806886e-38 289 266
-0.037661601 0.71600002 -0.032640055 1.0218208e-38 290 266
-0.036304519 0.71399999 -0.032548878 7.9129573e-39 291 266
-0.035003547 0.713 -0.032503292 7.543816e-39 292 266
-0.033658739 0.71100003 -0.032412119 7.3594234e-39 293 266
-0.032366529 0.70999998 -0.032366529 6.3463574e-39 294 266
-0.031034 0.708 -0.03227536 6.2541618e-39 295 266
-0.029750559 0.70700002 -0.032229774 6.2530954e-39 296 266
-0.028510952 0.70700002 -0.032229774 6.0683454e-39 297 266
-0.027232772 0.70599997 -0.032184184 6.0676294e-39 298 266
-0.02592128 0.704 -0.032093015 5.9754323e-39 299 266
-0.024686933 0.704 -0.032093015 5.7921173e-39 300 266
-0.023419274 0.70300001 -0.032047424 5.9761484e-39 301 266
-0.02218668 0.70300001 -0.032047424 5.7928333e-39 302 266
-0.020954086 0.70300001 -0.032047424 5.7006377e-39 303 266
-0.019665385 0.70099998 -0.031956252 5.7006377e-39 304 266
-0.018409999 0.69999999 -0.031910665 5.6084421e-39 305 266
-0.017133573 0.69800001 -0.031819493 5.3325811e-39 306 266
-0.015909746 0.69800001 -0.031819493 5.3325811e-39 307 266
-0.01468592 0.69800001 -0.031819493 5.2400295e-39 308 266
-0.013442807 0.69700003 -0.03177391 5.1478339e-39 309 266
-0.012220734 0.69700003 -0.03177391 5.1478311e-39 310 266
-0.01099866 0.69700003 -0.03177391 4.9637999e-39 311 266
-0.0097765867 0.69700003 -0.03177391 4.9637999e-39 312 266
-0.0085422397 0.69599998 -0.031728316 4.7794073e-39 313 266
-0.0073219193 0.69599998 -0.031728316 4.7794101e-39 314 266
-0.0061015999 0.69599998 -0.031728316 4.6868557e-39 315 266
-0.0048882933 0.69700003 -0.03177391 4.6868557e-39 316 266
-0.0036609597 0.69599998 -0.031728316 4.6868557e-39 317 266
-0.0024406398 0.69599998 -0.031728316 4.596095e-39 318 266
-0.0012203199 0.69599998 -0.031728316 4.596095e-39 319 266
0 0.69599998 -0.031728316 4.6872088e-39 320 266
0.0012203199 0.69599998 -0.031728316 4.7794045e-39 321 266
0.0024441467 0.69700003 -0.03177391 4.6872116e-39 322 266
0.0036714801 0.69800001 -0.031819493 4.6872116e-39 323 266
0.0048953067 0.69800001 -0.031819493 4.4120667e-39 324 266
0.006119133 0.69800001 -0.031819493 4.4120667e-39 325 266
0.0073429602 0.69800001 -0.031819493 4.5035435e-39 326 266
0.0085667865 0.69800001 -0.031819493 4.5035435e-39 327 266
0.0098186666 0.69999999 -0.031910665 4.5038994e-39 328 266
0.011045999 0.69999999 -0.031910665 4.5038994e-39 329 266
0.012273333 0.69999999 -0.031910665 4.4120639e-39 330 266
0.013519952 0.70099998 -0.031956252 4.4120639e-39 331 266
0.014749039 0.70099998 -0.031956252 4.596095e-39 332 266
0.016023712 0.70300001 -0.032047424 4.596095e-39 333 266
0.017256306 0.70300001 -0.032047424 4.8723232e-39 334 266
0.018515198 0.704 -0.032093015 4.8723232e-39 335 266
0.019749546 0.704 -0.032093015 5.1478311e-39 336 266
0.021043506 0.70599997 -0.032184184 5.1478311e-39 337 266
0.022312919 0.70700002 -0.032229774 5.0567144e-39 338 266
0.023585839 0.708 -0.03227536 5.4254955e-39 339 266
0.024897331 0.70999998 -0.032366529 5.427292e-39 340 266
0.026179021 0.71100003 -0.032412119 6.1652158e-39 341 266
0.027425639 0.71100003 -0.032412119 6.7187231e-39 342 266
0.028672259 0.71100003 -0.032412119 7.0871469e-39 343 266
0.029918881 0.71100003 -0.032412119 1.224505e-38 344 266
-0.040228479 0.71700001 -0.033942781 1.6494718e-38 288 267
-0.038971342 0.71700001 -0.033942781 1.4835195e-38 289 267
-0.037714198 0.71700001 -0.033942781 1.1510742e-38 290 267
-0.036406212 0.71600002 -0.03389544 7.6388843e-39 291 267
-0.035052639 0.71399999 -0.033800758 7.0842756e-39 292 267
-0.033658739 0.71100003 -0.033658739 6.99208e-39 293 267
-0.032366529 0.70999998 -0.033611398 6.1644913e-39 294 267
-0.031121666 0.70999998 -0.033611398 5.7957074e-39 295 267
-0.02979264 0.708 -0.033516716 6.1605411e-39 296 267
-0.028510952 0.70700002 -0.033469379 6.0683454e-39 297 267
-0.027271347 0.70700002 -0.033469379 5.9757967e-39 298 267
-0.025994917 0.70599997 -0.033422034 5.9757967e-39 299 267
-0.024757065 0.70599997 -0.033422034 5.7928403e-39 300 267
-0.023452586 0.704 -0.03332736 5.7928403e-39 301 267
-0.022218239 0.704 -0.03332736 5.6095239e-39 302 267
-0.020954086 0.70300001 -0.033280019 5.5173282e-39 303 267
-0.019665385 0.70099998 -0.03318534 5.6999216e-39 304 267
-0.018436298 0.70099998 -0.03318534 5.6999216e-39 305 267
-0.017182667 0.69999999 -0.033137999 5.4247767e-39 306 267
-0.015909746 0.69800001 -0.033043321 5.3325811e-39 307 267
-0.01468592 0.69800001 -0.033043321 5.2403854e-39 308 267
-0.013462093 0.69800001 -0.033043321 5.1478311e-39 309 267
-0.012238266 0.69800001 -0.033043321 5.1478339e-39 310 267
-0.01101444 0.69800001 -0.033043321 4.9638027e-39 311 267
-0.0097906133 0.69800001 -0.033043321 4.8716057e-39 312 267
-0.0085545136 0.69700003 -0.03299598 4.8716057e-39 313 267
-0.00733244 0.69700003 -0.03299598 4.7794101e-39 314 267
-0.0061103669 0.69700003 -0.03299598 4.6868557e-39 315 267
-0.0048882933 0.69700003 -0.03299598 4.6868557e-39 316 267
-0.00366622 0.69700003 -0.03299598 4.6868557e-39 317 267
-0.0024441467 0.69700003 -0.03299598 4.5038994e-39 318 267
-0.0012220733 0.69700003 -0.03299598 4.596095e-39 319 267
0 0.69800001 -0.033043321 4.6872088e-39 320 267
0.0012238267 0.69800001 -0.033043321 4.6872088e-39 321 267
0.0024476533 0.69800001 -0.033043321 4.5038994e-39 322 267
0.0036714801 0.69800001 -0.033043321 4.5038994e-39 323 267
0.0049093333 0.69999999 -0.033137999 4.4120667e-39 324 267
0.0061366665 0.69999999 -0.033137999 4.4120667e-39 325 267
0.0073639993 0.69999999 -0.033137999 4.5035435e-39 326 267
0.0086036054 0.70099998 -0.03318534 4.5035435e-39 327 267
0.0098607466 0.70300001 -0.033280019 4.4120667e-39 328 267
0.01109334 0.70300001 -0.033280019 4.4120667e-39 329 267
0.012325933 0.70300001 -0.033280019 4.5046182e-39 330 267
0.013577812 0.704 -0.03332736 4.5046182e-39 331 267
0.014812159 0.704 -0.03332736 4.596095e-39 332 267
0.016046507 0.704 -0.03332736 4.8723232e-39 333 267
0.017329946 0.70599997 -0.033422034 4.6890109e-39 334 267
0.018567799 0.70599997 -0.033422034 4.9652377e-39 335 267
0.019833706 0.70700002 -0.033469379 4.9652377e-39 336 267
0.021103119 0.708 -0.033516716 4.9652377e-39 337 267
0.022407599 0.70999998 -0.033611398 5.2414644e-39 338 267
0.023685781 0.71100003 -0.033658739 5.6098882e-39 339 267
0.025002534 0.713 -0.033753417 5.8886219e-39 340 267
0.026252659 0.713 -0.033753417 6.2577645e-39 341 267
0.027502786 0.713 -0.033753417 7.6381556e-39 342 267
0.028752912 0.713 -0.033753417 9.2976784e-39 343 267
-0.038971342 0.71700001 -0.035199918 1.5757872e-38 289 268
-0.037714198 0.71700001 -0.035199918 1.3172784e-38 290 268
-0.036406212 0.71600002 -0.035150826 8.6551984e-39 291 268
-0.035052639 0.71399999 -0.035052639 7.7278443e-39 292 268
-0.033800758 0.71399999 -0.035052639 7.3594206e-39 293 268
-0.032412119 0.71100003 -0.034905359 6.5325508e-39 294 268
-0.031121666 0.70999998 -0.034856264 6.1637668e-39 295 268
-0.029876797 0.70999998 -0.034856264 6.2530898e-39 296 268
-0.02855128 0.708 -0.034758076 6.1608942e-39 297 268
-0.027309919 0.708 -0.034758076 6.1598222e-39 298 268
-0.025994917 0.70599997 -0.034659892 6.0676252e-39 299 268
-0.024757065 0.70599997 -0.034659892 5.9761526e-39 300 268
-0.023452586 0.704 -0.034561705 5.9761526e-39 301 268
-0.022218239 0.704 -0.034561705 5.7006405e-39 302 268
-0.020983893 0.704 -0.034561705 5.6084449e-39 303 268
-0.019749546 0.704 -0.034561705 5.6080889e-39 304 268
-0.018488899 0.70300001 -0.034512613 5.6080889e-39 305 268
-0.017207211 0.70099998 -0.034414422 5.4247739e-39 306 268
-0.015955333 0.69999999 -0.034365334 5.3325782e-39 307 268
-0.014727999 0.69999999 -0.034365334 5.2403826e-39 308 268
-0.013500666 0.69999999 -0.034365334 5.2403826e-39 309 268
-0.012238266 0.69800001 -0.034267146 5.1474709e-39 310 268
-0.01101444 0.69800001 -0.034267146 5.0549152e-39 311 268
-0.0097906133 0.69800001 -0.034267146 5.1463947e-39 312 268
-0.0085667865 0.69800001 -0.034267146 5.0541991e-39 313 268
-0.0073429602 0.69800001 -0.034267146 4.7794073e-39 314 268
-0.006119133 0.69800001 -0.034267146 4.6872116e-39 315 268
-0.0048953067 0.69800001 -0.034267146 4.6872116e-39 316 268
-0.0036714801 0.69800001 -0.034267146 4.6872116e-39 317 268
-0.0024476533 0.69800001 -0.034267146 4.6868557e-39 318 268
-0.0012238267 0.69800001 -0.034267146 4.6868557e-39 319 268
0 0.69800001 -0.034267146 4.6872116e-39 320 268
0.0012238267 0.69800001 -0.034267146 4.6872116e-39 321 268
0.0024476533 0.69800001 -0.034267146 4.5038994e-39 322 268
0.0036819996 0.69999999 -0.034365334 4.5038994e-39 323 268
0.0049093333 0.69999999 -0.034365334 4.5035435e-39 324 268
0.0061454331 0.70099998 -0.034414422 4.5035435e-39 325 268
0.0073745195 0.70099998 -0.034414422 4.5035435e-39 326 268
0.0086036054 0.70099998 -0.034414422 4.5035435e-39 327 268
0.0098607466 0.70300001 -0.034512613 4.6872116e-39 328 268
0.011109119 0.704 -0.034561705 4.6872116e-39 329 268
0.012343466 0.704 -0.034561705 4.596095e-39 330 268
0.013577812 0.704 -0.034561705 4.7801261e-39 331 268
0.014812159 0.704 -0.034561705 4.8723232e-39 332 268
0.016046507 0.704 -0.034561705 4.8723232e-39 333 268
0.017329946 0.70599997 -0.034659892 4.9655936e-39 334 268
0.018594101 0.70700002 -0.034708988 4.9655936e-39 335 268
0.01986176 0.708 -0.034758076 5.0577892e-39 336 268
0.021162732 0.70999998 -0.034856264 5.1499849e-39 337 268
0.022439159 0.71100003 -0.034905359 5.0595871e-39 338 268
0.023752406 0.713 -0.035003547 5.3361754e-39 339 268
0.025002534 0.713 -0.035003547 6.3488756e-39 340 268
0.026252659 0.713 -0.035003547 6.7180182e-39 341 268
0.027502786 0.713 -0.035003547 8.7427053e-39 342 268
-0.037661601 0.71600002 -0.036406212 1.418946e-38 290 269
-0.036406212 0.71600002 -0.036406212 1.059347e-38 291 269
-0.035150826 0.71600002 -0.036406212 8.5572449e-39 292 269
-0.03389544 0.71600002 -0.036406212 7.5427328e-39 293 269
-0.032503292 0.713 -0.036253672 6.9013305e-39 294 269
-0.031165501 0.71100003 -0.036151983 6.3481567e-39 295 269
-0.029918881 0.71100003 -0.036151983 6.3456442e-39 296 269
-0.028631933 0.70999998 -0.036101133 6.2530898e-39 297 269
-0.027309919 0.708 -0.03599944 6.0683454e-39 298 269
-0.026068559 0.708 -0.03599944 5.9761484e-39 299 269
-0.024792133 0.70700002 -0.035948593 5.7921201e-39 300 269
-0.023519212 0.70599997 -0.035897743 5.7921201e-39 301 269
-0.022281358 0.70599997 -0.035897743 5.6995657e-39 302 269
-0.021043506 0.70599997 -0.035897743 5.6995657e-39 303 269
-0.019805651 0.70599997 -0.035897743 5.7002846e-39 304 269
-0.018515198 0.704 -0.035796054 5.6080889e-39 305 269
-0.017256306 0.70300001 -0.035745207 5.3325811e-39 306 269
-0.015978126 0.70099998 -0.035643511 5.2403854e-39 307 269
-0.014749039 0.70099998 -0.035643511 5.2403854e-39 308 269
-0.013500666 0.69999999 -0.035592664 5.2403854e-39 309 269
-0.012273333 0.69999999 -0.035592664 5.1478311e-39 310 269
-0.011045999 0.69999999 -0.035592664 4.9637999e-39 311 269
-0.0098186666 0.69999999 -0.035592664 4.9627223e-39 312 269
-0.0085913334 0.69999999 -0.035592664 4.9627223e-39 313 269
-0.0073429602 0.69800001 -0.035490975 4.6868557e-39 314 269
-0.006119133 0.69800001 -0.035490975 4.7794101e-39 315 269
-0.0048953067 0.69800001 -0.035490975 4.6872116e-39 316 269
-0.0036714801 0.69800001 -0.035490975 4.6872116e-39 317 269
-0.0024476533 0.69800001 -0.035490975 4.6872116e-39 318 269
-0.0012238267 0.69800001 -0.035490975 4.6872116e-39 319 269
0 0.69800001 -0.035490975 4.6872116e-39 320 269
0.0012273333 0.69999999 -0.035592664 4.6872116e-39 321 269
0.0024546667 0.69999999 -0.035592664 4.5038966e-39 322 269
0.0036819996 0.69999999 -0.035592664 4.5038966e-39 323 269
0.0049163462 0.70099998 -0.035643511 4.5038994e-39 324 269
0.0061629666 0.70300001 -0.035745207 4.5038994e-39 325 269
0.0073955595 0.70300001 -0.035745207 4.6868557e-39 326 269
0.0086281532 0.70300001 -0.035745207 4.6868557e-39 327 269
0.0098747732 0.704 -0.035796054 4.596095e-39 328 269
0.011109119 0.704 -0.035796054 4.596095e-39 329 269
0.012343466 0.704 -0.035796054 4.7801261e-39 330 269
0.013616386 0.70599997 -0.035897743 4.8723232e-39 331 269
0.014854239 0.70599997 -0.035897743 4.8723232e-39 332 269
0.016092092 0.70599997 -0.035897743 4.9645188e-39 333 269
0.017354494 0.70700002 -0.035948593 5.149266e-39 334 269
0.018594101 0.70700002 -0.035948593 5.149266e-39 335 269
0.01986176 0.708 -0.03599944 5.1492688e-39 336 269
0.021162732 0.70999998 -0.036101133 5.2414644e-39 337 269
0.022439159 0.71100003 -0.036151983 5.3350964e-39 338 269
0.023752406 0.713 -0.036253672 5.7042376e-39 339 269
0.025002534 0.713 -0.036253672 6.53362e-39 340 269
0.026252659 0.713 -0.036253672 6.53362e-39 341 269
0.027502786 0.713 -0.036253672 9.8468879e-39 342 269
-0.036406212 0.71600002 -0.037661601 1.2438829e-38 291 270
-0.035150826 0.71600002 -0.037661601 9.4799214e-39 292 270
-0.03389544 0.71600002 -0.037661601 7.5438132e-39 293 270
-0.032548878 0.71399999 -0.037556399 7.543816e-39 294 270
-0.031253166 0.713 -0.037503798 7.0824777e-39 295 270
-0.029918881 0.71100003 -0.037398599 6.6218709e-39 296 270
-0.028631933 0.70999998 -0.037345998 6.2530898e-39 297 270
-0.027387066 0.70999998 -0.037345998 6.1605411e-39 298 270
-0.026068559 0.708 -0.0372408 5.9761484e-39 299 270
-0.024827199 0.708 -0.0372408 5.7921201e-39 300 270
-0.023552528 0.70700002 -0.037188202 5.6995657e-39 301 270
-0.022281358 0.70599997 -0.037135597 5.6999216e-39 302 270
-0.021043506 0.70599997 -0.037135597 5.6999216e-39 303 270
-0.019805651 0.70599997 -0.037135597 5.6073701e-39 304 270
-0.018515198 0.704 -0.037030395 5.5151744e-39 305 270
-0.017280852 0.704 -0.037030395 5.3318622e-39 306 270
-0.016023712 0.70300001 -0.036977798 5.3318622e-39 307 270
-0.014791119 0.70300001 -0.036977798 5.2403854e-39 308 270
-0.013519952 0.70099998 -0.036872596 5.2403854e-39 309 270
-0.012290866 0.70099998 -0.036872596 5.1474709e-39 310 270
-0.011045999 0.69999999 -0.036819998 5.0549152e-39 311 270
-0.0098186666 0.69999999 -0.036819998 4.9627223e-39 312 270
-0.0085913334 0.69999999 -0.036819998 4.9627223e-39 313 270
-0.0073639993 0.69999999 -0.036819998 4.7794073e-39 314 270
-0.0061366665 0.69999999 -0.036819998 4.7794073e-39 315 270
-0.0049093333 0.69999999 -0.036819998 4.7794045e-39 316 270
-0.0036819996 0.69999999 -0.036819998 4.6872088e-39 317 270
-0.0024546667 0.69999999 -0.036819998 4.6872088e-39 318 270
-0.0012273333 0.69999999 -0.036819998 4.7794045e-39 319 270
0 0.69999999 -0.036819998 4.6872088e-39 320 270
0.0012273333 0.69999999 -0.036819998 4.6872088e-39 321 270
0.0024546667 0.69999999 -0.036819998 4.6872088e-39 322 270
0.0036872597 0.70099998 -0.036872596 4.7794045e-39 323 270
0.0049303733 0.70300001 -0.036977798 4.7794073e-39 324 270
0.0061629666 0.70300001 -0.036977798 4.6872116e-39 325 270
0.0074060797 0.704 -0.037030395 4.6872116e-39 326 270
0.0086404262 0.704 -0.037030395 4.6872116e-39 327 270
0.0098747732 0.704 -0.037030395 4.5038994e-39 328 270
0.011140679 0.70599997 -0.037135597 4.596095e-39 329 270
0.012378532 0.70599997 -0.037135597 4.596095e-39 330 270
0.013616386 0.70599997 -0.037135597 4.7801261e-39 331 270
0.014854239 0.70599997 -0.037135597 4.9645188e-39 332 270
0.016114887 0.70700002 -0.037188202 5.0567144e-39 333 270
0.017379038 0.708 -0.0372408 5.0577892e-39 334 270
0.0186204 0.708 -0.0372408 5.0577892e-39 335 270
0.019917866 0.70999998 -0.037345998 5.149266e-39 336 270
0.021192541 0.71100003 -0.037398599 5.5180471e-39 337 270
0.022502279 0.713 -0.037503798 5.6120392e-39 338 270
0.02378572 0.71399999 -0.037556399 6.0730173e-39 339 270
0.025107734 0.71600002 -0.037661601 6.9009605e-39 340 270
0.026363119 0.71600002 -0.037661601 7.4541343e-39 341 270
0.027618507 0.71600002 -0.037661601 1.0861763e-38 342 270
-0.036558751 0.71899998 -0.039080046 1.4283467e-38 291 271
-0.035298105 0.71899998 -0.039080046 1.1141604e-38 292 271
-0.03389544 0.71600002 -0.038916986 8.0073109e-39 293 271
-0.032548878 0.71399999 -0.038808275 7.5445321e-39 294 271
-0.031296998 0.71399999 -0.038808275 7.0839127e-39 295 271
-0.030003037 0.713 -0.038753927 6.8066195e-39 296 271
-0.028672259 0.71100003 -0.038645219 6.3456414e-39 297 271
-0.027387066 0.70999998 -0.038590867 6.4364049e-39 298 271
-0.026142199 0.70999998 -0.038590867 6.1601781e-39 299 271
-0.024827199 0.708 -0.038482159 6.0676252e-39 300 271
-0.023585839 0.708 -0.038482159 5.9754295e-39 301 271
-0.022312919 0.70700002 -0.038427804 5.6995657e-39 302 271
-0.021073313 0.70700002 -0.038427804 5.6073701e-39 303 271
-0.019833706 0.70700002 -0.038427804 5.3315063e-39 304 271
-0.018567799 0.70599997 -0.038373452 5.2393106e-39 305 271
-0.017329946 0.70599997 -0.038373452 5.2400295e-39 306 271
-0.016046507 0.704 -0.038264744 5.2400295e-39 307 271
-0.014812159 0.704 -0.038264744 5.2396666e-39 308 271
-0.013558527 0.70300001 -0.038210396 5.2396666e-39 309 271
-0.012290866 0.70099998 -0.038101684 5.147115e-39 310 271
-0.011061779 0.70099998 -0.038101684 5.054918e-39 311 271
-0.0098326923 0.70099998 -0.038101684 4.9627223e-39 312 271
-0.0086036054 0.70099998 -0.038101684 4.9627223e-39 313 271
-0.0073745195 0.70099998 -0.038101684 4.8716057e-39 314 271
-0.0061454331 0.70099998 -0.038101684 4.7794101e-39 315 271
-0.0049163462 0.70099998 -0.038101684 4.7794073e-39 316 271
-0.0036872597 0.70099998 -0.038101684 4.6872116e-39 317 271
-0.0024581731 0.70099998 -0.038101684 4.5038966e-39 318 271
-0.0012290865 0.70099998 -0.038101684 4.5960922e-39 319 271
0 0.70099998 -0.038101684 4.6872088e-39 320 271
0.0012290865 0.70099998 -0.038101684 4.6872088e-39 321 271
0.0024651866 0.70300001 -0.038210396 4.6872116e-39 322 271
0.0036977797 0.70300001 -0.038210396 4.6872116e-39 323 271
0.0049373866 0.704 -0.038264744 4.5046182e-39 324 271
0.0061717331 0.704 -0.038264744 4.4120639e-39 325 271
0.0074060797 0.704 -0.038264744 4.4120639e-39 326 271
0.0086404262 0.704 -0.038264744 4.5046182e-39 327 271
0.0099028256 0.70599997 -0.038373452 4.5042623e-39 328 271
0.011140679 0.70599997 -0.038373452 4.5042623e-39 329 271
0.012378532 0.70599997 -0.038373452 4.5964579e-39 330 271
0.013635674 0.70700002 -0.038427804 4.6890137e-39 331 271
0.01487528 0.70700002 -0.038427804 4.9652377e-39 332 271
0.016114887 0.70700002 -0.038427804 5.0574333e-39 333 271
0.017428132 0.70999998 -0.038590867 5.0577892e-39 334 271
0.018672999 0.70999998 -0.038590867 5.0577892e-39 335 271
0.01994592 0.71100003 -0.038645219 5.2414616e-39 336 271
0.021252153 0.713 -0.038753927 5.7024398e-39 337 271
0.022533838 0.71399999 -0.038808275 5.8882688e-39 338 271
0.02388566 0.71700001 -0.038971342 6.349607e-39 339 271
0.0251428 0.71700001 -0.038971342 6.9016836e-39 340 271
0.02639994 0.71700001 -0.038971342 8.6533992e-39 341 271
0.027734226 0.71899998 -0.039080046 1.233726e-38 342 271
-0.035347197 0.72000003 -0.040396802 1.2804723e-38 292 272
-0.033942781 0.71700001 -0.040228479 9.2090953e-39 293 272
-0.032640055 0.71600002 -0.040172372 7.7271283e-39 294 272
-0.031384666 0.71600002 -0.040172372 7.6349326e-39 295 272
-0.030045118 0.71399999 -0.040060159 6.7158658e-39 296 272
-0.028752912 0.713 -0.040004052 6.4392789e-39 297 272
-0.027425639 0.71100003 -0.039891839 6.345291e-39 298 272
-0.026179021 0.71100003 -0.039891839 6.2530954e-39 299 272
-0.024897331 0.70999998 -0.039835732 6.0683482e-39 300 272
-0.023652466 0.70999998 -0.039835732 5.9761526e-39 301 272
-0.022344479 0.708 -0.039723519 5.6080917e-39 302 272
-0.021103119 0.708 -0.039723519 5.4240606e-39 303 272
-0.01986176 0.708 -0.039723519 5.2393106e-39 304 272
-0.018594101 0.70700002 -0.039667413 5.2393106e-39 305 272
-0.017329946 0.70599997 -0.039611302 5.2403854e-39 306 272
-0.016092092 0.70599997 -0.039611302 5.2403854e-39 307 272
-0.014812159 0.704 -0.039499093 5.2396666e-39 308 272
-0.013577812 0.704 -0.039499093 5.2396666e-39 309 272
-0.012325933 0.70300001 -0.039442986 5.1478311e-39 310 272
-0.01109334 0.70300001 -0.039442986 4.9637999e-39 311 272
-0.0098607466 0.70300001 -0.039442986 4.8716029e-39 312 272
-0.0086404262 0.704 -0.039499093 4.8716029e-39 313 272
-0.0073955595 0.70300001 -0.039442986 4.7794101e-39 314 272
-0.0061629666 0.70300001 -0.039442986 4.7794101e-39 315 272
-0.0049303733 0.70300001 -0.039442986 4.5957391e-39 316 272
-0.0036872597 0.70099998 -0.039330769 4.5035435e-39 317 272
-0.0024581731 0.70099998 -0.039330769 4.5038994e-39 318 272
-0.0012325933 0.70300001 -0.039442986 4.596095e-39 319 272
0 0.70300001 -0.039442986 4.7794073e-39 320 272
0.0012325933 0.70300001 -0.039442986 4.6872116e-39 321 272
0.0024651866 0.70300001 -0.039442986 4.7794073e-39 322 272
0.0037030398 0.704 -0.039499093 4.7794073e-39 323 272
0.0049373866 0.704 -0.039499093 4.5046182e-39 324 272
0.0061892662 0.70599997 -0.039611302 4.5046182e-39 325 272
0.0074271196 0.70599997 -0.039611302 4.5957391e-39 326 272
0.0086649731 0.70599997 -0.039611302 4.5957391e-39 327 272
0.0099168532 0.70700002 -0.039667413 4.5042623e-39 328 272
0.011156459 0.70700002 -0.039667413 4.5964579e-39 329 272
0.012396066 0.70700002 -0.039667413 4.5968139e-39 330 272
0.013654959 0.708 -0.039723519 4.6890109e-39 331 272
0.01489632 0.708 -0.039723519 4.7815625e-39 332 272
0.01613768 0.708 -0.039723519 5.1499849e-39 333 272
0.017428132 0.70999998 -0.039835732 5.1499849e-39 334 272
0.018672999 0.70999998 -0.039835732 5.1499849e-39 335 272
0.020002026 0.713 -0.040004052 5.6102441e-39 336 272
0.021281958 0.71399999 -0.040060159 5.886831e-39 337 272
0.022596961 0.71600002 -0.040172372 6.3478064e-39 338 272
0.02388566 0.71700001 -0.040228479 6.440002e-39 339 272
0.0251428 0.71700001 -0.040228479 7.4523393e-39 340 272
0.02639994 0.71700001 -0.040228479 1.1324556e-38 341 272
0.027734226 0.71899998 -0.040340692 1.3168461e-38 342 272
0.028994869 0.71899998 -0.040340692 1.5288962e-38 343 272
-0.035347197 0.72000003 -0.041659199 1.3822117e-38 292 273
-0.034084801 0.72000003 -0.041659199 1.0779661e-38 293 273
-0.032776814 0.71899998 -0.041601337 8.2820971e-39 294 273
-0.031384666 0.71600002 -0.041427758 7.3601408e-39 295 273
-0.03012928 0.71600002 -0.041427758 7.6345795e-39 296 273
-0.028793238 0.71399999 -0.041312039 7.0814057e-39 297 273
-0.027425639 0.71100003 -0.041138459 6.4374839e-39 298 273
-0.026179021 0.71100003 -0.041138459 6.2530926e-39 299 273
-0.024897331 0.70999998 -0.041080594 5.9772288e-39 300 273
-0.023652466 0.70999998 -0.041080594 5.7928361e-39 301 273
-0.022407599 0.70999998 -0.041080594 5.7006405e-39 302 273
-0.021162732 0.70999998 -0.041080594 5.6084449e-39 303 273
-0.019917866 0.70999998 -0.041080594 5.2403826e-39 304 273
-0.0186204 0.708 -0.040964879 5.2403826e-39 305 273
-0.017354494 0.70700002 -0.040907022 5.2403854e-39 306 273
-0.016092092 0.70599997 -0.040849157 5.2403854e-39 307 273
-0.014854239 0.70599997 -0.040849157 5.2396666e-39 308 273
-0.013577812 0.704 -0.040733438 5.3318622e-39 309 273
-0.012343466 0.704 -0.040733438 5.1478311e-39 310 273
-0.011109119 0.704 -0.040733438 4.9637999e-39 311 273
-0.0098747732 0.704 -0.040733438 5.054918e-39 312 273
-0.0086404262 0.704 -0.040733438 5.054918e-39 313 273
-0.0073955595 0.70300001 -0.040675577 4.7794101e-39 314 273
-0.0061629666 0.70300001 -0.040675577 4.7794101e-39 315 273
-0.0049373866 0.704 -0.040733438 4.5957391e-39 316 273
-0.0036977797 0.70300001 -0.040675577 4.5957391e-39 317 273
-0.0024651866 0.70300001 -0.040675577 4.7794073e-39 318 273
-0.0012325933 0.70300001 -0.040675577 4.7794073e-39 319 273
0 0.70300001 -0.040675577 4.596095e-39 320 273
0.0012325933 0.70300001 -0.040675577 4.596095e-39 321 273
0.0024686933 0.704 -0.040733438 4.5038994e-39 322 273
0.0037030398 0.704 -0.040733438 4.596095e-39 323 273
0.0049514128 0.70599997 -0.040849157 4.5042623e-39 324 273
0.0061892662 0.70599997 -0.040849157 4.5042623e-39 325 273
0.0074271196 0.70599997 -0.040849157 4.4131485e-39 326 273
0.008677247 0.70700002 -0.040907022 4.4131485e-39 327 273
0.0099168532 0.70700002 -0.040907022 4.5957391e-39 328 273
0.011156459 0.70700002 -0.040907022 4.5957391e-39 329 273
0.0124136 0.708 -0.040964879 4.5968139e-39 330 273
0.013654959 0.708 -0.040964879 4.6890109e-39 331 273
0.01489632 0.708 -0.040964879 4.7819282e-39 332 273
0.016183265 0.70999998 -0.041080594 4.6897326e-39 333 273
0.01745268 0.71100003 -0.041138459 4.9663167e-39 334 273
0.018751899 0.713 -0.041254178 5.2429036e-39 335 273
0.020030079 0.71399999 -0.041312039 5.5191275e-39 336 273
0.021341572 0.71600002 -0.041427758 5.8875499e-39 337 273
0.022596961 0.71600002 -0.041427758 6.1655661e-39 338 273
0.02388566 0.71700001 -0.041485619 6.5339885e-39 339 273
0.025212931 0.71899998 -0.041601337 8.3717746e-39 340 273
0.02647358 0.71899998 -0.041601337 1.3165947e-38 341 273
0.027734226 0.71899998 -0.041601337 1.3082387e-38 342 273
-0.034084801 0.72000003 -0.042921603 1.3269309e-38 293 274
-0.032685637 0.71700001 -0.042742759 9.7583048e-39 294 274
-0.031384666 0.71600002 -0.042683143 7.7300009e-39 295 274
-0.03012928 0.71600002 -0.042683143 7.1764782e-39 296 274
-0.028793238 0.71399999 -0.042563915 6.9917268e-39 297 274
-0.027502786 0.713 -0.042504307 6.4385727e-39 298 274
-0.026252659 0.713 -0.042504307 6.0701489e-39 299 274
-0.024932399 0.71100003 -0.042385083 5.88468e-39 300 274
-0.023685781 0.71100003 -0.042385083 5.7924844e-39 301 274
-0.022407599 0.70999998 -0.042325463 5.4254955e-39 302 274
-0.021162732 0.70999998 -0.042325463 5.4254955e-39 303 274
-0.019917866 0.70999998 -0.042325463 5.2414644e-39 304 274
-0.0186204 0.708 -0.042206239 5.0567144e-39 305 274
-0.017379038 0.708 -0.042206239 5.2403854e-39 306 274
-0.016114887 0.70700002 -0.042146627 5.2403854e-39 307 274
-0.014854239 0.70599997 -0.042087011 5.2403854e-39 308 274
-0.013616386 0.70599997 -0.042087011 5.2403854e-39 309 274
-0.012378532 0.70599997 -0.042087011 4.9637999e-39 310 274
-0.011140679 0.70599997 -0.042087011 4.9637999e-39 311 274
-0.0099028256 0.70599997 -0.042087011 4.8716057e-39 312 274
-0.0086649731 0.70599997 -0.042087011 4.8716057e-39 313 274
-0.0074060797 0.704 -0.041967787 4.5957391e-39 314 274
-0.0061717331 0.704 -0.041967787 4.5957391e-39 315 274
-0.0049373866 0.704 -0.041967787 4.596095e-39 316 274
-0.0037030398 0.704 -0.041967787 4.596095e-39 317 274
-0.0024686933 0.704 -0.041967787 4.7794073e-39 318 274
-0.0012343467 0.704 -0.041967787 4.7794073e-39 319 274
0 0.704 -0.041967787 4.7794073e-39 320 274
0.0012343467 0.704 -0.041967787 4.8716029e-39 321 274
0.0024686933 0.704 -0.041967787 4.5038994e-39 322 274
0.0037135598 0.70599997 -0.042087011 4.596095e-39 323 274
0.0049514128 0.70599997 -0.042087011 4.5042623e-39 324 274
0.0061980332 0.70700002 -0.042146627 4.4120667e-39 325 274
0.0074376399 0.70700002 -0.042146627 4.3209501e-39 326 274
0.008689519 0.708 -0.042206239 4.3209501e-39 327 274
0.0099308798 0.708 -0.042206239 4.5957391e-39 328 274
0.01117224 0.708 -0.042206239 4.7801289e-39 329 274
0.012448666 0.70999998 -0.042325463 4.7801289e-39 330 274
0.013693533 0.70999998 -0.042325463 4.872326e-39 331 274
0.014938398 0.70999998 -0.042325463 4.7819282e-39 332 274
0.01620606 0.71100003 -0.042385083 4.7819282e-39 333 274
0.017501773 0.713 -0.042504307 5.1492688e-39 334 274
0.018778199 0.71399999 -0.042563915 5.5176926e-39 335 274
