# .PCD v.7 - Point Cloud Data file format
FIELDS x y z rgb imX imY
SIZE 4 4 4 4 4 4
TYPE F F F F F F
COUNT 1 1 1 1 1 1
WIDTH 829
HEIGHT 1
VIEWPOINT 0 0 0 1 0 0 0
POINTS 829
DATA ascii
-0.014580719 0.69300002 -0.024301201 4.4999463e-39 308 260
-0.01336566 0.69300002 -0.024301201 4.4081094e-39 309 260
-0.012150601 0.69300002 -0.024301201 4.3166341e-39 310 260
-0.010935539 0.69300002 -0.024301201 4.3166341e-39 311 260
-0.0097204801 0.69300002 -0.024301201 3.9492935e-39 312 260
-0.0085176928 0.69400001 -0.024336265 3.9492935e-39 313 260
-0.0073008798 0.69400001 -0.024336265 3.7663442e-39 314 260
-0.0060840664 0.69400001 -0.024336265 3.6741485e-39 315 260
-0.0048672534 0.69400001 -0.024336265 3.5830347e-39 316 260
-0.0036609597 0.69599998 -0.0244064 3.5830347e-39 317 260
-0.0024441467 0.69700003 -0.024441468 3.4915579e-39 318 260
-0.0012220733 0.69700003 -0.024441468 3.6759492e-39 319 260
0 0.69700003 -0.024441468 3.6759492e-39 320 260
0.0012238267 0.69800001 -0.024476532 3.8603419e-39 321 260
0.0024476533 0.69800001 -0.024476532 4.0440072e-39 322 260
0.0036714801 0.69800001 -0.024476532 4.2283985e-39 323 260
0.0049093333 0.69999999 -0.024546666 4.2294733e-39 324 260
0.0061454331 0.70099998 -0.024581732 4.3216689e-39 325 260
0.0073955595 0.70300001 -0.024651866 4.4149408e-39 326 260
0.0086404262 0.704 -0.024686933 4.4149408e-39 327 260
0.0098747732 0.704 -0.024686933 4.599332e-39 328 260
0.011140679 0.70599997 -0.024757065 4.6915276e-39 329 260
0.012396066 0.70700002 -0.024792133 4.7844463e-39 330 260
0.013654959 0.708 -0.024827199 4.9688376e-39 331 260
0.014938398 0.70999998 -0.024897331 5.4290955e-39 332 260
0.01620606 0.71100003 -0.024932399 6.0744649e-39 333 260
0.017575413 0.71600002 -0.025107734 6.4432292e-39 334 260
0.0188308 0.71600002 -0.025107734 6.4432292e-39 335 260
0.020114239 0.71700001 -0.0251428 9.294084e-39 336 260
0.021430992 0.71899998 -0.025212931 1.4180452e-38 337 260
0.022691639 0.71899998 -0.025212931 1.5664209e-38 338 260
-0.054774132 0.70999998 -0.026142199 1.6219932e-38 276 261
-0.053529263 0.70999998 -0.026142199 1.3914681e-38 277 261
-0.052284397 0.70999998 -0.026142199 1.0123507e-38 278 261
-0.051039528 0.70999998 -0.026142199 7.0814113e-39 279 261
-0.049654398 0.708 -0.026068559 7.8150107e-39 280 261
-0.048413038 0.708 -0.026068559 7.3540326e-39 281 261
-0.047105055 0.70700002 -0.02603174 6.434593e-39 282 261
-0.04580057 0.70599997 -0.025994917 6.1580075e-39 283 261
-0.04437336 0.70300001 -0.025884461 6.2487738e-39 284 261
-0.043018032 0.70099998 -0.025810819 6.1565782e-39 285 261
-0.041729331 0.69999999 -0.025773998 6.156581e-39 286 261
-0.040502001 0.69999999 -0.025773998 6.156581e-39 287 261
-0.039162453 0.69800001 -0.025700359 6.1555062e-39 288 261
-0.037938625 0.69800001 -0.025700359 6.0633092e-39 289 261
-0.036662199 0.69700003 -0.025663542 5.9711135e-39 290 261
-0.035440128 0.69700003 -0.025663542 5.9711135e-39 291 261
-0.034218054 0.69700003 -0.025663542 5.9711135e-39 292 261
-0.03299598 0.69700003 -0.025663542 5.8789179e-39 293 261
-0.03177391 0.69700003 -0.025663542 5.9703947e-39 294 261
-0.030507999 0.69599998 -0.025626717 6.0625903e-39 295 261
-0.029287677 0.69599998 -0.025626717 5.5119346e-39 296 261
-0.027986705 0.69400001 -0.025553079 5.419739e-39 297 261
-0.026769891 0.69400001 -0.025553079 5.2357135e-39 298 261
-0.02551626 0.69300002 -0.02551626 5.3279091e-39 299 261
-0.024301201 0.69300002 -0.02551626 5.0520453e-39 300 261
-0.023119451 0.69400001 -0.025553079 4.9598497e-39 301 261
-0.021902639 0.69400001 -0.025553079 4.8676526e-39 302 261
-0.020685827 0.69400001 -0.025553079 4.8676526e-39 303 261
-0.019469013 0.69400001 -0.025553079 4.6836215e-39 304 261
-0.0182522 0.69400001 -0.025553079 4.6836215e-39 305 261
-0.017035386 0.69400001 -0.025553079 4.6843404e-39 306 261
-0.015818574 0.69400001 -0.025553079 4.5921448e-39 307 261
-0.01460176 0.69400001 -0.025553079 4.4088297e-39 308 261
-0.013384946 0.69400001 -0.025553079 4.3166341e-39 309 261
-0.012150601 0.69300002 -0.02551626 4.133319e-39 310 261
-0.010935539 0.69300002 -0.02551626 4.3173501e-39 311 261
-0.0097345067 0.69400001 -0.025553079 4.0414863e-39 312 261
-0.0085176928 0.69400001 -0.025553079 4.1340407e-39 313 261
-0.0073008798 0.69400001 -0.025553079 3.7663442e-39 314 261
-0.0060840664 0.69400001 -0.025553079 3.7663442e-39 315 261
-0.0048812795 0.69599998 -0.025626717 3.6752275e-39 316 261
-0.0036609597 0.69599998 -0.025626717 3.7674232e-39 317 261
-0.0024441467 0.69700003 -0.025663542 3.9518144e-39 318 261
-0.0012220733 0.69700003 -0.025663542 3.9518144e-39 319 261
0 0.69700003 -0.025663542 3.8606978e-39 320 261
0.0012238267 0.69800001 -0.025700359 3.8606978e-39 321 261
0.0024476533 0.69800001 -0.025700359 4.0454422e-39 322 261
0.0036714801 0.69800001 -0.025700359 4.2294733e-39 323 261
0.0049093333 0.69999999 -0.025773998 4.4131457e-39 324 261
0.0061454331 0.70099998 -0.025810819 4.5971782e-39 325 261
0.0074060797 0.704 -0.02592128 4.4145848e-39 326 261
0.0086404262 0.704 -0.02592128 4.5067805e-39 327 261
0.0099028256 0.70599997 -0.025994917 4.5989761e-39 328 261
0.011156459 0.70700002 -0.02603174 4.7837261e-39 329 261
0.0124136 0.708 -0.026068559 4.6929738e-39 330 261
0.013693533 0.70999998 -0.026142199 4.9695593e-39 331 261
0.014959441 0.71100003 -0.026179021 5.3386991e-39 332 261
0.016251646 0.713 -0.026252659 5.7993171e-39 333 261
0.017575413 0.71600002 -0.026363119 6.4435949e-39 334 261
0.0188308 0.71600002 -0.026363119 6.9049332e-39 335 261
0.020114239 0.71700001 -0.02639994 1.1048325e-38 336 261
0.021371379 0.71700001 -0.02639994 1.4735791e-38 337 261
0.02262852 0.71700001 -0.02639994 1.5757129e-38 338 261
-0.053529263 0.70999998 -0.027387066 1.4929912e-38 277 262
-0.052284397 0.70999998 -0.027387066 1.0863946e-38 278 262
-0.051039528 0.70999998 -0.027387066 6.9917296e-39 279 262
-0.049654398 0.708 -0.027309919 7.3569164e-39 280 262
-0.048413038 0.708 -0.027309919 6.9884926e-39 281 262
-0.047105055 0.70700002 -0.027271347 6.7115498e-39 282 262
-0.04580057 0.70599997 -0.027232772 6.3427673e-39 283 262
-0.04437336 0.70300001 -0.027117053 6.4342399e-39 284 262
-0.043140765 0.70300001 -0.027117053 6.3420442e-39 285 262
-0.041729331 0.69999999 -0.027001332 6.3420442e-39 286 262
-0.040502001 0.69999999 -0.027001332 6.3420442e-39 287 262
-0.039162453 0.69800001 -0.026924185 6.0654644e-39 288 262
-0.037938625 0.69800001 -0.026924185 5.97291e-39 289 262
-0.036662199 0.69700003 -0.026885614 6.0640252e-39 290 262
-0.035440128 0.69700003 -0.026885614 6.0640252e-39 291 262
-0.034218054 0.69700003 -0.026885614 6.0640252e-39 292 262
-0.03299598 0.69700003 -0.026885614 5.8799941e-39 293 262
-0.03177391 0.69700003 -0.026885614 6.0643811e-39 294 262
-0.030507999 0.69599998 -0.026847038 6.0643811e-39 295 262
-0.029287677 0.69599998 -0.026847038 5.6052023e-39 296 262
-0.027986705 0.69400001 -0.026769891 5.5130066e-39 297 262
-0.026769891 0.69400001 -0.026769891 5.3293412e-39 298 262
-0.025553079 0.69400001 -0.026769891 5.3293412e-39 299 262
-0.024336265 0.69400001 -0.026769891 5.0531173e-39 300 262
-0.023119451 0.69400001 -0.026769891 5.0531173e-39 301 262
-0.021902639 0.69400001 -0.026769891 4.869089e-39 302 262
-0.020685827 0.69400001 -0.026769891 4.7768933e-39 303 262
-0.019469013 0.69400001 -0.026769891 4.6843376e-39 304 262
-0.0182522 0.69400001 -0.026769891 4.7768933e-39 305 262
-0.017035386 0.69400001 -0.026769891 4.6854138e-39 306 262
-0.015818574 0.69400001 -0.026769891 4.6854138e-39 307 262
-0.01460176 0.69400001 -0.026769891 4.3173501e-39 308 262
-0.013384946 0.69400001 -0.026769891 4.133319e-39 309 262
-0.012168133 0.69400001 -0.026769891 4.1340379e-39 310 262
-0.01095132 0.69400001 -0.026769891 4.1340379e-39 311 262
-0.0097345067 0.69400001 -0.026769891 4.1347595e-39 312 262
-0.0085176928 0.69400001 -0.026769891 3.9503697e-39 313 262
-0.0073008798 0.69400001 -0.026769891 3.8588957e-39 314 262
-0.0060840664 0.69400001 -0.026769891 3.9510913e-39 315 262
-0.0048812795 0.69599998 -0.026847038 3.6759464e-39 316 262
-0.0036609597 0.69599998 -0.026847038 3.7681434e-39 317 262
-0.0024441467 0.69700003 -0.026885614 3.7692182e-39 318 262
-0.0012238267 0.69800001 -0.026924185 3.7692182e-39 319 262
0 0.69800001 -0.026924185 3.8614138e-39 320 262
0.0012238267 0.69800001 -0.026924185 3.9536095e-39 321 262
0.0024476533 0.69800001 -0.026924185 4.0461582e-39 322 262
0.0036819996 0.69999999 -0.027001332 4.1383539e-39 323 262
0.0049163462 0.70099998 -0.027039904 4.4142191e-39 324 262
0.0061629666 0.70300001 -0.027117053 4.5064147e-39 325 262
0.0074060797 0.704 -0.027155625 4.4149379e-39 326 262
0.0086649731 0.70599997 -0.027232772 4.5071336e-39 327 262
0.0099028256 0.70599997 -0.027232772 4.599332e-39 328 262
0.011156459 0.70700002 -0.027271347 4.7837233e-39 329 262
0.012448666 0.70999998 -0.027387066 4.8766392e-39 330 262
0.013693533 0.70999998 -0.027387066 5.1535848e-39 331 262
0.014959441 0.71100003 -0.027425639 5.5223645e-39 332 262
0.016251646 0.713 -0.027502786 6.0755369e-39 333 262
0.017575413 0.71600002 -0.027618507 6.4414145e-39 334 262
0.0188308 0.71600002 -0.027618507 8.0083801e-39 335 262
0.020114239 0.71700001 -0.027657079 1.261779e-38 336 262
0.021371379 0.71700001 -0.027657079 1.5199268e-38 337 262
0.02262852 0.71700001 -0.027657079 1.5572019e-38 338 262
-0.051039528 0.70999998 -0.028631933 7.7314499e-39 279 263
-0.049794663 0.70999998 -0.028631933 7.8168086e-39 280 263
-0.048413038 0.708 -0.02855128 7.6320586e-39 281 263
-0.047105055 0.70700002 -0.028510952 7.2640019e-39 282 263
-0.045865446 0.70700002 -0.028510952 7.0796093e-39 283 263
-0.044436477 0.704 -0.028389972 6.986692e-39 284 263
-0.043140765 0.70300001 -0.028349647 6.8944963e-39 285 263
-0.041788943 0.70099998 -0.028268991 6.6186325e-39 286 263
-0.040502001 0.69999999 -0.028228667 6.5264355e-39 287 263
-0.039274666 0.69999999 -0.028228667 6.4338839e-39 288 263
-0.037938625 0.69800001 -0.028148014 6.3416883e-39 289 263
-0.0367148 0.69800001 -0.028148014 6.3409722e-39 290 263
-0.035490975 0.69800001 -0.028148014 6.3409722e-39 291 263
-0.034267146 0.69800001 -0.028148014 6.2487738e-39 292 263
-0.03299598 0.69700003 -0.028107686 6.1565782e-39 293 263
-0.03177391 0.69700003 -0.028107686 6.2491297e-39 294 263
-0.030507999 0.69599998 -0.028067358 6.2491297e-39 295 263
-0.029287677 0.69599998 -0.028067358 5.9732631e-39 296 263
-0.027986705 0.69400001 -0.027986705 5.9732631e-39 297 263
-0.026769891 0.69400001 -0.027986705 5.6974007e-39 298 263
-0.025553079 0.69400001 -0.027986705 5.6052051e-39 299 263
-0.024336265 0.69400001 -0.027986705 5.3293412e-39 300 263
-0.023119451 0.69400001 -0.027986705 5.2371456e-39 301 263
-0.021902639 0.69400001 -0.027986705 5.1453129e-39 302 263
-0.020685827 0.69400001 -0.027986705 5.0531173e-39 303 263
-0.019469013 0.69400001 -0.027986705 4.8698022e-39 304 263
-0.0182522 0.69400001 -0.027986705 4.8698022e-39 305 263
-0.017035386 0.69400001 -0.027986705 4.6868459e-39 306 263
-0.015818574 0.69400001 -0.027986705 4.5942915e-39 307 263
-0.01460176 0.69400001 -0.027986705 4.4099017e-39 308 263
-0.013384946 0.69400001 -0.027986705 4.4099017e-39 309 263
-0.012168133 0.69400001 -0.027986705 4.3187865e-39 310 263
-0.01095132 0.69400001 -0.027986705 4.5028176e-39 311 263
-0.0097345067 0.69400001 -0.027986705 4.5028204e-39 312 263
-0.0085176928 0.69400001 -0.027986705 4.3184305e-39 313 263
-0.0073008798 0.69400001 -0.027986705 4.2269566e-39 314 263
-0.0060840664 0.69400001 -0.027986705 4.3191522e-39 315 263
-0.0048812795 0.69599998 -0.028067358 4.1358399e-39 316 263
-0.00366622 0.69700003 -0.028107686 4.3198711e-39 317 263
-0.0024441467 0.69700003 -0.028107686 3.9532465e-39 318 263
-0.0012238267 0.69800001 -0.028148014 4.0454422e-39 319 263
0 0.69800001 -0.028148014 4.046161e-39 320 263
0.0012238267 0.69800001 -0.028148014 4.046161e-39 321 263
0.0024546667 0.69999999 -0.028228667 4.3216661e-39 322 263
0.0036819996 0.69999999 -0.028228667 4.4142219e-39 323 263
0.0049163462 0.70099998 -0.028268991 4.6897298e-39 324 263
0.0061717331 0.704 -0.028389972 4.7819254e-39 325 263
0.0074060797 0.704 -0.028389972 4.5986131e-39 326 263
0.0086649731 0.70599997 -0.028470624 4.6908088e-39 327 263
0.0099168532 0.70700002 -0.028510952 4.6915276e-39 328 263
0.011156459 0.70700002 -0.028510952 4.8759203e-39 329 263
0.012448666 0.70999998 -0.028631933 5.1525058e-39 330 263
0.01371282 0.71100003 -0.028672259 5.336897e-39 331 263
0.014959441 0.71100003 -0.028672259 5.7978752e-39 332 263
0.016274439 0.71399999 -0.028793238 6.1666577e-39 333 263
0.017575413 0.71600002 -0.028873893 6.5318081e-39 334 263
0.0188308 0.71600002 -0.028873893 8.8363401e-39 335 263
0.020114239 0.71700001 -0.028914221 1.4001799e-38 336 263
0.021371379 0.71700001 -0.028914221 1.5569127e-38 337 263
-0.051039528 0.70999998 -0.029876797 8.8399554e-39 279 264
-0.049794663 0.70999998 -0.029876797 8.0001236e-39 280 264
-0.048413038 0.708 -0.02979264 8.0001236e-39 281 264
-0.047171678 0.708 -0.02979264 7.6324271e-39 282 264
-0.045865446 0.70700002 -0.029750559 7.2640047e-39 283 264
-0.044436477 0.704 -0.029624319 7.171086e-39 284 264
-0.043202132 0.704 -0.029624319 7.0788904e-39 285 264
-0.041788943 0.70099998 -0.029498078 6.9863388e-39 286 264
-0.040559858 0.70099998 -0.029498078 6.8941432e-39 287 264
-0.039274666 0.69999999 -0.029455997 6.6182794e-39 288 264
-0.037938625 0.69800001 -0.029371841 6.5260824e-39 289 264
-0.0367148 0.69800001 -0.029371841 6.5260824e-39 290 264
-0.035490975 0.69800001 -0.029371841 6.4338867e-39 291 264
-0.034267146 0.69800001 -0.029371841 6.3416911e-39 292 264
-0.03299598 0.69700003 -0.02932976 6.15766e-39 293 264
-0.03177391 0.69700003 -0.02932976 6.4331651e-39 294 264
-0.030507999 0.69599998 -0.029287677 6.3409694e-39 295 264
-0.029287677 0.69599998 -0.029287677 6.1576572e-39 296 264
-0.028067358 0.69599998 -0.029287677 5.9732659e-39 297 264
-0.026847038 0.69599998 -0.029287677 5.6974007e-39 298 264
-0.025553079 0.69400001 -0.029203519 5.6052051e-39 299 264
-0.024336265 0.69400001 -0.029203519 5.5133724e-39 300 264
-0.023186078 0.69599998 -0.029287677 5.3293412e-39 301 264
-0.021965759 0.69599998 -0.029287677 5.0545522e-39 302 264
-0.020745439 0.69599998 -0.029287677 5.0545522e-39 303 264
-0.019469013 0.69400001 -0.029203519 4.9623538e-39 304 264
-0.0182522 0.69400001 -0.029203519 4.8701582e-39 305 264
-0.017035386 0.69400001 -0.029203519 4.5950104e-39 306 264
-0.015818574 0.69400001 -0.029203519 4.5950104e-39 307 264
-0.01460176 0.69400001 -0.029203519 4.5942943e-39 308 264
-0.013384946 0.69400001 -0.029203519 4.5942943e-39 309 264
-0.012168133 0.69400001 -0.029203519 4.5950132e-39 310 264
-0.01095132 0.69400001 -0.029203519 4.5950132e-39 311 264
-0.0097345067 0.69400001 -0.029203519 4.5950132e-39 312 264
-0.0085176928 0.69400001 -0.029203519 4.5950132e-39 313 264
-0.0073008798 0.69400001 -0.029203519 4.411345e-39 314 264
-0.0061015999 0.69599998 -0.029287677 4.411345e-39 315 264
-0.0048882933 0.69700003 -0.02932976 4.3198711e-39 316 264
-0.00366622 0.69700003 -0.02932976 4.3198711e-39 317 264
-0.0024476533 0.69800001 -0.029371841 4.0454422e-39 318 264
-0.0012238267 0.69800001 -0.029371841 4.0454422e-39 319 264
0 0.69800001 -0.029371841 4.2294733e-39 320 264
0.0012273333 0.69999999 -0.029455997 4.2294733e-39 321 264
0.0024546667 0.69999999 -0.029455997 4.3216689e-39 322 264
0.0036819996 0.69999999 -0.029455997 4.413866e-39 323 264
0.0049303733 0.70300001 -0.029582238 4.6897326e-39 324 264
0.0061717331 0.704 -0.029624319 4.7819282e-39 325 264
0.0074271196 0.70599997 -0.029708479 4.5986159e-39 326 264
0.0086649731 0.70599997 -0.029708479 4.6908116e-39 327 264
0.0099168532 0.70700002 -0.029750559 4.6915304e-39 328 264
0.01117224 0.708 -0.02979264 4.8759231e-39 329 264
0.0124662 0.71100003 -0.029918881 4.9691935e-39 330 264
0.01371282 0.71100003 -0.029918881 5.3376159e-39 331 264
0.015001519 0.713 -0.030003037 5.7975193e-39 332 264
0.016274439 0.71399999 -0.030045118 6.0744649e-39 333 264
0.017575413 0.71600002 -0.03012928 7.2672221e-39 334 264
0.018857099 0.71700001 -0.030171359 1.0033091e-38 335 264
0.020170346 0.71899998 -0.030255521 1.4833359e-38 336 264
0.021430992 0.71899998 -0.030255521 1.5478729e-38 337 264
-0.051039528 0.70999998 -0.031121666 1.0593473e-38 279 265
-0.049794663 0.70999998 -0.031121666 7.8168086e-39 280 265
-0.048549797 0.70999998 -0.031121666 8.0008397e-39 281 265
-0.047171678 0.708 -0.031034 7.6342264e-39 282 265
-0.045930319 0.708 -0.031034 7.173607e-39 283 265
-0.044688959 0.708 -0.031034 7.354764e-39 284 265
-0.043447599 0.708 -0.031034 7.1707329e-39 285 265
-0.041967787 0.704 -0.030858666 6.9863445e-39 286 265
-0.040559858 0.70099998 -0.030727165 6.8937901e-39 287 265
-0.039274666 0.69999999 -0.030683333 6.6190011e-39 288 265
-0.038047329 0.69999999 -0.030683333 6.6190011e-39 289 265
-0.0367148 0.69800001 -0.030595668 6.5268054e-39 290 265
-0.035490975 0.69800001 -0.030595668 6.3427729e-39 291 265
-0.034267146 0.69800001 -0.030595668 6.5260824e-39 292 265
-0.03299598 0.69700003 -0.030551834 6.5260824e-39 293 265
-0.03177391 0.69700003 -0.030551834 6.4338867e-39 294 265
-0.030507999 0.69599998 -0.030507999 6.3416911e-39 295 265
-0.029287677 0.69599998 -0.030507999 6.1573041e-39 296 265
-0.028067358 0.69599998 -0.030507999 5.9729128e-39 297 265
-0.026847038 0.69599998 -0.030507999 5.6974049e-39 298 265
-0.025626717 0.69599998 -0.030507999 5.6974049e-39 299 265
-0.0244064 0.69599998 -0.030507999 5.3300601e-39 300 265
-0.023186078 0.69599998 -0.030507999 5.3300601e-39 301 265
-0.021965759 0.69599998 -0.030507999 5.0541963e-39 302 265
-0.020745439 0.69599998 -0.030507999 4.9620007e-39 303 265
-0.019469013 0.69400001 -0.030420333 4.869805e-39 304 265
-0.0182522 0.69400001 -0.030420333 4.9620007e-39 305 265
-0.017084479 0.69599998 -0.030507999 4.68649e-39 306 265
-0.015818574 0.69400001 -0.030420333 4.68649e-39 307 265
-0.01460176 0.69400001 -0.030420333 4.5950132e-39 308 265
-0.013384946 0.69400001 -0.030420333 4.5950132e-39 309 265
-0.012168133 0.69400001 -0.030420333 4.5950132e-39 310 265
-0.01095132 0.69400001 -0.030420333 4.6872088e-39 311 265
-0.0097345067 0.69400001 -0.030420333 4.411345e-39 312 265
-0.0085422397 0.69599998 -0.030507999 4.411345e-39 313 265
-0.0073219193 0.69599998 -0.030507999 4.3198711e-39 314 265
-0.0061103669 0.69700003 -0.030551834 4.3198711e-39 315 265
-0.0048882933 0.69700003 -0.030551834 3.9532465e-39 316 265
-0.0036714801 0.69800001 -0.030595668 4.0454422e-39 317 265
-0.0024476533 0.69800001 -0.030595668 4.2287544e-39 318 265
-0.0012238267 0.69800001 -0.030595668 4.3209501e-39 319 265
0 0.69999999 -0.030683333 4.2294733e-39 320 265
0.0012273333 0.69999999 -0.030683333 4.3216689e-39 321 265
0.0024546667 0.69999999 -0.030683333 4.4138688e-39 322 265
0.0036872597 0.70099998 -0.030727165 4.4138688e-39 323 265
0.0049373866 0.704 -0.030858666 4.597181e-39 324 265
0.0061717331 0.704 -0.030858666 4.6893766e-39 325 265
0.0074271196 0.70599997 -0.030946331 4.5982628e-39 326 265
0.008677247 0.70700002 -0.030990168 4.5982628e-39 327 265
0.0099308798 0.708 -0.031034 4.6915304e-39 328 265
0.011203799 0.70999998 -0.031121666 4.8759231e-39 329 265
0.0124662 0.71100003 -0.031165501 5.2446986e-39 330 265
0.013751393 0.713 -0.031253166 5.4294486e-39 331 265
0.015022559 0.71399999 -0.031296998 5.7053096e-39 332 265
0.016320027 0.71600002 -0.031384666 5.7053096e-39 333 265
0.017599959 0.71700001 -0.031428497 8.6512314e-39 334 265
0.018857099 0.71700001 -0.031428497 1.1970275e-38 335 265
0.020114239 0.71700001 -0.031428497 1.5111394e-38 336 265
-0.052284397 0.70999998 -0.032366529 1.5112502e-38 278 266
-0.051039528 0.70999998 -0.032366529 1.2531025e-38 279 266
-0.049794663 0.70999998 -0.032366529 8.4621752e-39 280 266
-0.048549797 0.70999998 -0.032366529 7.6324145e-39 281 266
-0.047304932 0.70999998 -0.032366529 8.0930367e-39 282 266
-0.045930319 0.708 -0.03227536 7.7246129e-39 283 266
-0.044688959 0.708 -0.03227536 7.5391497e-39 284 266
-0.043447599 0.708 -0.03227536 7.3543983e-39 285 266
-0.042087011 0.70599997 -0.032184184 7.2622055e-39 286 266
-0.040849157 0.70599997 -0.032184184 7.1696511e-39 287 266
-0.039499093 0.704 -0.032093015 6.9863416e-39 288 266
-0.038101684 0.70099998 -0.031956252 6.894146e-39 289 266
-0.036872596 0.70099998 -0.031956252 6.6182794e-39 290 266
-0.035592664 0.69999999 -0.031910665 6.6182794e-39 291 266
-0.034267146 0.69800001 -0.031819493 6.5264383e-39 292 266
-0.033043321 0.69800001 -0.031819493 6.5264383e-39 293 266
-0.03177391 0.69700003 -0.03177391 6.4338839e-39 294 266
-0.030551834 0.69700003 -0.03177391 6.1576572e-39 295 266
-0.029287677 0.69599998 -0.031728316 6.2487766e-39 296 266
-0.028067358 0.69599998 -0.031728316 6.156581e-39 297 266
-0.026847038 0.69599998 -0.031728316 5.6974049e-39 298 266
-0.025626717 0.69599998 -0.031728316 5.6974049e-39 299 266
-0.0244064 0.69599998 -0.031728316 5.3307804e-39 300 266
-0.023186078 0.69599998 -0.031728316 5.1467479e-39 301 266
-0.021965759 0.69599998 -0.031728316 5.0545522e-39 302 266
-0.020745439 0.69599998 -0.031728316 5.0545522e-39 303 266
-0.019525118 0.69599998 -0.031728316 4.7786884e-39 304 266
-0.018304799 0.69599998 -0.031728316 4.7786884e-39 305 266
-0.017084479 0.69599998 -0.031728316 4.6872116e-39 306 266
-0.015818574 0.69400001 -0.031637147 4.595016e-39 307 266
-0.01460176 0.69400001 -0.031637147 4.6872116e-39 308 266
-0.013384946 0.69400001 -0.031637147 4.6872116e-39 309 266
-0.0122032 0.69599998 -0.031728316 4.411345e-39 310 266
-0.010982879 0.69599998 -0.031728316 4.411345e-39 311 266
-0.0097625591 0.69599998 -0.031728316 4.3198711e-39 312 266
-0.0085545136 0.69700003 -0.03177391 4.3198711e-39 313 266
-0.00733244 0.69700003 -0.03177391 4.1365588e-39 314 266
-0.006119133 0.69800001 -0.031819493 4.0443632e-39 315 266
-0.0048953067 0.69800001 -0.031819493 3.861411e-39 316 266
-0.0036714801 0.69800001 -0.031819493 3.861411e-39 317 266
-0.0024476533 0.69800001 -0.031819493 3.8614138e-39 318 266
-0.0012273333 0.69999999 -0.031910665 3.9536095e-39 319 266
0 0.69999999 -0.031910665 4.2291202e-39 320 266
0.0012290865 0.70099998 -0.031956252 4.2291202e-39 321 266
0.0024581731 0.70099998 -0.031956252 4.3213158e-39 322 266
0.0036977797 0.70300001 -0.032047424 4.3213158e-39 323 266
0.0049373866 0.704 -0.032093015 4.4135128e-39 324 266
0.0061892662 0.70599997 -0.032184184 4.4135128e-39 325 266
0.0074376399 0.70700002 -0.032229774 4.4138688e-39 326 266
0.008689519 0.708 -0.03227536 4.59826e-39 327 266
0.0099589331 0.70999998 -0.032366529 4.5078595e-39 328 266
0.01121958 0.71100003 -0.032412119 4.7844463e-39 329 266
0.012501267 0.713 -0.032503292 4.9688376e-39 330 266
0.01377068 0.71399999 -0.032548878 5.1532289e-39 331 266
0.015085679 0.71700001 -0.032685637 5.3379536e-39 332 266
0.016342819 0.71700001 -0.032685637 5.1532036e-39 333 266
0.017649053 0.71899998 -0.032776814 1.0865353e-38 334 266
0.019014901 0.72299999 -0.032959159 1.3446831e-38 335 266
0.020282559 0.72299999 -0.032959159 1.5386905e-38 336 266
-0.052284397 0.70999998 -0.033611398 1.6310325e-38 278 267
-0.051039528 0.70999998 -0.033611398 1.4742999e-38 279 267
-0.049794663 0.70999998 -0.033611398 9.7536357e-39 280 267
-0.048549797 0.70999998 -0.033611398 7.4487463e-39 281 267
-0.047304932 0.70999998 -0.033611398 7.8164526e-39 282 267
-0.045930319 0.708 -0.033516716 7.8164526e-39 283 267
-0.044688959 0.708 -0.033516716 7.3562032e-39 284 267
-0.043447599 0.708 -0.033516716 7.1714518e-39 285 267
-0.042146627 0.70700002 -0.033469379 6.895588e-39 286 267
-0.040849157 0.70599997 -0.033422034 6.895588e-39 287 267
-0.039499093 0.704 -0.03332736 6.8033923e-39 288 267
-0.038210396 0.70300001 -0.033280019 6.8033923e-39 289 267
-0.036872596 0.70099998 -0.03318534 6.435686e-39 290 267
-0.035643511 0.70099998 -0.03318534 6.3434904e-39 291 267
-0.034414422 0.70099998 -0.03318534 6.5268026e-39 292 267
-0.033137999 0.69999999 -0.033137999 6.3427701e-39 293 267
-0.031819493 0.69800001 -0.033043321 6.2502185e-39 294 267
-0.030595668 0.69800001 -0.033043321 6.1580229e-39 295 267
-0.02932976 0.69700003 -0.03299598 6.0658301e-39 296 267
-0.028107686 0.69700003 -0.03299598 5.697049e-39 297 267
-0.026885614 0.69700003 -0.03299598 5.6055722e-39 298 267
-0.025663542 0.69700003 -0.03299598 5.6055722e-39 299 267
-0.024441468 0.69700003 -0.03299598 5.1467479e-39 300 267
-0.023186078 0.69599998 -0.032948639 5.1467479e-39 301 267
-0.021965759 0.69599998 -0.032948639 4.9627195e-39 302 267
-0.020745439 0.69599998 -0.032948639 4.9627195e-39 303 267
-0.019525118 0.69599998 -0.032948639 4.7794101e-39 304 267
-0.018304799 0.69599998 -0.032948639 4.6868557e-39 305 267
-0.017109027 0.69700003 -0.03299598 4.6868557e-39 306 267
-0.015864158 0.69599998 -0.032948639 4.6868557e-39 307 267
-0.014643839 0.69599998 -0.032948639 4.6868557e-39 308 267
-0.013423519 0.69599998 -0.032948639 4.6868557e-39 309 267
-0.0122032 0.69599998 -0.032948639 4.4113478e-39 310 267
-0.010982879 0.69599998 -0.032948639 4.4113478e-39 311 267
-0.0097765867 0.69700003 -0.03299598 4.1365588e-39 312 267
-0.0085545136 0.69700003 -0.03299598 4.1365588e-39 313 267
-0.0073429602 0.69800001 -0.033043321 3.9539654e-39 314 267
-0.006119133 0.69800001 -0.033043321 3.861411e-39 315 267
-0.0049093333 0.69999999 -0.033137999 3.7692182e-39 316 267
-0.0036819996 0.69999999 -0.033137999 3.8614138e-39 317 267
-0.0024546667 0.69999999 -0.033137999 3.9525375e-39 318 267
-0.0012273333 0.69999999 -0.033137999 3.9525375e-39 319 267
0 0.70099998 -0.03318534 4.2284013e-39 320 267
0.0012290865 0.70099998 -0.03318534 4.3205969e-39 321 267
0.0024651866 0.70300001 -0.033280019 4.3209529e-39 322 267
0.0037030398 0.704 -0.03332736 4.4131485e-39 323 267
0.0049373866 0.704 -0.03332736 4.3216689e-39 324 267
0.0062067998 0.708 -0.033516716 4.3216689e-39 325 267
0.0074691991 0.70999998 -0.033611398 4.413866e-39 326 267
0.0087140659 0.70999998 -0.033611398 4.5060616e-39 327 267
0.0099729598 0.71100003 -0.033658739 4.599332e-39 328 267
0.01129848 0.71600002 -0.03389544 4.7837233e-39 329 267
0.0125714 0.71700001 -0.033942781 5.0603102e-39 330 267
0.0138864 0.72000003 -0.034084801 5.336897e-39 331 267
0.0151488 0.72000003 -0.034084801 5.2425154e-39 332 267
0.016456785 0.722 -0.034179479 5.8878848e-39 333 267
0.017722692 0.722 -0.034179479 1.2895456e-38 334 267
0.019014901 0.72299999 -0.03422682 1.4831564e-38 335 267
-0.051039528 0.70999998 -0.034856264 1.5666758e-38 279 268
-0.049794663 0.70999998 -0.034856264 1.169406e-38 280 268
-0.048549797 0.70999998 -0.034856264 8.0062361e-39 281 268
-0.047304932 0.70999998 -0.034856264 7.8168086e-39 282 268
-0.046060063 0.70999998 -0.034856264 7.8168086e-39 283 268
-0.044688959 0.708 -0.034758076 7.8150233e-39 284 268
-0.043447599 0.708 -0.034758076 7.4465995e-39 285 268
-0.042146627 0.70700002 -0.034708988 7.0792561e-39 286 268
-0.040907022 0.70700002 -0.034708988 7.0792561e-39 287 268
-0.039499093 0.704 -0.034561705 6.8044643e-39 288 268
-0.038264744 0.704 -0.034561705 6.6204332e-39 289 268
-0.036977798 0.70300001 -0.034512613 6.710831e-39 290 268
-0.035745207 0.70300001 -0.034512613 6.6186353e-39 291 268
-0.034414422 0.70099998 -0.034414422 6.5260824e-39 292 268
-0.03318534 0.70099998 -0.034414422 6.4338867e-39 293 268
-0.031910665 0.69999999 -0.034365334 6.4338895e-39 294 268
-0.030595668 0.69800001 -0.034267146 6.1573041e-39 295 268
-0.029371841 0.69800001 -0.034267146 5.9736345e-39 296 268
-0.028107686 0.69700003 -0.034218054 5.8810801e-39 297 268
-0.026885614 0.69700003 -0.034218054 5.6055722e-39 298 268
-0.025663542 0.69700003 -0.034218054 5.6055722e-39 299 268
-0.024441468 0.69700003 -0.034218054 5.3300629e-39 300 268
-0.023219392 0.69700003 -0.034218054 5.2378673e-39 301 268
-0.02202888 0.69800001 -0.034267146 5.0541991e-39 302 268
-0.020805053 0.69800001 -0.034267146 5.0541991e-39 303 268
-0.019581227 0.69800001 -0.034267146 4.6868557e-39 304 268
-0.0183574 0.69800001 -0.034267146 4.6868557e-39 305 268
-0.017133573 0.69800001 -0.034267146 4.5035435e-39 306 268
-0.015886955 0.69700003 -0.034218054 4.5035435e-39 307 268
-0.01466488 0.69700003 -0.034218054 4.5946601e-39 308 268
-0.013442807 0.69700003 -0.034218054 4.5946601e-39 309 268
-0.012220734 0.69700003 -0.034218054 4.1365588e-39 310 268
-0.01099866 0.69700003 -0.034218054 4.1365588e-39 311 268
-0.0097765867 0.69700003 -0.034218054 3.8614138e-39 312 268
-0.0085667865 0.69800001 -0.034267146 3.8614138e-39 313 268
-0.0073429602 0.69800001 -0.034267146 3.8614138e-39 314 268
-0.006119133 0.69800001 -0.034267146 3.8614138e-39 315 268
-0.0049093333 0.69999999 -0.034365334 3.8614166e-39 316 268
-0.0036819996 0.69999999 -0.034365334 3.8614166e-39 317 268
-0.0024546667 0.69999999 -0.034365334 3.7688651e-39 318 268
-0.0012290865 0.70099998 -0.034414422 3.7688651e-39 319 268
0 0.70099998 -0.034414422 4.045089e-39 320 268
0.0012290865 0.70099998 -0.034414422 4.2291202e-39 321 268
0.0024686933 0.704 -0.034561705 4.3216717e-39 322 268
0.0037030398 0.704 -0.034561705 4.3216717e-39 323 268
0.0049584266 0.70700002 -0.034708988 4.413866e-39 324 268
0.0062243328 0.70999998 -0.034856264 4.413866e-39 325 268
0.0074797203 0.71100003 -0.034905359 4.413866e-39 326 268
0.0087263398 0.71100003 -0.034905359 4.5986159e-39 327 268
0.01001504 0.71399999 -0.035052639 4.5082154e-39 328 268
0.01134582 0.71899998 -0.035298105 4.6922465e-39 329 268
0.012624 0.72000003 -0.035347197 5.0603074e-39 330 268
0.013924973 0.722 -0.035445385 5.152503e-39 331 268
0.015190879 0.722 -0.035445385 6.0715502e-39 332 268
0.016456785 0.722 -0.035445385 7.362289e-39 333 268
0.017747238 0.72299999 -0.035494477 1.4004315e-38 334 268
-0.051255193 0.713 -0.036253672 1.6219932e-38 279 269
-0.050005067 0.713 -0.036253672 1.3264624e-38 280 269
-0.048754938 0.713 -0.036253672 9.4849619e-39 281 269
-0.047304932 0.70999998 -0.036101133 8.0926724e-39 282 269
-0.046060063 0.70999998 -0.036101133 8.1848694e-39 283 269
-0.044815198 0.70999998 -0.036101133 7.9997705e-39 284 269
-0.043570329 0.70999998 -0.036101133 7.5387938e-39 285 269
-0.042206239 0.708 -0.03599944 7.1714518e-39 286 269
-0.040964879 0.708 -0.03599944 6.9870605e-39 287 269
-0.039611302 0.70599997 -0.035897743 6.8037483e-39 288 269
-0.038264744 0.704 -0.035796054 6.7115526e-39 289 269
-0.037030395 0.704 -0.035796054 6.7108338e-39 290 269
-0.035796054 0.704 -0.035796054 6.6182794e-39 291 269
-0.034512613 0.70300001 -0.035745207 6.4338895e-39 292 269
-0.033280019 0.70300001 -0.035745207 6.3416939e-39 293 269
-0.031956252 0.70099998 -0.035643511 6.341338e-39 294 269
-0.030683333 0.69999999 -0.035592664 6.0651112e-39 295 269
-0.029455997 0.69999999 -0.035592664 5.8810801e-39 296 269
-0.028148014 0.69800001 -0.035490975 5.697049e-39 297 269
-0.026924185 0.69800001 -0.035490975 5.697049e-39 298 269
-0.025700359 0.69800001 -0.035490975 5.697049e-39 299 269
-0.024476532 0.69800001 -0.035490975 5.5133752e-39 300 269
-0.023252707 0.69800001 -0.035490975 5.5133752e-39 301 269
-0.022091998 0.69999999 -0.035592664 4.9620035e-39 302 269
-0.020864666 0.69999999 -0.035592664 5.0541991e-39 303 269
-0.019581227 0.69800001 -0.035490975 4.6868557e-39 304 269
-0.0183574 0.69800001 -0.035490975 4.6868557e-39 305 269
-0.017133573 0.69800001 -0.035490975 4.4113506e-39 306 269
-0.015909746 0.69800001 -0.035490975 4.4113506e-39 307 269
-0.01466488 0.69700003 -0.035440128 4.3198739e-39 308 269
-0.013442807 0.69700003 -0.035440128 4.3198739e-39 309 269
-0.012238266 0.69800001 -0.035490975 3.9532465e-39 310 269
-0.01101444 0.69800001 -0.035490975 3.8606922e-39 311 269
-0.0097906133 0.69800001 -0.035490975 3.7692154e-39 312 269
-0.0085667865 0.69800001 -0.035490975 3.7692154e-39 313 269
-0.0073639993 0.69999999 -0.035592664 3.7692182e-39 314 269
-0.0061366665 0.69999999 -0.035592664 3.7692182e-39 315 269
-0.0049093333 0.69999999 -0.035592664 3.585906e-39 316 269
-0.0036819996 0.69999999 -0.035592664 3.6781016e-39 317 269
-0.0024581731 0.70099998 -0.035643511 3.8614166e-39 318 269
-0.0012290865 0.70099998 -0.035643511 3.8614166e-39 319 269
0 0.70099998 -0.035643511 3.8624928e-39 320 269
0.0012290865 0.70099998 -0.035643511 4.046524e-39 321 269
0.0024686933 0.704 -0.035796054 4.4142219e-39 322 269
0.0037135598 0.70599997 -0.035897743 4.4142219e-39 323 269
0.0049794666 0.70999998 -0.036101133 4.4142219e-39 324 269
0.0062330998 0.71100003 -0.036151983 4.4142219e-39 325 269
0.0075112795 0.71399999 -0.036304519 4.5064175e-39 326 269
0.0087877065 0.71600002 -0.036406212 4.5986131e-39 327 269
0.010099201 0.72000003 -0.036609601 4.6915276e-39 328 269
0.011361601 0.72000003 -0.036609601 4.8759203e-39 329 269
0.012659066 0.722 -0.03671129 5.2443357e-39 330 269
0.013924973 0.722 -0.03671129 5.0595843e-39 331 269
0.015190879 0.722 -0.03671129 7.2700934e-39 332 269
0.01647958 0.72299999 -0.036762137 9.9437666e-39 333 269
-0.050075196 0.71399999 -0.037556399 1.4465687e-38 280 270
-0.048823316 0.71399999 -0.037556399 1.123884e-38 281 270
-0.047371563 0.71100003 -0.037398599 8.8302388e-39 282 270
-0.046124939 0.71100003 -0.037398599 8.1848694e-39 283 270
-0.044815198 0.70999998 -0.037345998 8.18308e-39 284 270
-0.043570329 0.70999998 -0.037345998 7.8146576e-39 285 270
-0.042206239 0.708 -0.0372408 7.0792561e-39 286 270
-0.040964879 0.708 -0.0372408 6.8030294e-39 287 270
-0.039611302 0.70599997 -0.037135597 6.7108338e-39 288 270
-0.038373452 0.70599997 -0.037135597 6.7108338e-39 289 270
-0.037030395 0.704 -0.037030395 6.8019504e-39 290 270
-0.035796054 0.704 -0.037030395 6.5253635e-39 291 270
-0.034512613 0.70300001 -0.036977798 6.3416911e-39 292 270
-0.033280019 0.70300001 -0.036977798 6.15766e-39 293 270
-0.031956252 0.70099998 -0.036872596 6.2484207e-39 294 270
-0.030683333 0.69999999 -0.036819998 6.2484207e-39 295 270
-0.029455997 0.69999999 -0.036819998 5.9729128e-39 296 270
-0.028228667 0.69999999 -0.036819998 5.8807172e-39 297 270
-0.026924185 0.69800001 -0.0367148 5.7885201e-39 298 270
-0.025700359 0.69800001 -0.0367148 5.7885201e-39 299 270
-0.024476532 0.69800001 -0.0367148 5.5126563e-39 300 270
-0.023252707 0.69800001 -0.0367148 5.5126563e-39 301 270
-0.022091998 0.69999999 -0.036819998 5.1453157e-39 302 270
-0.020864666 0.69999999 -0.036819998 5.1453157e-39 303 270
-0.019637333 0.69999999 -0.036819998 4.5946601e-39 304 270
-0.0183574 0.69800001 -0.0367148 4.6868557e-39 305 270
-0.017133573 0.69800001 -0.0367148 4.4113506e-39 306 270
-0.015909746 0.69800001 -0.0367148 4.319155e-39 307 270
-0.01468592 0.69800001 -0.0367148 3.8606978e-39 308 270
-0.013462093 0.69800001 -0.0367148 3.8606978e-39 309 270
-0.012238266 0.69800001 -0.0367148 3.5851871e-39 310 270
-0.01101444 0.69800001 -0.0367148 3.5851871e-39 311 270
-0.0098186666 0.69999999 -0.036819998 3.5851871e-39 312 270
-0.0085913334 0.69999999 -0.036819998 3.5851871e-39 313 270
-0.0073639993 0.69999999 -0.036819998 3.7692182e-39 314 270
-0.0061366665 0.69999999 -0.036819998 3.7692182e-39 315 270
-0.0049093333 0.69999999 -0.036819998 3.7692182e-39 316 270
-0.0036872597 0.70099998 -0.036872596 3.8614138e-39 317 270
-0.0024581731 0.70099998 -0.036872596 3.8614166e-39 318 270
-0.0012325933 0.70300001 -0.036977798 3.8614166e-39 319 270
0 0.70300001 -0.036977798 4.0458051e-39 320 270
0.0012325933 0.70300001 -0.036977798 4.1380007e-39 321 270
0.0024686933 0.704 -0.037030395 4.4142219e-39 322 270
0.0037188199 0.70700002 -0.037188202 4.4142219e-39 323 270
0.0049864799 0.71100003 -0.037398599 4.4142219e-39 324 270
0.0062593995 0.71399999 -0.037556399 4.4142219e-39 325 270
0.00753232 0.71600002 -0.037661601 4.5060616e-39 326 270
0.0087999795 0.71700001 -0.037714198 4.5986159e-39 327 270
0.010127253 0.722 -0.0379772 4.6908116e-39 328 270
0.01140894 0.72299999 -0.038029801 5.0592354e-39 329 270
0.012676599 0.72299999 -0.038029801 5.2425364e-39 330 270
0.013982833 0.72500002 -0.038135 4.7815597e-39 331 270
0.016179759 0.76899999 -0.0404494 9.2069275e-39 332 270
-0.050075196 0.71399999 -0.038808275 1.5297252e-38 280 271
-0.048823316 0.71399999 -0.038808275 1.2992001e-38 281 271
-0.047504812 0.713 -0.038753927 9.7554349e-39 282 271
-0.046124939 0.71100003 -0.038645219 7.7271311e-39 283 271
-0.044815198 0.70999998 -0.038590867 7.8164554e-39 284 271
-0.043570329 0.70999998 -0.038590867 7.5398686e-39 285 271
-0.042206239 0.708 -0.038482159 7.354764e-39 286 271
-0.040964879 0.708 -0.038482159 6.9863416e-39 287 271
-0.039667413 0.70700002 -0.038427804 6.7108338e-39 288 271
-0.038373452 0.70599997 -0.038373452 6.6182794e-39 289 271
-0.037135597 0.70599997 -0.038373452 6.5260824e-39 290 271
-0.035796054 0.704 -0.038264744 6.4338867e-39 291 271
-0.034561705 0.704 -0.038264744 6.3409722e-39 292 271
-0.033280019 0.70300001 -0.038210396 6.2487766e-39 293 271
-0.032047424 0.70300001 -0.038210396 6.0651084e-39 294 271
-0.030727165 0.70099998 -0.038101684 6.0651084e-39 295 271
-0.029498078 0.70099998 -0.038101684 5.8807172e-39 296 271
-0.028228667 0.69999999 -0.038047329 5.7885201e-39 297 271
-0.027001332 0.69999999 -0.038047329 5.7885201e-39 298 271
-0.025773998 0.69999999 -0.038047329 5.6963245e-39 299 271
-0.024546666 0.69999999 -0.038047329 5.5126563e-39 300 271
-0.023319334 0.69999999 -0.038047329 5.4204607e-39 301 271
-0.022091998 0.69999999 -0.038047329 5.1453157e-39 302 271
-0.020864666 0.69999999 -0.038047329 5.0531201e-39 303 271
-0.019637333 0.69999999 -0.038047329 4.6861368e-39 304 271
-0.018409999 0.69999999 -0.038047329 4.6861368e-39 305 271
-0.017182667 0.69999999 -0.038047329 4.3198739e-39 306 271
-0.015955333 0.69999999 -0.038047329 4.135484e-39 307 271
-0.014727999 0.69999999 -0.038047329 3.7681434e-39 308 271
-0.013500666 0.69999999 -0.038047329 3.7681434e-39 309 271
-0.012273333 0.69999999 -0.038047329 3.5851871e-39 310 271
-0.011045999 0.69999999 -0.038047329 3.7692182e-39 311 271
-0.0098186666 0.69999999 -0.038047329 3.5851871e-39 312 271
-0.0086036054 0.70099998 -0.038101684 3.5851871e-39 313 271
-0.0073745195 0.70099998 -0.038101684 3.7688623e-39 314 271
-0.0061454331 0.70099998 -0.038101684 3.5848312e-39 315 271
-0.0049163462 0.70099998 -0.038101684 3.4933516e-39 316 271
-0.0036977797 0.70300001 -0.038210396 3.6781016e-39 317 271
-0.0024651866 0.70300001 -0.038210396 3.7692182e-39 318 271
-0.0012343467 0.704 -0.038264744 3.9536095e-39 319 271
0 0.704 -0.038264744 4.1383567e-39 320 271
0.0012378532 0.70599997 -0.038373452 4.2305537e-39 321 271
0.0024792133 0.70700002 -0.038427804 4.4149408e-39 322 271
0.0037398601 0.71100003 -0.038645219 4.4149408e-39 323 271
0.0049864799 0.71100003 -0.038645219 4.4142219e-39 324 271
0.0062769335 0.71600002 -0.038916986 4.5064175e-39 325 271
0.0075428397 0.71700001 -0.038971342 4.5060616e-39 326 271
0.0088367993 0.72000003 -0.039134402 4.5986159e-39 327 271
0.010127253 0.722 -0.039243106 4.6915304e-39 328 271
0.0114405 0.72500002 -0.039406165 4.7837261e-39 329 271
0.012711667 0.72500002 -0.039406165 5.1506883e-39 330 271
-0.050215468 0.71600002 -0.040172372 1.5666755e-38 280 272
-0.048823316 0.71399999 -0.040060159 1.4283821e-38 281 272
-0.047571439 0.71399999 -0.040060159 1.1601864e-38 282 272
-0.046254687 0.713 -0.040004052 7.9140405e-39 283 272
-0.045004558 0.713 -0.040004052 7.1718049e-39 284 272
-0.043570329 0.70999998 -0.039835732 7.6327831e-39 285 272
-0.042325463 0.70999998 -0.039835732 6.9877864e-39 286 272
-0.041080594 0.70999998 -0.039835732 6.8033951e-39 287 272
-0.039723519 0.708 -0.039723519 6.7104778e-39 288 272
-0.038427804 0.70700002 -0.039667413 6.6182822e-39 289 272
-0.037188202 0.70700002 -0.039667413 6.4338895e-39 290 272
-0.035897743 0.70599997 -0.039611302 6.3416939e-39 291 272
-0.034561705 0.704 -0.039499093 6.340975e-39 292 272
-0.03332736 0.704 -0.039499093 6.2484207e-39 293 272
-0.032047424 0.70300001 -0.039442986 6.0654644e-39 294 272
-0.030814834 0.70300001 -0.039442986 6.0654644e-39 295 272
-0.029582238 0.70300001 -0.039442986 5.880713e-39 296 272
-0.028349647 0.70300001 -0.039442986 5.880713e-39 297 272
-0.027039904 0.70099998 -0.039330769 5.7881642e-39 298 272
-0.025810819 0.70099998 -0.039330769 5.5119374e-39 299 272
-0.024581732 0.70099998 -0.039330769 5.4201076e-39 300 272
-0.023352645 0.70099998 -0.039330769 5.3279119e-39 301 272
-0.022091998 0.69999999 -0.039274666 4.9616475e-39 302 272
-0.020864666 0.69999999 -0.039274666 4.8694519e-39 303 272
-0.019637333 0.69999999 -0.039274666 4.5946629e-39 304 272
-0.018409999 0.69999999 -0.039274666 4.5024673e-39 305 272
-0.017182667 0.69999999 -0.039274666 4.135484e-39 306 272
-0.015955333 0.69999999 -0.039274666 4.135484e-39 307 272
-0.014727999 0.69999999 -0.039274666 3.7681434e-39 308 272
-0.013500666 0.69999999 -0.039274666 3.8606978e-39 309 272
-0.012273333 0.69999999 -0.039274666 3.6781016e-39 310 272
-0.011045999 0.69999999 -0.039274666 3.585906e-39 311 272
-0.0098326923 0.70099998 -0.039330769 3.5851871e-39 312 272
-0.0086036054 0.70099998 -0.039330769 3.5851871e-39 313 272
-0.0073745195 0.70099998 -0.039330769 3.7692182e-39 314 272
-0.0061629666 0.70300001 -0.039442986 3.7692182e-39 315 272
-0.0049303733 0.70300001 -0.039442986 3.6781016e-39 316 272
-0.0037030398 0.704 -0.039499093 3.6781016e-39 317 272
-0.0024686933 0.704 -0.039499093 3.7702944e-39 318 272
-0.0012378532 0.70599997 -0.039611302 3.86249e-39 319 272
0 0.70599997 -0.039611302 4.1383539e-39 320 272
0.00124136 0.708 -0.039723519 4.4149408e-39 321 272
0.0024897333 0.70999998 -0.039835732 4.4149379e-39 322 272
0.0037398601 0.71100003 -0.039891839 4.5071336e-39 323 272
0.0050215465 0.71600002 -0.040172372 4.4145848e-39 324 272
0.0062857 0.71700001 -0.040228479 4.4145848e-39 325 272
0.0075638802 0.71899998 -0.040340692 4.5071364e-39 326 272
0.0088613462 0.722 -0.040509012 4.599332e-39 327 272
0.01014128 0.72299999 -0.040565118 4.7840792e-39 328 272
0.0114405 0.72500002 -0.040677335 4.6915248e-39 329 272
0.012746733 0.727 -0.040789545 5.7031404e-39 330 272
-0.048823316 0.71399999 -0.041312039 1.5021386e-38 281 273
-0.047571439 0.71399999 -0.041312039 1.3172784e-38 282 273
-0.046254687 0.713 -0.041254178 9.023981e-39 283 273
-0.045004558 0.713 -0.041254178 7.5384196e-39 284 273
-0.043631699 0.71100003 -0.041138459 7.8150079e-39 285 273
-0.042325463 0.70999998 -0.041080594 7.8143016e-39 286 273
-0.041080594 0.70999998 -0.041080594 7.3536822e-39 287 273
-0.039723519 0.708 -0.040964879 6.7108338e-39 288 273
-0.038482159 0.708 -0.040964879 6.6182794e-39 289 273
-0.037188202 0.70700002 -0.040907022 6.5253663e-39 290 273
-0.035897743 0.70599997 -0.040849157 6.340975e-39 291 273
-0.034659892 0.70599997 -0.040849157 6.0651084e-39 292 273
-0.03332736 0.704 -0.040733438 6.1573041e-39 293 273
-0.032093015 0.704 -0.040733438 6.0654644e-39 294 273
-0.030814834 0.70300001 -0.040675577 5.97291e-39 295 273
-0.029582238 0.70300001 -0.040675577 5.881436e-39 296 273
-0.028349647 0.70300001 -0.040675577 5.6048491e-39 297 273
-0.027039904 0.70099998 -0.040559858 5.6048519e-39 298 273
-0.025810819 0.70099998 -0.040559858 5.5126563e-39 299 273
-0.024581732 0.70099998 -0.040559858 5.3289881e-39 300 273
-0.023352645 0.70099998 -0.040559858 5.2367925e-39 301 273
-0.02218668 0.70300001 -0.040675577 5.1453185e-39 302 273
-0.020894472 0.70099998 -0.040559858 5.0527642e-39 303 273
-0.019665385 0.70099998 -0.040559858 4.593944e-39 304 273
-0.018409999 0.69999999 -0.040502001 4.593944e-39 305 273
-0.017182667 0.69999999 -0.040502001 4.135484e-39 306 273
-0.015978126 0.70099998 -0.040559858 4.0432884e-39 307 273
-0.014749039 0.70099998 -0.040559858 4.0432912e-39 308 273
-0.013519952 0.70099998 -0.040559858 4.0432912e-39 309 273
-0.012290866 0.70099998 -0.040559858 3.9518116e-39 310 273
-0.011061779 0.70099998 -0.040559858 4.0440072e-39 311 273
-0.0098607466 0.70300001 -0.040675577 3.7692182e-39 312 273
-0.0086281532 0.70300001 -0.040675577 3.7692182e-39 313 273
-0.0073955595 0.70300001 -0.040675577 3.7688623e-39 314 273
-0.0061629666 0.70300001 -0.040675577 3.7688623e-39 315 273
-0.0049373866 0.704 -0.040733438 3.7692182e-39 316 273
-0.0037135598 0.70599997 -0.040849157 3.8614138e-39 317 273
-0.0024757064 0.70599997 -0.040849157 3.9536095e-39 318 273
-0.0012396066 0.70700002 -0.040907022 4.0458051e-39 319 273
0 0.70700002 -0.040907022 4.2305537e-39 320 273
0.0012448666 0.70999998 -0.041080594 4.4145848e-39 321 273
0.0024932399 0.71100003 -0.041138459 4.5986159e-39 322 273
0.0037556398 0.71399999 -0.041312039 4.5060616e-39 323 273
0.0050425865 0.71899998 -0.041601337 4.5060616e-39 324 273
0.0063120001 0.72000003 -0.041659199 4.5986159e-39 325 273
0.0075954394 0.722 -0.041774917 4.6908088e-39 326 273
0.0088613462 0.722 -0.041774917 4.9670355e-39 327 273
0.010169334 0.72500002 -0.041948501 5.0585151e-39 328 273
0.01147206 0.727 -0.042064216 5.2425476e-39 329 273
0.012746733 0.727 -0.042064216 6.9960428e-39 330 273
-0.048960082 0.71600002 -0.042683143 1.5021033e-38 281 274
-0.047704693 0.71600002 -0.042683143 1.4558235e-38 282 274
-0.046319555 0.71399999 -0.042563915 1.0593823e-38 283 274
-0.045067675 0.71399999 -0.042563915 8.4618024e-39 284 274
-0.043754432 0.713 -0.042504307 7.6320432e-39 285 274
-0.042385083 0.71100003 -0.042385083 7.539863e-39 286 274
-0.041138459 0.71100003 -0.042385083 7.3554703e-39 287 274
-0.039835732 0.70999998 -0.042325463 6.7108338e-39 288 274
-0.038482159 0.708 -0.042206239 6.6182794e-39 289 274
-0.0372408 0.708 -0.042206239 6.4338895e-39 290 274
-0.035948593 0.70700002 -0.042146627 6.1573041e-39 291 274
-0.034659892 0.70599997 -0.042087011 6.15766e-39 292 274
-0.033422034 0.70599997 -0.042087011 6.0654644e-39 293 274
-0.032093015 0.704 -0.041967787 6.0654644e-39 294 274
-0.030858666 0.704 -0.041967787 5.97291e-39 295 274
-0.029624319 0.704 -0.041967787 5.6974049e-39 296 274
-0.028389972 0.704 -0.041967787 5.6974049e-39 297 274
-0.027117053 0.70300001 -0.041908171 5.5133752e-39 298 274
-0.025884461 0.70300001 -0.041908171 5.3293441e-39 299 274
-0.024651866 0.70300001 -0.041908171 5.1453129e-39 300 274
-0.023419274 0.70300001 -0.041908171 5.1453129e-39 301 274
-0.022218239 0.704 -0.041967787 4.9620035e-39 302 274
-0.020954086 0.70300001 -0.041908171 4.8698078e-39 303 274
-0.019721493 0.70300001 -0.041908171 4.5024673e-39 304 274
-0.018488899 0.70300001 -0.041908171 4.5024673e-39 305 274
-0.017256306 0.70300001 -0.041908171 4.1358399e-39 306 274
-0.016023712 0.70300001 -0.041908171 4.1358399e-39 307 274
-0.014791119 0.70300001 -0.041908171 4.0443632e-39 308 274
-0.013558527 0.70300001 -0.041908171 3.9518088e-39 309 274
-0.012325933 0.70300001 -0.041908171 3.860695e-39 310 274
-0.01109334 0.70300001 -0.041908171 3.860695e-39 311 274
-0.0098747732 0.704 -0.041967787 3.7692154e-39 312 274
-0.0086404262 0.704 -0.041967787 3.5851843e-39 313 274
-0.0074060797 0.704 -0.041967787 3.7692182e-39 314 274
-0.0061717331 0.704 -0.041967787 3.7692182e-39 315 274
-0.0049514128 0.70599997 -0.042087011 3.7692182e-39 316 274
-0.0037188199 0.70700002 -0.042146627 3.8614138e-39 317 274
-0.0024792133 0.70700002 -0.042146627 3.9532465e-39 318 274
-0.0012396066 0.70700002 -0.042146627 4.2294733e-39 319 274
0 0.708 -0.042206239 4.3216661e-39 320 274
0.00124662 0.71100003 -0.042385083 4.5064175e-39 321 274
0.0025037599 0.71399999 -0.042563915 4.5986103e-39 322 274
0.0037714199 0.71700001 -0.042742759 4.690806e-39 323 274
0.0050496003 0.72000003 -0.042921603 4.8748399e-39 324 274
0.0063295332 0.722 -0.043040827 4.8748399e-39 325 274
0.0076059597 0.72299999 -0.043100435 5.2428993e-39 326 274
0.0088736191 0.72299999 -0.043100435 5.3350964e-39 327 274
0.010169334 0.72500002 -0.043219667 5.4276451e-39 328 274
0.01147206 0.727 -0.043338891 5.2432525e-39 329 274
-0.04790457 0.71899998 -0.044122629 1.4836271e-38 282 275
-0.046514176 0.71700001 -0.043999899 1.2531381e-38 283 275
-0.045193922 0.71600002 -0.043938532 1.0216756e-38 284 275
-0.043938532 0.71600002 -0.043938532 7.7278345e-39 285 275
-0.042563915 0.71399999 -0.043815799 7.6331306e-39 286 275
-0.041254178 0.713 -0.043754432 7.3569038e-39 287 275
-0.039891839 0.71100003 -0.043631699 6.9863388e-39 288 275
-0.038590867 0.70999998 -0.043570329 6.8019476e-39 289 275
-0.037345998 0.70999998 -0.043570329 6.7093946e-39 290 275
-0.03599944 0.708 -0.043447599 6.4331679e-39 291 275
-0.034708988 0.70700002 -0.043386232 6.0654644e-39 292 275
-0.033469379 0.70700002 -0.043386232 6.0654644e-39 293 275
-0.032184184 0.70599997 -0.043324865 5.97291e-39 294 275
-0.030946331 0.70599997 -0.043324865 5.97291e-39 295 275
-0.029708479 0.70599997 -0.043324865 5.880713e-39 296 275
