# .PCD v.7 - Point Cloud Data file format
FIELDS x y z rgb imX imY
SIZE 4 4 4 4 4 4
TYPE F F F F F F
COUNT 1 1 1 1 1 1
WIDTH 852
HEIGHT 1
VIEWPOINT 0 0 0 1 0 0 0
POINTS 852
DATA ascii
-0.0079425992 0.755 0.0079425992 1.0026672e-38 314 234
-0.0066188332 0.755 0.0079425992 9.3813023e-39 315 234
-0.0052950666 0.755 0.0079425992 1.1031446e-38 316 234
-0.00396604 0.75400001 0.00793208 1.1215839e-38 317 234
-0.0026440267 0.75400001 0.00793208 1.1765762e-38 318 234
-0.0013220133 0.75400001 0.00793208 1.1950513e-38 319 234
0 0.75400001 0.00793208 1.2591561e-38 320 234
0.0013185065 0.75199997 0.0079110395 1.2223137e-38 321 234
0.00263 0.75 0.00789 1.2220969e-38 322 234
0.003945 0.75 0.00789 1.2128774e-38 323 234
0.0052740262 0.75199997 0.0079110395 1.2403563e-38 324 234
0.0065925326 0.75199997 0.0079110395 1.2403563e-38 325 234
0.0079110395 0.75199997 0.0079110395 1.2954934e-38 326 234
0.0092540924 0.75400001 0.00793208 1.2954934e-38 327 234
0.010576107 0.75400001 0.00793208 1.3140399e-38 328 234
0.01189812 0.75400001 0.00793208 1.3232595e-38 329 234
0.013220133 0.75400001 0.00793208 1.3142197e-38 330 234
0.014542146 0.75400001 0.00793208 1.3234394e-38 331 234
0.01586416 0.75400001 0.00793208 1.314327e-38 332 234
0.017186172 0.75400001 0.00793208 1.3051073e-38 333 234
0.018508185 0.75400001 0.00793208 1.2867755e-38 334 234
0.019830201 0.75400001 0.00793208 1.277556e-38 335 234
0.021152213 0.75400001 0.00793208 1.2500773e-38 336 234
0.022474226 0.75400001 0.00793208 1.2039797e-38 337 234
0.023827799 0.755 0.0079425992 1.1393724e-38 338 234
0.025151566 0.755 0.0079425992 1.0932746e-38 339 234
0.026475333 0.755 0.0079425992 9.5537769e-39 340 234
0.027872739 0.75700003 0.0079636406 9.5537769e-39 341 234
0.029200014 0.75700003 0.0079636406 8.3602756e-39 342 234
0.030607941 0.759 0.0079846792 8.1755242e-39 343 234
0.031938717 0.759 0.0079846792 7.8067487e-39 344 234
0.033357166 0.76099998 0.0080057196 8.0833341e-39 345 234
0.034737039 0.76200002 0.0080162399 7.6252399e-39 346 234
0.036167759 0.764 0.0080372803 8.0865781e-39 347 234
0.037654586 0.76700002 0.00806884 7.5384406e-39 348 234
0.038999394 0.76700002 0.00806884 8.2763644e-39 349 234
0.0404494 0.76899999 0.0080898795 8.373948e-39 350 234
0.041797712 0.76899999 0.0080898795 1.3997523e-38 351 234
0.043146025 0.76899999 0.0080898795 1.5666755e-38 352 234
-0.028461859 0.773 0.0067766332 1.2998138e-38 299 235
-0.027036399 0.77100003 0.0067590997 1.0777165e-38 300 235
-0.025617953 0.76899999 0.0067415666 6.7201972e-39 301 235
-0.024206521 0.76700002 0.006724033 7.2686893e-39 302 235
-0.022861714 0.76700002 0.006724033 6.7155155e-39 303 235
-0.02137664 0.76200002 0.0066801999 6.6200801e-39 304 235
-0.0200406 0.76200002 0.0066801999 6.3434932e-39 305 235
-0.018680012 0.76099998 0.0066714329 6.2502213e-39 306 235
-0.017345725 0.76099998 0.0066714329 6.2502213e-39 307 235
-0.016011439 0.76099998 0.0066714329 6.4321141e-39 308 235
-0.014638579 0.759 0.0066538998 6.4321141e-39 309 235
-0.013272733 0.75700003 0.0066363667 6.8070525e-39 310 235
-0.01194546 0.75700003 0.0066363667 9.8491496e-39 311 235
-0.010590133 0.755 0.0066188332 1.0589584e-38 312 235
-0.0092663663 0.755 0.0066188332 7.7315199e-39 313 235
-0.0079425992 0.755 0.0066188332 9.3787813e-39 314 235
-0.0066188332 0.755 0.0066188332 9.3787813e-39 315 235
-0.0052950666 0.755 0.0066188332 1.0020548e-38 316 235
-0.00396604 0.75400001 0.0066100666 1.0205298e-38 317 235
-0.0026440267 0.75400001 0.0066100666 1.0847781e-38 318 235
-0.0013220133 0.75400001 0.0066100666 1.1031812e-38 319 235
0 0.75400001 0.0066100666 1.1765048e-38 320 235
0.0013185065 0.75199997 0.0065925326 1.1580298e-38 321 235
0.00263 0.75 0.006575 1.1945121e-38 322 235
0.003945 0.75 0.006575 1.1945121e-38 323 235
0.0052740262 0.75199997 0.0065925326 1.2036235e-38 324 235
0.0065925326 0.75199997 0.0065925326 1.1944039e-38 325 235
0.00793208 0.75400001 0.0066100666 1.2311014e-38 326 235
0.0092540924 0.75400001 0.0066100666 1.2311014e-38 327 235
0.010576107 0.75400001 0.0066100666 1.2403931e-38 328 235
0.01189812 0.75400001 0.0066100666 1.2496128e-38 329 235
0.013220133 0.75400001 0.0066100666 1.2589043e-38 330 235
0.014542146 0.75400001 0.0066100666 1.2681238e-38 331 235
0.01586416 0.75400001 0.0066100666 1.2591544e-38 332 235
0.017186172 0.75400001 0.0066100666 1.2591544e-38 333 235
0.018508185 0.75400001 0.0066100666 1.2591894e-38 334 235
0.019830201 0.75400001 0.0066100666 1.2499699e-38 335 235
0.021152213 0.75400001 0.0066100666 1.2406784e-38 336 235
0.022504034 0.755 0.0066188332 1.2037641e-38 337 235
0.023827799 0.755 0.0066188332 1.1393006e-38 338 235
0.025151566 0.755 0.0066188332 1.0747638e-38 339 235
0.026475333 0.755 0.0066188332 9.4612281e-39 340 235
0.027872739 0.75700003 0.0066363667 9.2768369e-39 341 235
0.029200014 0.75700003 0.0066363667 7.8996631e-39 342 235
0.030607941 0.759 0.0066538998 7.8074675e-39 343 235
0.031938717 0.759 0.0066538998 7.5316037e-39 344 235
0.033357166 0.76099998 0.0066714329 7.8081892e-39 345 235
0.034737039 0.76200002 0.0066801999 7.1678631e-39 346 235
0.036167759 0.764 0.006697733 7.6288398e-39 347 235
0.037605491 0.76599997 0.0067152665 7.4483988e-39 348 235
0.039101087 0.76899999 0.0067415666 8.7391376e-39 349 235
0.0404494 0.76899999 0.0067415666 1.0035262e-38 350 235
0.041797712 0.76899999 0.0067415666 1.4737239e-38 351 235
-0.025617953 0.76899999 0.0053932532 6.7227056e-39 301 236
-0.024206521 0.76700002 0.0053792265 7.4530777e-39 302 236
-0.022861714 0.76700002 0.0053792265 6.6233171e-39 303 236
-0.02137664 0.76200002 0.0053441599 6.528253e-39 304 236
-0.0200406 0.76200002 0.0053441599 6.2516675e-39 305 236
-0.018680012 0.76099998 0.0053371461 6.34314e-39 306 236
-0.017345725 0.76099998 0.0053371461 6.2509444e-39 307 236
-0.016011439 0.76099998 0.0053371461 6.432833e-39 308 236
-0.014638579 0.759 0.0053231199 6.0640518e-39 309 236
-0.013272733 0.75700003 0.0053090933 5.8793285e-39 310 236
-0.01194546 0.75700003 0.0053090933 6.8934818e-39 311 236
-0.010590133 0.755 0.0052950666 7.2633391e-39 312 236
-0.0092663663 0.755 0.0052950666 7.2633391e-39 313 236
-0.0079425992 0.755 0.0052950666 8.6415792e-39 314 236
-0.0066188332 0.755 0.0052950666 8.8263292e-39 315 236
-0.0052950666 0.755 0.0052950666 9.5606446e-39 316 236
-0.00396604 0.75400001 0.0052880533 9.7450373e-39 317 236
-0.0026440267 0.75400001 0.0052880533 1.0387523e-38 318 236
-0.0013220133 0.75400001 0.0052880533 1.0756304e-38 319 236
0 0.75400001 0.0052880533 1.1396986e-38 320 236
0.0013185065 0.75199997 0.0052740262 1.130479e-38 321 236
0.0026370131 0.75199997 0.0052740262 1.1762882e-38 322 236
0.0039555198 0.75199997 0.0052740262 1.1485935e-38 323 236
0.0052740262 0.75199997 0.0052740262 1.1668881e-38 324 236
0.0065925326 0.75199997 0.0052740262 1.1576686e-38 325 236
0.00793208 0.75400001 0.0052880533 1.1850756e-38 326 236
0.0092540924 0.75400001 0.0052880533 1.1758559e-38 327 236
0.010576107 0.75400001 0.0052880533 1.1941877e-38 328 236
0.01189812 0.75400001 0.0052880533 1.2034074e-38 329 236
0.013220133 0.75400001 0.0052880533 1.1942601e-38 330 236
0.014542146 0.75400001 0.0052880533 1.2311382e-38 331 236
0.01586416 0.75400001 0.0052880533 1.2221336e-38 332 236
0.017186172 0.75400001 0.0052880533 1.2405728e-38 333 236
0.018508185 0.75400001 0.0052880533 1.2221685e-38 334 236
0.019830201 0.75400001 0.0052880533 1.212949e-38 335 236
0.021152213 0.75400001 0.0052880533 1.1944742e-38 336 236
0.022504034 0.755 0.0052950666 1.1668516e-38 337 236
0.023827799 0.755 0.0052950666 1.0840202e-38 338 236
0.025151566 0.755 0.0052950666 1.0563255e-38 339 236
0.026545467 0.75700003 0.0053090933 9.0016919e-39 340 236
0.027872739 0.75700003 0.0053090933 8.6332681e-39 341 236
0.029277159 0.759 0.0053231199 7.7145558e-39 342 236
0.030607941 0.759 0.0053231199 7.7145558e-39 343 236
0.032022879 0.76099998 0.0053371461 7.4401297e-39 344 236
0.033357166 0.76099998 0.0053371461 7.809271e-39 345 236
0.034737039 0.76200002 0.0053441599 7.1693008e-39 346 236
0.036167759 0.764 0.0053581866 7.8146702e-39 347 236
0.037605491 0.76599997 0.0053722127 8.0019229e-39 348 236
0.039101087 0.76899999 0.0053932532 9.7532797e-39 349 236
0.0404494 0.76899999 0.0053932532 1.1328516e-38 350 236
0.041797712 0.76899999 0.0053932532 1.5108537e-38 351 236
-0.024269639 0.76899999 0.0040449398 7.7289416e-39 302 237
-0.022921326 0.76899999 0.0040449398 6.6229541e-39 303 237
-0.02137664 0.76200002 0.0040081199 6.6204458e-39 304 237
-0.0200406 0.76200002 0.0040081199 6.1598278e-39 305 237
-0.01870456 0.76200002 0.0040081199 6.34314e-39 306 237
-0.01736852 0.76200002 0.0040081199 6.34314e-39 307 237
-0.016011439 0.76099998 0.0040028598 6.4331833e-39 308 237
-0.014638579 0.759 0.0039923396 6.3409877e-39 309 237
-0.0133078 0.759 0.0039923396 6.3388437e-39 310 237
-0.01194546 0.75700003 0.0039818203 6.6154292e-39 311 237
-0.010590133 0.755 0.0039712996 7.0771304e-39 312 237
-0.0092663663 0.755 0.0039712996 7.4459129e-39 313 237
-0.0079425992 0.755 0.0039712996 7.9990811e-39 314 237
-0.0066188332 0.755 0.0039712996 8.1838311e-39 315 237
-0.0052950666 0.755 0.0039712996 8.8266767e-39 316 237
-0.0039712996 0.755 0.0039712996 8.9188724e-39 317 237
-0.0026440267 0.75400001 0.00396604 1.0020182e-38 318 237
-0.0013220133 0.75400001 0.00396604 1.0204932e-38 319 237
0 0.75400001 0.00396604 1.0847055e-38 320 237
0.0013220133 0.75400001 0.00396604 1.07545e-38 321 237
0.0026440267 0.75400001 0.00396604 1.1120392e-38 322 237
0.00396604 0.75400001 0.00396604 1.0936361e-38 323 237
0.0052880533 0.75400001 0.00396604 1.1209708e-38 324 237
0.0066100666 0.75400001 0.00396604 1.0932761e-38 325 237
0.00793208 0.75400001 0.00396604 1.1298307e-38 326 237
0.0092540924 0.75400001 0.00396604 1.1206111e-38 327 237
0.010576107 0.75400001 0.00396604 1.1297588e-38 328 237
0.01189812 0.75400001 0.00396604 1.1297588e-38 329 237
0.013220133 0.75400001 0.00396604 1.1481619e-38 330 237
0.014542146 0.75400001 0.00396604 1.1573814e-38 331 237
0.01586416 0.75400001 0.00396604 1.166601e-38 332 237
0.017186172 0.75400001 0.00396604 1.1850761e-38 333 237
0.018508185 0.75400001 0.00396604 1.1575249e-38 334 237
0.019830201 0.75400001 0.00396604 1.1390499e-38 335 237
0.021180267 0.755 0.0039712996 1.1481616e-38 336 237
0.022504034 0.755 0.0039712996 1.1205389e-38 337 237
0.023827799 0.755 0.0039712996 1.0471063e-38 338 237
0.025218192 0.75700003 0.0039818203 1.0102282e-38 339 237
0.026545467 0.75700003 0.0039818203 8.7251078e-39 340 237
0.027946379 0.759 0.0039923396 8.3570428e-39 341 237
0.029277159 0.759 0.0039923396 7.5305275e-39 342 237
0.030607941 0.759 0.0039923396 7.6227231e-39 343 237
0.032022879 0.76099998 0.0040028598 6.8905531e-39 344 237
0.033401001 0.76200002 0.0040081199 7.3515312e-39 345 237
0.034737039 0.76200002 0.0040081199 7.0785401e-39 346 237
0.036167759 0.764 0.0040186401 8.0001362e-39 347 237
0.037654586 0.76700002 0.00403442 8.5576078e-39 348 237
0.039101087 0.76899999 0.0040449398 1.040152e-38 349 237
0.040554602 0.77100003 0.0040554604 1.2528494e-38 350 237
0.04190642 0.77100003 0.0040554604 1.5386198e-38 351 237
-0.024269639 0.76899999 0.0026966266 8.374311e-39 302 238
-0.022921326 0.76899999 0.0026966266 7.0835721e-39 303 238
-0.021432746 0.764 0.0026790933 6.8963068e-39 304 238
-0.0200406 0.76200002 0.00267208 6.6200801e-39 305 238
-0.01870456 0.76200002 0.00267208 6.6190039e-39 306 238
-0.01736852 0.76200002 0.00267208 6.5264495e-39 307 238
-0.016011439 0.76099998 0.0026685731 6.6186479e-39 308 238
-0.014677152 0.76099998 0.0026685731 6.3424212e-39 309 238
-0.0133078 0.759 0.00266156 6.5253831e-39 310 238
-0.01197702 0.759 0.00266156 6.4331861e-39 311 238
-0.010618187 0.75700003 0.0026545466 6.6168753e-39 312 238
-0.0092909131 0.75700003 0.0026545466 6.9856564e-39 313 238
-0.0079425992 0.755 0.0026475333 6.8963334e-39 314 238
-0.0066188332 0.755 0.0026475333 7.4495072e-39 315 238
-0.0052950666 0.755 0.0026475333 8.1838283e-39 316 238
-0.0039712996 0.755 0.0026475333 8.4604151e-39 317 238
-0.0026475333 0.755 0.0026475333 9.286936e-39 318 238
-0.0013237667 0.755 0.0026475333 9.3791316e-39 319 238
0 0.755 0.0026475333 1.011345e-38 320 238
0.0013220133 0.75400001 0.0026440267 1.0021254e-38 321 238
0.0026440267 0.75400001 0.0026440267 1.0478623e-38 322 238
0.00396604 0.75400001 0.0026440267 1.0294231e-38 323 238
0.0052880533 0.75400001 0.0026440267 1.0567223e-38 324 238
0.0066100666 0.75400001 0.0026440267 1.0198799e-38 325 238
0.00793208 0.75400001 0.0026440267 1.0747654e-38 326 238
0.0092540924 0.75400001 0.0026440267 1.0655099e-38 327 238
0.010576107 0.75400001 0.0026440267 1.0563258e-38 328 238
0.01189812 0.75400001 0.0026440267 1.0471063e-38 329 238
0.013220133 0.75400001 0.0026440267 1.0745854e-38 330 238
0.014542146 0.75400001 0.0026440267 1.06533e-38 331 238
0.01586416 0.75400001 0.0026440267 1.0654385e-38 332 238
0.017186172 0.75400001 0.0026440267 1.0746582e-38 333 238
0.018532733 0.755 0.0026475333 1.0747298e-38 334 238
0.0198565 0.755 0.0026475333 1.0562905e-38 335 238
0.021180267 0.755 0.0026475333 1.0562186e-38 336 238
0.022504034 0.755 0.0026475333 1.0469991e-38 337 238
0.02389092 0.75700003 0.0026545466 9.6438271e-39 338 238
0.025218192 0.75700003 0.0026545466 9.4590757e-39 339 238
0.026615599 0.759 0.00266156 8.4488797e-39 340 238
0.027946379 0.759 0.00266156 8.0815321e-39 341 238
0.029277159 0.759 0.00266156 7.5305233e-39 342 238
0.030688593 0.76099998 0.0026685731 7.7152747e-39 343 238
0.032022879 0.76099998 0.0026685731 6.8912748e-39 344 238
0.033401001 0.76200002 0.00267208 7.1678631e-39 345 238
0.034737039 0.76200002 0.00267208 7.0810582e-39 346 238
0.036167759 0.764 0.0026790933 8.09485e-39 347 238
0.037654586 0.76700002 0.0026896133 9.0189391e-39 348 238
0.039101087 0.76899999 0.0026966266 1.1047243e-38 349 238
0.0406598 0.773 0.0027106532 1.3451522e-38 350 238
0.042015124 0.773 0.0027106532 1.5571663e-38 351 238
-0.024395877 0.773 0.0013553266 8.8374415e-39 302 239
-0.02298094 0.77100003 0.00135182 7.4545057e-39 303 239
-0.021432746 0.764 0.0013395466 7.1732538e-39 304 239
-0.020093199 0.764 0.0013395466 6.6200801e-39 305 239
-0.01870456 0.76200002 0.00133604 6.6204458e-39 306 239
-0.01736852 0.76200002 0.00133604 6.6204458e-39 307 239
-0.01603248 0.76200002 0.00133604 6.2534612e-39 308 239
-0.014677152 0.76099998 0.0013342865 5.9768757e-39 309 239
-0.0133078 0.759 0.00133078 6.1583915e-39 310 239
-0.01197702 0.759 0.00133078 5.9743603e-39 311 239
-0.010618187 0.75700003 0.0013272733 6.3402688e-39 312 239
-0.0092909131 0.75700003 0.0013272733 6.7086926e-39 313 239
-0.0079636406 0.75700003 0.0013272733 6.9863599e-39 314 239
-0.0066188332 0.755 0.0013237667 7.4473394e-39 315 239
-0.0052950666 0.755 0.0013237667 8.1831094e-39 316 239
-0.0039712996 0.755 0.0013237667 8.5515318e-39 317 239
-0.0026475333 0.755 0.0013237667 9.0114253e-39 318 239
-0.0013237667 0.755 0.0013237667 9.3798477e-39 319 239
0 0.755 0.0013237667 9.6542738e-39 320 239
0.0013220133 0.75400001 0.0013220133 9.6542738e-39 321 239
0.0026440267 0.75400001 0.0013220133 1.0019815e-38 322 239
0.00396604 0.75400001 0.0013220133 9.6506739e-39 323 239
0.0052880533 0.75400001 0.0013220133 1.0474672e-38 324 239
0.0066100666 0.75400001 0.0013220133 1.010625e-38 325 239
0.00793208 0.75400001 0.0013220133 1.0197717e-38 326 239
0.0092540924 0.75400001 0.0013220133 9.9214888e-39 327 239
0.010576107 0.75400001 0.0013220133 1.019448e-38 328 239
0.01189812 0.75400001 0.0013220133 1.0102284e-38 329 239
0.013220133 0.75400001 0.0013220133 1.0285592e-38 330 239
0.014542146 0.75400001 0.0013220133 1.0285592e-38 331 239
0.01586416 0.75400001 0.0013220133 1.0561103e-38 332 239
0.017186172 0.75400001 0.0013220133 1.0745136e-38 333 239
0.018532733 0.755 0.0013237667 1.0469625e-38 334 239
0.0198565 0.755 0.0013237667 1.0653656e-38 335 239
0.021180267 0.755 0.0013237667 9.9189693e-39 336 239
0.022563647 0.75700003 0.0013272733 9.8267736e-39 337 239
0.02389092 0.75700003 0.0013272733 9.0917309e-39 338 239
0.025284819 0.759 0.00133078 8.6325464e-39 339 239
0.026615599 0.759 0.00133078 7.9896966e-39 340 239
0.027946379 0.759 0.00133078 7.9896966e-39 341 239
0.029354304 0.76099998 0.0013342865 7.256093e-39 342 239
0.030688593 0.76099998 0.0013342865 7.4404829e-39 343 239
0.032064959 0.76200002 0.00133604 6.7079625e-39 344 239
0.033401001 0.76200002 0.00133604 7.2607775e-39 345 239
0.034828212 0.764 0.0013395466 7.3565689e-39 346 239
0.036167759 0.764 0.0013395466 8.6473077e-39 347 239
0.037654586 0.76700002 0.0013448066 9.2958945e-39 348 239
0.039304473 0.773 0.0013553266 1.1969569e-38 349 239
0.040712398 0.77399999 0.0013570799 1.4191978e-38 350 239
-0.024395877 0.773 -0 1.0220009e-38 302 240
-0.023040552 0.773 -0 8.4679331e-39 303 240
-0.021573013 0.76899999 -0 8.0952059e-39 304 240
-0.020172099 0.76700002 -0 6.9888598e-39 305 240
-0.018753653 0.764 -0 6.8963068e-39 306 240
-0.01736852 0.76200002 -0 6.8963068e-39 307 240
-0.01603248 0.76200002 -0 6.6207989e-39 308 240
-0.014677152 0.76099998 -0 6.4364077e-39 309 240
-0.013342866 0.76099998 -0 6.34314e-39 310 240
-0.012008579 0.76099998 -0 5.9743575e-39 311 240
-0.010674292 0.76099998 -0 6.0647707e-39 312 240
-0.00931546 0.759 -0 6.0647707e-39 313 240
-0.0079636406 0.75700003 -0 6.1584181e-39 314 240
-0.0066363667 0.75700003 -0 6.7115919e-39 315 240
-0.0052950666 0.755 -0 7.0800142e-39 316 240
-0.0039712996 0.755 -0 7.3569613e-39 317 240
-0.0026475333 0.755 -0 7.908333e-39 318 240
-0.0013237667 0.755 -0 8.0927242e-39 319 240
0 0.755 -0 8.6455351e-39 320 240
0.0013220133 0.75400001 -0 8.5529807e-39 321 240
0.0026440267 0.75400001 -0 9.1025406e-39 322 240
0.00396604 0.75400001 -0 8.8263138e-39 323 240
0.0052880533 0.75400001 -0 9.2833193e-39 324 240
0.0066100666 0.75400001 -0 9.1911236e-39 325 240
0.00793208 0.75400001 -0 9.4655469e-39 326 240
0.0092540924 0.75400001 -0 9.0042086e-39 327 240
0.010576107 0.75400001 -0 9.1860888e-39 328 240
0.01189812 0.75400001 -0 9.0938931e-39 329 240
0.013237666 0.755 -0 9.2757663e-39 330 240
0.014561433 0.755 -0 9.3679633e-39 331 240
0.015885198 0.755 -0 9.3679633e-39 332 240
0.017208965 0.755 -0 9.3679633e-39 333 240
0.018532733 0.755 -0 9.369401e-39 334 240
0.0198565 0.755 -0 9.369401e-39 335 240
0.021236373 0.75700003 -0 9.186086e-39 336 240
0.022563647 0.75700003 -0 8.7251078e-39 337 240
0.023954039 0.759 -0 8.3570456e-39 338 240
0.025284819 0.759 -0 8.0815349e-39 339 240
0.026615599 0.759 -0 7.7141957e-39 340 240
0.028020019 0.76099998 -0 7.806034e-39 341 240
0.029354304 0.76099998 -0 7.4404829e-39 342 240
0.030728921 0.76200002 -0 7.7170698e-39 343 240
0.032064959 0.76200002 -0 7.0756674e-39 344 240
0.033576332 0.76599997 -0 7.5366442e-39 345 240
0.034919381 0.76599997 -0 7.5434937e-39 346 240
0.036309779 0.76700002 -0 8.4658101e-39 347 240
0.037654586 0.76700002 -0 9.9416409e-39 348 240
0.039304473 0.773 -0 1.2984095e-38 349 240
-0.024395877 0.773 -0.0013553266 1.1420361e-38 302 241
-0.023040552 0.773 -0.0013553266 8.6544922e-39 303 241
-0.021573013 0.76899999 -0.0013483133 8.5565414e-39 304 241
-0.0202247 0.76899999 -0.0013483133 7.6342264e-39 305 241
-0.018827293 0.76700002 -0.0013448066 7.082503e-39 306 241
-0.017414106 0.764 -0.0013395466 6.7133617e-39 307 241
-0.01603248 0.76200002 -0.00133604 6.6204486e-39 308 241
-0.01469644 0.76200002 -0.00133604 6.4360573e-39 309 241
-0.013342866 0.76099998 -0.0013342865 6.3427841e-39 310 241
-0.012008579 0.76099998 -0.0013342865 6.1583915e-39 311 241
-0.010674292 0.76099998 -0.0013342865 6.2480704e-39 312 241
-0.00931546 0.759 -0.00133078 6.1558747e-39 313 241
-0.0079636406 0.75700003 -0.0013272733 6.523581e-39 314 241
-0.0066363667 0.75700003 -0.0013272733 6.8005281e-39 315 241
-0.0052950666 0.755 -0.0013237667 7.2611517e-39 316 241
-0.0039712996 0.755 -0.0013237667 7.4455444e-39 317 241
-0.0026475333 0.755 -0.0013237667 7.8121787e-39 318 241
-0.0013237667 0.755 -0.0013237667 8.2731554e-39 319 241
0 0.755 -0.0013237667 8.3660685e-39 320 241
0.0013237667 0.755 -0.0013237667 8.4586229e-39 321 241
0.0026475333 0.755 -0.0013237667 8.6415666e-39 322 241
0.0039712996 0.755 -0.0013237667 8.6415666e-39 323 241
0.0052950666 0.755 -0.0013237667 9.0081799e-39 324 241
0.0066188332 0.755 -0.0013237667 8.9156256e-39 325 241
0.0079425992 0.755 -0.0013237667 8.8223425e-39 326 241
0.0092663663 0.755 -0.0013237667 8.6379499e-39 327 241
0.010590133 0.755 -0.0013237667 9.0027765e-39 328 241
0.011913899 0.755 -0.0013237667 8.8180265e-39 329 241
0.013237666 0.755 -0.0013237667 9.0931687e-39 330 241
0.014561433 0.755 -0.0013237667 9.0931687e-39 331 241
0.015885198 0.755 -0.0013237667 9.4594317e-39 332 241
0.017208965 0.755 -0.0013237667 9.4594317e-39 333 241
0.018532733 0.755 -0.0013237667 9.3683136e-39 334 241
0.019909101 0.75700003 -0.0013272733 9.5523447e-39 335 241
0.021236373 0.75700003 -0.0013272733 9.184637e-39 336 241
0.02262326 0.759 -0.00133078 8.6325408e-39 337 241
0.023954039 0.759 -0.00133078 7.9896938e-39 338 241
0.025284819 0.759 -0.00133078 7.7141845e-39 339 241
0.026685731 0.76099998 -0.0013342865 7.2550112e-39 340 241
0.028020019 0.76099998 -0.0013342865 7.5308792e-39 341 241
0.029354304 0.76099998 -0.0013342865 7.1664169e-39 342 241
0.030728921 0.76200002 -0.00133604 7.4426437e-39 343 241
0.032149121 0.764 -0.0013395466 6.9859913e-39 344 241
0.033620168 0.76700002 -0.0013448066 7.5391651e-39 345 241
0.034964975 0.76700002 -0.0013448066 7.6356739e-39 346 241
0.036309779 0.76700002 -0.0013448066 8.9264127e-39 347 241
0.03775277 0.76899999 -0.0013483133 1.0960461e-38 348 241
-0.02433276 0.77100003 -0.0027036399 1.2160813e-38 302 242
-0.02298094 0.77100003 -0.0027036399 9.2109128e-39 303 242
-0.021629119 0.77100003 -0.0027036399 8.8349206e-39 304 242
-0.0202247 0.76899999 -0.0026966266 7.728573e-39 305 242
-0.018876385 0.76899999 -0.0026966266 7.5431126e-39 306 242
-0.017482487 0.76700002 -0.0026896133 7.1739699e-39 307 242
-0.01613768 0.76700002 -0.0026896133 6.9885067e-39 308 242
-0.01469644 0.76200002 -0.00267208 6.804114e-39 309 242
-0.0133604 0.76200002 -0.00267208 6.7108436e-39 310 242
-0.01202436 0.76200002 -0.00267208 6.5264523e-39 311 242
-0.010674292 0.76099998 -0.0026685731 6.6161326e-39 312 242
-0.0093400059 0.76099998 -0.0026685731 6.2473515e-39 313 242
-0.0079846792 0.759 -0.00266156 6.24772e-39 314 242
-0.0066363667 0.75700003 -0.0026545466 6.4321113e-39 315 242
-0.0053090933 0.75700003 -0.0026545466 6.431761e-39 316 242
-0.0039818203 0.75700003 -0.0026545466 6.7083479e-39 317 242
-0.0026475333 0.755 -0.0026475333 6.8916699e-39 318 242
-0.0013237667 0.755 -0.0026475333 7.2600923e-39 319 242
0 0.755 -0.0026475333 7.3530082e-39 320 242
0.0013237667 0.755 -0.0026475333 7.4452038e-39 321 242
0.0026475333 0.755 -0.0026475333 7.8136164e-39 322 242
0.0039712996 0.755 -0.0026475333 7.905812e-39 323 242
0.0052950666 0.755 -0.0026475333 8.1809444e-39 324 242
0.0066188332 0.755 -0.0026475333 8.0887488e-39 325 242
0.0079425992 0.755 -0.0026475333 8.086225e-39 326 242
0.0092663663 0.755 -0.0026475333 7.7174425e-39 327 242
0.010590133 0.755 -0.0026475333 7.9907854e-39 328 242
0.011913899 0.755 -0.0026475333 8.2673723e-39 329 242
0.013237666 0.755 -0.0026475333 9.187158e-39 330 242
0.014561433 0.755 -0.0026475333 9.3715492e-39 331 242
0.015885198 0.755 -0.0026475333 9.8296435e-39 332 242
0.017208965 0.755 -0.0026475333 9.9218391e-39 333 242
0.018581826 0.75700003 -0.0026545466 1.02899e-38 334 242
0.019909101 0.75700003 -0.0026545466 1.0105149e-38 335 242
0.02129248 0.759 -0.00266156 9.5516119e-39 336 242
0.02262326 0.759 -0.00266156 8.6325366e-39 337 242
0.023954039 0.759 -0.00266156 7.4386752e-39 338 242
0.025284819 0.759 -0.00266156 7.7141817e-39 339 242
0.026685731 0.76099998 -0.0026685731 7.2550154e-39 340 242
0.028020019 0.76099998 -0.0026685731 7.5316037e-39 341 242
0.029392879 0.76200002 -0.00267208 6.891272e-39 342 242
0.030728921 0.76200002 -0.00267208 7.3522501e-39 343 242
0.032149121 0.764 -0.0026790933 6.9877906e-39 344 242
0.033620168 0.76700002 -0.0026896133 7.6331586e-39 345 242
0.034964975 0.76700002 -0.0026896133 7.5456293e-39 346 242
0.036404461 0.76899999 -0.0026966266 8.9285651e-39 347 242
0.03775277 0.76899999 -0.0026966266 1.2160803e-38 348 242
-0.02433276 0.77100003 -0.0040554604 1.2717589e-38 302 243
-0.02298094 0.77100003 -0.0040554604 1.0136112e-38 303 243
-0.021685226 0.773 -0.0040659797 9.5750037e-39 304 243
-0.020277301 0.77100003 -0.0040554604 8.0998723e-39 305 243
-0.018876385 0.76899999 -0.0040449398 7.9136873e-39 306 243
-0.017528072 0.76899999 -0.0040449398 7.2683179e-39 307 243
-0.01613768 0.76700002 -0.00403442 7.0828533e-39 308 243
-0.014773586 0.76599997 -0.0040291594 6.898462e-39 309 243
-0.0133604 0.76200002 -0.0040081199 6.8963096e-39 310 243
-0.01202436 0.76200002 -0.0040081199 6.6200829e-39 311 243
-0.01068832 0.76200002 -0.0040081199 6.618285e-39 312 243
-0.0093522798 0.76200002 -0.0040081199 6.4335336e-39 313 243
-0.0080057196 0.76099998 -0.0040028598 6.5239342e-39 314 243
-0.0066538998 0.759 -0.0039923396 6.5239342e-39 315 243
-0.0053090933 0.75700003 -0.0039818203 6.6150578e-39 316 243
-0.0039818203 0.75700003 -0.0039818203 6.6150578e-39 317 243
-0.0026545466 0.75700003 -0.0039818203 7.0731675e-39 318 243
-0.0013237667 0.755 -0.0039712996 7.2575588e-39 319 243
0 0.755 -0.0039712996 7.0746108e-39 320 243
0.0013237667 0.755 -0.0039712996 7.3511963e-39 321 243
0.0026475333 0.755 -0.0039712996 7.2600797e-39 322 243
0.0039712996 0.755 -0.0039712996 7.5363065e-39 323 243
0.0052950666 0.755 -0.0039712996 7.7196061e-39 324 243
0.0066188332 0.755 -0.0039712996 7.4433793e-39 325 243
0.0079425992 0.755 -0.0039712996 7.2564672e-39 326 243
0.0092663663 0.755 -0.0039712996 6.7040108e-39 327 243
0.010590133 0.755 -0.0039712996 7.7142013e-39 328 243
0.011913899 0.755 -0.0039712996 8.6329276e-39 329 243
0.013237666 0.755 -0.0039712996 9.2800865e-39 330 243
0.014561433 0.755 -0.0039712996 9.7407045e-39 331 243
0.015885198 0.755 -0.0039712996 9.832177e-39 332 243
0.017254554 0.75700003 -0.0039818203 1.0016568e-38 333 243
0.018581826 0.75700003 -0.0039818203 1.0570822e-38 334 243
0.0199617 0.759 -0.0039923396 1.038643e-38 335 243
0.02129248 0.759 -0.0039923396 9.18896e-39 336 243
0.02262326 0.759 -0.0039923396 8.1748081e-39 337 243
0.023954039 0.759 -0.0039923396 7.8978541e-39 338 243
0.025351444 0.76099998 -0.0040028598 7.8060172e-39 339 243
0.026685731 0.76099998 -0.0040028598 6.7039912e-39 340 243
0.028020019 0.76099998 -0.0040028598 7.3493606e-39 341 243
0.029392879 0.76200002 -0.0040081199 7.0760219e-39 342 243
0.030728921 0.76200002 -0.0040081199 7.5366414e-39 343 243
0.03227536 0.76700002 -0.00403442 7.081424e-39 344 243
0.033620168 0.76700002 -0.00403442 7.818989e-39 345 243
0.035056144 0.76899999 -0.0040449398 7.8236581e-39 346 243
0.036404461 0.76899999 -0.0040449398 9.5753751e-39 347 243
0.03775277 0.76899999 -0.0040449398 1.3269311e-38 348 243
-0.024269639 0.76899999 -0.0053932532 1.2904864e-38 302 244
-0.022921326 0.76899999 -0.0053932532 1.0876561e-38 303 244
-0.021573013 0.76899999 -0.0053932532 1.0590603e-38 304 244
-0.0202247 0.76899999 -0.0053932532 8.7466906e-39 305 244
-0.018876385 0.76899999 -0.0053932532 8.5572575e-39 306 244
-0.017482487 0.76700002 -0.0053792265 8.0966395e-39 307 244
-0.016116638 0.76599997 -0.0053722127 7.0853714e-39 308 244
-0.014773586 0.76599997 -0.0053722127 6.8087831e-39 309 244
-0.013395466 0.764 -0.0053581866 6.8981117e-39 310 244
-0.01205592 0.764 -0.0053581866 6.7133617e-39 311 244
-0.01068832 0.76200002 -0.0053441599 6.8955936e-39 312 244
-0.0093522798 0.76200002 -0.0053441599 6.8033979e-39 313 244
-0.0080057196 0.76099998 -0.0053371461 6.6179291e-39 314 244
-0.0066714329 0.76099998 -0.0053371461 6.5257334e-39 315 244
-0.0053231199 0.759 -0.0053231199 6.525016e-39 316 244
-0.0039923396 0.759 -0.0053231199 6.4328203e-39 317 244
-0.0026545466 0.75700003 -0.0053090933 6.7072562e-39 318 244
-0.0013272733 0.75700003 -0.0053090933 6.6150606e-39 319 244
0 0.75700003 -0.0053090933 6.7079751e-39 320 244
0.0013272733 0.75700003 -0.0053090933 6.8001721e-39 321 244
0.0026545466 0.75700003 -0.0053090933 6.8008938e-39 322 244
0.0039818203 0.75700003 -0.0053090933 6.3399157e-39 323 244
0.0053090933 0.75700003 -0.0053090933 5.9697038e-39 324 244
0.0066363667 0.75700003 -0.0053090933 7.2604426e-39 325 244
0.0079636406 0.75700003 -0.0053090933 7.7257368e-39 326 244
0.0092909131 0.75700003 -0.0053090933 9.0164756e-39 327 244
0.010618187 0.75700003 -0.0053090933 1.0946103e-38 328 244
0.01194546 0.75700003 -0.0053090933 1.1222691e-38 329 244
0.013272733 0.75700003 -0.0053090933 1.1317038e-38 330 244
0.014600007 0.75700003 -0.0053090933 1.1501069e-38 331 244
0.015927281 0.75700003 -0.0053090933 1.1224842e-38 332 244
0.017300138 0.759 -0.0053231199 1.1593266e-38 333 244
0.01863092 0.759 -0.0053231199 1.1414272e-38 334 244
0.0199617 0.759 -0.0053231199 1.1598304e-38 335 244
0.02129248 0.759 -0.0053231199 1.0956887e-38 336 244
0.022682872 0.76099998 -0.0053371461 1.1510061e-38 337 244
0.024017159 0.76099998 -0.0053371461 1.2151462e-38 338 244
0.025351444 0.76099998 -0.0053371461 9.8469299e-39 339 244
0.0267208 0.76200002 -0.0053441599 7.4465939e-39 340 244
0.028056841 0.76200002 -0.0053441599 6.5246376e-39 341 244
0.029470026 0.764 -0.0053581866 7.2611335e-39 342 244
0.030809574 0.764 -0.0053581866 7.6295559e-39 343 244
0.03227536 0.76700002 -0.0053792265 7.1761377e-39 344 244
0.033707831 0.76899999 -0.0053932532 7.637476e-39 345 244
0.035056144 0.76899999 -0.0053932532 8.8396079e-39 346 244
0.036404461 0.76899999 -0.0053932532 1.11445e-38 347 244
0.037850961 0.77100003 -0.0054072798 1.4193073e-38 348 244
-0.024269639 0.76899999 -0.0067415666 1.2906669e-38 302 245
-0.022921326 0.76899999 -0.0067415666 1.1523733e-38 303 245
-0.021573013 0.76899999 -0.0067415666 1.1054105e-38 304 245
-0.0202247 0.76899999 -0.0067415666 9.1179969e-39 305 245
-0.018876385 0.76899999 -0.0067415666 9.0200363e-39 306 245
-0.017482487 0.76700002 -0.006724033 8.2821125e-39 307 245
-0.016116638 0.76599997 -0.0067152665 7.9126097e-39 308 245
-0.014773586 0.76599997 -0.0067152665 7.5438286e-39 309 245
-0.013430533 0.76599997 -0.0067152665 7.2668872e-39 310 245
-0.012087479 0.76599997 -0.0067152665 6.8984648e-39 311 245
-0.010716373 0.764 -0.006697733 6.9885095e-39 312 245
-0.0093768267 0.764 -0.006697733 6.8037581e-39 313 245
-0.0080162399 0.76200002 -0.0066801999 6.8033923e-39 314 245
-0.0066801999 0.76200002 -0.0066801999 6.7111967e-39 315 245
-0.0053371461 0.76099998 -0.0066714329 6.8934272e-39 316 245
-0.0040028598 0.76099998 -0.0066714329 6.8012301e-39 317 245
-0.00266156 0.759 -0.0066538998 6.7093946e-39 318 245
-0.0013272733 0.75700003 -0.0066363667 6.5253635e-39 319 245
0 0.75700003 -0.0066363667 6.8008784e-39 320 245
0.0013272733 0.75700003 -0.0066363667 6.8008784e-39 321 245
0.0026545466 0.75700003 -0.0066363667 6.6157767e-39 322 245
0.0039818203 0.75700003 -0.0066363667 5.510148e-39 323 245
0.0053090933 0.75700003 -0.0066363667 4.5918126e-39 324 245
0.0066363667 0.75700003 -0.0066363667 8.6455505e-39 325 245
0.0079636406 0.75700003 -0.0066363667 8.7507109e-39 326 245
0.0092909131 0.75700003 -0.0066363667 1.0502428e-38 327 245
0.010618187 0.75700003 -0.0066363667 1.2343804e-38 328 245
0.01194546 0.75700003 -0.0066363667 1.197538e-38 329 245
0.013272733 0.75700003 -0.0066363667 1.1790986e-38 330 245
0.014600007 0.75700003 -0.0066363667 1.1975378e-38 331 245
0.015969358 0.759 -0.0066538998 1.1700589e-38 332 245
0.017300138 0.759 -0.0066538998 1.2069011e-38 333 245
0.01863092 0.759 -0.0066538998 1.2256276e-38 334 245
0.0199617 0.759 -0.0066538998 1.2348473e-38 335 245
0.021348584 0.76099998 -0.0066714329 1.2441391e-38 336 245
0.022682872 0.76099998 -0.0066714329 1.3271151e-38 337 245
0.024017159 0.76099998 -0.0066714329 1.4191663e-38 338 245
0.02538476 0.76200002 -0.0066801999 1.1425794e-38 339 245
0.0267208 0.76200002 -0.0066801999 8.6505517e-39 340 245
0.028056841 0.76200002 -0.0066801999 5.2393134e-39 341 245
0.029470026 0.764 -0.006697733 7.1703826e-39 342 245
0.030890226 0.76599997 -0.0067152665 7.7235564e-39 343 245
0.032359518 0.76899999 -0.0067415666 7.4534463e-39 344 245
0.033707831 0.76899999 -0.0067415666 8.0988157e-39 345 245
0.03514732 0.77100003 -0.0067590997 1.0224344e-38 346 245
0.036499143 0.77100003 -0.0067590997 1.2528875e-38 347 245
-0.022921326 0.76899999 -0.0080898795 1.2077997e-38 303 246
-0.021573013 0.76899999 -0.0080898795 1.1702008e-38 304 246
-0.0202247 0.76899999 -0.0080898795 1.0042847e-38 305 246
-0.018876385 0.76899999 -0.0080898795 9.6668519e-39 306 246
-0.017528072 0.76899999 -0.0080898795 8.7445354e-39 307 246
-0.01613768 0.76700002 -0.00806884 8.1884848e-39 308 246
-0.014792874 0.76700002 -0.00806884 8.0959304e-39 309 246
-0.013430533 0.76599997 -0.0080583189 7.084668e-39 310 246
-0.012087479 0.76599997 -0.0080583189 6.8080811e-39 311 246
-0.010744425 0.76599997 -0.0080583189 6.989957e-39 312 246
-0.0094013726 0.76599997 -0.0080583189 6.805207e-39 313 246
-0.0080583189 0.76599997 -0.0080583189 6.9881535e-39 314 246
-0.006697733 0.764 -0.0080372803 6.8959579e-39 315 246
-0.0053441599 0.76200002 -0.0080162399 6.8955936e-39 316 246
-0.0040081199 0.76200002 -0.0080162399 6.8033979e-39 317 246
-0.0026685731 0.76099998 -0.0080057196 6.7108436e-39 318 246
-0.0013342865 0.76099998 -0.0080057196 6.7108436e-39 319 246
0 0.759 -0.0079846792 6.7111967e-39 320 246
0.0013272733 0.75700003 -0.0079636406 6.6190011e-39 321 246
0.0026545466 0.75700003 -0.0079636406 6.1576754e-39 322 246
0.0039923396 0.759 -0.0079846792 6.8030448e-39 323 246
0.0053231199 0.759 -0.0079846792 8.2871978e-39 324 246
0.0066538998 0.759 -0.0079846792 1.4095164e-38 325 246
0.0079846792 0.759 -0.0079846792 1.3092891e-38 326 246
0.00931546 0.759 -0.0079846792 1.1433728e-38 327 246
0.01064624 0.759 -0.0079846792 1.1067807e-38 328 246
0.01197702 0.759 -0.0079846792 1.079158e-38 329 246
0.0133078 0.759 -0.0079846792 1.1247519e-38 330 246
0.014638579 0.759 -0.0079846792 1.1615943e-38 331 246
0.015969358 0.759 -0.0079846792 1.1710293e-38 332 246
0.017345725 0.76099998 -0.0080057196 1.1986521e-38 333 246
0.018680012 0.76099998 -0.0080057196 1.1712808e-38 334 246
0.020014299 0.76099998 -0.0080057196 1.1620612e-38 335 246
0.021348584 0.76099998 -0.0080057196 1.180249e-38 336 246
0.022682872 0.76099998 -0.0080057196 1.1618097e-38 337 246
0.02404872 0.76200002 -0.0080162399 1.1434429e-38 338 246
0.02538476 0.76200002 -0.0080162399 1.1065287e-38 339 246
0.026790932 0.764 -0.0080372803 9.9409374e-39 340 246
0.028204117 0.76599997 -0.0080583189 4.962372e-39 341 246
0.029547172 0.76599997 -0.0080583189 6.7111995e-39 342 246
0.030930554 0.76700002 -0.00806884 7.9097427e-39 343 246
0.032359518 0.76899999 -0.0080898795 7.4538022e-39 344 246
0.033707831 0.76899999 -0.0080898795 8.8367381e-39 345 246
0.03514732 0.77100003 -0.0081109209 1.2070415e-38 346 246
-0.021573013 0.76899999 -0.0094381925 1.2441738e-38 304 247
-0.0202247 0.76899999 -0.0094381925 1.1150999e-38 305 247
-0.018876385 0.76899999 -0.0094381925 1.0407657e-38 306 247
-0.017528072 0.76899999 -0.0094381925 9.1169179e-39 307 247
-0.01613768 0.76700002 -0.0094136465 8.7448885e-39 308 247
-0.014792874 0.76700002 -0.0094136465 8.0995191e-39 309 247
-0.013448066 0.76700002 -0.0094136465 8.0044536e-39 310 247
-0.01210326 0.76700002 -0.0094136465 7.5438342e-39 311 247
-0.010758453 0.76700002 -0.0094136465 7.2661711e-39 312 247
-0.0094136465 0.76700002 -0.0094136465 7.0814212e-39 313 247
-0.0080583189 0.76599997 -0.0094013726 6.8981089e-39 314 247
-0.0067152665 0.76599997 -0.0094013726 6.7137176e-39 315 247
-0.0053722127 0.76599997 -0.0094013726 6.9877864e-39 316 247
-0.0040081199 0.76200002 -0.0093522798 6.8955908e-39 317 247
-0.00267208 0.76200002 -0.0093522798 6.8033923e-39 318 247
-0.0013342865 0.76099998 -0.0093400059 6.8033923e-39 319 247
0 0.76099998 -0.0093400059 6.5286005e-39 320 247
0.00133078 0.759 -0.00931546 6.1601781e-39 321 247
0.00266156 0.759 -0.00931546 5.7874607e-39 322 247
0.0039923396 0.759 -0.00931546 8.2767428e-39 323 247
0.0053231199 0.759 -0.00931546 9.9542736e-39 324 247
0.0066538998 0.759 -0.00931546 1.4564055e-38 325 247
0.0079846792 0.759 -0.00931546 1.3558538e-38 326 247
0.0093400059 0.76099998 -0.0093400059 1.0700832e-38 327 247
0.010674292 0.76099998 -0.0093400059 1.0607549e-38 328 247
0.012008579 0.76099998 -0.0093400059 1.0700103e-38 329 247
0.013342866 0.76099998 -0.0093400059 1.0607539e-38 330 247
0.014677152 0.76099998 -0.0093400059 1.0699735e-38 331 247
0.016011439 0.76099998 -0.0093400059 1.0608984e-38 332 247
0.017345725 0.76099998 -0.0093400059 1.0516788e-38 333 247
0.018680012 0.76099998 -0.0093400059 1.0884498e-38 334 247
0.020014299 0.76099998 -0.0093400059 1.0976693e-38 335 247
0.021348584 0.76099998 -0.0093400059 1.1618107e-38 336 247
0.02271268 0.76200002 -0.0093522798 1.1157489e-38 337 247
0.02404872 0.76200002 -0.0093522798 1.1155336e-38 338 247
0.025451386 0.764 -0.0093768267 1.004899e-38 339 247
0.026861066 0.76599997 -0.0094013726 8.9343441e-39 340 247
0.028204117 0.76599997 -0.0094013726 4.0479757e-39 341 247
0.029585747 0.76700002 -0.0094136465 6.8051916e-39 342 247
0.031011207 0.76899999 -0.0094381925 8.0037334e-39 343 247
0.032359518 0.76899999 -0.0094381925 8.5630224e-39 344 247
0.033707831 0.76899999 -0.0094381925 1.0314739e-38 345 247
0.03514732 0.77100003 -0.0094627403 1.3086362e-38 346 247
-0.018876385 0.76899999 -0.010786506 1.1239585e-38 306 248
-0.017528072 0.76899999 -0.010786506 9.8566507e-39 307 248
-0.01613768 0.76700002 -0.010758453 8.9318035e-39 308 248
-0.014792874 0.76700002 -0.010758453 8.2864341e-39 309 248
-0.013448066 0.76700002 -0.010758453 7.9158566e-39 310 248
-0.01210326 0.76700002 -0.010758453 7.3626842e-39 311 248
-0.010758453 0.76700002 -0.010758453 7.2679704e-39 312 248
-0.0094136465 0.76700002 -0.010758453 7.083219e-39 313 248
-0.00806884 0.76700002 -0.010758453 7.0814212e-39 314 248
-0.006724033 0.76700002 -0.010758453 6.89739e-39 315 248
-0.0053722127 0.76599997 -0.010744425 6.9885095e-39 316 248
-0.0040186401 0.764 -0.010716373 6.8963138e-39 317 248
-0.0026790933 0.764 -0.010716373 6.6208017e-39 318 248
-0.00133604 0.76200002 -0.01068832 6.6208017e-39 319 248
0 0.76200002 -0.01068832 6.5286033e-39 320 248
0.0013342865 0.76099998 -0.010674292 6.1598222e-39 321 248
0.0026685731 0.76099998 -0.010674292 5.5116025e-39 322 248
0.0040028598 0.76099998 -0.010674292 8.3696685e-39 323 248
0.0053371461 0.76099998 -0.010674292 1.0506378e-38 324 248
0.0066714329 0.76099998 -0.010674292 1.4101648e-38 325 248
0.0080057196 0.76099998 -0.010674292 1.2729866e-38 326 248
0.0093400059 0.76099998 -0.010674292 1.0333138e-38 327 248
0.01068832 0.76200002 -0.01068832 1.0516448e-38 328 248
0.012008579 0.76099998 -0.010674292 1.0424252e-38 329 248
0.013342866 0.76099998 -0.010674292 1.0240937e-38 330 248
0.014677152 0.76099998 -0.010674292 9.8725148e-39 331 248
0.016011439 0.76099998 -0.010674292 1.0146226e-38 332 248
0.017345725 0.76099998 -0.010674292 9.5008568e-39 333 248
0.018680012 0.76099998 -0.010674292 8.306631e-39 334 248
0.020014299 0.76099998 -0.010674292 8.7676078e-39 335 248
0.021348584 0.76099998 -0.010674292 9.9618322e-39 336 248
0.02271268 0.76200002 -0.01068832 1.042317e-38 337 248
0.02404872 0.76200002 -0.01068832 1.1985101e-38 338 248
0.025518013 0.76599997 -0.010744425 8.1128847e-39 339 248
0.026896132 0.76700002 -0.010758453 5.710018e-39 340 248
0.02824094 0.76700002 -0.010758453 4.2348879e-39 341 248
0.02966289 0.76899999 -0.010786506 7.3605192e-39 342 248
0.031011207 0.76899999 -0.010786506 8.374311e-39 343 248
0.032359518 0.76899999 -0.010786506 1.0315455e-38 344 248
0.033707831 0.76899999 -0.010786506 1.2436314e-38 345 248
-0.017528072 0.76899999 -0.012134819 1.0504184e-38 307 249
-0.01613768 0.76700002 -0.01210326 9.578975e-39 308 249
-0.014792874 0.76700002 -0.01210326 8.6566586e-39 309 249
-0.013483133 0.76899999 -0.012134819 8.7438166e-39 310 249
-0.012134819 0.76899999 -0.012134819 8.1910015e-39 311 249
-0.010786506 0.76899999 -0.012134819 8.0037334e-39 312 249
-0.0094381925 0.76899999 -0.012134819 7.7271465e-39 313 249
-0.0080898795 0.76899999 -0.012134819 7.358364e-39 314 249
-0.006724033 0.76700002 -0.01210326 7.1739727e-39 315 249
-0.0053792265 0.76700002 -0.01210326 7.1732538e-39 316 249
-0.0040291594 0.76599997 -0.012087479 7.0810582e-39 317 249
-0.0026861064 0.76599997 -0.012087479 7.0799834e-39 318 249
-0.0013430532 0.76599997 -0.012087479 6.9877864e-39 319 249
0 0.764 -0.01205592 6.804114e-39 320 249
0.00133604 0.76200002 -0.01202436 6.5278872e-39 321 249
0.00267208 0.76200002 -0.01202436 5.972222e-39 322 249
0.0040028598 0.76099998 -0.012008579 8.3696685e-39 323 249
0.0053371461 0.76099998 -0.012008579 1.0688973e-38 324 249
0.0066801999 0.76200002 -0.01202436 1.4468994e-38 325 249
0.0080162399 0.76200002 -0.01202436 1.2085944e-38 326 249
0.0093522798 0.76200002 -0.01202436 9.689218e-39 327 249
0.01068832 0.76200002 -0.01202436 1.0333504e-38 328 249
0.01202436 0.76200002 -0.01202436 1.0057277e-38 329 249
0.0133604 0.76200002 -0.01202436 9.8735994e-39 330 249
0.01469644 0.76200002 -0.01202436 9.5973727e-39 331 249
0.01603248 0.76200002 -0.01202436 9.2267951e-39 332 249
0.01736852 0.76200002 -0.01202436 8.8576524e-39 333 249
0.01870456 0.76200002 -0.01202436 8.6743402e-39 334 249
0.0200406 0.76200002 -0.01202436 9.0427626e-39 335 249
0.02137664 0.76200002 -0.01202436 1.0146223e-38 336 249
0.022772292 0.764 -0.01205592 1.0791593e-38 337 249
0.024206521 0.76700002 -0.01210326 1.1522674e-38 338 249
0.025551327 0.76700002 -0.01210326 5.6221538e-39 339 249
0.026966266 0.76899999 -0.012134819 5.1510961e-39 340 249
0.028314579 0.76899999 -0.012134819 6.1656081e-39 341 249
0.02966289 0.76899999 -0.012134819 7.7325583e-39 342 249
0.031011207 0.76899999 -0.012134819 9.3920782e-39 343 249
0.032359518 0.76899999 -0.012134819 1.1515446e-38 344 249
-0.01613768 0.76700002 -0.013448066 1.0041764e-38 308 250
-0.014792874 0.76700002 -0.013448066 9.0276131e-39 309 250
-0.013483133 0.76899999 -0.013483133 8.8385359e-39 310 250
-0.012134819 0.76899999 -0.013483133 8.2853621e-39 311 250
-0.010786506 0.76899999 -0.013483133 8.3739578e-39 312 250
-0.0094381925 0.76899999 -0.013483133 7.8211442e-39 313 250
-0.0080898795 0.76899999 -0.013483133 7.7267906e-39 314 250
-0.0067415666 0.76899999 -0.013483133 7.4505638e-39 315 250
-0.0053932532 0.76899999 -0.013483133 7.541679e-39 316 250
-0.00403442 0.76700002 -0.013448066 7.2654523e-39 317 250
-0.0026896133 0.76700002 -0.013448066 7.3565661e-39 318 250
-0.0013448066 0.76700002 -0.013448066 7.3565661e-39 319 250
0 0.76599997 -0.013430533 6.89739e-39 320 250
0.0013430532 0.76599997 -0.013430533 6.89739e-39 321 250
0.0026790933 0.764 -0.013395466 6.3442373e-39 322 250
0.0040081199 0.76200002 -0.0133604 7.6349761e-39 323 250
0.0053441599 0.76200002 -0.0133604 9.2127709e-39 324 250
0.0066801999 0.76200002 -0.0133604 1.3361214e-38 325 250
0.0080162399 0.76200002 -0.0133604 1.2084149e-38 326 250
0.0093522798 0.76200002 -0.0133604 1.0424628e-38 327 250
0.010716373 0.764 -0.013395466 1.0242386e-38 328 250
0.01202436 0.76200002 -0.0133604 1.0150189e-38 329 250
0.0133604 0.76200002 -0.0133604 1.0608283e-38 330 250
0.01469644 0.76200002 -0.0133604 1.0423533e-38 331 250
0.01603248 0.76200002 -0.0133604 9.962914e-39 332 250
0.017414106 0.764 -0.013395466 9.4097402e-39 333 250
0.018802745 0.76599997 -0.013430533 9.6859684e-39 334 250
0.020145798 0.76599997 -0.013430533 1.005511e-38 335 250
0.021488851 0.76599997 -0.013430533 1.1709939e-38 336 250
0.022861714 0.76700002 -0.013448066 1.0880179e-38 337 250
0.024206521 0.76700002 -0.013448066 8.847891e-39 338 250
0.025617953 0.76899999 -0.013483133 3.7771313e-39 339 250
0.026966266 0.76899999 -0.013483133 5.887917e-39 340 250
0.028314579 0.76899999 -0.013483133 7.3634058e-39 341 250
0.02966289 0.76899999 -0.013483133 9.0225797e-39 342 250
-0.014831445 0.76899999 -0.014831445 9.0319319e-39 309 251
-0.013483133 0.76899999 -0.014831445 9.1179969e-39 310 251
-0.012134819 0.76899999 -0.014831445 8.3804318e-39 311 251
-0.01081456 0.77100003 -0.01487002 8.6523426e-39 312 251
-0.0094627403 0.77100003 -0.01487002 8.1913658e-39 313 251
-0.0080898795 0.76899999 -0.014831445 7.9129867e-39 314 251
-0.0067415666 0.76899999 -0.014831445 7.728594e-39 315 251
-0.0053932532 0.76899999 -0.014831445 7.5442e-39 316 251
-0.0040449398 0.76899999 -0.014831445 7.2676145e-39 317 251
-0.0026966266 0.76899999 -0.014831445 7.359087e-39 318 251
-0.0013483133 0.76899999 -0.014831445 7.26689e-39 319 251
0 0.76700002 -0.014792874 6.8988306e-39 320 251
0.0013448066 0.76700002 -0.014792874 6.9910262e-39 321 251
0.0026861064 0.76599997 -0.014773586 6.7137401e-39 322 251
0.0040186401 0.764 -0.014735013 6.2524018e-39 323 251
0.0053581866 0.764 -0.014735013 5.7082608e-39 324 251
0.006697733 0.764 -0.014735013 8.5659666e-39 325 251
0.0080372803 0.764 -0.014735013 9.41012e-39 326 251
0.0093768267 0.764 -0.014735013 1.1623174e-38 327 251
0.010716373 0.764 -0.014735013 1.2540792e-38 328 251
0.01205592 0.764 -0.014735013 1.2172011e-38 329 251
0.013395466 0.764 -0.014735013 1.1712823e-38 330 251
0.014735013 0.764 -0.014735013 1.1344401e-38 331 251
0.016074561 0.764 -0.014735013 1.2446072e-38 332 251
0.017459691 0.76599997 -0.014773586 1.2630824e-38 333 251
0.018827293 0.76700002 -0.014792874 1.309036e-38 334 251
0.020172099 0.76700002 -0.014792874 1.1338283e-38 335 251
0.021516906 0.76700002 -0.014792874 9.9524589e-39 336 251
0.022921326 0.76899999 -0.014831445 6.8181662e-39 337 251
0.024269639 0.76899999 -0.014831445 5.8918687e-39 338 251
0.025617953 0.76899999 -0.014831445 5.6149231e-39 339 251
0.026966266 0.76899999 -0.014831445 7.2712074e-39 340 251
0.028314579 0.76899999 -0.014831445 9.3917069e-39 341 251
0.02966289 0.76899999 -0.014831445 1.0866852e-38 342 251
-0.013553266 0.773 -0.016263919 9.4892933e-39 310 252
-0.012197939 0.773 -0.016263919 8.8439239e-39 311 252
-0.010842613 0.773 -0.016263919 8.8392422e-39 312 252
-0.0094872871 0.773 -0.016263919 8.378264e-39 313 252
-0.0081319595 0.773 -0.016263919 8.5590568e-39 314 252
-0.0067590997 0.77100003 -0.016221842 8.2824685e-39 315 252
-0.0054072798 0.77100003 -0.016221842 8.0973555e-39 316 252
-0.0040554604 0.77100003 -0.016221842 7.9129629e-39 317 252
-0.0027036399 0.77100003 -0.016221842 7.7285758e-39 318 252
-0.0013483133 0.76899999 -0.016179759 7.4519889e-39 319 252
0 0.76899999 -0.016179759 7.3594402e-39 320 252
0.0013448066 0.76700002 -0.01613768 7.3594402e-39 321 252
0.0026896133 0.76700002 -0.01613768 7.0825198e-39 322 252
0.0040291594 0.76599997 -0.016116638 6.4371504e-39 323 252
0.0053722127 0.76599997 -0.016116638 4.6886984e-39 324 252
0.0067152665 0.76599997 -0.016116638 5.6106547e-39 325 252
0.0080583189 0.76599997 -0.016116638 6.2686218e-39 326 252
0.0093768267 0.764 -0.016074561 1.0786208e-38 327 252
0.010716373 0.764 -0.016074561 1.2539001e-38 328 252
0.01205592 0.764 -0.016074561 1.318437e-38 329 252
0.013395466 0.764 -0.016074561 1.3456987e-38 330 252
0.014773586 0.76599997 -0.016116638 1.2442835e-38 331 252
0.016116638 0.76599997 -0.016116638 1.2996012e-38 332 252
0.017459691 0.76599997 -0.016116638 1.3456631e-38 333 252
0.018827293 0.76700002 -0.01613768 1.2995643e-38 334 252
0.020172099 0.76700002 -0.01613768 1.0229774e-38 335 252
0.021516906 0.76700002 -0.01613768 6.8141949e-39 336 252
0.022921326 0.76899999 -0.016179759 4.8780867e-39 337 252
0.024269639 0.76899999 -0.016179759 5.5202093e-39 338 252
0.025617953 0.76899999 -0.016179759 6.9956981e-39 339 252
0.026966266 0.76899999 -0.016179759 9.0193272e-39 340 252
0.028314579 0.76899999 -0.016179759 1.2153979e-38 341 252
-0.012197939 0.773 -0.017619247 8.6631424e-39 311 253
-0.010842613 0.773 -0.017619247 9.1183654e-39 312 253
-0.0094872871 0.773 -0.017619247 8.8414198e-39 313 253
-0.0081319595 0.773 -0.017619247 8.563028e-39 314 253
-0.0067766332 0.773 -0.017619247 8.286081e-39 315 253
-0.0054072798 0.77100003 -0.01757366 7.917653e-39 316 253
-0.0040554604 0.77100003 -0.01757366 7.7332618e-39 317 253
-0.0027036399 0.77100003 -0.01757366 7.6403459e-39 318 253
-0.00135182 0.77100003 -0.01757366 7.4559546e-39 319 253
0 0.77100003 -0.01757366 7.1800908e-39 320 253
0.0013483133 0.76899999 -0.017528072 6.9956981e-39 321 253
0.0026966266 0.76899999 -0.017528072 6.9024277e-39 322 253
