# .PCD v.7 - Point Cloud Data file format
FIELDS x y z rgb imX imY
SIZE 4 4 4 4 4 4
TYPE F F F F F F
COUNT 1 1 1 1 1 1
WIDTH 847
HEIGHT 1
VIEWPOINT 0 0 0 1 0 0 0
POINTS 847
DATA ascii
-0.005140773 0.73299998 0.016707512 1.0303567e-38 316 227
-0.0038555798 0.73299998 0.016707512 1.0672349e-38 317 227
-0.0025703865 0.73299998 0.016707512 1.1130103e-38 318 227
-0.0012659066 0.722 0.016456785 1.0761321e-38 319 227
0 0.722 0.016456785 9.7410576e-39 320 227
0.0012624001 0.72000003 0.0164112 9.5566664e-39 321 227
0.0025248001 0.72000003 0.0164112 9.6488592e-39 322 227
0.0037714199 0.71700001 0.016342819 9.5566635e-39 323 227
0.0050285598 0.71700001 0.016342819 9.0985567e-39 324 227
0.0062857 0.71700001 0.016342819 9.6517304e-39 325 227
0.0075428397 0.71700001 0.016342819 9.4756068e-39 326 227
0.0087999795 0.71700001 0.016342819 8.7380418e-39 327 227
0.01005712 0.71700001 0.016342819 9.0106826e-39 328 227
0.01131426 0.71700001 0.016342819 9.0106826e-39 329 227
0.0125714 0.71700001 0.016342819 8.2763742e-39 330 227
0.013828539 0.71700001 0.016342819 8.2763742e-39 331 227
0.01512776 0.71899998 0.016388407 6.7162582e-39 332 227
0.0164112 0.72000003 0.0164112 7.269432e-39 333 227
0.017673599 0.72000003 0.0164112 4.9829052e-39 334 227
0.0189886 0.722 0.016456785 9.8689149e-39 335 227
-0.037168913 0.73100001 0.01538024 1.5028957e-38 291 228
-0.035887226 0.73100001 0.01538024 1.3545549e-38 292 228
-0.034558199 0.73000002 0.0153592 1.0503452e-38 293 228
-0.033278264 0.73000002 0.0153592 6.2574086e-39 294 228
-0.032129832 0.73299998 0.015422319 4.8744742e-39 295 228
-0.030844638 0.73299998 0.015422319 7.8171617e-39 296 228
-0.029559445 0.73299998 0.015422319 8.9231505e-39 297 228
-0.028274251 0.73299998 0.015422319 9.6617876e-39 298 228
-0.026989058 0.73299998 0.015422319 9.8461788e-39 299 228
-0.025703866 0.73299998 0.015422319 1.0395037e-38 300 228
-0.024418673 0.73299998 0.015422319 1.011881e-38 301 228
-0.023133477 0.73299998 0.015422319 1.0485437e-38 302 228
-0.021937706 0.736 0.015485439 1.0485437e-38 303 228
-0.020647252 0.736 0.015485439 1.0577633e-38 304 228
-0.019356798 0.736 0.015485439 1.0762024e-38 305 228
-0.018066347 0.736 0.015485439 1.0947492e-38 306 228
-0.016775893 0.736 0.015485439 1.0947492e-38 307 228
-0.01544336 0.73400003 0.01544336 1.1039684e-38 308 228
-0.014156413 0.73400003 0.01544336 1.0763096e-38 309 228
-0.012869466 0.73400003 0.01544336 8.9256701e-39 310 228
-0.011566739 0.73299998 0.015422319 8.2803021e-39 311 228
-0.010281546 0.73299998 0.015422319 8.0044368e-39 312 228
-0.0089963535 0.73299998 0.015422319 8.1891882e-39 313 228
-0.0077111595 0.73299998 0.015422319 8.5579609e-39 314 228
-0.0064259665 0.73299998 0.015422319 9.0189391e-39 315 228
-0.0051267464 0.73100001 0.01538024 9.935513e-39 316 228
-0.00384506 0.73100001 0.01538024 1.0027709e-38 317 228
-0.0025633732 0.73100001 0.01538024 1.0943914e-38 318 228
-0.0012659066 0.722 0.015190879 1.0759523e-38 319 228
0 0.722 0.015190879 1.0569724e-38 320 228
0.0012606466 0.71899998 0.01512776 1.0109104e-38 321 228
0.0025212932 0.71899998 0.01512776 1.0200221e-38 322 228
0.0037714199 0.71700001 0.015085679 1.0200221e-38 323 228
0.0050285598 0.71700001 0.015085679 9.834677e-39 324 228
0.0062857 0.71700001 0.015085679 1.0203818e-38 325 228
0.0075428397 0.71700001 0.015085679 9.8371937e-39 326 228
0.0087999795 0.71700001 0.015085679 9.5609669e-39 327 228
0.01005712 0.71700001 0.015085679 8.9174122e-39 328 228
0.01131426 0.71700001 0.015085679 8.8252152e-39 329 228
0.0125714 0.71700001 0.015085679 8.0919802e-39 330 228
0.013828539 0.71700001 0.015085679 8.0919802e-39 331 228
0.01512776 0.71899998 0.01512776 7.2676201e-39 332 228
0.0164112 0.72000003 0.0151488 7.1750657e-39 333 228
0.017722692 0.722 0.015190879 4.8820692e-39 334 228
0.0189886 0.722 0.015190879 7.2791542e-39 335 228
0.020254506 0.722 0.015190879 9.8707156e-39 336 228
-0.035838135 0.73000002 0.014079267 1.0032407e-38 292 229
-0.034463517 0.72799999 0.014040692 8.7416684e-39 293 229
-0.033187091 0.72799999 0.014040692 8.1002492e-39 294 229
-0.032042164 0.73100001 0.014098554 8.7456186e-39 295 229
-0.030844638 0.73299998 0.014137126 9.572857e-39 296 229
-0.029559445 0.73299998 0.014137126 9.6650526e-39 297 229
-0.028274251 0.73299998 0.014137126 9.8505172e-39 298 229
-0.026989058 0.73299998 0.014137126 9.9427129e-39 299 229
-0.025703866 0.73299998 0.014137126 1.0308974e-38 300 229
-0.024418673 0.73299998 0.014137126 1.0032748e-38 301 229
-0.023133477 0.73299998 0.014137126 9.9387472e-39 302 229
-0.021878093 0.73400003 0.014156413 9.5703234e-39 303 229
-0.020591147 0.73400003 0.014156413 9.9365822e-39 304 229
-0.019356798 0.736 0.014194986 1.0120973e-38 305 229
-0.018066347 0.736 0.014194986 1.0396836e-38 306 229
-0.016775893 0.736 0.014194986 1.0489031e-38 307 229
-0.015485439 0.736 0.014194986 1.0489385e-38 308 229
-0.014156413 0.73400003 0.014156413 1.0028406e-38 309 229
-0.012869466 0.73400003 0.014156413 9.016421e-39 310 229
-0.011582521 0.73400003 0.014156413 8.4632472e-39 311 229
-0.010295574 0.73400003 0.014156413 7.7292821e-39 312 229
-0.0090086265 0.73400003 0.014156413 8.0055088e-39 313 229
-0.0077216802 0.73400003 0.014156413 8.6505097e-39 314 229
-0.0064259665 0.73299998 0.014137126 8.8349024e-39 315 229
-0.0051267464 0.73100001 0.014098554 1.0026977e-38 316 229
-0.00384506 0.73100001 0.014098554 1.0119173e-38 317 229
-0.0025633732 0.73100001 0.014098554 1.1035737e-38 318 229
-0.00125714 0.71700001 0.013828539 1.1127933e-38 319 229
0 0.71700001 0.013828539 1.103285e-38 320 229
0.00125714 0.71700001 0.013828539 1.0571872e-38 321 229
0.0025142799 0.71700001 0.013828539 1.0570796e-38 322 229
0.0037714199 0.71700001 0.013828539 1.04786e-38 323 229
0.0050285598 0.71700001 0.013828539 1.0112336e-38 324 229
0.0062857 0.71700001 0.013828539 1.020489e-38 325 229
0.0075428397 0.71700001 0.013828539 9.8364748e-39 326 229
0.0087999795 0.71700001 0.013828539 9.3758554e-39 327 229
0.01005712 0.71700001 0.013828539 8.6408211e-39 328 229
0.01131426 0.71700001 0.013828539 8.6408211e-39 329 229
0.0125714 0.71700001 0.013828539 7.9072218e-39 330 229
0.013828539 0.71700001 0.013828539 7.9994174e-39 331 229
0.01512776 0.71899998 0.013867113 7.5413301e-39 332 229
0.0164112 0.72000003 0.0138864 7.7257214e-39 333 229
0.017722692 0.722 0.013924973 6.1663242e-39 334 229
0.0189886 0.722 0.013924973 6.3510742e-39 335 229
0.020254506 0.722 0.013924973 5.2616501e-39 336 229
0.021460801 0.72000003 0.0138864 1.0701552e-38 337 229
-0.037118066 0.73000002 0.012799333 8.8522224e-39 291 230
-0.035838135 0.73000002 0.012799333 9.9488435e-39 292 230
-0.034463517 0.72799999 0.012764266 9.7644523e-39 293 230
-0.033187091 0.72799999 0.012764266 1.0775716e-38 294 230
-0.032042164 0.73100001 0.012816866 1.0406935e-38 295 230
-0.030844638 0.73299998 0.012851933 1.0588085e-38 296 230
-0.029559445 0.73299998 0.012851933 1.0219304e-38 297 230
-0.028274251 0.73299998 0.012851933 9.7590447e-39 298 230
-0.026989058 0.73299998 0.012851933 9.5746534e-39 299 230
-0.025703866 0.73299998 0.012851933 9.1136781e-39 300 230
-0.024418673 0.73299998 0.012851933 8.7445354e-39 301 230
-0.023133477 0.73299998 0.012851933 8.8352891e-39 302 230
-0.021878093 0.73400003 0.012869466 8.651258e-39 303 230
-0.020591147 0.73400003 0.012869466 9.2926617e-39 304 230
-0.019356798 0.736 0.012904533 9.5688885e-39 305 230
-0.018066347 0.736 0.012904533 9.7536329e-39 306 230
-0.016775893 0.736 0.012904533 9.8458285e-39 307 230
-0.015485439 0.736 0.012904533 9.6625134e-39 308 230
-0.014156413 0.73400003 0.012869466 9.4781222e-39 309 230
-0.012869466 0.73400003 0.012869466 8.8327556e-39 310 230
-0.011582521 0.73400003 0.012869466 8.3717788e-39 311 230
-0.010295574 0.73400003 0.012869466 7.8218448e-39 312 230
-0.0090086265 0.73400003 0.012869466 8.1902672e-39 313 230
-0.0077216802 0.73400003 0.012869466 8.7430725e-39 314 230
-0.0061717331 0.704 0.012343466 9.0200181e-39 315 230
-0.0049373866 0.704 0.012343466 1.0304642e-38 316 230
-0.0037135598 0.70599997 0.012378532 1.058123e-38 317 230
-0.0024757064 0.70599997 0.012378532 1.1131886e-38 318 230
-0.0012396066 0.70700002 0.012396066 1.103969e-38 319 230
0 0.713 0.012501267 1.1129721e-38 320 230
0.0012501266 0.713 0.012501267 1.0391797e-38 321 230
0.0025107733 0.71600002 0.012553867 1.084774e-38 322 230
0.00376616 0.71600002 0.012553867 1.0663347e-38 323 230
0.0050215465 0.71600002 0.012553867 1.0480401e-38 324 230
0.0062769335 0.71600002 0.012553867 1.0203815e-38 325 230
0.00753232 0.71600002 0.012553867 9.6510116e-39 326 230
0.0087877065 0.71600002 0.012553867 9.4666189e-39 327 230
0.010043093 0.71600002 0.012553867 8.6408239e-39 328 230
0.01129848 0.71600002 0.012553867 8.5482696e-39 329 230
0.012553867 0.71600002 0.012553867 7.8150261e-39 330 230
0.013809253 0.71600002 0.012553867 7.8150261e-39 331 230
0.015085679 0.71700001 0.0125714 7.1736224e-39 332 230
0.016388407 0.71899998 0.012606465 7.265818e-39 333 230
0.017649053 0.71899998 0.012606465 6.8077279e-39 334 230
0.018935999 0.72000003 0.012624 6.5314998e-39 335 230
0.020198401 0.72000003 0.012624 4.5165293e-39 336 230
-0.035838135 0.73000002 0.011519399 1.1606929e-38 292 231
-0.034558199 0.73000002 0.011519399 1.2159744e-38 293 231
-0.033278264 0.73000002 0.011519399 1.1421816e-38 294 231
-0.032042164 0.73100001 0.01153518 1.0499499e-38 295 231
-0.029708479 0.70599997 0.011140679 1.03097e-38 296 231
-0.028470624 0.70599997 0.011140679 9.9409178e-39 297 231
-0.027232772 0.70599997 0.011140679 9.018614e-39 298 231
-0.025994917 0.70599997 0.011140679 8.4654402e-39 299 231
-0.024757065 0.70599997 0.011140679 8.095227e-39 300 231
-0.023519212 0.70599997 0.011140679 7.8186387e-39 301 231
-0.022281358 0.70599997 0.011140679 7.9104714e-39 302 231
-0.021043506 0.70599997 0.011140679 8.1866995e-39 303 231
-0.020591147 0.73400003 0.011582521 8.5529681e-39 304 231
-0.019356798 0.736 0.01161408 8.9217492e-39 305 231
-0.018066347 0.736 0.01161408 8.9238974e-39 306 231
-0.016775893 0.736 0.01161408 9.2923212e-39 307 231
-0.015485439 0.736 0.01161408 9.1104341e-39 308 231
-0.014194986 0.736 0.01161408 8.8338486e-39 309 231
-0.012904533 0.736 0.01161408 8.5565414e-39 310 231
-0.01161408 0.736 0.01161408 8.4643458e-39 311 231
-0.010323626 0.736 0.01161408 8.0058886e-39 312 231
-0.0090331733 0.736 0.01161408 8.466508e-39 313 231
-0.0077427197 0.736 0.01161408 8.5597784e-39 314 231
-0.0061717331 0.704 0.011109119 8.8363653e-39 315 231
-0.0049373866 0.704 0.011109119 1.0397933e-38 316 231
-0.0037135598 0.70599997 0.011140679 1.0766357e-38 317 231
-0.0024757064 0.70599997 0.011140679 1.1316647e-38 318 231
-0.0012378532 0.70599997 0.011140679 1.1316647e-38 319 231
0 0.70700002 0.011156459 1.1039337e-38 320 231
0.0012396066 0.70700002 0.011156459 1.011702e-38 321 231
0.0025037599 0.71399999 0.011266919 1.0572961e-38 322 231
0.0037556398 0.71399999 0.011266919 1.0204537e-38 323 231
0.0050075199 0.71399999 0.011266919 1.0203462e-38 324 231
0.0062593995 0.71399999 0.011266919 1.0019071e-38 325 231
0.0075112795 0.71399999 0.011266919 9.3751492e-39 326 231
0.0087631596 0.71399999 0.011266919 9.1907579e-39 327 231
0.01001504 0.71399999 0.011266919 8.3642384e-39 328 231
0.01129848 0.71600002 0.01129848 8.3642384e-39 329 231
0.012553867 0.71600002 0.01129848 7.6309922e-39 330 231
0.013809253 0.71600002 0.01129848 7.6309922e-39 331 231
0.015085679 0.71700001 0.01131426 7.0807079e-39 332 231
0.016342819 0.71700001 0.01131426 7.1729035e-39 333 231
0.017599959 0.71700001 0.01131426 6.9906759e-39 334 231
0.018909698 0.71899998 0.01134582 6.8984802e-39 335 231
0.020198401 0.72000003 0.011361601 4.6951626e-39 336 231
0.021460801 0.72000003 0.011361601 7.2762815e-39 337 231
-0.041080594 0.70999998 0.0099589331 1.5397759e-38 287 232
-0.039723519 0.708 0.0099308798 1.3460209e-38 288 232
-0.038482159 0.708 0.0099308798 1.0509949e-38 289 232
-0.0372408 0.708 0.0099308798 1.2528172e-38 290 232
-0.03599944 0.708 0.0099308798 1.234414e-38 291 232
-0.034758076 0.708 0.0099308798 1.2708601e-38 292 232
-0.033516716 0.708 0.0099308798 1.1694449e-38 293 232
-0.03227536 0.708 0.0099308798 1.0216798e-38 294 232
-0.030990168 0.70700002 0.0099168532 9.2948421e-39 295 232
-0.029708479 0.70599997 0.0099028256 8.0898123e-39 296 232
-0.028470624 0.70599997 0.0099028256 7.6291929e-39 297 232
-0.027155625 0.704 0.0098747732 7.8132381e-39 298 232
-0.02592128 0.704 0.0098747732 7.8132381e-39 299 232
-0.024686933 0.704 0.0098747732 7.7192558e-39 300 232
-0.023452586 0.704 0.0098747732 7.3504747e-39 301 232
-0.02218668 0.70300001 0.0098607466 7.8110801e-39 302 232
-0.020954086 0.70300001 0.0098607466 8.3642538e-39 303 232
-0.020647252 0.736 0.010323626 8.3653286e-39 304 232
-0.019356798 0.736 0.010323626 8.5497199e-39 305 232
-0.018066347 0.736 0.010323626 8.5497199e-39 306 232
-0.016775893 0.736 0.010323626 9.2872863e-39 307 232
-0.015485439 0.736 0.010323626 8.9220967e-39 308 232
-0.014194986 0.736 0.010323626 9.0142924e-39 309 232
-0.012904533 0.736 0.010323626 8.371797e-39 310 232
-0.011109119 0.704 0.0098747732 8.4639927e-39 311 232
-0.0098747732 0.704 0.0098747732 8.0952059e-39 312 232
-0.0086649731 0.70599997 0.0099028256 8.1874016e-39 313 232
-0.0074271196 0.70599997 0.0099028256 8.5522352e-39 314 232
-0.0061717331 0.704 0.0098747732 8.6447896e-39 315 232
-0.0049373866 0.704 0.0098747732 9.1032412e-39 316 232
-0.0037135598 0.70599997 0.0099028256 9.2879926e-39 317 232
-0.0024757064 0.70599997 0.0099028256 1.0023753e-38 318 232
-0.0012378532 0.70599997 0.0099028256 1.03007e-38 319 232
0 0.70599997 0.0099028256 1.0848481e-38 320 232
0.0012396066 0.70700002 0.0099168532 1.066409e-38 321 232
0.0024792133 0.70700002 0.0099168532 1.0387496e-38 322 232
0.0037398601 0.71100003 0.0099729598 1.0203465e-38 323 232
0.0050005065 0.713 0.010001013 9.7439317e-39 324 232
0.0062593995 0.71399999 0.01001504 9.3751492e-39 325 232
0.0075112795 0.71399999 0.01001504 8.9156157e-39 326 232
0.0087631596 0.71399999 0.01001504 8.8230614e-39 327 232
0.01001504 0.71399999 0.01001504 8.0890963e-39 328 232
0.01129848 0.71600002 0.010043093 8.0890963e-39 329 232
0.012553867 0.71600002 0.010043093 7.4469667e-39 330 232
0.013809253 0.71600002 0.010043093 7.4469667e-39 331 232
0.01506464 0.71600002 0.010043093 6.8048413e-39 332 232
0.016320027 0.71600002 0.010043093 6.8970369e-39 333 232
0.017599959 0.71700001 0.01005712 6.7144463e-39 334 232
0.018909698 0.71899998 0.010085173 6.7144463e-39 335 232
0.020170346 0.71899998 0.010085173 5.5198828e-39 336 232
0.021430992 0.71899998 0.010085173 5.1510989e-39 337 232
-0.042504307 0.713 0.0087508867 1.6043134e-38 286 233
-0.041080594 0.70999998 0.0087140659 1.3646048e-38 287 233
-0.039723519 0.708 0.008689519 1.3271502e-38 288 233
-0.038482159 0.708 0.008689519 1.1888567e-38 289 233
-0.0372408 0.708 0.008689519 1.3540516e-38 290 233
-0.03599944 0.708 0.008689519 1.3079179e-38 291 233
-0.034758076 0.708 0.008689519 1.2428408e-38 292 233
-0.033516716 0.708 0.008689519 1.1045114e-38 293 233
-0.032229774 0.70700002 0.008677247 9.5649452e-39 294 233
-0.030990168 0.70700002 0.008677247 8.3667608e-39 295 233
-0.029624319 0.704 0.0086404262 7.80712e-39 296 233
-0.028389972 0.704 0.0086404262 7.8993156e-39 297 233
-0.027155625 0.704 0.0086404262 7.7167334e-39 298 233
-0.025884461 0.70300001 0.0086281532 7.9014834e-39 299 233
-0.024651866 0.70300001 0.0086281532 7.4433737e-39 300 233
-0.023419274 0.70300001 0.0086281532 7.7199592e-39 301 233
-0.022123558 0.70099998 0.0086036054 8.1798486e-39 302 233
-0.020894472 0.70099998 0.0086036054 8.640468e-39 303 233
-0.019665385 0.70099998 0.0086036054 8.5482724e-39 304 233
-0.018436298 0.70099998 0.0086036054 8.5482724e-39 305 233
-0.017207211 0.70099998 0.0086036054 8.6429889e-39 306 233
-0.015978126 0.70099998 0.0086036054 8.9195758e-39 307 233
-0.014749039 0.70099998 0.0086036054 9.0128504e-39 308 233
-0.013519952 0.70099998 0.0086036054 9.0128504e-39 309 233
-0.012343466 0.704 0.0086404262 8.9220841e-39 310 233
-0.01109334 0.70300001 0.0086281532 8.8295298e-39 311 233
-0.0098607466 0.70300001 0.0086281532 8.6440651e-39 312 233
-0.0086404262 0.704 0.0086404262 7.9065001e-39 313 233
-0.0074060797 0.704 0.0086404262 8.0873138e-39 314 233
-0.0061717331 0.704 0.0086404262 8.1795095e-39 315 233
-0.0049373866 0.704 0.0086404262 8.0880397e-39 316 233
-0.0037135598 0.70599997 0.0086649731 8.5490178e-39 317 233
-0.0024757064 0.70599997 0.0086649731 9.0092757e-39 318 233
-0.0012378532 0.70599997 0.0086649731 9.0092757e-39 319 233
0 0.70599997 0.0086649731 9.6524773e-39 320 233
0.0012378532 0.70599997 0.0086649731 9.5602817e-39 321 233
0.0024792133 0.70700002 0.008677247 9.5599104e-39 322 233
0.00372408 0.708 0.008689519 9.4677147e-39 323 233
0.0049794666 0.70999998 0.0087140659 9.192204e-39 324 233
0.0062330998 0.71100003 0.0087263398 9.0078114e-39 325 233
0.0074797203 0.71100003 0.0087263398 8.6404708e-39 326 233
0.0087508867 0.713 0.0087508867 8.3638853e-39 327 233
0.010001013 0.713 0.0087508867 7.8139513e-39 328 233
0.011266919 0.71399999 0.0087631596 7.7217557e-39 329 233
0.012518799 0.71399999 0.0087631596 7.1711029e-39 330 233
0.01377068 0.71399999 0.0087631596 7.2632985e-39 331 233
0.01506464 0.71600002 0.0087877065 6.8048413e-39 332 233
0.016320027 0.71600002 0.0087877065 6.8048413e-39 333 233
0.017575413 0.71600002 0.0087877065 6.4382252e-39 334 233
0.018857099 0.71700001 0.0087999795 6.5304208e-39 335 233
0.020114239 0.71700001 0.0087999795 5.8882982e-39 336 233
0.021371379 0.71700001 0.0087999795 4.4128094e-39 337 233
0.022691639 0.71899998 0.0088245263 2.8584499e-39 338 233
0.023952285 0.71899998 0.0088245263 1.1156417e-38 339 233
-0.042504307 0.713 0.0075007593 1.5307361e-38 286 234
-0.041254178 0.713 0.0075007593 1.1619896e-38 287 234
-0.039835732 0.70999998 0.0074691991 1.326826e-38 288 234
-0.038590867 0.70999998 0.0074691991 1.3083871e-38 289 234
-0.037345998 0.70999998 0.0074691991 1.3168138e-38 290 234
-0.036101133 0.70999998 0.0074691991 1.1693008e-38 291 234
-0.034758076 0.708 0.0074481601 1.1407063e-38 292 234
-0.033469379 0.70700002 0.0074376399 1.0300715e-38 293 234
-0.032229774 0.70700002 0.0074376399 9.651027e-39 294 234
-0.030946331 0.70599997 0.0074271196 9.2826032e-39 295 234
-0.029624319 0.704 0.0074060797 8.7294294e-39 296 234
-0.028389972 0.704 0.0074060797 8.4524838e-39 297 234
-0.027117053 0.70300001 0.0073955595 8.087297e-39 298 234
-0.025884461 0.70300001 0.0073955595 8.087297e-39 299 234
-0.024651866 0.70300001 0.0073955595 8.3656762e-39 300 234
-0.023419274 0.70300001 0.0073955595 8.6426232e-39 301 234
-0.022123558 0.70099998 0.0073745195 8.8291556e-39 302 234
-0.020894472 0.70099998 0.0073745195 8.9213513e-39 303 234
-0.019665385 0.70099998 0.0073745195 8.6461965e-39 304 234
-0.018436298 0.70099998 0.0073745195 8.8305878e-39 305 234
-0.017207211 0.70099998 0.0073745195 8.7401914e-39 306 234
-0.015978126 0.70099998 0.0073745195 9.0164181e-39 307 234
-0.014749039 0.70099998 0.0073745195 9.1068159e-39 308 234
-0.013519952 0.70099998 0.0073745195 9.1990115e-39 309 234
-0.012290866 0.70099998 0.0073745195 9.2008094e-39 310 234
-0.011061779 0.70099998 0.0073745195 8.9242225e-39 311 234
-0.0098326923 0.70099998 0.0073745195 8.7355223e-39 312 234
-0.0086281532 0.70300001 0.0073955595 8.3663796e-39 313 234
-0.0073955595 0.70300001 0.0073955595 8.2709596e-39 314 234
-0.0061717331 0.704 0.0074060797 8.455711e-39 315 234
-0.0049373866 0.704 0.0074060797 8.3653132e-39 316 234
-0.0037030398 0.704 0.0074060797 8.4575089e-39 317 234
-0.0024686933 0.704 0.0074060797 8.7322979e-39 318 234
-0.0012343467 0.704 0.0074060797 8.916329e-39 319 234
0 0.704 0.0074060797 9.374073e-39 320 234
0.0012343467 0.704 0.0074060797 9.5584642e-39 321 234
0.0024757064 0.70599997 0.0074271196 9.2825976e-39 322 234
0.0037135598 0.70599997 0.0074271196 9.375152e-39 323 234
0.0049584266 0.70700002 0.0074376399 8.9163346e-39 324 234
0.0061980332 0.70700002 0.0074376399 8.7319448e-39 325 234
0.0074691991 0.70999998 0.0074691991 8.1820108e-39 326 234
0.0087140659 0.70999998 0.0074691991 8.0898151e-39 327 234
0.0099729598 0.71100003 0.0074797203 7.4469667e-39 328 234
0.011251139 0.713 0.0075007593 7.4469667e-39 329 234
0.012501267 0.713 0.0075007593 7.1711029e-39 330 234
0.013751393 0.713 0.0075007593 7.1711029e-39 331 234
0.01506464 0.71600002 0.00753232 6.7126428e-39 332 234
0.016274439 0.71399999 0.0075112795 6.7126428e-39 333 234
0.017526319 0.71399999 0.0075112795 6.2545444e-39 334 234
0.0188308 0.71600002 0.00753232 6.2545444e-39 335 234
0.020114239 0.71700001 0.0075428397 6.3467498e-39 336 234
0.021371379 0.71700001 0.0075428397 5.4247921e-39 337 234
0.02262852 0.71700001 0.0075428397 3.6799345e-39 338 234
0.023952285 0.71899998 0.0075638802 9.5804548e-39 339 234
-0.042504307 0.713 0.0062506334 1.4294651e-38 286 235
-0.041254178 0.713 0.0062506334 1.0607186e-38 287 235
-0.039835732 0.70999998 0.0062243328 1.3080629e-38 288 235
-0.038590867 0.70999998 0.0062243328 1.225051e-38 289 235
-0.037345998 0.70999998 0.0062243328 1.242697e-38 290 235
-0.036101133 0.70999998 0.0062243328 1.1136231e-38 291 235
-0.034758076 0.708 0.0062067998 1.0578011e-38 292 235
-0.033422034 0.70599997 0.0061892662 9.8404461e-39 293 235
-0.032093015 0.704 0.0061717331 9.926888e-39 294 235
-0.030858666 0.704 0.0061717331 9.374073e-39 295 235
-0.029582238 0.70300001 0.0061629666 8.9130948e-39 296 235
-0.028349647 0.70300001 0.0061629666 8.9130948e-39 297 235
-0.027117053 0.70300001 0.0061629666 8.547185e-39 298 235
-0.025810819 0.70099998 0.0061454331 9.0081617e-39 299 235
-0.024581732 0.70099998 0.0061454331 8.9188373e-39 300 235
-0.023352645 0.70099998 0.0061454331 9.2876198e-39 301 235
-0.022123558 0.70099998 0.0061454331 9.2886918e-39 302 235
-0.020894472 0.70099998 0.0061454331 9.2886918e-39 303 235
-0.019665385 0.70099998 0.0061454331 8.9217044e-39 304 235
-0.018436298 0.70099998 0.0061454331 9.0139e-39 305 235
-0.017182667 0.69999999 0.0061366665 8.9227848e-39 306 235
-0.015955333 0.69999999 0.0061366665 8.8305878e-39 307 235
-0.014727999 0.69999999 0.0061366665 9.288689e-39 308 235
-0.013500666 0.69999999 0.0061366665 9.1964934e-39 309 235
-0.012273333 0.69999999 0.0061366665 9.1964934e-39 310 235
-0.011061779 0.70099998 0.0061454331 8.6433196e-39 311 235
-0.0098326923 0.70099998 0.0061454331 8.1819954e-39 312 235
-0.0086036054 0.70099998 0.0061454331 7.9976041e-39 313 235
-0.0073745195 0.70099998 0.0061454331 7.9047008e-39 314 235
-0.0061629666 0.70300001 0.0061629666 7.8125052e-39 315 235
-0.0049303733 0.70300001 0.0061629666 7.7213886e-39 316 235
-0.0036977797 0.70300001 0.0061629666 7.8135856e-39 317 235
-0.0024651866 0.70300001 0.0061629666 7.9969006e-39 318 235
-0.0012343467 0.704 0.0061717331 8.0890963e-39 319 235
0 0.704 0.0061717331 8.6397519e-39 320 235
0.0012343467 0.704 0.0061717331 8.6397519e-39 321 235
0.0024686933 0.704 0.0061717331 8.6397519e-39 322 235
0.0037135598 0.70599997 0.0061892662 8.7319476e-39 323 235
0.0049514128 0.70599997 0.0061892662 8.4571585e-39 324 235
0.0061892662 0.70599997 0.0061892662 8.4571585e-39 325 235
0.0074376399 0.70700002 0.0061980332 7.8150261e-39 326 235
0.008689519 0.708 0.0062067998 7.8150261e-39 327 235
0.0099589331 0.70999998 0.0062243328 7.0799834e-39 328 235
0.01121958 0.71100003 0.0062330998 6.9877864e-39 329 235
0.0124662 0.71100003 0.0062330998 6.8037581e-39 330 235
0.013751393 0.713 0.0062506334 6.8037581e-39 331 235
0.015001519 0.713 0.0062506334 6.4371335e-39 332 235
0.016251646 0.713 0.0062506334 6.4371335e-39 333 235
0.017526319 0.71399999 0.0062593995 6.1619886e-39 334 235
0.0188308 0.71600002 0.0062769335 6.1619886e-39 335 235
0.020114239 0.71700001 0.0062857 6.2549101e-39 336 235
0.021371379 0.71700001 0.0062857 5.8861276e-39 337 235
0.02262852 0.71700001 0.0062857 4.4131807e-39 338 235
0.02388566 0.71700001 0.0062857 6.5336802e-39 339 235
0.025212931 0.71899998 0.0063032326 1.0055463e-38 340 235
-0.042504307 0.713 0.0050005065 1.2911001e-38 286 236
-0.041254178 0.713 0.0050005065 9.7763493e-39 287 236
-0.039835732 0.70999998 0.0049794666 1.2247989e-38 288 236
-0.038590867 0.70999998 0.0049794666 1.0312239e-38 289 236
-0.037345998 0.70999998 0.0049794666 1.0766362e-38 290 236
-0.036101133 0.70999998 0.0049794666 1.0213189e-38 291 236
-0.034758076 0.708 0.0049654399 1.0025555e-38 292 236
-0.033422034 0.70599997 0.0049514128 9.3801854e-39 293 236
-0.032093015 0.704 0.0049373866 9.468421e-39 294 236
-0.030858666 0.704 0.0049373866 8.9152472e-39 295 236
-0.029582238 0.70300001 0.0049303733 8.7312161e-39 296 236
-0.028268991 0.70099998 0.0049163462 8.7312161e-39 297 236
-0.027039904 0.70099998 0.0049163462 8.6404554e-39 298 236
-0.025810819 0.70099998 0.0049163462 9.1010748e-39 299 236
-0.024546666 0.69999999 0.0049093333 8.8262858e-39 300 236
-0.023319334 0.69999999 0.0049093333 8.8262858e-39 301 236
-0.022091998 0.69999999 0.0049093333 8.5497045e-39 302 236
-0.020864666 0.69999999 0.0049093333 8.4575089e-39 303 236
-0.019637333 0.69999999 0.0049093333 8.1823639e-39 304 236
-0.018409999 0.69999999 0.0049093333 8.2745595e-39 305 236
-0.017182667 0.69999999 0.0049093333 8.5504262e-39 306 236
-0.015955333 0.69999999 0.0049093333 8.5504262e-39 307 236
-0.014727999 0.69999999 0.0049093333 8.6419001e-39 308 236
-0.013500666 0.69999999 0.0049093333 8.6419001e-39 309 236
-0.012273333 0.69999999 0.0049093333 8.6418973e-39 310 236
-0.011045999 0.69999999 0.0049093333 8.2731148e-39 311 236
-0.0098186666 0.69999999 0.0049093333 8.1809192e-39 312 236
-0.0085913334 0.69999999 0.0049093333 8.0887221e-39 313 236
-0.0073639993 0.69999999 0.0049093333 7.7203068e-39 314 236
-0.0061366665 0.69999999 0.0049093333 7.7203068e-39 315 236
-0.0049303733 0.70300001 0.0049303733 7.6291929e-39 316 236
-0.0036977797 0.70300001 0.0049303733 7.7213886e-39 317 236
-0.0024651866 0.70300001 0.0049303733 7.9047008e-39 318 236
-0.0012325933 0.70300001 0.0049303733 7.9968978e-39 319 236
0 0.70300001 0.0049303733 8.4553579e-39 320 236
0.0012343467 0.704 0.0049373866 8.4553579e-39 321 236
0.0024686933 0.704 0.0049373866 8.2720456e-39 322 236
0.0037030398 0.704 0.0049373866 8.3642412e-39 323 236
0.0049373866 0.704 0.0049373866 7.8143073e-39 324 236
0.0061717331 0.704 0.0049373866 7.8143073e-39 325 236
0.0074271196 0.70599997 0.0049514128 7.3558472e-39 326 236
0.008677247 0.70700002 0.0049584266 7.3558472e-39 327 236
0.0099589331 0.70999998 0.0049794666 6.8963096e-39 328 236
0.011203799 0.70999998 0.0049794666 6.8963096e-39 329 236
0.0124662 0.71100003 0.0049864799 6.6208017e-39 330 236
0.01371282 0.71100003 0.0049864799 6.6208017e-39 331 236
0.015001519 0.713 0.0050005065 6.3449379e-39 332 236
0.016251646 0.713 0.0050005065 6.3449379e-39 333 236
0.017501773 0.713 0.0050005065 6.069793e-39 334 236
0.018778199 0.71399999 0.0050075199 6.069793e-39 335 236
0.020086186 0.71600002 0.0050215465 6.0705146e-39 336 236
0.021341572 0.71600002 0.0050215465 6.2549073e-39 337 236
0.02262852 0.71700001 0.0050285598 5.4258879e-39 338 236
0.02388566 0.71700001 0.0050285598 3.7667267e-39 339 236
0.025212931 0.71899998 0.0050425865 7.1952402e-39 340 236
-0.042504307 0.713 0.0037503797 1.161954e-38 286 237
-0.041254178 0.713 0.0037503797 7.1023131e-39 287 237
-0.039891839 0.71100003 0.0037398601 9.3906405e-39 288 237
-0.038645219 0.71100003 0.0037398601 8.4683241e-39 289 237
-0.037345998 0.70999998 0.0037345996 9.4777845e-39 290 237
-0.03599944 0.708 0.00372408 9.4777845e-39 291 237
-0.034708988 0.70700002 0.0037188199 9.5660172e-39 292 237
-0.033422034 0.70599997 0.0037135598 8.8284522e-39 293 237
-0.032093015 0.704 0.0037030398 9.0085246e-39 294 237
-0.030858666 0.704 0.0037030398 8.6401022e-39 295 237
-0.029498078 0.70099998 0.0036872597 8.455711e-39 296 237
-0.028268991 0.70099998 0.0036872597 8.3631552e-39 297 237
-0.027001332 0.69999999 0.0036819996 8.1798458e-39 298 237
-0.025773998 0.69999999 0.0036819996 8.0876501e-39 299 237
-0.024546666 0.69999999 0.0036819996 7.9943825e-39 300 237
-0.023319334 0.69999999 0.0036819996 7.9021869e-39 301 237
-0.022091998 0.69999999 0.0036819996 7.6270447e-39 302 237
-0.020864666 0.69999999 0.0036819996 7.6270447e-39 303 237
-0.019637333 0.69999999 0.0036819996 7.5355694e-39 304 237
-0.018409999 0.69999999 0.0036819996 7.5355694e-39 305 237
-0.017133573 0.69800001 0.0036714801 7.7192376e-39 306 237
-0.015909746 0.69800001 0.0036714801 7.8114332e-39 307 237
-0.01468592 0.69800001 0.0036714801 7.9025498e-39 308 237
-0.013462093 0.69800001 0.0036714801 7.9947455e-39 309 237
-0.012238266 0.69800001 0.0036714801 8.3649573e-39 310 237
-0.01101444 0.69800001 0.0036714801 8.5497073e-39 311 237
-0.0097906133 0.69800001 0.0036714801 8.3674614e-39 312 237
-0.0085913334 0.69999999 0.0036819996 8.0905158e-39 313 237
-0.0073639993 0.69999999 0.0036819996 7.6295461e-39 314 237
-0.0061366665 0.69999999 0.0036819996 7.5369917e-39 315 237
-0.0049163462 0.70099998 0.0036872597 7.5369973e-39 316 237
-0.0036872597 0.70099998 0.0036872597 7.6291929e-39 317 237
-0.0024581731 0.70099998 0.0036872597 7.6291901e-39 318 237
-0.0012325933 0.70300001 0.0036977797 7.6291901e-39 319 237
0 0.70300001 0.0036977797 7.812508e-39 320 237
0.0012325933 0.70300001 0.0036977797 7.812508e-39 321 237
0.0024686933 0.704 0.0037030398 7.8121521e-39 322 237
0.0037030398 0.704 0.0037030398 7.9043477e-39 323 237
0.0049373866 0.704 0.0037030398 7.3547668e-39 324 237
0.0061717331 0.704 0.0037030398 7.3547668e-39 325 237
0.0074271196 0.70599997 0.0037135598 6.9881423e-39 326 237
0.0086649731 0.70599997 0.0037135598 6.9881423e-39 327 237
0.0099308798 0.708 0.00372408 6.6215206e-39 328 237
0.011203799 0.70999998 0.0037345996 6.4374895e-39 329 237
0.012448666 0.70999998 0.0037345996 6.3449379e-39 330 237
0.01371282 0.71100003 0.0037398601 6.3449379e-39 331 237
0.014959441 0.71100003 0.0037398601 5.9775945e-39 332 237
0.016251646 0.713 0.0037503797 5.9775945e-39 333 237
0.017501773 0.713 0.0037503797 5.7942851e-39 334 237
0.018778199 0.71399999 0.0037556398 5.7942851e-39 335 237
0.020086186 0.71600002 0.00376616 5.794648e-39 336 237
0.021341572 0.71600002 0.00376616 5.8872024e-39 337 237
0.02262852 0.71700001 0.0037714199 5.7028279e-39 338 237
0.023952285 0.71899998 0.0037819401 2.8469158e-39 339 237
0.025212931 0.71899998 0.0037819401 4.4264875e-39 340 237
0.026584039 0.722 0.0037977197 1.3092878e-38 341 237
-0.042504307 0.713 0.0025002533 1.0692911e-38 286 238
-0.041138459 0.71100003 0.0024932399 5.4377597e-39 287 238
-0.039835732 0.70999998 0.0024897333 7.1772377e-39 288 238
-0.038590867 0.70999998 0.0024897333 7.7300528e-39 289 238
-0.0372408 0.708 0.00248272 8.6512734e-39 290 238
-0.03599944 0.708 0.00248272 8.743469e-39 291 238
-0.034708988 0.70700002 0.0024792133 9.0157175e-39 292 238
-0.03332736 0.704 0.0024686933 8.2781525e-39 293 238
-0.032093015 0.704 0.0024686933 8.1823611e-39 294 238
-0.030727165 0.70099998 0.0024581731 7.8139387e-39 295 238
-0.029498078 0.70099998 0.0024581731 7.9047008e-39 296 238
-0.028228667 0.69999999 0.0024546667 7.5362784e-39 297 238
-0.027001332 0.69999999 0.0024546667 7.5344904e-39 298 238
-0.025773998 0.69999999 0.0024546667 7.2582622e-39 299 238
-0.024476532 0.69800001 0.0024476533 7.0742339e-39 300 238
-0.023252707 0.69800001 0.0024476533 6.8902028e-39 301 238
-0.022091998 0.69999999 0.0024546667 6.6154137e-39 302 238
-0.020864666 0.69999999 0.0024546667 6.7076094e-39 303 238
-0.019637333 0.69999999 0.0024546667 6.7076094e-39 304 238
-0.018409999 0.69999999 0.0024546667 6.8916405e-39 305 238
-0.017133573 0.69800001 0.0024476533 6.8916433e-39 306 238
-0.015909746 0.69800001 0.0024476533 6.8916433e-39 307 238
-0.01468592 0.69800001 0.0024476533 6.7083282e-39 308 238
-0.013462093 0.69800001 0.0024476533 6.9849165e-39 309 238
-0.012238266 0.69800001 0.0024476533 7.9068504e-39 310 238
-0.01101444 0.69800001 0.0024476533 8.3678286e-39 311 238
-0.0097906133 0.69800001 0.0024476533 8.7362383e-39 312 238
-0.0085667865 0.69800001 0.0024476533 8.1830646e-39 313 238
-0.0073429602 0.69800001 0.0024476533 7.9050511e-39 314 238
-0.006119133 0.69800001 0.0024476533 7.7206599e-39 315 238
-0.0049093333 0.69999999 0.0024546667 7.3536822e-39 316 238
-0.0036819996 0.69999999 0.0024546667 7.3536822e-39 317 238
-0.0024546667 0.69999999 0.0024546667 7.5369945e-39 318 238
-0.0012290865 0.70099998 0.0024581731 7.5369945e-39 319 238
0 0.70300001 0.0024651866 7.5366442e-39 320 238
0.0012325933 0.70300001 0.0024651866 7.4444485e-39 321 238
0.0024651866 0.70300001 0.0024651866 7.1693036e-39 322 238
0.0037030398 0.704 0.0024686933 7.2614992e-39 323 238
0.0049373866 0.704 0.0024686933 6.8033951e-39 324 238
0.0061717331 0.704 0.0024686933 6.8033951e-39 325 238
0.0074060797 0.704 0.0024686933 6.6208017e-39 326 238
0.0086649731 0.70599997 0.0024757064 6.6208017e-39 327 238
0.0099168532 0.70700002 0.0024792133 6.1623417e-39 328 238
0.01117224 0.708 0.00248272 6.0701461e-39 329 238
0.012448666 0.70999998 0.0024897333 5.9775945e-39 330 238
0.013693533 0.70999998 0.0024897333 5.9775945e-39 331 238
0.014959441 0.71100003 0.0024932399 5.7942851e-39 332 238
0.01620606 0.71100003 0.0024932399 5.7942851e-39 333 238
0.01745268 0.71100003 0.0024932399 5.5184184e-39 334 238
0.018751899 0.713 0.0025002533 5.5184184e-39 335 238
0.020030079 0.71399999 0.0025037599 5.3358279e-39 336 238
0.021341572 0.71600002 0.0025107733 5.519859e-39 337 238
0.022691639 0.71899998 0.0025212932 5.4283892e-39 338 238
0.023952285 0.71899998 0.0025212932 2.8469116e-39 339 238
0.025248 0.72000003 0.0025248001 3.0341965e-39 340 238
0.026584039 0.722 0.0025318132 1.2899129e-38 341 238
-0.042504307 0.713 0.0012501266 8.1092694e-39 286 239
-0.041138459 0.71100003 0.00124662 3.8686291e-39 287 239
-0.039835732 0.70999998 0.0012448666 6.532583e-39 288 239
-0.038590867 0.70999998 0.0012448666 7.9158762e-39 289 239
-0.0372408 0.708 0.00124136 8.7456214e-39 290 239
-0.035948593 0.70700002 0.0012396066 8.7456214e-39 291 239
-0.034659892 0.70599997 0.0012378532 8.4650647e-39 292 239
-0.03332736 0.704 0.0012343467 7.4509141e-39 293 239
-0.032047424 0.70300001 0.0012325933 7.9072189e-39 294 239
-0.030727165 0.70099998 0.0012290865 7.3540452e-39 295 239
-0.029455997 0.69999999 0.0012273333 7.6288398e-39 296 239
-0.028228667 0.69999999 0.0012273333 7.4444485e-39 297 239
-0.027001332 0.69999999 0.0012273333 6.8927209e-39 298 239
-0.025700359 0.69800001 0.0012238267 6.8005253e-39 299 239
-0.024476532 0.69800001 0.0012238267 6.4328175e-39 300 239
-0.023252707 0.69800001 0.0012238267 6.3406219e-39 301 239
-0.022091998 0.69999999 0.0012273333 6.2477046e-39 302 239
-0.020864666 0.69999999 0.0012273333 6.3399002e-39 303 239
-0.019581227 0.69800001 0.0012238267 6.3399002e-39 304 239
-0.0183574 0.69800001 0.0012238267 6.3399002e-39 305 239
-0.017133573 0.69800001 0.0012238267 6.5232125e-39 306 239
-0.015909746 0.69800001 0.0012238267 6.7079625e-39 307 239
-0.01468592 0.69800001 0.0012238267 6.6164801e-39 308 239
-0.013462093 0.69800001 0.0012238267 7.1696539e-39 309 239
-0.012238266 0.69800001 0.0012238267 8.183789e-39 310 239
-0.01101444 0.69800001 0.0012238267 8.4603773e-39 311 239
-0.0097765867 0.69700003 0.0012220733 8.5507709e-39 312 239
-0.0085545136 0.69700003 0.0012220733 8.1823485e-39 313 239
-0.0073429602 0.69800001 0.0012238267 7.8128555e-39 314 239
-0.006119133 0.69800001 0.0012238267 7.8128555e-39 315 239
-0.0048953067 0.69800001 0.0012238267 7.3536794e-39 316 239
-0.0036819996 0.69999999 0.0012273333 7.3536794e-39 317 239
-0.0024546667 0.69999999 0.0012273333 7.4447989e-39 318 239
-0.0012273333 0.69999999 0.0012273333 7.4447989e-39 319 239
0 0.70099998 0.0012290865 7.2611335e-39 320 239
0.0012290865 0.70099998 0.0012290865 7.1689378e-39 321 239
0.0024651866 0.70300001 0.0012325933 6.8026735e-39 322 239
0.0037030398 0.704 0.0012343467 6.7104778e-39 323 239
0.0049373866 0.704 0.0012343467 6.5278844e-39 324 239
0.0061717331 0.704 0.0012343467 6.5278844e-39 325 239
0.0074060797 0.704 0.0012343467 6.0694272e-39 326 239
0.0086649731 0.70599997 0.0012378532 6.0694272e-39 327 239
0.0099028256 0.70599997 0.0012378532 6.0701461e-39 328 239
0.01117224 0.708 0.00124136 6.0701461e-39 329 239
0.012448666 0.70999998 0.0012448666 5.9775945e-39 330 239
0.013693533 0.70999998 0.0012448666 5.9775945e-39 331 239
0.014938398 0.70999998 0.0012448666 5.5191373e-39 332 239
0.01620606 0.71100003 0.00124662 5.3347461e-39 333 239
0.01745268 0.71100003 0.00124662 5.4269417e-39 334 239
0.018751899 0.713 0.0012501266 5.3347461e-39 335 239
0.020030079 0.71399999 0.00125188 5.3347461e-39 336 239
0.021341572 0.71600002 0.0012553866 5.5191373e-39 337 239
0.022691639 0.71899998 0.0012606466 5.2443455e-39 338 239
0.023952285 0.71899998 0.0012606466 3.9539654e-39 339 239
0.025318133 0.722 0.0012659066 2.4795724e-39 340 239
0.026584039 0.722 0.0012659066 1.0960853e-38 341 239
0.02788852 0.72299999 0.0012676599 1.2725886e-38 342 239
-0.043815799 0.71399999 -0 7.2859883e-39 285 240
-0.042504307 0.713 -0 5.7121858e-39 286 240
-0.041138459 0.71100003 -0 3.4069349e-39 287 240
-0.039835732 0.70999998 -0 5.4291095e-39 288 240
-0.038590867 0.70999998 -0 7.5499677e-39 289 240
-0.037188202 0.70700002 -0 8.2907543e-39 290 240
-0.035897743 0.70599997 -0 8.1060029e-39 291 240
-0.034561705 0.704 -0 7.5452762e-39 292 240
-0.033280019 0.70300001 -0 6.8077111e-39 293 240
-0.031956252 0.70099998 -0 6.9874347e-39 294 240
-0.030683333 0.69999999 -0 6.9874347e-39 295 240
-0.029455997 0.69999999 -0 6.9881395e-39 296 240
-0.028148014 0.69800001 -0 6.9881395e-39 297 240
-0.026924185 0.69800001 -0 7.1718077e-39 298 240
-0.025700359 0.69800001 -0 6.9870577e-39 299 240
-0.024476532 0.69800001 -0 6.8019504e-39 300 240
-0.023252707 0.69800001 -0 6.3409722e-39 301 240
-0.02202888 0.69800001 -0 6.0651084e-39 302 240
-0.020805053 0.69800001 -0 5.9729128e-39 303 240
-0.019581227 0.69800001 -0 6.0640322e-39 304 240
-0.0183574 0.69800001 -0 6.2484235e-39 305 240
-0.017133573 0.69800001 -0 6.0651112e-39 306 240
-0.015909746 0.69800001 -0 6.0651112e-39 307 240
-0.01466488 0.69700003 -0 5.9750764e-39 308 240
-0.013442807 0.69700003 -0 6.1598278e-39 309 240
-0.012220734 0.69700003 -0 6.8037483e-39 310 240
-0.01099866 0.69700003 -0 7.2643677e-39 311 240
-0.0097765867 0.69700003 -0 7.8143016e-39 312 240
-0.0085545136 0.69700003 -0 7.5377134e-39 313 240
-0.0073429602 0.69800001 -0 7.3544011e-39 314 240
-0.006119133 0.69800001 -0 7.2622055e-39 315 240
-0.0048953067 0.69800001 -0 6.9863416e-39 316 240
-0.0036714801 0.69800001 -0 6.9863416e-39 317 240
-0.0024476533 0.69800001 -0 6.9863445e-39 318 240
-0.0012273333 0.69999999 -0 6.8937901e-39 319 240
0 0.69999999 -0 6.618285e-39 320 240
0.0012273333 0.69999999 -0 6.618285e-39 321 240
0.0024581731 0.70099998 -0 6.4353357e-39 322 240
0.0036977797 0.70300001 -0 6.4353357e-39 323 240
0.0049303733 0.70300001 -0 5.9768757e-39 324 240
0.0061717331 0.704 -0 5.9768757e-39 325 240
0.0074060797 0.704 -0 5.7020894e-39 326 240
0.0086404262 0.704 -0 5.7020894e-39 327 240
0.0099028256 0.70599997 -0 5.7028055e-39 328 240
0.011140679 0.70599997 -0 5.7950011e-39 329 240
0.0124136 0.708 -0 5.7028055e-39 330 240
0.013654959 0.708 -0 5.5187744e-39 331 240
0.014938398 0.70999998 -0 5.3347461e-39 332 240
0.016183265 0.70999998 -0 5.3347461e-39 333 240
0.01745268 0.71100003 -0 5.2425532e-39 334 240
0.018751899 0.713 -0 5.3347489e-39 335 240
0.020030079 0.71399999 -0 5.3347489e-39 336 240
0.021341572 0.71600002 -0 5.5191401e-39 337 240
0.02262852 0.71700001 -0 5.2443483e-39 338 240
0.023952285 0.71899998 -0 4.1380007e-39 339 240
0.025248 0.72000003 -0 2.8469172e-39 340 240
0.026510401 0.72000003 -0 8.5619715e-39 341 240
0.027849946 0.722 -0 1.2447506e-38 342 240
-0.043754432 0.713 -0.0012501266 5.0736505e-39 285 241
-0.042385083 0.71100003 -0.00124662 3.869348e-39 286 241
-0.041138459 0.71100003 -0.00124662 3.4083712e-39 287 241
-0.039835732 0.70999998 -0.0012448666 6.1638033e-39 288 241
-0.038590867 0.70999998 -0.0012448666 7.9155202e-39 289 241
-0.037188202 0.70700002 -0.0012396066 8.1967791e-39 290 241
-0.035897743 0.70599997 -0.0012378532 7.6436067e-39 291 241
-0.034561705 0.704 -0.0012343467 6.6244129e-39 292 241
-0.033280019 0.70300001 -0.0012325933 6.1637935e-39 293 241
-0.031956252 0.70099998 -0.0012290865 6.9881535e-39 294 241
-0.030683333 0.69999999 -0.0012273333 6.8959579e-39 295 241
-0.029455997 0.69999999 -0.0012273333 6.8977558e-39 296 241
-0.028148014 0.69800001 -0.0012238267 7.2665383e-39 297 241
-0.026924185 0.69800001 -0.0012238267 7.1757846e-39 298 241
-0.025700359 0.69800001 -0.0012238267 6.9917535e-39 299 241
-0.024476532 0.69800001 -0.0012238267 6.528253e-39 300 241
-0.023252707 0.69800001 -0.0012238267 6.1594719e-39 301 241
-0.02202888 0.69800001 -0.0012238267 6.3406219e-39 302 241
-0.020805053 0.69800001 -0.0012238267 6.1558719e-39 303 241
-0.019581227 0.69800001 -0.0012238267 6.1562279e-39 304 241
-0.0183574 0.69800001 -0.0012238267 6.1562279e-39 305 241
-0.017133573 0.69800001 -0.0012238267 6.1562279e-39 306 241
-0.015886955 0.69700003 -0.0012220733 6.1562279e-39 307 241
-0.01466488 0.69700003 -0.0012220733 6.0651112e-39 308 241
-0.013442807 0.69700003 -0.0012220733 6.1573069e-39 309 241
-0.012220734 0.69700003 -0.0012220733 6.7086814e-39 310 241
-0.01099866 0.69700003 -0.0012220733 6.893074e-39 311 241
-0.0097765867 0.69700003 -0.0012220733 7.1696567e-39 312 241
-0.0085545136 0.69700003 -0.0012220733 6.9856256e-39 313 241
-0.0073429602 0.69800001 -0.0012238267 6.7093946e-39 314 241
-0.006119133 0.69800001 -0.0012238267 6.7093946e-39 315 241
-0.0048953067 0.69800001 -0.0012238267 6.8012301e-39 316 241
-0.0036714801 0.69800001 -0.0012238267 6.8934272e-39 317 241
-0.0024476533 0.69800001 -0.0012238267 6.8015945e-39 318 241
-0.0012238267 0.69800001 -0.0012238267 6.7093974e-39 319 241
0 0.69999999 -0.0012273333 6.618285e-39 320 241
0.0012273333 0.69999999 -0.0012273333 6.618285e-39 321 241
0.0024581731 0.70099998 -0.0012290865 6.2509416e-39 322 241
0.0036872597 0.70099998 -0.0012290865 6.3431372e-39 323 241
0.0049303733 0.70300001 -0.0012325933 5.7932033e-39 324 241
0.0061717331 0.704 -0.0012343467 5.7932033e-39 325 241
0.0074060797 0.704 -0.0012343467 5.4269417e-39 326 241
0.0086404262 0.704 -0.0012343467 5.3347461e-39 327 241
0.0099028256 0.70599997 -0.0012378532 5.5184184e-39 328 241
0.011140679 0.70599997 -0.0012378532 5.5184184e-39 329 241
0.012378532 0.70599997 -0.0012378532 5.7028055e-39 330 241
0.013654959 0.708 -0.00124136 5.5187744e-39 331 241
0.014938398 0.70999998 -0.0012448666 5.335102e-39 332 241
0.016183265 0.70999998 -0.0012448666 5.335102e-39 333 241
0.01745268 0.71100003 -0.00124662 5.2425504e-39 334 241
0.018751899 0.713 -0.0012501266 5.2425504e-39 335 241
0.020030079 0.71399999 -0.00125188 5.0592382e-39 336 241
0.021341572 0.71600002 -0.0012553866 5.1514338e-39 337 241
0.02262852 0.71700001 -0.00125714 5.0588822e-39 338 241
0.023952285 0.71899998 -0.0012606466 4.4135128e-39 339 241
0.025212931 0.71899998 -0.0012606466 3.1224349e-39 340 241
0.02647358 0.71899998 -0.0012606466 6.2563674e-39 341 241
0.027849946 0.722 -0.0012659066 1.1618107e-38 342 241
0.029115854 0.722 -0.0012659066 1.5951661e-38 343 241
-0.043754432 0.713 -0.0025002533 4.0587755e-39 285 242
-0.042385083 0.71100003 -0.0024932399 3.9561556e-39 286 242
-0.041080594 0.70999998 -0.0024897333 4.9699488e-39 287 242
-0.039835732 0.70999998 -0.0024897333 5.7060705e-39 288 242
-0.038482159 0.708 -0.00248272 6.6280282e-39 289 242
-0.037188202 0.70700002 -0.0024792133 7.5485398e-39 290 242
-0.035897743 0.70599997 -0.0024757064 6.7187777e-39 291 242
-0.034561705 0.704 -0.0024686933 6.8981271e-39 292 242
-0.033280019 0.70300001 -0.0024651866 6.714096e-39 293 242
-0.031956252 0.70099998 -0.0024581731 6.6222507e-39 294 242
-0.030683333 0.69999999 -0.0024546667 7.1750657e-39 295 242
-0.029455997 0.69999999 -0.0024546667 7.1797503e-39 296 242
-0.028148014 0.69800001 -0.0024476533 8.3782935e-39 297 242
-0.026924185 0.69800001 -0.0024476533 9.7569147e-39 298 242
-0.025700359 0.69800001 -0.0024476533 8.4661759e-39 299 242
-0.024476532 0.69800001 -0.0024476533 7.2650992e-39 300 242
-0.023252707 0.69800001 -0.0024476533 6.3427841e-39 301 242
-0.02202888 0.69800001 -0.0024476533 6.4335336e-39 302 242
-0.020805053 0.69800001 -0.0024476533 6.1573069e-39 303 242
-0.019581227 0.69800001 -0.0024476533 5.9729156e-39 304 242
-0.0183574 0.69800001 -0.0024476533 5.9729156e-39 305 242
-0.017133573 0.69800001 -0.0024476533 5.9725597e-39 306 242
-0.015886955 0.69700003 -0.0024441467 5.9725597e-39 307 242
-0.01466488 0.69700003 -0.0024441467 5.8810829e-39 308 242
-0.013442807 0.69700003 -0.0024441467 5.8810829e-39 309 242
-0.012220734 0.69700003 -0.0024441467 6.065477e-39 310 242
-0.01099866 0.69700003 -0.0024441467 6.1576726e-39 311 242
-0.0097765867 0.69700003 -0.0024441467 6.1580285e-39 312 242
-0.0085667865 0.69800001 -0.0024476533 6.1580285e-39 313 242
-0.0073429602 0.69800001 -0.0024476533 6.1580229e-39 314 242
-0.006119133 0.69800001 -0.0024476533 6.2502185e-39 315 242
-0.0048953067 0.69800001 -0.0024476533 6.4335336e-39 316 242
-0.0036714801 0.69800001 -0.0024476533 6.5257306e-39 317 242
-0.0024476533 0.69800001 -0.0024476533 6.2509444e-39 318 242
-0.0012238267 0.69800001 -0.0024476533 6.2509444e-39 319 242
0 0.69800001 -0.0024476533 5.9757967e-39 320 242
0.0012273333 0.69999999 -0.0024546667 5.9757967e-39 321 242
0.0024546667 0.69999999 -0.0024546667 5.5169751e-39 322 242
0.0036872597 0.70099998 -0.0024581731 5.6091721e-39 323 242
0.0049163462 0.70099998 -0.0024581731 5.3340272e-39 324 242
0.0061629666 0.70300001 -0.0024651866 5.4262228e-39 325 242
0.0074060797 0.704 -0.0024686933 5.1514338e-39 326 242
0.0086404262 0.704 -0.0024686933 5.0592382e-39 327 242
0.0099028256 0.70599997 -0.0024757064 5.3347461e-39 328 242
0.011140679 0.70599997 -0.0024757064 5.4269417e-39 329 242
0.012378532 0.70599997 -0.0024757064 5.5184184e-39 330 242
0.013635674 0.70700002 -0.0024792133 5.4262228e-39 331 242
0.014938398 0.70999998 -0.0024897333 5.1514338e-39 332 242
0.016183265 0.70999998 -0.0024897333 5.1514338e-39 333 242
0.01745268 0.71100003 -0.0024932399 5.0592382e-39 334 242
0.018751899 0.713 -0.0025002533 5.0592382e-39 335 242
0.020002026 0.713 -0.0025002533 5.0592382e-39 336 242
0.021281958 0.71399999 -0.0025037599 4.9670411e-39 337 242
0.02262852 0.71700001 -0.0025142799 4.965616e-39 338 242
0.02388566 0.71700001 -0.0025142799 4.6890291e-39 339 242
0.025212931 0.71899998 -0.0025212932 3.4901454e-39 340 242
0.02647358 0.71899998 -0.0025212932 4.6890487e-39 341 242
0.027772799 0.72000003 -0.0025248001 1.0787627e-38 342 242
0.029115854 0.722 -0.0025318132 1.6227528e-38 343 242
-0.043754432 0.713 -0.0037503797 3.5048787e-39 285 243
-0.042385083 0.71100003 -0.0037398601 4.3234864e-39 286 243
-0.041080594 0.70999998 -0.0037345996 5.2454441e-39 287 243
-0.039723519 0.708 -0.00372408 5.5202359e-39 288 243
-0.038482159 0.708 -0.00372408 5.7042671e-39 289 243
-0.037135597 0.70599997 -0.0037135598 5.8868661e-39 290 243
-0.035897743 0.70599997 -0.0037135598 5.8868661e-39 291 243
-0.034561705 0.704 -0.0037030398 6.2524074e-39 292 243
-0.033280019 0.70300001 -0.0036977797 6.5289957e-39 293 243
-0.031910665 0.69999999 -0.0036819996 6.7166141e-39 294 243
-0.030683333 0.69999999 -0.0036819996 8.2835797e-39 295 243
-0.029371841 0.69800001 -0.0036714801 9.1198242e-39 296 243
-0.028148014 0.69800001 -0.0036714801 1.1055932e-38 297 243
-0.026924185 0.69800001 -0.0036714801 1.2161208e-38 298 243
-0.025700359 0.69800001 -0.0036714801 9.1191109e-39 299 243
-0.024476532 0.69800001 -0.0036714801 8.2814147e-39 300 243
-0.023252707 0.69800001 -0.0036714801 6.4375035e-39 301 243
-0.02202888 0.69800001 -0.0036714801 6.7111967e-39 302 243
-0.020805053 0.69800001 -0.0036714801 6.1580229e-39 303 243
-0.019581227 0.69800001 -0.0036714801 5.8810801e-39 304 243
-0.0183574 0.69800001 -0.0036714801 5.8810801e-39 305 243
-0.017133573 0.69800001 -0.0036714801 5.8810801e-39 306 243
-0.015886955 0.69700003 -0.00366622 5.8810801e-39 307 243
-0.01466488 0.69700003 -0.00366622 5.6055722e-39 308 243
-0.013442807 0.69700003 -0.00366622 5.6055722e-39 309 243
-0.0122032 0.69599998 -0.0036609597 5.9736345e-39 310 243
-0.010982879 0.69599998 -0.0036609597 5.9736345e-39 311 243
-0.0097625591 0.69599998 -0.0036609597 6.0651112e-39 312 243
-0.0085422397 0.69599998 -0.0036609597 6.0651112e-39 313 243
