# .PCD v.7 - Point Cloud Data file format
FIELDS x y z rgb imX imY
SIZE 4 4 4 4 4 4
TYPE F F F F F F
COUNT 1 1 1 1 1 1
WIDTH 837
HEIGHT 1
VIEWPOINT 0 0 0 1 0 0 0
POINTS 837
DATA ascii
-0.028470624 0.70599997 -0.028470624 9.226257e-39 297 263
-0.027232772 0.70599997 -0.028470624 9.0429475e-39 298 263
-0.02592128 0.704 -0.028389972 8.9507505e-39 299 263
-0.024686933 0.704 -0.028389972 8.8581989e-39 300 263
-0.023452586 0.704 -0.028389972 8.5819722e-39 301 263
-0.022218239 0.704 -0.028389972 8.673086e-39 302 263
-0.021043506 0.70599997 -0.028470624 8.673086e-39 303 263
-0.019749546 0.704 -0.028389972 8.4886934e-39 304 263
-0.018515198 0.704 -0.028389972 8.5808904e-39 305 263
-0.017280852 0.704 -0.028389972 8.5801673e-39 306 263
-0.016023712 0.70300001 -0.028349647 8.3957761e-39 307 263
-0.014791119 0.70300001 -0.028349647 8.3028616e-39 308 263
-0.013558527 0.70300001 -0.028349647 8.2106673e-39 309 263
-0.012325933 0.70300001 -0.028349647 8.3010679e-39 310 263
-0.011061779 0.70099998 -0.028268991 8.0248439e-39 311 263
-0.0098326923 0.70099998 -0.028268991 8.1156032e-39 312 263
-0.0086036054 0.70099998 -0.028268991 8.023409e-39 313 263
-0.0073745195 0.70099998 -0.028268991 7.839738e-39 314 263
-0.0061629666 0.70300001 -0.028349647 7.839738e-39 315 263
-0.0049303733 0.70300001 -0.028349647 7.7471851e-39 316 263
-0.0036977797 0.70300001 -0.028349647 7.6549908e-39 317 263
-0.0024686933 0.704 -0.028389972 7.5627966e-39 318 263
-0.0012343467 0.704 -0.028389972 7.5627966e-39 319 263
0 0.704 -0.028389972 7.5627966e-39 320 263
0.0012343467 0.704 -0.028389972 7.5627966e-39 321 263
0.0024686933 0.704 -0.028389972 7.3787669e-39 322 263
0.0037030398 0.704 -0.028389972 7.3787669e-39 323 263
0.0049514128 0.70599997 -0.028470624 7.2865726e-39 324 263
0.0061892662 0.70599997 -0.028470624 7.1018255e-39 325 263
0.0074376399 0.70700002 -0.028510952 7.2851377e-39 326 263
0.008677247 0.70700002 -0.028510952 7.101108e-39 327 263
0.0099308798 0.708 -0.02855128 7.2851377e-39 328 263
0.011203799 0.70999998 -0.028631933 7.3773319e-39 329 263
0.012448666 0.70999998 -0.028631933 7.4688087e-39 330 263
0.01371282 0.71100003 -0.028672259 7.4688087e-39 331 263
0.014959441 0.71100003 -0.028672259 7.4684514e-39 332 263
0.01620606 0.71100003 -0.028672259 7.5610057e-39 333 263
0.017501773 0.713 -0.028752912 7.9272771e-39 334 263
0.018751899 0.713 -0.028752912 8.0194728e-39 335 263
0.020086186 0.71600002 -0.028873893 8.2964198e-39 336 263
0.021371379 0.71700001 -0.028914221 8.5726465e-39 337 263
0.02262852 0.71700001 -0.028914221 8.9407032e-39 338 263
0.02388566 0.71700001 -0.028914221 8.3878881e-39 339 263
0.0251428 0.71700001 -0.028914221 1.1055834e-38 340 263
-0.046838548 0.722 -0.030381758 1.4562186e-38 283 264
-0.045446403 0.72000003 -0.0302976 1.2535989e-38 284 264
-0.044122629 0.71899998 -0.030255521 1.1798424e-38 285 264
-0.042742759 0.71700001 -0.030171359 1.1249527e-38 286 264
-0.041485619 0.71700001 -0.030171359 1.0788551e-38 287 264
-0.040172372 0.71600002 -0.03012928 1.060236e-38 288 264
-0.038808275 0.71399999 -0.030045118 1.0141382e-38 289 264
-0.037503798 0.713 -0.030003037 9.6829219e-39 290 264
-0.036253672 0.713 -0.030003037 9.8673118e-39 291 264
-0.034905359 0.71100003 -0.029918881 9.409558e-39 292 264
-0.033611398 0.70999998 -0.029876797 9.409558e-39 293 264
-0.03227536 0.708 -0.02979264 9.5017523e-39 294 264
-0.030990168 0.70700002 -0.029750559 9.5017523e-39 295 264
-0.029750559 0.70700002 -0.029750559 9.1344131e-39 296 264
-0.028470624 0.70599997 -0.029708479 8.950382e-39 297 264
-0.027232772 0.70599997 -0.029708479 8.8585521e-39 298 264
-0.025994917 0.70599997 -0.029708479 8.7663564e-39 299 264
-0.024686933 0.704 -0.029624319 8.7652816e-39 300 264
-0.023452586 0.704 -0.029624319 8.673086e-39 301 264
-0.022218239 0.704 -0.029624319 8.6723699e-39 302 264
-0.021043506 0.70599997 -0.029708479 8.5801729e-39 303 264
-0.019805651 0.70599997 -0.029708479 8.3043091e-39 304 264
-0.018515198 0.704 -0.029624319 8.3043091e-39 305 264
-0.017280852 0.704 -0.029624319 8.2117575e-39 306 264
-0.016023712 0.70300001 -0.029582238 8.1195619e-39 307 264
-0.014791119 0.70300001 -0.029582238 8.21031e-39 308 264
-0.013558527 0.70300001 -0.029582238 8.1181144e-39 309 264
-0.012325933 0.70300001 -0.029582238 8.0255614e-39 310 264
-0.011061779 0.70099998 -0.029498078 7.9333672e-39 311 264
-0.0098326923 0.70099998 -0.029498078 7.932291e-39 312 264
-0.0086036054 0.70099998 -0.029498078 7.7479025e-39 313 264
-0.0073745195 0.70099998 -0.029498078 7.7475438e-39 314 264
-0.0061629666 0.70300001 -0.029582238 7.6553496e-39 315 264
-0.0049303733 0.70300001 -0.029582238 7.3791256e-39 316 264
-0.0036977797 0.70300001 -0.029582238 7.2869314e-39 317 264
-0.0024686933 0.704 -0.029624319 7.2869314e-39 318 264
-0.0012343467 0.704 -0.029624319 7.2869314e-39 319 264
0 0.704 -0.029624319 7.3791256e-39 320 264
0.0012343467 0.704 -0.029624319 7.3791256e-39 321 264
0.0024757064 0.70599997 -0.029708479 7.5627966e-39 322 264
0.0037135598 0.70599997 -0.029708479 7.3787669e-39 323 264
0.0049514128 0.70599997 -0.029708479 7.4698849e-39 324 264
0.0061980332 0.70700002 -0.029750559 7.2854965e-39 325 264
0.0074481601 0.708 -0.02979264 7.2851377e-39 326 264
0.008689519 0.708 -0.02979264 7.2851377e-39 327 264
0.0099589331 0.70999998 -0.029876797 7.3773319e-39 328 264
0.011203799 0.70999998 -0.029876797 7.3773319e-39 329 264
0.0124662 0.71100003 -0.029918881 7.5610057e-39 330 264
0.01371282 0.71100003 -0.029918881 7.5610057e-39 331 264
0.014959441 0.71100003 -0.029918881 7.744318e-39 332 264
0.01620606 0.71100003 -0.029918881 7.744318e-39 333 264
0.017501773 0.713 -0.030003037 7.8361577e-39 334 264
0.018778199 0.71399999 -0.030045118 8.1127432e-39 335 264
0.020086186 0.71600002 -0.03012928 8.2967827e-39 336 264
0.021371379 0.71700001 -0.030171359 8.4815327e-39 337 264
0.02262852 0.71700001 -0.030171359 8.7563189e-39 338 264
0.024052227 0.722 -0.030381758 9.0329044e-39 339 264
0.025318133 0.722 -0.030381758 1.1884882e-38 340 264
-0.045572639 0.722 -0.031647664 1.33654e-38 284 265
-0.044183999 0.72000003 -0.03156 1.189027e-38 285 265
-0.042861983 0.71899998 -0.031516165 1.1523966e-38 286 265
-0.041485619 0.71700001 -0.031428497 1.1247379e-38 287 265
-0.040172372 0.71600002 -0.031384666 1.0418339e-38 288 265
-0.038808275 0.71399999 -0.031296998 9.8655237e-39 289 265
-0.037556399 0.71399999 -0.031296998 9.7740414e-39 290 265
-0.036253672 0.713 -0.031253166 9.9584326e-39 291 265
-0.034905359 0.71100003 -0.031165501 9.31844e-39 292 265
-0.033611398 0.70999998 -0.031121666 9.31844e-39 293 265
-0.03227536 0.708 -0.031034 9.3184372e-39 294 265
-0.030990168 0.70700002 -0.030990168 9.2262402e-39 295 265
-0.029750559 0.70700002 -0.030990168 8.951098e-39 296 265
-0.028470624 0.70599997 -0.030946331 8.7667068e-39 297 265
-0.027232772 0.70599997 -0.030946331 8.8578304e-39 298 265
-0.025994917 0.70599997 -0.030946331 8.7656348e-39 299 265
-0.024757065 0.70599997 -0.030946331 8.6730832e-39 300 265
-0.023452586 0.704 -0.030858666 8.5808876e-39 301 265
-0.022218239 0.704 -0.030858666 8.4879745e-39 302 265
-0.021043506 0.70599997 -0.030946331 8.3032245e-39 303 265
-0.019805651 0.70599997 -0.030946331 8.3025056e-39 304 265
-0.018515198 0.704 -0.030858666 8.3025056e-39 305 265
-0.017280852 0.704 -0.030858666 8.1191934e-39 306 265
-0.016023712 0.70300001 -0.030814834 8.0269977e-39 307 265
-0.014791119 0.70300001 -0.030814834 8.1184731e-39 308 265
-0.013558527 0.70300001 -0.030814834 8.0259201e-39 309 265
-0.012325933 0.70300001 -0.030814834 8.0255614e-39 310 265
-0.011061779 0.70099998 -0.030727165 7.9333672e-39 311 265
-0.0098326923 0.70099998 -0.030727165 7.74862e-39 312 265
-0.0086036054 0.70099998 -0.030727165 7.472396e-39 313 265
-0.0073955595 0.70300001 -0.030814834 7.6546321e-39 314 265
-0.0061629666 0.70300001 -0.030814834 7.5624379e-39 315 265
-0.0049373866 0.704 -0.030858666 7.3787669e-39 316 265
-0.0037030398 0.704 -0.030858666 7.2865726e-39 317 265
-0.0024686933 0.704 -0.030858666 7.1950959e-39 318 265
-0.0012343467 0.704 -0.030858666 7.2872901e-39 319 265
0 0.704 -0.030858666 7.3787669e-39 320 265
0.0012378532 0.70599997 -0.030946331 7.5627966e-39 321 265
0.0024757064 0.70599997 -0.030946331 7.5627966e-39 322 265
0.0037135598 0.70599997 -0.030946331 7.5627966e-39 323 265
0.0049514128 0.70599997 -0.030946331 7.2865726e-39 324 265
0.0061980332 0.70700002 -0.030990168 7.2865726e-39 325 265
0.0074481601 0.708 -0.031034 7.1940197e-39 326 265
0.008689519 0.708 -0.031034 7.1018255e-39 327 265
0.0099589331 0.70999998 -0.031121666 7.284779e-39 328 265
0.011203799 0.70999998 -0.031121666 7.284779e-39 329 265
0.0124662 0.71100003 -0.031165501 7.8354332e-39 330 265
0.01371282 0.71100003 -0.031165501 7.9276275e-39 331 265
0.014959441 0.71100003 -0.031165501 7.744318e-39 332 265
0.016251646 0.713 -0.031253166 7.8365136e-39 333 265
0.017526319 0.71399999 -0.031296998 7.8368794e-39 334 265
0.0188308 0.71600002 -0.031384666 8.021272e-39 335 265
0.020114239 0.71700001 -0.031428497 8.4804537e-39 336 265
0.021430992 0.71899998 -0.031516165 8.5726493e-39 337 265
0.022691639 0.71899998 -0.031516165 8.5715746e-39 338 265
0.024052227 0.722 -0.031647664 1.0047063e-38 339 265
0.025318133 0.722 -0.031647664 1.2713929e-38 340 265
-0.044183999 0.72000003 -0.0328224 1.2258343e-38 285 266
-0.042921603 0.72000003 -0.0328224 1.1341737e-38 286 266
-0.041601337 0.71899998 -0.032776814 1.0788922e-38 287 266
-0.040228479 0.71700001 -0.032685637 1.0970064e-38 288 266
-0.038916986 0.71600002 -0.032640055 1.0509446e-38 289 266
-0.037556399 0.71399999 -0.032548878 9.9587858e-39 290 266
-0.036304519 0.71399999 -0.032548878 1.0050983e-38 291 266
-0.035003547 0.713 -0.032503292 9.5939479e-39 292 266
-0.033658739 0.71100003 -0.032412119 9.5017523e-39 293 266
-0.032366529 0.70999998 -0.032366529 9.502104e-39 294 266
-0.031034 0.708 -0.03227536 9.4099098e-39 295 266
-0.029750559 0.70700002 -0.032229774 9.3173568e-39 296 266
-0.028510952 0.70700002 -0.032229774 9.1333271e-39 297 266
-0.027232772 0.70599997 -0.032184184 9.0411329e-39 298 266
-0.025994917 0.70599997 -0.032184184 9.0411329e-39 299 266
-0.024757065 0.70599997 -0.032184184 8.8563857e-39 300 266
-0.023519212 0.70599997 -0.032184184 8.7641914e-39 301 266
-0.022281358 0.70599997 -0.032184184 8.6716385e-39 302 266
-0.021043506 0.70599997 -0.032184184 8.3954145e-39 303 266
-0.019805651 0.70599997 -0.032184184 8.3028616e-39 304 266
-0.018567799 0.70599997 -0.032184184 8.2106673e-39 305 266
-0.017329946 0.70599997 -0.032184184 8.0270005e-39 306 266
-0.016046507 0.704 -0.032093015 8.0270005e-39 307 266
-0.014812159 0.704 -0.032093015 7.9351608e-39 308 266
-0.013558527 0.70300001 -0.032047424 7.8429666e-39 309 266
-0.012325933 0.70300001 -0.032047424 8.0259201e-39 310 266
-0.01109334 0.70300001 -0.032047424 7.9337259e-39 311 266
-0.0098607466 0.70300001 -0.032047424 8.0237677e-39 312 266
-0.0086404262 0.704 -0.032093015 7.7475438e-39 313 266
-0.0074060797 0.704 -0.032093015 7.7471851e-39 314 266
-0.0061717331 0.704 -0.032093015 7.5627966e-39 315 266
-0.0049373866 0.704 -0.032093015 7.3791256e-39 316 266
-0.0037030398 0.704 -0.032093015 7.2869314e-39 317 266
-0.0024686933 0.704 -0.032093015 7.2862139e-39 318 266
-0.0012343467 0.704 -0.032093015 7.3784081e-39 319 266
0 0.70599997 -0.032184184 7.3784081e-39 320 266
0.0012378532 0.70599997 -0.032184184 7.5624379e-39 321 266
0.0024757064 0.70599997 -0.032184184 7.3794843e-39 322 266
0.0037135598 0.70599997 -0.032184184 7.3794843e-39 323 266
0.0049584266 0.70700002 -0.032229774 7.3787669e-39 324 266
0.0062067998 0.708 -0.03227536 7.1943784e-39 325 266
0.0074481601 0.708 -0.03227536 7.3773319e-39 326 266
0.008689519 0.708 -0.03227536 7.3773319e-39 327 266
0.0099589331 0.70999998 -0.032366529 7.284779e-39 328 266
0.011203799 0.70999998 -0.032366529 7.284779e-39 329 266
0.0124662 0.71100003 -0.032412119 7.4684514e-39 330 266
0.01371282 0.71100003 -0.032412119 7.5610057e-39 331 266
0.014959441 0.71100003 -0.032412119 7.7446837e-39 332 266
0.016251646 0.713 -0.032503292 7.7446837e-39 333 266
0.017575413 0.71600002 -0.032640055 8.1123901e-39 334 266
0.0188308 0.71600002 -0.032640055 8.2045871e-39 335 266
0.020114239 0.71700001 -0.032685637 8.2967827e-39 336 266
0.021430992 0.71899998 -0.032776814 8.3893371e-39 337 266
0.022723202 0.72000003 -0.0328224 8.6626912e-39 338 266
0.024052227 0.722 -0.032913569 1.1060136e-38 339 266
0.025318133 0.722 -0.032913569 1.3727005e-38 340 266
-0.044183999 0.72000003 -0.034084801 1.2810093e-38 285 267
-0.042921603 0.72000003 -0.034084801 1.1249194e-38 286 267
-0.041601337 0.71899998 -0.03403746 1.0880411e-38 287 267
-0.040228479 0.71700001 -0.033942781 1.0603808e-38 288 267
-0.038916986 0.71600002 -0.03389544 1.0419058e-38 289 267
-0.037661601 0.71600002 -0.03389544 9.8680363e-39 290 267
-0.036304519 0.71399999 -0.033800758 9.8680363e-39 291 267
-0.035003547 0.713 -0.033753417 9.5935976e-39 292 267
-0.033658739 0.71100003 -0.033658739 9.5935976e-39 293 267
-0.032366529 0.70999998 -0.033611398 9.4102825e-39 294 267
-0.031034 0.708 -0.033516716 9.3180869e-39 295 267
-0.029750559 0.70700002 -0.033469379 9.2258898e-39 296 267
-0.028510952 0.70700002 -0.033469379 9.1336942e-39 297 267
-0.027271347 0.70700002 -0.033469379 9.0411427e-39 298 267
-0.02603174 0.70700002 -0.033469379 9.0411427e-39 299 267
-0.024757065 0.70599997 -0.033422034 8.6734391e-39 300 267
-0.023519212 0.70599997 -0.033422034 8.6734391e-39 301 267
-0.022281358 0.70599997 -0.033422034 8.4890465e-39 302 267
-0.021043506 0.70599997 -0.033422034 8.212461e-39 303 267
-0.019805651 0.70599997 -0.033422034 8.1195493e-39 304 267
-0.018567799 0.70599997 -0.033422034 7.9351608e-39 305 267
-0.017329946 0.70599997 -0.033422034 8.1184731e-39 306 267
-0.016046507 0.704 -0.03332736 8.2106673e-39 307 267
-0.014812159 0.704 -0.03332736 7.9351608e-39 308 267
-0.013577812 0.704 -0.03332736 7.8429666e-39 309 267
-0.012343466 0.704 -0.03332736 7.8422491e-39 310 267
-0.011109119 0.704 -0.03332736 7.7500549e-39 311 267
-0.0098747732 0.704 -0.03332736 7.8400968e-39 312 267
-0.0086404262 0.704 -0.03332736 7.7479025e-39 313 267
-0.0074060797 0.704 -0.03332736 7.4720373e-39 314 267
-0.0061717331 0.704 -0.03332736 7.4720373e-39 315 267
-0.0049373866 0.704 -0.03332736 7.3798431e-39 316 267
-0.0037135598 0.70599997 -0.033422034 7.1954546e-39 317 267
-0.0024757064 0.70599997 -0.033422034 7.2865726e-39 318 267
-0.0012378532 0.70599997 -0.033422034 7.3787669e-39 319 267
0 0.70599997 -0.033422034 7.3784081e-39 320 267
0.0012378532 0.70599997 -0.033422034 7.5627966e-39 321 267
0.0024757064 0.70599997 -0.033422034 7.1958133e-39 322 267
0.0037135598 0.70599997 -0.033422034 7.1036191e-39 323 267
0.0049584266 0.70700002 -0.033469379 7.4695262e-39 324 267
0.0062067998 0.708 -0.033516716 7.3773319e-39 325 267
0.0074481601 0.708 -0.033516716 7.193661e-39 326 267
0.0087140659 0.70999998 -0.033611398 7.193661e-39 327 267
0.0099729598 0.71100003 -0.033658739 7.3769746e-39 328 267
0.01121958 0.71100003 -0.033658739 7.3769746e-39 329 267
0.012501267 0.713 -0.033753417 7.4684542e-39 330 267
0.013751393 0.713 -0.033753417 7.5606498e-39 331 267
0.015022559 0.71399999 -0.033800758 7.7439649e-39 332 267
0.016320027 0.71600002 -0.03389544 7.9283561e-39 333 267
0.017599959 0.71700001 -0.033942781 8.1123901e-39 334 267
0.018857099 0.71700001 -0.033942781 8.2967827e-39 335 267
0.020170346 0.71899998 -0.03403746 8.5726465e-39 336 267
0.021430992 0.71899998 -0.03403746 8.4804509e-39 337 267
0.022723202 0.72000003 -0.034084801 8.8452874e-39 338 267
0.024085538 0.72299999 -0.03422682 1.216433e-38 339 267
0.025353199 0.72299999 -0.03422682 1.4741885e-38 340 267
-0.044183999 0.72000003 -0.035347197 1.3087769e-38 285 268
-0.042921603 0.72000003 -0.035347197 1.1616547e-38 286 268
-0.041601337 0.71899998 -0.035298105 1.1155569e-38 287 268
-0.040340692 0.71899998 -0.035298105 1.1154825e-38 288 268
-0.038971342 0.71700001 -0.035199918 1.0878597e-38 289 268
-0.037661601 0.71600002 -0.035150826 1.0143903e-38 290 268
-0.036406212 0.71600002 -0.035150826 1.0051707e-38 291 268
-0.035052639 0.71399999 -0.035052639 9.8683894e-39 292 268
-0.033753417 0.713 -0.035003547 9.8683894e-39 293 268
-0.032412119 0.71100003 -0.034905359 9.5939535e-39 294 268
-0.031121666 0.70999998 -0.034856264 9.5013991e-39 295 268
-0.02979264 0.708 -0.034758076 9.5932346e-39 296 268
-0.02855128 0.708 -0.034758076 9.5006789e-39 297 268
-0.027271347 0.70700002 -0.034708988 9.133697e-39 298 268
-0.02603174 0.70700002 -0.034708988 9.0411427e-39 299 268
-0.024792133 0.70700002 -0.034708988 8.7656348e-39 300 268
-0.023519212 0.70599997 -0.034659892 8.6734391e-39 301 268
-0.022281358 0.70599997 -0.034659892 8.5805204e-39 302 268
-0.021073313 0.70700002 -0.034708988 8.396132e-39 303 268
-0.019805651 0.70599997 -0.034659892 8.3028616e-39 304 268
-0.018567799 0.70599997 -0.034659892 8.2106673e-39 305 268
-0.017329946 0.70599997 -0.034659892 8.1184731e-39 306 268
-0.016092092 0.70599997 -0.034659892 8.1184731e-39 307 268
-0.014812159 0.704 -0.034561705 8.0262789e-39 308 268
-0.013577812 0.704 -0.034561705 8.0262789e-39 309 268
-0.012343466 0.704 -0.034561705 7.8422491e-39 310 268
-0.011109119 0.704 -0.034561705 7.657502e-39 311 268
-0.0098747732 0.704 -0.034561705 7.8400968e-39 312 268
-0.0086404262 0.704 -0.034561705 7.7479025e-39 313 268
-0.0074060797 0.704 -0.034561705 7.7479025e-39 314 268
-0.0061892662 0.70599997 -0.034659892 7.6553496e-39 315 268
-0.0049514128 0.70599997 -0.034659892 7.5631553e-39 316 268
-0.0037135598 0.70599997 -0.034659892 7.3791256e-39 317 268
-0.0024757064 0.70599997 -0.034659892 7.3787669e-39 318 268
-0.0012378532 0.70599997 -0.034659892 7.3787669e-39 319 268
0 0.70599997 -0.034659892 7.1961721e-39 320 268
0.0012396066 0.70700002 -0.034708988 7.1961721e-39 321 268
0.0024792133 0.70700002 -0.034708988 7.2869314e-39 322 268
0.0037188199 0.70700002 -0.034708988 7.2869314e-39 323 268
0.0049654399 0.708 -0.034758076 7.4695262e-39 324 268
0.0062067998 0.708 -0.034758076 7.4695262e-39 325 268
0.0074691991 0.70999998 -0.034856264 7.4695262e-39 326 268
0.0087140659 0.70999998 -0.034856264 7.3773319e-39 327 268
0.0099729598 0.71100003 -0.034905359 7.3769746e-39 328 268
0.011251139 0.713 -0.035003547 7.284779e-39 329 268
0.012501267 0.713 -0.035003547 7.4684542e-39 330 268
0.01377068 0.71399999 -0.035052639 7.5606498e-39 331 268
0.01506464 0.71600002 -0.035150826 7.5602967e-39 332 268
0.016342819 0.71700001 -0.035199918 7.7443278e-39 333 268
0.017599959 0.71700001 -0.035199918 7.9294421e-39 334 268
0.018857099 0.71700001 -0.035199918 8.0219965e-39 335 268
0.020198401 0.72000003 -0.035347197 8.3893315e-39 336 268
0.021460801 0.72000003 -0.035347197 8.4815271e-39 337 268
0.022786319 0.722 -0.035445385 9.8576498e-39 338 268
0.024052227 0.722 -0.035445385 1.3176693e-38 339 268
-0.043040827 0.722 -0.03671129 1.1983535e-38 286 269
-0.041659199 0.72000003 -0.036609601 1.1430361e-38 287 269
-0.040340692 0.71899998 -0.036558751 1.0971878e-38 288 269
-0.039080046 0.71899998 -0.036558751 1.0695652e-38 289 269
-0.037819397 0.71899998 -0.036558751 1.0328297e-38 290 269
-0.036457058 0.71700001 -0.036457058 1.0236101e-38 291 269
-0.035150826 0.71600002 -0.036406212 9.8691083e-39 292 269
-0.033800758 0.71399999 -0.036304519 9.7769126e-39 293 269
-0.032412119 0.71100003 -0.036151983 9.5014019e-39 294 269
-0.031165501 0.71100003 -0.036151983 9.5014019e-39 295 269
-0.029876797 0.70999998 -0.036101133 9.5014019e-39 296 269
-0.028631933 0.70999998 -0.036101133 9.5014019e-39 297 269
-0.027309919 0.708 -0.03599944 9.2255395e-39 298 269
-0.026068559 0.708 -0.03599944 9.1333439e-39 299 269
-0.024827199 0.708 -0.03599944 8.7649285e-39 300 269
-0.023552528 0.70700002 -0.035948593 8.7649285e-39 301 269
-0.022312919 0.70700002 -0.035948593 8.6723699e-39 302 269
-0.021103119 0.708 -0.03599944 8.4876186e-39 303 269
-0.019833706 0.70700002 -0.035948593 8.3028616e-39 304 269
-0.018567799 0.70599997 -0.035897743 8.1184731e-39 305 269
-0.017329946 0.70599997 -0.035897743 8.1177556e-39 306 269
-0.016092092 0.70599997 -0.035897743 8.1177556e-39 307 269
-0.014854239 0.70599997 -0.035897743 8.0262789e-39 308 269
-0.013616386 0.70599997 -0.035897743 7.8422491e-39 309 269
-0.012343466 0.704 -0.035796054 7.8422491e-39 310 269
-0.011109119 0.704 -0.035796054 7.7496962e-39 311 269
-0.0098747732 0.704 -0.035796054 7.8400968e-39 312 269
-0.0086404262 0.704 -0.035796054 7.932291e-39 313 269
-0.0074060797 0.704 -0.035796054 7.7475438e-39 314 269
-0.0061892662 0.70599997 -0.035897743 7.6553496e-39 315 269
-0.0049514128 0.70599997 -0.035897743 7.3794843e-39 316 269
-0.0037135598 0.70599997 -0.035897743 7.3794843e-39 317 269
-0.0024757064 0.70599997 -0.035897743 7.1961721e-39 318 269
-0.0012396066 0.70700002 -0.035948593 7.1961721e-39 319 269
0 0.70700002 -0.035948593 7.3794843e-39 320 269
0.0012396066 0.70700002 -0.035948593 7.2872901e-39 321 269
0.0024792133 0.70700002 -0.035948593 7.3787669e-39 322 269
0.00372408 0.708 -0.03599944 7.2865726e-39 323 269
0.0049794666 0.70999998 -0.036101133 7.3787669e-39 324 269
0.0062243328 0.70999998 -0.036101133 7.3787669e-39 325 269
0.0074691991 0.70999998 -0.036101133 7.4695262e-39 326 269
0.0087263398 0.71100003 -0.036151983 7.3773319e-39 327 269
0.010001013 0.713 -0.036253672 7.4688087e-39 328 269
0.011251139 0.713 -0.036253672 7.4688087e-39 329 269
0.012518799 0.71399999 -0.036304519 7.469173e-39 330 269
0.013809253 0.71600002 -0.036406212 7.469173e-39 331 269
0.01506464 0.71600002 -0.036406212 7.5602967e-39 332 269
0.016342819 0.71700001 -0.036457058 7.8368822e-39 333 269
0.017599959 0.71700001 -0.036457058 8.0219937e-39 334 269
0.018909698 0.71899998 -0.036558751 8.1141893e-39 335 269
0.020198401 0.72000003 -0.036609601 8.4815327e-39 336 269
0.021460801 0.72000003 -0.036609601 9.0343478e-39 337 269
0.022786319 0.722 -0.03671129 1.0964014e-38 338 269
0.024085538 0.72299999 -0.036762137 1.3361099e-38 339 269
0.025353199 0.72299999 -0.036762137 1.2901585e-38 340 269
-0.043040827 0.722 -0.0379772 1.2995897e-38 286 270
-0.041659199 0.72000003 -0.037871998 1.2073582e-38 287 270
-0.040396802 0.72000003 -0.037871998 1.1432133e-38 288 270
-0.039080046 0.71899998 -0.037819397 1.1063711e-38 289 270
-0.037819397 0.71899998 -0.037819397 1.0420493e-38 290 270
-0.036457058 0.71700001 -0.037714198 1.0328297e-38 291 270
-0.035150826 0.71600002 -0.037661601 9.9613039e-39 292 270
-0.033800758 0.71399999 -0.037556399 9.7769126e-39 293 270
-0.032503292 0.713 -0.037503798 9.7772658e-39 294 270
-0.031165501 0.71100003 -0.037398599 9.7772658e-39 295 270
-0.029876797 0.70999998 -0.037345998 9.5928787e-39 296 270
-0.028631933 0.70999998 -0.037345998 9.5006817e-39 297 270
-0.027309919 0.708 -0.0372408 9.3166562e-39 298 270
-0.026068559 0.708 -0.0372408 9.132625e-39 299 270
-0.024827199 0.708 -0.0372408 8.7642096e-39 300 270
-0.023585839 0.708 -0.0372408 8.7642096e-39 301 270
-0.022344479 0.708 -0.0372408 8.7634852e-39 302 270
-0.021103119 0.708 -0.0372408 8.6712895e-39 303 270
-0.019833706 0.70700002 -0.037188202 8.4861738e-39 304 270
-0.018594101 0.70700002 -0.037188202 8.2099499e-39 305 270
-0.017354494 0.70700002 -0.037188202 8.1177556e-39 306 270
-0.016092092 0.70599997 -0.037135597 8.1177556e-39 307 270
-0.014854239 0.70599997 -0.037135597 7.8429666e-39 308 270
-0.013616386 0.70599997 -0.037135597 7.7504137e-39 309 270
-0.012378532 0.70599997 -0.037135597 7.9333672e-39 310 270
-0.011140679 0.70599997 -0.037135597 7.9333672e-39 311 270
-0.0099028256 0.70599997 -0.037135597 7.8408142e-39 312 270
-0.0086649731 0.70599997 -0.037135597 7.8408142e-39 313 270
-0.0074271196 0.70599997 -0.037135597 7.7482613e-39 314 270
-0.0061892662 0.70599997 -0.037135597 7.5642315e-39 315 270
-0.0049514128 0.70599997 -0.037135597 7.4716786e-39 316 270
-0.0037188199 0.70700002 -0.037188202 7.3794843e-39 317 270
-0.0024792133 0.70700002 -0.037188202 7.3794843e-39 318 270
-0.0012396066 0.70700002 -0.037188202 7.3794843e-39 319 270
0 0.70700002 -0.037188202 7.2872901e-39 320 270
0.0012396066 0.70700002 -0.037188202 7.2872901e-39 321 270
0.0024792133 0.70700002 -0.037188202 7.2872901e-39 322 270
0.00372408 0.708 -0.0372408 7.2872901e-39 323 270
0.0049794666 0.70999998 -0.037345998 7.3784081e-39 324 270
0.0062243328 0.70999998 -0.037345998 7.3784081e-39 325 270
0.0074797203 0.71100003 -0.037398599 7.3784081e-39 326 270
0.0087508867 0.713 -0.037503798 7.2862139e-39 327 270
0.01001504 0.71399999 -0.037556399 7.5617204e-39 328 270
0.011266919 0.71399999 -0.037556399 7.4695262e-39 329 270
0.012553867 0.71600002 -0.037661601 7.7439621e-39 330 270
0.013809253 0.71600002 -0.037661601 7.8361577e-39 331 270
0.015085679 0.71700001 -0.037714198 7.7443306e-39 332 270
0.016388407 0.71899998 -0.037819397 7.9287219e-39 333 270
0.017673599 0.72000003 -0.037871998 8.2967883e-39 334 270
0.018935999 0.72000003 -0.037871998 8.388984e-39 335 270
0.020198401 0.72000003 -0.037871998 8.572299e-39 336 270
0.021520413 0.722 -0.0379772 9.678648e-39 337 270
0.022786319 0.722 -0.0379772 1.188526e-38 338 270
0.024085538 0.72299999 -0.038029801 1.2623184e-38 339 270
0.025353199 0.72299999 -0.038029801 1.0419147e-38 340 270
-0.043040827 0.722 -0.039243106 1.4101538e-38 286 271
-0.041659199 0.72000003 -0.039134402 1.2626049e-38 287 271
-0.040396802 0.72000003 -0.039134402 1.161581e-38 288 271
-0.039134402 0.72000003 -0.039134402 1.115483e-38 289 271
-0.037819397 0.71899998 -0.039080046 1.0696002e-38 290 271
-0.036558751 0.71899998 -0.039080046 1.0603805e-38 291 271
-0.035199918 0.71700001 -0.038971342 1.0144975e-38 292 271
-0.03389544 0.71600002 -0.038916986 9.960585e-39 293 271
-0.032503292 0.713 -0.038753927 9.5932346e-39 294 271
-0.031253166 0.713 -0.038753927 9.5932346e-39 295 271
-0.029918881 0.71100003 -0.038645219 9.5006817e-39 296 271
-0.028631933 0.70999998 -0.038590867 9.408486e-39 297 271
-0.027387066 0.70999998 -0.038590867 9.3159373e-39 298 271
-0.026142199 0.70999998 -0.038590867 9.2237417e-39 299 271
-0.024827199 0.708 -0.038482159 8.7645656e-39 300 271
-0.023585839 0.708 -0.038482159 8.6723699e-39 301 271
-0.022344479 0.708 -0.038482159 8.7627635e-39 302 271
-0.021103119 0.708 -0.038482159 8.6705679e-39 303 271
-0.01986176 0.708 -0.038482159 8.4861738e-39 304 271
-0.018594101 0.70700002 -0.038427804 8.2099499e-39 305 271
-0.017354494 0.70700002 -0.038427804 7.8422491e-39 306 271
-0.016092092 0.70599997 -0.038373452 7.8422491e-39 307 271
-0.014854239 0.70599997 -0.038373452 7.7504137e-39 308 271
-0.013616386 0.70599997 -0.038373452 7.6582194e-39 309 271
-0.012378532 0.70599997 -0.038373452 7.7496962e-39 310 271
-0.011140679 0.70599997 -0.038373452 7.8418904e-39 311 271
-0.0099028256 0.70599997 -0.038373452 8.0244852e-39 312 271
-0.0086649731 0.70599997 -0.038373452 7.932291e-39 313 271
-0.0074271196 0.70599997 -0.038373452 7.932291e-39 314 271
-0.0061980332 0.70700002 -0.038427804 7.7479025e-39 315 271
-0.0049584266 0.70700002 -0.038427804 7.6553496e-39 316 271
-0.0037188199 0.70700002 -0.038427804 7.5631553e-39 317 271
-0.0024792133 0.70700002 -0.038427804 7.4720373e-39 318 271
-0.00124136 0.708 -0.038482159 7.3798431e-39 319 271
0 0.708 -0.038482159 7.3794843e-39 320 271
0.00124136 0.708 -0.038482159 7.3794843e-39 321 271
0.0024897333 0.70999998 -0.038590867 7.3787669e-39 322 271
0.0037345996 0.70999998 -0.038590867 7.3787669e-39 323 271
0.0049864799 0.71100003 -0.038645219 7.3784081e-39 324 271
0.0062330998 0.71100003 -0.038645219 7.3784081e-39 325 271
0.0075007593 0.713 -0.038753927 7.5617204e-39 326 271
0.0087508867 0.713 -0.038753927 7.4695262e-39 327 271
0.01001504 0.71399999 -0.038808275 7.4695262e-39 328 271
0.01129848 0.71600002 -0.038916986 7.4695262e-39 329 271
0.012553867 0.71600002 -0.038916986 7.5606526e-39 330 271
0.013828539 0.71700001 -0.038971342 7.5606526e-39 331 271
0.015085679 0.71700001 -0.038971342 7.8365262e-39 332 271
0.0164112 0.72000003 -0.039134402 7.9287219e-39 333 271
0.017722692 0.722 -0.039243106 8.4801006e-39 334 271
0.0189886 0.722 -0.039243106 8.5722962e-39 335 271
0.020254506 0.722 -0.039243106 8.6637758e-39 336 271
0.021520413 0.722 -0.039243106 1.0322937e-38 337 271
0.022786319 0.722 -0.039243106 1.2624264e-38 338 271
0.024085538 0.72299999 -0.039297458 1.2532067e-38 339 271
-0.042921603 0.72000003 -0.040396802 1.5114265e-38 286 272
-0.041659199 0.72000003 -0.040396802 1.3454744e-38 287 272
-0.040396802 0.72000003 -0.040396802 1.1892042e-38 288 272
-0.039134402 0.72000003 -0.040396802 1.0970446e-38 289 272
-0.037871998 0.72000003 -0.040396802 1.0696358e-38 290 272
-0.036558751 0.71899998 -0.040340692 1.0603802e-38 291 272
-0.035199918 0.71700001 -0.040228479 1.0144619e-38 292 272
-0.03389544 0.71600002 -0.040172372 9.8683922e-39 293 272
-0.032548878 0.71399999 -0.040060159 9.5935976e-39 294 272
-0.031253166 0.713 -0.040004052 9.5014019e-39 295 272
-0.029918881 0.71100003 -0.039891839 9.5006845e-39 296 272
-0.028672259 0.71100003 -0.039891839 9.3159345e-39 297 272
-0.027387066 0.70999998 -0.039835732 9.2237417e-39 298 272
-0.026142199 0.70999998 -0.039835732 8.9471562e-39 299 272
-0.024897331 0.70999998 -0.039835732 8.6723643e-39 300 272
-0.023585839 0.708 -0.039723519 8.5801673e-39 301 272
-0.022344479 0.708 -0.039723519 8.6712867e-39 302 272
-0.021162732 0.70999998 -0.039835732 8.4872556e-39 303 272
-0.01986176 0.708 -0.039723519 8.3025056e-39 304 272
-0.0186204 0.708 -0.039723519 8.1181144e-39 305 272
-0.017354494 0.70700002 -0.039667413 7.6589369e-39 306 272
-0.016114887 0.70700002 -0.039667413 7.4745484e-39 307 272
-0.014854239 0.70599997 -0.039611302 7.8415317e-39 308 272
-0.013616386 0.70599997 -0.039611302 7.8415317e-39 309 272
-0.012378532 0.70599997 -0.039611302 7.7496962e-39 310 272
-0.011140679 0.70599997 -0.039611302 7.8418904e-39 311 272
-0.0099028256 0.70599997 -0.039611302 7.9330084e-39 312 272
-0.0086649731 0.70599997 -0.039611302 7.9330084e-39 313 272
-0.0074376399 0.70700002 -0.039667413 7.7482613e-39 314 272
-0.0061980332 0.70700002 -0.039667413 7.5642315e-39 315 272
-0.0049584266 0.70700002 -0.039667413 7.4720373e-39 316 272
-0.00372408 0.708 -0.039723519 7.3798431e-39 317 272
-0.00248272 0.708 -0.039723519 7.5631553e-39 318 272
-0.00124136 0.708 -0.039723519 7.6553496e-39 319 272
0 0.708 -0.039723519 7.6553496e-39 320 272
0.0012448666 0.70999998 -0.039835732 7.5631553e-39 321 272
0.0024897333 0.70999998 -0.039835732 7.3787669e-39 322 272
0.0037345996 0.70999998 -0.039835732 7.3787669e-39 323 272
0.0049864799 0.71100003 -0.039891839 7.3784081e-39 324 272
0.0062506334 0.713 -0.040004052 7.5627966e-39 325 272
0.0075112795 0.71399999 -0.040060159 7.3784081e-39 326 272
0.0087877065 0.71600002 -0.040172372 7.3784081e-39 327 272
0.010043093 0.71600002 -0.040172372 7.5610029e-39 328 272
0.01129848 0.71600002 -0.040172372 7.5610029e-39 329 272
0.0125714 0.71700001 -0.040228479 7.6517692e-39 330 272
0.013828539 0.71700001 -0.040228479 7.7439649e-39 331 272
0.01512776 0.71899998 -0.040340692 7.8365262e-39 332 272
0.0164112 0.72000003 -0.040396802 8.1134733e-39 333 272
0.017722692 0.722 -0.040509012 8.388984e-39 334 272
0.0189886 0.722 -0.040509012 8.5733752e-39 335 272
0.020254506 0.722 -0.040509012 9.3073571e-39 336 272
0.021520413 0.722 -0.040509012 1.115163e-38 337 272
0.022786319 0.722 -0.040509012 1.3084888e-38 338 272
-0.041659199 0.72000003 -0.041659199 1.3824621e-38 287 273
-0.040396802 0.72000003 -0.041659199 1.2812572e-38 288 273
-0.039134402 0.72000003 -0.041659199 1.1521833e-38 289 273
-0.037871998 0.72000003 -0.041659199 1.0972216e-38 290 273
-0.036558751 0.71899998 -0.041601337 1.0787823e-38 291 273
-0.035199918 0.71700001 -0.041485619 1.0236446e-38 292 273
-0.033942781 0.71700001 -0.041485619 1.014425e-38 293 273
-0.032640055 0.71600002 -0.041427758 9.7772658e-39 294 273
-0.031296998 0.71399999 -0.041312039 9.5006789e-39 295 273
-0.030003037 0.713 -0.041254178 9.5917983e-39 296 273
-0.028672259 0.71100003 -0.041138459 9.3155715e-39 297 273
-0.027387066 0.70999998 -0.041080594 9.2233759e-39 298 273
-0.026142199 0.70999998 -0.041080594 9.0386245e-39 299 273
-0.024897331 0.70999998 -0.041080594 8.7638327e-39 300 273
-0.023652466 0.70999998 -0.041080594 8.6716385e-39 301 273
-0.022407599 0.70999998 -0.041080594 8.6705651e-39 302 273
-0.021162732 0.70999998 -0.041080594 8.5783694e-39 303 273
-0.01986176 0.708 -0.040964879 8.3936223e-39 304 273
-0.0186204 0.708 -0.040964879 8.2095911e-39 305 273
-0.017379038 0.708 -0.040964879 8.0259201e-39 306 273
-0.016114887 0.70700002 -0.040907022 7.8418904e-39 307 273
-0.01487528 0.70700002 -0.040907022 7.9330084e-39 308 273
-0.013635674 0.70700002 -0.040907022 7.9330084e-39 309 273
-0.012396066 0.70700002 -0.040907022 7.9330084e-39 310 273
-0.011156459 0.70700002 -0.040907022 8.0252027e-39 311 273
-0.0099168532 0.70700002 -0.040907022 8.0255614e-39 312 273
-0.008677247 0.70700002 -0.040907022 7.9333672e-39 313 273
-0.0074376399 0.70700002 -0.040907022 7.9326497e-39 314 273
-0.0061980332 0.70700002 -0.040907022 7.7479025e-39 315 273
-0.0049584266 0.70700002 -0.040907022 7.7479025e-39 316 273
-0.00372408 0.708 -0.040964879 7.6557083e-39 317 273
-0.00248272 0.708 -0.040964879 7.6553496e-39 318 273
-0.00124136 0.708 -0.040964879 7.6553496e-39 319 273
0 0.708 -0.040964879 7.5631553e-39 320 273
0.0012448666 0.70999998 -0.041080594 7.5631553e-39 321 273
0.0024897333 0.70999998 -0.041080594 7.3787669e-39 322 273
0.0037398601 0.71100003 -0.041138459 7.3787669e-39 323 273
0.0050005065 0.713 -0.041254178 7.3784081e-39 324 273
0.0062593995 0.71399999 -0.041312039 7.3784081e-39 325 273
0.0075112795 0.71399999 -0.041312039 7.5617204e-39 326 273
0.0087877065 0.71600002 -0.041427758 7.5617204e-39 327 273
0.010043093 0.71600002 -0.041427758 7.4691702e-39 328 273
0.01129848 0.71600002 -0.041427758 7.3769746e-39 329 273
0.0125714 0.71700001 -0.041485619 7.5602967e-39 330 273
0.013867113 0.71899998 -0.041601337 7.7443278e-39 331 273
0.01512776 0.71899998 -0.041601337 7.9287219e-39 332 273
0.016456785 0.722 -0.041774917 8.1134733e-39 333 273
0.017747238 0.72299999 -0.041832779 8.7566903e-39 334 273
0.019014901 0.72299999 -0.041832779 9.0332786e-39 335 273
0.020282559 0.72299999 -0.041832779 1.0228247e-38 336 273
0.021550218 0.72299999 -0.041832779 1.1518986e-38 337 273
-0.040396802 0.72000003 -0.042921603 1.3732754e-38 288 274
-0.039134402 0.72000003 -0.042921603 1.2257623e-38 289 274
-0.037871998 0.72000003 -0.042921603 1.0973313e-38 290 274
-0.036558751 0.71899998 -0.042861983 1.0604172e-38 291 274
-0.035298105 0.71899998 -0.042861983 9.9623787e-39 292 274
-0.033942781 0.71700001 -0.042742759 9.5935976e-39 293 274
-0.032640055 0.71600002 -0.042683143 9.5939507e-39 294 274
-0.031296998 0.71399999 -0.042563915 9.409558e-39 295 274
-0.030045118 0.71399999 -0.042563915 9.4084832e-39 296 274
-0.028752912 0.713 -0.042504307 9.224092e-39 297 274
-0.027425639 0.71100003 -0.042385083 9.1315404e-39 298 274
-0.026179021 0.71100003 -0.042385083 8.9475093e-39 299 274
-0.024897331 0.70999998 -0.042325463 8.9464289e-39 300 274
-0.023652466 0.70999998 -0.042325463 8.9464289e-39 301 274
-0.022407599 0.70999998 -0.042325463 8.6705651e-39 302 274
-0.021162732 0.70999998 -0.042325463 8.5783694e-39 303 274
-0.019917866 0.70999998 -0.042325463 8.3028616e-39 304 274
-0.018672999 0.70999998 -0.042325463 8.1184731e-39 305 274
-0.017379038 0.708 -0.042206239 8.0262789e-39 306 274
-0.01613768 0.708 -0.042206239 7.8422491e-39 307 274
-0.01489632 0.708 -0.042206239 8.0255614e-39 308 274
-0.013654959 0.708 -0.042206239 8.0255614e-39 309 274
-0.0124136 0.708 -0.042206239 7.9333672e-39 310 274
-0.01117224 0.708 -0.042206239 7.9333672e-39 311 274
-0.0099308798 0.708 -0.042206239 8.0248439e-39 312 274
-0.008689519 0.708 -0.042206239 8.0248439e-39 313 274
-0.0074481601 0.708 -0.042206239 7.932291e-39 314 274
-0.0062067998 0.708 -0.042206239 7.8400968e-39 315 274
-0.0049654399 0.708 -0.042206239 7.7475438e-39 316 274
-0.0037345996 0.70999998 -0.042325463 7.6553496e-39 317 274
-0.0024897333 0.70999998 -0.042325463 7.6553496e-39 318 274
-0.0012448666 0.70999998 -0.042325463 7.6553496e-39 319 274
0 0.70999998 -0.042325463 7.6546321e-39 320 274
0.00124662 0.71100003 -0.042385083 7.5624379e-39 321 274
0.0024932399 0.71100003 -0.042385083 7.3787669e-39 322 274
0.0037503797 0.713 -0.042504307 7.2865726e-39 323 274
0.0050075199 0.71399999 -0.042563915 7.5617204e-39 324 274
0.0062769335 0.71600002 -0.042683143 7.5617204e-39 325 274
0.00753232 0.71600002 -0.042683143 7.5617218e-39 326 274
0.0087877065 0.71600002 -0.042683143 7.5617218e-39 327 274
0.010043093 0.71600002 -0.042683143 7.3780564e-39 328 274
0.01131426 0.71700001 -0.042742759 7.2858608e-39 329 274
0.012606465 0.71899998 -0.042861983 7.5602967e-39 330 274
0.013867113 0.71899998 -0.042861983 7.7443278e-39 331 274
0.0151488 0.72000003 -0.042921603 8.2045899e-39 332 274
0.01647958 0.72299999 -0.043100435 8.3889812e-39 333 274
0.017747238 0.72299999 -0.043100435 8.7556155e-39 334 274
0.019014901 0.72299999 -0.043100435 9.4009849e-39 335 274
0.020282559 0.72299999 -0.043100435 1.0598474e-38 336 274
-0.039134402 0.72000003 -0.044183999 1.3087403e-38 289 275
-0.037871998 0.72000003 -0.044183999 1.170838e-38 290 275
-0.036609601 0.72000003 -0.044183999 1.0970456e-38 291 275
-0.035298105 0.71899998 -0.044122629 1.0053502e-38 292 275
-0.033942781 0.71700001 -0.043999899 9.8691111e-39 293 275
-0.032640055 0.71600002 -0.043938532 9.8687397e-39 294 275
-0.031384666 0.71600002 -0.043938532 9.7765441e-39 295 275
-0.030045118 0.71399999 -0.043815799 9.5010348e-39 296 275
-0.028752912 0.713 -0.043754432 9.2240892e-39 297 275
-0.027425639 0.71100003 -0.043631699 9.2233731e-39 298 275
-0.026179021 0.71100003 -0.043631699 9.0389805e-39 299 275
-0.024897331 0.70999998 -0.043570329 8.9467862e-39 300 275
-0.023652466 0.70999998 -0.043570329 8.9467862e-39 301 275
-0.022407599 0.70999998 -0.043570329 8.6712797e-39 302 275
-0.021192541 0.71100003 -0.043631699 8.5790855e-39 303 275
-0.019917866 0.70999998 -0.043570329 8.4865325e-39 304 275
-0.018672999 0.70999998 -0.043570329 8.2103086e-39 305 275
-0.017428132 0.70999998 -0.043570329 8.3014266e-39 306 275
-0.016183265 0.70999998 -0.043570329 8.3014266e-39 307 275
-0.014938398 0.70999998 -0.043570329 7.8422491e-39 308 275
-0.013693533 0.70999998 -0.043570329 7.8422491e-39 309 275
-0.012448666 0.70999998 -0.043570329 7.9333672e-39 310 275
-0.011203799 0.70999998 -0.043570329 7.9333672e-39 311 275
-0.0099589331 0.70999998 -0.043570329 8.0248439e-39 312 275
-0.0087140659 0.70999998 -0.043570329 7.9326497e-39 313 275
-0.0074691991 0.70999998 -0.043570329 7.8400968e-39 314 275
-0.0062243328 0.70999998 -0.043570329 7.8400968e-39 315 275
-0.0049794666 0.70999998 -0.043570329 7.7475438e-39 316 275
-0.0037345996 0.70999998 -0.043570329 7.6553496e-39 317 275
-0.0024897333 0.70999998 -0.043570329 7.3794843e-39 318 275
-0.0012448666 0.70999998 -0.043570329 7.3794843e-39 319 275
0 0.70999998 -0.043570329 7.3798431e-39 320 275
0.00124662 0.71100003 -0.043631699 7.2876488e-39 321 275
0.0025002533 0.713 -0.043754432 7.3787669e-39 322 275
0.0037556398 0.71399999 -0.043815799 7.3787669e-39 323 275
0.0050215465 0.71600002 -0.043938532 7.5617218e-39 324 275
0.0062769335 0.71600002 -0.043938532 7.4695262e-39 325 275
0.0075428397 0.71700001 -0.043999899 7.285858e-39 326 275
0.0087999795 0.71700001 -0.043999899 7.285858e-39 327 275
0.01005712 0.71700001 -0.043999899 7.5606498e-39 328 275
0.01131426 0.71700001 -0.043999899 7.5606498e-39 329 275
0.012606465 0.71899998 -0.044122629 7.7443278e-39 330 275
0.013867113 0.71899998 -0.044122629 7.8368822e-39 331 275
0.015190879 0.722 -0.044306733 8.0209245e-39 332 275
0.01647958 0.72299999 -0.044368099 8.1131201e-39 333 275
0.017747238 0.72299999 -0.044368099 8.9392991e-39 334 275
-0.037871998 0.72000003 -0.045446403 1.2260141e-38 290 276
-0.036609601 0.72000003 -0.045446403 1.1154152e-38 291 276
-0.035347197 0.72000003 -0.045446403 1.0238264e-38 292 276
-0.03403746 0.71899998 -0.045383278 9.7776441e-39 293 276
-0.032685637 0.71700001 -0.045257039 9.7769126e-39 294 276
-0.031384666 0.71600002 -0.045193922 9.5006845e-39 295 276
-0.030045118 0.71399999 -0.045067675 9.3170093e-39 296 276
-0.028752912 0.713 -0.045004558 9.1329782e-39 297 276
-0.027502786 0.713 -0.045004558 9.1318964e-39 298 276
-0.026179021 0.71100003 -0.044878319 8.8553095e-39 299 276
-0.024932399 0.71100003 -0.044878319 8.8556682e-39 300 276
-0.023685781 0.71100003 -0.044878319 8.763474e-39 301 276
-0.022439159 0.71100003 -0.044878319 8.6712797e-39 302 276
-0.021192541 0.71100003 -0.044878319 8.6712797e-39 303 276
-0.01994592 0.71100003 -0.044878319 8.4868913e-39 304 276
-0.0186993 0.71100003 -0.044878319 8.2103086e-39 305 276
-0.01745268 0.71100003 -0.044878319 8.2103086e-39 306 276
-0.01620606 0.71100003 -0.044878319 8.1181144e-39 307 276
-0.014938398 0.70999998 -0.044815198 8.0266376e-39 308 276
-0.013693533 0.70999998 -0.044815198 7.8422491e-39 309 276
-0.0124662 0.71100003 -0.044878319 7.9333672e-39 310 276
-0.011203799 0.70999998 -0.044815198 7.9333672e-39 311 276
-0.0099589331 0.70999998 -0.044815198 7.9330084e-39 312 276
-0.0087140659 0.70999998 -0.044815198 7.8408142e-39 313 276
-0.0074797203 0.71100003 -0.044878319 7.7482613e-39 314 276
-0.0062330998 0.71100003 -0.044878319 7.5642315e-39 315 276
-0.0049864799 0.71100003 -0.044878319 7.6549908e-39 316 276
-0.0037398601 0.71100003 -0.044878319 7.6549908e-39 317 276
-0.0024932399 0.71100003 -0.044878319 7.6549908e-39 318 276
-0.00124662 0.71100003 -0.044878319 7.5627966e-39 319 276
0 0.71100003 -0.044878319 7.5631553e-39 320 276
0.0012501266 0.713 -0.045004558 7.3791256e-39 321 276
0.0025002533 0.713 -0.045004558 7.5620791e-39 322 276
0.00376616 0.71600002 -0.045193922 7.5620791e-39 323 276
0.0050215465 0.71600002 -0.045193922 7.5610029e-39 324 276
0.0062857 0.71700001 -0.045257039 7.5610029e-39 325 276
0.0075428397 0.71700001 -0.045257039 7.3784095e-39 326 276
0.0087999795 0.71700001 -0.045257039 7.2862139e-39 327 276
0.01005712 0.71700001 -0.045257039 7.7450369e-39 328 276
0.01134582 0.71899998 -0.045383278 7.7450369e-39 329 276
0.012606465 0.71899998 -0.045383278 7.7446837e-39 330 276
0.013924973 0.722 -0.045572639 7.8368794e-39 331 276
0.015211919 0.72299999 -0.04563576 7.928373e-39 332 276
0.01647958 0.72299999 -0.04563576 8.3893497e-39 333 276
-0.036609601 0.72000003 -0.0467088 1.1523673e-38 291 277
-0.035347197 0.72000003 -0.0467088 1.0603824e-38 292 277
-0.034084801 0.72000003 -0.0467088 1.0327238e-38 293 277
-0.032776814 0.71899998 -0.046643924 9.6854429e-39 294 277
-0.031428497 0.71700001 -0.046514176 9.5010516e-39 295 277
-0.03012928 0.71600002 -0.046449307 9.3166534e-39 296 277
-0.028793238 0.71399999 -0.046319555 9.1326222e-39 297 277
-0.02754136 0.71399999 -0.046319555 9.3155687e-39 298 277
-0.026252659 0.713 -0.046254687 9.1311775e-39 299 277
-0.024932399 0.71100003 -0.046124939 8.8556682e-39 300 277
-0.023685781 0.71100003 -0.046124939 8.763474e-39 301 277
-0.022439159 0.71100003 -0.046124939 8.4879675e-39 302 277
-0.021252153 0.713 -0.046254687 8.4879675e-39 303 277
-0.020002026 0.713 -0.046254687 8.5790855e-39 304 277
-0.018751899 0.713 -0.046254687 8.3946971e-39 305 277
-0.017501773 0.713 -0.046254687 8.2113848e-39 306 277
-0.01620606 0.71100003 -0.046124939 8.0266376e-39 307 277
-0.014959441 0.71100003 -0.046124939 8.0262789e-39 308 277
-0.01371282 0.71100003 -0.046124939 7.7500549e-39 309 277
-0.012501267 0.713 -0.046254687 7.9330084e-39 310 277
-0.011251139 0.713 -0.046254687 7.9330084e-39 311 277
-0.0099729598 0.71100003 -0.046124939 7.9326497e-39 312 277
-0.0087263398 0.71100003 -0.046124939 7.9326497e-39 313 277
-0.0075007593 0.713 -0.046254687 7.7482613e-39 314 277
-0.0062506334 0.713 -0.046254687 7.4716786e-39 315 277
-0.0050005065 0.713 -0.046254687 7.6549908e-39 316 277
-0.0037503797 0.713 -0.046254687 7.5627966e-39 317 277
-0.0025002533 0.713 -0.046254687 7.2872901e-39 318 277
-0.0012501266 0.713 -0.046254687 7.2872901e-39 319 277
0 0.713 -0.046254687 7.3787669e-39 320 277
0.00125188 0.71399999 -0.046319555 7.2865726e-39 321 277
0.0025107733 0.71600002 -0.046449307 7.5613617e-39 322 277
0.0037714199 0.71700001 -0.046514176 7.4691674e-39 323 277
0.0050285598 0.71700001 -0.046514176 7.4688087e-39 324 277
0.0062857 0.71700001 -0.046514176 7.4688087e-39 325 277
0.0075638802 0.71899998 -0.046643924 7.3769746e-39 326 277
0.0088245263 0.71899998 -0.046643924 7.4691702e-39 327 277
0.010085173 0.71899998 -0.046643924 7.5613659e-39 328 277
0.01134582 0.71899998 -0.046643924 7.5613659e-39 329 277
0.012624 0.72000003 -0.0467088 7.5610156e-39 330 277
0.01394426 0.72299999 -0.046903417 7.5610156e-39 331 277
0.015211919 0.72299999 -0.046903417 8.1113349e-39 332 277
-0.035347197 0.72000003 -0.0479712 1.0603844e-38 292 278
-0.034084801 0.72000003 -0.0479712 1.0327257e-38 293 278
-0.0328224 0.72000003 -0.0479712 9.7776441e-39 294 278
-0.031516165 0.71899998 -0.04790457 9.5928941e-39 295 278
-0.03012928 0.71600002 -0.047704693 9.5006845e-39 296 278
-0.028873893 0.71600002 -0.047704693 9.3159345e-39 297 278
-0.027618507 0.71600002 -0.047704693 9.4066854e-39 298 278
-0.026289478 0.71399999 -0.047571439 9.2222927e-39 299 278
-0.025037598 0.71399999 -0.047571439 9.0389805e-39 300 278
-0.02378572 0.71399999 -0.047571439 8.9467862e-39 301 278
-0.022533838 0.71399999 -0.047571439 8.763474e-39 302 278
-0.021281958 0.71399999 -0.047571439 8.6712797e-39 303 278
-0.020030079 0.71399999 -0.047571439 8.5790855e-39 304 278
-0.018778199 0.71399999 -0.047571439 8.3946971e-39 305 278
-0.017526319 0.71399999 -0.047571439 8.2103086e-39 306 278
-0.016251646 0.713 -0.047504812 8.1181144e-39 307 278
-0.015001519 0.713 -0.047504812 8.0255614e-39 308 278
-0.01377068 0.71399999 -0.047571439 7.9333672e-39 309 278
-0.012518799 0.71399999 -0.047571439 7.9330084e-39 310 278
-0.011266919 0.71399999 -0.047571439 7.9330084e-39 311 278
-0.010001013 0.713 -0.047504812 7.9326497e-39 312 278
-0.0087508867 0.713 -0.047504812 7.8404555e-39 313 278
-0.0075112795 0.71399999 -0.047571439 7.839738e-39 314 278
-0.0062593995 0.71399999 -0.047571439 7.7475438e-39 315 278
-0.0050075199 0.71399999 -0.047571439 7.3794843e-39 316 278
-0.0037556398 0.71399999 -0.047571439 7.2872901e-39 317 278
-0.0025037599 0.71399999 -0.047571439 7.0114249e-39 318 278
-0.00125188 0.71399999 -0.047571439 7.0114249e-39 319 278
0 0.71600002 -0.047704693 7.0114249e-39 320 278
0.0012553866 0.71600002 -0.047704693 7.0114249e-39 321 278
0.0025142799 0.71700001 -0.04777132 7.3773319e-39 322 278
0.0037819401 0.71899998 -0.04790457 7.3773319e-39 323 278
0.0050425865 0.71899998 -0.04790457 7.3769746e-39 324 278
0.0063032326 0.71899998 -0.04790457 7.284779e-39 325 278
0.0075638802 0.71899998 -0.04790457 7.1936652e-39 326 278
0.0088245263 0.71899998 -0.04790457 7.2858608e-39 327 278
0.010085173 0.71899998 -0.04790457 7.2855077e-39 328 278
0.011361601 0.72000003 -0.0479712 7.2855077e-39 329 278
0.012659066 0.722 -0.048104454 7.2848014e-39 330 278
0.01394426 0.72299999 -0.048171077 7.2848014e-39 331 278
-0.034179479 0.722 -0.04937036 1.0603509e-38 293 279
-0.032913569 0.722 -0.04937036 9.6843919e-39 294 279
-0.03156 0.72000003 -0.0492336 9.6843919e-39 295 279
-0.030255521 0.71899998 -0.049165215 9.3173834e-39 296 279
-0.028994869 0.71899998 -0.049165215 9.0407951e-39 297 279
-0.027657079 0.71700001 -0.04902846 9.2237389e-39 298 279
-0.02639994 0.71700001 -0.04902846 9.1315432e-39 299 279
-0.025107734 0.71600002 -0.048960082 9.0389805e-39 300 279
-0.023852346 0.71600002 -0.048960082 8.9467862e-39 301 279
-0.022596961 0.71600002 -0.048960082 8.763474e-39 302 279
-0.021341572 0.71600002 -0.048960082 8.5790855e-39 303 279
-0.020086186 0.71600002 -0.048960082 8.303579e-39 304 279
-0.0188308 0.71600002 -0.048960082 8.1188318e-39 305 279
-0.017575413 0.71600002 -0.048960082 8.1181144e-39 306 279
-0.016320027 0.71600002 -0.048960082 8.0259201e-39 307 279
-0.01506464 0.71600002 -0.048960082 7.9337259e-39 308 279
-0.01377068 0.71399999 -0.048823316 7.8415317e-39 309 279
-0.012518799 0.71399999 -0.048823316 7.9330084e-39 310 279
-0.011266919 0.71399999 -0.048823316 7.8408142e-39 311 279
-0.01001504 0.71399999 -0.048823316 7.8404555e-39 312 279
-0.0087631596 0.71399999 -0.048823316 7.8404555e-39 313 279
-0.0075112795 0.71399999 -0.048823316 7.5642315e-39 314 279
