# .PCD v.7 - Point Cloud Data file format
FIELDS x y z rgb imX imY
SIZE 4 4 4 4 4 4
TYPE F F F F F F
COUNT 1 1 1 1 1 1
WIDTH 857
HEIGHT 1
VIEWPOINT 0 0 0 1 0 0 0
POINTS 857
DATA ascii
-0.016179759 0.76899999 0.010786506 1.3468739e-38 308 232
-0.014773586 0.76599997 0.010744425 1.3100316e-38 309 232
-0.013430533 0.76599997 0.010744425 1.30974e-38 310 232
-0.01205592 0.764 0.010716373 1.2820813e-38 311 232
-0.010716373 0.764 0.010716373 1.3280295e-38 312 232
-0.0093768267 0.764 0.010716373 1.3095545e-38 313 232
-0.0080162399 0.76200002 0.01068832 1.2911497e-38 314 232
-0.0066801999 0.76200002 0.01068832 1.2819303e-38 315 232
-0.0053371461 0.76099998 0.010674292 1.2634197e-38 316 232
-0.0040028598 0.76099998 0.010674292 1.2541644e-38 317 232
-0.0026685731 0.76099998 0.010674292 1.1990989e-38 318 232
-0.0013342865 0.76099998 0.010674292 1.1622213e-38 319 232
0 0.76099998 0.010674292 1.0977212e-38 320 232
0.00133078 0.759 0.01064624 1.0424046e-38 321 232
0.00266156 0.759 0.01064624 9.6879274e-39 322 232
0.0039923396 0.759 0.01064624 9.3187917e-39 323 232
0.0053231199 0.759 0.01064624 8.7663438e-39 324 232
0.0066714329 0.76099998 0.010674292 8.6737909e-39 325 232
0.0080057196 0.76099998 0.010674292 8.5819554e-39 326 232
0.00931546 0.759 0.01064624 8.5819554e-39 327 232
0.01064624 0.759 0.01064624 8.5833917e-39 328 232
0.012008579 0.76099998 0.010674292 8.6755873e-39 329 232
0.0133078 0.759 0.01064624 9.044367e-39 330 232
0.014638579 0.759 0.01064624 9.1365627e-39 331 232
0.015969358 0.759 0.01064624 9.596452e-39 332 232
0.017300138 0.759 0.01064624 9.6886476e-39 333 232
0.01863092 0.759 0.01064624 1.0239658e-38 334 232
0.0199617 0.759 0.01064624 1.0239658e-38 335 232
0.02129248 0.759 0.01064624 1.0515523e-38 336 232
0.02262326 0.759 0.01064624 1.0331135e-38 337 232
0.023954039 0.759 0.01064624 1.0330776e-38 338 232
0.025284819 0.759 0.01064624 1.0238582e-38 339 232
0.026615599 0.759 0.01064624 1.0238223e-38 340 232
0.027946379 0.759 0.01064624 1.0238223e-38 341 232
0.029277159 0.759 0.01064624 1.0237864e-38 342 232
0.030607941 0.759 0.01064624 1.0145311e-38 343 232
0.031938717 0.759 0.01064624 1.0144604e-38 344 232
0.033357166 0.76099998 0.010674292 9.9602123e-39 345 232
0.034691449 0.76099998 0.010674292 1.0234301e-38 346 232
0.036073081 0.76200002 0.01068832 1.0049549e-38 347 232
0.037507307 0.764 0.010716373 9.6825716e-39 348 232
0.038846854 0.764 0.010716373 9.590376e-39 349 232
0.040186398 0.764 0.010716373 9.4988964e-39 350 232
0.041634649 0.76599997 0.010744425 9.4988964e-39 351 232
0.042977702 0.76599997 0.010744425 9.4996265e-39 352 232
0.04437862 0.76700002 0.010758453 8.9468115e-39 353 232
0.045723427 0.76700002 0.010758453 9.3174465e-39 354 232
-0.024490559 0.77600002 0.009524107 1.2819448e-38 302 233
-0.02307036 0.77399999 0.0094995592 1.1528709e-38 303 233
-0.021713279 0.77399999 0.0094995592 1.143897e-38 304 233
-0.020277301 0.77100003 0.0094627403 1.1070548e-38 305 233
-0.018925481 0.77100003 0.0094627403 1.116239e-38 306 233
-0.017528072 0.76899999 0.0094381925 1.2176541e-38 307 233
-0.016179759 0.76899999 0.0094381925 1.3100313e-38 308 233
-0.014773586 0.76599997 0.0094013726 1.2915921e-38 309 233
-0.013430533 0.76599997 0.0094013726 1.2822245e-38 310 233
-0.01205592 0.764 0.0093768267 1.2637854e-38 311 233
-0.01068832 0.76200002 0.0093522798 1.3371762e-38 312 233
-0.0093522798 0.76200002 0.0093522798 1.3095176e-38 313 233
-0.0080162399 0.76200002 0.0093522798 1.3371392e-38 314 233
-0.0066714329 0.76099998 0.0093400059 1.3186645e-38 315 233
-0.0053371461 0.76099998 0.0093400059 1.3094092e-38 316 233
-0.0040028598 0.76099998 0.0093400059 1.3094092e-38 317 233
-0.0026685731 0.76099998 0.0093400059 1.2541644e-38 318 233
-0.0013342865 0.76099998 0.0093400059 1.2173225e-38 319 233
0 0.759 0.00931546 1.1343477e-38 320 233
0.00133078 0.759 0.00931546 1.0975059e-38 321 233
0.00266156 0.759 0.00931546 1.0238582e-38 322 233
0.0039923396 0.759 0.00931546 1.0054193e-38 323 233
0.0053231199 0.759 0.00931546 9.593222e-39 324 233
0.0066538998 0.759 0.00931546 9.1326096e-39 325 233
0.0079846792 0.759 0.00931546 8.8574619e-39 326 233
0.00931546 0.759 0.00931546 8.9496561e-39 327 233
0.01064624 0.759 0.00931546 9.134762e-39 328 233
0.01197702 0.759 0.00931546 9.2269562e-39 329 233
0.013272733 0.75700003 0.0092909131 9.7783279e-39 330 233
0.014561433 0.755 0.0092663663 9.9630751e-39 331 233
0.015885198 0.755 0.0092663663 1.0238582e-38 332 233
0.017208965 0.755 0.0092663663 1.0330776e-38 333 233
0.018532733 0.755 0.0092663663 1.0790671e-38 334 233
0.0198565 0.755 0.0092663663 1.1066895e-38 335 233
0.021236373 0.75700003 0.0092909131 1.1710102e-38 336 233
0.022563647 0.75700003 0.0092909131 1.1341325e-38 337 233
0.02389092 0.75700003 0.0092909131 1.0789236e-38 338 233
0.025218192 0.75700003 0.0092909131 1.0420818e-38 339 233
0.026545467 0.75700003 0.0092909131 1.0237864e-38 340 233
0.027872739 0.75700003 0.0092909131 1.0145311e-38 341 233
0.029200014 0.75700003 0.0092909131 1.0144604e-38 342 233
0.030527288 0.75700003 0.0092909131 1.0052408e-38 343 233
0.031938717 0.759 0.00931546 9.9591529e-39 344 233
0.033357166 0.76099998 0.0093400059 9.8669559e-39 345 233
0.034691449 0.76099998 0.0093400059 1.0049202e-38 346 233
0.036025736 0.76099998 0.0093400059 1.0049202e-38 347 233
0.037409119 0.76200002 0.0093522798 9.772975e-39 348 233
0.038745161 0.76200002 0.0093522798 9.772975e-39 349 233
0.040081199 0.76200002 0.0093522798 9.6814954e-39 350 233
0.041525945 0.764 0.0093768267 9.6814954e-39 351 233
0.042977702 0.76599997 0.0094013726 9.4077798e-39 352 233
0.044320758 0.76599997 0.0094013726 8.6702148e-39 353 233
0.045723427 0.76700002 0.0094136465 9.1315979e-39 354 233
-0.02433276 0.77100003 0.0081109209 1.2451741e-38 302 234
-0.02298094 0.77100003 0.0081109209 1.143759e-38 303 234
-0.021629119 0.77100003 0.0081109209 1.1071617e-38 304 234
-0.0202247 0.76899999 0.0080898795 1.0703193e-38 305 234
-0.018876385 0.76899999 0.0080898795 1.1254917e-38 306 234
-0.017482487 0.76700002 0.00806884 1.1808091e-38 307 234
-0.01613768 0.76700002 0.00806884 1.2269795e-38 308 234
-0.014773586 0.76599997 0.0080583189 1.236199e-38 309 234
-0.013395466 0.764 0.0080372803 1.2821151e-38 310 234
-0.01202436 0.76200002 0.0080162399 1.2821151e-38 311 234
-0.01068832 0.76200002 0.0080162399 1.3188465e-38 312 234
-0.0093522798 0.76200002 0.0080162399 1.3004075e-38 313 234
-0.0080057196 0.76099998 0.0080057196 1.3187731e-38 314 234
-0.0066714329 0.76099998 0.0080057196 1.3371762e-38 315 234
-0.0053371461 0.76099998 0.0080057196 1.3004778e-38 316 234
-0.0039923396 0.759 0.0079846792 1.2912583e-38 317 234
-0.00266156 0.759 0.0079846792 1.2357973e-38 318 234
-0.00133078 0.759 0.0079846792 1.1712613e-38 319 234
0 0.75700003 0.0079636406 1.0976494e-38 320 234
0.0013272733 0.75700003 0.0079636406 1.0331135e-38 321 234
0.0026545466 0.75700003 0.0079636406 1.0238582e-38 322 234
0.0039818203 0.75700003 0.0079636406 1.0146029e-38 323 234
0.0053090933 0.75700003 0.0079636406 9.5935808e-39 324 234
0.0066363667 0.75700003 0.0079636406 9.5013865e-39 325 234
0.0079636406 0.75700003 0.0079636406 9.3177155e-39 326 234
0.0092909131 0.75700003 0.0079636406 9.3177155e-39 327 234
0.010618187 0.75700003 0.0079636406 9.5024627e-39 328 234
0.01194546 0.75700003 0.0079636406 9.7786867e-39 329 234
0.013237666 0.755 0.0079425992 1.0238582e-38 330 234
0.014561433 0.755 0.0079425992 1.0330776e-38 331 234
0.015885198 0.755 0.0079425992 1.0330776e-38 332 234
0.017208965 0.755 0.0079425992 1.0699553e-38 333 234
0.018532733 0.755 0.0079425992 1.1896288e-38 334 234
0.0198565 0.755 0.0079425992 1.1896288e-38 335 234
0.021180267 0.755 0.0079425992 1.2079969e-38 336 234
0.022504034 0.755 0.0079425992 1.1158014e-38 337 234
0.02389092 0.75700003 0.0079636406 1.0513729e-38 338 234
0.025218192 0.75700003 0.0079636406 1.0329341e-38 339 234
0.026545467 0.75700003 0.0079636406 1.0328265e-38 340 234
0.027872739 0.75700003 0.0079636406 1.0235712e-38 341 234
0.029200014 0.75700003 0.0079636406 1.0234281e-38 342 234
0.030527288 0.75700003 0.0079636406 1.0234281e-38 343 234
0.031938717 0.759 0.0079846792 9.8665929e-39 344 234
0.033269498 0.759 0.0079846792 9.7743973e-39 345 234
0.034691449 0.76099998 0.0080057196 9.8655237e-39 346 234
0.036025736 0.76099998 0.0080057196 9.7729694e-39 347 234
0.037409119 0.76200002 0.0080162399 9.9566404e-39 348 234
0.038745161 0.76200002 0.0080162399 9.864086e-39 349 234
0.040081199 0.76200002 0.0080162399 9.4978146e-39 350 234
0.041417241 0.76200002 0.0080162399 9.4978146e-39 351 234
0.042865492 0.764 0.0080372803 9.4985335e-39 352 234
0.04420504 0.764 0.0080372803 9.0375553e-39 353 234
0.045723427 0.76700002 0.00806884 9.041556e-39 354 234
0.047068235 0.76700002 0.00806884 1.2084372e-38 355 234
-0.022921326 0.76899999 0.0067415666 1.1254268e-38 303 235
-0.021573013 0.76899999 0.0067415666 1.1071251e-38 304 235
-0.0202247 0.76899999 0.0067415666 1.08865e-38 305 235
-0.018827293 0.76700002 0.006724033 1.0979752e-38 306 235
-0.017482487 0.76700002 0.006724033 1.1348535e-38 307 235
-0.016116638 0.76599997 0.0067152665 1.1992466e-38 308 235
-0.014735013 0.764 0.006697733 1.2360889e-38 309 235
-0.013395466 0.764 0.006697733 1.2453438e-38 310 235
-0.01202436 0.76200002 0.0066801999 1.2545992e-38 311 235
-0.01068832 0.76200002 0.0066801999 1.2729289e-38 312 235
-0.0093400059 0.76099998 0.0066714329 1.2821484e-38 313 235
-0.0080057196 0.76099998 0.0066714329 1.2912586e-38 314 235
-0.0066714329 0.76099998 0.0066714329 1.2912586e-38 315 235
-0.0053231199 0.759 0.0066538998 1.3095885e-38 316 235
-0.0039923396 0.759 0.0066538998 1.2911138e-38 317 235
-0.00266156 0.759 0.0066538998 1.2726032e-38 318 235
-0.00133078 0.759 0.0066538998 1.2173225e-38 319 235
0 0.75700003 0.0066363667 1.207852e-38 320 235
0.0013272733 0.75700003 0.0066363667 1.1617908e-38 321 235
0.0026545466 0.75700003 0.0066363667 1.1800861e-38 322 235
0.0039818203 0.75700003 0.0066363667 1.1524637e-38 323 235
0.0053090933 0.75700003 0.0066363667 1.0421176e-38 324 235
0.0066363667 0.75700003 0.0066363667 1.0328982e-38 325 235
0.0079636406 0.75700003 0.0066363667 1.0145311e-38 326 235
0.0092909131 0.75700003 0.0066363667 1.0329341e-38 327 235
0.010618187 0.75700003 0.0066363667 1.0238582e-38 328 235
0.011913899 0.755 0.0066188332 1.0330776e-38 329 235
0.013237666 0.755 0.0066188332 1.0698835e-38 330 235
0.014561433 0.755 0.0066188332 1.079103e-38 331 235
0.015885198 0.755 0.0066188332 1.0882148e-38 332 235
0.017208965 0.755 0.0066188332 1.1066895e-38 333 235
0.018532733 0.755 0.0066188332 1.1251283e-38 334 235
0.0198565 0.755 0.0066188332 1.1251283e-38 335 235
0.021180267 0.755 0.0066188332 1.1158014e-38 336 235
0.022504034 0.755 0.0066188332 1.0697042e-38 337 235
0.023827799 0.755 0.0066188332 1.0238223e-38 338 235
0.025151566 0.755 0.0066188332 1.0053476e-38 339 235
0.026545467 0.75700003 0.0066363667 1.0143518e-38 340 235
0.027872739 0.75700003 0.0066363667 1.0050965e-38 341 235
0.029200014 0.75700003 0.0066363667 9.8662244e-39 342 235
0.030527288 0.75700003 0.0066363667 9.8662244e-39 343 235
0.031854562 0.75700003 0.0066363667 9.6818457e-39 344 235
0.033269498 0.759 0.0066538998 9.6818457e-39 345 235
0.034600276 0.759 0.0066538998 9.4059847e-39 346 235
0.035931058 0.759 0.0066538998 9.4059847e-39 347 235
0.037360024 0.76099998 0.0066714329 9.5885781e-39 348 235
0.038694311 0.76099998 0.0066714329 9.5885781e-39 349 235
0.040081199 0.76200002 0.0066801999 9.5885781e-39 350 235
0.041417241 0.76200002 0.0066801999 9.5885781e-39 351 235
0.042753279 0.76200002 0.0066801999 9.313436e-39 352 235
0.04420504 0.764 0.006697733 9.313436e-39 353 235
0.045663811 0.76599997 0.0067152665 8.6727749e-39 354 235
0.047006864 0.76599997 0.0067152665 1.1254251e-38 355 235
-0.024269639 0.76899999 0.0053932532 1.1624115e-38 302 236
-0.022921326 0.76899999 0.0053932532 1.0978746e-38 303 236
-0.021573013 0.76899999 0.0053932532 1.1254917e-38 304 236
-0.0202247 0.76899999 0.0053932532 1.1162721e-38 305 236
-0.018827293 0.76700002 0.0053792265 1.0887559e-38 306 236
-0.017482487 0.76700002 0.0053792265 1.1071952e-38 307 236
-0.016116638 0.76599997 0.0053722127 1.1624403e-38 308 236
-0.014735013 0.764 0.0053581866 1.190099e-38 309 236
-0.0133604 0.76200002 0.0053441599 1.2361242e-38 310 236
-0.01202436 0.76200002 0.0053441599 1.2545992e-38 311 236
-0.010674292 0.76099998 0.0053371461 1.2729652e-38 312 236
-0.0093400059 0.76099998 0.0053371461 1.2637456e-38 313 236
-0.0080057196 0.76099998 0.0053371461 1.2912954e-38 314 236
-0.0066538998 0.759 0.0053231199 1.28204e-38 315 236
-0.0053231199 0.759 0.0053231199 1.2911507e-38 316 236
-0.0039923396 0.759 0.0053231199 1.263492e-38 317 236
-0.0026545466 0.75700003 0.0053090933 1.272675e-38 318 236
-0.0013272733 0.75700003 0.0053090933 1.2450167e-38 319 236
0 0.75700003 0.0053090933 1.2540926e-38 320 236
0.0013237667 0.755 0.0052950666 1.263312e-38 321 236
0.0026475333 0.755 0.0052950666 1.2998669e-38 322 236
0.0039818203 0.75700003 0.0053090933 1.2537698e-38 323 236
0.0052950666 0.755 0.0052950666 1.1524996e-38 324 236
0.0066188332 0.755 0.0052950666 1.1156578e-38 325 236
0.0079425992 0.755 0.0052950666 1.0882148e-38 326 236
0.0092663663 0.755 0.0052950666 1.0882148e-38 327 236
0.010590133 0.755 0.0052950666 1.079103e-38 328 236
0.011913899 0.755 0.0052950666 1.079103e-38 329 236
0.013237666 0.755 0.0052950666 1.1066895e-38 330 236
0.014561433 0.755 0.0052950666 1.1066895e-38 331 236
0.015885198 0.755 0.0052950666 1.1250207e-38 332 236
0.017208965 0.755 0.0052950666 1.1342401e-38 333 236
0.018532733 0.755 0.0052950666 1.1341684e-38 334 236
0.0198565 0.755 0.0052950666 1.1157295e-38 335 236
0.021180267 0.755 0.0052950666 1.0512653e-38 336 236
0.022504034 0.755 0.0052950666 1.0328265e-38 337 236
0.023827799 0.755 0.0052950666 1.0328623e-38 338 236
0.025151566 0.755 0.0052950666 1.0236429e-38 339 236
0.026475333 0.755 0.0052950666 1.0234994e-38 340 236
0.027799098 0.755 0.0052950666 1.01428e-38 341 236
0.029200014 0.75700003 0.0053090933 9.774026e-39 342 236
0.030527288 0.75700003 0.0053090933 9.774026e-39 343 236
0.031854562 0.75700003 0.0053090933 9.5892844e-39 344 236
0.033181835 0.75700003 0.0053090933 9.68148e-39 345 236
0.034600276 0.759 0.0053231199 9.1304712e-39 346 236
0.035931058 0.759 0.0053231199 9.1304712e-39 347 236
0.037360024 0.76099998 0.0053371461 9.4052631e-39 348 236
0.038694311 0.76099998 0.0053371461 9.4052631e-39 349 236
0.040028598 0.76099998 0.0053371461 9.4963825e-39 350 236
0.041417241 0.76200002 0.0053441599 9.4963825e-39 351 236
0.042753279 0.76200002 0.0053441599 9.3127143e-39 352 236
0.04420504 0.764 0.0053581866 9.3127143e-39 353 236
0.045663811 0.76599997 0.0053722127 8.4880165e-39 354 236
0.047006864 0.76599997 0.0053722127 1.0700352e-38 355 236
-0.024269639 0.76899999 0.0040449398 1.1807422e-38 302 237
-0.022921326 0.76899999 0.0040449398 1.1162053e-38 303 237
-0.021516906 0.76700002 0.00403442 1.1162721e-38 304 237
-0.020172099 0.76700002 0.00403442 1.0793939e-38 305 237
-0.018827293 0.76700002 0.00403442 1.0794295e-38 306 237
-0.017482487 0.76700002 0.00403442 1.0978686e-38 307 237
-0.016116638 0.76599997 0.0040291594 1.1347112e-38 308 237
-0.014735013 0.764 0.0040186401 1.1900286e-38 309 237
-0.0133604 0.76200002 0.0040081199 1.2085747e-38 310 237
-0.01202436 0.76200002 0.0040081199 1.2177942e-38 311 237
-0.010674292 0.76099998 0.0040028598 1.2637103e-38 312 237
-0.0093400059 0.76099998 0.0040028598 1.2637103e-38 313 237
-0.0080057196 0.76099998 0.0040028598 1.2819684e-38 314 237
-0.0066538998 0.759 0.0039923396 1.2727488e-38 315 237
-0.0053231199 0.759 0.0039923396 1.2359415e-38 316 237
-0.0039923396 0.759 0.0039923396 1.226686e-38 317 237
-0.0026545466 0.75700003 0.0039818203 1.235869e-38 318 237
-0.0013272733 0.75700003 0.0039818203 1.235869e-38 319 237
0 0.75700003 0.0039818203 1.2358331e-38 320 237
0.0013237667 0.755 0.0039712996 1.2450526e-38 321 237
0.0026475333 0.755 0.0039712996 1.3000462e-38 322 237
0.0039712996 0.755 0.0039712996 1.272388e-38 323 237
0.0052950666 0.755 0.0039712996 1.2170356e-38 324 237
0.0066188332 0.755 0.0039712996 1.2078161e-38 325 237
0.0079425992 0.755 0.0039712996 1.1895208e-38 326 237
0.0092663663 0.755 0.0039712996 1.1803014e-38 327 237
0.010590133 0.755 0.0039712996 1.1619701e-38 328 237
0.011913899 0.755 0.0039712996 1.1619701e-38 329 237
0.013237666 0.755 0.0039712996 1.152679e-38 330 237
0.014561433 0.755 0.0039712996 1.1434595e-38 331 237
0.015885198 0.755 0.0039712996 1.1617908e-38 332 237
0.017186172 0.75400001 0.00396604 1.1617908e-38 333 237
0.018508185 0.75400001 0.00396604 1.124949e-38 334 237
0.0198565 0.755 0.0039712996 1.1157295e-38 335 237
0.021180267 0.755 0.0039712996 1.0789236e-38 336 237
0.022504034 0.755 0.0039712996 1.0420818e-38 337 237
0.023827799 0.755 0.0039712996 1.0145311e-38 338 237
0.025151566 0.755 0.0039712996 1.0145311e-38 339 237
0.026475333 0.755 0.0039712996 1.0050965e-38 340 237
0.027799098 0.755 0.0039712996 9.8669349e-39 341 237
0.029122867 0.755 0.0039712996 9.682552e-39 342 237
0.030446632 0.755 0.0039712996 9.4059665e-39 343 237
0.031770397 0.755 0.0039712996 9.405619e-39 344 237
0.033094164 0.755 0.0039712996 9.405619e-39 345 237
0.034509107 0.75700003 0.0039818203 9.0379225e-39 346 237
0.035931058 0.759 0.0039923396 8.9457254e-39 347 237
0.037360024 0.76099998 0.0040028598 9.3134332e-39 348 237
0.038694311 0.76099998 0.0040028598 9.3134332e-39 349 237
0.040028598 0.76099998 0.0040028598 9.2197984e-39 350 237
0.041362885 0.76099998 0.0040028598 9.2197984e-39 351 237
0.042753279 0.76200002 0.0040081199 9.2205201e-39 352 237
0.044089317 0.76200002 0.0040081199 9.3127171e-39 353 237
0.045425359 0.76200002 0.0040081199 8.6706099e-39 354 237
0.046761397 0.76200002 0.0040081199 1.0514523e-38 355 237
-0.024206521 0.76700002 0.0026896133 1.1806703e-38 302 238
-0.022861714 0.76700002 0.0026896133 1.1345724e-38 303 238
-0.021516906 0.76700002 0.0026896133 1.0609191e-38 304 238
-0.020172099 0.76700002 0.0026896133 1.0148572e-38 305 238
-0.018827293 0.76700002 0.0026896133 1.0516999e-38 306 238
-0.017459691 0.76599997 0.0026861064 1.0609194e-38 307 238
-0.016116638 0.76599997 0.0026861064 1.0977996e-38 308 238
-0.014735013 0.764 0.0026790933 1.1623366e-38 309 238
-0.0133604 0.76200002 0.00267208 1.2085399e-38 310 238
-0.01202436 0.76200002 0.00267208 1.2177595e-38 311 238
-0.010674292 0.76099998 0.0026685731 1.2453438e-38 312 238
-0.0093400059 0.76099998 0.0026685731 1.2453438e-38 313 238
-0.0080057196 0.76099998 0.0026685731 1.2635288e-38 314 238
-0.0066538998 0.759 0.00266156 1.2359061e-38 315 238
-0.0053231199 0.759 0.00266156 1.2358331e-38 316 238
-0.0039923396 0.759 0.00266156 1.2358331e-38 317 238
-0.0026545466 0.75700003 0.0026545466 1.2082825e-38 318 238
-0.0013272733 0.75700003 0.0026545466 1.1990631e-38 319 238
0 0.755 0.0026475333 1.2081031e-38 320 238
0.0013237667 0.755 0.0026475333 1.1897002e-38 321 238
0.0026475333 0.755 0.0026475333 1.2263267e-38 322 238
0.0039712996 0.755 0.0026475333 1.2171073e-38 323 238
0.0052950666 0.755 0.0026475333 1.1895208e-38 324 238
0.0066188332 0.755 0.0026475333 1.1987402e-38 325 238
0.0079425992 0.755 0.0026475333 1.1896288e-38 326 238
0.0092663663 0.755 0.0026475333 1.1804093e-38 327 238
0.010590133 0.755 0.0026475333 1.143603e-38 328 238
0.011913899 0.755 0.0026475333 1.143603e-38 329 238
0.013220133 0.75400001 0.0026440267 1.1895208e-38 330 238
0.014542146 0.75400001 0.0026440267 1.1618984e-38 331 238
0.01586416 0.75400001 0.0026440267 1.2353668e-38 332 238
0.017186172 0.75400001 0.0026440267 1.2353668e-38 333 238
0.018508185 0.75400001 0.0026440267 1.2168562e-38 334 238
0.019830201 0.75400001 0.0026440267 1.1799785e-38 335 238
0.021180267 0.755 0.0026475333 1.1156937e-38 336 238
0.022504034 0.755 0.0026475333 1.0880354e-38 337 238
0.023827799 0.755 0.0026475333 1.0420818e-38 338 238
0.025151566 0.755 0.0026475333 1.0236429e-38 339 238
0.026475333 0.755 0.0026475333 1.0050606e-38 340 238
0.027799098 0.755 0.0026475333 9.6821877e-39 341 238
0.029122867 0.755 0.0026475333 9.4978146e-39 342 238
0.030446632 0.755 0.0026475333 9.3130632e-39 343 238
0.031770397 0.755 0.0026475333 9.2215935e-39 344 238
0.033094164 0.755 0.0026475333 9.0372022e-39 345 238
0.034509107 0.75700003 0.0026545466 8.8535326e-39 346 238
0.035931058 0.759 0.00266156 8.9457282e-39 347 238
0.03726184 0.759 0.00266156 9.2205201e-39 348 238
0.038694311 0.76099998 0.0026685731 9.2205201e-39 349 238
0.040028598 0.76099998 0.0026685731 9.1272496e-39 350 238
0.041362885 0.76099998 0.0026685731 9.1272496e-39 351 238
0.042753279 0.76200002 0.00267208 8.8528264e-39 352 238
0.044089317 0.76200002 0.00267208 9.037219e-39 353 238
0.045425359 0.76200002 0.00267208 8.2110765e-39 354 238
0.046761397 0.76200002 0.00267208 9.6862066e-39 355 238
-0.024206521 0.76700002 0.0013448066 1.1622668e-38 302 239
-0.022861714 0.76700002 0.0013448066 1.1069494e-38 303 239
-0.021516906 0.76700002 0.0013448066 1.0055658e-38 304 239
-0.020172099 0.76700002 0.0013448066 9.8709061e-39 305 239
-0.018827293 0.76700002 0.0013448066 1.0238614e-38 306 239
-0.017459691 0.76599997 0.0013430532 1.0699591e-38 307 239
-0.016116638 0.76599997 0.0013430532 1.0335144e-38 308 239
-0.014735013 0.764 0.0013395466 1.0980513e-38 309 239
-0.0133604 0.76200002 0.00133604 1.1625867e-38 310 239
-0.01202436 0.76200002 0.00133604 1.1902453e-38 311 239
-0.010674292 0.76099998 0.0013342865 1.2453809e-38 312 239
-0.0093400059 0.76099998 0.0013342865 1.2453809e-38 313 239
-0.0080057196 0.76099998 0.0013342865 1.2451993e-38 314 239
-0.0066538998 0.759 0.00133078 1.2359797e-38 315 239
-0.0053231199 0.759 0.00133078 1.2083914e-38 316 239
-0.0039923396 0.759 0.00133078 1.1899522e-38 317 239
-0.0026545466 0.75700003 0.0013272733 1.1807318e-38 318 239
-0.0013272733 0.75700003 0.0013272733 1.1530377e-38 319 239
0 0.755 0.0013237667 1.198812e-38 320 239
0.0013237667 0.755 0.0013237667 1.1619701e-38 321 239
0.0026475333 0.755 0.0013237667 1.1801937e-38 322 239
0.0039712996 0.755 0.0013237667 1.1617549e-38 323 239
0.0052950666 0.755 0.0013237667 1.1341325e-38 324 239
0.0066188332 0.755 0.0013237667 1.0695965e-38 325 239
0.0079425992 0.755 0.0013237667 9.7779692e-39 326 239
0.0092663663 0.755 0.0013237667 9.7779692e-39 327 239
0.010590133 0.755 0.0013237667 9.594657e-39 328 239
0.01189812 0.75400001 0.0013220133 1.0147464e-38 329 239
0.013220133 0.75400001 0.0013220133 1.1526795e-38 330 239
0.014542146 0.75400001 0.0013220133 1.2448753e-38 331 239
0.01586416 0.75400001 0.0013220133 1.4100717e-38 332 239
0.017186172 0.75400001 0.0013220133 1.4008522e-38 333 239
0.018508185 0.75400001 0.0013220133 1.2996159e-38 334 239
0.019830201 0.75400001 0.0013220133 1.2350798e-38 335 239
0.021152213 0.75400001 0.0013220133 1.0973983e-38 336 239
0.022474226 0.75400001 0.0013220133 1.06974e-38 337 239
0.02379624 0.75400001 0.0013220133 1.0145311e-38 338 239
0.025118252 0.75400001 0.0013220133 9.9609227e-39 339 239
0.026475333 0.755 0.0013237667 9.774026e-39 340 239
0.027799098 0.755 0.0013237667 9.774026e-39 341 239
0.029122867 0.755 0.0013237667 9.4056162e-39 342 239
0.030446632 0.755 0.0013237667 9.3134192e-39 343 239
0.031770397 0.755 0.0013237667 9.2208732e-39 344 239
0.033094164 0.755 0.0013237667 9.2208732e-39 345 239
0.034509107 0.75700003 0.0013272733 8.8535326e-39 346 239
0.035931058 0.759 0.00133078 8.8535326e-39 347 239
0.03726184 0.759 0.00133078 9.1276028e-39 348 239
0.038694311 0.76099998 0.0013342865 9.1276028e-39 349 239
0.040028598 0.76099998 0.0013342865 8.8520949e-39 350 239
0.041417241 0.76200002 0.00133604 8.8520949e-39 351 239
0.042753279 0.76200002 0.00133604 8.5773129e-39 352 239
0.044089317 0.76200002 0.00133604 8.6698672e-39 353 239
0.045425359 0.76200002 0.00133604 7.9355588e-39 354 239
0.046761397 0.76200002 0.00133604 9.0419064e-39 355 239
-0.024206521 0.76700002 -0 1.1623018e-38 302 240
-0.022861714 0.76700002 -0 1.1069844e-38 303 240
-0.021516906 0.76700002 -0 1.088469e-38 304 240
-0.020172099 0.76700002 -0 1.0423711e-38 305 240
-0.018827293 0.76700002 -0 9.8727082e-39 306 240
-0.017459691 0.76599997 -0 1.0148935e-38 307 240
-0.016116638 0.76599997 -0 1.0242229e-38 308 240
-0.014735013 0.764 -0 1.0795403e-38 309 240
-0.0133604 0.76200002 -0 1.1533674e-38 310 240
-0.01202436 0.76200002 -0 1.1902097e-38 311 240
-0.010674292 0.76099998 -0 1.1994633e-38 312 240
-0.0093400059 0.76099998 -0 1.1994633e-38 313 240
-0.0080057196 0.76099998 -0 1.2544542e-38 314 240
-0.0066538998 0.759 -0 1.236015e-38 315 240
-0.0053231199 0.759 -0 1.2543796e-38 316 240
-0.0039818203 0.75700003 -0 1.2267572e-38 317 240
-0.0026475333 0.755 -0 1.2082825e-38 318 240
-0.0013237667 0.755 -0 1.1898436e-38 319 240
0 0.755 -0 1.1621136e-38 320 240
0.0013237667 0.755 -0 1.1344912e-38 321 240
0.0026475333 0.755 -0 1.1342401e-38 322 240
0.0039712996 0.755 -0 1.1250207e-38 323 240
0.0052950666 0.755 -0 1.0790312e-38 324 240
0.0066188332 0.755 -0 1.0328982e-38 325 240
0.0079425992 0.755 -0 9.9612885e-39 326 240
0.0092540924 0.75400001 -0 9.8690929e-39 327 240
0.010576107 0.75400001 -0 9.6865121e-39 328 240
0.01189812 0.75400001 -0 9.8712621e-39 329 240
0.013220133 0.75400001 -0 1.1619739e-38 330 240
0.014542146 0.75400001 -0 1.3002674e-38 331 240
0.01586416 0.75400001 -0 1.3734823e-38 332 240
0.017186172 0.75400001 -0 1.355043e-38 333 240
0.018508185 0.75400001 -0 1.2261846e-38 334 240
0.019830201 0.75400001 -0 1.1800868e-38 335 240
0.021152213 0.75400001 -0 1.1156585e-38 336 240
0.022474226 0.75400001 -0 1.0788161e-38 337 240
0.02379624 0.75400001 -0 1.0144594e-38 338 240
0.025118252 0.75400001 -0 9.8676523e-39 339 240
0.026475333 0.755 -0 9.7740288e-39 340 240
0.027799098 0.755 -0 9.5892788e-39 341 240
0.029122867 0.755 -0 9.2215865e-39 342 240
0.030446632 0.755 -0 9.0375553e-39 343 240
0.031770397 0.755 -0 8.9450094e-39 344 240
0.033181835 0.75700003 -0 8.9450094e-39 345 240
0.034509107 0.75700003 -0 8.6691456e-39 346 240
0.035931058 0.759 -0 8.6691456e-39 347 240
0.037360024 0.76099998 -0 8.9450094e-39 348 240
0.038694311 0.76099998 -0 8.8528138e-39 349 240
0.040028598 0.76099998 -0 8.8520949e-39 350 240
0.041417241 0.76200002 -0 8.8520949e-39 351 240
0.042753279 0.76200002 -0 8.3936503e-39 352 240
0.044089317 0.76200002 -0 8.7624328e-39 353 240
0.045425359 0.76200002 -0 8.6709757e-39 354 240
0.046761397 0.76200002 -0 9.5932907e-39 355 240
-0.024206521 0.76700002 -0.0013448066 1.15301e-38 302 241
-0.022861714 0.76700002 -0.0013448066 1.1160958e-38 303 241
-0.021516906 0.76700002 -0.0013448066 1.0702462e-38 304 241
-0.020172099 0.76700002 -0.0013448066 1.0057092e-38 305 241
-0.018827293 0.76700002 -0.0013448066 9.9638276e-39 306 241
-0.017459691 0.76599997 -0.0013430532 1.0056023e-38 307 241
-0.016116638 0.76599997 -0.0013430532 1.0516292e-38 308 241
-0.014735013 0.764 -0.0013395466 1.1161662e-38 309 241
-0.0133604 0.76200002 -0.00133604 1.134821e-38 310 241
-0.01202436 0.76200002 -0.00133604 1.1993579e-38 311 241
-0.010674292 0.76099998 -0.0013342865 1.199465e-38 312 241
-0.0093400059 0.76099998 -0.0013342865 1.199465e-38 313 241
-0.0080057196 0.76099998 -0.0013342865 1.2269778e-38 314 241
-0.0066538998 0.759 -0.00133078 1.2453809e-38 315 241
-0.0053090933 0.75700003 -0.0013272733 1.2454147e-38 316 241
-0.0039818203 0.75700003 -0.0013272733 1.2177201e-38 317 241
-0.0026475333 0.755 -0.0013237667 1.2083542e-38 318 241
-0.0013237667 0.755 -0.0013237667 1.1714765e-38 319 241
0 0.755 -0.0013237667 1.162293e-38 320 241
0.0013237667 0.755 -0.0013237667 1.1161959e-38 321 241
0.0026475333 0.755 -0.0013237667 1.1159806e-38 322 241
0.0039712996 0.755 -0.0013237667 1.0791388e-38 323 241
0.0052950666 0.755 -0.0013237667 1.0606282e-38 324 241
0.0066188332 0.755 -0.0013237667 1.03297e-38 325 241
0.00793208 0.75400001 -0.0013220133 1.0146029e-38 326 241
0.0092540924 0.75400001 -0.0013220133 1.0053834e-38 327 241
0.010576107 0.75400001 -0.0013220133 9.9619989e-39 328 241
0.01189812 0.75400001 -0.0013220133 1.0238223e-38 329 241
0.013220133 0.75400001 -0.0013220133 1.1620102e-38 330 241
0.014542146 0.75400001 -0.0013220133 1.2910841e-38 331 241
0.01586416 0.75400001 -0.0013220133 1.345898e-38 332 241
0.017186172 0.75400001 -0.0013220133 1.2998002e-38 333 241
0.018508185 0.75400001 -0.0013220133 1.1340979e-38 334 241
0.019830201 0.75400001 -0.0013220133 1.1156588e-38 335 241
0.021152213 0.75400001 -0.0013220133 1.0696328e-38 336 241
0.022474226 0.75400001 -0.0013220133 1.0512297e-38 337 241
0.02379624 0.75400001 -0.0013220133 1.0142807e-38 338 241
0.025118252 0.75400001 -0.0013220133 9.8662216e-39 339 241
0.026475333 0.755 -0.0013237667 9.5889284e-39 340 241
0.027799098 0.755 -0.0013237667 9.4967314e-39 341 241
0.029122867 0.755 -0.0013237667 9.313066e-39 342 241
0.030446632 0.755 -0.0013237667 9.2208704e-39 343 241
0.031770397 0.755 -0.0013237667 8.9446535e-39 344 241
0.033181835 0.75700003 -0.0013272733 8.8524578e-39 345 241
0.034509107 0.75700003 -0.0013272733 8.8524606e-39 346 241
0.035931058 0.759 -0.00133078 8.8524606e-39 347 241
0.037360024 0.76099998 -0.0013342865 8.9450094e-39 348 241
0.038694311 0.76099998 -0.0013342865 8.8528138e-39 349 241
0.040081199 0.76200002 -0.00133604 8.7602594e-39 350 241
0.041417241 0.76200002 -0.00133604 8.7602594e-39 351 241
0.042753279 0.76200002 -0.00133604 8.4865522e-39 352 241
0.044089317 0.76200002 -0.00133604 8.6705833e-39 353 241
0.045544583 0.764 -0.0013395466 9.0393854e-39 354 241
0.046884131 0.764 -0.0013395466 1.0330124e-38 355 241
-0.024206521 0.76700002 -0.0026896133 1.1805609e-38 302 242
-0.022861714 0.76700002 -0.0026896133 1.1344989e-38 303 242
-0.021573013 0.76899999 -0.0026966266 1.0885055e-38 304 242
-0.020172099 0.76700002 -0.0026896133 1.0424077e-38 305 242
-0.018827293 0.76700002 -0.0026896133 1.0148572e-38 306 242
-0.017459691 0.76599997 -0.0026861064 1.0148572e-38 307 242
-0.016116638 0.76599997 -0.0026861064 1.0608841e-38 308 242
-0.014735013 0.764 -0.0026790933 1.0885787e-38 309 242
-0.0133604 0.76200002 -0.00267208 1.1163816e-38 310 242
-0.01202436 0.76200002 -0.00267208 1.1716989e-38 311 242
-0.01068832 0.76200002 -0.00267208 1.1902453e-38 312 242
-0.0093400059 0.76099998 -0.0026685731 1.2547822e-38 313 242
-0.0080057196 0.76099998 -0.0026685731 1.2822598e-38 314 242
-0.0066538998 0.759 -0.00266156 1.2822598e-38 315 242
-0.0053090933 0.75700003 -0.0026545466 1.3097359e-38 316 242
-0.0039818203 0.75700003 -0.0026545466 1.2728936e-38 317 242
-0.0026475333 0.755 -0.0026475333 1.2635995e-38 318 242
-0.0013237667 0.755 -0.0026475333 1.2175019e-38 319 242
0 0.755 -0.0026475333 1.1714407e-38 320 242
0.0013237667 0.755 -0.0026475333 1.152966e-38 321 242
0.0026475333 0.755 -0.0026475333 1.1344195e-38 322 242
0.0039712996 0.755 -0.0026475333 1.0975418e-38 323 242
0.0052950666 0.755 -0.0026475333 1.0882148e-38 324 242
0.0066100666 0.75400001 -0.0026440267 1.06974e-38 325 242
0.00793208 0.75400001 -0.0026440267 1.0238223e-38 326 242
0.0092540924 0.75400001 -0.0026440267 1.0146029e-38 327 242
0.010576107 0.75400001 -0.0026440267 9.9620073e-39 328 242
0.01189812 0.75400001 -0.0026440267 1.0238953e-38 329 242
0.013220133 0.75400001 -0.0026440267 1.0516276e-38 330 242
0.014542146 0.75400001 -0.0026440267 1.1253842e-38 331 242
0.01586416 0.75400001 -0.0026440267 1.2262941e-38 332 242
0.017186172 0.75400001 -0.0026440267 1.18938e-38 333 242
0.018508185 0.75400001 -0.0026440267 1.1064025e-38 334 242
0.019830201 0.75400001 -0.0026440267 1.0971831e-38 335 242
0.021152213 0.75400001 -0.0026440267 1.0420102e-38 336 242
0.022474226 0.75400001 -0.0026440267 1.0235353e-38 337 242
0.02379624 0.75400001 -0.0026440267 9.8669433e-39 338 242
0.025118252 0.75400001 -0.0026440267 9.4981621e-39 339 242
0.026440267 0.75400001 -0.0026440267 9.4056162e-39 340 242
0.027799098 0.755 -0.0026475333 9.3134192e-39 341 242
0.029122867 0.755 -0.0026475333 9.0372022e-39 342 242
0.030446632 0.755 -0.0026475333 8.9450066e-39 343 242
0.031770397 0.755 -0.0026475333 9.0357701e-39 344 242
0.033181835 0.75700003 -0.0026545466 9.0357701e-39 345 242
0.034509107 0.75700003 -0.0026545466 8.8524578e-39 346 242
0.035931058 0.759 -0.00266156 8.8524578e-39 347 242
0.037360024 0.76099998 -0.0026685731 8.8528138e-39 348 242
0.038694311 0.76099998 -0.0026685731 8.7602594e-39 349 242
0.040028598 0.76099998 -0.0026685731 8.5769471e-39 350 242
0.041417241 0.76200002 -0.00267208 8.6691428e-39 351 242
0.042753279 0.76200002 -0.00267208 8.3036056e-39 352 242
0.044089317 0.76200002 -0.00267208 8.6720294e-39 353 242
0.045544583 0.764 -0.0026790933 9.4070988e-39 354 242
0.046884131 0.764 -0.0026790933 1.0882229e-38 355 242
-0.02433276 0.77100003 -0.0040554604 1.2266232e-38 302 243
-0.022921326 0.76899999 -0.0040449398 1.1620863e-38 303 243
-0.021573013 0.76899999 -0.0040449398 1.1161632e-38 304 243
-0.0202247 0.76899999 -0.0040449398 1.0884687e-38 305 243
-0.018827293 0.76700002 -0.00403442 1.0424786e-38 306 243
-0.017482487 0.76700002 -0.00403442 1.0424786e-38 307 243
-0.016116638 0.76599997 -0.0040291594 1.0517352e-38 308 243
-0.014735013 0.764 -0.0040186401 1.0793939e-38 309 243
-0.0133604 0.76200002 -0.0040081199 1.0796106e-38 310 243
-0.01202436 0.76200002 -0.0040081199 1.1257083e-38 311 243
-0.01068832 0.76200002 -0.0040081199 1.1809928e-38 312 243
-0.0093400059 0.76099998 -0.0040028598 1.3653839e-38 313 243
-0.0080057196 0.76099998 -0.0040028598 1.3928998e-38 314 243
-0.0066538998 0.759 -0.0039923396 1.3283628e-38 315 243
-0.0053090933 0.75700003 -0.0039818203 1.3099205e-38 316 243
-0.0039712996 0.755 -0.0039712996 1.2730062e-38 317 243
-0.0026475333 0.755 -0.0039712996 1.2636399e-38 318 243
-0.0013237667 0.755 -0.0039712996 1.2175781e-38 319 243
0 0.755 -0.0039712996 1.1898453e-38 320 243
0.0013220133 0.75400001 -0.00396604 1.1529311e-38 321 243
0.0026440267 0.75400001 -0.00396604 1.1253794e-38 322 243
0.0039712996 0.755 -0.0039712996 1.0884659e-38 323 243
0.0052950666 0.755 -0.0039712996 1.0791747e-38 324 243
0.0066100666 0.75400001 -0.00396604 1.0607e-38 325 243
0.00793208 0.75400001 -0.00396604 1.0330417e-38 326 243
0.0092540924 0.75400001 -0.00396604 1.0238223e-38 327 243
0.010576107 0.75400001 -0.00396604 9.8701648e-39 328 243
0.01189812 0.75400001 -0.00396604 1.0054556e-38 329 243
0.013220133 0.75400001 -0.00396604 1.0146771e-38 330 243
0.014542146 0.75400001 -0.00396604 1.0238967e-38 331 243
0.01586416 0.75400001 -0.00396604 1.0605577e-38 332 243
0.017186172 0.75400001 -0.00396604 1.0329351e-38 333 243
0.018508185 0.75400001 -0.00396604 1.0328623e-38 334 243
0.019830201 0.75400001 -0.00396604 1.0144594e-38 335 243
0.021152213 0.75400001 -0.00396604 1.0051689e-38 336 243
0.022474226 0.75400001 -0.00396604 9.774742e-39 337 243
0.02379624 0.75400001 -0.00396604 9.6821989e-39 338 243
0.025118252 0.75400001 -0.00396604 9.4056134e-39 339 243
0.026440267 0.75400001 -0.00396604 9.2215865e-39 340 243
0.027799098 0.755 -0.0039712996 9.2215865e-39 341 243
0.029122867 0.755 -0.0039712996 9.1286748e-39 342 243
0.030446632 0.755 -0.0039712996 9.0364791e-39 343 243
0.031770397 0.755 -0.0039712996 8.851739e-39 344 243
0.033181835 0.75700003 -0.0039818203 9.0357701e-39 345 243
0.034509107 0.75700003 -0.0039818203 8.8524606e-39 346 243
0.035931058 0.759 -0.0039923396 8.760265e-39 347 243
0.037360024 0.76099998 -0.0040028598 8.7602622e-39 348 243
0.038694311 0.76099998 -0.0040028598 8.6680666e-39 349 243
0.040028598 0.76099998 -0.0040028598 8.5769471e-39 350 243
0.041417241 0.76200002 -0.0040081199 8.6691428e-39 351 243
0.042753279 0.76200002 -0.0040081199 8.3043231e-39 352 243
0.04420504 0.764 -0.0040186401 8.5812687e-39 353 243
0.045544583 0.764 -0.0040186401 9.9599124e-39 354 243
0.046884131 0.764 -0.0040186401 1.1527598e-38 355 243
-0.02433276 0.77100003 -0.0054072798 1.2358434e-38 302 244
-0.02298094 0.77100003 -0.0054072798 1.1713064e-38 303 244
-0.021629119 0.77100003 -0.0054072798 1.1254917e-38 304 244
-0.0202247 0.76899999 -0.0053932532 1.0793939e-38 305 244
-0.018876385 0.76899999 -0.0053932532 1.0334034e-38 306 244
-0.017482487 0.76700002 -0.0053792265 1.0241837e-38 307 244
-0.016116638 0.76599997 -0.0053722127 1.0609545e-38 308 244
-0.014735013 0.764 -0.0053581866 1.0794295e-38 309 244
-0.0133604 0.76200002 -0.0053441599 1.0979775e-38 310 244
-0.01202436 0.76200002 -0.0053441599 1.107197e-38 311 244
-0.01068832 0.76200002 -0.0053441599 1.1441514e-38 312 244
-0.0093400059 0.76099998 -0.0053371461 1.4576165e-38 313 244
-0.0080057196 0.76099998 -0.0053371461 1.4667307e-38 314 244
-0.0066538998 0.759 -0.0053231199 1.4021938e-38 315 244
-0.0053090933 0.75700003 -0.0053090933 1.3930448e-38 316 244
-0.0039712996 0.755 -0.0052950666 1.3838253e-38 317 244
-0.0026475333 0.755 -0.0052950666 1.3928998e-38 318 244
-0.0013237667 0.755 -0.0052950666 1.3191433e-38 319 244
0 0.755 -0.0052950666 1.2451315e-38 320 244
0.0013220133 0.75400001 -0.0052880533 1.171375e-38 321 244
0.0026440267 0.75400001 -0.0052880533 1.1345295e-38 322 244
0.00396604 0.75400001 -0.0052880533 1.1160904e-38 323 244
0.0052880533 0.75400001 -0.0052880533 1.0793193e-38 324 244
0.0066100666 0.75400001 -0.0052880533 1.0608802e-38 325 244
0.00793208 0.75400001 -0.0052880533 1.0422983e-38 326 244
0.0092540924 0.75400001 -0.0052880533 1.023895e-38 327 244
0.010576107 0.75400001 -0.0052880533 9.7790608e-39 328 244
0.01189812 0.75400001 -0.0052880533 9.8712565e-39 329 244
0.013220133 0.75400001 -0.0052880533 1.0054574e-38 330 244
0.014542146 0.75400001 -0.0052880533 1.0054574e-38 331 244
0.01586416 0.75400001 -0.0052880533 1.0329719e-38 332 244
0.017186172 0.75400001 -0.0052880533 9.8687425e-39 333 244
0.018508185 0.75400001 -0.0052880533 1.0051689e-38 334 244
0.019830201 0.75400001 -0.0052880533 9.8672964e-39 335 244
0.021152213 0.75400001 -0.0052880533 9.683631e-39 336 244
0.022474226 0.75400001 -0.0052880533 9.498881e-39 337 244
0.02379624 0.75400001 -0.0052880533 9.4978146e-39 338 244
0.025118252 0.75400001 -0.0052880533 9.3130632e-39 339 244
0.026475333 0.755 -0.0052950666 9.2208704e-39 340 244
0.027799098 0.755 -0.0052950666 9.1286748e-39 341 244
0.029122867 0.755 -0.0052950666 9.0361232e-39 342 244
0.030446632 0.755 -0.0052950666 8.8520921e-39 343 244
0.031770397 0.755 -0.0052950666 8.7595433e-39 344 244
0.033181835 0.75700003 -0.0053090933 8.851739e-39 345 244
0.034509107 0.75700003 -0.0053090933 8.7602622e-39 346 244
0.035931058 0.759 -0.0053231199 8.6680666e-39 347 244
0.037360024 0.76099998 -0.0053371461 8.6684197e-39 348 244
0.038694311 0.76099998 -0.0053371461 8.5762241e-39 349 244
0.040081199 0.76200002 -0.0053441599 8.3932719e-39 350 244
0.041417241 0.76200002 -0.0053441599 8.5780219e-39 351 244
0.042753279 0.76200002 -0.0053441599 8.5791149e-39 352 244
0.04420504 0.764 -0.0053581866 9.4092343e-39 353 244
0.045663811 0.76599997 -0.0053722127 1.060385e-38 354 244
0.047006864 0.76599997 -0.0053722127 1.2263012e-38 355 244
-0.02433276 0.77100003 -0.0067590997 1.226516e-38 302 245
-0.02298094 0.77100003 -0.0067590997 1.1988574e-38 303 245
-0.021629119 0.77100003 -0.0067590997 1.1530778e-38 304 245
-0.020277301 0.77100003 -0.0067590997 1.1161995e-38 305 245
-0.018876385 0.76899999 -0.0067415666 1.0519131e-38 306 245
-0.017482487 0.76700002 -0.006724033 1.0334739e-38 307 245
-0.016116638 0.76599997 -0.0067152665 1.0426585e-38 308 245
-0.014735013 0.764 -0.006697733 1.0518781e-38 309 245
-0.0133604 0.76200002 -0.0066801999 1.0611711e-38 310 245
-0.01202436 0.76200002 -0.0066801999 1.0796104e-38 311 245
-0.01068832 0.76200002 -0.0066801999 1.1256769e-38 312 245
-0.0093400059 0.76099998 -0.0066714329 1.3653856e-38 313 245
-0.0080057196 0.76099998 -0.0066714329 1.4299266e-38 314 245
-0.0066538998 0.759 -0.0066538998 1.4483658e-38 315 245
-0.0053090933 0.75700003 -0.0066363667 1.5036479e-38 316 245
-0.0039818203 0.75700003 -0.0066363667 1.5129033e-38 317 245
-0.0026475333 0.755 -0.0066188332 1.5220873e-38 318 245
-0.0013237667 0.755 -0.0066188332 1.4575504e-38 319 245
0 0.755 -0.0066188332 1.2636484e-38 320 245
0.0013220133 0.75400001 -0.0066100666 1.1806721e-38 321 245
0.0026440267 0.75400001 -0.0066100666 1.1070545e-38 322 245
0.00396604 0.75400001 -0.0066100666 1.0886152e-38 323 245
0.0052880533 0.75400001 -0.0066100666 1.0976532e-38 324 245
0.0066100666 0.75400001 -0.0066100666 1.0699944e-38 325 245
0.00793208 0.75400001 -0.0066100666 1.060631e-38 326 245
0.0092540924 0.75400001 -0.0066100666 1.042156e-38 327 245
0.010576107 0.75400001 -0.0066100666 9.8709061e-39 328 245
0.01189812 0.75400001 -0.0066100666 9.8709061e-39 329 245
0.013220133 0.75400001 -0.0066100666 9.7790636e-39 330 245
0.014542146 0.75400001 -0.0066100666 9.7790636e-39 331 245
0.01586416 0.75400001 -0.0066100666 9.961657e-39 332 245
0.017186172 0.75400001 -0.0066100666 9.5006789e-39 333 245
0.018508185 0.75400001 -0.0066100666 9.3159345e-39 334 245
0.019830201 0.75400001 -0.0066100666 9.2237389e-39 335 245
0.021152213 0.75400001 -0.0066100666 9.2226669e-39 336 245
0.022474226 0.75400001 -0.0066100666 9.1304712e-39 337 245
0.02379624 0.75400001 -0.0066100666 9.3137891e-39 338 245
0.025118252 0.75400001 -0.0066100666 9.0372022e-39 339 245
0.026475333 0.755 -0.0066188332 9.1283216e-39 340 245
0.027799098 0.755 -0.0066188332 9.036126e-39 341 245
0.029122867 0.755 -0.0066188332 8.7602622e-39 342 245
0.030446632 0.755 -0.0066188332 8.6680666e-39 343 245
0.031770397 0.755 -0.0066188332 8.6680694e-39 344 245
0.033181835 0.75700003 -0.0066363667 8.760265e-39 345 245
0.034509107 0.75700003 -0.0066363667 8.4854704e-39 346 245
0.035931058 0.759 -0.0066538998 8.3932747e-39 347 245
0.037360024 0.76099998 -0.0066714329 8.5765744e-39 348 245
0.038694311 0.76099998 -0.0066714329 8.66877e-39 349 245
0.040081199 0.76200002 -0.0066801999 8.3943537e-39 350 245
0.041417241 0.76200002 -0.0066801999 8.6705805e-39 351 245
0.042753279 0.76200002 -0.0066801999 8.7638775e-39 352 245
0.04420504 0.764 -0.006697733 9.6858352e-39 353 245
0.045663811 0.76599997 -0.0067152665 1.0879372e-38 354 245
0.047006864 0.76599997 -0.0067152665 1.2908034e-38 355 245
-0.02433276 0.77100003 -0.0081109209 1.2725788e-38 302 246
-0.02298094 0.77100003 -0.0081109209 1.2080419e-38 303 246
-0.021629119 0.77100003 -0.0081109209 1.1439677e-38 304 246
-0.020277301 0.77100003 -0.0081109209 1.1070895e-38 305 246
-0.018876385 0.76899999 -0.0080898795 1.0612061e-38 306 246
-0.017482487 0.76700002 -0.00806884 1.0151443e-38 307 246
-0.016116638 0.76599997 -0.0080583189 1.042623e-38 308 246
-0.014735013 0.764 -0.0080372803 1.0518784e-38 309 246
-0.0133604 0.76200002 -0.0080162399 1.0611696e-38 310 246
-0.01202436 0.76200002 -0.0080162399 1.0980478e-38 311 246
-0.01068832 0.76200002 -0.0080162399 1.1163462e-38 312 246
-0.0093400059 0.76099998 -0.0080057196 1.1440051e-38 313 246
-0.0080057196 0.76099998 -0.0080057196 1.144513e-38 314 246
-0.0066538998 0.759 -0.0079846792 1.2551477e-38 315 246
-0.0053090933 0.75700003 -0.0079636406 1.3563503e-38 316 246
-0.0039818203 0.75700003 -0.0079636406 1.4116318e-38 317 246
-0.0026475333 0.755 -0.0079425992 1.4484753e-38 318 246
-0.0013237667 0.755 -0.0079425992 1.4300362e-38 319 246
0 0.755 -0.0079425992 1.2821596e-38 320 246
0.0013220133 0.75400001 -0.00793208 1.1715609e-38 321 246
0.0026440267 0.75400001 -0.00793208 1.0795403e-38 322 246
0.00396604 0.75400001 -0.00793208 1.0703207e-38 323 246
0.0052880533 0.75400001 -0.00793208 1.0517371e-38 324 246
0.0066100666 0.75400001 -0.00793208 1.033298e-38 325 246
0.00793208 0.75400001 -0.00793208 1.0605975e-38 326 246
0.0092540924 0.75400001 -0.00793208 1.0513421e-38 327 246
0.010576107 0.75400001 -0.00793208 9.8709229e-39 328 246
0.01189812 0.75400001 -0.00793208 9.8709229e-39 329 246
0.013220133 0.75400001 -0.00793208 9.6883141e-39 330 246
0.014542146 0.75400001 -0.00793208 9.4117258e-39 331 246
0.01586416 0.75400001 -0.00793208 9.5935976e-39 332 246
0.017186172 0.75400001 -0.00793208 8.9482282e-39 333 246
0.018508185 0.75400001 -0.00793208 9.2233759e-39 334 246
0.019830201 0.75400001 -0.00793208 9.0386245e-39 335 246
0.021152213 0.75400001 -0.00793208 9.2212179e-39 336 246
0.022474226 0.75400001 -0.00793208 9.2212179e-39 337 246
0.02379624 0.75400001 -0.00793208 9.0375553e-39 338 246
0.025151566 0.755 -0.0079425992 9.0375553e-39 339 246
0.026475333 0.755 -0.0079425992 8.7602594e-39 340 246
0.027799098 0.755 -0.0079425992 8.7602594e-39 341 246
0.029122867 0.755 -0.0079425992 8.8510159e-39 342 246
0.030527288 0.75700003 -0.0079636406 8.8510159e-39 343 246
0.031854562 0.75700003 -0.0079636406 8.5762241e-39 344 246
0.033181835 0.75700003 -0.0079636406 8.5762241e-39 345 246
0.034600276 0.759 -0.0079846792 8.4851018e-39 346 246
0.036025736 0.76099998 -0.0080057196 8.3929048e-39 347 246
0.037360024 0.76099998 -0.0080057196 8.5762171e-39 348 246
0.038694311 0.76099998 -0.0080057196 8.6684141e-39 349 246
0.040081199 0.76200002 -0.0080162399 8.4865494e-39 350 246
0.041525945 0.764 -0.0080372803 8.8553319e-39 351 246
0.042865492 0.764 -0.0080372803 9.4074491e-39 352 246
0.044320758 0.76599997 -0.0080583189 1.023721e-38 353 246
0.045723427 0.76700002 -0.00806884 1.143255e-38 354 246
0.047068235 0.76700002 -0.00806884 1.3460855e-38 355 246
-0.02433276 0.77100003 -0.0094627403 1.2910545e-38 302 247
-0.02298094 0.77100003 -0.0094627403 1.1712361e-38 303 247
-0.021629119 0.77100003 -0.0094627403 1.1163094e-38 304 247
-0.020277301 0.77100003 -0.0094627403 1.0978703e-38 305 247
-0.018925481 0.77100003 -0.0094627403 1.0887203e-38 306 247
-0.017482487 0.76700002 -0.0094136465 1.0702812e-38 307 247
-0.016116638 0.76599997 -0.0094013726 1.097831e-38 308 247
-0.014735013 0.764 -0.0093768267 1.097831e-38 309 247
-0.0133604 0.76200002 -0.0093522798 1.0611342e-38 310 247
-0.01202436 0.76200002 -0.0093522798 1.0796094e-38 311 247
-0.010674292 0.76099998 -0.0093400059 1.0979769e-38 312 247
-0.0093400059 0.76099998 -0.0093400059 1.0703541e-38 313 247
-0.0080057196 0.76099998 -0.0093400059 1.0706804e-38 314 247
-0.0066538998 0.759 -0.00931546 1.1720955e-38 315 247
-0.0053231199 0.759 -0.00931546 1.2639722e-38 316 247
-0.0039818203 0.75700003 -0.0092909131 1.3008865e-38 317 247
-0.0026475333 0.755 -0.0092663663 1.3561698e-38 318 247
-0.0013237667 0.755 -0.0092663663 1.3469502e-38 319 247
0 0.755 -0.0092663663 1.1716675e-38 320 247
0.0013237667 0.755 -0.0092663663 1.1440087e-38 321 247
0.0026475333 0.755 -0.0092663663 1.1070548e-38 322 247
0.00396604 0.75400001 -0.0092540924 1.0886155e-38 323 247
0.0052880533 0.75400001 -0.0092540924 1.0424823e-38 324 247
0.0066100666 0.75400001 -0.0092540924 1.0148234e-38 325 247
0.00793208 0.75400001 -0.0092540924 1.0147515e-38 326 247
0.0092540924 0.75400001 -0.0092540924 9.9631242e-39 327 247
0.010576107 0.75400001 -0.0092540924 9.8712789e-39 328 247
0.01189812 0.75400001 -0.0092540924 9.8712789e-39 329 247
0.013220133 0.75400001 -0.0092540924 9.7783574e-39 330 247
0.014542146 0.75400001 -0.0092540924 9.409935e-39 331 247
0.01586416 0.75400001 -0.0092540924 9.3159401e-39 332 247
0.017186172 0.75400001 -0.0092540924 8.947159e-39 333 247
0.018508185 0.75400001 -0.0092540924 8.9460786e-39 334 247
0.019830201 0.75400001 -0.0092540924 8.6698518e-39 335 247
0.021152213 0.75400001 -0.0092540924 8.8528081e-39 336 247
0.022474226 0.75400001 -0.0092540924 8.8528081e-39 337 247
0.023827799 0.755 -0.0092663663 8.8535298e-39 338 247
0.025151566 0.755 -0.0092663663 8.6694987e-39 339 247
0.026475333 0.755 -0.0092663663 8.7602622e-39 340 247
0.027799098 0.755 -0.0092663663 8.5758709e-39 341 247
0.029122867 0.755 -0.0092663663 8.1166935e-39 342 247
0.030527288 0.75700003 -0.0092909131 8.0244978e-39 343 247
0.031854562 0.75700003 -0.0092909131 7.8419016e-39 344 247
0.033269498 0.759 -0.00931546 7.8419016e-39 345 247
0.034600276 0.759 -0.00931546 8.1177612e-39 346 247
0.036025736 0.76099998 -0.0093400059 8.1177612e-39 347 247
0.037360024 0.76099998 -0.0093400059 8.3932719e-39 348 247
0.038745161 0.76200002 -0.0093522798 8.4854676e-39 349 247
0.040081199 0.76200002 -0.0093522798 8.3032525e-39 350 247
0.041525945 0.764 -0.0093768267 8.7642307e-39 351 247
0.042865492 0.764 -0.0093768267 9.59149e-39 352 247
0.044320758 0.76599997 -0.0094013726 1.0329055e-38 353 247
0.045723427 0.76700002 -0.0094136465 1.1525826e-38 354 247
0.047068235 0.76700002 -0.0094136465 1.3830356e-38 355 247
-0.02433276 0.77100003 -0.01081456 1.3278985e-38 302 248
-0.02298094 0.77100003 -0.01081456 1.189605e-38 303 248
