# .PCD v.7 - Point Cloud Data file format
FIELDS x y z rgb imX imY
SIZE 4 4 4 4 4 4
TYPE F F F F F F
COUNT 1 1 1 1 1 1
WIDTH 862
HEIGHT 1
VIEWPOINT 0 0 0 1 0 0 0
POINTS 862
DATA ascii
0.03528408 0.77399999 0.040712398 6.6132627e-39 346 210
0.036641158 0.77399999 0.040712398 1.0024501e-38 347 210
-0.017687626 0.77600002 0.039457016 1.6131717e-38 307 211
-0.01632704 0.77600002 0.039457016 9.9542582e-39 308 211
-0.014966453 0.77600002 0.039457016 7.3727805e-39 309 211
-0.013605867 0.77600002 0.039457016 7.6396592e-39 310 211
-0.01221372 0.77399999 0.039355319 7.9162461e-39 311 211
-0.01085664 0.77399999 0.039355319 9.1057874e-39 312 211
-0.0094872871 0.773 0.039304473 8.7366461e-39 313 211
-0.0081109209 0.77100003 0.03920278 9.7425066e-39 314 211
-0.0067590997 0.77100003 0.03920278 9.4655595e-39 315 211
-0.0053932532 0.76899999 0.039101087 1.08402e-38 316 211
-0.0040449398 0.76899999 0.039101087 1.1301178e-38 317 211
-0.0026966266 0.76899999 0.039101087 1.2407503e-38 318 211
-0.0013483133 0.76899999 0.039101087 1.3698242e-38 319 211
0 0.76899999 0.039101087 1.2963541e-38 320 211
0.0013483133 0.76899999 0.039101087 1.2502923e-38 321 211
0.0026966266 0.76899999 0.039101087 1.2592603e-38 322 211
0.0040449398 0.76899999 0.039101087 1.2315658e-38 323 211
0.0053932532 0.76899999 0.039101087 1.1672452e-38 324 211
0.0067415666 0.76899999 0.039101087 1.1857203e-38 325 211
0.0081109209 0.77100003 0.03920278 1.1491661e-38 326 211
0.0094627403 0.77100003 0.03920278 1.1952639e-38 327 211
0.01081456 0.77100003 0.03920278 1.167857e-38 328 211
0.01216638 0.77100003 0.03920278 1.1770766e-38 329 211
0.013518199 0.77100003 0.03920278 1.1679642e-38 330 211
0.01487002 0.77100003 0.03920278 1.1495611e-38 331 211
0.016179759 0.76899999 0.039101087 1.1037147e-38 332 211
0.017528072 0.76899999 0.039101087 1.0207387e-38 333 211
0.018925481 0.77100003 0.03920278 1.0845935e-38 334 211
0.020277301 0.77100003 0.03920278 1.0845935e-38 335 211
0.021629119 0.77100003 0.03920278 1.1307995e-38 336 211
0.02298094 0.77100003 0.03920278 1.1307995e-38 337 211
0.02433276 0.77100003 0.03920278 1.1028887e-38 338 211
0.02568458 0.77100003 0.03920278 1.0567909e-38 339 211
0.027036399 0.77100003 0.03920278 9.6477648e-39 340 211
0.028388219 0.77100003 0.03920278 9.7399604e-39 341 211
0.029817186 0.773 0.039304473 8.7297797e-39 342 211
0.03117251 0.773 0.039304473 8.9138123e-39 343 211
0.032527838 0.773 0.039304473 8.5475507e-39 344 211
0.033927001 0.77399999 0.039355319 8.6401051e-39 345 211
0.03528408 0.77399999 0.039355319 8.8223481e-39 346 211
0.036641158 0.77399999 0.039355319 9.0985749e-39 347 211
-0.017687626 0.77600002 0.038096428 1.4104139e-38 307 212
-0.01632704 0.77600002 0.038096428 7.9230859e-39 308 212
-0.014927879 0.77399999 0.037998237 7.2777164e-39 309 212
-0.013570799 0.77399999 0.037998237 9.2062591e-39 310 212
-0.012197939 0.773 0.037949149 8.7452809e-39 311 212
-0.01081456 0.77100003 0.037850961 9.2015605e-39 312 212
-0.0094627403 0.77100003 0.037850961 8.3714411e-39 313 212
-0.0080898795 0.76899999 0.03775277 9.7439289e-39 314 212
-0.0067415666 0.76899999 0.03775277 9.3751464e-39 315 212
-0.0053932532 0.76899999 0.03775277 1.0566127e-38 316 212
-0.0040449398 0.76899999 0.03775277 1.1211496e-38 317 212
-0.0026966266 0.76899999 0.03775277 1.1675348e-38 318 212
-0.0013483133 0.76899999 0.03775277 1.2320718e-38 319 212
0 0.76700002 0.037654586 1.2411469e-38 320 212
0.0013448066 0.76700002 0.037654586 1.1950491e-38 321 212
0.0026896133 0.76700002 0.037654586 1.2041241e-38 322 212
0.00403442 0.76700002 0.037654586 1.1949046e-38 323 212
0.0053932532 0.76899999 0.03775277 1.1490944e-38 324 212
0.0067415666 0.76899999 0.03775277 1.1490944e-38 325 212
0.0080898795 0.76899999 0.03775277 1.1216165e-38 326 212
0.0094381925 0.76899999 0.03775277 1.1308361e-38 327 212
0.01081456 0.77100003 0.037850961 1.1035018e-38 328 212
0.01216638 0.77100003 0.037850961 1.1311964e-38 329 212
0.013518199 0.77100003 0.037850961 1.0947842e-38 330 212
0.01487002 0.77100003 0.037850961 1.1040037e-38 331 212
0.016221842 0.77100003 0.037850961 1.1132208e-38 332 212
0.01757366 0.77100003 0.037850961 1.0579393e-38 333 212
0.018925481 0.77100003 0.037850961 1.103426e-38 334 212
0.020277301 0.77100003 0.037850961 1.0941706e-38 335 212
0.021629119 0.77100003 0.037850961 1.1400541e-38 336 212
0.02298094 0.77100003 0.037850961 1.1308345e-38 337 212
0.02433276 0.77100003 0.037850961 1.1581337e-38 338 212
0.02568458 0.77100003 0.037850961 1.1028522e-38 339 212
0.027036399 0.77100003 0.037850961 1.065831e-38 340 212
0.028388219 0.77100003 0.037850961 1.0381363e-38 341 212
0.029817186 0.773 0.037949149 9.0963945e-39 342 212
0.03117251 0.773 0.037949149 9.2807871e-39 343 212
0.032527838 0.773 0.037949149 8.9148913e-39 344 212
0.033883166 0.773 0.037949149 9.2836724e-39 345 212
0.035238493 0.773 0.037949149 9.5602607e-39 346 212
0.036641158 0.77399999 0.037998237 9.1914768e-39 347 212
0.037998237 0.77399999 0.037998237 7.2640202e-39 348 212
-0.018999118 0.77399999 0.036641158 1.373608e-38 306 213
-0.01764204 0.77399999 0.036641158 1.0785459e-38 307 213
-0.016284959 0.77399999 0.036641158 7.5532271e-39 308 213
-0.014908593 0.773 0.036593821 8.2907922e-39 309 213
-0.013553266 0.773 0.036593821 9.3006225e-39 310 213
-0.01216638 0.77100003 0.036499143 8.8400031e-39 311 213
-0.010786506 0.76899999 0.036404461 9.2955708e-39 312 213
-0.0094381925 0.76899999 0.036404461 8.9264282e-39 313 213
-0.0080898795 0.76899999 0.036404461 1.0023408e-38 314 213
-0.006724033 0.76700002 0.036309779 9.6546269e-39 315 213
-0.0053792265 0.76700002 0.036309779 1.0753765e-38 316 213
-0.00403442 0.76700002 0.036309779 1.0938156e-38 317 213
-0.0026896133 0.76700002 0.036309779 1.1581358e-38 318 213
-0.0013448066 0.76700002 0.036309779 1.195014e-38 319 213
0 0.76700002 0.036309779 1.2132008e-38 320 213
0.0013448066 0.76700002 0.036309779 1.2132008e-38 321 213
0.0026896133 0.76700002 0.036309779 1.1857213e-38 322 213
0.00403442 0.76700002 0.036309779 1.1857213e-38 323 213
0.0053792265 0.76700002 0.036309779 1.1399465e-38 324 213
0.0067415666 0.76899999 0.036404461 1.1399465e-38 325 213
0.0080898795 0.76899999 0.036404461 1.0850607e-38 326 213
0.0094381925 0.76899999 0.036404461 1.0850607e-38 327 213
0.01081456 0.77100003 0.036499143 1.1036438e-38 328 213
0.01216638 0.77100003 0.036499143 1.1313383e-38 329 213
0.013518199 0.77100003 0.036499143 1.0948558e-38 330 213
0.014908593 0.773 0.036593821 1.1225504e-38 331 213
0.016221842 0.77100003 0.036499143 1.1042188e-38 332 213
0.01757366 0.77100003 0.036499143 1.1042188e-38 333 213
0.018925481 0.77100003 0.036499143 1.1132586e-38 334 213
0.020277301 0.77100003 0.036499143 1.0763802e-38 335 213
0.021629119 0.77100003 0.036499143 1.1312664e-38 336 213
0.02298094 0.77100003 0.036499143 1.1035719e-38 337 213
0.02433276 0.77100003 0.036499143 1.1308711e-38 338 213
0.02568458 0.77100003 0.036499143 1.112432e-38 339 213
0.027036399 0.77100003 0.036499143 1.0660472e-38 340 213
0.028388219 0.77100003 0.036499143 9.9229055e-39 341 213
0.029740039 0.77100003 0.036499143 9.8303596e-39 342 213
0.03117251 0.773 0.036593821 1.0014752e-38 343 213
0.032527838 0.773 0.036593821 9.0985567e-39 344 213
0.033883166 0.773 0.036593821 9.2833067e-39 345 213
0.035238493 0.773 0.036593821 9.6510144e-39 346 213
0.036641158 0.77399999 0.036641158 1.0019437e-38 347 213
0.038096428 0.77600002 0.036735836 8.362456e-39 348 213
0.039457016 0.77600002 0.036735836 1.1681499e-38 349 213
-0.018925481 0.77100003 0.03514732 1.1615227e-38 306 214
-0.01757366 0.77100003 0.03514732 8.7568024e-39 307 214
-0.016221842 0.77100003 0.03514732 8.6577726e-39 308 214
-0.014831445 0.76899999 0.035056144 9.0269153e-39 309 214
-0.013483133 0.76899999 0.035056144 9.3935244e-39 310 214
-0.012134819 0.76899999 0.035056144 8.9325462e-39 311 214
-0.010786506 0.76899999 0.035056144 9.4813872e-39 312 214
-0.0094136465 0.76700002 0.034964975 8.9282148e-39 313 214
-0.00806884 0.76700002 0.034964975 9.9351599e-39 314 214
-0.006724033 0.76700002 0.034964975 9.5660172e-39 315 214
-0.0053792265 0.76700002 0.034964975 1.0115588e-38 316 214
-0.00403442 0.76700002 0.034964975 1.0115588e-38 317 214
-0.0026896133 0.76700002 0.034964975 1.0664806e-38 318 214
-0.0013448066 0.76700002 0.034964975 1.0664806e-38 319 214
0 0.76700002 0.034964975 1.1122547e-38 320 214
0.0013448066 0.76700002 0.034964975 1.1030352e-38 321 214
0.0026896133 0.76700002 0.034964975 1.0938502e-38 322 214
0.00403442 0.76700002 0.034964975 1.1122895e-38 323 214
0.0053792265 0.76700002 0.034964975 1.0848456e-38 324 214
0.0067415666 0.76899999 0.035056144 1.1033206e-38 325 214
0.0080898795 0.76899999 0.035056144 1.0300673e-38 326 214
0.0094381925 0.76899999 0.035056144 1.0485066e-38 327 214
0.01081456 0.77100003 0.03514732 9.9362108e-39 328 214
0.012197939 0.773 0.035238493 1.0304992e-38 329 214
0.013553266 0.773 0.035238493 1.0030927e-38 330 214
0.014908593 0.773 0.035238493 1.0399709e-38 331 214
0.016263919 0.773 0.035238493 1.0492978e-38 332 214
0.01757366 0.77100003 0.03514732 1.0585173e-38 333 214
0.018925481 0.77100003 0.03514732 1.1226573e-38 334 214
0.020277301 0.77100003 0.03514732 1.085815e-38 335 214
0.021629119 0.77100003 0.03514732 1.1223334e-38 336 214
0.02298094 0.77100003 0.03514732 1.0946746e-38 337 214
0.02433276 0.77100003 0.03514732 1.1402329e-38 338 214
0.02568458 0.77100003 0.03514732 1.1033907e-38 339 214
0.027036399 0.77100003 0.03514732 1.1397297e-38 340 214
0.028388219 0.77100003 0.03514732 1.0844123e-38 341 214
0.029740039 0.77100003 0.03514732 1.0199497e-38 342 214
0.031091858 0.77100003 0.03514732 1.0015105e-38 343 214
0.032443684 0.77100003 0.03514732 9.4644679e-39 344 214
0.033883166 0.773 0.035238493 9.5566635e-39 345 214
0.035238493 0.773 0.035238493 9.3755163e-39 346 214
0.036641158 0.77399999 0.03528408 9.4677119e-39 347 214
0.038096428 0.77600002 0.035375252 8.8216391e-39 348 214
0.039457016 0.77600002 0.035375252 9.4670085e-39 349 214
0.0408176 0.77600002 0.035375252 9.951017e-39 350 214
-0.018925481 0.77100003 0.033795502 9.9539078e-39 306 215
-0.01757366 0.77100003 0.033795502 8.4787764e-39 307 215
-0.016179759 0.76899999 0.033707831 9.4871704e-39 308 215
-0.014792874 0.76700002 0.033620168 9.3024204e-39 309 215
-0.013395466 0.764 0.033488665 9.3002526e-39 310 215
-0.01205592 0.764 0.033488665 9.0236657e-39 311 215
-0.010716373 0.764 0.033488665 9.4796047e-39 312 215
-0.0093768267 0.764 0.033488665 9.018628e-39 313 215
-0.0080372803 0.764 0.033488665 9.4745671e-39 314 215
-0.0066801999 0.76200002 0.033401001 9.1057846e-39 315 215
-0.0053441599 0.76200002 0.033401001 9.6560675e-39 316 215
-0.0040186401 0.764 0.033488665 9.4716776e-39 317 215
-0.0026790933 0.764 0.033488665 1.0113437e-38 318 215
-0.0013430532 0.76599997 0.033576332 1.0021242e-38 319 215
0 0.76599997 0.033576332 1.0662644e-38 320 215
0.0013430532 0.76599997 0.033576332 1.0477894e-38 321 215
0.0026861064 0.76599997 0.033576332 1.0753036e-38 322 215
0.00403442 0.76700002 0.033620168 1.084559e-38 323 215
0.0053792265 0.76700002 0.033620168 1.0388556e-38 324 215
0.0067415666 0.76899999 0.033707831 1.0572948e-38 325 215
0.0080898795 0.76899999 0.033707831 9.8418502e-39 326 215
0.0094381925 0.76899999 0.033707831 9.9340458e-39 327 215
0.01081456 0.77100003 0.033795502 9.4773809e-39 328 215
0.012197939 0.773 0.033883166 9.6617721e-39 329 215
0.013553266 0.773 0.033883166 9.6639259e-39 330 215
0.014908593 0.773 0.033883166 1.003235e-38 331 215
0.016263919 0.773 0.033883166 1.0124911e-38 332 215
0.017619247 0.773 0.033883166 1.0217465e-38 333 215
0.018974574 0.773 0.033883166 1.0767049e-38 334 215
0.0203299 0.773 0.033883166 1.0767049e-38 335 215
0.021685226 0.773 0.033883166 1.1041112e-38 336 215
0.02298094 0.77100003 0.033795502 1.0672331e-38 337 215
0.02433276 0.77100003 0.033795502 1.121939e-38 338 215
0.02568458 0.77100003 0.033795502 1.0850607e-38 339 215
0.027036399 0.77100003 0.033795502 1.0941005e-38 340 215
0.028388219 0.77100003 0.033795502 1.0387831e-38 341 215
0.029740039 0.77100003 0.033795502 1.0109452e-38 342 215
0.031091858 0.77100003 0.033795502 9.9250607e-39 343 215
0.032443684 0.77100003 0.033795502 9.2807871e-39 344 215
0.033795502 0.77100003 0.033795502 9.4648182e-39 345 215
0.03514732 0.77100003 0.033795502 9.1907579e-39 346 215
0.036499143 0.77100003 0.033795502 9.5591817e-39 347 215
0.037949149 0.773 0.033883166 9.5588286e-39 348 215
0.039457016 0.77600002 0.034014668 8.5450354e-39 349 215
0.0408176 0.77600002 0.034014668 6.6262107e-39 350 215
-0.018876385 0.76899999 0.032359518 8.8468372e-39 306 216
-0.017528072 0.76899999 0.032359518 8.0170751e-39 307 216
-0.016116638 0.76599997 0.032233275 9.3931741e-39 308 216
-0.014735013 0.764 0.032149121 9.1165872e-39 309 216
-0.013395466 0.764 0.032149121 9.2055402e-39 310 216
-0.01205592 0.764 0.032149121 8.4679738e-39 311 216
-0.010716373 0.764 0.032149121 9.1994249e-39 312 216
-0.0093768267 0.764 0.032149121 8.7384468e-39 313 216
-0.0080162399 0.76200002 0.032064959 8.918878e-39 314 216
-0.0066801999 0.76200002 0.032064959 8.734128e-39 315 216
-0.0053441599 0.76200002 0.032064959 9.0092701e-39 316 216
-0.0040081199 0.76200002 0.032064959 8.9170745e-39 317 216
-0.00267208 0.76200002 0.032064959 9.2854871e-39 318 216
-0.0013395466 0.764 0.032149121 9.3776827e-39 319 216
0 0.764 0.032149121 9.7435785e-39 320 216
0.0013395466 0.764 0.032149121 9.6513829e-39 321 216
0.0026790933 0.764 0.032149121 1.0109116e-38 322 216
0.0040291594 0.76599997 0.032233275 1.020167e-38 323 216
0.0053792265 0.76700002 0.03227536 9.8375468e-39 324 216
0.0067415666 0.76899999 0.032359518 1.0021938e-38 325 216
0.0080898795 0.76899999 0.032359518 9.2911946e-39 326 216
0.0094381925 0.76899999 0.032359518 9.4752257e-39 327 216
0.01081456 0.77100003 0.032443684 8.927077e-39 328 216
0.012197939 0.773 0.032527838 9.019274e-39 329 216
0.013553266 0.773 0.032527838 8.8373995e-39 330 216
0.014908593 0.773 0.032527838 9.1139864e-39 331 216
0.016263919 0.773 0.032527838 9.3895013e-39 332 216
0.017619247 0.773 0.032527838 9.5738925e-39 333 216
0.018974574 0.773 0.032527838 1.0215312e-38 334 216
0.0203299 0.773 0.032527838 1.0307507e-38 335 216
0.021685226 0.773 0.032527838 1.0490101e-38 336 216
0.02298094 0.77100003 0.032443684 1.0029481e-38 337 216
0.02433276 0.77100003 0.032443684 1.0760214e-38 338 216
0.02568458 0.77100003 0.032443684 1.0575462e-38 339 216
0.027036399 0.77100003 0.032443684 1.1123951e-38 340 216
0.028388219 0.77100003 0.032443684 1.0662973e-38 341 216
0.029740039 0.77100003 0.032443684 1.0293833e-38 342 216
0.031091858 0.77100003 0.032443684 9.925411e-39 343 216
0.032443684 0.77100003 0.032443684 9.0981937e-39 344 216
0.033795502 0.77100003 0.032443684 9.0059981e-39 345 216
0.03514732 0.77100003 0.032443684 8.6397491e-39 346 216
0.036499143 0.77100003 0.032443684 8.7319448e-39 347 216
0.037949149 0.773 0.032527838 8.9163346e-39 348 216
0.039355319 0.77399999 0.032569919 8.3631608e-39 349 216
0.040712398 0.77399999 0.032569919 6.9856354e-39 350 216
-0.020172099 0.76700002 0.030930554 1.1707776e-38 305 217
-0.018827293 0.76700002 0.030930554 8.4748107e-39 306 217
-0.017482487 0.76700002 0.030930554 7.8294413e-39 307 217
-0.016074561 0.764 0.030809574 8.7460026e-39 308 217
-0.014735013 0.764 0.030809574 8.4697758e-39 309 217
-0.013395466 0.764 0.030809574 9.0175546e-39 310 217
-0.01205592 0.764 0.030809574 8.1877939e-39 311 217
-0.01068832 0.76200002 0.030728921 9.0099946e-39 312 217
-0.0093522798 0.76200002 0.030728921 8.4568208e-39 313 217
-0.0080162399 0.76200002 0.030728921 8.6368975e-39 314 217
-0.0066801999 0.76200002 0.030728921 8.5447004e-39 315 217
-0.0053441599 0.76200002 0.030728921 9.0042381e-39 316 217
-0.0040081199 0.76200002 0.030728921 9.2804648e-39 317 217
-0.00267208 0.76200002 0.030728921 9.1904174e-39 318 217
-0.00133604 0.76200002 0.030728921 9.3751688e-39 319 217
0 0.764 0.030809574 9.5588314e-39 320 217
0.0013395466 0.764 0.030809574 9.3747988e-39 321 217
0.0026790933 0.764 0.030809574 9.649578e-39 322 217
0.0040291594 0.76599997 0.030890226 9.7417737e-39 323 217
0.0053792265 0.76700002 0.030930554 9.3772917e-39 324 217
0.006724033 0.76700002 0.030930554 9.6538786e-39 325 217
0.0080898795 0.76899999 0.031011207 8.9234882e-39 326 217
0.0094381925 0.76899999 0.031011207 9.199715e-39 327 217
0.01081456 0.77100003 0.031091858 8.4671722e-39 328 217
0.012197939 0.773 0.03117251 8.6515635e-39 329 217
0.013553266 0.773 0.03117251 8.4689701e-39 330 217
0.014908593 0.773 0.03117251 8.5611657e-39 331 217
0.016284959 0.77399999 0.031212838 8.6530152e-39 332 217
0.017619247 0.773 0.03117251 8.929242e-39 333 217
0.018974574 0.773 0.03117251 9.3869985e-39 334 217
0.0203299 0.773 0.03117251 9.5713898e-39 335 217
0.021685226 0.773 0.03117251 9.7539832e-39 336 217
0.02298094 0.77100003 0.031091858 9.5695919e-39 337 217
0.02433276 0.77100003 0.031091858 1.0116289e-38 338 217
0.02568458 0.77100003 0.031091858 9.7471463e-39 339 217
0.026966266 0.76899999 0.031011207 1.0570793e-38 340 217
0.028314579 0.76899999 0.031011207 1.0110174e-38 341 217
0.02966289 0.76899999 0.031011207 1.0108376e-38 342 217
0.031011207 0.76899999 0.031011207 1.0015821e-38 343 217
0.032359518 0.76899999 0.031011207 8.9137983e-39 344 217
0.033707831 0.76899999 0.031011207 8.8216026e-39 345 217
0.035056144 0.76899999 0.031011207 7.812508e-39 346 217
0.036404461 0.76899999 0.031011207 7.9047036e-39 347 217
0.037850961 0.77100003 0.031091858 7.7214026e-39 348 217
0.039355319 0.77399999 0.031212838 7.6292069e-39 349 217
0.040712398 0.77399999 0.031212838 6.3417177e-39 350 217
0.042069476 0.77399999 0.031212838 1.0582357e-38 351 217
-0.021516906 0.76700002 0.029585747 1.1799974e-38 304 218
-0.020172099 0.76700002 0.029585747 7.7430078e-39 305 218
-0.018802745 0.76599997 0.029547172 6.6262164e-39 306 218
-0.017459691 0.76599997 0.029547172 6.4414664e-39 307 218
-0.016074561 0.764 0.029470026 7.9108371e-39 308 218
-0.014735013 0.764 0.029470026 8.1874254e-39 309 218
-0.0133604 0.76200002 0.029392879 8.8281257e-39 310 218
-0.01202436 0.76200002 0.029392879 8.2749519e-39 311 218
-0.01068832 0.76200002 0.029392879 8.8216447e-39 312 218
-0.0093522798 0.76200002 0.029392879 8.452502e-39 313 218
-0.0080162399 0.76200002 0.029392879 9.0020703e-39 314 218
-0.0066714329 0.76099998 0.029354304 9.0020703e-39 315 218
-0.0053371461 0.76099998 0.029354304 9.1875307e-39 316 218
-0.0040028598 0.76099998 0.029354304 9.5563132e-39 317 218
-0.0026685731 0.76099998 0.029354304 9.2833193e-39 318 218
-0.0013342865 0.76099998 0.029354304 9.098928e-39 319 218
0 0.76200002 0.029392879 9.4651938e-39 320 218
0.00133604 0.76200002 0.029392879 9.7417793e-39 321 218
0.00267208 0.76200002 0.029392879 9.2829507e-39 322 218
0.0040186401 0.764 0.029470026 9.2829507e-39 323 218
0.0053722127 0.76599997 0.029547172 9.1007077e-39 324 218
0.006724033 0.76700002 0.029585747 9.3772945e-39 325 218
0.0080898795 0.76899999 0.02966289 8.5561463e-39 326 218
0.0094381925 0.76899999 0.02966289 8.7405389e-39 327 218
0.01081456 0.77100003 0.029740039 8.1916615e-39 328 218
0.012197939 0.773 0.029817186 8.2838571e-39 329 218
0.013553266 0.773 0.029817186 8.1923776e-39 330 218
0.014908593 0.773 0.029817186 8.1923776e-39 331 218
0.016284959 0.77399999 0.029855758 8.2835068e-39 332 218
0.017619247 0.773 0.029817186 8.3757025e-39 333 218
0.018974574 0.773 0.029817186 8.8334534e-39 334 218
0.0203299 0.773 0.029817186 9.0182034e-39 335 218
0.021685226 0.773 0.029817186 9.4763075e-39 336 218
0.02298094 0.77100003 0.029740039 9.2919162e-39 337 218
0.02433276 0.77100003 0.029740039 1.0022294e-38 338 218
0.025617953 0.76899999 0.02966289 9.4691216e-39 339 218
0.026896132 0.76700002 0.029585747 1.0198418e-38 340 218
0.02824094 0.76700002 0.029585747 1.0014385e-38 341 218
0.029585747 0.76700002 0.029585747 1.0012953e-38 342 218
0.030930554 0.76700002 0.029585747 1.0197346e-38 343 218
0.03227536 0.76700002 0.029585747 8.4549907e-39 344 218
0.033620168 0.76700002 0.029585747 8.2702407e-39 345 218
0.035056144 0.76899999 0.02966289 7.3536948e-39 346 218
0.036404461 0.76899999 0.02966289 7.1693036e-39 347 218
0.037850961 0.77100003 0.029740039 6.8952376e-39 348 218
0.039304473 0.773 0.029817186 6.3420653e-39 349 218
0.0406598 0.773 0.029817186 4.6861579e-39 350 218
0.042069476 0.77399999 0.029855758 6.7144617e-39 351 218
-0.022861714 0.76700002 0.02824094 1.5394149e-38 303 219
-0.021516906 0.76700002 0.02824094 9.8602605e-39 304 219
-0.020145798 0.76599997 0.028204117 5.5274246e-39 305 219
-0.018802745 0.76599997 0.028204117 5.8850458e-39 306 219
-0.017414106 0.764 0.028130481 6.0697958e-39 307 219
-0.01603248 0.76200002 0.028056841 8.0937808e-39 308 219
-0.01469644 0.76200002 0.028056841 8.0937808e-39 309 219
-0.0133604 0.76200002 0.028056841 8.9167116e-39 310 219
-0.01202436 0.76200002 0.028056841 8.3635378e-39 311 219
-0.010674292 0.76099998 0.028020019 9.2800837e-39 312 219
-0.0093400059 0.76099998 0.028020019 9.0034954e-39 313 219
-0.0080057196 0.76099998 0.028020019 9.5537797e-39 314 219
-0.0066714329 0.76099998 0.028020019 9.7378108e-39 315 219
-0.0053231199 0.759 0.027946379 1.019985e-38 316 219
-0.0039923396 0.759 0.027946379 1.0568631e-38 317 219
-0.00266156 0.759 0.027946379 1.0292767e-38 318 219
-0.00133078 0.759 0.027946379 1.0200571e-38 319 219
0 0.76099998 0.028020019 9.3733485e-39 320 219
0.0013342865 0.76099998 0.028020019 9.4655441e-39 321 219
0.0026685731 0.76099998 0.028020019 9.1914768e-39 322 219
0.0040081199 0.76200002 0.028056841 8.9148913e-39 323 219
0.0053722127 0.76599997 0.028204117 9.0996315e-39 324 219
0.006724033 0.76700002 0.02824094 9.4684154e-39 325 219
0.00806884 0.76700002 0.02824094 8.5543484e-39 326 219
0.0094381925 0.76899999 0.028314579 8.923491e-39 327 219
0.01081456 0.77100003 0.028388219 7.9161522e-39 328 219
0.01216638 0.77100003 0.028388219 8.0083493e-39 329 219
0.013553266 0.773 0.028461859 7.9161494e-39 330 219
0.014908593 0.773 0.028461859 8.0083465e-39 331 219
0.016284959 0.77399999 0.028498679 7.7310547e-39 332 219
0.017619247 0.773 0.028461859 7.7310547e-39 333 219
0.018974574 0.773 0.028461859 8.0058592e-39 334 219
0.0203299 0.773 0.028461859 8.0980562e-39 335 219
0.021685226 0.773 0.028461859 8.6479958e-39 336 219
0.02298094 0.77100003 0.028388219 8.4632444e-39 337 219
0.024269639 0.76899999 0.028314579 9.4698405e-39 338 219
0.025617953 0.76899999 0.028314579 9.0088623e-39 339 219
0.026896132 0.76700002 0.02824094 1.0015108e-38 340 219
0.02824094 0.76700002 0.02824094 9.4619344e-39 341 219
0.029585747 0.76700002 0.02824094 9.2786347e-39 342 219
0.030930554 0.76700002 0.02824094 9.3708304e-39 343 219
0.03227536 0.76700002 0.02824094 8.0876501e-39 344 219
0.033620168 0.76700002 0.02824094 8.1798458e-39 345 219
0.034964975 0.76700002 0.02824094 6.8041112e-39 346 219
0.036309779 0.76700002 0.02824094 6.6200801e-39 347 219
0.03775277 0.76899999 0.028314579 6.2531052e-39 348 219
0.03920278 0.77100003 0.028388219 5.8846828e-39 349 219
0.040554602 0.77100003 0.028388219 4.8705463e-39 350 219
0.041797712 0.76899999 0.028314579 4.8705463e-39 351 219
0.043146025 0.76899999 0.028314579 7.0918762e-39 352 219
-0.024206521 0.76700002 0.026896132 1.5671102e-38 302 220
-0.022861714 0.76700002 0.026896132 1.1891441e-38 303 220
-0.021516906 0.76700002 0.026896132 6.7256119e-39 304 220
-0.020145798 0.76599997 0.026861066 3.8675473e-39 305 220
-0.018753653 0.764 0.026790932 6.0672762e-39 306 220
-0.017414106 0.764 0.026790932 8.1877757e-39 307 220
-0.01603248 0.76200002 0.0267208 8.649809e-39 308 220
-0.01469644 0.76200002 0.0267208 8.3728634e-39 309 220
-0.013342866 0.76099998 0.026685731 9.1032258e-39 310 220
-0.012008579 0.76099998 0.026685731 8.550052e-39 311 220
-0.01064624 0.759 0.026615599 9.5573698e-39 312 220
-0.00931546 0.759 0.026615599 9.7417611e-39 313 220
-0.0080057196 0.76099998 0.026685731 1.0477528e-38 314 220
-0.0066538998 0.759 0.026615599 1.1030702e-38 315 220
-0.0053090933 0.75700003 0.026545467 1.1768617e-38 316 220
-0.0039818203 0.75700003 0.026545467 1.1676422e-38 317 220
-0.00266156 0.759 0.026615599 1.0389999e-38 318 220
-0.00133078 0.759 0.026615599 9.3762057e-39 319 220
0 0.759 0.026615599 9.3754995e-39 320 220
0.0013342865 0.76099998 0.026685731 9.2833038e-39 321 220
0.0026685731 0.76099998 0.026685731 9.1907523e-39 322 220
0.0040081199 0.76200002 0.0267208 9.2833067e-39 323 220
0.0053722127 0.76599997 0.026861066 8.9163164e-39 324 220
0.006724033 0.76700002 0.026896132 9.008512e-39 325 220
0.00806884 0.76700002 0.026896132 8.5543512e-39 326 220
0.0094381925 0.76899999 0.026966266 8.6465468e-39 327 220
0.010786506 0.76899999 0.026966266 8.0069129e-39 328 220
0.01216638 0.77100003 0.027036399 8.0991086e-39 329 220
0.013553266 0.773 0.027106533 7.9168725e-39 330 220
0.014908593 0.773 0.027106533 7.54809e-39 331 220
0.016263919 0.773 0.027106533 7.5470138e-39 332 220
0.017619247 0.773 0.027106533 7.1782355e-39 333 220
0.018925481 0.77100003 0.027036399 8.095873e-39 334 220
0.020277301 0.77100003 0.027036399 8.2799041e-39 335 220
0.021629119 0.77100003 0.027036399 8.8287717e-39 336 220
0.022921326 0.76899999 0.026966266 8.644379e-39 337 220
0.024269639 0.76899999 0.026966266 9.3765589e-39 338 220
0.025551327 0.76700002 0.026896132 9.0996132e-39 339 220
0.026861066 0.76599997 0.026861066 9.4648042e-39 340 220
0.028204117 0.76599997 0.026861066 9.2800542e-39 341 220
0.029547172 0.76599997 0.026861066 8.9112787e-39 342 220
0.030890226 0.76599997 0.026861066 9.1875055e-39 343 220
0.032233275 0.76599997 0.026861066 8.0869285e-39 344 220
0.033576332 0.76599997 0.026861066 8.3631552e-39 345 220
0.034964975 0.76700002 0.026896132 6.4371335e-39 346 220
0.036309779 0.76700002 0.026896132 6.3449379e-39 347 220
0.037654586 0.76700002 0.026896132 5.7942823e-39 348 220
0.039101087 0.76899999 0.026966266 5.7020866e-39 349 220
0.0404494 0.76899999 0.026966266 5.6084659e-39 350 220
0.041689005 0.76700002 0.026896132 3.5815956e-39 351 220
0.043033812 0.76700002 0.026896132 3.680282e-39 352 220
0.04437862 0.76700002 0.026896132 1.2899845e-38 353 220
-0.024206521 0.76700002 0.025551327 1.3829716e-38 302 221
-0.022861714 0.76700002 0.025551327 8.4820106e-39 303 221
-0.021488851 0.76599997 0.025518013 5.7057146e-39 304 221
-0.020093199 0.764 0.025451386 4.3227802e-39 305 221
-0.018753653 0.764 0.025451386 7.5413273e-39 306 221
-0.01736852 0.76200002 0.02538476 8.9242618e-39 307 221
-0.01603248 0.76200002 0.02538476 8.9274721e-39 308 221
-0.014677152 0.76099998 0.025351444 8.0973527e-39 309 221
-0.013342866 0.76099998 0.025351444 9.5613173e-39 310 221
-0.012008579 0.76099998 0.025351444 9.5613173e-39 311 221
-0.01064624 0.759 0.025284819 1.0295273e-38 312 221
-0.00931546 0.759 0.025284819 1.0755891e-38 313 221
-0.0079846792 0.759 0.025284819 1.1583856e-38 314 221
-0.0066363667 0.75700003 0.025218192 1.2321421e-38 315 221
-0.0053090933 0.75700003 0.025218192 1.2231726e-38 316 221
-0.0039818203 0.75700003 0.025218192 1.1586356e-38 317 221
-0.0026545466 0.75700003 0.025218192 1.1583112e-38 318 221
-0.0013272733 0.75700003 0.025218192 1.0845557e-38 319 221
0 0.75700003 0.025218192 1.0476076e-38 320 221
0.00133078 0.759 0.025284819 1.019985e-38 321 221
0.00266156 0.759 0.025284819 9.8343126e-39 322 221
0.0040028598 0.76099998 0.025351444 9.7417583e-39 323 221
0.0053581866 0.764 0.025451386 9.4669692e-39 324 221
0.0067152665 0.76599997 0.025518013 9.5591649e-39 325 221
0.00806884 0.76700002 0.025551327 8.6440287e-39 326 221
0.0094381925 0.76899999 0.025617953 9.0124525e-39 327 221
0.010786506 0.76899999 0.025617953 7.1793271e-39 328 221
0.012134819 0.76899999 0.025617953 7.0871314e-39 329 221
0.013518199 0.77100003 0.02568458 6.8112676e-39 330 221
0.014908593 0.773 0.025751207 6.7190706e-39 331 221
0.016263919 0.773 0.025751207 6.9931365e-39 332 221
0.01757366 0.77100003 0.02568458 6.9931365e-39 333 221
0.018925481 0.77100003 0.02568458 7.453393e-39 334 221
0.020277301 0.77100003 0.02568458 7.453393e-39 335 221
0.021629119 0.77100003 0.02568458 8.6447462e-39 336 221
0.022921326 0.76899999 0.025617953 8.4607136e-39 337 221
0.024206521 0.76700002 0.025551327 9.3765561e-39 338 221
0.025551327 0.76700002 0.025551327 9.3765561e-39 339 221
0.026790932 0.764 0.025451386 1.0015458e-38 340 221
0.028130481 0.764 0.025451386 9.5544803e-39 341 221
0.029470026 0.764 0.025451386 9.0942407e-39 342 221
0.030809574 0.764 0.025451386 9.1864363e-39 343 221
0.032149121 0.764 0.025451386 7.7203096e-39 344 221
0.033576332 0.76599997 0.025518013 7.7203096e-39 345 221
0.034919381 0.76599997 0.025518013 6.528253e-39 346 221
0.036262438 0.76599997 0.025518013 6.4360573e-39 347 221
0.037605491 0.76599997 0.025518013 5.9775973e-39 348 221
0.038999394 0.76700002 0.025551327 5.8854017e-39 349 221
0.040291596 0.76599997 0.025518013 5.7928501e-39 350 221
0.041525945 0.764 0.025451386 4.1336875e-39 351 221
0.042865492 0.764 0.025451386 3.581604e-39 352 221
0.04420504 0.764 0.025451386 1.2429516e-38 353 221
-0.024206521 0.76700002 0.024206521 1.1617741e-38 302 222
-0.022861714 0.76700002 0.024206521 6.1781988e-39 303 222
-0.021488851 0.76599997 0.024174958 5.4258879e-39 304 222
-0.020093199 0.764 0.024111839 4.5961272e-39 305 222
-0.01870456 0.76200002 0.02404872 7.4469919e-39 306 222
-0.01736852 0.76200002 0.02404872 9.3831001e-39 307 222
-0.01603248 0.76200002 0.02404872 9.0146609e-39 308 222
-0.014677152 0.76099998 0.024017159 8.4614885e-39 309 222
-0.013342866 0.76099998 0.024017159 9.8368406e-39 310 222
-0.012008579 0.76099998 0.024017159 1.0021592e-38 311 222
-0.01064624 0.759 0.023954039 1.1216866e-38 312 222
-0.00931546 0.759 0.023954039 1.1493813e-38 313 222
-0.0079846792 0.759 0.023954039 1.223245e-38 314 222
-0.0066363667 0.75700003 0.02389092 1.2970015e-38 315 222
-0.0052950666 0.755 0.023827799 1.2510112e-38 316 222
-0.0039712996 0.755 0.023827799 1.1864742e-38 317 222
-0.0026475333 0.755 0.023827799 1.158349e-38 318 222
-0.0013237667 0.755 0.023827799 1.0568978e-38 319 222
0 0.75700003 0.02389092 1.0568275e-38 320 222
0.0013272733 0.75700003 0.02389092 1.0476079e-38 321 222
0.0026545466 0.75700003 0.02389092 1.0109821e-38 322 222
0.0039923396 0.759 0.023954039 1.0109821e-38 323 222
0.0053441599 0.76200002 0.02404872 9.4669692e-39 324 222
0.006697733 0.764 0.024111839 9.4669692e-39 325 222
0.0080583189 0.76599997 0.024174958 8.6429567e-39 326 222
0.0094136465 0.76700002 0.024206521 8.6429567e-39 327 222
0.010758453 0.76700002 0.024206521 7.2675724e-39 328 222
0.01210326 0.76700002 0.024206521 7.0831812e-39 329 222
0.013483133 0.76899999 0.024269639 6.5314563e-39 330 222
0.014831445 0.76899999 0.024269639 6.4392593e-39 331 222
0.016221842 0.77100003 0.02433276 6.4396124e-39 332 222
0.017528072 0.76899999 0.024269639 6.9002319e-39 333 222
0.018876385 0.76899999 0.024269639 7.544867e-39 334 222
0.0202247 0.76899999 0.024269639 7.7292568e-39 335 222
0.021573013 0.76899999 0.024269639 8.7365788e-39 336 222
0.022861714 0.76700002 0.024206521 8.7365788e-39 337 222
0.024174958 0.76599997 0.024174958 9.744261e-39 338 222
0.025451386 0.764 0.024111839 9.744261e-39 339 222
0.026790932 0.764 0.024111839 1.0015105e-38 340 222
0.028056841 0.76200002 0.02404872 9.7385171e-39 341 222
0.029392879 0.76200002 0.02404872 9.0031212e-39 342 222
0.030728921 0.76200002 0.02404872 9.1875111e-39 343 222
0.032064959 0.76200002 0.02404872 7.8128555e-39 344 222
0.033488665 0.764 0.024111839 7.7206599e-39 345 222
0.034828212 0.764 0.024111839 6.7101247e-39 346 222
0.036262438 0.76599997 0.024174958 6.6179291e-39 347 222
0.037605491 0.76599997 0.024174958 6.0679979e-39 348 222
0.038999394 0.76700002 0.024206521 6.0679979e-39 349 222
0.040291596 0.76599997 0.024174958 5.7924844e-39 350 222
0.041525945 0.764 0.024111839 5.147115e-39 351 222
0.042865492 0.764 0.024111839 3.6734381e-39 352 222
0.04420504 0.764 0.024111839 9.7579909e-39 353 222
-0.022861714 0.76700002 0.022861714 4.7938224e-39 303 223
-0.021488851 0.76599997 0.022831906 5.607038e-39 304 223
-0.020093199 0.764 0.022772292 4.7776374e-39 305 223
-0.01870456 0.76200002 0.02271268 6.8923832e-39 306 223
-0.01736852 0.76200002 0.02271268 8.183122e-39 307 223
-0.016011439 0.76099998 0.022682872 8.5511716e-39 308 223
-0.014677152 0.76099998 0.022682872 8.4586173e-39 309 223
-0.013342866 0.76099998 0.022682872 9.9286761e-39 310 223
-0.012008579 0.76099998 0.022682872 1.0574045e-38 311 223
-0.01064624 0.759 0.02262326 1.2044829e-38 312 223
-0.0092909131 0.75700003 0.022563647 1.2321774e-38 313 223
-0.0079636406 0.75700003 0.022563647 1.2232444e-38 314 223
-0.0066188332 0.755 0.022504034 1.2417194e-38 315 223
-0.0052950666 0.755 0.022504034 1.2876015e-38 316 223
-0.0039712996 0.755 0.022504034 1.2507592e-38 317 223
-0.0026475333 0.755 0.022504034 1.2498254e-38 318 223
-0.0013237667 0.755 0.022504034 1.1484102e-38 319 223
0 0.755 0.022504034 1.1118929e-38 320 223
0.0013272733 0.75700003 0.022563647 1.0842701e-38 321 223
0.0026545466 0.75700003 0.022563647 1.0476082e-38 322 223
0.0039818203 0.75700003 0.022563647 1.0476082e-38 323 223
0.0053371461 0.76099998 0.022682872 9.7417611e-39 324 223
0.0066801999 0.76200002 0.02271268 9.5573698e-39 325 223
0.0080162399 0.76200002 0.02271268 8.9166695e-39 326 223
0.0093768267 0.764 0.022772292 8.9166695e-39 327 223
0.010744425 0.76599997 0.022831906 7.0813931e-39 328 223
0.012087479 0.76599997 0.022831906 6.6200548e-39 329 223
0.013448066 0.76700002 0.022861714 5.4262018e-39 330 223
0.014792874 0.76700002 0.022861714 5.4262018e-39 331 223
0.01613768 0.76700002 0.022861714 5.795336e-39 332 223
0.017482487 0.76700002 0.022861714 6.4407055e-39 333 223
0.018802745 0.76599997 0.022831906 7.6356319e-39 334 223
0.020145798 0.76599997 0.022831906 7.8203833e-39 335 223
0.021488851 0.76599997 0.022831906 9.0117308e-39 336 223
0.022772292 0.764 0.022772292 9.1042852e-39 337 223
0.024111839 0.764 0.022772292 1.0112323e-38 338 223
0.025451386 0.764 0.022772292 9.927932e-39 339 223
0.0267208 0.76200002 0.02271268 1.0289894e-38 340 223
0.028056841 0.76200002 0.02271268 1.0013306e-38 341 223
0.029392879 0.76200002 0.02271268 9.0963889e-39 342 223
0.030728921 0.76200002 0.02271268 9.1889432e-39 343 223
0.032064959 0.76200002 0.02271268 8.2713127e-39 344 223
0.033488665 0.764 0.022772292 7.995086e-39 345 223
0.034828212 0.764 0.022772292 6.618285e-39 346 223
0.036167759 0.764 0.022772292 6.5257306e-39 347 223
0.037507307 0.764 0.022772292 5.9757995e-39 348 223
0.038948543 0.76599997 0.022831906 5.9757995e-39 349 223
0.040291596 0.76599997 0.022831906 5.7002902e-39 350 223
0.041525945 0.764 0.022772292 5.2393134e-39 351 223
0.042865492 0.764 0.022772292 4.2255328e-39 352 223
0.04420504 0.764 0.022772292 7.6367725e-39 353 223
-0.028388219 0.77100003 0.021629119 1.7330255e-38 299 224
-0.027036399 0.77100003 0.021629119 1.6688135e-38 300 224
-0.025617953 0.76899999 0.021573013 1.2723723e-38 301 224
-0.024206521 0.76700002 0.021516906 9.2166959e-39 302 224
-0.022861714 0.76700002 0.021516906 4.2377718e-39 303 224
-0.021488851 0.76599997 0.021488851 5.9722121e-39 304 224
-0.020093199 0.764 0.021432746 5.9722121e-39 305 224
-0.01870456 0.76200002 0.02137664 6.7980254e-39 306 224
-0.01736852 0.76200002 0.02137664 7.0746136e-39 307 224
-0.016011439 0.76099998 0.021348584 8.1802381e-39 308 224
-0.014677152 0.76099998 0.021348584 8.5490207e-39 309 224
-0.013342866 0.76099998 0.021348584 9.9290418e-39 310 224
-0.01197702 0.759 0.02129248 1.0666608e-38 311 224
-0.010618187 0.75700003 0.021236373 1.2414693e-38 312 224
-0.0092909131 0.75700003 0.021236373 1.269128e-38 313 224
-0.0079636406 0.75700003 0.021236373 1.250939e-38 314 224
-0.0066188332 0.755 0.021180267 1.2785618e-38 315 224
-0.0052950666 0.755 0.021180267 1.3060046e-38 316 224
-0.0039712996 0.755 0.021180267 1.2414676e-38 317 224
-0.0026475333 0.755 0.021180267 1.2774465e-38 318 224
-0.0013237667 0.755 0.021180267 1.2129101e-38 319 224
0 0.755 0.021180267 1.139406e-38 320 224
0.0013237667 0.755 0.021180267 1.1301864e-38 321 224
0.0026475333 0.755 0.021180267 1.0750152e-38 322 224
0.0039818203 0.75700003 0.021236373 1.0750152e-38 323 224
0.0053231199 0.759 0.02129248 1.0108023e-38 324 224
0.0066714329 0.76099998 0.021348584 1.0015827e-38 325 224
0.0080162399 0.76200002 0.02137664 9.4655217e-39 326 224
0.0093522798 0.76200002 0.02137664 9.4655217e-39 327 224
0.010716373 0.764 0.021432746 7.813196e-39 328 224
0.012087479 0.76599997 0.021488851 7.4440562e-39 329 224
0.013430533 0.76599997 0.021488851 6.1580075e-39 330 224
0.014773586 0.76599997 0.021488851 6.3420386e-39 331 224
0.016116638 0.76599997 0.021488851 6.7122505e-39 332 224
0.017459691 0.76599997 0.021488851 7.0813931e-39 333 224
0.018802745 0.76599997 0.021488851 8.3681621e-39 334 224
0.020145798 0.76599997 0.021488851 8.644749e-39 335 224
0.021432746 0.764 0.021432746 9.5616704e-39 336 224
0.02271268 0.76200002 0.02137664 9.8378971e-39 337 224
0.02404872 0.76200002 0.02137664 1.0570427e-38 338 224
0.02538476 0.76200002 0.02137664 1.0293839e-38 339 224
0.0267208 0.76200002 0.02137664 1.0472842e-38 340 224
0.028056841 0.76200002 0.02137664 1.0380647e-38 341 224
0.029392879 0.76200002 0.02137664 9.3718897e-39 342 224
0.030728921 0.76200002 0.02137664 9.4640854e-39 343 224
0.032064959 0.76200002 0.02137664 8.5464577e-39 344 224
0.033401001 0.76200002 0.02137664 8.2702309e-39 345 224
0.034737039 0.76200002 0.02137664 6.8930712e-39 346 224
0.036167759 0.764 0.021432746 6.8930712e-39 347 224
0.037507307 0.764 0.021432746 5.9757967e-39 348 224
0.038846854 0.764 0.021432746 5.9757967e-39 349 224
0.040186398 0.764 0.021432746 5.7917641e-39 350 224
0.041525945 0.764 0.021432746 5.6995685e-39 351 224
0.042865492 0.764 0.021432746 4.7787038e-39 352 224
0.044320758 0.76599997 0.021488851 5.977247e-39 353 224
0.045663811 0.76599997 0.021488851 9.3981963e-39 354 224
-0.029817186 0.773 0.0203299 1.6869277e-38 298 225
-0.028388219 0.77100003 0.020277301 1.742245e-38 299 225
-0.026966266 0.76899999 0.0202247 1.6410472e-38 300 225
-0.025551327 0.76700002 0.020172099 1.1063125e-38 301 225
-0.024206521 0.76700002 0.020172099 7.924155e-39 302 225
-0.022861714 0.76700002 0.020172099 4.5129167e-39 303 225
-0.021432746 0.764 0.020093199 6.0647581e-39 304 225
-0.020093199 0.764 0.020093199 5.9725625e-39 305 225
-0.01870456 0.76200002 0.0200406 6.9806033e-39 306 225
-0.017345725 0.76099998 0.020014299 7.4412213e-39 307 225
-0.016011439 0.76099998 0.020014299 8.3620916e-39 308 225
-0.014638579 0.759 0.0199617 8.9149067e-39 309 225
-0.0133078 0.759 0.0199617 1.0019071e-38 310 225
-0.01197702 0.759 0.0199617 1.1033222e-38 311 225
-0.010618187 0.75700003 0.019909101 1.2690198e-38 312 225
-0.0092909131 0.75700003 0.019909101 1.2967144e-38 313 225
-0.0079425992 0.755 0.0198565 1.2694502e-38 314 225
-0.0066188332 0.755 0.0198565 1.2694502e-38 315 225
-0.0052950666 0.755 0.0198565 1.3058248e-38 316 225
-0.0039712996 0.755 0.0198565 1.2320324e-38 317 225
-0.0026475333 0.755 0.0198565 1.2683351e-38 318 225
-0.0013220133 0.75400001 0.019830201 1.2222373e-38 319 225
0 0.75400001 0.019830201 1.1396225e-38 320 225
0.0013220133 0.75400001 0.019830201 1.0750856e-38 321 225
0.0026440267 0.75400001 0.019830201 1.0750874e-38 322 225
0.0039712996 0.755 0.0198565 1.0750874e-38 323 225
0.0052950666 0.755 0.0198565 1.047501e-38 324 225
0.0066363667 0.75700003 0.019909101 1.0382814e-38 325 225
0.0079636406 0.75700003 0.019909101 9.5566481e-39 326 225
0.00931546 0.759 0.0199617 9.6488438e-39 327 225
0.010674292 0.76099998 0.020014299 8.1787486e-39 328 225
0.01202436 0.76200002 0.0200406 7.9025218e-39 329 225
0.0133604 0.76200002 0.0200406 6.7101009e-39 330 225
0.014677152 0.76099998 0.020014299 6.8944935e-39 331 225
0.016011439 0.76099998 0.020014299 8.5489758e-39 332 225
0.017345725 0.76099998 0.020014299 8.6411714e-39 333 225
0.018680012 0.76099998 0.020014299 9.1017796e-39 334 225
0.020014299 0.76099998 0.020014299 9.1939767e-39 335 225
0.021348584 0.76099998 0.020014299 1.0295282e-38 336 225
0.022682872 0.76099998 0.020014299 1.0387837e-38 337 225
0.024017159 0.76099998 0.020014299 1.0753024e-38 338 225
0.025351444 0.76099998 0.020014299 1.0383881e-38 339 225
0.026685731 0.76099998 0.020014299 1.0563962e-38 340 225
0.028020019 0.76099998 0.020014299 1.0563962e-38 341 225
0.029354304 0.76099998 0.020014299 9.3715366e-39 342 225
0.030688593 0.76099998 0.020014299 9.3715366e-39 343 225
0.032022879 0.76099998 0.020014299 8.4531901e-39 344 225
0.033357166 0.76099998 0.020014299 8.2687988e-39 345 225
0.034737039 0.76200002 0.0200406 6.8930712e-39 346 225
0.036073081 0.76200002 0.0200406 6.8930712e-39 347 225
0.037409119 0.76200002 0.0200406 6.0676294e-39 348 225
0.038745161 0.76200002 0.0200406 5.9754323e-39 349 225
0.040186398 0.764 0.020093199 5.9757967e-39 350 225
0.041525945 0.764 0.020093199 5.7917641e-39 351 225
0.042977702 0.76599997 0.020145798 5.2389603e-39 352 225
0.044320758 0.76599997 0.020145798 5.1467647e-39 353 225
0.045663811 0.76599997 0.020145798 7.7375932e-39 354 225
-0.028461859 0.773 0.018974574 1.7512851e-38 299 226
-0.026966266 0.76899999 0.018876385 1.5489239e-38 300 226
-0.025551327 0.76700002 0.018827293 8.7589576e-39 301 226
-0.024174958 0.76599997 0.018802745 7.0900784e-39 302 226
-0.022831906 0.76599997 0.018802745 4.9699376e-39 303 226
-0.021432746 0.764 0.018753653 6.8015973e-39 304 226
-0.020093199 0.764 0.018753653 6.5250104e-39 305 226
-0.01870456 0.76200002 0.01870456 6.7065276e-39 306 226
-0.017345725 0.76099998 0.018680012 7.0756702e-39 307 226
-0.016011439 0.76099998 0.018680012 7.9036344e-39 308 226
-0.014638579 0.759 0.01863092 8.4564495e-39 309 226
-0.0133078 0.759 0.01863092 9.8361245e-39 310 226
-0.01194546 0.75700003 0.018581826 1.057369e-38 311 226
-0.010618187 0.75700003 0.018581826 1.2505089e-38 312 226
-0.0092663663 0.755 0.018532733 1.3150459e-38 313 226
-0.0079425992 0.755 0.018532733 1.2785254e-38 314 226
-0.0066188332 0.755 0.018532733 1.2600504e-38 315 226
-0.0052950666 0.755 0.018532733 1.3053573e-38 316 226
-0.0039712996 0.755 0.018532733 1.2500758e-38 317 226
-0.0026440267 0.75400001 0.018508185 1.2867017e-38 318 226
-0.0013220133 0.75400001 0.018508185 1.2590431e-38 319 226
0 0.75400001 0.018508185 1.2223089e-38 320 226
0.0013220133 0.75400001 0.018508185 1.1853954e-38 321 226
0.0026440267 0.75400001 0.018508185 1.1116042e-38 322 226
0.00396604 0.75400001 0.018508185 1.1392628e-38 323 226
0.0052950666 0.755 0.018532733 1.1116061e-38 324 226
0.0066188332 0.755 0.018532733 1.1116061e-38 325 226
0.0079425992 0.755 0.018532733 1.0749073e-38 326 226
0.0092909131 0.75700003 0.018581826 1.0380291e-38 327 226
0.010618187 0.75700003 0.018581826 9.645597e-39 328 226
0.01197702 0.759 0.01863092 9.5534027e-39 329 226
0.0133078 0.759 0.01863092 8.9123479e-39 330 226
0.014600007 0.75700003 0.018581826 9.0970979e-39 331 226
0.015927281 0.75700003 0.018581826 9.5573642e-39 332 226
0.017254554 0.75700003 0.018581826 9.6499186e-39 333 226
0.018532733 0.755 0.018532733 1.0017269e-38 334 226
0.0198565 0.755 0.018532733 1.0109825e-38 335 226
0.021180267 0.755 0.018532733 1.0567922e-38 336 226
0.022563647 0.75700003 0.018581826 1.0660478e-38 337 226
0.02389092 0.75700003 0.018581826 1.1118215e-38 338 226
0.025218192 0.75700003 0.018581826 1.0749073e-38 339 226
0.026615599 0.759 0.01863092 1.0931669e-38 340 226
0.027946379 0.759 0.01863092 1.0562887e-38 341 226
0.029277159 0.759 0.01863092 9.7370891e-39 342 226
0.030688593 0.76099998 0.018680012 9.6448935e-39 343 226
0.032022879 0.76099998 0.018680012 8.4524712e-39 344 226
0.033357166 0.76099998 0.018680012 8.4524712e-39 345 226
0.034737039 0.76200002 0.01870456 7.1685721e-39 346 226
0.036073081 0.76200002 0.01870456 7.0760163e-39 347 226
0.037409119 0.76200002 0.01870456 6.1580257e-39 348 226
0.038745161 0.76200002 0.01870456 6.2502213e-39 349 226
0.040081199 0.76200002 0.01870456 6.1583943e-39 350 226
0.041525945 0.764 0.018753653 6.1583943e-39 351 226
0.042865492 0.764 0.018753653 5.3311559e-39 352 226
0.044320758 0.76599997 0.018802745 4.7779822e-39 353 226
0.045663811 0.76599997 0.018802745 7.6399955e-39 354 226
-0.029855758 0.77399999 0.01764204 1.6684532e-38 298 227
-0.028461859 0.773 0.017619247 1.6961478e-38 299 227
-0.026966266 0.76899999 0.017528072 1.4566562e-38 300 227
-0.025551327 0.76700002 0.017482487 6.913966e-39 301 227
-0.024174958 0.76599997 0.017459691 6.4439887e-39 302 227
-0.022831906 0.76599997 0.017459691 5.1532499e-39 303 227
-0.021516906 0.76700002 0.017482487 6.6197269e-39 304 227
-0.020093199 0.764 0.017414106 5.9743575e-39 305 227
-0.01870456 0.76200002 0.01736852 6.7987232e-39 306 227
-0.017345725 0.76099998 0.017345725 7.0756702e-39 307 227
-0.016011439 0.76099998 0.017345725 8.545757e-39 308 227
-0.014638579 0.759 0.017300138 8.9145409e-39 309 227
-0.013272733 0.75700003 0.017254554 1.0293863e-38 310 227
-0.01194546 0.75700003 0.017254554 1.1215459e-38 311 227
-0.010590133 0.755 0.017208965 1.2046276e-38 312 227
-0.0092663663 0.755 0.017208965 1.2231028e-38 313 227
-0.0079425992 0.755 0.017208965 1.2691633e-38 314 227
-0.0066188332 0.755 0.017208965 1.2414687e-38 315 227
-0.0052950666 0.755 0.017208965 1.3144702e-38 316 227
-0.0039712996 0.755 0.017208965 1.277556e-38 317 227
-0.0026440267 0.75400001 0.017186172 1.2774841e-38 318 227
-0.0013220133 0.75400001 0.017186172 1.342021e-38 319 227
0 0.75400001 0.017186172 1.2594765e-38 320 227
0.0013220133 0.75400001 0.017186172 1.1211831e-38 321 227
0.0026440267 0.75400001 0.017186172 1.1940414e-38 322 227
0.00396604 0.75400001 0.017186172 1.2124805e-38 323 227
0.0052880533 0.75400001 0.017186172 1.1209328e-38 324 227
0.0066188332 0.755 0.017208965 1.1301524e-38 325 227
0.0079425992 0.755 0.017208965 1.0750518e-38 326 227
0.0092663663 0.755 0.017208965 1.02899e-38 327 227
0.010590133 0.755 0.017208965 1.0012953e-38 328 227
0.011913899 0.755 0.017208965 1.0197346e-38 329 227
0.013272733 0.75700003 0.017254554 9.4644483e-39 330 227
0.014561433 0.755 0.017208965 9.5566453e-39 331 227
0.015885198 0.755 0.017208965 9.8332308e-39 332 227
0.017208965 0.755 0.017208965 9.8332308e-39 333 227
0.018508185 0.75400001 0.017186172 1.0383533e-38 334 227
0.019830201 0.75400001 0.017186172 1.0383533e-38 335 227
0.021152213 0.75400001 0.017186172 1.0841998e-38 336 227
0.022504034 0.755 0.017208965 1.0841998e-38 337 227
0.023827799 0.755 0.017208965 1.1025663e-38 338 227
0.025151566 0.755 0.017208965 1.0933467e-38 339 227
0.026545467 0.75700003 0.017254554 1.0655803e-38 340 227
0.027946379 0.759 0.017300138 1.0563606e-38 341 227
0.029277159 0.759 0.017300138 9.4615812e-39 342 227
0.030688593 0.76099998 0.017345725 9.4615812e-39 343 227
0.032022879 0.76099998 0.017345725 8.2698778e-39 344 227
0.033357166 0.76099998 0.017345725 8.1776822e-39 345 227
0.034691449 0.76099998 0.017345725 7.0767422e-39 346 227
0.036025736 0.76099998 0.017345725 6.6157641e-39 347 227
0.037409119 0.76200002 0.01736852 6.1573097e-39 348 227
0.038745161 0.76200002 0.01736852 6.3413408e-39 349 227
0.040081199 0.76200002 0.01736852 5.9750764e-39 350 227
0.041417241 0.76200002 0.01736852 5.8828808e-39 351 227
0.042865492 0.764 0.017414106 6.1580285e-39 352 227
0.04420504 0.764 0.017414106 5.6048547e-39 353 227
0.045544583 0.764 0.017414106 7.545279e-39 354 227
-0.029855758 0.77399999 0.016284959 1.686856e-38 298 228
-0.028461859 0.773 0.016263919 1.6776365e-38 299 228
-0.026966266 0.76899999 0.016179759 1.4287451e-38 300 228
-0.025551327 0.76700002 0.01613768 6.7274111e-39 301 228
-0.024206521 0.76700002 0.01613768 6.8088097e-39 302 228
-0.022861714 0.76700002 0.01613768 6.1634403e-39 303 228
-0.021516906 0.76700002 0.01613768 7.0785401e-39 304 228
-0.020093199 0.764 0.016074561 6.7093974e-39 305 228
-0.01870456 0.76200002 0.01603248 6.8902e-39 306 228
-0.017345725 0.76099998 0.016011439 7.1667855e-39 307 228
-0.016011439 0.76099998 0.016011439 7.9936763e-39 308 228
-0.014638579 0.759 0.015969358 8.54685e-39 309 228
-0.013272733 0.75700003 0.015927281 9.653178e-39 310 228
-0.01194546 0.75700003 0.015927281 1.0390743e-38 311 228
-0.010590133 0.755 0.015885198 1.1586024e-38 312 228
-0.0092663663 0.755 0.015885198 1.2139198e-38 313 228
-0.0079425992 0.755 0.015885198 1.2872794e-38 314 228
-0.0066188332 0.755 0.015885198 1.2596566e-38 315 228
-0.0052950666 0.755 0.015885198 1.3143267e-38 316 228
-0.0039712996 0.755 0.015885198 1.2774844e-38 317 228
