# .PCD v.7 - Point Cloud Data file format
FIELDS x y z rgb imX imY
SIZE 4 4 4 4 4 4
TYPE F F F F F F
COUNT 1 1 1 1 1 1
WIDTH 845
HEIGHT 1
VIEWPOINT 0 0 0 1 0 0 0
POINTS 845
DATA ascii
-0.025493465 0.727 0.0063733663 1.014213e-38 300 235
-0.024218792 0.727 0.0063733663 9.0354226e-39 301 235
-0.023228159 0.736 0.0064522666 9.0354043e-39 302 235
-0.021937706 0.736 0.0064522666 9.0354043e-39 303 235
-0.020647252 0.736 0.0064522666 8.9432115e-39 304 235
-0.019409399 0.73799998 0.0064697997 9.1276028e-39 305 235
-0.018115439 0.73799998 0.0064697997 8.9425025e-39 306 235
-0.016821479 0.73799998 0.0064697997 9.0350568e-39 307 235
-0.01554856 0.73900002 0.0064785667 9.1276028e-39 308 235
-0.01429142 0.741 0.0064960998 9.2197984e-39 309 235
-0.0129922 0.741 0.0064960998 9.4970817e-39 310 235
-0.01169298 0.741 0.0064960998 9.5892788e-39 311 235
-0.010393759 0.741 0.0064960998 9.6814702e-39 312 235
-0.0090699932 0.73900002 0.0064785667 9.8654999e-39 313 235
-0.0077742799 0.73900002 0.0064785667 9.5914354e-39 314 235
-0.0064697997 0.73799998 0.0064697997 9.9598592e-39 315 235
-0.0051758396 0.73799998 0.0064697997 9.7769351e-39 316 235
-0.0038818798 0.73799998 0.0064697997 1.0145718e-38 317 235
-0.0025879198 0.73799998 0.0064697997 1.0695667e-38 318 235
-0.00125188 0.71399999 0.0062593995 1.0603471e-38 319 235
0 0.71399999 0.0062593995 1.0968997e-38 320 235
0.00125188 0.71399999 0.0062593995 1.0876802e-38 321 235
0.0025107733 0.71600002 0.0062769335 1.0784232e-38 322 235
0.00376616 0.71600002 0.0062769335 1.0599839e-38 323 235
0.0050215465 0.71600002 0.0062769335 1.0689518e-38 324 235
0.0062857 0.71700001 0.0062857 1.0505125e-38 325 235
0.0075428397 0.71700001 0.0062857 1.0229627e-38 326 235
0.0087999795 0.71700001 0.0062857 1.0137432e-38 327 235
0.01005712 0.71700001 0.0062857 1.0228561e-38 328 235
0.01134582 0.71899998 0.0063032326 1.0228561e-38 329 235
0.012606465 0.71899998 0.0063032326 1.0320055e-38 330 235
0.013867113 0.71899998 0.0063032326 1.0320055e-38 331 235
0.01512776 0.71899998 0.0063032326 1.0228227e-38 332 235
0.016388407 0.71899998 0.0063032326 9.9516405e-39 333 235
0.017673599 0.72000003 0.0063120001 9.7669116e-39 334 235
0.0189886 0.722 0.0063295332 9.8591072e-39 335 235
0.020254506 0.722 0.0063295332 9.405378e-39 336 235
-0.035690852 0.727 0.0050986931 1.5675055e-38 292 236
-0.03441618 0.727 0.0050986931 1.5490664e-38 293 236
-0.033050332 0.72500002 0.0050846669 1.5304828e-38 294 236
-0.031779166 0.72500002 0.0050846669 1.4567263e-38 295 236
-0.030508002 0.72500002 0.0050846669 1.2544684e-38 296 236
-0.029236834 0.72500002 0.0050846669 1.0331631e-38 297 236
-0.027965667 0.72500002 0.0050846669 9.3159975e-39 298 236
-0.026694499 0.72500002 0.0050846669 9.4081932e-39 299 236
-0.025423333 0.72500002 0.0050846669 1.0325087e-38 300 236
-0.024152167 0.72500002 0.0050846669 9.5875215e-39 301 236
-0.023228159 0.736 0.005161813 9.8633699e-39 302 236
-0.021937706 0.736 0.005161813 9.5867817e-39 303 236
-0.020647252 0.736 0.005161813 9.3094703e-39 304 236
-0.019356798 0.736 0.005161813 9.1254378e-39 305 236
-0.018066347 0.736 0.005161813 9.1254378e-39 306 236
-0.016821479 0.73799998 0.0051758396 9.0332421e-39 307 236
-0.01554856 0.73900002 0.0051828534 8.7580972e-39 308 236
-0.014252847 0.73900002 0.0051828534 9.311271e-39 309 236
-0.0129922 0.741 0.0051968796 9.6807738e-39 310 236
-0.01169298 0.741 0.0051968796 9.8655237e-39 311 236
-0.010393759 0.741 0.0051968796 1.0234298e-38 312 236
-0.0090945391 0.741 0.0051968796 1.0234298e-38 313 236
-0.0077953199 0.741 0.0051968796 1.0143537e-38 314 236
-0.0064960998 0.741 0.0051968796 1.0143537e-38 315 236
-0.0051968796 0.741 0.0051968796 1.0051001e-38 316 236
-0.0037345996 0.70999998 0.0049794666 1.0051001e-38 317 236
-0.0024897333 0.70999998 0.0049794666 1.0048486e-38 318 236
-0.0012448666 0.70999998 0.0049794666 9.8637357e-39 319 236
0 0.71100003 0.0049864799 1.0781361e-38 320 236
0.00124662 0.71100003 0.0049864799 1.1150142e-38 321 236
0.0024932399 0.71100003 0.0049864799 1.1059374e-38 322 236
0.0037556398 0.71399999 0.0050075199 1.1059374e-38 323 236
0.0050075199 0.71399999 0.0050075199 1.0689868e-38 324 236
0.0062769335 0.71600002 0.0050215465 1.0597673e-38 325 236
0.0075428397 0.71700001 0.0050285598 1.0229264e-38 326 236
0.0087999795 0.71700001 0.0050285598 1.0229264e-38 327 236
0.01005712 0.71700001 0.0050285598 1.0136365e-38 328 236
0.01131426 0.71700001 0.0050285598 1.0136365e-38 329 236
0.0125714 0.71700001 0.0050285598 1.0227852e-38 330 236
0.013828539 0.71700001 0.0050285598 1.0135656e-38 331 236
0.01512776 0.71899998 0.0050425865 1.0135309e-38 332 236
0.016388407 0.71899998 0.0050425865 1.0135309e-38 333 236
0.017649053 0.71899998 0.0050425865 1.0042407e-38 334 236
0.018935999 0.72000003 0.0050496003 9.5814301e-39 335 236
0.020254506 0.722 0.0050636264 8.4794392e-39 336 236
0.021520413 0.722 0.0050636264 1.032335e-38 337 236
-0.036965527 0.727 0.0038240198 1.5399197e-38 291 237
-0.035690852 0.727 0.0038240198 1.4753096e-38 292 237
-0.03441618 0.727 0.0038240198 1.4107726e-38 293 237
-0.033050332 0.72500002 0.0038135003 1.419883e-38 294 237
-0.031779166 0.72500002 0.0038135003 1.3645657e-38 295 237
-0.030423839 0.72299999 0.0038029798 1.0980223e-38 296 237
-0.029156178 0.72299999 0.0038029798 9.1363118e-39 297 237
-0.027849946 0.722 0.0037977197 9.3152759e-39 298 237
-0.02647358 0.71899998 0.0037819401 9.776254e-39 299 237
-0.025107734 0.71600002 0.00376616 1.0235413e-38 300 237
-0.023852346 0.71600002 0.00376616 1.0142859e-38 301 237
-0.022596961 0.71600002 0.00376616 1.0325071e-38 302 237
-0.021341572 0.71600002 0.00376616 1.0048483e-38 303 237
-0.020086186 0.71600002 0.00376616 9.6789745e-39 304 237
-0.019356798 0.736 0.0038713599 9.7711715e-39 305 237
-0.018066347 0.736 0.0038713599 9.9562844e-39 306 237
-0.016821479 0.73799998 0.0038818798 1.0140676e-38 307 237
-0.01554856 0.73900002 0.00388714 1.0233594e-38 308 237
-0.014252847 0.73900002 0.00388714 1.0786768e-38 309 237
-0.0129922 0.741 0.0038976599 1.1247026e-38 310 237
-0.01169298 0.741 0.0038976599 1.1339222e-38 311 237
-0.0099168532 0.70700002 0.0037188199 1.15218e-38 312 237
-0.008677247 0.70700002 0.0037188199 1.1245211e-38 313 237
-0.0074481601 0.708 0.00372408 1.0602357e-38 314 237
-0.0062067998 0.708 0.00372408 1.0233934e-38 315 237
-0.0049654399 0.708 0.00372408 1.0232145e-38 316 237
-0.00372408 0.708 0.00372408 1.0048114e-38 317 237
-0.0024897333 0.70999998 0.0037345996 1.0692408e-38 318 237
-0.0012448666 0.70999998 0.0037345996 1.106119e-38 319 237
0 0.71100003 0.0037398601 1.1608233e-38 320 237
0.00124662 0.71100003 0.0037398601 1.1608233e-38 321 237
0.0024932399 0.71100003 0.0037398601 1.1243391e-38 322 237
0.0037503797 0.713 0.0037503797 1.1059003e-38 323 237
0.0050005065 0.713 0.0037503797 1.0872462e-38 324 237
0.0062593995 0.71399999 0.0037556398 1.0780268e-38 325 237
0.0075112795 0.71399999 0.0037556398 1.013671e-38 326 237
0.0087877065 0.71600002 0.00376616 1.0044514e-38 327 237
0.010043093 0.71600002 0.00376616 9.8604987e-39 328 237
0.01129848 0.71600002 0.00376616 9.7683031e-39 329 237
0.012553867 0.71600002 0.00376616 1.0043461e-38 330 237
0.013828539 0.71700001 0.0037714199 9.951265e-39 331 237
0.015085679 0.71700001 0.0037714199 9.9509147e-39 332 237
0.016342819 0.71700001 0.0037714199 9.9509147e-39 333 237
0.017599959 0.71700001 0.0037714199 9.7661745e-39 334 237
0.018909698 0.71899998 0.0037819401 9.6739789e-39 335 237
0.020198401 0.72000003 0.0037872 9.2137448e-39 336 237
0.021460801 0.72000003 0.0037872 9.3981361e-39 337 237
0.022786319 0.722 0.0037977197 8.6710583e-39 338 237
-0.038292799 0.72799999 0.0025528532 1.5122248e-38 290 238
-0.036965527 0.727 0.0025493465 1.4937856e-38 291 238
-0.035690852 0.727 0.0025493465 1.4014089e-38 292 238
-0.034321502 0.72500002 0.0025423334 1.3184328e-38 293 238
-0.032959159 0.72299999 0.0025353199 1.3370496e-38 294 238
-0.031691495 0.72299999 0.0025353199 1.263293e-38 295 238
-0.030423839 0.72299999 0.0025353199 9.7820148e-39 296 238
-0.029115854 0.722 0.0025318132 8.8600585e-39 297 238
-0.027772799 0.72000003 0.0025248001 9.8695034e-39 298 238
-0.02639994 0.71700001 0.0025142799 1.0237926e-38 299 238
-0.025107734 0.71600002 0.0025107733 1.0604903e-38 300 238
-0.02378572 0.71399999 0.0025037599 1.0604903e-38 301 238
-0.022533838 0.71399999 0.0025037599 1.0971165e-38 302 238
-0.021281958 0.71399999 0.0025037599 1.0971165e-38 303 238
-0.020030079 0.71399999 0.0025037599 1.1061207e-38 304 238
-0.0186993 0.71100003 0.0024932399 1.1153403e-38 305 238
-0.017428132 0.70999998 0.0024897333 1.1063361e-38 306 238
-0.01613768 0.708 0.00248272 1.1339587e-38 307 238
-0.01489632 0.708 0.00248272 1.1984225e-38 308 238
-0.013654959 0.708 0.00248272 1.2168256e-38 309 238
-0.012396066 0.70700002 0.0024792133 1.2076393e-38 310 238
-0.011156459 0.70700002 0.0024792133 1.1800165e-38 311 238
-0.0099168532 0.70700002 0.0024792133 1.2074215e-38 312 238
-0.008677247 0.70700002 0.0024792133 1.1797274e-38 313 238
-0.0074481601 0.708 0.00248272 1.1428497e-38 314 238
-0.0062067998 0.708 0.00248272 1.0967167e-38 315 238
-0.0049654399 0.708 0.00248272 1.0232124e-38 316 238
-0.00372408 0.708 0.00248272 1.078529e-38 317 238
-0.00248272 0.708 0.00248272 1.1889856e-38 318 238
-0.0012448666 0.70999998 0.0024897333 1.262778e-38 319 238
0 0.70999998 0.0024897333 1.1791543e-38 320 238
0.0012448666 0.70999998 0.0024897333 1.1699347e-38 321 238
0.0024897333 0.70999998 0.0024897333 1.1333792e-38 322 238
0.0037398601 0.71100003 0.0024932399 1.1149403e-38 323 238
0.0049864799 0.71100003 0.0024932399 1.1056133e-38 324 238
0.0062330998 0.71100003 0.0024932399 1.0871386e-38 325 238
0.0074797203 0.71100003 0.0024932399 1.0412574e-38 326 238
0.0087263398 0.71100003 0.0024932399 1.0044151e-38 327 238
0.01001504 0.71399999 0.0025037599 9.7683003e-39 328 238
0.011266919 0.71399999 0.0025037599 9.7683003e-39 329 238
0.012518799 0.71399999 0.0025037599 9.6757543e-39 330 238
0.013809253 0.71600002 0.0025107733 9.6757543e-39 331 238
0.01506464 0.71600002 0.0025107733 9.6746823e-39 332 238
0.016320027 0.71600002 0.0025107733 9.7668779e-39 333 238
0.017599959 0.71700001 0.0025142799 9.5817832e-39 334 238
0.018857099 0.71700001 0.0025142799 9.5817832e-39 335 238
0.020170346 0.71899998 0.0025212932 9.5814455e-39 336 238
0.021430992 0.71899998 0.0025212932 9.3052174e-39 337 238
0.022786319 0.722 0.0025318132 7.8369663e-39 338 238
0.024152167 0.72500002 0.0025423334 9.7730745e-39 339 238
-0.038292799 0.72799999 0.0012764266 1.4292123e-38 290 239
-0.036965527 0.727 0.0012746733 1.3738951e-38 291 239
-0.035690852 0.727 0.0012746733 1.3184681e-38 292 239
-0.034321502 0.72500002 0.0012711667 1.3460908e-38 293 239
-0.032959159 0.72299999 0.0012676599 1.3003136e-38 294 239
-0.031691495 0.72299999 0.0012676599 1.143581e-38 295 239
-0.030381758 0.722 0.0012659066 8.6749287e-39 296 239
-0.029035201 0.72000003 0.0012624001 9.1355481e-39 297 239
-0.027734226 0.71899998 0.0012606466 1.0513774e-38 298 239
-0.02639994 0.71700001 0.00125714 1.0698524e-38 299 239
-0.025107734 0.71600002 0.0012553866 1.1249174e-38 300 239
-0.02378572 0.71399999 0.00125188 1.1249174e-38 301 239
-0.022533838 0.71399999 0.00125188 1.1709078e-38 302 239
-0.021281958 0.71399999 0.00125188 1.2077859e-38 303 239
-0.01994592 0.71100003 0.00124662 1.2443399e-38 304 239
-0.0186993 0.71100003 0.00124662 1.198242e-38 305 239
-0.017428132 0.70999998 0.0012448666 1.1066565e-38 306 239
-0.01613768 0.708 0.00124136 1.1066565e-38 307 239
-0.01487528 0.70700002 0.0012396066 1.216787e-38 308 239
-0.013635674 0.70700002 0.0012396066 1.216787e-38 309 239
-0.012378532 0.70599997 0.0012378532 1.2076023e-38 310 239
-0.011140679 0.70599997 0.0012378532 1.1983827e-38 311 239
-0.0099168532 0.70700002 0.0012396066 1.2442287e-38 312 239
-0.008677247 0.70700002 0.0012396066 1.3179852e-38 313 239
-0.0074271196 0.70599997 0.0012378532 1.3086935e-38 314 239
-0.0061892662 0.70599997 0.0012378532 1.234937e-38 315 239
-0.0049654399 0.708 0.00124136 1.2349383e-38 316 239
-0.00372408 0.708 0.00124136 1.2994752e-38 317 239
-0.00248272 0.708 0.00124136 1.3545785e-38 318 239
-0.00124136 0.708 0.00124136 1.3453589e-38 319 239
0 0.70999998 0.0012448666 1.1516388e-38 320 239
0.0012448666 0.70999998 0.0012448666 1.1331639e-38 321 239
0.0024897333 0.70999998 0.0012448666 1.1149403e-38 322 239
0.0037345996 0.70999998 0.0012448666 1.0965373e-38 323 239
0.0049794666 0.70999998 0.0012448666 1.0597314e-38 324 239
0.0062243328 0.70999998 0.0012448666 1.050512e-38 325 239
0.0074797203 0.71100003 0.00124662 1.0136702e-38 326 239
0.0087263398 0.71100003 0.00124662 1.0044149e-38 327 239
0.0099729598 0.71100003 0.00124662 9.6757389e-39 328 239
0.011251139 0.713 0.0012501266 9.6757389e-39 329 239
0.012501267 0.713 0.0012501266 9.858698e-39 330 239
0.01377068 0.71399999 0.00125188 9.858698e-39 331 239
0.015022559 0.71399999 0.00125188 9.7661507e-39 332 239
0.016274439 0.71399999 0.00125188 9.673955e-39 333 239
0.017575413 0.71600002 0.0012553866 9.3977437e-39 334 239
0.018857099 0.71700001 0.00125714 9.3051893e-39 335 239
0.020114239 0.71700001 0.00125714 9.6718293e-39 336 239
0.021430992 0.71899998 0.0012606466 9.6718293e-39 337 239
0.022723202 0.72000003 0.0012624001 9.2130413e-39 338 239
0.024085538 0.72299999 0.0012676599 8.6598676e-39 339 239
0.025423333 0.72500002 0.0012711667 8.6735793e-39 340 239
-0.039514873 0.727 -0 1.4475436e-38 289 240
-0.038240198 0.727 -0 1.4014812e-38 290 240
-0.036965527 0.727 -0 1.3369443e-38 291 240
-0.035592668 0.72500002 -0 1.3645657e-38 292 240
-0.03422682 0.72299999 -0 1.419883e-38 293 240
-0.032913569 0.722 -0 1.235812e-38 294 240
-0.031647664 0.722 -0 1.088299e-38 295 240
-0.0302976 0.72000003 -0 9.0418938e-39 296 240
-0.028994869 0.71899998 -0 9.7794588e-39 297 240
-0.027618507 0.71600002 -0 1.097437e-38 298 240
-0.026289478 0.71399999 -0 1.1066565e-38 299 240
-0.025037598 0.71399999 -0 1.1617571e-38 300 240
-0.023752406 0.713 -0 1.1617571e-38 301 240
-0.022502279 0.713 -0 1.2077096e-38 302 240
-0.021252153 0.713 -0 1.2169292e-38 303 240
-0.01994592 0.71100003 -0 1.2535904e-38 304 240
-0.0186993 0.71100003 -0 1.2535904e-38 305 240
-0.017428132 0.70999998 -0 1.2536263e-38 306 240
-0.01613768 0.708 -0 1.2536263e-38 307 240
-0.01487528 0.70700002 -0 1.2260397e-38 308 240
-0.013635674 0.70700002 -0 1.235295e-38 309 240
-0.012378532 0.70599997 -0 1.2535545e-38 310 240
-0.011140679 0.70599997 -0 1.2627739e-38 311 240
-0.0099028256 0.70599997 -0 1.2628098e-38 312 240
-0.0086649731 0.70599997 -0 1.3273458e-38 313 240
-0.0074271196 0.70599997 -0 1.345677e-38 314 240
-0.0061892662 0.70599997 -0 1.2719216e-38 315 240
-0.0049584266 0.70700002 -0 1.2534828e-38 316 240
-0.0037188199 0.70700002 -0 1.2534828e-38 317 240
-0.0024792133 0.70700002 -0 1.2718499e-38 318 240
-0.0012396066 0.70700002 -0 1.2165333e-38 319 240
0 0.708 -0 1.1334868e-38 320 240
0.00124136 0.708 -0 1.1242315e-38 321 240
0.00248272 0.708 -0 1.1149762e-38 322 240
0.00372408 0.708 -0 1.0965732e-38 323 240
0.0049654399 0.708 -0 1.0964297e-38 324 240
0.0062243328 0.70999998 -0 1.0688073e-38 325 240
0.0074691991 0.70999998 -0 1.0136702e-38 326 240
0.0087140659 0.70999998 -0 9.9523132e-39 327 240
0.0099729598 0.71100003 -0 9.5842621e-39 328 240
0.01121958 0.71100003 -0 9.4920651e-39 329 240
0.0124662 0.71100003 -0 9.4913588e-39 330 240
0.013751393 0.713 -0 9.4913588e-39 331 240
0.015001519 0.713 -0 9.3073305e-39 332 240
0.016274439 0.71399999 -0 9.3073305e-39 333 240
0.017526319 0.71399999 -0 9.1211582e-39 334 240
0.0188308 0.71600002 -0 9.1211582e-39 335 240
0.020114239 0.71700001 -0 9.027906e-39 336 240
0.021371379 0.71700001 -0 9.3044915e-39 337 240
0.022691639 0.71899998 -0 9.2130217e-39 338 240
0.024052227 0.722 -0 7.9222829e-39 339 240
0.025353199 0.72299999 -0 7.9262808e-39 340 240
0.026620859 0.72299999 -0 1.3365823e-38 341 240
-0.040789545 0.727 -0.0012746733 1.4292123e-38 288 241
-0.039406165 0.72500002 -0.0012711667 1.3646754e-38 289 241
-0.038135 0.72500002 -0.0012711667 1.2999581e-38 290 241
-0.036863834 0.72500002 -0.0012711667 1.3184331e-38 291 241
-0.035494477 0.72299999 -0.0012676599 1.4290307e-38 292 241
-0.034179479 0.722 -0.0012659066 1.465873e-38 293 241
-0.032913569 0.722 -0.0012659066 1.1068435e-38 294 241
-0.03156 0.72000003 -0.0012624001 9.8702503e-39 295 241
-0.030255521 0.71899998 -0.0012606466 1.042156e-38 296 241
-0.028873893 0.71600002 -0.0012553866 1.0882537e-38 297 241
-0.027618507 0.71600002 -0.0012553866 1.1434247e-38 298 241
-0.026289478 0.71399999 -0.00125188 1.1434247e-38 299 241
-0.025037598 0.71399999 -0.00125188 1.189449e-38 300 241
-0.023752406 0.713 -0.0012501266 1.189449e-38 301 241
-0.022502279 0.713 -0.0012501266 1.2169638e-38 302 241
-0.021252153 0.713 -0.0012501266 1.2353668e-38 303 241
-0.01994592 0.71100003 -0.00124662 1.2445145e-38 304 241
-0.0186993 0.71100003 -0.00124662 1.2445145e-38 305 241
-0.01745268 0.71100003 -0.00124662 1.2445862e-38 306 241
-0.01613768 0.708 -0.00124136 1.2445862e-38 307 241
-0.01487528 0.70700002 -0.0012396066 1.2721727e-38 308 241
-0.013635674 0.70700002 -0.0012396066 1.2629533e-38 309 241
-0.012378532 0.70599997 -0.0012378532 1.2629533e-38 310 241
-0.011140679 0.70599997 -0.0012378532 1.2629533e-38 311 241
-0.0099028256 0.70599997 -0.0012378532 1.2997234e-38 312 241
-0.0086649731 0.70599997 -0.0012378532 1.3089428e-38 313 241
-0.0074271196 0.70599997 -0.0012378532 1.3087276e-38 314 241
-0.0061892662 0.70599997 -0.0012378532 1.2718857e-38 315 241
-0.0049514128 0.70599997 -0.0012378532 1.2533393e-38 316 241
-0.0037135598 0.70599997 -0.0012378532 1.2533393e-38 317 241
-0.0024792133 0.70700002 -0.0012396066 1.2257528e-38 318 241
-0.0012396066 0.70700002 -0.0012396066 1.1796556e-38 319 241
0 0.70700002 -0.0012396066 1.1244467e-38 320 241
0.0012396066 0.70700002 -0.0012396066 1.1152273e-38 321 241
0.0024792133 0.70700002 -0.0012396066 1.1059361e-38 322 241
0.0037188199 0.70700002 -0.0012396066 1.0967167e-38 323 241
0.0049654399 0.708 -0.00124136 1.0873538e-38 324 241
0.0062067998 0.708 -0.00124136 1.0597314e-38 325 241
0.0074481601 0.708 -0.00124136 1.0044866e-38 326 241
0.008689519 0.708 -0.00124136 9.9526719e-39 327 241
0.0099589331 0.70999998 -0.0012448666 9.6757361e-39 328 241
0.011203799 0.70999998 -0.0012448666 9.5835391e-39 329 241
0.012448666 0.70999998 -0.0012448666 9.4909931e-39 330 241
0.01371282 0.71100003 -0.00124662 9.4909931e-39 331 241
0.014959441 0.71100003 -0.00124662 9.2151293e-39 332 241
0.016251646 0.713 -0.0012501266 9.1229336e-39 333 241
0.017501773 0.713 -0.0012501266 9.0293129e-39 334 241
0.018778199 0.71399999 -0.00125188 8.8449202e-39 335 241
0.020086186 0.71600002 -0.0012553866 9.0268102e-39 336 241
0.021371379 0.71700001 -0.00125714 9.1190058e-39 337 241
0.022691639 0.71899998 -0.0012606466 9.2112084e-39 338 241
0.0239856 0.72000003 -0.0012624001 8.8420658e-39 339 241
0.025353199 0.72299999 -0.0012676599 7.5578528e-39 340 241
0.026620859 0.72299999 -0.0012676599 1.1614819e-38 341 241
0.02788852 0.72299999 -0.0012676599 1.3371979e-38 342 241
-0.040789545 0.727 -0.0025493465 1.4199922e-38 288 242
-0.039406165 0.72500002 -0.0025423334 1.2540761e-38 289 242
-0.038135 0.72500002 -0.0025423334 1.327401e-38 290 242
-0.036762137 0.72299999 -0.0025353199 1.3919379e-38 291 242
-0.035494477 0.72299999 -0.0025353199 1.4568685e-38 292 242
-0.034179479 0.722 -0.0025318132 1.4107708e-38 293 242
-0.0328224 0.72000003 -0.0025248001 1.0605635e-38 294 242
-0.031428497 0.71700001 -0.0025142799 1.0329408e-38 295 242
-0.03012928 0.71600002 -0.0025107733 1.1343483e-38 296 242
-0.028793238 0.71399999 -0.0025037599 1.1343483e-38 297 242
-0.02754136 0.71399999 -0.0025037599 1.1894849e-38 298 242
-0.026289478 0.71399999 -0.0025037599 1.1894849e-38 299 242
-0.025037598 0.71399999 -0.0025037599 1.2169997e-38 300 242
-0.023752406 0.713 -0.0025002533 1.2169997e-38 301 242
-0.022502279 0.713 -0.0025002533 1.2445862e-38 302 242
-0.021252153 0.713 -0.0025002533 1.2538056e-38 303 242
-0.01994592 0.71100003 -0.0024932399 1.2629174e-38 304 242
-0.018672999 0.70999998 -0.0024897333 1.2721369e-38 305 242
-0.017428132 0.70999998 -0.0024897333 1.290504e-38 306 242
-0.016114887 0.70700002 -0.0024792133 1.3089428e-38 307 242
-0.01487528 0.70700002 -0.0024792133 1.3274175e-38 308 242
-0.013616386 0.70599997 -0.0024757064 1.3181622e-38 309 242
-0.012378532 0.70599997 -0.0024757064 1.3274175e-38 310 242
-0.011140679 0.70599997 -0.0024757064 1.3366369e-38 311 242
-0.0099028256 0.70599997 -0.0024757064 1.3366369e-38 312 242
-0.0086649731 0.70599997 -0.0024757064 1.2997234e-38 313 242
-0.0074271196 0.70599997 -0.0024757064 1.3086558e-38 314 242
-0.0061892662 0.70599997 -0.0024757064 1.271814e-38 315 242
-0.0049514128 0.70599997 -0.0024757064 1.2165692e-38 316 242
-0.0037135598 0.70599997 -0.0024757064 1.2165692e-38 317 242
-0.0024757064 0.70599997 -0.0024757064 1.1706515e-38 318 242
-0.0012378532 0.70599997 -0.0024757064 1.1521767e-38 319 242
0 0.70599997 -0.0024757064 1.1429214e-38 320 242
0.0012378532 0.70599997 -0.0024757064 1.133702e-38 321 242
0.0024792133 0.70700002 -0.0024792133 1.124375e-38 322 242
0.0037188199 0.70700002 -0.0024792133 1.1151197e-38 323 242
0.0049584266 0.70700002 -0.0024792133 1.0965732e-38 324 242
0.0061980332 0.70700002 -0.0024792133 1.0873179e-38 325 242
0.0074376399 0.70700002 -0.0024792133 1.0412567e-38 326 242
0.008689519 0.708 -0.00248272 1.022782e-38 327 242
0.0099308798 0.708 -0.00248272 9.6757361e-39 328 242
0.011203799 0.70999998 -0.0024897333 9.5835391e-39 329 242
0.012448666 0.70999998 -0.0024897333 9.3073249e-39 330 242
0.013693533 0.70999998 -0.0024897333 9.2151293e-39 331 242
0.014959441 0.71100003 -0.0024932399 9.1225805e-39 332 242
0.01620606 0.71100003 -0.0024932399 9.0303849e-39 333 242
0.017501773 0.713 -0.0025002533 8.9367641e-39 334 242
0.018751899 0.713 -0.0025002533 8.7523715e-39 335 242
0.020030079 0.71399999 -0.0025037599 8.9342614e-39 336 242
0.021341572 0.71600002 -0.0025107733 8.9342614e-39 337 242
0.02262852 0.71700001 -0.0025142799 9.0264627e-39 338 242
0.023952285 0.71899998 -0.0025212932 8.8417127e-39 339 242
0.025318133 0.722 -0.0025318132 7.5553347e-39 340 242
0.026584039 0.722 -0.0025318132 9.3992473e-39 341 242
0.02788852 0.72299999 -0.0025353199 1.2082316e-38 342 242
0.029156178 0.72299999 -0.0025353199 1.5032575e-38 343 242
-0.040677335 0.72500002 -0.0038135003 1.4107005e-38 288 243
-0.039406165 0.72500002 -0.0038135003 1.2170897e-38 289 243
-0.038029801 0.72299999 -0.0038029798 1.3550943e-38 290 243
-0.03671129 0.722 -0.0037977197 1.4380704e-38 291 243
-0.035445385 0.722 -0.0037977197 1.4568672e-38 292 243
-0.034084801 0.72000003 -0.0037872 1.3646357e-38 293 243
-0.032776814 0.71899998 -0.0037819401 1.0419791e-38 294 243
-0.031384666 0.71600002 -0.00376616 1.0788213e-38 295 243
-0.030045118 0.71399999 -0.0037556398 1.1803014e-38 296 243
-0.028752912 0.713 -0.0037503797 1.1895208e-38 297 243
-0.027502786 0.713 -0.0037503797 1.2263267e-38 298 243
-0.026252659 0.713 -0.0037503797 1.2263267e-38 299 243
-0.025002534 0.713 -0.0037503797 1.2538415e-38 300 243
-0.023685781 0.71100003 -0.0037398601 1.2445862e-38 301 243
-0.022439159 0.71100003 -0.0037398601 1.2538415e-38 302 243
-0.021192541 0.71100003 -0.0037398601 1.2538415e-38 303 243
-0.019917866 0.70999998 -0.0037345996 1.2813922e-38 304 243
-0.0186204 0.708 -0.00372408 1.2813922e-38 305 243
-0.017379038 0.708 -0.00372408 1.3089787e-38 306 243
-0.016114887 0.70700002 -0.0037188199 1.3274175e-38 307 243
-0.014854239 0.70599997 -0.0037135598 1.3367087e-38 308 243
-0.013616386 0.70599997 -0.0037135598 1.3367087e-38 309 243
-0.012378532 0.70599997 -0.0037135598 1.3642593e-38 310 243
-0.011140679 0.70599997 -0.0037135598 1.3458564e-38 311 243
-0.0099028256 0.70599997 -0.0037135598 1.3273817e-38 312 243
-0.0086649731 0.70599997 -0.0037135598 1.2997234e-38 313 243
-0.0074271196 0.70599997 -0.0037135598 1.3086558e-38 314 243
-0.0061892662 0.70599997 -0.0037135598 1.271814e-38 315 243
-0.0049514128 0.70599997 -0.0037135598 1.2166051e-38 316 243
-0.0037030398 0.704 -0.0037030398 1.1889827e-38 317 243
-0.0024686933 0.704 -0.0037030398 1.2073498e-38 318 243
-0.0012378532 0.70599997 -0.0037135598 1.1889468e-38 319 243
0 0.70599997 -0.0037135598 1.1522126e-38 320 243
0.0012378532 0.70599997 -0.0037135598 1.1429932e-38 321 243
0.0024757064 0.70599997 -0.0037135598 1.1519974e-38 322 243
0.0037135598 0.70599997 -0.0037135598 1.124375e-38 323 243
0.0049514128 0.70599997 -0.0037135598 1.1059003e-38 324 243
0.0061892662 0.70599997 -0.0037135598 1.0874255e-38 325 243
0.0074376399 0.70700002 -0.0037188199 1.032109e-38 326 243
0.008677247 0.70700002 -0.0037188199 1.0044507e-38 327 243
0.0099308798 0.708 -0.00372408 9.5839062e-39 328 243
0.011203799 0.70999998 -0.0037345996 9.307678e-39 329 243
0.012448666 0.70999998 -0.0037345996 9.3984471e-39 330 243
0.013693533 0.70999998 -0.0037345996 9.1218617e-39 331 243
0.014938398 0.70999998 -0.0037345996 9.0300318e-39 332 243
0.01620606 0.71100003 -0.0037398601 8.9378361e-39 333 243
0.01745268 0.71100003 -0.0037398601 9.0278794e-39 334 243
0.018751899 0.713 -0.0037503797 8.7516526e-39 335 243
0.020030079 0.71399999 -0.0037556398 8.9338985e-39 336 243
0.021341572 0.71600002 -0.00376616 8.9338985e-39 337 243
0.02262852 0.71700001 -0.0037714199 8.9331922e-39 338 243
0.023952285 0.71899998 -0.0037819401 9.209419e-39 339 243
0.025248 0.72000003 -0.0037872 7.9219466e-39 340 243
0.026584039 0.722 -0.0037977197 7.1843802e-39 341 243
0.02788852 0.72299999 -0.0038029798 1.051282e-38 342 243
0.029156178 0.72299999 -0.0038029798 1.5122601e-38 343 243
-0.040677335 0.72500002 -0.0050846669 1.3462354e-38 288 244
-0.039297458 0.72299999 -0.0050706398 1.2540758e-38 289 244
-0.038029801 0.72299999 -0.0050706398 1.3643852e-38 290 244
-0.03671129 0.722 -0.0050636264 1.3828603e-38 291 244
-0.035347197 0.72000003 -0.0050496003 1.3645612e-38 292 244
-0.03403746 0.71899998 -0.0050425865 1.2447069e-38 293 244
-0.032685637 0.71700001 -0.0050285598 1.1157329e-38 294 244
-0.031384666 0.71600002 -0.0050215465 1.1341722e-38 295 244
-0.030045118 0.71399999 -0.0050075199 1.2171073e-38 296 244
-0.028752912 0.713 -0.0050005065 1.235582e-38 297 244
-0.027425639 0.71100003 -0.0049864799 1.2723521e-38 298 244
-0.026179021 0.71100003 -0.0049864799 1.2631327e-38 299 244
-0.024932399 0.71100003 -0.0049864799 1.2814639e-38 300 244
-0.023652466 0.70999998 -0.0049794666 1.2630609e-38 301 244
-0.022407599 0.70999998 -0.0049794666 1.2630609e-38 302 244
-0.021162732 0.70999998 -0.0049794666 1.2814639e-38 303 244
-0.01986176 0.708 -0.0049654399 1.2906833e-38 304 244
-0.018594101 0.70700002 -0.0049584266 1.2999386e-38 305 244
-0.017354494 0.70700002 -0.0049584266 1.3274893e-38 306 244
-0.016092092 0.70599997 -0.0049514128 1.3182698e-38 307 244
-0.014854239 0.70599997 -0.0049514128 1.3274175e-38 308 244
-0.013616386 0.70599997 -0.0049514128 1.3089428e-38 309 244
-0.012343466 0.704 -0.0049373866 1.2721369e-38 310 244
-0.011109119 0.704 -0.0049373866 1.2629174e-38 311 244
-0.0098747732 0.704 -0.0049373866 1.2628816e-38 312 244
-0.0086404262 0.704 -0.0049373866 1.2628816e-38 313 244
-0.0074060797 0.704 -0.0049373866 1.3086917e-38 314 244
-0.0061717331 0.704 -0.0049373866 1.3086917e-38 315 244
-0.0049373866 0.704 -0.0049373866 1.3086199e-38 316 244
-0.0037030398 0.704 -0.0049373866 1.2625587e-38 317 244
-0.0024686933 0.704 -0.0049373866 1.1983456e-38 318 244
-0.0012343467 0.704 -0.0049373866 1.1891262e-38 319 244
0 0.704 -0.0049373866 1.1706873e-38 320 244
0.0012343467 0.704 -0.0049373866 1.1614679e-38 321 244
0.0024686933 0.704 -0.0049373866 1.1612885e-38 322 244
0.0037030398 0.704 -0.0049373866 1.1336662e-38 323 244
0.0049514128 0.70599997 -0.0049514128 1.1058644e-38 324 244
0.0061892662 0.70599997 -0.0049514128 1.0782061e-38 325 244
0.0074271196 0.70599997 -0.0049514128 1.0136702e-38 326 244
0.0086649731 0.70599997 -0.0049514128 1.0044507e-38 327 244
0.0099168532 0.70700002 -0.0049584266 9.5831859e-39 328 244
0.01117224 0.708 -0.0049654399 9.3987947e-39 329 244
0.0124136 0.708 -0.0049654399 9.0303821e-39 330 244
0.013693533 0.70999998 -0.0049794666 8.8459894e-39 331 244
0.014938398 0.70999998 -0.0049794666 8.8456391e-39 332 244
0.01620606 0.71100003 -0.0049864799 8.661608e-39 333 244
0.01745268 0.71100003 -0.0049864799 8.8434951e-39 334 244
0.0186993 0.71100003 -0.0049864799 8.6591039e-39 335 244
0.020002026 0.713 -0.0050005065 8.7491513e-39 336 244
0.021281958 0.71399999 -0.0050075199 8.7491513e-39 337 244
0.022596961 0.71600002 -0.0050215465 8.748801e-39 338 244
0.02388566 0.71700001 -0.0050285598 8.8409966e-39 339 244
0.025248 0.72000003 -0.0050496003 8.1974419e-39 340 244
0.026584039 0.722 -0.0050636264 6.814506e-39 341 244
0.027849946 0.722 -0.0050636264 8.6678115e-39 342 244
0.029156178 0.72299999 -0.0050706398 1.4199909e-38 343 244
-0.040565118 0.72299999 -0.0063382997 1.3645301e-38 288 245
-0.039243106 0.722 -0.0063295332 1.3460908e-38 289 245
-0.0379772 0.722 -0.0063295332 1.3736391e-38 290 245
-0.036558751 0.71899998 -0.0063032326 1.3183217e-38 291 245
-0.035298105 0.71899998 -0.0063032326 1.2354468e-38 292 245
-0.033942781 0.71700001 -0.0062857 1.1340318e-38 293 245
-0.032640055 0.71600002 -0.0062769335 1.1895582e-38 294 245
-0.031296998 0.71399999 -0.0062593995 1.1803386e-38 295 245
-0.030003037 0.713 -0.0062506334 1.2263626e-38 296 245
-0.028672259 0.71100003 -0.0062330998 1.2448015e-38 297 245
-0.027387066 0.70999998 -0.0062243328 1.2814639e-38 298 245
-0.026142199 0.70999998 -0.0062243328 1.2906833e-38 299 245
-0.024897331 0.70999998 -0.0062243328 1.2907192e-38 300 245
-0.023585839 0.708 -0.0062067998 1.2814998e-38 301 245
-0.022344479 0.708 -0.0062067998 1.2814639e-38 302 245
-0.021103119 0.708 -0.0062067998 1.2906833e-38 303 245
-0.019833706 0.70700002 -0.0061980332 1.2906833e-38 304 245
-0.018567799 0.70599997 -0.0061892662 1.2999386e-38 305 245
-0.017329946 0.70599997 -0.0061892662 1.2999027e-38 306 245
-0.016092092 0.70599997 -0.0061892662 1.2906833e-38 307 245
-0.014854239 0.70599997 -0.0061892662 1.2813922e-38 308 245
-0.013577812 0.704 -0.0061717331 1.2537698e-38 309 245
-0.012343466 0.704 -0.0061717331 1.2169645e-38 310 245
-0.011109119 0.704 -0.0061717331 1.207745e-38 311 245
-0.0098607466 0.70300001 -0.0061629666 1.207745e-38 312 245
-0.0086281532 0.70300001 -0.0061629666 1.2169645e-38 313 245
-0.0074060797 0.704 -0.0061717331 1.2628457e-38 314 245
-0.0061629666 0.70300001 -0.0061629666 1.2905398e-38 315 245
-0.0049303733 0.70300001 -0.0061629666 1.3456411e-38 316 245
-0.0037030398 0.704 -0.0061717331 1.3087276e-38 317 245
-0.0024686933 0.704 -0.0061717331 1.2442992e-38 318 245
-0.0012343467 0.704 -0.0061717331 1.2350798e-38 319 245
0 0.704 -0.0061717331 1.1891262e-38 320 245
0.0012343467 0.704 -0.0061717331 1.1707232e-38 321 245
0.0024686933 0.704 -0.0061717331 1.1613244e-38 322 245
0.0037030398 0.704 -0.0061717331 1.133702e-38 323 245
0.0049373866 0.704 -0.0061717331 1.1058644e-38 324 245
0.0061717331 0.704 -0.0061717331 1.0597673e-38 325 245
0.0074060797 0.704 -0.0061717331 1.0320014e-38 326 245
0.0086649731 0.70599997 -0.0061892662 1.0135625e-38 327 245
0.0099028256 0.70599997 -0.0061892662 9.491342e-39 328 245
0.011156459 0.70700002 -0.0061980332 9.3991478e-39 329 245
0.0124136 0.708 -0.0062067998 8.7552273e-39 330 245
0.013654959 0.708 -0.0062067998 8.6630303e-39 331 245
0.01489632 0.708 -0.0062067998 8.3868162e-39 332 245
0.016183265 0.70999998 -0.0062243328 8.3868162e-39 333 245
0.017428132 0.70999998 -0.0062243328 8.6591039e-39 334 245
0.0186993 0.71100003 -0.0062330998 8.6591039e-39 335 245
0.01994592 0.71100003 -0.0062330998 8.7498702e-39 336 245
0.021252153 0.713 -0.0062506334 8.565839e-39 337 245
0.022533838 0.71399999 -0.0062593995 8.4732861e-39 338 245
0.023852346 0.71600002 -0.0062769335 8.5654831e-39 339 245
0.025212931 0.71899998 -0.0063032326 8.4740091e-39 340 245
0.026510401 0.72000003 -0.0063120001 6.9070422e-39 341 245
0.027772799 0.72000003 -0.0063120001 8.1113783e-39 342 245
0.029156178 0.72299999 -0.0063382997 1.3550922e-38 343 245
0.030423839 0.72299999 -0.0063382997 1.5578538e-38 344 245
-0.043100435 0.72299999 -0.0076059597 1.6128096e-38 286 246
-0.041774917 0.722 -0.0075954394 1.5575281e-38 287 246
-0.040509012 0.722 -0.0075954394 1.4472168e-38 288 246
-0.039134402 0.72000003 -0.0075743999 1.3550572e-38 289 246
-0.037871998 0.72000003 -0.0075743999 1.2998075e-38 290 246
-0.036457058 0.71700001 -0.0075428397 1.226051e-38 291 246
-0.035150826 0.71600002 -0.00753232 1.1801629e-38 292 246
-0.03389544 0.71600002 -0.00753232 1.1801629e-38 293 246
-0.032548878 0.71399999 -0.0075112795 1.1895938e-38 294 246
-0.031253166 0.713 -0.0075007593 1.1895938e-38 295 246
-0.029918881 0.71100003 -0.0074797203 1.2447297e-38 296 246
-0.028631933 0.70999998 -0.0074691991 1.2631686e-38 297 246
-0.027387066 0.70999998 -0.0074691991 1.2723521e-38 298 246
-0.026068559 0.708 -0.0074481601 1.2723521e-38 299 246
-0.024827199 0.708 -0.0074481601 1.2906833e-38 300 246
-0.023585839 0.708 -0.0074481601 1.2999027e-38 301 246
-0.022344479 0.708 -0.0074481601 1.2814639e-38 302 246
-0.021073313 0.70700002 -0.0074376399 1.2906833e-38 303 246
-0.019833706 0.70700002 -0.0074376399 1.2906475e-38 304 246
-0.018567799 0.70599997 -0.0074271196 1.2906475e-38 305 246
-0.017329946 0.70599997 -0.0074271196 1.2813922e-38 306 246
-0.016092092 0.70599997 -0.0074271196 1.2629892e-38 307 246
-0.014812159 0.704 -0.0074060797 1.2537339e-38 308 246
-0.013577812 0.704 -0.0074060797 1.2445145e-38 309 246
-0.012343466 0.704 -0.0074060797 1.2169282e-38 310 246
-0.01109334 0.70300001 -0.0073955595 1.2169282e-38 311 246
-0.0098607466 0.70300001 -0.0073955595 1.2352595e-38 312 246
-0.0086281532 0.70300001 -0.0073955595 1.2352595e-38 313 246
-0.0073955595 0.70300001 -0.0073955595 1.2996159e-38 314 246
-0.0061629666 0.70300001 -0.0073955595 1.3088713e-38 315 246
-0.0049303733 0.70300001 -0.0073955595 1.3274178e-38 316 246
-0.0036977797 0.70300001 -0.0073955595 1.272101e-38 317 246
-0.0024651866 0.70300001 -0.0073955595 1.2352233e-38 318 246
-0.0012325933 0.70300001 -0.0073955595 1.207565e-38 319 246
0 0.70300001 -0.0073955595 1.1983097e-38 320 246
0.0012325933 0.70300001 -0.0073955595 1.1706873e-38 321 246
0.0024651866 0.70300001 -0.0073955595 1.1521767e-38 322 246
0.0037030398 0.704 -0.0074060797 1.1060796e-38 323 246
0.0049373866 0.704 -0.0074060797 1.0966091e-38 324 246
0.0061717331 0.704 -0.0074060797 1.0597314e-38 325 246
0.0074060797 0.704 -0.0074060797 1.0044149e-38 326 246
0.0086404262 0.704 -0.0074060797 9.9519544e-39 327 246
0.0099028256 0.70599997 -0.0074271196 9.3083885e-39 328 246
0.011156459 0.70700002 -0.0074376399 9.0314471e-39 329 246
0.012396066 0.70700002 -0.0074376399 8.6630289e-39 330 246
0.013654959 0.708 -0.0074481601 8.5708347e-39 331 246
0.01489632 0.708 -0.0074481601 8.47793e-39 332 246
0.016183265 0.70999998 -0.0074691991 8.2938989e-39 333 246
0.017428132 0.70999998 -0.0074691991 8.659457e-39 334 246
0.018672999 0.70999998 -0.0074691991 8.659457e-39 335 246
0.01994592 0.71100003 -0.0074797203 8.5661894e-39 336 246
0.021192541 0.71100003 -0.0074797203 8.4739923e-39 337 246
0.022502279 0.713 -0.0075007593 8.5647558e-39 338 246
0.023852346 0.71600002 -0.00753232 8.6569515e-39 339 246
0.0251428 0.71700001 -0.0075428397 8.564753e-39 340 246
0.026510401 0.72000003 -0.0075743999 7.7353525e-39 341 246
0.027772799 0.72000003 -0.0075743999 8.6605808e-39 342 246
0.029115854 0.722 -0.0075954394 1.3086331e-38 343 246
0.030381758 0.722 -0.0075954394 1.5208664e-38 344 246
0.031647664 0.722 -0.0075954394 1.6499402e-38 345 246
-0.043100435 0.72299999 -0.0088736191 1.4657621e-38 286 247
-0.041774917 0.722 -0.0088613462 1.3551275e-38 287 247
-0.040509012 0.722 -0.0088613462 1.3092791e-38 288 247
-0.039134402 0.72000003 -0.0088367993 1.2355226e-38 289 247
-0.037819397 0.71899998 -0.0088245263 1.1803091e-38 290 247
-0.036457058 0.71700001 -0.0087999795 1.1434307e-38 291 247
-0.035150826 0.71600002 -0.0087877065 1.1712288e-38 292 247
-0.033800758 0.71399999 -0.0087631596 1.1712288e-38 293 247
-0.032503292 0.713 -0.0087508867 1.1803389e-38 294 247
-0.031253166 0.713 -0.0087508867 1.1895585e-38 295 247
-0.029918881 0.71100003 -0.0087263398 1.1896288e-38 296 247
-0.028631933 0.70999998 -0.0087140659 1.2080319e-38 297 247
-0.027309919 0.708 -0.008689519 1.2080673e-38 298 247
-0.026068559 0.708 -0.008689519 1.2172867e-38 299 247
-0.024827199 0.708 -0.008689519 1.2448015e-38 300 247
-0.023552528 0.70700002 -0.008677247 1.2448015e-38 301 247
-0.022312919 0.70700002 -0.008677247 1.2447297e-38 302 247
-0.021073313 0.70700002 -0.008677247 1.2631327e-38 303 247
-0.019805651 0.70599997 -0.0086649731 1.2355108e-38 304 247
-0.018567799 0.70599997 -0.0086649731 1.2355108e-38 305 247
-0.017329946 0.70599997 -0.0086649731 1.2262916e-38 306 247
-0.016046507 0.704 -0.0086404262 1.217072e-38 307 247
-0.014812159 0.704 -0.0086404262 1.2170001e-38 308 247
-0.013558527 0.70300001 -0.0086281532 1.2077447e-38 309 247
-0.012325933 0.70300001 -0.0086281532 1.1984897e-38 310 247
-0.01109334 0.70300001 -0.0086281532 1.1984897e-38 311 247
-0.0098607466 0.70300001 -0.0086281532 1.1801231e-38 312 247
-0.0086281532 0.70300001 -0.0086281532 1.1893787e-38 313 247
-0.0073955595 0.70300001 -0.0086281532 1.2352607e-38 314 247
-0.0061629666 0.70300001 -0.0086281532 1.2629553e-38 315 247
-0.0049303733 0.70300001 -0.0086281532 1.3180923e-38 316 247
-0.0036977797 0.70300001 -0.0086281532 1.2719945e-38 317 247
-0.0024581731 0.70099998 -0.0086036054 1.2442992e-38 318 247
-0.0012290865 0.70099998 -0.0086036054 1.2074574e-38 319 247
0 0.70099998 -0.0086036054 1.1706873e-38 320 247
0.0012290865 0.70099998 -0.0086036054 1.161432e-38 321 247
0.0024651866 0.70300001 -0.0086281532 1.1612168e-38 322 247
0.0036977797 0.70300001 -0.0086281532 1.1243391e-38 323 247
0.0049373866 0.704 -0.0086404262 1.0966091e-38 324 247
0.0061717331 0.704 -0.0086404262 1.0505479e-38 325 247
0.0074060797 0.704 -0.0086404262 1.0319655e-38 326 247
0.0086404262 0.704 -0.0086404262 1.0042714e-38 327 247
0.0099028256 0.70599997 -0.0086649731 9.4917008e-39 328 247
0.011156459 0.70700002 -0.008677247 9.1229238e-39 329 247
0.012396066 0.70700002 -0.008677247 8.8456237e-39 330 247
0.013635674 0.70700002 -0.008677247 8.7534295e-39 331 247
0.01489632 0.708 -0.008689519 8.476858e-39 332 247
0.016183265 0.70999998 -0.0087140659 8.3846624e-39 333 247
0.017428132 0.70999998 -0.0087140659 8.3835932e-39 334 247
0.018672999 0.70999998 -0.0087140659 8.3835932e-39 335 247
0.01994592 0.71100003 -0.0087263398 8.4743567e-39 336 247
0.021192541 0.71100003 -0.0087263398 8.1981285e-39 337 247
0.022502279 0.713 -0.0087508867 8.3803716e-39 338 247
0.023852346 0.71600002 -0.0087877065 8.3803716e-39 339 247
0.0251428 0.71700001 -0.0087999795 8.3803716e-39 340 247
0.026510401 0.72000003 -0.0088367993 7.6428065e-39 341 247
0.027772799 0.72000003 -0.0088367993 7.9222969e-39 342 247
0.029115854 0.722 -0.0088613462 1.1702316e-38 343 247
0.030381758 0.722 -0.0088613462 1.4656199e-38 344 247
0.031647664 0.722 -0.0088613462 1.6592307e-38 345 247
-0.044368099 0.72299999 -0.01014128 1.5482008e-38 285 248
-0.043100435 0.72299999 -0.01014128 1.2725438e-38 286 248
-0.041659199 0.72000003 -0.010099201 9.1298084e-39 287 248
-0.040396802 0.72000003 -0.010099201 9.7765847e-39 288 248
-0.039080046 0.71899998 -0.010085173 1.1067324e-38 289 248
-0.037714198 0.71700001 -0.01005712 1.1804889e-38 290 248
-0.036406212 0.71600002 -0.010043093 1.1712693e-38 291 248
-0.035052639 0.71399999 -0.01001504 1.180557e-38 292 248
-0.033800758 0.71399999 -0.01001504 1.1252396e-38 293 248
-0.032503292 0.713 -0.010001013 1.1803737e-38 294 248
-0.031165501 0.71100003 -0.0099729598 1.1711541e-38 295 248
-0.029876797 0.70999998 -0.0099589331 1.1895208e-38 296 248
-0.028631933 0.70999998 -0.0099589331 1.2079955e-38 297 248
-0.027309919 0.708 -0.0099308798 1.2171793e-38 298 248
-0.02603174 0.70700002 -0.0099168532 1.2171793e-38 299 248
-0.024792133 0.70700002 -0.0099168532 1.1988847e-38 300 248
-0.023519212 0.70599997 -0.0099028256 1.1988847e-38 301 248
-0.022281358 0.70599997 -0.0099028256 1.2263992e-38 302 248
-0.021043506 0.70599997 -0.0099028256 1.2263992e-38 303 248
-0.019805651 0.70599997 -0.0099028256 1.2262913e-38 304 248
-0.018567799 0.70599997 -0.0099028256 1.2262913e-38 305 248
-0.017280852 0.704 -0.0098747732 1.2262913e-38 306 248
-0.016046507 0.704 -0.0098747732 1.1986686e-38 307 248
-0.014812159 0.704 -0.0098747732 1.2077803e-38 308 248
-0.013558527 0.70300001 -0.0098607466 1.1985608e-38 309 248
-0.012325933 0.70300001 -0.0098607466 1.1801221e-38 310 248
-0.01109334 0.70300001 -0.0098607466 1.1801221e-38 311 248
-0.0098607466 0.70300001 -0.0098607466 1.1801221e-38 312 248
-0.0086281532 0.70300001 -0.0098607466 1.1801221e-38 313 248
-0.0073955595 0.70300001 -0.0098607466 1.2168926e-38 314 248
-0.0061629666 0.70300001 -0.0098607466 1.2076729e-38 315 248
-0.0049303733 0.70300001 -0.0098607466 1.2535904e-38 316 248
-0.0036977797 0.70300001 -0.0098607466 1.225968e-38 317 248
-0.0024581731 0.70099998 -0.0098326923 1.2167486e-38 318 248
-0.0012290865 0.70099998 -0.0098326923 1.1890903e-38 319 248
0 0.70099998 -0.0098326923 1.161432e-38 320 248
0.0012290865 0.70099998 -0.0098326923 1.1429573e-38 321 248
0.0024651866 0.70300001 -0.0098607466 1.1336303e-38 322 248
0.0036977797 0.70300001 -0.0098607466 1.1059361e-38 323 248
0.0049303733 0.70300001 -0.0098607466 1.059839e-38 324 248
0.0061717331 0.704 -0.0098747732 1.0322166e-38 325 248
0.0074060797 0.704 -0.0098747732 1.0044149e-38 326 248
0.0086404262 0.704 -0.0098747732 9.8597602e-39 327 248
0.0099028256 0.70599997 -0.0099028256 9.2158355e-39 328 248
0.011140679 0.70599997 -0.0099028256 8.9392528e-39 329 248
0.012396066 0.70700002 -0.0099168532 8.6619555e-39 330 248
0.013635674 0.70700002 -0.0099168532 8.5697599e-39 331 248
0.01489632 0.708 -0.0099308798 8.4772111e-39 332 248
0.01613768 0.708 -0.0099308798 8.2928199e-39 333 248
0.017428132 0.70999998 -0.0099589331 8.3839463e-39 334 248
0.018672999 0.70999998 -0.0099589331 8.2917507e-39 335 248
0.019917866 0.70999998 -0.0099589331 8.4736364e-39 336 248
0.021192541 0.71100003 -0.0099729598 8.2892451e-39 337 248
0.022502279 0.713 -0.010001013 8.3803716e-39 338 248
0.023752406 0.713 -0.010001013 8.2881759e-39 339 248
0.0251428 0.71700001 -0.01005712 8.1963461e-39 340 248
0.026510401 0.72000003 -0.010099201 7.9201193e-39 341 248
0.027849946 0.722 -0.010127253 7.4613216e-39 342 248
0.029115854 0.722 -0.010127253 1.0134995e-38 343 248
0.030381758 0.722 -0.010127253 1.4287414e-38 344 248
0.031647664 0.722 -0.010127253 1.6315717e-38 345 248
-0.044368099 0.72299999 -0.01140894 1.4836994e-38 285 249
-0.043040827 0.722 -0.01139316 1.1343933e-38 286 249
-0.041659199 0.72000003 -0.011361601 9.130879e-39 287 249
-0.040396802 0.72000003 -0.011361601 1.0053155e-38 288 249
-0.038971342 0.71700001 -0.01131426 1.1343894e-38 289 249
-0.037714198 0.71700001 -0.01131426 1.1898514e-38 290 249
-0.036406212 0.71600002 -0.01129848 1.1898514e-38 291 249
-0.035052639 0.71399999 -0.011266919 1.1897762e-38 292 249
-0.033753417 0.713 -0.011251139 1.1344947e-38 293 249
-0.032503292 0.713 -0.011251139 1.1619708e-38 294 249
-0.031165501 0.71100003 -0.01121958 1.1619708e-38 295 249
-0.029876797 0.70999998 -0.011203799 1.1711541e-38 296 249
-0.02855128 0.708 -0.01117224 1.1711541e-38 297 249
-0.027309919 0.708 -0.01117224 1.1621146e-38 298 249
-0.02603174 0.70700002 -0.011156459 1.1621146e-38 299 249
-0.024757065 0.70599997 -0.011140679 1.1713342e-38 300 249
-0.023452586 0.704 -0.011109119 1.1713342e-38 301 249
-0.022218239 0.704 -0.011109119 1.1896651e-38 302 249
-0.021043506 0.70599997 -0.011140679 1.1896651e-38 303 249
-0.019749546 0.704 -0.011109119 1.2079601e-38 304 249
-0.018515198 0.704 -0.011109119 1.2079601e-38 305 249
-0.017280852 0.704 -0.011109119 1.1987402e-38 306 249
-0.016023712 0.70300001 -0.01109334 1.1895208e-38 307 249
-0.014791119 0.70300001 -0.01109334 1.1801937e-38 308 249
-0.013558527 0.70300001 -0.01109334 1.1709743e-38 309 249
-0.012325933 0.70300001 -0.01109334 1.1341685e-38 310 249
-0.01109334 0.70300001 -0.01109334 1.1341685e-38 311 249
-0.0098326923 0.70099998 -0.011061779 1.161684e-38 312 249
-0.0086036054 0.70099998 -0.011061779 1.161684e-38 313 249
-0.0073745195 0.70099998 -0.011061779 1.161684e-38 314 249
-0.0061454331 0.70099998 -0.011061779 1.1524644e-38 315 249
-0.0049163462 0.70099998 -0.011061779 1.1707591e-38 316 249
-0.0036872597 0.70099998 -0.011061779 1.1800144e-38 317 249
-0.0024581731 0.70099998 -0.011061779 1.1706515e-38 318 249
-0.0012290865 0.70099998 -0.011061779 1.1521767e-38 319 249
0 0.70099998 -0.011061779 1.133702e-38 320 249
0.0012290865 0.70099998 -0.011061779 1.1244826e-38 321 249
0.0024581731 0.70099998 -0.011061779 1.0968243e-38 322 249
0.0036977797 0.70300001 -0.01109334 1.0783496e-38 323 249
0.0049303733 0.70300001 -0.01109334 1.0414361e-38 324 249
0.0061629666 0.70300001 -0.01109334 1.0229972e-38 325 249
0.0074060797 0.704 -0.011109119 1.022782e-38 326 249
0.0086404262 0.704 -0.011109119 1.0043072e-38 327 249
0.0098747732 0.704 -0.011109119 9.3991478e-39 328 249
0.011140679 0.70599997 -0.011140679 9.3069536e-39 329 249
0.012378532 0.70599997 -0.011140679 8.9378179e-39 330 249
0.013616386 0.70599997 -0.011140679 8.7534295e-39 331 249
0.01487528 0.70700002 -0.011156459 8.6608793e-39 332 249
0.01613768 0.708 -0.01117224 8.3842938e-39 333 249
0.017379038 0.708 -0.01117224 8.2917507e-39 334 249
0.0186204 0.708 -0.01117224 8.1995536e-39 335 249
0.019917866 0.70999998 -0.011203799 8.3814408e-39 336 249
0.021192541 0.71100003 -0.01121958 8.2892451e-39 337 249
0.022439159 0.71100003 -0.01121958 8.1956244e-39 338 249
0.023752406 0.713 -0.011251139 8.1956244e-39 339 249
0.025037598 0.71399999 -0.011266919 7.920485e-39 340 249
0.02647358 0.71899998 -0.01134582 8.0126807e-39 341 249
0.027772799 0.72000003 -0.011361601 7.5524382e-39 342 249
0.029035201 0.72000003 -0.011361601 8.9353727e-39 343 249
0.030381758 0.722 -0.01139316 1.3273259e-38 344 249
0.031647664 0.722 -0.01139316 1.6039486e-38 345 249
-0.045572639 0.722 -0.012659066 1.6773819e-38 284 250
-0.044306733 0.722 -0.012659066 1.3823917e-38 285 250
-0.043040827 0.722 -0.012659066 1.023866e-38 286 250
-0.041659199 0.72000003 -0.012624 9.2241494e-39 287 250
-0.040340692 0.71899998 -0.012606465 1.079072e-38 288 250
-0.038971342 0.71700001 -0.0125714 1.1988904e-38 289 250
-0.037661601 0.71600002 -0.012553867 1.2450261e-38 290 250
-0.036406212 0.71600002 -0.012553867 1.2358065e-38 291 250
-0.035052639 0.71399999 -0.012518799 1.1621551e-38 292 250
-0.033753417 0.713 -0.012501267 1.1068377e-38 293 250
-0.032412119 0.71100003 -0.0124662 1.1436046e-38 294 250
-0.031121666 0.70999998 -0.012448666 1.134385e-38 295 250
-0.02979264 0.708 -0.0124136 1.1435677e-38 296 250
-0.02855128 0.708 -0.0124136 1.1712263e-38 297 250
-0.027271347 0.70700002 -0.012396066 1.1528595e-38 298 250
-0.025994917 0.70599997 -0.012378532 1.1528595e-38 299 250
-0.024686933 0.704 -0.012343466 1.1712989e-38 300 250
-0.023452586 0.704 -0.012343466 1.189702e-38 301 250
-0.022218239 0.704 -0.012343466 1.189737e-38 302 250
-0.021043506 0.70599997 -0.012378532 1.189737e-38 303 250
-0.019749546 0.704 -0.012343466 1.2264344e-38 304 250
-0.018515198 0.704 -0.012343466 1.2172149e-38 305 250
-0.017256306 0.70300001 -0.012325933 1.2079955e-38 306 250
-0.016023712 0.70300001 -0.012325933 1.1803372e-38 307 250
-0.014791119 0.70300001 -0.012325933 1.1709743e-38 308 250
-0.013519952 0.70099998 -0.012290866 1.1617549e-38 309 250
-0.012290866 0.70099998 -0.012290866 1.1248415e-38 310 250
-0.011061779 0.70099998 -0.012290866 1.1248415e-38 311 250
-0.0098326923 0.70099998 -0.012290866 1.1156582e-38 312 250
-0.0086036054 0.70099998 -0.012290866 1.1156582e-38 313 250
-0.0073745195 0.70099998 -0.012290866 1.1155862e-38 314 250
-0.0061454331 0.70099998 -0.012290866 1.1155862e-38 315 250
-0.0049163462 0.70099998 -0.012290866 1.1062949e-38 316 250
-0.0036872597 0.70099998 -0.012290866 1.1155143e-38 317 250
-0.0024581731 0.70099998 -0.012290866 1.124662e-38 318 250
-0.0012290865 0.70099998 -0.012290866 1.0877843e-38 319 250
0 0.70099998 -0.012290866 1.0877843e-38 320 250
0.0012290865 0.70099998 -0.012290866 1.0785649e-38 321 250
