# .PCD v.7 - Point Cloud Data file format
FIELDS x y z rgb imX imY
SIZE 4 4 4 4 4 4
TYPE F F F F F F
COUNT 1 1 1 1 1 1
WIDTH 837
HEIGHT 1
VIEWPOINT 0 0 0 1 0 0 0
POINTS 837
DATA ascii
-0.0087508867 0.713 -0.042504307 1.1698984e-38 313 274
-0.0074797203 0.71100003 -0.042385083 1.1607146e-38 314 274
-0.0062243328 0.70999998 -0.042325463 1.169934e-38 315 274
-0.0049654399 0.708 -0.042206239 1.1517104e-38 316 274
-0.0037188199 0.70700002 -0.042146627 1.1701492e-38 317 274
-0.0024757064 0.70599997 -0.042087011 1.1794045e-38 318 274
-0.0012378532 0.70599997 -0.042087011 1.2070991e-38 319 274
0 0.704 -0.041967787 1.2346518e-38 320 274
0.0012343467 0.704 -0.041967787 1.2715301e-38 321 274
0.0024651866 0.70300001 -0.041908171 1.271639e-38 322 274
0.0036977797 0.70300001 -0.041908171 1.290114e-38 323 274
0.0049163462 0.70099998 -0.041788943 1.271819e-38 324 274
0.0061366665 0.69999999 -0.041729331 1.2810386e-38 325 274
0.0073639993 0.69999999 -0.041729331 1.2627077e-38 326 274
0.0085913334 0.69999999 -0.041729331 1.2903305e-38 327 274
0.0097906133 0.69800001 -0.041610107 1.2626345e-38 328 274
0.01101444 0.69800001 -0.041610107 1.2165367e-38 329 274
0.012238266 0.69800001 -0.041610107 1.2163908e-38 330 274
0.013442807 0.69700003 -0.041550495 1.1979158e-38 331 274
0.01466488 0.69700003 -0.041550495 1.1978793e-38 332 274
0.015886955 0.69700003 -0.041550495 1.1886598e-38 333 274
0.017084479 0.69599998 -0.041490879 1.2069911e-38 334 274
0.018304799 0.69599998 -0.041490879 1.1793687e-38 335 274
0.019469013 0.69400001 -0.041371655 1.1792252e-38 336 274
0.020685827 0.69400001 -0.041371655 1.1700057e-38 337 274
0.021902639 0.69400001 -0.041371655 1.1607146e-38 338 274
0.023119451 0.69400001 -0.041371655 1.1330922e-38 339 274
0.024336265 0.69400001 -0.041371655 1.1330922e-38 340 274
0.025553079 0.69400001 -0.041371655 1.1330922e-38 341 274
0.026769891 0.69400001 -0.041371655 1.151531e-38 342 274
0.027986705 0.69400001 -0.041371655 1.1330922e-38 343 274
0.029203519 0.69400001 -0.041371655 1.1329846e-38 344 274
0.030420333 0.69400001 -0.041371655 1.1329846e-38 345 274
0.031637147 0.69400001 -0.041371655 1.1329846e-38 346 274
0.032853961 0.69400001 -0.041371655 1.1237651e-38 347 274
0.034070771 0.69400001 -0.041371655 1.1053622e-38 348 274
0.035287585 0.69400001 -0.041371655 1.1053622e-38 349 274
0.036609598 0.69599998 -0.041490879 1.0961069e-38 350 274
0.037829921 0.69599998 -0.041490879 1.0961069e-38 351 274
0.039162453 0.69800001 -0.041610107 1.0776322e-38 352 274
0.040328421 0.69700003 -0.041550495 1.0591933e-38 353 274
0.041550495 0.69700003 -0.041550495 1.0590857e-38 354 274
0.042833932 0.69800001 -0.041610107 1.0498663e-38 355 274
0.04405776 0.69800001 -0.041610107 1.0314992e-38 356 274
0.04541133 0.69999999 -0.041729331 1.0222797e-38 357 274
0.046638668 0.69999999 -0.041729331 1.040611e-38 358 274
0.047934376 0.70099998 -0.041788943 1.040611e-38 359 274
0.049163464 0.70099998 -0.041788943 1.0130244e-38 360 274
0.050536323 0.70300001 -0.041908171 1.003805e-38 361 274
0.051842559 0.704 -0.041967787 1.0130962e-38 362 274
0.053076904 0.704 -0.041967787 1.031535e-38 363 274
0.054465543 0.70599997 -0.042087011 1.0132756e-38 364 274
0.055703394 0.70599997 -0.042087011 1.0317144e-38 365 274
0.057021905 0.70700002 -0.042146627 1.0408985e-38 366 274
0.058343921 0.708 -0.042206239 1.0224592e-38 367 274
0.059753593 0.70999998 -0.042325463 1.077888e-38 368 274
0.060998458 0.70999998 -0.042325463 1.2530599e-38 369 274
-0.016456785 0.722 -0.044306733 1.3636634e-38 307 275
-0.015190879 0.722 -0.044306733 1.3174187e-38 308 275
-0.013924973 0.722 -0.044306733 1.2160036e-38 309 275
-0.01129848 0.71600002 -0.043938532 1.2340423e-38 311 275
-0.010043093 0.71600002 -0.043938532 1.1882294e-38 312 275
-0.0087631596 0.71399999 -0.043815799 1.1882294e-38 313 275
-0.0074797203 0.71100003 -0.043631699 1.1698981e-38 314 275
-0.0062243328 0.70999998 -0.043570329 1.1883011e-38 315 275
-0.0049654399 0.708 -0.043447599 1.1517104e-38 316 275
-0.0037188199 0.70700002 -0.043386232 1.1701492e-38 317 275
-0.0024757064 0.70599997 -0.043324865 1.1701851e-38 318 275
-0.0012378532 0.70599997 -0.043324865 1.1886244e-38 319 275
0 0.704 -0.043202132 1.2070653e-38 320 275
0.0012343467 0.704 -0.043202132 1.2255046e-38 321 275
0.0024651866 0.70300001 -0.043140765 1.225578e-38 322 275
0.0036977797 0.70300001 -0.043140765 1.244053e-38 323 275
0.0049163462 0.70099998 -0.043018032 1.2349778e-38 324 275
0.0061366665 0.69999999 -0.042956665 1.2626724e-38 325 275
0.0073639993 0.69999999 -0.042956665 1.2627796e-38 326 275
0.0085913334 0.69999999 -0.042956665 1.2719993e-38 327 275
0.0097906133 0.69800001 -0.042833932 1.2717822e-38 328 275
0.01101444 0.69800001 -0.042833932 1.2256484e-38 329 275
0.012238266 0.69800001 -0.042833932 1.2346865e-38 330 275
0.013442807 0.69700003 -0.042772565 1.1978442e-38 331 275
0.01466488 0.69700003 -0.042772565 1.2069912e-38 332 275
0.015886955 0.69700003 -0.042772565 1.1977716e-38 333 275
0.017084479 0.69599998 -0.042711195 1.197736e-38 334 275
0.018304799 0.69599998 -0.042711195 1.1701134e-38 335 275
0.019469013 0.69400001 -0.042588469 1.1791175e-38 336 275
0.020685827 0.69400001 -0.042588469 1.1606787e-38 337 275
0.021902639 0.69400001 -0.042588469 1.1514593e-38 338 275
0.023119451 0.69400001 -0.042588469 1.1238369e-38 339 275
0.024336265 0.69400001 -0.042588469 1.1239086e-38 340 275
0.025553079 0.69400001 -0.042588469 1.1239086e-38 341 275
0.026769891 0.69400001 -0.042588469 1.1239445e-38 342 275
0.027986705 0.69400001 -0.042588469 1.1147251e-38 343 275
0.029203519 0.69400001 -0.042588469 1.1054698e-38 344 275
0.030420333 0.69400001 -0.042588469 1.0870668e-38 345 275
0.031637147 0.69400001 -0.042588469 1.1053622e-38 346 275
0.032853961 0.69400001 -0.042588469 1.0961069e-38 347 275
0.034070771 0.69400001 -0.042588469 1.0961069e-38 348 275
0.035287585 0.69400001 -0.042588469 1.1053263e-38 349 275
0.036609598 0.69599998 -0.042711195 1.0685203e-38 350 275
0.037829921 0.69599998 -0.042711195 1.0593009e-38 351 275
0.039106347 0.69700003 -0.042772565 1.0683769e-38 352 275
0.040328421 0.69700003 -0.042772565 1.0407545e-38 353 275
0.041550495 0.69700003 -0.042772565 1.0498304e-38 354 275
0.042833932 0.69800001 -0.042833932 1.040611e-38 355 275
0.04405776 0.69800001 -0.042833932 1.0130603e-38 356 275
0.04541133 0.69999999 -0.042956665 1.0038409e-38 357 275
0.046638668 0.69999999 -0.042956665 1.003805e-38 358 275
0.047934376 0.70099998 -0.043018032 1.003805e-38 359 275
0.049163464 0.70099998 -0.043018032 9.578514e-39 360 275
0.050536323 0.70300001 -0.043140765 9.578514e-39 361 275
0.051842559 0.704 -0.043202132 9.6717844e-39 362 275
0.053076904 0.704 -0.043202132 9.8561729e-39 363 275
0.054465543 0.70599997 -0.043324865 9.8568903e-39 364 275
0.055703394 0.70599997 -0.043324865 1.004128e-38 365 275
0.057021905 0.70700002 -0.043386232 1.0316435e-38 366 275
0.058343921 0.708 -0.043447599 1.0408991e-38 367 275
0.059585281 0.708 -0.043447599 1.0871076e-38 368 275
0.060826641 0.708 -0.043447599 1.2438402e-38 369 275
-0.0138864 0.72000003 -0.045446403 1.2253307e-38 309 276
-0.012606465 0.71899998 -0.045383278 1.2250029e-38 310 276
-0.01129848 0.71600002 -0.045193922 1.2157834e-38 311 276
-0.010043093 0.71600002 -0.045193922 1.1791177e-38 312 276
-0.0087631596 0.71399999 -0.045067675 1.1791177e-38 313 276
-0.0075007593 0.713 -0.045004558 1.1607504e-38 314 276
-0.0062330998 0.71100003 -0.044878319 1.1699699e-38 315 276
-0.0049794666 0.70999998 -0.044815198 1.1700416e-38 316 276
-0.00372408 0.708 -0.044688959 1.179261e-38 317 276
-0.0024792133 0.70700002 -0.044625837 1.1701134e-38 318 276
-0.0012378532 0.70599997 -0.044562716 1.1977716e-38 319 276
0 0.704 -0.044436477 1.2160682e-38 320 276
0.0012343467 0.704 -0.044436477 1.2437268e-38 321 276
0.0024651866 0.70300001 -0.04437336 1.2253971e-38 322 276
0.0036977797 0.70300001 -0.04437336 1.2438364e-38 323 276
0.0049163462 0.70099998 -0.044247117 1.225578e-38 324 276
0.0061366665 0.69999999 -0.044183996 1.244053e-38 325 276
0.0073639993 0.69999999 -0.044183996 1.2442329e-38 326 276
0.0085913334 0.69999999 -0.044183996 1.2350134e-38 327 276
0.0097906133 0.69800001 -0.04405776 1.2348332e-38 328 276
0.01101444 0.69800001 -0.04405776 1.1979551e-38 329 276
0.012238266 0.69800001 -0.04405776 1.207029e-38 330 276
0.013442807 0.69700003 -0.043994639 1.188554e-38 331 276
0.01466488 0.69700003 -0.043994639 1.1976288e-38 332 276
0.015886955 0.69700003 -0.043994639 1.1884091e-38 333 276
0.017084479 0.69599998 -0.043931518 1.1884094e-38 334 276
0.018304799 0.69599998 -0.043931518 1.1884094e-38 335 276
0.019469013 0.69400001 -0.043805279 1.1699703e-38 336 276
0.020685827 0.69400001 -0.043805279 1.1330922e-38 337 276
0.021902639 0.69400001 -0.043805279 1.1330563e-38 338 276
0.023119451 0.69400001 -0.043805279 1.1238369e-38 339 276
0.024336265 0.69400001 -0.043805279 1.1239086e-38 340 276
0.025553079 0.69400001 -0.043805279 1.1239086e-38 341 276
0.026769891 0.69400001 -0.043805279 1.1146533e-38 342 276
0.027986705 0.69400001 -0.043805279 1.1054339e-38 343 276
0.029203519 0.69400001 -0.043805279 1.0778115e-38 344 276
0.030420333 0.69400001 -0.043805279 1.0685921e-38 345 276
0.031637147 0.69400001 -0.043805279 1.0868516e-38 346 276
0.032853961 0.69400001 -0.043805279 1.0868516e-38 347 276
0.034070771 0.69400001 -0.043805279 1.0684845e-38 348 276
0.035287585 0.69400001 -0.043805279 1.0684845e-38 349 276
0.036609598 0.69599998 -0.043931518 1.0684845e-38 350 276
0.037829921 0.69599998 -0.043931518 1.0592651e-38 351 276
0.039106347 0.69700003 -0.043994639 1.0683051e-38 352 276
0.040328421 0.69700003 -0.043994639 1.0498663e-38 353 276
0.041550495 0.69700003 -0.043994639 1.040611e-38 354 276
0.042833932 0.69800001 -0.04405776 1.0313915e-38 355 276
0.04405776 0.69800001 -0.04405776 9.9472909e-39 356 276
0.04541133 0.69999999 -0.044183996 9.8547379e-39 357 276
0.046638668 0.69999999 -0.044183996 9.7625437e-39 358 276
0.047934376 0.70099998 -0.044247117 9.7625437e-39 359 276
0.049163464 0.70099998 -0.044247117 9.5777965e-39 360 276
0.050536323 0.70300001 -0.04437336 9.5777965e-39 361 276
0.051842559 0.704 -0.044436477 9.7629025e-39 362 276
0.053076904 0.704 -0.044436477 9.9472909e-39 363 276
0.054465543 0.70599997 -0.044562716 9.8561729e-39 364 276
0.055703394 0.70599997 -0.044562716 1.0040203e-38 365 276
0.057021905 0.70700002 -0.044625837 1.0316791e-38 366 276
0.058343921 0.708 -0.044688959 1.0316791e-38 367 276
0.059585281 0.708 -0.044688959 1.0778877e-38 368 276
-0.015190879 0.722 -0.046838548 1.3359299e-38 308 277
-0.0138864 0.72000003 -0.0467088 1.2345505e-38 309 277
-0.012606465 0.71899998 -0.046643924 1.2342228e-38 310 277
-0.01131426 0.71700001 -0.046514176 1.2249673e-38 311 277
-0.010043093 0.71600002 -0.046449307 1.1883375e-38 312 277
-0.0087631596 0.71399999 -0.046319555 1.179118e-38 313 277
-0.0075007593 0.713 -0.046254687 1.1699699e-38 314 277
-0.0062330998 0.71100003 -0.046124939 1.1699699e-38 315 277
-0.0049794666 0.70999998 -0.046060063 1.1516386e-38 316 277
-0.00372408 0.708 -0.045930319 1.1700416e-38 317 277
-0.0024792133 0.70700002 -0.045865446 1.1608939e-38 318 277
-0.0012378532 0.70599997 -0.04580057 1.1793687e-38 319 277
0 0.70599997 -0.04580057 1.197664e-38 320 277
0.0012343467 0.704 -0.045670826 1.2161392e-38 321 277
0.0024651866 0.70300001 -0.04560595 1.2069206e-38 322 277
0.0036977797 0.70300001 -0.04560595 1.2161401e-38 323 277
0.0049163462 0.70099998 -0.045476202 1.1978455e-38 324 277
0.0061366665 0.69999999 -0.04541133 1.2163206e-38 325 277
0.0073639993 0.69999999 -0.04541133 1.198026e-38 326 277
0.0085913334 0.69999999 -0.04541133 1.1887705e-38 327 277
0.0097906133 0.69800001 -0.045281585 1.2070656e-38 328 277
0.01101444 0.69800001 -0.045281585 1.1885906e-38 329 277
0.012238266 0.69800001 -0.045281585 1.1793342e-38 330 277
0.013462093 0.69800001 -0.045281585 1.1701146e-38 331 277
0.01466488 0.69700003 -0.045216713 1.1791896e-38 332 277
0.015886955 0.69700003 -0.045216713 1.1791896e-38 333 277
0.017109027 0.69700003 -0.045216713 1.1791899e-38 334 277
0.018331099 0.69700003 -0.045216713 1.1699703e-38 335 277
0.019469013 0.69400001 -0.045022093 1.1515669e-38 336 277
0.020685827 0.69400001 -0.045022093 1.1330922e-38 337 277
0.021902639 0.69400001 -0.045022093 1.1238728e-38 338 277
0.023119451 0.69400001 -0.045022093 1.1238728e-38 339 277
0.024336265 0.69400001 -0.045022093 1.1146533e-38 340 277
0.025553079 0.69400001 -0.045022093 1.1054339e-38 341 277
0.026769891 0.69400001 -0.045022093 1.1053622e-38 342 277
0.027986705 0.69400001 -0.045022093 1.0961427e-38 343 277
0.029203519 0.69400001 -0.045022093 1.0868157e-38 344 277
0.030420333 0.69400001 -0.045022093 1.0775963e-38 345 277
0.031637147 0.69400001 -0.045022093 1.0775963e-38 346 277
0.032853961 0.69400001 -0.045022093 1.0775963e-38 347 277
0.034070771 0.69400001 -0.045022093 1.0775963e-38 348 277
0.035287585 0.69400001 -0.045022093 1.0775963e-38 349 277
0.036609598 0.69599998 -0.045151837 1.0683769e-38 350 277
0.037829921 0.69599998 -0.045151837 1.0591216e-38 351 277
0.039106347 0.69700003 -0.045216713 1.0590498e-38 352 277
0.040328421 0.69700003 -0.045216713 1.0498304e-38 353 277
0.041610107 0.69800001 -0.045281585 1.0313915e-38 354 277
0.042833932 0.69800001 -0.045281585 1.040611e-38 355 277
0.044183996 0.69999999 -0.04541133 9.9469322e-39 356 277
0.04541133 0.69999999 -0.04541133 9.7625437e-39 357 277
0.046638668 0.69999999 -0.04541133 9.6699908e-39 358 277
0.047934376 0.70099998 -0.045476202 9.5777965e-39 359 277
0.049163464 0.70099998 -0.045476202 9.5767203e-39 360 277
0.050536323 0.70300001 -0.04560595 9.5767203e-39 361 277
0.051842559 0.704 -0.045670826 9.4863198e-39 362 277
0.053076904 0.704 -0.045670826 9.7629025e-39 363 277
0.054465543 0.70599997 -0.04580057 9.7636199e-39 364 277
0.055703394 0.70599997 -0.04580057 1.0040203e-38 365 277
0.057021905 0.70700002 -0.045865446 1.0224595e-38 366 277
0.058343921 0.708 -0.045930319 1.0408988e-38 367 277
0.059585281 0.708 -0.045930319 1.1053666e-38 368 277
-0.015190879 0.722 -0.048104454 1.3268185e-38 308 278
-0.0138864 0.72000003 -0.0479712 1.2438424e-38 309 278
-0.012606465 0.71899998 -0.04790457 1.2342228e-38 310 278
-0.01131426 0.71700001 -0.04777132 1.2249673e-38 311 278
-0.010043093 0.71600002 -0.047704693 1.1974489e-38 312 278
-0.0087631596 0.71399999 -0.047571439 1.1882294e-38 313 278
-0.0075112795 0.71399999 -0.047571439 1.1883011e-38 314 278
-0.0062330998 0.71100003 -0.047371563 1.1883011e-38 315 278
-0.0049794666 0.70999998 -0.047304932 1.1516386e-38 316 278
-0.00372408 0.708 -0.047171678 1.1700775e-38 317 278
-0.0024792133 0.70700002 -0.047105055 1.1609298e-38 318 278
-0.0012378532 0.70599997 -0.047038425 1.1609298e-38 319 278
0 0.70599997 -0.047038425 1.1701134e-38 320 278
0.0012343467 0.704 -0.046905171 1.1793328e-38 321 278
0.0024651866 0.70300001 -0.046838548 1.1884091e-38 322 278
0.0036977797 0.70300001 -0.046838548 1.1976288e-38 323 278
0.0049163462 0.70099998 -0.046705291 1.1793698e-38 324 278
0.0061454331 0.70099998 -0.046705291 1.1793698e-38 325 278
0.0073639993 0.69999999 -0.046638668 1.1794066e-38 326 278
0.0085913334 0.69999999 -0.046638668 1.1609677e-38 327 278
0.0097906133 0.69800001 -0.046505414 1.1792992e-38 328 278
0.01101444 0.69800001 -0.046505414 1.1792992e-38 329 278
0.012238266 0.69800001 -0.046505414 1.1608952e-38 330 278
0.013462093 0.69800001 -0.046505414 1.1516756e-38 331 278
0.01468592 0.69800001 -0.046505414 1.1516032e-38 332 278
0.015886955 0.69700003 -0.046438783 1.1423836e-38 333 278
0.017109027 0.69700003 -0.046438783 1.1423839e-38 334 278
0.018331099 0.69700003 -0.046438783 1.1423839e-38 335 278
0.019469013 0.69400001 -0.046238903 1.1330925e-38 336 278
0.020685827 0.69400001 -0.046238903 1.1238369e-38 337 278
0.021902639 0.69400001 -0.046238903 1.1238372e-38 338 278
0.023119451 0.69400001 -0.046238903 1.1146176e-38 339 278
0.024336265 0.69400001 -0.046238903 1.0870312e-38 340 278
0.025553079 0.69400001 -0.046238903 1.0685921e-38 341 278
0.026769891 0.69400001 -0.046238903 1.0685562e-38 342 278
0.027986705 0.69400001 -0.046238903 1.0500815e-38 343 278
0.029203519 0.69400001 -0.046238903 1.0500098e-38 344 278
0.030420333 0.69400001 -0.046238903 1.0500098e-38 345 278
0.031637147 0.69400001 -0.046238903 1.0500098e-38 346 278
0.032853961 0.69400001 -0.046238903 1.0407903e-38 347 278
0.034168959 0.69599998 -0.046372157 1.0591574e-38 348 278
0.035389278 0.69599998 -0.046372157 1.0591574e-38 349 278
0.036609598 0.69599998 -0.046372157 1.0591216e-38 350 278
0.037884273 0.69700003 -0.046438783 1.0591216e-38 351 278
0.039106347 0.69700003 -0.046438783 1.0407186e-38 352 278
0.040328421 0.69700003 -0.046438783 1.0314992e-38 353 278
0.041610107 0.69800001 -0.046505414 1.0130962e-38 354 278
0.042833932 0.69800001 -0.046505414 9.9469322e-39 355 278
0.044183996 0.69999999 -0.046638668 9.8547379e-39 356 278
0.04541133 0.69999999 -0.046638668 9.7625437e-39 357 278
0.046638668 0.69999999 -0.046638668 9.6699908e-39 358 278
0.047934376 0.70099998 -0.046705291 9.5777965e-39 359 278
0.049303733 0.70300001 -0.046838548 9.4852436e-39 360 278
0.050608214 0.704 -0.046905171 9.4852436e-39 361 278
0.051842559 0.704 -0.046905171 9.394843e-39 362 278
0.053227689 0.70599997 -0.047038425 9.5792315e-39 363 278
0.054465543 0.70599997 -0.047038425 9.7636199e-39 364 278
0.055782299 0.70700002 -0.047105055 1.0040203e-38 365 278
0.057102561 0.708 -0.047171678 1.0040927e-38 366 278
0.058343921 0.708 -0.047171678 1.040971e-38 367 278
0.059585281 0.708 -0.047171678 1.1145865e-38 368 278
-0.0138864 0.72000003 -0.0492336 1.2530985e-38 309 279
-0.012606465 0.71899998 -0.049165215 1.2158928e-38 310 279
-0.01131426 0.71700001 -0.04902846 1.2066732e-38 311 279
-0.010043093 0.71600002 -0.048960082 1.1883744e-38 312 279
-0.0087631596 0.71399999 -0.048823316 1.1791548e-38 313 279
-0.0075007593 0.713 -0.048754938 1.1700057e-38 314 279
-0.0062330998 0.71100003 -0.048618179 1.1700057e-38 315 279
-0.0049794666 0.70999998 -0.048549797 1.1516745e-38 316 279
-0.00372408 0.708 -0.048413038 1.1516745e-38 317 279
-0.0024792133 0.70700002 -0.048344657 1.1609298e-38 318 279
-0.0012378532 0.70599997 -0.048276275 1.1609298e-38 319 279
0 0.70599997 -0.048276275 1.1700057e-38 320 279
0.0012343467 0.704 -0.048139516 1.1700057e-38 321 279
0.0024651866 0.70300001 -0.048071139 1.1975205e-38 322 279
0.0036977797 0.70300001 -0.048071139 1.1975205e-38 323 279
0.0049163462 0.70099998 -0.047934376 1.1791893e-38 324 279
0.0061454331 0.70099998 -0.047934376 1.1791893e-38 325 279
0.0073639993 0.69999999 -0.047865998 1.1884091e-38 326 279
0.0085913334 0.69999999 -0.047865998 1.1791896e-38 327 279
0.0098186666 0.69999999 -0.047865998 1.1791543e-38 328 279
0.01101444 0.69800001 -0.047729239 1.1791543e-38 329 279
0.012238266 0.69800001 -0.047729239 1.160823e-38 330 279
0.013462093 0.69800001 -0.047729239 1.1516035e-38 331 279
0.01468592 0.69800001 -0.047729239 1.1424192e-38 332 279
0.015886955 0.69700003 -0.047660861 1.1331639e-38 333 279
0.017109027 0.69700003 -0.047660861 1.1423475e-38 334 279
0.018331099 0.69700003 -0.047660861 1.1331281e-38 335 279
0.019525118 0.69599998 -0.047592476 1.1238728e-38 336 279
0.020685827 0.69400001 -0.047455717 1.1146533e-38 337 279
0.021902639 0.69400001 -0.047455717 1.1053624e-38 338 279
0.023119451 0.69400001 -0.047455717 1.0869593e-38 339 279
0.024336265 0.69400001 -0.047455717 1.0685203e-38 340 279
0.025553079 0.69400001 -0.047455717 1.0593009e-38 341 279
0.026769891 0.69400001 -0.047455717 1.0317861e-38 342 279
0.027986705 0.69400001 -0.047455717 1.0225309e-38 343 279
0.029203519 0.69400001 -0.047455717 1.0407186e-38 344 279
0.030420333 0.69400001 -0.047455717 1.0591216e-38 345 279
0.031637147 0.69400001 -0.047455717 1.0408262e-38 346 279
0.032853961 0.69400001 -0.047455717 1.0315709e-38 347 279
0.034168959 0.69599998 -0.047592476 1.0407545e-38 348 279
0.035389278 0.69599998 -0.047592476 1.0407545e-38 349 279
0.036609598 0.69599998 -0.047592476 1.0407186e-38 350 279
0.037884273 0.69700003 -0.047660861 1.0314992e-38 351 279
0.039106347 0.69700003 -0.047660861 1.0314992e-38 352 279
0.040328421 0.69700003 -0.047660861 1.0222797e-38 353 279
0.041610107 0.69800001 -0.047729239 1.0130244e-38 354 279
0.042833932 0.69800001 -0.047729239 1.0130244e-38 355 279
0.044183996 0.69999999 -0.047865998 9.8547379e-39 356 279
0.04541133 0.69999999 -0.047865998 9.762185e-39 357 279
0.046638668 0.69999999 -0.047865998 9.6699908e-39 358 279
0.047934376 0.70099998 -0.047934376 9.3012138e-39 359 279
0.049303733 0.70300001 -0.048071139 9.2093783e-39 360 279
0.050608214 0.704 -0.048139516 9.3019313e-39 361 279
0.051842559 0.704 -0.048139516 9.394843e-39 362 279
0.053227689 0.70599997 -0.048276275 9.4870372e-39 363 279
0.054465543 0.70599997 -0.048276275 9.6717844e-39 364 279
0.055782299 0.70700002 -0.048344657 9.8561729e-39 365 279
0.057102561 0.708 -0.048413038 1.0225309e-38 366 279
0.058508728 0.70999998 -0.048549797 1.0225309e-38 367 279
0.059753593 0.70999998 -0.048549797 1.0962553e-38 368 279
-0.012606465 0.71899998 -0.050425861 1.2619185e-38 310 280
-0.01131426 0.71700001 -0.0502856 1.2342238e-38 311 280
-0.010043093 0.71600002 -0.050215468 1.2158886e-38 312 280
-0.0087631596 0.71399999 -0.050075196 1.2158886e-38 313 280
-0.0075007593 0.713 -0.050005067 1.1791534e-38 314 280
-0.0062330998 0.71100003 -0.049864799 1.1791534e-38 315 280
-0.0049864799 0.71100003 -0.049864799 1.1608939e-38 316 280
-0.0037345996 0.70999998 -0.049794663 1.1516745e-38 317 280
-0.0024792133 0.70700002 -0.049584266 1.1516745e-38 318 280
-0.0012378532 0.70599997 -0.04951413 1.1516745e-38 319 280
0 0.70599997 -0.04951413 1.1516028e-38 320 280
0.0012343467 0.704 -0.049373865 1.1700057e-38 321 280
0.0024651866 0.70300001 -0.049303733 1.1700057e-38 322 280
0.0036977797 0.70300001 -0.049303733 1.1700057e-38 323 280
0.0049303733 0.70300001 -0.049303733 1.1700057e-38 324 280
0.0061454331 0.70099998 -0.049163464 1.1700057e-38 325 280
0.0073745195 0.70099998 -0.049163464 1.16997e-38 326 280
0.0085913334 0.69999999 -0.049093332 1.1791896e-38 327 280
0.0098186666 0.69999999 -0.049093332 1.1791543e-38 328 280
0.01101444 0.69800001 -0.048953064 1.1791543e-38 329 280
0.012238266 0.69800001 -0.048953064 1.1516038e-38 330 280
0.013462093 0.69800001 -0.048953064 1.1423483e-38 331 280
0.01468592 0.69800001 -0.048953064 1.1331641e-38 332 280
0.015909746 0.69800001 -0.048953064 1.1331641e-38 333 280
0.017109027 0.69700003 -0.048882935 1.114761e-38 334 280
0.018331099 0.69700003 -0.048882935 1.1055415e-38 335 280
0.019525118 0.69599998 -0.048812799 1.1146175e-38 336 280
0.020685827 0.69400001 -0.048672531 1.105398e-38 337 280
0.021902639 0.69400001 -0.048672531 1.0869593e-38 338 280
0.023119451 0.69400001 -0.048672531 1.0685203e-38 339 280
0.024336265 0.69400001 -0.048672531 1.0409697e-38 340 280
0.025553079 0.69400001 -0.048672531 1.0225309e-38 341 280
0.026769891 0.69400001 -0.048672531 1.0041638e-38 342 280
0.027986705 0.69400001 -0.048672531 9.8572491e-39 343 280
0.029203519 0.69400001 -0.048672531 1.0040561e-38 344 280
0.030420333 0.69400001 -0.048672531 1.0132756e-38 345 280
0.031728316 0.69599998 -0.048812799 1.0132397e-38 346 280
0.032948639 0.69599998 -0.048812799 1.0040203e-38 347 280
0.034168959 0.69599998 -0.048812799 1.0223515e-38 348 280
0.035389278 0.69599998 -0.048812799 1.0223515e-38 349 280
0.036609598 0.69599998 -0.048812799 1.0223156e-38 350 280
0.037884273 0.69700003 -0.048882935 1.0223156e-38 351 280
0.039106347 0.69700003 -0.048882935 1.0130962e-38 352 280
0.040328421 0.69700003 -0.048882935 9.9469322e-39 353 280
0.041610107 0.69800001 -0.048953064 9.8547379e-39 354 280
0.042833932 0.69800001 -0.048953064 9.8547379e-39 355 280
0.044183996 0.69999999 -0.049093332 9.762185e-39 356 280
0.04541133 0.69999999 -0.049093332 9.6699908e-39 357 280
0.046705291 0.70099998 -0.049163464 9.5777965e-39 358 280
0.047934376 0.70099998 -0.049163464 9.3012138e-39 359 280
0.049303733 0.70300001 -0.049303733 9.3019313e-39 360 280
0.050608214 0.704 -0.049373865 9.3019313e-39 361 280
0.051842559 0.704 -0.049373865 9.4863198e-39 362 280
0.053227689 0.70599997 -0.04951413 9.578514e-39 363 280
0.054542694 0.70700002 -0.049584266 9.6714257e-39 364 280
0.055782299 0.70700002 -0.049584266 9.8558141e-39 365 280
0.057102561 0.708 -0.049654398 9.8568988e-39 366 280
0.058343921 0.708 -0.049654398 1.0133846e-38 367 280
0.059585281 0.708 -0.049654398 1.1420657e-38 368 280
-0.012606465 0.71899998 -0.05168651 1.2712112e-38 310 281
-0.01131426 0.71700001 -0.051542737 1.2343689e-38 311 281
-0.010043093 0.71600002 -0.051470853 1.1975591e-38 312 281
-0.0087508867 0.713 -0.051255193 1.1883394e-38 313 281
-0.0075007593 0.713 -0.051255193 1.1699703e-38 314 281
-0.0062330998 0.71100003 -0.051111419 1.1699703e-38 315 281
-0.0049864799 0.71100003 -0.051111419 1.1516386e-38 316 281
-0.0037345996 0.70999998 -0.051039528 1.1424192e-38 317 281
-0.00248272 0.708 -0.050895758 1.1516028e-38 318 281
-0.0012378532 0.70599997 -0.050751984 1.1423475e-38 319 281
0 0.70599997 -0.050751984 1.1607146e-38 320 281
0.0012343467 0.704 -0.050608214 1.1607146e-38 321 281
0.0024686933 0.704 -0.050608214 1.1699699e-38 322 281
0.0036977797 0.70300001 -0.050536323 1.1699699e-38 323 281
0.0049303733 0.70300001 -0.050536323 1.1700057e-38 324 281
0.0061454331 0.70099998 -0.050392549 1.1700057e-38 325 281
0.0073745195 0.70099998 -0.050392549 1.1791177e-38 326 281
0.0085913334 0.69999999 -0.050320663 1.1791177e-38 327 281
0.0098186666 0.69999999 -0.050320663 1.1516038e-38 328 281
0.011045999 0.69999999 -0.050320663 1.1516038e-38 329 281
0.012238266 0.69800001 -0.050176892 1.142277e-38 330 281
0.013462093 0.69800001 -0.050176892 1.142277e-38 331 281
0.01468592 0.69800001 -0.050176892 1.133129e-38 332 281
0.015909746 0.69800001 -0.050176892 1.133129e-38 333 281
0.017109027 0.69700003 -0.050105009 1.1147256e-38 334 281
0.018331099 0.69700003 -0.050105009 1.0962864e-38 335 281
0.019553173 0.69700003 -0.050105009 1.105398e-38 336 281
0.020745439 0.69599998 -0.050033119 1.0869951e-38 337 281
0.021902639 0.69400001 -0.049889345 1.0685203e-38 338 281
0.023119451 0.69400001 -0.049889345 1.0593009e-38 339 281
0.024336265 0.69400001 -0.049889345 1.0408621e-38 340 281
0.025553079 0.69400001 -0.049889345 1.0224591e-38 341 281
0.026769891 0.69400001 -0.049889345 1.0132038e-38 342 281
0.027986705 0.69400001 -0.049889345 1.0132038e-38 343 281
0.029287677 0.69599998 -0.050033119 1.004092e-38 344 281
0.030507999 0.69599998 -0.050033119 9.8565316e-39 345 281
0.031728316 0.69599998 -0.050033119 1.0223515e-38 346 281
0.032948639 0.69599998 -0.050033119 1.0131321e-38 347 281
0.034168959 0.69599998 -0.050033119 1.0131321e-38 348 281
0.035389278 0.69599998 -0.050033119 9.9472909e-39 349 281
0.036662199 0.69700003 -0.050105009 1.0130244e-38 350 281
0.037884273 0.69700003 -0.050105009 1.0130244e-38 351 281
0.039106347 0.69700003 -0.050105009 9.8547379e-39 352 281
0.040386278 0.69800001 -0.050176892 9.7625437e-39 353 281
0.041610107 0.69800001 -0.050176892 9.945856e-39 354 281
0.042956665 0.69999999 -0.050320663 9.945856e-39 355 281
0.044183996 0.69999999 -0.050320663 9.5788727e-39 356 281
0.045476202 0.70099998 -0.050392549 9.4866785e-39 357 281
0.046705291 0.70099998 -0.050392549 9.5774378e-39 358 281
0.047934376 0.70099998 -0.050392549 9.3012138e-39 359 281
0.049303733 0.70300001 -0.050536323 9.2097371e-39 360 281
0.050608214 0.704 -0.050608214 9.3944843e-39 361 281
0.051842559 0.704 -0.050608214 9.4863198e-39 362 281
0.053227689 0.70599997 -0.050751984 9.7625437e-39 363 281
0.054542694 0.70700002 -0.050823875 9.8547379e-39 364 281
0.055861197 0.708 -0.050895758 9.9469336e-39 365 281
0.057263866 0.70999998 -0.051039528 1.0223167e-38 366 281
0.058508728 0.70999998 -0.051039528 1.059195e-38 367 281
-0.012659066 0.722 -0.053168077 1.2897579e-38 310 282
-0.01139316 0.722 -0.053168077 1.1975982e-38 311 282
-0.010043093 0.71600002 -0.052726239 1.2434045e-38 312 282
-0.0087508867 0.713 -0.052505318 1.2157817e-38 313 282
-0.0075007593 0.713 -0.052505318 1.1699347e-38 314 282
-0.0062330998 0.71100003 -0.052358042 1.1699347e-38 315 282
-0.0049864799 0.71100003 -0.052358042 1.1516386e-38 316 282
-0.0037345996 0.70999998 -0.052284397 1.1331998e-38 317 282
-0.00248272 0.708 -0.052137118 1.1607146e-38 318 282
-0.0012396066 0.70700002 -0.05206348 1.1607146e-38 319 282
0 0.70599997 -0.051989835 1.1514952e-38 320 282
0.0012378532 0.70599997 -0.051989835 1.1514952e-38 321 282
0.0024686933 0.704 -0.051842559 1.1424192e-38 322 282
0.0036977797 0.70300001 -0.051768921 1.1516386e-38 323 282
0.0049303733 0.70300001 -0.051768921 1.1515669e-38 324 282
0.0061629666 0.70300001 -0.051768921 1.1515669e-38 325 282
0.0073745195 0.70099998 -0.051621638 1.142312e-38 326 282
0.0086036054 0.70099998 -0.051621638 1.142312e-38 327 282
0.0098186666 0.69999999 -0.051547997 1.1422767e-38 328 282
0.011045999 0.69999999 -0.051547997 1.1330571e-38 329 282
0.012273333 0.69999999 -0.051547997 1.1054709e-38 330 282
0.013500666 0.69999999 -0.051547997 1.1054709e-38 331 282
0.01468592 0.69800001 -0.051400717 1.1238024e-38 332 282
0.015909746 0.69800001 -0.051400717 1.1238024e-38 333 282
0.017133573 0.69800001 -0.051400717 1.114547e-38 334 282
0.0183574 0.69800001 -0.051400717 1.1053274e-38 335 282
0.019553173 0.69700003 -0.051327083 1.0869243e-38 336 282
0.020775247 0.69700003 -0.051327083 1.0684852e-38 337 282
0.021965759 0.69599998 -0.051253434 1.0684849e-38 338 282
0.023186078 0.69599998 -0.051253434 1.0500456e-38 339 282
0.0244064 0.69599998 -0.051253434 1.0499739e-38 340 282
0.025626717 0.69599998 -0.051253434 1.031535e-38 341 282
0.026847038 0.69599998 -0.051253434 1.0039844e-38 342 282
0.028067358 0.69599998 -0.051253434 1.0039844e-38 343 282
0.029287677 0.69599998 -0.051253434 9.7643374e-39 344 282
0.030507999 0.69599998 -0.051253434 9.7643374e-39 345 282
0.031728316 0.69599998 -0.051253434 9.9476496e-39 346 282
0.032948639 0.69599998 -0.051253434 9.8554554e-39 347 282
0.034168959 0.69599998 -0.051253434 9.9469322e-39 348 282
0.035440128 0.69700003 -0.051327083 9.8547379e-39 349 282
0.036662199 0.69700003 -0.051327083 1.003805e-38 350 282
0.037884273 0.69700003 -0.051327083 1.003805e-38 351 282
0.039106347 0.69700003 -0.051327083 9.945856e-39 352 282
0.040386278 0.69800001 -0.051400717 9.7614675e-39 353 282
0.041610107 0.69800001 -0.051400717 9.945856e-39 354 282
0.042956665 0.69999999 -0.051547997 9.7614675e-39 355 282
0.044183996 0.69999999 -0.051547997 9.762185e-39 356 282
0.045476202 0.70099998 -0.051621638 9.5777965e-39 357 282
0.046705291 0.70099998 -0.051621638 9.4856023e-39 358 282
0.048071139 0.70300001 -0.051768921 9.4856023e-39 359 282
0.049303733 0.70300001 -0.051768921 9.3012138e-39 360 282
0.050608214 0.704 -0.051842559 9.5774378e-39 361 282
0.051842559 0.704 -0.051842559 9.578514e-39 362 282
0.053227689 0.70599997 -0.051989835 9.7625437e-39 363 282
0.054542694 0.70700002 -0.05206348 9.6710712e-39 364 282
0.055861197 0.708 -0.052137118 9.7632682e-39 365 282
0.057263866 0.70999998 -0.052284397 9.9480252e-39 366 282
0.058508728 0.70999998 -0.052284397 1.0593395e-38 367 282
-0.012659066 0.722 -0.054433983 1.2806828e-38 310 283
-0.01139316 0.722 -0.054433983 1.1700839e-38 311 283
-0.010043093 0.71600002 -0.053981625 1.225038e-38 312 283
-0.0087508867 0.713 -0.053755447 1.2158183e-38 313 283
-0.0075007593 0.713 -0.053755447 1.1790824e-38 314 283
-0.0062330998 0.71100003 -0.053604662 1.1790824e-38 315 283
-0.0049864799 0.71100003 -0.053604662 1.1516028e-38 316 283
-0.0037345996 0.70999998 -0.053529263 1.1423475e-38 317 283
-0.00248272 0.708 -0.053378478 1.151531e-38 318 283
-0.0012396066 0.70700002 -0.053303085 1.1607504e-38 319 283
0 0.70599997 -0.053227689 1.151531e-38 320 283
0.0012378532 0.70599997 -0.053227689 1.151531e-38 321 283
0.0024686933 0.704 -0.053076904 1.1698981e-38 322 283
0.0037030398 0.704 -0.053076904 1.1698981e-38 323 283
0.0049373866 0.704 -0.053076904 1.1606787e-38 324 283
0.0061629666 0.70300001 -0.053001512 1.1514593e-38 325 283
0.0073955595 0.70300001 -0.053001512 1.1514234e-38 326 283
0.0086036054 0.70099998 -0.052850723 1.1330204e-38 327 283
0.0098326923 0.70099998 -0.052850723 1.1329851e-38 328 283
0.011045999 0.69999999 -0.052775331 1.1237656e-38 329 283
0.012273333 0.69999999 -0.052775331 1.1053274e-38 330 283
0.013500666 0.69999999 -0.052775331 1.1053274e-38 331 283
0.01468592 0.69800001 -0.052624546 1.1236952e-38 332 283
0.015909746 0.69800001 -0.052624546 1.1236952e-38 333 283
0.017133573 0.69800001 -0.052624546 1.1052927e-38 334 283
0.0183574 0.69800001 -0.052624546 1.0868537e-38 335 283
0.019553173 0.69700003 -0.052549154 1.0684501e-38 336 283
0.020775247 0.69700003 -0.052549154 1.0684501e-38 337 283
0.02199732 0.69700003 -0.052549154 1.0685571e-38 338 283
0.023186078 0.69599998 -0.052473757 1.0501539e-38 339 283
0.0244064 0.69599998 -0.052473757 1.0499739e-38 340 283
0.025626717 0.69599998 -0.052473757 1.031535e-38 341 283
0.026847038 0.69599998 -0.052473757 1.0130962e-38 342 283
0.028067358 0.69599998 -0.052473757 1.0130962e-38 343 283
0.029287677 0.69599998 -0.052473757 9.9469322e-39 344 283
0.030507999 0.69599998 -0.052473757 9.9469322e-39 345 283
0.031728316 0.69599998 -0.052473757 9.9469322e-39 346 283
0.032948639 0.69599998 -0.052473757 9.8547379e-39 347 283
0.034168959 0.69599998 -0.052473757 1.0038409e-38 348 283
0.035440128 0.69700003 -0.052549154 9.945856e-39 349 283
0.036662199 0.69700003 -0.052549154 9.945856e-39 350 283
0.037884273 0.69700003 -0.052549154 9.945856e-39 351 283
0.039162453 0.69800001 -0.052624546 9.945856e-39 352 283
0.040386278 0.69800001 -0.052624546 9.945856e-39 353 283
0.041610107 0.69800001 -0.052624546 9.9451385e-39 354 283
0.042956665 0.69999999 -0.052775331 1.0037333e-38 355 283
0.044247117 0.70099998 -0.052850723 9.6699908e-39 356 283
0.045476202 0.70099998 -0.052850723 9.5777965e-39 357 283
0.046838548 0.70300001 -0.053001512 9.4856023e-39 358 283
0.048071139 0.70300001 -0.053001512 9.4856023e-39 359 283
0.049373865 0.704 -0.053076904 9.4845261e-39 360 283
0.050751984 0.70599997 -0.053227689 9.5767203e-39 361 283
0.051989835 0.70599997 -0.053227689 9.669632e-39 362 283
0.053227689 0.70599997 -0.053227689 9.8540205e-39 363 283
0.054542694 0.70700002 -0.053303085 9.8547379e-39 364 283
0.055861197 0.708 -0.053378478 9.9469336e-39 365 283
0.057263866 0.70999998 -0.053529263 1.0040221e-38 366 283
0.058508728 0.70999998 -0.053529263 1.0962177e-38 367 283
-0.011251139 0.713 -0.055005573 1.1885601e-38 311 284
-0.010001013 0.713 -0.055005573 1.2342578e-38 312 284
-0.0087508867 0.713 -0.055005573 1.2250382e-38 313 284
-0.0075007593 0.713 -0.055005573 1.1790824e-38 314 284
-0.0062506334 0.713 -0.055005573 1.1698628e-38 315 284
-0.0049864799 0.71100003 -0.054851279 1.1606787e-38 316 284
-0.0037398601 0.71100003 -0.054851279 1.1606787e-38 317 284
-0.0024897333 0.70999998 -0.054774132 1.1514952e-38 318 284
-0.0012396066 0.70700002 -0.054542694 1.1514952e-38 319 284
0 0.70700002 -0.054542694 1.151531e-38 320 284
0.0012378532 0.70599997 -0.054465543 1.151531e-38 321 284
0.0024686933 0.704 -0.054311249 1.1514234e-38 322 284
0.0037030398 0.704 -0.054311249 1.1514234e-38 323 284
0.0049373866 0.704 -0.054311249 1.1513875e-38 324 284
0.0061629666 0.70300001 -0.054234106 1.1421681e-38 325 284
0.0073955595 0.70300001 -0.054234106 1.1421322e-38 326 284
0.0086281532 0.70300001 -0.054234106 1.1329128e-38 327 284
0.0098326923 0.70099998 -0.054079808 1.1236575e-38 328 284
0.011061779 0.70099998 -0.054079808 1.1236575e-38 329 284
0.012273333 0.69999999 -0.054002665 1.0776691e-38 330 284
0.013500666 0.69999999 -0.054002665 1.0776691e-38 331 284
0.014727999 0.69999999 -0.054002665 1.11437e-38 332 284
0.015909746 0.69800001 -0.053848371 1.1512124e-38 333 284
0.017133573 0.69800001 -0.053848371 1.0963272e-38 334 284
0.0183574 0.69800001 -0.053848371 1.0133511e-38 335 284
0.019581227 0.69800001 -0.053848371 1.013099e-38 336 284
0.020775247 0.69700003 -0.053771228 1.1052948e-38 337 284
0.02199732 0.69700003 -0.053771228 1.087071e-38 338 284
0.023219392 0.69700003 -0.053771228 1.0501568e-38 339 284
0.024441468 0.69700003 -0.053771228 1.0408282e-38 340 284
0.025626717 0.69599998 -0.053694077 1.0039498e-38 341 284
0.026847038 0.69599998 -0.053694077 9.8547379e-39 342 284
0.028067358 0.69599998 -0.053694077 9.8547379e-39 343 284
0.029287677 0.69599998 -0.053694077 9.8547379e-39 344 284
0.030507999 0.69599998 -0.053694077 9.8547379e-39 345 284
0.031728316 0.69599998 -0.053694077 9.8547379e-39 346 284
0.032948639 0.69599998 -0.053694077 9.7625437e-39 347 284
0.034218054 0.69700003 -0.053771228 9.9451385e-39 348 284
0.035440128 0.69700003 -0.053771228 9.9451385e-39 349 284
0.036662199 0.69700003 -0.053771228 9.6703495e-39 350 284
0.037938625 0.69800001 -0.053848371 9.6703495e-39 351 284
0.039162453 0.69800001 -0.053848371 9.6692733e-39 352 284
0.040386278 0.69800001 -0.053848371 9.6692733e-39 353 284
0.041729331 0.69999999 -0.054002665 9.7614675e-39 354 284
0.043018032 0.70099998 -0.054079808 9.6692733e-39 355 284
0.044247117 0.70099998 -0.054079808 9.5777965e-39 356 284
0.04560595 0.70300001 -0.054234106 9.5777965e-39 357 284
0.046838548 0.70300001 -0.054234106 9.4852436e-39 358 284
0.048139516 0.704 -0.054311249 9.4852436e-39 359 284
0.04951413 0.70599997 -0.054465543 9.4841674e-39 360 284
0.050751984 0.70599997 -0.054465543 9.5767203e-39 361 284
0.051989835 0.70599997 -0.054465543 9.4863198e-39 362 284
0.053303085 0.70700002 -0.054542694 9.7625437e-39 363 284
0.054619838 0.708 -0.054619838 9.6714257e-39 364 284
0.056018997 0.70999998 -0.054774132 9.8558141e-39 365 284
0.057505824 0.713 -0.055005573 9.948028e-39 366 284
0.058755953 0.713 -0.055005573 1.1607191e-38 367 284
-0.010001013 0.713 -0.056255698 1.2343663e-38 312 285
-0.0087508867 0.713 -0.056255698 1.1882686e-38 313 285
-0.0075007593 0.713 -0.056255698 1.1974495e-38 314 285
-0.0062506334 0.713 -0.056255698 1.1697909e-38 315 285
-0.0050005065 0.713 -0.056255698 1.1514593e-38 316 285
-0.0037398601 0.71100003 -0.056097899 1.1330204e-38 317 285
-0.0024897333 0.70999998 -0.056018997 1.1239086e-38 318 285
-0.00124136 0.708 -0.055861197 1.1239086e-38 319 285
0 0.70700002 -0.055782299 1.1330922e-38 320 285
0.0012378532 0.70599997 -0.055703394 1.1330922e-38 321 285
0.0024686933 0.704 -0.055545598 1.142204e-38 322 285
0.0037030398 0.704 -0.055545598 1.142204e-38 323 285
0.0049373866 0.704 -0.055545598 1.142204e-38 324 285
0.0061717331 0.704 -0.055545598 1.1329487e-38 325 285
0.0074060797 0.704 -0.055545598 1.1328411e-38 326 285
0.0086281532 0.70300001 -0.0554667 1.1236216e-38 327 285
0.0098607466 0.70300001 -0.0554667 1.0959992e-38 328 285
0.011061779 0.70099998 -0.055308893 1.0959992e-38 329 285
0.012290866 0.70099998 -0.055308893 1.068522e-38 330 285
0.013500666 0.69999999 -0.055229999 1.068522e-38 331 285
0.014727999 0.69999999 -0.055229999 1.0778177e-38 332 285
0.015955333 0.69999999 -0.055229999 1.1423546e-38 333 285
0.017182667 0.69999999 -0.055229999 1.1148774e-38 334 285
0.0183574 0.69800001 -0.0550722 9.5814483e-39 335 285
0.019581227 0.69800001 -0.0550722 9.6693279e-39 336 285
0.020805053 0.69800001 -0.0550722 1.1144458e-38 337 285
0.02199732 0.69700003 -0.054993302 1.1147329e-38 338 285
0.023219392 0.69700003 -0.054993302 1.0594156e-38 339 285
0.024441468 0.69700003 -0.054993302 1.0500846e-38 340 285
0.025663542 0.69700003 -0.054993302 9.9480308e-39 341 285
0.026885614 0.69700003 -0.054993302 9.8558169e-39 342 285
0.028067358 0.69599998 -0.054914396 9.5788727e-39 343 285
0.029287677 0.69599998 -0.054914396 9.5795902e-39 344 285
0.030551834 0.69700003 -0.054993302 9.5795902e-39 345 285
0.03177391 0.69700003 -0.054993302 9.7625437e-39 346 285
0.03299598 0.69700003 -0.054993302 9.7625437e-39 347 285
0.034218054 0.69700003 -0.054993302 9.6692733e-39 348 285
0.035490975 0.69800001 -0.0550722 9.6692733e-39 349 285
0.0367148 0.69800001 -0.0550722 9.5777965e-39 350 285
0.037938625 0.69800001 -0.0550722 9.4856023e-39 351 285
0.039162453 0.69800001 -0.0550722 9.5777965e-39 352 285
0.040386278 0.69800001 -0.0550722 9.5777965e-39 353 285
0.041729331 0.69999999 -0.055229999 9.6692733e-39 354 285
0.043018032 0.70099998 -0.055308893 9.6692733e-39 355 285
0.044247117 0.70099998 -0.055308893 9.6692733e-39 356 285
0.04560595 0.70300001 -0.0554667 9.5770791e-39 357 285
0.046905171 0.704 -0.055545598 9.4852436e-39 358 285
0.048276275 0.70599997 -0.055703394 9.4852436e-39 359 285
0.04951413 0.70599997 -0.055703394 9.5767203e-39 360 285
0.050823875 0.70700002 -0.055782299 9.6689146e-39 361 285
0.05206348 0.70700002 -0.055782299 9.4863198e-39 362 285
0.053378478 0.708 -0.055861197 9.7625437e-39 363 285
0.054774132 0.70999998 -0.056018997 9.6717886e-39 364 285
0.056097899 0.71100003 -0.056097899 9.8561799e-39 365 285
0.057505824 0.713 -0.056255698 9.6732488e-39 366 285
0.058755953 0.713 -0.056255698 1.133313e-38 367 285
-0.010001013 0.713 -0.057505824 1.1976698e-38 312 286
-0.0087508867 0.713 -0.057505824 1.1792306e-38 313 286
-0.0075007593 0.713 -0.057505824 1.1697925e-38 314 286
-0.0062506334 0.713 -0.057505824 1.1513533e-38 315 286
-0.0050005065 0.713 -0.057505824 1.1513517e-38 316 286
-0.0037503797 0.713 -0.057505824 1.1421322e-38 317 286
-0.0024897333 0.70999998 -0.057263866 1.1513875e-38 318 286
-0.00124136 0.708 -0.057102561 1.1421322e-38 319 286
0 0.708 -0.057102561 1.1238369e-38 320 286
0.0012396066 0.70700002 -0.057021905 1.1238369e-38 321 286
0.0024757064 0.70599997 -0.056941248 1.142204e-38 322 286
0.0037030398 0.704 -0.056779943 1.142204e-38 323 286
0.0049373866 0.704 -0.056779943 1.1605352e-38 324 286
0.0061717331 0.704 -0.056779943 1.1605352e-38 325 286
0.0074060797 0.704 -0.056779943 1.1328411e-38 326 286
0.0086404262 0.704 -0.056779943 1.1236216e-38 327 286
0.0098607466 0.70300001 -0.056699295 1.0867441e-38 328 286
0.011061779 0.70099998 -0.056537982 1.0959638e-38 329 286
0.012290866 0.70099998 -0.056537982 1.0500851e-38 330 286
0.013519952 0.70099998 -0.056537982 1.1053666e-38 331 286
0.014727999 0.69999999 -0.056457333 1.0965828e-38 332 286
0.015955333 0.69999999 -0.056457333 1.1426806e-38 333 286
0.017182667 0.69999999 -0.056457333 1.1426105e-38 334 286
0.0183574 0.69800001 -0.056296028 1.0319759e-38 335 286
0.019581227 0.69800001 -0.056296028 9.947382e-39 336 286
0.020805053 0.69800001 -0.056296028 1.105373e-38 337 286
0.02202888 0.69800001 -0.056296028 1.0965131e-38 338 286
0.023252707 0.69800001 -0.056296028 1.078038e-38 339 286
0.024476532 0.69800001 -0.056296028 1.0686004e-38 340 286
0.025700359 0.69800001 -0.056296028 1.0040634e-38 341 286
0.026885614 0.69700003 -0.056215372 9.4888701e-39 342 286
0.028107686 0.69700003 -0.056215372 9.3041201e-39 343 286
0.02932976 0.69700003 -0.056215372 9.5792385e-39 344 286
0.030595668 0.69800001 -0.056296028 9.3030117e-39 345 286
0.031819493 0.69800001 -0.056296028 9.762185e-39 346 286
0.033043321 0.69800001 -0.056296028 9.6699908e-39 347 286
0.034267146 0.69800001 -0.056296028 9.6692733e-39 348 286
0.035490975 0.69800001 -0.056296028 9.6692733e-39 349 286
0.0367148 0.69800001 -0.056296028 9.5777965e-39 350 286
0.038047329 0.69999999 -0.056457333 9.5777965e-39 351 286
0.039274666 0.69999999 -0.056457333 9.5777965e-39 352 286
0.040502001 0.69999999 -0.056457333 9.5777965e-39 353 286
0.041788943 0.70099998 -0.056537982 9.6692733e-39 354 286
0.043140765 0.70300001 -0.056699295 9.6692733e-39 355 286
0.044436477 0.704 -0.056779943 9.5777965e-39 356 286
0.045670826 0.704 -0.056779943 9.4856023e-39 357 286
0.046905171 0.704 -0.056779943 9.4852436e-39 358 286
0.048276275 0.70599997 -0.056941248 9.5774378e-39 359 286
0.049584266 0.70700002 -0.057021905 9.4848848e-39 360 286
0.050823875 0.70700002 -0.057021905 9.5770791e-39 361 286
0.052137118 0.708 -0.057102561 9.6692733e-39 362 286
0.053529263 0.70999998 -0.057263866 9.7614689e-39 363 286
0.054774132 0.70999998 -0.057263866 9.7636213e-39 364 286
0.056255698 0.713 -0.057505824 9.7636213e-39 365 286
0.057505824 0.713 -0.057505824 9.5803343e-39 366 286
0.058755953 0.713 -0.057505824 1.1701193e-38 367 286
-0.0087631596 0.71399999 -0.058838356 1.1974547e-38 313 287
-0.0075112795 0.71399999 -0.058838356 1.1881237e-38 314 287
-0.0062593995 0.71399999 -0.058838356 1.160501e-38 315 287
-0.0050075199 0.71399999 -0.058838356 1.1513517e-38 316 287
-0.0037503797 0.713 -0.058755953 1.1421322e-38 317 287
-0.0024932399 0.71100003 -0.058591139 1.1421322e-38 318 287
-0.0012448666 0.70999998 -0.058508728 1.1329128e-38 319 287
0 0.70999998 -0.058508728 1.1421322e-38 320 287
0.0012448666 0.70999998 -0.058508728 1.1421322e-38 321 287
0.0024757064 0.70599997 -0.058179103 1.1421681e-38 322 287
0.0037135598 0.70599997 -0.058179103 1.1421681e-38 323 287
0.0049514128 0.70599997 -0.058179103 1.1420964e-38 324 287
0.0061717331 0.704 -0.058014292 1.1328769e-38 325 287
0.0074060797 0.704 -0.058014292 1.1419529e-38 326 287
0.0086404262 0.704 -0.058014292 1.123514e-38 327 287
0.0098607466 0.70300001 -0.057931885 1.0866739e-38 328 287
0.01109334 0.70300001 -0.057931885 1.0959293e-38 329 287
0.012325933 0.70300001 -0.057931885 1.0410843e-38 330 287
0.013519952 0.70099998 -0.057767071 1.1056213e-38 331 287
0.014749039 0.70099998 -0.057767071 1.0137531e-38 332 287
0.015955333 0.69999999 -0.05768466 9.8613044e-39 333 287
0.017182667 0.69999999 -0.05768466 1.0504524e-38 334 287
0.018409999 0.69999999 -0.05768466 1.041197e-38 335 287
0.019637333 0.69999999 -0.05768466 9.582212e-39 336 287
0.020805053 0.69800001 -0.057519849 9.6744077e-39 337 287
0.02202888 0.69800001 -0.057519849 1.0043916e-38 338 287
0.023252707 0.69800001 -0.057519849 1.0043916e-38 339 287
0.024476532 0.69800001 -0.057519849 1.0042467e-38 340 287
0.025700359 0.69800001 -0.057519849 9.3049021e-39 341 287
0.026924185 0.69800001 -0.057519849 8.9385998e-39 342 287
0.028148014 0.69800001 -0.057519849 8.7545673e-39 343 287
0.029371841 0.69800001 -0.057519849 9.3977255e-39 344 287
0.030595668 0.69800001 -0.057519849 9.3055298e-39 345 287
0.031819493 0.69800001 -0.057519849 9.7629025e-39 346 287
0.033043321 0.69800001 -0.057519849 9.5788727e-39 347 287
0.034267146 0.69800001 -0.057519849 9.6692733e-39 348 287
0.035490975 0.69800001 -0.057519849 9.6692733e-39 349 287
0.036819998 0.69999999 -0.05768466 9.5777965e-39 350 287
0.038047329 0.69999999 -0.05768466 9.5777965e-39 351 287
0.039274666 0.69999999 -0.05768466 9.6692733e-39 352 287
0.040559858 0.70099998 -0.057767071 9.5770791e-39 353 287
0.041908171 0.70300001 -0.057931885 9.6692733e-39 354 287
0.043140765 0.70300001 -0.057931885 9.6692733e-39 355 287
0.044436477 0.704 -0.058014292 9.5770791e-39 356 287
0.045670826 0.704 -0.058014292 9.5770791e-39 357 287
0.047038425 0.70599997 -0.058179103 9.5774378e-39 358 287
0.048344657 0.70700002 -0.05826151 9.5774378e-39 359 287
0.049654398 0.708 -0.058343921 9.6685558e-39 360 287
0.050895758 0.708 -0.058343921 9.7607501e-39 361 287
0.052137118 0.708 -0.058343921 9.6692733e-39 362 287
0.053529263 0.70999998 -0.058508728 9.8536646e-39 363 287
0.054851279 0.71100003 -0.058591139 9.7632682e-39 364 287
0.056255698 0.713 -0.058755953 1.0039495e-38 365 287
0.057586476 0.71399999 -0.058838356 1.0683808e-38 366 287
-0.0087631596 0.71399999 -0.060090236 1.1792336e-38 313 288
-0.0075112795 0.71399999 -0.060090236 1.1972732e-38 314 288
-0.0062593995 0.71399999 -0.060090236 1.1880536e-38 315 288
-0.0050075199 0.71399999 -0.060090236 1.1513163e-38 316 288
-0.0037503797 0.713 -0.060006075 1.1420968e-38 317 288
-0.0024932399 0.71100003 -0.059837762 1.1420605e-38 318 288
-0.00124662 0.71100003 -0.059837762 1.1420605e-38 319 288
0 0.71100003 -0.059837762 1.1420605e-38 320 288
0.00124662 0.71100003 -0.059837762 1.1328411e-38 321 288
0.0024792133 0.70700002 -0.059501119 1.1603917e-38 322 288
0.0037188199 0.70700002 -0.059501119 1.1603917e-38 323 288
0.0049514128 0.70599997 -0.059416957 1.1420605e-38 324 288
0.0061892662 0.70599997 -0.059416957 1.1328411e-38 325 288
0.0074271196 0.70599997 -0.059416957 1.1234786e-38 326 288
0.0086404262 0.704 -0.059248637 1.1142589e-38 327 288
0.0098747732 0.704 -0.059248637 1.0866754e-38 328 288
0.01109334 0.70300001 -0.059164476 1.1328093e-38 329 288
0.012325933 0.70300001 -0.059164476 1.0689966e-38 330 288
0.013558527 0.70300001 -0.059164476 1.0228988e-38 331 288
0.014749039 0.70099998 -0.058996156 7.372391e-39 332 288
