# .PCD v.7 - Point Cloud Data file format
FIELDS x y z rgb imX imY
SIZE 4 4 4 4 4 4
TYPE F F F F F F
COUNT 1 1 1 1 1 1
WIDTH 836
HEIGHT 1
VIEWPOINT 0 0 0 1 0 0 0
POINTS 836
DATA ascii
-0.0061980332 0.70700002 -0.043386232 7.8265266e-39 315 275
-0.0049584266 0.70700002 -0.043386232 7.9126069e-39 316 275
-0.0037135598 0.70599997 -0.043324865 6.3456414e-39 317 275
-0.0024686933 0.704 -0.043202132 7.2553657e-39 318 275
-0.0012290865 0.70099998 -0.043018032 6.6121557e-39 319 275
0 0.69999999 -0.042956665 6.3366506e-39 320 275
0.0012273333 0.69999999 -0.042956665 6.5203258e-39 321 275
0.0024441467 0.69700003 -0.042772565 6.5206944e-39 322 275
0.0036609597 0.69599998 -0.042711195 6.8894769e-39 323 275
0.0048672534 0.69400001 -0.042588469 7.2593188e-39 324 275
0.0060753003 0.69300002 -0.042527102 7.6277426e-39 325 275
0.0072903596 0.69300002 -0.042527102 7.7199284e-39 326 275
0.0085054198 0.69300002 -0.042527102 7.535177e-39 327 275
0.0096924258 0.69099998 -0.042404365 7.6252273e-39 328 275
0.01090398 0.69099998 -0.042404365 7.2564461e-39 329 275
0.012097999 0.69 -0.042342998 6.9802208e-39 330 275
0.0133078 0.69 -0.042342998 6.7961897e-39 331 275
0.014517599 0.69 -0.042342998 6.4299211e-39 332 275
0.015681813 0.68800002 -0.042220265 6.2458899e-39 333 275
0.016888106 0.68800002 -0.042220265 6.2458899e-39 334 275
0.0180944 0.68800002 -0.042220265 6.1536957e-39 335 275
0.019300694 0.68800002 -0.042220265 6.0611427e-39 336 275
0.020477179 0.68699998 -0.042158898 5.9693073e-39 337 275
0.021681719 0.68699998 -0.042158898 5.9693129e-39 338 275
0.022886258 0.68699998 -0.042158898 6.2462585e-39 339 275
0.024090799 0.68699998 -0.042158898 6.3395261e-39 340 275
0.025295338 0.68699998 -0.042158898 6.6161144e-39 341 275
0.026499879 0.68699998 -0.042158898 6.8930474e-39 342 275
0.027704418 0.68699998 -0.042158898 7.0774401e-39 343 275
0.028908957 0.68699998 -0.042158898 7.0770729e-39 344 275
0.030113498 0.68699998 -0.042158898 6.8004902e-39 345 275
0.031318039 0.68699998 -0.042158898 6.0643713e-39 346 275
0.032522578 0.68699998 -0.042158898 5.6955944e-39 347 275
0.033727121 0.68699998 -0.042158898 4.9609105e-39 348 275
0.034931656 0.68699998 -0.042158898 4.9609105e-39 349 275
0.036136195 0.68699998 -0.042158898 4.6850452e-39 350 275
0.037340738 0.68699998 -0.042158898 4.592851e-39 351 275
0.038545277 0.68699998 -0.042158898 4.5924923e-39 352 275
0.039807681 0.68800002 -0.042220265 4.6850466e-39 353 275
0.041013971 0.68800002 -0.042220265 4.2265894e-39 354 275
0.042220265 0.68800002 -0.042220265 4.2265894e-39 355 275
0.043552797 0.69 -0.042342998 4.2262335e-39 356 275
0.044827472 0.69099998 -0.042404365 4.1340379e-39 357 275
0.046039023 0.69099998 -0.042404365 3.858174e-39 358 275
0.047387339 0.69300002 -0.042527102 3.9503697e-39 359 275
0.048602402 0.69300002 -0.042527102 3.5830319e-39 360 275
0.049817458 0.69300002 -0.042527102 3.5830319e-39 361 275
0.051106159 0.69400001 -0.042588469 3.5837508e-39 362 275
0.052322973 0.69400001 -0.042588469 3.7681434e-39 363 275
0.053694077 0.69599998 -0.042711195 4.2269566e-39 364 275
0.054914396 0.69599998 -0.042711195 4.3191522e-39 365 275
0.056296028 0.69800001 -0.042833932 4.5017456e-39 366 275
0.057519849 0.69800001 -0.042833932 4.1333218e-39 367 275
0.058911994 0.69999999 -0.042956665 3.9492907e-39 368 275
0.060139328 0.69999999 -0.042956665 4.0414863e-39 369 275
0.061717331 0.704 -0.043202132 3.2163948e-39 370 275
0.063219935 0.70700002 -0.043386232 2.5713939e-39 371 275
0.06455072 0.708 -0.043447599 8.0091088e-39 372 275
0.065792084 0.708 -0.043447599 1.1051206e-38 373 275
0.067317478 0.71100003 -0.043631699 1.3082737e-38 374 275
-0.0099729598 0.71100003 -0.044878319 1.2713254e-38 312 276
-0.0087263398 0.71100003 -0.044878319 7.4581028e-39 313 276
-0.0074691991 0.70999998 -0.044815198 7.6443087e-39 314 276
-0.0062067998 0.708 -0.044688959 1.0041395e-38 315 276
-0.0049584266 0.70700002 -0.044625837 9.39206e-39 316 276
-0.0037135598 0.70599997 -0.044562716 7.3637562e-39 317 276
-0.0024686933 0.704 -0.044436477 8.454262e-39 318 276
-0.0012290865 0.70099998 -0.044247117 7.3479159e-39 319 276
0 0.69999999 -0.044183996 6.8876622e-39 320 276
0.0012238267 0.69800001 -0.04405776 6.7958267e-39 321 276
0.0024441467 0.69700003 -0.043994639 6.5210503e-39 322 276
0.0036609597 0.69599998 -0.043931518 7.0738654e-39 323 276
0.0048672534 0.69400001 -0.043805279 7.1696511e-39 324 276
0.0060753003 0.69300002 -0.043742158 7.5387938e-39 325 276
0.0072903596 0.69300002 -0.043742158 7.7224591e-39 326 276
0.008480873 0.69099998 -0.043615919 7.3540354e-39 327 276
0.0096924258 0.69099998 -0.043615919 7.1682162e-39 328 276
0.01090398 0.69099998 -0.043615919 6.9838235e-39 329 276
0.012097999 0.69 -0.043552797 6.6164829e-39 330 276
0.0133078 0.69 -0.043552797 6.5242873e-39 331 276
0.014517599 0.69 -0.043552797 6.2487766e-39 332 276
0.015681813 0.68800002 -0.043426562 6.156581e-39 333 276
0.016888106 0.68800002 -0.043426562 6.1565782e-39 334 276
0.0180944 0.68800002 -0.043426562 5.88035e-39 335 276
0.019300694 0.68800002 -0.043426562 5.9714667e-39 336 276
0.020477179 0.68699998 -0.043363437 5.879271e-39 337 276
0.021681719 0.68699998 -0.043363437 5.8789151e-39 338 276
0.022886258 0.68699998 -0.043363437 6.0633064e-39 339 276
0.024090799 0.68699998 -0.043363437 6.0625875e-39 340 276
0.025295338 0.68699998 -0.043363437 6.2469773e-39 341 276
0.026499879 0.68699998 -0.043363437 6.3391702e-39 342 276
0.027704418 0.68699998 -0.043363437 6.3391702e-39 343 276
0.028908957 0.68699998 -0.043363437 6.2462557e-39 344 276
0.030113498 0.68699998 -0.043363437 6.0618644e-39 345 276
0.031318039 0.68699998 -0.043363437 5.6026855e-39 346 276
0.032522578 0.68699998 -0.043363437 5.4182943e-39 347 276
0.033727121 0.68699998 -0.043363437 4.6839718e-39 348 276
0.034931656 0.68699998 -0.043363437 4.6839718e-39 349 276
0.036136195 0.68699998 -0.043363437 4.5924979e-39 350 276
0.037340738 0.68699998 -0.043363437 4.5924979e-39 351 276
0.038545277 0.68699998 -0.043363437 4.5924979e-39 352 276
0.039807681 0.68800002 -0.043426562 4.5924979e-39 353 276
0.041013971 0.68800002 -0.043426562 4.1340351e-39 354 276
0.042220265 0.68800002 -0.043426562 4.1340351e-39 355 276
0.043426562 0.68800002 -0.043426562 4.3177061e-39 356 276
0.0447626 0.69 -0.043552797 4.1333162e-39 357 276
0.046039023 0.69099998 -0.043615919 3.9507256e-39 358 276
0.047250576 0.69099998 -0.043615919 3.85853e-39 359 276
0.048602402 0.69300002 -0.043742158 3.8588957e-39 360 276
0.049817458 0.69300002 -0.043742158 3.7667001e-39 361 276
0.051106159 0.69400001 -0.043805279 3.6755835e-39 362 276
0.052322973 0.69400001 -0.043805279 3.7677791e-39 363 276
0.053539783 0.69400001 -0.043805279 3.9503697e-39 364 276
0.054914396 0.69599998 -0.043931518 3.9503697e-39 365 276
0.056296028 0.69800001 -0.04405776 4.1340407e-39 366 276
0.057519849 0.69800001 -0.04405776 3.9492907e-39 367 276
0.058911994 0.69999999 -0.044183996 3.583385e-39 368 276
0.060139328 0.69999999 -0.044183996 3.6755806e-39 369 276
0.061717331 0.704 -0.044436477 3.4011419e-39 370 276
0.063130513 0.70599997 -0.044562716 3.1242005e-39 371 276
0.064368367 0.70599997 -0.044562716 8.5622797e-39 372 276
0.065420374 0.704 -0.044436477 1.1512181e-38 373 276
0.066654719 0.704 -0.044436477 1.2990541e-38 374 276
-0.010001013 0.713 -0.046254687 1.2988763e-38 312 277
-0.0087263398 0.71100003 -0.046124939 8.2867845e-39 313 277
-0.0074691991 0.70999998 -0.046060063 8.0138101e-39 314 277
-0.0062243328 0.70999998 -0.046060063 9.3967446e-39 315 277
-0.0049654399 0.708 -0.045930319 8.7524556e-39 316 277
-0.0037135598 0.70599997 -0.04580057 7.4617167e-39 317 277
-0.0024651866 0.70300001 -0.04560595 8.7376859e-39 318 277
-0.0012290865 0.70099998 -0.045476202 7.2625558e-39 319 277
0 0.69999999 -0.04541133 7.3471984e-39 320 277
0.0012238267 0.69800001 -0.045281585 7.3471984e-39 321 277
0.0024441467 0.69700003 -0.045216713 6.3384541e-39 322 277
0.0036504399 0.69400001 -0.045022093 6.8916279e-39 323 277
0.0048672534 0.69400001 -0.045022093 7.1714518e-39 324 277
0.0060753003 0.69300002 -0.044957221 7.6324299e-39 325 277
0.0072903596 0.69300002 -0.044957221 7.7239067e-39 326 277
0.008480873 0.69099998 -0.044827472 7.354764e-39 327 277
0.0096783992 0.69 -0.0447626 6.8026791e-39 328 277
0.010888199 0.69 -0.0447626 6.7101247e-39 329 277
0.012097999 0.69 -0.0447626 6.3424184e-39 330 277
0.0133078 0.69 -0.0447626 6.3424184e-39 331 277
0.014517599 0.69 -0.0447626 6.1580229e-39 332 277
0.015681813 0.68800002 -0.044632856 6.0658273e-39 333 277
0.016888106 0.68800002 -0.044632856 6.0651084e-39 334 277
0.0180944 0.68800002 -0.044632856 5.9729128e-39 335 277
0.019300694 0.68800002 -0.044632856 5.97291e-39 336 277
0.020477179 0.68699998 -0.044567976 5.880713e-39 337 277
0.021681719 0.68699998 -0.044567976 5.8807172e-39 338 277
0.022886258 0.68699998 -0.044567976 5.8807172e-39 339 277
0.024090799 0.68699998 -0.044567976 5.7881642e-39 340 277
0.025295338 0.68699998 -0.044567976 5.7881642e-39 341 277
0.026499879 0.68699998 -0.044567976 5.6959686e-39 342 277
0.027704418 0.68699998 -0.044567976 5.4197418e-39 343 277
0.028908957 0.68699998 -0.044567976 5.2346275e-39 344 277
0.030113498 0.68699998 -0.044567976 5.1427906e-39 345 277
0.031318039 0.68699998 -0.044567976 4.8672841e-39 346 277
0.032522578 0.68699998 -0.044567976 4.8672841e-39 347 277
0.033727121 0.68699998 -0.044567976 4.591779e-39 348 277
0.034931656 0.68699998 -0.044567976 4.591779e-39 349 277
0.036136195 0.68699998 -0.044567976 4.4999463e-39 350 277
0.037340738 0.68699998 -0.044567976 4.4999463e-39 351 277
0.038545277 0.68699998 -0.044567976 4.4088269e-39 352 277
0.039749816 0.68699998 -0.044567976 4.4088269e-39 353 277
0.041013971 0.68800002 -0.044632856 4.3177061e-39 354 277
0.042220265 0.68800002 -0.044632856 4.4099017e-39 355 277
0.043426562 0.68800002 -0.044632856 4.1340379e-39 356 277
0.0447626 0.69 -0.0447626 4.0418422e-39 357 277
0.046039023 0.69099998 -0.044827472 3.9507256e-39 358 277
0.047250576 0.69099998 -0.044827472 3.9507256e-39 359 277
0.048602402 0.69300002 -0.044957221 3.858174e-39 360 277
0.049817458 0.69300002 -0.044957221 3.9503697e-39 361 277
0.051106159 0.69400001 -0.045022093 3.6755835e-39 362 277
0.052322973 0.69400001 -0.045022093 3.6755835e-39 363 277
0.053539783 0.69400001 -0.045022093 3.7667001e-39 364 277
0.054914396 0.69599998 -0.045151837 3.7667001e-39 365 277
0.056296028 0.69800001 -0.045281585 3.6737856e-39 366 277
0.057519849 0.69800001 -0.045281585 3.58159e-39 367 277
0.058911994 0.69999999 -0.04541133 3.0327294e-39 368 277
0.060225245 0.70099998 -0.045476202 3.2174794e-39 369 277
0.061717331 0.704 -0.045670826 3.5858891e-39 370 277
0.062951677 0.704 -0.045670826 3.4011419e-39 371 277
0.064186029 0.704 -0.045670826 9.2076463e-39 372 277
0.065420374 0.704 -0.045670826 1.2066071e-38 373 277
0.066654719 0.704 -0.045670826 1.3174214e-38 374 277
-0.010001013 0.713 -0.047504812 1.3081315e-38 312 278
-0.0087263398 0.71100003 -0.047371563 9.3931292e-39 313 278
-0.0074691991 0.70999998 -0.047304932 8.4758617e-39 314 278
-0.0062243328 0.70999998 -0.047304932 9.0290354e-39 315 278
-0.0049584266 0.70700002 -0.047105055 8.4773106e-39 316 278
-0.0037135598 0.70599997 -0.047038425 8.1085267e-39 317 278
-0.0024651866 0.70300001 -0.046838548 8.7445256e-39 318 278
-0.0012290865 0.70099998 -0.046705291 7.3615912e-39 319 278
0 0.69999999 -0.046638668 7.9021715e-39 320 278
0.0012238267 0.69800001 -0.046505414 7.2568021e-39 321 278
0.0024441467 0.69700003 -0.046438783 6.8887552e-39 322 278
0.0036504399 0.69400001 -0.046238903 7.349732e-39 323 278
0.00486024 0.69300002 -0.04617228 6.4349826e-39 324 278
0.0060753003 0.69300002 -0.04617228 6.8959607e-39 325 278
0.0072903596 0.69300002 -0.04617228 6.8034077e-39 326 278
0.008480873 0.69099998 -0.046039023 6.527181e-39 327 278
0.0096783992 0.69 -0.045972396 6.6183004e-39 328 278
0.010888199 0.69 -0.045972396 6.5257461e-39 329 278
0.012097999 0.69 -0.045972396 6.0669259e-39 330 278
0.0133078 0.69 -0.045972396 5.9747289e-39 331 278
0.014517599 0.69 -0.045972396 5.8818088e-39 332 278
0.015681813 0.68800002 -0.045839146 5.7896131e-39 333 278
0.016888106 0.68800002 -0.045839146 5.9732813e-39 334 278
0.0180944 0.68800002 -0.045839146 5.8810857e-39 335 278
0.019300694 0.68800002 -0.045839146 6.1562279e-39 336 278
0.020477179 0.68699998 -0.045772515 6.0640322e-39 337 278
0.021681719 0.68699998 -0.045772515 5.6974049e-39 338 278
0.022886258 0.68699998 -0.045772515 5.6974049e-39 339 278
0.024090799 0.68699998 -0.045772515 5.6974049e-39 340 278
0.025295338 0.68699998 -0.045772515 5.5126535e-39 341 278
0.026499879 0.68699998 -0.045772515 5.2371456e-39 342 278
0.027704418 0.68699998 -0.045772515 4.9602e-39 343 278
0.028908957 0.68699998 -0.045772515 4.8672855e-39 344 278
0.030113498 0.68699998 -0.045772515 4.7754486e-39 345 278
0.031318039 0.68699998 -0.045772515 4.4081094e-39 346 278
0.032522578 0.68699998 -0.045772515 4.4081094e-39 347 278
0.033727121 0.68699998 -0.045772515 4.2244384e-39 348 278
0.034931656 0.68699998 -0.045772515 4.3166341e-39 349 278
0.036136195 0.68699998 -0.045772515 4.4081094e-39 350 278
0.037340738 0.68699998 -0.045772515 4.4081094e-39 351 278
0.038545277 0.68699998 -0.045772515 4.3173501e-39 352 278
0.039749816 0.68699998 -0.045772515 4.133319e-39 353 278
0.041013971 0.68800002 -0.045839146 4.3173501e-39 354 278
0.042220265 0.68800002 -0.045839146 4.3173501e-39 355 278
0.043426562 0.68800002 -0.045839146 4.3173501e-39 356 278
0.0447626 0.69 -0.045972396 4.3173501e-39 357 278
0.045972396 0.69 -0.045972396 4.0414863e-39 358 278
0.047250576 0.69099998 -0.046039023 3.9492907e-39 359 278
0.04846213 0.69099998 -0.046039023 3.8581768e-39 360 278
0.049817458 0.69300002 -0.04617228 3.9503725e-39 361 278
0.051032521 0.69300002 -0.04617228 3.6752275e-39 362 278
0.052322973 0.69400001 -0.046238903 3.5830319e-39 363 278
0.053694077 0.69599998 -0.046372157 3.7656281e-39 364 278
0.054914396 0.69599998 -0.046372157 3.5815956e-39 365 278
0.056296028 0.69800001 -0.046505414 3.3060835e-39 366 278
0.057519849 0.69800001 -0.046505414 3.4901174e-39 367 278
0.058911994 0.69999999 -0.046638668 3.033451e-39 368 278
0.060139328 0.69999999 -0.046638668 3.402235e-39 369 278
0.061629668 0.70300001 -0.046838548 3.8631935e-39 370 278
0.062951677 0.704 -0.046905171 4.139779e-39 371 278
0.064186029 0.704 -0.046905171 9.6700594e-39 372 278
0.065420374 0.704 -0.046905171 1.2527765e-38 373 278
0.066654719 0.704 -0.046905171 1.3172779e-38 374 278
-0.0099729598 0.71100003 -0.048618179 1.308168e-38 312 279
-0.0087263398 0.71100003 -0.048618179 1.0131779e-38 313 279
-0.0074691991 0.70999998 -0.048549797 9.3063482e-39 314 279
-0.0062067998 0.708 -0.048413038 9.2141512e-39 315 279
-0.0049584266 0.70700002 -0.048344657 8.3869156e-39 316 279
-0.0037135598 0.70599997 -0.048276275 8.017773e-39 317 279
-0.0024651866 0.70300001 -0.048071139 8.4733463e-39 318 279
-0.0012273333 0.69999999 -0.047865998 7.7357813e-39 319 279
0 0.69800001 -0.047729239 8.6426176e-39 320 279
0.0012220733 0.69700003 -0.047660861 7.2596817e-39 321 279
0.0024406398 0.69599998 -0.047592476 6.703994e-39 322 279
0.0036504399 0.69400001 -0.047455717 6.7958309e-39 323 279
0.00486024 0.69300002 -0.047387339 6.1548055e-39 324 279
0.0060753003 0.69300002 -0.047387339 6.0626085e-39 325 279
0.0072903596 0.69300002 -0.047387339 6.3395625e-39 326 279
0.008480873 0.69099998 -0.047250576 6.1551713e-39 327 279
0.0096783992 0.69 -0.047182199 6.4321141e-39 328 279
0.010888199 0.69 -0.047182199 6.3399185e-39 329 279
0.012097999 0.69 -0.047182199 6.064405e-39 330 279
0.0133078 0.69 -0.047182199 5.9722093e-39 331 279
0.014475521 0.68800002 -0.047045439 5.9722065e-39 332 279
0.015681813 0.68800002 -0.047045439 5.8800109e-39 333 279
0.016888106 0.68800002 -0.047045439 6.0636791e-39 334 279
0.0180944 0.68800002 -0.047045439 6.0636791e-39 335 279
0.019300694 0.68800002 -0.047045439 6.0636763e-39 336 279
0.020477179 0.68699998 -0.046977058 6.0636763e-39 337 279
0.021681719 0.68699998 -0.046977058 5.8803612e-39 338 279
0.022886258 0.68699998 -0.046977058 5.7881642e-39 339 279
0.024090799 0.68699998 -0.046977058 5.5126563e-39 340 279
0.025295338 0.68699998 -0.046977058 5.4204607e-39 341 279
0.026499879 0.68699998 -0.046977058 4.9602056e-39 342 279
0.027704418 0.68699998 -0.046977058 4.6836187e-39 343 279
0.028908957 0.68699998 -0.046977058 4.6836187e-39 344 279
0.030113498 0.68699998 -0.046977058 4.4081094e-39 345 279
0.031318039 0.68699998 -0.046977058 4.2244328e-39 346 279
0.032522578 0.68699998 -0.046977058 4.408108e-39 347 279
0.033727121 0.68699998 -0.046977058 4.1325987e-39 348 279
0.034931656 0.68699998 -0.046977058 4.2244356e-39 349 279
0.036136195 0.68699998 -0.046977058 4.2244356e-39 350 279
0.037340738 0.68699998 -0.046977058 4.2244356e-39 351 279
0.038545277 0.68699998 -0.046977058 4.0407674e-39 352 279
0.039749816 0.68699998 -0.046977058 3.9489305e-39 353 279
0.041013971 0.68800002 -0.047045439 3.9492907e-39 354 279
0.042220265 0.68800002 -0.047045439 3.9492907e-39 355 279
0.043426562 0.68800002 -0.047045439 4.0414891e-39 356 279
0.0447626 0.69 -0.047182199 4.0414891e-39 357 279
0.045972396 0.69 -0.047182199 3.9492935e-39 358 279
0.047250576 0.69099998 -0.047250576 3.6734255e-39 359 279
0.04846213 0.69099998 -0.047250576 3.9492907e-39 360 279
0.049817458 0.69300002 -0.047387339 4.0414863e-39 361 279
0.051032521 0.69300002 -0.047387339 3.6745016e-39 362 279
0.052322973 0.69400001 -0.047455717 3.6745016e-39 363 279
0.053694077 0.69599998 -0.047592476 3.58159e-39 364 279
0.054914396 0.69599998 -0.047592476 3.58159e-39 365 279
0.056296028 0.69800001 -0.047729239 3.1224097e-39 366 279
0.057519849 0.69800001 -0.047729239 3.3986378e-39 367 279
0.058911994 0.69999999 -0.047865998 3.2178395e-39 368 279
0.060139328 0.69999999 -0.047865998 3.6788176e-39 369 279
0.061629668 0.70300001 -0.048071139 4.3223696e-39 370 279
0.062862262 0.70300001 -0.048071139 4.967739e-39 371 279
0.064094849 0.70300001 -0.048071139 1.0222874e-38 372 279
0.065420374 0.704 -0.048139516 1.2896548e-38 373 279
-0.0087140659 0.70999998 -0.049794663 1.0224339e-38 313 280
-0.0074691991 0.70999998 -0.049794663 9.1230359e-39 314 280
-0.0062067998 0.708 -0.049654398 9.2152316e-39 315 280
-0.0049584266 0.70700002 -0.049584266 8.7538933e-39 316 280
-0.0037135598 0.70599997 -0.04951413 8.3854695e-39 317 280
-0.0024651866 0.70300001 -0.049303733 8.7538933e-39 318 280
-0.0012273333 0.69999999 -0.049093332 8.4776665e-39 319 280
0 0.69800001 -0.048953064 8.8352863e-39 320 280
0.0012220733 0.69700003 -0.048882935 7.1761251e-39 321 280
0.0024406398 0.69599998 -0.048812799 7.6255902e-39 322 280
0.0036504399 0.69400001 -0.048672531 6.703994e-39 323 280
0.0048672534 0.69400001 -0.048672531 5.5101438e-39 324 280
0.0060753003 0.69300002 -0.048602402 5.87749e-39 325 280
0.0072903596 0.69300002 -0.048602402 5.2360918e-39 326 280
0.008480873 0.69099998 -0.04846213 5.69707e-39 327 280
0.0096783992 0.69 -0.048391998 5.6974203e-39 328 280
0.010888199 0.69 -0.048391998 5.6974203e-39 329 280
0.012097999 0.69 -0.048391998 5.8807326e-39 330 280
0.0133078 0.69 -0.048391998 5.8807326e-39 331 280
0.014475521 0.68800002 -0.048251733 5.6045016e-39 332 280
0.015681813 0.68800002 -0.048251733 5.6045016e-39 333 280
0.016888106 0.68800002 -0.048251733 5.7881698e-39 334 280
0.0180944 0.68800002 -0.048251733 5.7881698e-39 335 280
0.019300694 0.68800002 -0.048251733 5.8803612e-39 336 280
0.020477179 0.68699998 -0.048181597 5.8803612e-39 337 280
0.021681719 0.68699998 -0.048181597 5.7885201e-39 338 280
0.022886258 0.68699998 -0.048181597 5.6963245e-39 339 280
0.024090799 0.68699998 -0.048181597 5.4204607e-39 340 280
0.025295338 0.68699998 -0.048181597 5.3282651e-39 341 280
0.026499879 0.68699998 -0.048181597 4.9594853e-39 342 280
0.027704418 0.68699998 -0.048181597 4.7754528e-39 343 280
0.028908957 0.68699998 -0.048181597 4.4081066e-39 344 280
0.030113498 0.68699998 -0.048181597 4.3162683e-39 345 280
0.031318039 0.68699998 -0.048181597 4.0407618e-39 346 280
0.032522578 0.68699998 -0.048181597 4.1326001e-39 347 280
0.033727121 0.68699998 -0.048181597 3.8570978e-39 348 280
0.034931656 0.68699998 -0.048181597 3.6734255e-39 349 280
0.036136195 0.68699998 -0.048181597 4.0407674e-39 350 280
0.037340738 0.68699998 -0.048181597 4.1326043e-39 351 280
0.038545277 0.68699998 -0.048181597 3.9489333e-39 352 280
0.039749816 0.68699998 -0.048181597 3.8570964e-39 353 280
0.041013971 0.68800002 -0.048251733 3.9492935e-39 354 280
0.042220265 0.68800002 -0.048251733 3.9492935e-39 355 280
0.043426562 0.68800002 -0.048251733 3.7667001e-39 356 280
0.0447626 0.69 -0.048391998 3.7667001e-39 357 280
0.046039023 0.69099998 -0.04846213 3.9489361e-39 358 280
0.047250576 0.69099998 -0.04846213 3.8570992e-39 359 280
0.04846213 0.69099998 -0.04846213 3.8570992e-39 360 280
0.049817458 0.69300002 -0.048602402 3.8570992e-39 361 280
0.051032521 0.69300002 -0.048602402 3.3986406e-39 362 280
0.052322973 0.69400001 -0.048672531 3.306445e-39 363 280
0.053694077 0.69599998 -0.048812799 3.3060835e-39 364 280
0.054914396 0.69599998 -0.048812799 3.3979218e-39 365 280
0.056215372 0.69700003 -0.048882935 2.8472647e-39 366 280
0.057519849 0.69800001 -0.048953064 3.3082429e-39 367 280
0.058911994 0.69999999 -0.049093332 3.2185654e-39 368 280
0.060139328 0.69999999 -0.049093332 3.5873479e-39 369 280
0.06145433 0.70099998 -0.049163464 4.6014802e-39 370 280
0.062683418 0.70099998 -0.049163464 5.7078278e-39 371 280
0.063912503 0.70099998 -0.049163464 1.123667e-38 372 280
0.065141588 0.70099998 -0.049163464 1.3449724e-38 373 280
-0.0099729598 0.71100003 -0.051111419 1.2991648e-38 312 281
-0.008677247 0.70700002 -0.050823875 9.5807701e-39 313 281
-0.0074376399 0.70700002 -0.050823875 8.5702251e-39 314 281
-0.0061892662 0.70599997 -0.050751984 9.1233989e-39 315 281
-0.0049514128 0.70599997 -0.050751984 8.7553408e-39 316 281
-0.0037030398 0.704 -0.050608214 8.3869184e-39 317 281
-0.0024651866 0.70300001 -0.050536323 8.572746e-39 318 281
-0.0012273333 0.69999999 -0.050320663 8.480549e-39 319 281
0 0.69800001 -0.050176892 9.3023783e-39 320 281
0.0012220733 0.69700003 -0.050105009 7.3662701e-39 321 281
0.0024336267 0.69400001 -0.049889345 6.9848927e-39 322 281
0.0036504399 0.69400001 -0.049889345 5.878548e-39 323 281
0.0048672534 0.69400001 -0.049889345 5.2346247e-39 324 281
0.0060753003 0.69300002 -0.049817458 5.3264616e-39 325 281
0.0072903596 0.69300002 -0.049817458 5.2367925e-39 326 281
0.0085054198 0.69300002 -0.049817458 5.513378e-39 327 281
0.0096924258 0.69099998 -0.049673684 5.6977706e-39 328 281
0.010888199 0.69 -0.049601797 5.6977706e-39 329 281
0.012097999 0.69 -0.049601797 5.6970518e-39 330 281
0.0133078 0.69 -0.049601797 5.6970518e-39 331 281
0.014475521 0.68800002 -0.049458027 5.513022e-39 332 281
0.015681813 0.68800002 -0.049458027 5.3289909e-39 333 281
0.016888106 0.68800002 -0.049458027 5.6048547e-39 334 281
0.0180944 0.68800002 -0.049458027 5.6048547e-39 335 281
0.019300694 0.68800002 -0.049458027 5.879641e-39 336 281
0.020477179 0.68699998 -0.049386136 5.7874453e-39 337 281
0.021681719 0.68699998 -0.049386136 5.5126563e-39 338 281
0.022886258 0.68699998 -0.049386136 5.5126563e-39 339 281
0.024090799 0.68699998 -0.049386136 5.2367925e-39 340 281
0.025295338 0.68699998 -0.049386136 5.0524012e-39 341 281
0.026499879 0.68699998 -0.049386136 4.6843376e-39 342 281
0.027704418 0.68699998 -0.049386136 4.4999463e-39 343 281
0.028908957 0.68699998 -0.049386136 4.3162683e-39 344 281
0.030113498 0.68699998 -0.049386136 4.0407618e-39 345 281
0.031318039 0.68699998 -0.049386136 4.2244328e-39 346 281
0.032522578 0.68699998 -0.049386136 4.3162683e-39 347 281
0.033727121 0.68699998 -0.049386136 4.0407646e-39 348 281
0.034931656 0.68699998 -0.049386136 4.1326015e-39 349 281
0.036136195 0.68699998 -0.049386136 3.9489305e-39 350 281
0.037340738 0.68699998 -0.049386136 3.9489305e-39 351 281
0.038545277 0.68699998 -0.049386136 3.9489305e-39 352 281
0.039807681 0.68800002 -0.049458027 3.8570936e-39 353 281
0.041013971 0.68800002 -0.049458027 3.8570936e-39 354 281
0.042220265 0.68800002 -0.049458027 4.0407674e-39 355 281
0.043426562 0.68800002 -0.049458027 3.7666973e-39 356 281
0.0447626 0.69 -0.049601797 3.6745016e-39 357 281
0.045972396 0.69 -0.049601797 3.9489333e-39 358 281
0.047250576 0.69099998 -0.049673684 3.7652581e-39 359 281
0.04846213 0.69099998 -0.049673684 3.6734255e-39 360 281
0.049817458 0.69300002 -0.049817458 3.5815872e-39 361 281
0.051032521 0.69300002 -0.049817458 3.4897517e-39 362 281
0.052322973 0.69400001 -0.049889345 3.3060793e-39 363 281
0.053694077 0.69599998 -0.050033119 3.2142466e-39 364 281
0.054993302 0.69700003 -0.050105009 3.3060835e-39 365 281
0.056215372 0.69700003 -0.050105009 2.9405365e-39 366 281
0.057519849 0.69800001 -0.050176892 3.1249278e-39 367 281
0.058911994 0.69999999 -0.050320663 3.7692154e-39 368 281
0.060139328 0.69999999 -0.050320663 4.1383567e-39 369 281
0.06145433 0.70099998 -0.050392549 5.8889722e-39 370 281
0.062683418 0.70099998 -0.050392549 7.7332449e-39 371 281
0.063912503 0.70099998 -0.050392549 1.2066787e-38 372 281
-0.0099729598 0.71100003 -0.052358042 1.3083478e-38 312 282
-0.0087140659 0.70999998 -0.052284397 9.8566311e-39 313 282
-0.0074376399 0.70700002 -0.05206348 8.9364895e-39 314 282
-0.0061892662 0.70599997 -0.051989835 9.3978278e-39 315 282
-0.0049514128 0.70599997 -0.051989835 8.6624263e-39 316 282
-0.0037030398 0.704 -0.051842559 8.4780351e-39 317 282
-0.0024651866 0.70300001 -0.051768921 7.7444301e-39 318 282
-0.0012273333 0.69999999 -0.051547997 7.7444301e-39 319 282
0 0.69800001 -0.051400717 9.2141512e-39 320 282
0.0012220733 0.69700003 -0.051327083 8.2921963e-39 321 282
0.0024336267 0.69400001 -0.051106159 8.7427249e-39 322 282
0.0036504399 0.69400001 -0.051106159 5.7002692e-39 323 282
0.0048672534 0.69400001 -0.051106159 4.5917748e-39 324 282
0.0060753003 0.69300002 -0.051032521 5.1427878e-39 325 282
0.0072903596 0.69300002 -0.051032521 4.9598497e-39 326 282
0.0085054198 0.69300002 -0.051032521 5.3289909e-39 327 282
0.0096924258 0.69099998 -0.050885238 5.5133752e-39 328 282
0.01090398 0.69099998 -0.050885238 5.6055722e-39 329 282
0.012097999 0.69 -0.050811596 5.605575e-39 330 282
0.0133078 0.69 -0.050811596 5.3289881e-39 331 282
0.014475521 0.68800002 -0.050664321 5.2375142e-39 332 282
0.015681813 0.68800002 -0.050664321 5.2375142e-39 333 282
0.016888106 0.68800002 -0.050664321 5.2375142e-39 334 282
0.0180944 0.68800002 -0.050664321 5.2375142e-39 335 282
0.019300694 0.68800002 -0.050664321 5.4201048e-39 336 282
0.020477179 0.68699998 -0.050590675 5.4201048e-39 337 282
0.021681719 0.68699998 -0.050590675 5.1445969e-39 338 282
0.022886258 0.68699998 -0.050590675 5.0524012e-39 339 282
0.024090799 0.68699998 -0.050590675 5.2357135e-39 340 282
0.025295338 0.68699998 -0.050590675 4.9594853e-39 341 282
0.026499879 0.68699998 -0.050590675 4.6836187e-39 342 282
0.027704418 0.68699998 -0.050590675 4.4999449e-39 343 282
0.028908957 0.68699998 -0.050590675 4.3162683e-39 344 282
0.030113498 0.68699998 -0.050590675 4.0407618e-39 345 282
0.031318039 0.68699998 -0.050590675 3.8570908e-39 346 282
0.032522578 0.68699998 -0.050590675 3.8570908e-39 347 282
0.033727121 0.68699998 -0.050590675 3.7652553e-39 348 282
0.034931656 0.68699998 -0.050590675 3.7652553e-39 349 282
0.036136195 0.68699998 -0.050590675 3.857451e-39 350 282
0.037340738 0.68699998 -0.050590675 3.857451e-39 351 282
0.038545277 0.68699998 -0.050590675 3.9496466e-39 352 282
0.039807681 0.68800002 -0.050664321 3.6734198e-39 353 282
0.041013971 0.68800002 -0.050664321 3.857451e-39 354 282
0.042220265 0.68800002 -0.050664321 3.857451e-39 355 282
0.043426562 0.68800002 -0.050664321 3.4904705e-39 356 282
0.0447626 0.69 -0.050811596 3.3982749e-39 357 282
0.045972396 0.69 -0.050811596 3.7652595e-39 358 282
0.047250576 0.69099998 -0.050885238 3.6734226e-39 359 282
0.04846213 0.69099998 -0.050885238 3.5815872e-39 360 282
0.049817458 0.69300002 -0.051032521 3.5815872e-39 361 282
0.051032521 0.69300002 -0.051032521 3.1224069e-39 362 282
0.052322973 0.69400001 -0.051106159 3.1224069e-39 363 282
0.053694077 0.69599998 -0.051253434 3.0305728e-39 364 282
0.054993302 0.69700003 -0.051327083 3.3064422e-39 365 282
0.056215372 0.69700003 -0.051327083 3.0327322e-39 366 282
0.057519849 0.69800001 -0.051400717 3.2171234e-39 367 282
0.058911994 0.69999999 -0.051547997 3.7713692e-39 368 282
0.060139328 0.69999999 -0.051547997 4.2319886e-39 369 282
0.06145433 0.70099998 -0.051621638 6.6261743e-39 370 282
0.062862262 0.70300001 -0.051768921 9.1150976e-39 371 282
-0.0099729598 0.71100003 -0.053604662 1.3268227e-38 312 283
-0.0087140659 0.70999998 -0.053529263 9.9491841e-39 313 283
-0.0074271196 0.70599997 -0.053227689 9.0279634e-39 314 283
-0.0061892662 0.70599997 -0.053227689 9.5811372e-39 315 283
-0.0049373866 0.704 -0.053076904 8.7546248e-39 316 283
-0.0036977797 0.70300001 -0.053001512 8.1092554e-39 317 283
-0.0024651866 0.70300001 -0.053001512 7.3717001e-39 318 283
-0.0012273333 0.69999999 -0.052775331 7.4638972e-39 319 283
0 0.69800001 -0.052624546 8.6627921e-39 320 283
0.0012220733 0.69700003 -0.052549154 9.4925541e-39 321 283
0.0024406398 0.69599998 -0.052473757 1.0409825e-38 322 283
0.0036504399 0.69400001 -0.052322973 6.8141949e-39 323 283
0.0048672534 0.69400001 -0.052322973 4.7754584e-39 324 283
0.0060840664 0.69400001 -0.052322973 4.8672953e-39 325 283
0.0072903596 0.69300002 -0.05224758 4.9598525e-39 326 283
0.0085054198 0.69300002 -0.05224758 5.1442437e-39 327 283
0.0096924258 0.69099998 -0.052096792 5.513378e-39 328 283
0.01090398 0.69099998 -0.052096792 5.513378e-39 329 283
0.012097999 0.69 -0.052021399 5.3289881e-39 330 283
0.0133078 0.69 -0.052021399 5.2367925e-39 331 283
0.014475521 0.68800002 -0.051870614 5.1453185e-39 332 283
0.015681813 0.68800002 -0.051870614 5.1453185e-39 333 283
0.016888106 0.68800002 -0.051870614 5.1453185e-39 334 283
0.0180944 0.68800002 -0.051870614 5.0527642e-39 335 283
0.019300694 0.68800002 -0.051870614 5.2357163e-39 336 283
0.020506985 0.68800002 -0.051870614 5.2357163e-39 337 283
0.021681719 0.68699998 -0.051795214 5.0513292e-39 338 283
0.022886258 0.68699998 -0.051795214 4.8672953e-39 339 283
0.024090799 0.68699998 -0.051795214 5.1428018e-39 340 283
0.025295338 0.68699998 -0.051795214 5.1428018e-39 341 283
0.026499879 0.68699998 -0.051795214 4.5917846e-39 342 283
0.027704418 0.68699998 -0.051795214 4.4081108e-39 343 283
0.028908957 0.68699998 -0.051795214 4.0407618e-39 344 283
0.030113498 0.68699998 -0.051795214 3.8570908e-39 345 283
0.031318039 0.68699998 -0.051795214 3.6734198e-39 346 283
0.032522578 0.68699998 -0.051795214 3.6734198e-39 347 283
0.033727121 0.68699998 -0.051795214 3.7652553e-39 348 283
0.034931656 0.68699998 -0.051795214 3.8570908e-39 349 283
0.036136195 0.68699998 -0.051795214 3.8570908e-39 350 283
0.037340738 0.68699998 -0.051795214 3.9489263e-39 351 283
0.038545277 0.68699998 -0.051795214 3.9489263e-39 352 283
0.039807681 0.68800002 -0.051870614 3.8570908e-39 353 283
0.041013971 0.68800002 -0.051870614 3.6734198e-39 354 283
0.042220265 0.68800002 -0.051870614 3.6734198e-39 355 283
0.043552797 0.69 -0.052021399 3.6734226e-39 356 283
0.0447626 0.69 -0.052021399 3.4897489e-39 357 283
0.046039023 0.69099998 -0.052096792 3.6734226e-39 358 283
0.047250576 0.69099998 -0.052096792 3.5815858e-39 359 283
0.048602402 0.69300002 -0.05224758 3.4897489e-39 360 283
0.049817458 0.69300002 -0.05224758 3.5815858e-39 361 283
0.051032521 0.69300002 -0.05224758 3.2142424e-39 362 283
0.052322973 0.69400001 -0.052322973 3.3060779e-39 363 283
0.053694077 0.69599998 -0.052473757 3.1231271e-39 364 283
0.054993302 0.69700003 -0.052549154 3.2153228e-39 365 283
0.056215372 0.69700003 -0.052549154 3.0327322e-39 366 283
0.05768466 0.69999999 -0.052775331 3.4933516e-39 367 283
0.058911994 0.69999999 -0.052775331 4.0483106e-39 368 283
0.060225245 0.70099998 -0.052850723 4.3245374e-39 369 283
0.061629668 0.70300001 -0.053001512 7.3640925e-39 370 283
0.062862262 0.70300001 -0.053001512 1.0313994e-38 371 283
-0.0099028256 0.70599997 -0.054465543 1.3268227e-38 312 284
-0.0086649731 0.70599997 -0.054465543 1.0225411e-38 313 284
-0.0074271196 0.70599997 -0.054465543 9.0283194e-39 314 284
-0.0061717331 0.704 -0.054311249 9.9499155e-39 315 284
-0.0049373866 0.704 -0.054311249 8.7553436e-39 316 284
-0.0036977797 0.70300001 -0.054234106 7.7411931e-39 317 284
-0.0024651866 0.70300001 -0.054234106 6.9107262e-39 318 284
-0.0012273333 0.69999999 -0.054002665 6.9107262e-39 319 284
0 0.69800001 -0.053848371 7.6511681e-39 320 284
0.0012220733 0.69700003 -0.053771228 8.3887331e-39 321 284
0.0024406398 0.69599998 -0.053694077 9.767346e-39 322 284
0.0036504399 0.69400001 -0.053539783 7.1858683e-39 323 284
0.0048672534 0.69400001 -0.053539783 5.1446123e-39 324 284
0.0060840664 0.69400001 -0.053539783 4.7761899e-39 325 284
0.0072903596 0.69300002 -0.053462639 4.8672953e-39 326 284
0.0085054198 0.69300002 -0.053462639 4.9591322e-39 327 284
0.0096924258 0.69099998 -0.053308345 5.2367925e-39 328 284
0.01090398 0.69099998 -0.053308345 5.2367925e-39 329 284
0.012115533 0.69099998 -0.053308345 5.1453157e-39 330 284
0.0133078 0.69 -0.053231198 5.0531201e-39 331 284
0.014517599 0.69 -0.053231198 4.593944e-39 332 284
0.015681813 0.68800002 -0.053076908 4.593944e-39 333 284
0.016888106 0.68800002 -0.053076908 4.7765374e-39 334 284
0.0180944 0.68800002 -0.053076908 4.4999491e-39 335 284
0.019300694 0.68800002 -0.053076908 4.8672939e-39 336 284
0.020506985 0.68800002 -0.053076908 4.8672939e-39 337 284
0.021681719 0.68699998 -0.052999757 4.775457e-39 338 284
0.022886258 0.68699998 -0.052999757 4.6836201e-39 339 284
0.024090799 0.68699998 -0.052999757 4.8672911e-39 340 284
0.025295338 0.68699998 -0.052999757 4.959128e-39 341 284
0.026499879 0.68699998 -0.052999757 4.4081136e-39 342 284
0.027704418 0.68699998 -0.052999757 4.3162767e-39 343 284
0.028908957 0.68699998 -0.052999757 3.7652567e-39 344 284
0.030113498 0.68699998 -0.052999757 3.5815844e-39 345 284
0.031318039 0.68699998 -0.052999757 3.3979134e-39 346 284
0.032522578 0.68699998 -0.052999757 3.3979134e-39 347 284
0.033727121 0.68699998 -0.052999757 3.6734198e-39 348 284
0.034931656 0.68699998 -0.052999757 3.7652553e-39 349 284
0.036136195 0.68699998 -0.052999757 3.8570908e-39 350 284
0.037395094 0.68800002 -0.053076908 4.0407618e-39 351 284
0.038601387 0.68800002 -0.053076908 3.8570908e-39 352 284
0.039807681 0.68800002 -0.053076908 3.7652553e-39 353 284
0.041013971 0.68800002 -0.053076908 3.7652553e-39 354 284
0.042342998 0.69 -0.053231198 3.7652553e-39 355 284
0.043552797 0.69 -0.053231198 3.4897503e-39 356 284
0.044827472 0.69099998 -0.053308345 3.3060779e-39 357 284
0.046039023 0.69099998 -0.053308345 3.3060779e-39 358 284
0.047387339 0.69300002 -0.053462639 3.2142424e-39 359 284
0.048602402 0.69300002 -0.053462639 3.3060779e-39 360 284
0.049817458 0.69300002 -0.053462639 3.3979148e-39 361 284
0.051032521 0.69300002 -0.053462639 3.1224069e-39 362 284
0.052322973 0.69400001 -0.053539783 3.3060779e-39 363 284
0.053694077 0.69599998 -0.053694077 3.1231299e-39 364 284
0.054993302 0.69700003 -0.053771228 3.2153256e-39 365 284
0.056296028 0.69800001 -0.053848371 3.2171262e-39 366 284
0.05768466 0.69999999 -0.054002665 3.6777457e-39 367 284
0.058911994 0.69999999 -0.054002665 4.4163701e-39 368 284
0.060225245 0.70099998 -0.054079808 4.8773482e-39 369 284
0.061629668 0.70300001 -0.054234106 8.3778857e-39 370 284
0.062862262 0.70300001 -0.054234106 1.1512537e-38 371 284
-0.0086649731 0.70599997 -0.055703394 1.0502354e-38 313 285
-0.0074271196 0.70599997 -0.055703394 9.4871423e-39 314 285
-0.0061717331 0.704 -0.055545598 1.0132512e-38 315 285
-0.0049373866 0.704 -0.055545598 9.3960383e-39 316 285
-0.0036977797 0.70300001 -0.0554667 8.2900509e-39 317 285
-0.0024651866 0.70300001 -0.0554667 7.0014785e-39 318 285
-0.0012273333 0.69999999 -0.055229999 7.2780668e-39 319 285
0 0.69800001 -0.0550722 6.6391812e-39 320 285
0.0012220733 0.69700003 -0.054993302 7.2845506e-39 321 285
0.0024406398 0.69599998 -0.054914396 9.2152596e-39 322 285
0.0036504399 0.69400001 -0.054756597 6.8185334e-39 323 285
0.0048672534 0.69400001 -0.054756597 4.8705519e-39 324 285
0.0060840664 0.69400001 -0.054756597 4.1329869e-39 325 285
0.0073008798 0.69400001 -0.054756597 4.6836299e-39 326 285
0.0085054198 0.69300002 -0.054677699 4.8673023e-39 327 285
0.0097204801 0.69300002 -0.054677699 4.7772563e-39 328 285
0.01090398 0.69099998 -0.054519895 4.9616475e-39 329 285
0.012115533 0.69099998 -0.054519895 4.7772563e-39 330 285
0.0133078 0.69 -0.054440998 4.6850606e-39 331 285
0.014517599 0.69 -0.054440998 4.2258832e-39 332 285
0.015727401 0.69 -0.054440998 4.2258832e-39 333 285
0.016888106 0.68800002 -0.054283202 4.4084766e-39 334 285
0.0180944 0.68800002 -0.054283202 4.1326071e-39 335 285
0.019300694 0.68800002 -0.054283202 4.5917832e-39 336 285
0.020506985 0.68800002 -0.054283202 4.5917832e-39 337 285
0.021713281 0.68800002 -0.054283202 4.591786e-39 338 285
0.022886258 0.68699998 -0.054204296 4.591786e-39 339 285
0.024090799 0.68699998 -0.054204296 4.5917832e-39 340 285
0.02533216 0.68800002 -0.054283202 4.6836201e-39 341 285
0.026499879 0.68699998 -0.054204296 4.1326057e-39 342 285
0.027704418 0.68699998 -0.054204296 4.0407674e-39 343 285
0.028908957 0.68699998 -0.054204296 3.6734226e-39 344 285
0.030113498 0.68699998 -0.054204296 3.4897489e-39 345 285
0.031318039 0.68699998 -0.054204296 3.2142424e-39 346 285
0.032569919 0.68800002 -0.054283202 3.3060779e-39 347 285
0.033776212 0.68800002 -0.054283202 3.3979134e-39 348 285
0.03498251 0.68800002 -0.054283202 3.5815844e-39 349 285
0.0361888 0.68800002 -0.054283202 3.4897489e-39 350 285
0.037395094 0.68800002 -0.054283202 3.5815844e-39 351 285
0.038601387 0.68800002 -0.054283202 3.5815844e-39 352 285
0.039807681 0.68800002 -0.054283202 3.5815844e-39 353 285
0.041133199 0.69 -0.054440998 3.7652567e-39 354 285
0.042342998 0.69 -0.054440998 3.7652567e-39 355 285
0.043615919 0.69099998 -0.054519895 3.4897489e-39 356 285
0.044827472 0.69099998 -0.054519895 3.3979134e-39 357 285
0.046039023 0.69099998 -0.054519895 3.3060779e-39 358 285
0.047387339 0.69300002 -0.054677699 3.2142424e-39 359 285
0.048602402 0.69300002 -0.054677699 3.0305714e-39 360 285
0.049889345 0.69400001 -0.054756597 3.2142424e-39 361 285
0.051106159 0.69400001 -0.054756597 2.9387359e-39 362 285
0.052473757 0.69599998 -0.054914396 3.0305728e-39 363 285
0.053771228 0.69700003 -0.054993302 2.9401806e-39 364 285
0.054993302 0.69700003 -0.054993302 3.1249306e-39 365 285
0.056457333 0.69999999 -0.055229999 3.0345328e-39 366 285
0.05768466 0.69999999 -0.055229999 3.8639348e-39 367 285
0.058911994 0.69999999 -0.055229999 4.5100006e-39 368 285
0.06039707 0.70300001 -0.0554667 5.4323171e-39 369 285
0.061629668 0.70300001 -0.0554667 9.4835074e-39 370 285
-0.0061717331 0.704 -0.056779943 1.0592051e-38 315 286
-0.0049373866 0.704 -0.056779943 9.3981963e-39 316 286
-0.0036977797 0.70300001 -0.056699295 8.7528269e-39 317 286
-0.0024651866 0.70300001 -0.056699295 6.2657099e-39 318 286
-0.0012273333 0.69999999 -0.056457333 6.4501012e-39 319 286
0 0.69999999 -0.056457333 6.9132429e-39 320 286
0.0012238267 0.69800001 -0.056296028 7.7433637e-39 321 286
0.0024476533 0.69800001 -0.056296028 8.9408307e-39 322 286
0.0036504399 0.69400001 -0.055973411 6.5433856e-39 323 286
0.0048672534 0.69400001 -0.055973411 3.950755e-39 324 286
0.0060840664 0.69400001 -0.055973411 3.7667239e-39 325 286
0.0073008798 0.69400001 -0.055973411 4.5917832e-39 326 286
0.0085054198 0.69300002 -0.055892758 4.8672939e-39 327 286
0.0097204801 0.69300002 -0.055892758 4.9602e-39 328 286
0.01090398 0.69099998 -0.055731449 4.9602e-39 329 286
0.012115533 0.69099998 -0.055731449 4.6836215e-39 330 286
0.013327086 0.69099998 -0.055731449 4.5917846e-39 331 286
0.014517599 0.69 -0.055650797 4.4081178e-39 332 286
0.015727401 0.69 -0.055650797 4.2244454e-39 333 286
0.0169372 0.69 -0.055650797 4.4081094e-39 334 286
0.0180944 0.68800002 -0.055489492 4.3162711e-39 335 286
0.019300694 0.68800002 -0.055489492 4.4999393e-39 336 286
0.020506985 0.68800002 -0.055489492 4.4999393e-39 337 286
0.021713281 0.68800002 -0.055489492 4.5917748e-39 338 286
0.022919573 0.68800002 -0.055489492 4.7754486e-39 339 286
0.024125867 0.68800002 -0.055489492 4.4081038e-39 340 286
0.02533216 0.68800002 -0.055489492 4.4081038e-39 341 286
0.026499879 0.68699998 -0.055408835 3.9489277e-39 342 286
0.027704418 0.68699998 -0.055408835 3.8570908e-39 343 286
0.028908957 0.68699998 -0.055408835 3.4897517e-39 344 286
0.030113498 0.68699998 -0.055408835 3.3979148e-39 345 286
0.031318039 0.68699998 -0.055408835 3.2142438e-39 346 286
0.032569919 0.68800002 -0.055489492 3.3060807e-39 347 286
0.033776212 0.68800002 -0.055489492 3.3060779e-39 348 286
0.03498251 0.68800002 -0.055489492 3.3979134e-39 349 286
0.0361888 0.68800002 -0.055489492 3.4897489e-39 350 286
0.037395094 0.68800002 -0.055489492 3.4897489e-39 351 286
0.038601387 0.68800002 -0.055489492 3.4897489e-39 352 286
0.039807681 0.68800002 -0.055489492 3.5815844e-39 353 286
0.041133199 0.69 -0.055650797 3.5815844e-39 354 286
0.042404365 0.69099998 -0.055731449 3.4897489e-39 355 286
0.043615919 0.69099998 -0.055731449 3.3060779e-39 356 286
0.044827472 0.69099998 -0.055731449 3.2142424e-39 357 286
0.04617228 0.69300002 -0.055892758 3.2142424e-39 358 286
0.047387339 0.69300002 -0.055892758 3.0305714e-39 359 286
0.048672531 0.69400001 -0.055973411 3.0305728e-39 360 286
0.049889345 0.69400001 -0.055973411 3.2142452e-39 361 286
0.051106159 0.69400001 -0.055973411 2.9387415e-39 362 286
0.052473757 0.69599998 -0.056134716 3.3060891e-39 363 286
0.053771228 0.69700003 -0.056215372 3.0323762e-39 364 286
0.054993302 0.69700003 -0.056215372 3.1249306e-39 365 286
0.056457333 0.69999999 -0.056457333 3.586622e-39 366 286
0.05768466 0.69999999 -0.056457333 4.0479603e-39 367 286
0.058911994 0.69999999 -0.056457333 5.1542882e-39 368 286
0.060139328 0.69999999 -0.056457333 7.2744276e-39 369 286
-0.0074271196 0.70599997 -0.058179103 1.0496262e-38 314 287
-0.0061892662 0.70599997 -0.058179103 1.0219675e-38 315 287
-0.0049373866 0.704 -0.058014292 9.8555759e-39 316 287
-0.0037030398 0.704 -0.058014292 1.0224357e-38 317 287
-0.0024651866 0.70300001 -0.057931885 8.3851164e-39 318 287
-0.0012290865 0.70099998 -0.057767071 7.2787702e-39 319 287
0 0.69999999 -0.05768466 7.4678502e-39 320 287
0.0012273333 0.69999999 -0.05768466 7.6518813e-39 321 287
0.0024476533 0.69800001 -0.057519849 8.8508001e-39 322 287
0.00366622 0.69700003 -0.05743745 5.5317574e-39 323 287
0.0048672534 0.69400001 -0.057190225 3.3979442e-39 324 287
0.0060840664 0.69400001 -0.057190225 3.3061073e-39 325 287
0.0073008798 0.69400001 -0.057190225 4.0407786e-39 326 287
0.0085054198 0.69300002 -0.057107817 4.0407786e-39 327 287
0.0097204801 0.69300002 -0.057107817 4.3162781e-39 328 287
0.01090398 0.69099998 -0.056942999 4.2244412e-39 329 287
0.012115533 0.69099998 -0.056942999 4.1326127e-39 330 287
0.013327086 0.69099998 -0.056942999 4.0407758e-39 331 287
0.014517599 0.69 -0.0568606 3.6734367e-39 332 287
0.015727401 0.69 -0.0568606 3.4897615e-39 333 287
0.0169372 0.69 -0.0568606 3.8570992e-39 334 287
0.0180944 0.68800002 -0.056695789 3.7652623e-39 335 287
0.019300694 0.68800002 -0.056695789 4.0407618e-39 336 287
0.020506985 0.68800002 -0.056695789 4.2244328e-39 337 287
0.021713281 0.68800002 -0.056695789 4.1325973e-39 338 287
0.022919573 0.68800002 -0.056695789 4.1325973e-39 339 287
0.024125867 0.68800002 -0.056695789 4.1325973e-39 340 287
0.02533216 0.68800002 -0.056695789 3.9489263e-39 341 287
0.026538454 0.68800002 -0.056695789 3.7652567e-39 342 287
0.027744746 0.68800002 -0.056695789 3.6734198e-39 343 287
0.028951041 0.68800002 -0.056695789 3.3060779e-39 344 287
0.030157333 0.68800002 -0.056695789 3.3060779e-39 345 287
0.031363625 0.68800002 -0.056695789 3.2142424e-39 346 287
0.032569919 0.68800002 -0.056695789 3.2142424e-39 347 287
0.033776212 0.68800002 -0.056695789 3.0305728e-39 348 287
0.03498251 0.68800002 -0.056695789 3.0305728e-39 349 287
0.0361888 0.68800002 -0.056695789 2.9387359e-39 350 287
0.037395094 0.68800002 -0.056695789 2.9387359e-39 351 287
0.038601387 0.68800002 -0.056695789 3.2142424e-39 352 287
0.0399234 0.69 -0.0568606 3.3060793e-39 353 287
0.041133199 0.69 -0.0568606 3.2142438e-39 354 287
0.042404365 0.69099998 -0.056942999 3.2142438e-39 355 287
0.043615919 0.69099998 -0.056942999 3.2142424e-39 356 287
0.044957221 0.69300002 -0.057107817 3.0305714e-39 357 287
0.04617228 0.69300002 -0.057107817 3.0305714e-39 358 287
0.047455717 0.69400001 -0.057190225 3.0305714e-39 359 287
0.048672531 0.69400001 -0.057190225 2.9387373e-39 360 287
0.050033119 0.69599998 -0.057355035 3.1224111e-39 361 287
0.051253434 0.69599998 -0.057355035 2.8472647e-39 362 287
0.052549154 0.69700003 -0.05743745 3.1234929e-39 363 287
0.053771228 0.69700003 -0.05743745 2.8497829e-39 364 287
0.0550722 0.69800001 -0.057519849 3.2185654e-39 365 287
0.056457333 0.69999999 -0.05768466 3.5873479e-39 366 287
0.05768466 0.69999999 -0.05768466 4.5093042e-39 367 287
0.058911994 0.69999999 -0.05768466 5.5252344e-39 368 287
0.060139328 0.69999999 -0.05768466 8.3833003e-39 369 287
-0.0061892662 0.70599997 -0.059416957 8.2857125e-39 315 288
-0.0049373866 0.704 -0.059248637 9.026167e-39 316 288
-0.0037030398 0.704 -0.059248637 1.022471e-38 317 288
-0.0024651866 0.70300001 -0.059164476 9.2152442e-39 318 288
-0.0012290865 0.70099998 -0.058996156 9.0308529e-39 319 288
0 0.69999999 -0.058911994 8.7575058e-39 320 288
0.0012273333 0.69999999 -0.058911994 8.7575058e-39 321 288
0.0024476533 0.69800001 -0.058743682 8.2972536e-39 322 288
0.0036714801 0.69800001 -0.058743682 3.7796677e-39 323 288
0.0048882933 0.69700003 -0.05865952 2.9387401e-39 324 288
0.0060840664 0.69400001 -0.058407038 3.6734353e-39 325 288
0.0073008798 0.69400001 -0.058407038 3.8570936e-39 326 288
0.0085176928 0.69400001 -0.058407038 4.0407674e-39 327 288
0.0097204801 0.69300002 -0.058322877 4.0407618e-39 328 288
0.010935539 0.69300002 -0.058322877 4.0407618e-39 329 288
0.012150601 0.69300002 -0.058322877 3.8570936e-39 330 288
0.013327086 0.69099998 -0.058154557 3.6734198e-39 331 288
0.014538639 0.69099998 -0.058154557 3.5815858e-39 332 288
0.015727401 0.69 -0.058070395 3.5815858e-39 333 288
0.0169372 0.69 -0.058070395 3.8570908e-39 334 288
0.0180944 0.68800002 -0.057902083 3.9489263e-39 335 288
0.019300694 0.68800002 -0.057902083 3.9489263e-39 336 288
0.020506985 0.68800002 -0.057902083 4.2244328e-39 337 288
0.021713281 0.68800002 -0.057902083 4.1325973e-39 338 288
0.022919573 0.68800002 -0.057902083 4.0407618e-39 339 288
0.024125867 0.68800002 -0.057902083 3.9489263e-39 340 288
0.02533216 0.68800002 -0.057902083 3.9489263e-39 341 288
0.026538454 0.68800002 -0.057902083 3.6734198e-39 342 288
0.027744746 0.68800002 -0.057902083 3.5815844e-39 343 288
0.028951041 0.68800002 -0.057902083 3.3060779e-39 344 288
0.030157333 0.68800002 -0.057902083 3.3060779e-39 345 288
0.031363625 0.68800002 -0.057902083 3.2142424e-39 346 288
0.032569919 0.68800002 -0.057902083 3.2142424e-39 347 288
0.033776212 0.68800002 -0.057902083 3.0305714e-39 348 288
0.03498251 0.68800002 -0.057902083 3.0305714e-39 349 288
0.0361888 0.68800002 -0.057902083 3.0305714e-39 350 288
0.037503798 0.69 -0.058070395 3.1224069e-39 351 288
0.038713597 0.69 -0.058070395 3.3060779e-39 352 288
0.0399234 0.69 -0.058070395 3.3060779e-39 353 288
0.041133199 0.69 -0.058070395 3.2142424e-39 354 288
0.042404365 0.69099998 -0.058154557 3.2142424e-39 355 288
0.043742158 0.69300002 -0.058322877 3.1224069e-39 356 288
0.044957221 0.69300002 -0.058322877 3.0305714e-39 357 288
0.04617228 0.69300002 -0.058322877 3.0305714e-39 358 288
0.047455717 0.69400001 -0.058407038 3.0305714e-39 359 288
0.048812799 0.69599998 -0.058575355 2.9387373e-39 360 288
0.050033119 0.69599998 -0.058575355 3.214248e-39 361 288
0.051327083 0.69700003 -0.05865952 2.847985e-39 362 288
0.052549154 0.69700003 -0.05865952 3.0323762e-39 363 288
0.053848371 0.69800001 -0.058743682 3.1256439e-39 364 288
0.055229999 0.69999999 -0.058911994 3.4025909e-39 365 288
0.056457333 0.69999999 -0.058911994 4.2319886e-39 366 288
0.057767071 0.70099998 -0.058996156 4.9695537e-39 367 288
0.058996156 0.70099998 -0.058996156 7.1804439e-39 368 288
