# .PCD v.7 - Point Cloud Data file format
FIELDS x y z rgb imX imY
SIZE 4 4 4 4 4 4
TYPE F F F F F F
COUNT 1 1 1 1 1 1
WIDTH 844
HEIGHT 1
VIEWPOINT 0 0 0 1 0 0 0
POINTS 844
DATA ascii
0 0.71100003 -0.022439159 8.1805632e-39 320 258
0.0012448666 0.70999998 -0.022407599 8.4575089e-39 321 258
0.0024897333 0.70999998 -0.022407599 8.9141626e-39 322 258
0.0037345996 0.70999998 -0.022407599 8.4535432e-39 323 258
0.0049794666 0.70999998 -0.022407599 9.093149e-39 324 258
0.0062067998 0.708 -0.022344479 8.7243721e-39 325 258
0.0074376399 0.70700002 -0.022312919 8.5407011e-39 326 258
0.008677247 0.70700002 -0.022312919 8.4488656e-39 327 258
0.0099168532 0.70700002 -0.022312919 8.4488656e-39 328 258
0.011156459 0.70700002 -0.022312919 8.8176426e-39 329 258
0.012396066 0.70700002 -0.022312919 8.3595427e-39 330 258
0.013616386 0.70599997 -0.022281358 7.9911231e-39 331 258
0.014854239 0.70599997 -0.022281358 8.2662779e-39 332 258
0.016092092 0.70599997 -0.022281358 8.1740822e-39 333 258
0.017354494 0.70700002 -0.022312919 7.715625e-39 334 258
0.018594101 0.70700002 -0.022312919 7.715625e-39 335 258
0.019833706 0.70700002 -0.022312919 7.257165e-39 336 258
0.021073313 0.70700002 -0.022312919 7.3493606e-39 337 258
0.022312919 0.70700002 -0.022312919 6.8912593e-39 338 258
0.023552528 0.70700002 -0.022312919 6.8912593e-39 339 258
0.024897331 0.70999998 -0.022407599 6.4338741e-39 340 258
0.026252659 0.713 -0.022502279 6.7101009e-39 341 258
0.02754136 0.71399999 -0.022533838 6.6200576e-39 342 258
0.028873893 0.71600002 -0.022596961 6.7122533e-39 343 258
0.03012928 0.71600002 -0.022596961 7.0799568e-39 344 258
0.031428497 0.71700001 -0.02262852 7.2647082e-39 345 258
0.032640055 0.71600002 -0.022596961 7.5405692e-39 346 258
0.03389544 0.71600002 -0.022596961 7.5405692e-39 347 258
0.035150826 0.71600002 -0.022596961 7.5409223e-39 348 258
0.036406212 0.71600002 -0.022596961 7.5409223e-39 349 258
0.037556399 0.71399999 -0.022533838 7.7235115e-39 350 258
0.038808275 0.71399999 -0.022533838 7.6313159e-39 351 258
0.040004052 0.713 -0.022502279 7.9043127e-39 352 258
0.041138459 0.71100003 -0.022439159 7.3511445e-39 353 258
0.042385083 0.71100003 -0.022439159 7.3482746e-39 354 258
0.043570329 0.70999998 -0.022407599 7.1638862e-39 355 258
0.044815198 0.70999998 -0.022407599 6.9809326e-39 356 258
0.045930319 0.708 -0.022344479 7.2578741e-39 357 258
0.047171678 0.708 -0.022344479 6.9855962e-39 358 258
0.048413038 0.708 -0.022344479 6.8934019e-39 359 258
0.049584266 0.70700002 -0.022312919 6.6153843e-39 360 258
0.050823875 0.70700002 -0.022312919 6.1547719e-39 361 258
0.052137118 0.708 -0.022344479 5.5122878e-39 362 258
0.053378478 0.708 -0.022344479 5.6963189e-39 363 258
0.054542694 0.70700002 -0.022312919 5.6052051e-39 364 258
0.055782299 0.70700002 -0.022312919 5.8814332e-39 365 258
0.057021905 0.70700002 -0.022312919 6.1590977e-39 366 258
0.058343921 0.708 -0.022344479 6.1590977e-39 367 258
0.059753593 0.70999998 -0.022407599 4.9627195e-39 368 258
0.060998458 0.70999998 -0.022407599 4.133319e-39 369 258
0.062243331 0.70999998 -0.022407599 6.3593278e-39 370 258
0.063845873 0.71399999 -0.022533838 1.1061305e-38 371 258
0.065097757 0.71399999 -0.022533838 1.3176397e-38 372 258
-0.0049794666 0.70999998 -0.023652466 1.1148819e-38 316 259
-0.0037345996 0.70999998 -0.023652466 6.3546461e-39 317 259
-0.0024897333 0.70999998 -0.023652466 5.0545494e-39 318 259
-0.0012448666 0.70999998 -0.023652466 5.4233319e-39 319 259
0 0.70999998 -0.023652466 8.0897997e-39 320 259
0.00124136 0.708 -0.023585839 7.9976041e-39 321 259
0.00248272 0.708 -0.023585839 9.0031212e-39 322 259
0.00372408 0.708 -0.023585839 8.7265329e-39 323 259
0.0049654399 0.708 -0.023585839 8.8165664e-39 324 259
0.0061980332 0.70700002 -0.023552528 8.6325366e-39 325 259
0.0074271196 0.70599997 -0.023519212 8.5407011e-39 326 259
0.0086649731 0.70599997 -0.023519212 8.2651947e-39 327 259
0.0099028256 0.70599997 -0.023519212 8.4488656e-39 328 259
0.011140679 0.70599997 -0.023519212 8.8172838e-39 329 259
0.012378532 0.70599997 -0.023519212 8.6343303e-39 330 259
0.013616386 0.70599997 -0.023519212 8.6343303e-39 331 259
0.014812159 0.704 -0.023452586 8.0833187e-39 332 259
0.016046507 0.704 -0.023452586 8.0833187e-39 333 259
0.017329946 0.70599997 -0.023519212 7.6248615e-39 334 259
0.018567799 0.70599997 -0.023519212 7.6248615e-39 335 259
0.019805651 0.70599997 -0.023519212 7.1671204e-39 336 259
0.021043506 0.70599997 -0.023519212 7.0749247e-39 337 259
0.022281358 0.70599997 -0.023519212 6.523916e-39 338 259
0.023519212 0.70599997 -0.023519212 6.4317203e-39 339 259
0.024757065 0.70599997 -0.023519212 5.8828654e-39 340 259
0.026142199 0.70999998 -0.023652466 5.975061e-39 341 259
0.027502786 0.713 -0.023752406 5.9768546e-39 342 259
0.028873893 0.71600002 -0.023852346 6.1612473e-39 343 259
0.03012928 0.71600002 -0.023852346 6.2541618e-39 344 259
0.031428497 0.71700001 -0.02388566 6.4385531e-39 345 259
0.032640055 0.71600002 -0.023852346 6.8069698e-39 346 259
0.03389544 0.71600002 -0.023852346 6.8069698e-39 347 259
0.035052639 0.71399999 -0.02378572 7.0821092e-39 348 259
0.036304519 0.71399999 -0.02378572 7.0821092e-39 349 259
0.037556399 0.71399999 -0.02378572 7.4483694e-39 350 259
0.038753927 0.713 -0.023752406 7.1721426e-39 351 259
0.039891839 0.71100003 -0.023685781 7.4451338e-39 352 259
0.041138459 0.71100003 -0.023685781 7.1685497e-39 353 259
0.042325463 0.70999998 -0.023652466 7.6255748e-39 354 259
0.043570329 0.70999998 -0.023652466 7.5330218e-39 355 259
0.044688959 0.708 -0.023585839 7.808887e-39 356 259
0.045865446 0.70700002 -0.023552528 8.2698582e-39 357 259
0.047105055 0.70700002 -0.023552528 7.6280859e-39 358 259
0.048344657 0.70700002 -0.023552528 7.3515032e-39 359 259
0.04951413 0.70599997 -0.023519212 6.5221139e-39 360 259
0.050751984 0.70599997 -0.023519212 6.4299197e-39 361 259
0.05206348 0.70700002 -0.023552528 5.5133626e-39 362 259
0.053303085 0.70700002 -0.023552528 5.5133626e-39 363 259
0.054542694 0.70700002 -0.023552528 5.330416e-39 364 259
0.055782299 0.70700002 -0.023552528 5.5148087e-39 365 259
0.057021905 0.70700002 -0.023552528 6.0661804e-39 366 259
0.05826151 0.70700002 -0.023552528 6.2505717e-39 367 259
0.059585281 0.708 -0.023585839 6.1562279e-39 368 259
0.060998458 0.70999998 -0.023652466 4.3162683e-39 369 259
0.062243331 0.70999998 -0.023652466 4.9717243e-39 370 259
0.063845873 0.71399999 -0.02378572 9.950647e-39 371 259
0.065097757 0.71399999 -0.02378572 1.2533194e-38 372 259
-0.0049794666 0.70999998 -0.024897331 8.0105703e-39 316 260
-0.0037345996 0.70999998 -0.024897331 2.0203809e-39 317 260
-0.0024897333 0.70999998 -0.024897331 4.8698022e-39 318 260
-0.0012448666 0.70999998 -0.024897331 6.4374867e-39 319 260
0 0.708 -0.024827199 8.1809192e-39 320 260
0.00124136 0.708 -0.024827199 8.1809192e-39 321 260
0.00248272 0.708 -0.024827199 9.004196e-39 322 260
0.00372408 0.708 -0.024827199 8.6354149e-39 323 260
0.0049584266 0.70700002 -0.024792133 8.9080431e-39 324 260
0.0061892662 0.70599997 -0.024757065 8.4488656e-39 325 260
0.0074271196 0.70599997 -0.024757065 8.6325366e-39 326 260
0.0086404262 0.704 -0.024686933 8.5407011e-39 327 260
0.0098747732 0.704 -0.024686933 8.5407011e-39 328 260
0.011109119 0.704 -0.024686933 9.0927945e-39 329 260
0.012343466 0.704 -0.024686933 8.543571e-39 330 260
0.013577812 0.704 -0.024686933 8.4513768e-39 331 260
0.014812159 0.704 -0.024686933 8.0836789e-39 332 260
0.016046507 0.704 -0.024686933 8.0836789e-39 333 260
0.017280852 0.704 -0.024686933 7.4419094e-39 334 260
0.018567799 0.70599997 -0.024757065 7.6262992e-39 335 260
0.019749546 0.704 -0.024686933 6.8930474e-39 336 260
0.020983893 0.704 -0.024686933 6.7090163e-39 337 260
0.022218239 0.704 -0.024686933 6.2494801e-39 338 260
0.023519212 0.70599997 -0.024757065 6.1572844e-39 339 260
0.024757065 0.70599997 -0.024757065 5.4233165e-39 340 260
0.025994917 0.70599997 -0.024757065 5.5155122e-39 341 260
0.027232772 0.70599997 -0.024757065 5.4251144e-39 342 260
0.028873893 0.71600002 -0.025107734 5.7935368e-39 343 260
0.03012928 0.71600002 -0.025107734 6.0708369e-39 344 260
0.031428497 0.71700001 -0.0251428 6.4392593e-39 345 260
0.032640055 0.71600002 -0.025107734 6.7154735e-39 346 260
0.03389544 0.71600002 -0.025107734 6.8076705e-39 347 260
0.035052639 0.71399999 -0.025037598 7.2661249e-39 348 260
0.036304519 0.71399999 -0.025037598 7.0820952e-39 349 260
0.037503798 0.713 -0.025002534 7.3565269e-39 350 260
0.038645219 0.71100003 -0.024932399 7.0799428e-39 351 260
0.039891839 0.71100003 -0.024932399 7.4451366e-39 352 260
0.041080594 0.70999998 -0.024897331 7.168191e-39 353 260
0.042325463 0.70999998 -0.024897331 7.810322e-39 354 260
0.043447599 0.708 -0.024827199 7.810322e-39 355 260
0.044688959 0.708 -0.024827199 7.993993e-39 356 260
0.045865446 0.70700002 -0.024792133 8.0865459e-39 357 260
0.047038425 0.70599997 -0.024757065 7.7188452e-39 358 260
0.048276275 0.70599997 -0.024757065 7.2582328e-39 359 260
0.04951413 0.70599997 -0.024757065 6.4313546e-39 360 260
0.050751984 0.70599997 -0.024757065 6.0622189e-39 361 260
0.051989835 0.70599997 -0.024757065 5.4208082e-39 362 260
0.053227689 0.70599997 -0.024757065 5.4208082e-39 363 260
0.054465543 0.70599997 -0.024757065 5.5130066e-39 364 260
0.055703394 0.70599997 -0.024757065 5.8817892e-39 365 260
0.056941248 0.70599997 -0.024757065 6.6168333e-39 366 260
0.05826151 0.70700002 -0.024792133 6.6168333e-39 367 260
0.059585281 0.708 -0.024827199 6.4338867e-39 368 260
0.060826641 0.708 -0.024827199 5.6963217e-39 369 260
0.062243331 0.70999998 -0.024897331 4.1380035e-39 370 260
0.063577622 0.71100003 -0.024932399 7.5492432e-39 371 260
0.064824238 0.71100003 -0.024932399 1.1337172e-38 372 260
-0.0062243328 0.70999998 -0.026142199 1.1145575e-38 315 261
-0.0049794666 0.70999998 -0.026142199 6.5343682e-39 316 261
-0.0037345996 0.70999998 -0.026142199 1.7448744e-39 317 261
-0.0024897333 0.70999998 -0.026142199 5.6974049e-39 318 261
-0.0012448666 0.70999998 -0.026142199 7.0803393e-39 319 261
0 0.708 -0.026068559 8.2727589e-39 320 261
0.00124136 0.708 -0.026068559 8.0883662e-39 321 261
0.00248272 0.708 -0.026068559 8.9119976e-39 322 261
0.0037188199 0.70700002 -0.02603174 8.5435738e-39 323 261
0.0049584266 0.70700002 -0.02603174 8.9080431e-39 324 261
0.0061892662 0.70599997 -0.025994917 8.4488656e-39 325 261
0.0074060797 0.704 -0.02592128 8.6325366e-39 326 261
0.0086404262 0.704 -0.02592128 8.6325366e-39 327 261
0.0098747732 0.704 -0.02592128 8.3570302e-39 328 261
0.011109119 0.704 -0.02592128 8.8169279e-39 329 261
0.012343466 0.704 -0.02592128 8.5424948e-39 330 261
0.013558527 0.70300001 -0.025884461 8.5424948e-39 331 261
0.014791119 0.70300001 -0.025884461 7.8074549e-39 332 261
0.016046507 0.704 -0.02592128 7.991486e-39 333 261
0.017280852 0.704 -0.02592128 7.6262992e-39 334 261
0.018515198 0.704 -0.02592128 7.7184949e-39 335 261
0.019749546 0.704 -0.02592128 6.8930474e-39 336 261
0.020983893 0.704 -0.02592128 6.6168206e-39 337 261
0.022218239 0.704 -0.02592128 5.9743351e-39 338 261
0.023519212 0.70599997 -0.025994917 5.698107e-39 339 261
0.024757065 0.70599997 -0.025994917 5.0556242e-39 340 261
0.025994917 0.70599997 -0.025994917 4.9630699e-39 341 261
0.027232772 0.70599997 -0.025994917 4.5067678e-39 342 261
0.028873893 0.71600002 -0.026363119 4.9677446e-39 343 261
0.03012928 0.71600002 -0.026363119 5.337232e-39 344 261
0.031428497 0.71700001 -0.02639994 5.7060131e-39 345 261
0.032640055 0.71600002 -0.026363119 6.257019e-39 346 261
0.03389544 0.71600002 -0.026363119 6.257019e-39 347 261
0.035052639 0.71399999 -0.026289478 6.5321612e-39 348 261
0.036304519 0.71399999 -0.026289478 6.4399656e-39 349 261
0.037503798 0.713 -0.026252659 6.8047992e-39 350 261
0.038645219 0.71100003 -0.026179021 6.620408e-39 351 261
0.039835732 0.70999998 -0.026142199 6.9866738e-39 352 261
0.041080594 0.70999998 -0.026142199 6.8944781e-39 353 261
0.042206239 0.708 -0.026068559 7.6280859e-39 354 261
0.043386232 0.70700002 -0.02603174 7.5358917e-39 355 261
0.044625837 0.70700002 -0.02603174 8.1769465e-39 356 261
0.04580057 0.70599997 -0.025994917 8.1769465e-39 357 261
0.047038425 0.70599997 -0.025994917 7.8092458e-39 358 261
0.048276275 0.70599997 -0.025994917 7.3482746e-39 359 261
0.04951413 0.70599997 -0.025994917 6.6143081e-39 360 261
0.050751984 0.70599997 -0.025994917 6.5221139e-39 361 261
0.051989835 0.70599997 -0.025994917 5.8792654e-39 362 261
0.053227689 0.70599997 -0.025994917 5.8792654e-39 363 261
0.054465543 0.70599997 -0.025994917 5.6963217e-39 364 261
0.055703394 0.70599997 -0.025994917 5.880713e-39 365 261
0.056941248 0.70599997 -0.025994917 6.3406065e-39 366 261
0.05826151 0.70700002 -0.02603174 6.8012245e-39 367 261
0.059501119 0.70700002 -0.02603174 6.7083128e-39 368 261
0.060826641 0.708 -0.026068559 6.3391702e-39 369 261
0.062068 0.708 -0.026068559 3.7681434e-39 370 261
0.063488193 0.70999998 -0.026142199 5.1514366e-39 371 261
0.064733058 0.70999998 -0.026142199 1.0045711e-38 372 261
-0.0049794666 0.70999998 -0.027387066 5.058871e-39 316 262
-0.0037345996 0.70999998 -0.027387066 2.8469004e-39 317 262
-0.0024897333 0.70999998 -0.027387066 6.8934244e-39 318 262
-0.00124136 0.708 -0.027309919 7.8150205e-39 319 262
0 0.708 -0.027309919 8.3645916e-39 320 262
0.0012396066 0.70700002 -0.027271347 8.1801989e-39 321 262
0.0024757064 0.70599997 -0.027232772 9.0045492e-39 322 262
0.0037135598 0.70599997 -0.027232772 8.635768e-39 323 262
0.0049514128 0.70599997 -0.027232772 9.0917141e-39 324 262
0.0061717331 0.704 -0.027155625 8.7243721e-39 325 262
0.0073955595 0.70300001 -0.027117053 8.7243721e-39 326 262
0.0086281532 0.70300001 -0.027117053 8.7243721e-39 327 262
0.0098607466 0.70300001 -0.027117053 8.3570302e-39 328 262
0.01109334 0.70300001 -0.027117053 8.5410599e-39 329 262
0.012325933 0.70300001 -0.027117053 8.1737179e-39 330 262
0.013558527 0.70300001 -0.027117053 8.0815237e-39 331 262
0.014791119 0.70300001 -0.027117053 7.8978527e-39 332 262
0.016023712 0.70300001 -0.027117053 8.2662751e-39 333 262
0.017280852 0.704 -0.027155625 7.6259433e-39 334 262
0.018488899 0.70300001 -0.027117053 7.7181389e-39 335 262
0.019721493 0.70300001 -0.027117053 6.7100981e-39 336 262
0.020983893 0.704 -0.027155625 6.4338713e-39 337 262
0.022281358 0.70599997 -0.027232772 5.8832157e-39 338 262
0.023519212 0.70599997 -0.027232772 5.6988244e-39 339 262
0.024757065 0.70599997 -0.027232772 4.7801107e-39 340 262
0.025994917 0.70599997 -0.027232772 4.6879151e-39 341 262
0.027232772 0.70599997 -0.027232772 4.4142051e-39 342 262
0.028873893 0.71600002 -0.027618507 4.9670201e-39 343 262
0.03012928 0.71600002 -0.027618507 5.2450335e-39 344 262
0.031384666 0.71600002 -0.027618507 5.521619e-39 345 262
0.032640055 0.71600002 -0.027618507 6.0726222e-39 346 262
0.03389544 0.71600002 -0.027618507 6.0726222e-39 347 262
0.035052639 0.71399999 -0.02754136 6.2566519e-39 348 262
0.036304519 0.71399999 -0.02754136 6.0722635e-39 349 262
0.037503798 0.713 -0.027502786 6.4370943e-39 350 262
0.038645219 0.71100003 -0.027425639 6.3449001e-39 351 262
0.039835732 0.70999998 -0.027387066 6.8948369e-39 352 262
0.040964879 0.708 -0.027309919 6.8948369e-39 353 262
0.042087011 0.70599997 -0.027232772 7.6280859e-39 354 262
0.043324865 0.70599997 -0.027232772 7.5355329e-39 355 262
0.044562716 0.70599997 -0.027232772 7.9936342e-39 356 262
0.04580057 0.70599997 -0.027232772 7.90144e-39 357 262
0.046905171 0.704 -0.027155625 7.625216e-39 358 262
0.048139516 0.704 -0.027155625 7.5330218e-39 359 262
0.049373865 0.704 -0.027155625 6.8908908e-39 360 262
0.050608214 0.704 -0.027155625 6.5221139e-39 361 262
0.051842559 0.704 -0.027155625 5.9711009e-39 362 262
0.053076904 0.704 -0.027155625 5.8789067e-39 363 262
0.054311249 0.704 -0.027155625 5.6956e-39 364 262
0.055703394 0.70599997 -0.027232772 6.0643811e-39 365 262
0.056941248 0.70599997 -0.027232772 6.6171864e-39 366 262
0.05826151 0.70700002 -0.027271347 6.8015776e-39 367 262
0.059501119 0.70700002 -0.027271347 6.7097478e-39 368 262
0.060826641 0.708 -0.027309919 6.3413254e-39 369 262
0.062068 0.708 -0.027309919 3.9507228e-39 370 262
0.063488193 0.70999998 -0.027387066 3.4897489e-39 371 262
0.064733058 0.70999998 -0.027387066 8.5702153e-39 372 262
-0.0049794666 0.70999998 -0.028631933 4.2269538e-39 316 263
-0.00372408 0.708 -0.02855128 4.3191494e-39 317 263
-0.00248272 0.708 -0.02855128 7.8164526e-39 318 263
-0.00124136 0.708 -0.02855128 8.3696264e-39 319 263
0 0.70700002 -0.028510952 8.6411714e-39 320 263
0.0012378532 0.70599997 -0.028470624 8.1801933e-39 321 263
0.0024757064 0.70599997 -0.028470624 9.1871397e-39 322 263
0.0037135598 0.70599997 -0.028470624 8.9105543e-39 323 263
0.0049514128 0.70599997 -0.028470624 9.0920729e-39 324 263
0.0061629666 0.70300001 -0.028349647 8.9080431e-39 325 263
0.0073955595 0.70300001 -0.028349647 8.7243721e-39 326 263
0.0086281532 0.70300001 -0.028349647 8.7243721e-39 327 263
0.0098607466 0.70300001 -0.028349647 8.2651947e-39 328 263
0.011061779 0.70099998 -0.028268991 8.4488656e-39 329 263
0.012290866 0.70099998 -0.028268991 7.8978527e-39 330 263
0.013519952 0.70099998 -0.028268991 7.8978527e-39 331 263
0.014749039 0.70099998 -0.028268991 7.7141817e-39 332 263
0.015978126 0.70099998 -0.028268991 7.9900511e-39 333 263
0.017256306 0.70300001 -0.028349647 7.441915e-39 334 263
0.018436298 0.70099998 -0.028268991 7.6259461e-39 335 263
0.019665385 0.70099998 -0.028268991 6.8015776e-39 336 263
0.020894472 0.70099998 -0.028268991 6.709382e-39 337 263
0.022218239 0.704 -0.028389972 5.9754113e-39 338 263
0.023452586 0.704 -0.028389972 5.79102e-39 339 263
0.024686933 0.704 -0.028389972 4.8723064e-39 340 263
0.02592128 0.704 -0.028389972 4.6879151e-39 341 263
0.027232772 0.70599997 -0.028470624 4.2301739e-39 342 263
0.028914221 0.71700001 -0.028914221 4.5993166e-39 343 263
0.03012928 0.71600002 -0.028873893 5.059922e-39 344 263
0.031384666 0.71600002 -0.028873893 5.4287045e-39 345 263
0.032640055 0.71600002 -0.028873893 5.7049215e-39 346 263
0.03389544 0.71600002 -0.028873893 5.7049215e-39 347 263
0.035052639 0.71399999 -0.028793238 5.8885925e-39 348 263
0.036304519 0.71399999 -0.028793238 5.7963982e-39 349 263
0.037503798 0.713 -0.028752912 6.1615878e-39 350 263
0.038645219 0.71100003 -0.028672259 6.1615878e-39 351 263
0.039835732 0.70999998 -0.028631933 6.8030014e-39 352 263
0.040964879 0.708 -0.02855128 6.7108071e-39 353 263
0.042087011 0.70599997 -0.028470624 7.5355329e-39 354 263
0.043324865 0.70599997 -0.028470624 7.4433387e-39 355 263
0.044562716 0.70599997 -0.028470624 7.90144e-39 356 263
0.045670826 0.704 -0.028389972 7.90144e-39 357 263
0.046905171 0.704 -0.028389972 7.9017987e-39 358 263
0.048139516 0.704 -0.028389972 7.8096045e-39 359 263
0.049373865 0.704 -0.028389972 7.2582328e-39 360 263
0.050608214 0.704 -0.028389972 6.9812914e-39 361 263
0.051842559 0.704 -0.028389972 6.4302784e-39 362 263
0.053076904 0.704 -0.028389972 6.4302784e-39 363 263
0.054311249 0.704 -0.028389972 6.2473277e-39 364 263
0.055703394 0.70599997 -0.028470624 6.523916e-39 365 263
0.056941248 0.70599997 -0.028470624 6.710454e-39 366 263
0.058179103 0.70599997 -0.028470624 6.8948467e-39 367 263
0.059501119 0.70700002 -0.028510952 6.9848899e-39 368 263
0.060740728 0.70700002 -0.028510952 6.6164675e-39 369 263
0.062068 0.708 -0.02855128 4.7779597e-39 370 263
0.063488193 0.70999998 -0.028631933 3.1224069e-39 371 263
0.064733058 0.70999998 -0.028631933 7.6457353e-39 372 263
-0.0062067998 0.708 -0.02979264 3.4058279e-39 315 264
-0.0049654399 0.708 -0.02979264 3.6734198e-39 316 264
-0.00372408 0.708 -0.02979264 4.9637999e-39 317 264
-0.0024792133 0.70700002 -0.029750559 7.911172e-39 318 264
-0.0012396066 0.70700002 -0.029750559 8.1873988e-39 319 264
0 0.70599997 -0.029708479 8.5500548e-39 320 264
0.0012378532 0.70599997 -0.029708479 8.0887165e-39 321 264
0.0024686933 0.704 -0.029624319 9.0038247e-39 322 264
0.0037030398 0.704 -0.029624319 8.8194362e-39 323 264
0.0049303733 0.70300001 -0.029582238 9.2761026e-39 324 264
0.0061629666 0.70300001 -0.029582238 8.9080431e-39 325 264
0.0073745195 0.70099998 -0.029498078 8.8162076e-39 326 264
0.0086036054 0.70099998 -0.029498078 8.6325366e-39 327 264
0.0098326923 0.70099998 -0.029498078 8.3570302e-39 328 264
0.011061779 0.70099998 -0.029498078 8.3570302e-39 329 264
0.012273333 0.69999999 -0.029455997 7.9896882e-39 330 264
0.013500666 0.69999999 -0.029455997 8.0815237e-39 331 264
0.014727999 0.69999999 -0.029455997 7.7141817e-39 332 264
0.015978126 0.70099998 -0.029498078 7.9896882e-39 333 264
0.017207211 0.70099998 -0.029498078 7.8071018e-39 334 264
0.018436298 0.70099998 -0.029498078 8.0833285e-39 335 264
0.019637333 0.69999999 -0.029455997 7.3500795e-39 336 264
0.020864666 0.69999999 -0.029455997 7.4426339e-39 337 264
0.022218239 0.704 -0.029624319 6.4338741e-39 338 264
0.023452586 0.704 -0.029624319 6.2491241e-39 339 264
0.024686933 0.704 -0.029624319 5.3300461e-39 340 264
0.02592128 0.704 -0.029624319 5.1456576e-39 341 264
0.027155625 0.704 -0.029624319 4.4120499e-39 342 264
0.028914221 0.71700001 -0.030171359 4.5967985e-39 343 264
0.03012928 0.71600002 -0.03012928 4.5996697e-39 344 264
0.031384666 0.71600002 -0.03012928 4.9680921e-39 345 264
0.032640055 0.71600002 -0.03012928 5.42798e-39 346 264
0.03389544 0.71600002 -0.03012928 5.42798e-39 347 264
0.035052639 0.71399999 -0.030045118 5.611651e-39 348 264
0.036304519 0.71399999 -0.030045118 5.611651e-39 349 264
0.037503798 0.713 -0.030003037 5.7935284e-39 350 264
0.038645219 0.71100003 -0.029918881 5.7935284e-39 351 264
0.039835732 0.70999998 -0.029876797 6.4349433e-39 352 264
0.040907022 0.70700002 -0.029750559 6.3427477e-39 353 264
0.042087011 0.70599997 -0.029708479 6.8916097e-39 354 264
0.043202132 0.704 -0.029624319 6.799414e-39 355 264
0.044436477 0.704 -0.029624319 7.0749219e-39 356 264
0.045670826 0.704 -0.029624319 7.2596719e-39 357 264
0.046905171 0.704 -0.029624319 7.4433387e-39 358 264
0.048139516 0.704 -0.029624319 7.3511445e-39 359 264
0.049373865 0.704 -0.029624319 7.0745618e-39 360 264
0.050608214 0.704 -0.029624319 6.7979791e-39 361 264
0.051842559 0.704 -0.029624319 6.5217552e-39 362 264
0.053076904 0.704 -0.029624319 6.6139494e-39 363 264
0.054311249 0.704 -0.029624319 6.431356e-39 364 264
0.055545598 0.704 -0.029624319 6.7997798e-39 365 264
0.056941248 0.70599997 -0.029708479 6.985599e-39 366 264
0.058014292 0.704 -0.029624319 7.1699916e-39 367 264
0.059248637 0.704 -0.029624319 7.1678364e-39 368 264
0.060740728 0.70700002 -0.029750559 6.8916097e-39 369 264
0.062068 0.708 -0.02979264 5.146022e-39 370 264
0.063488193 0.70999998 -0.029876797 3.5815844e-39 371 264
0.064733058 0.70999998 -0.029876797 6.9982106e-39 372 264
-0.0074481601 0.708 -0.031034 9.4889402e-39 314 265
-0.0062067998 0.708 -0.031034 1.8367099e-39 315 265
-0.0049584266 0.70700002 -0.030990168 3.5815844e-39 316 265
-0.0037188199 0.70700002 -0.030990168 5.5148213e-39 317 265
-0.0024792133 0.70700002 -0.030990168 7.7282255e-39 318 265
-0.0012378532 0.70599997 -0.030946331 8.0966493e-39 319 265
0 0.70599997 -0.030946331 8.4585808e-39 320 265
0.0012343467 0.704 -0.030858666 7.8132114e-39 321 265
0.0024686933 0.704 -0.030858666 9.0045435e-39 322 265
0.0036819996 0.69999999 -0.030683333 8.9123479e-39 323 265
0.0049093333 0.69999999 -0.030683333 9.2778962e-39 324 265
0.0061366665 0.69999999 -0.030683333 9.0935078e-39 325 265
0.0073639993 0.69999999 -0.030683333 8.9080431e-39 326 265
0.0085667865 0.69800001 -0.030595668 8.7243721e-39 327 265
0.0097906133 0.69800001 -0.030595668 8.4488656e-39 328 265
0.01101444 0.69800001 -0.030595668 8.3570302e-39 329 265
0.012220734 0.69700003 -0.030551834 8.0815237e-39 330 265
0.013442807 0.69700003 -0.030551834 8.0815237e-39 331 265
0.01466488 0.69700003 -0.030551834 7.8978527e-39 332 265
0.015886955 0.69700003 -0.030551834 8.3570302e-39 333 265
0.017109027 0.69700003 -0.030551834 8.2666296e-39 334 265
0.018331099 0.69700003 -0.030551834 8.5435738e-39 335 265
0.019525118 0.69599998 -0.030507999 7.7184949e-39 336 265
0.020745439 0.69599998 -0.030507999 7.4419094e-39 337 265
0.021965759 0.69599998 -0.030507999 6.7987106e-39 338 265
0.023119451 0.69400001 -0.030420333 6.5217636e-39 339 265
0.024336265 0.69400001 -0.030420333 5.4200949e-39 340 265
0.025553079 0.69400001 -0.030420333 5.3275406e-39 341 265
0.026769891 0.69400001 -0.030420333 4.5942915e-39 342 265
0.028914221 0.71700001 -0.031428497 4.7790415e-39 343 265
0.03012928 0.71600002 -0.031384666 4.6897102e-39 344 265
0.031384666 0.71600002 -0.031384666 4.966297e-39 345 265
0.032640055 0.71600002 -0.031384666 5.4261864e-39 346 265
0.03389544 0.71600002 -0.031384666 5.5183806e-39 347 265
0.035052639 0.71399999 -0.031296998 5.6094986e-39 348 265
0.036304519 0.71399999 -0.031296998 5.7020516e-39 349 265
0.037398599 0.71100003 -0.031165501 5.8842877e-39 350 265
0.038482159 0.708 -0.031034 5.7920934e-39 351 265
0.039611302 0.70599997 -0.030946331 6.2494773e-39 352 265
0.040733438 0.704 -0.030858666 6.157283e-39 353 265
0.041967787 0.704 -0.030858666 6.5224726e-39 354 265
0.043140765 0.70300001 -0.030814834 6.5224726e-39 355 265
0.04437336 0.70300001 -0.030814834 6.7965456e-39 356 265
0.04560595 0.70300001 -0.030814834 7.0727723e-39 357 265
0.046838548 0.70300001 -0.030814834 7.4411863e-39 358 265
0.048071139 0.70300001 -0.030814834 7.4411863e-39 359 265
0.049163464 0.70099998 -0.030727165 7.0724094e-39 360 265
0.050392549 0.70099998 -0.030727165 6.9802152e-39 361 265
0.051621638 0.70099998 -0.030727165 6.7979791e-39 362 265
0.052850723 0.70099998 -0.030727165 6.8901747e-39 363 265
0.054079808 0.70099998 -0.030727165 6.8916125e-39 364 265
0.0554667 0.70300001 -0.030814834 7.1678392e-39 365 265
0.056779943 0.704 -0.030858666 7.4447834e-39 366 265
0.058014292 0.704 -0.030858666 7.5369791e-39 367 265
0.059248637 0.704 -0.030858666 7.0767226e-39 368 265
0.060654808 0.70599997 -0.030946331 6.7075813e-39 369 265
0.062068 0.708 -0.031034 5.2382176e-39 370 265
0.063309364 0.708 -0.031034 3.9489263e-39 371 265
0.06455072 0.708 -0.031034 5.6167111e-39 372 265
-0.0061980332 0.70700002 -0.032229774 1.3775324e-39 315 266
-0.0049584266 0.70700002 -0.032229774 3.5815844e-39 316 266
-0.0037135598 0.70599997 -0.032184184 5.4226257e-39 317 266
-0.0024757064 0.70599997 -0.032184184 7.5431308e-39 318 266
-0.0012378532 0.70599997 -0.032184184 7.5431308e-39 319 266
0 0.704 -0.032093015 8.0894494e-39 320 266
0.0012325933 0.70300001 -0.032047424 7.9050567e-39 321 266
0.0024651866 0.70300001 -0.032047424 8.5464423e-39 322 266
0.0036819996 0.69999999 -0.031910665 8.6386379e-39 323 266
0.0048953067 0.69800001 -0.031819493 9.2800486e-39 324 266
0.006119133 0.69800001 -0.031819493 9.0034659e-39 325 266
0.0073429602 0.69800001 -0.031819493 9.2775375e-39 326 266
0.0085667865 0.69800001 -0.031819493 9.0005961e-39 327 266
0.0097765867 0.69700003 -0.03177391 8.9080431e-39 328 266
0.01099866 0.69700003 -0.03177391 8.9080431e-39 329 266
0.012220734 0.69700003 -0.03177391 8.8162076e-39 330 266
0.013442807 0.69700003 -0.03177391 8.8162076e-39 331 266
0.01460176 0.69400001 -0.031637147 8.4488656e-39 332 266
0.015818574 0.69400001 -0.031637147 8.7243721e-39 333 266
0.017035386 0.69400001 -0.031637147 8.9105543e-39 334 266
0.0182522 0.69400001 -0.031637147 8.9105543e-39 335 266
0.019469013 0.69400001 -0.031637147 9.0027485e-39 336 266
0.020656019 0.69300002 -0.031591557 8.7265245e-39 337 266
0.021871079 0.69300002 -0.031591557 8.2659121e-39 338 266
0.02308614 0.69300002 -0.031591557 7.8978527e-39 339 266
0.024301201 0.69300002 -0.031591557 7.0713332e-39 340 266
0.02551626 0.69300002 -0.031591557 7.1631687e-39 341 266
0.02673132 0.69300002 -0.031591557 6.1536957e-39 342 266
0.028914221 0.71700001 -0.032685637 6.4302784e-39 343 266
0.03012928 0.71600002 -0.032640055 5.6066288e-39 344 266
0.031384666 0.71600002 -0.032640055 5.6066288e-39 345 266
0.032640055 0.71600002 -0.032640055 5.6991817e-39 346 266
0.03389544 0.71600002 -0.032640055 5.8835702e-39 347 266
0.035052639 0.71399999 -0.032548878 5.6087812e-39 348 266
0.035236739 0.69300002 -0.031591557 5.516587e-39 349 266
0.036451802 0.69300002 -0.031591557 5.5151562e-39 350 266
0.038482159 0.708 -0.03227536 5.4229592e-39 351 266
0.039611302 0.70599997 -0.032184184 5.6055582e-39 352 266
0.040733438 0.704 -0.032093015 5.4208082e-39 353 266
0.041908171 0.70300001 -0.032047424 5.694884e-39 354 266
0.043140765 0.70300001 -0.032047424 5.6026883e-39 355 266
0.04437336 0.70300001 -0.032047424 5.6948868e-39 356 266
0.045476202 0.70099998 -0.031956252 5.9711135e-39 357 266
0.046705291 0.70099998 -0.031956252 6.2469773e-39 358 266
0.047934376 0.70099998 -0.031956252 6.0625875e-39 359 266
0.049163464 0.70099998 -0.031956252 6.5221167e-39 360 266
0.050392549 0.70099998 -0.031956252 6.6143123e-39 361 266
0.051621638 0.70099998 -0.031956252 6.799414e-39 362 266
0.052850723 0.70099998 -0.031956252 6.8916097e-39 363 266
0.054079808 0.70099998 -0.031956252 7.3507857e-39 364 266
0.0554667 0.70300001 -0.032047424 7.62773e-39 365 266
0.056779943 0.704 -0.032093015 7.62773e-39 366 266
0.058179103 0.70599997 -0.032184184 7.62773e-39 367 266
0.059416957 0.70599997 -0.032184184 7.3504326e-39 368 266
0.060654808 0.70599997 -0.032184184 7.0742059e-39 369 266
0.061980337 0.70700002 -0.032229774 5.4226117e-39 370 266
0.063309364 0.708 -0.03227536 4.2244328e-39 371 266
0.064733058 0.70999998 -0.032366529 4.9695411e-39 372 266
-0.0074376399 0.70700002 -0.033469379 5.8036359e-39 314 267
-0.0061980332 0.70700002 -0.033469379 1.2860557e-39 315 267
-0.0049584266 0.70700002 -0.033469379 4.3170026e-39 316 267
-0.0037135598 0.70599997 -0.033422034 5.0545676e-39 317 267
-0.0024757064 0.70599997 -0.033422034 6.6211689e-39 318 267
-0.0012343467 0.704 -0.03332736 6.8055601e-39 319 267
0 0.70300001 -0.033280019 7.9954545e-39 320 267
0.0012325933 0.70300001 -0.033280019 7.718869e-39 321 267
0.0024581731 0.70099998 -0.03318534 8.6361338e-39 322 267
0.0036819996 0.69999999 -0.033137999 8.7283294e-39 323 267
0.0048953067 0.69800001 -0.033043321 9.1889376e-39 324 267
0.006119133 0.69800001 -0.033043321 9.096742e-39 325 267
0.00733244 0.69700003 -0.03299598 9.370452e-39 326 267
0.0085545136 0.69700003 -0.03299598 9.370452e-39 327 267
0.0097765867 0.69700003 -0.03299598 9.0041834e-39 328 267
0.010982879 0.69599998 -0.032948639 9.0041834e-39 329 267
0.0122032 0.69599998 -0.032948639 8.9127066e-39 330 267
0.01336566 0.69300002 -0.03280662 8.4517355e-39 331 267
0.014580719 0.69300002 -0.03280662 8.6343303e-39 332 267
0.015795778 0.69300002 -0.03280662 8.7265245e-39 333 267
0.01701084 0.69300002 -0.03280662 8.9119892e-39 334 267
0.0181733 0.69099998 -0.032711938 9.2807661e-39 335 267
0.019384852 0.69099998 -0.032711938 9.0041834e-39 336 267
0.020566599 0.69 -0.032664597 9.0041834e-39 337 267
0.021776399 0.69 -0.032664597 8.5442885e-39 338 267
0.022986198 0.69 -0.032664597 8.3599e-39 339 267
0.024195999 0.69 -0.032664597 7.6237811e-39 340 267
0.02533216 0.68800002 -0.032569919 7.7159753e-39 341 267
0.026538454 0.68800002 -0.032569919 6.4320763e-39 342 267
0.027744746 0.68800002 -0.032569919 6.4320763e-39 343 267
0.028951041 0.68800002 -0.032569919 5.9743323e-39 344 267
0.030157333 0.68800002 -0.032569919 5.9743323e-39 345 267
0.031363625 0.68800002 -0.032569919 5.7920934e-39 346 267
0.032569919 0.68800002 -0.032569919 5.5158695e-39 347 267
0.033776212 0.68800002 -0.032569919 5.6062715e-39 348 267
0.035236739 0.69300002 -0.03280662 5.5140758e-39 349 267
0.036451802 0.69300002 -0.03280662 5.5126437e-39 350 267
0.037666857 0.69300002 -0.03280662 5.4200893e-39 351 267
0.038938027 0.69400001 -0.032853961 5.6026855e-39 352 267
0.040154841 0.69400001 -0.032853961 5.6026855e-39 353 267
0.041371655 0.69400001 -0.032853961 5.5104927e-39 354 267
0.042588469 0.69400001 -0.032853961 5.5104927e-39 355 267
0.04405776 0.69800001 -0.033043321 5.5112088e-39 356 267
0.04541133 0.69999999 -0.033137999 5.6956e-39 357 267
0.046638668 0.69999999 -0.033137999 6.0629406e-39 358 267
0.047865998 0.69999999 -0.033137999 6.2469717e-39 359 267
0.049093332 0.69999999 -0.033137999 6.1544132e-39 360 267
0.050320663 0.69999999 -0.033137999 6.4310001e-39 361 267
0.051547997 0.69999999 -0.033137999 6.8901775e-39 362 267
0.052775331 0.69999999 -0.033137999 7.0745688e-39 363 267
0.054002665 0.69999999 -0.033137999 7.3504326e-39 364 267
0.055308893 0.70099998 -0.03318534 7.6273796e-39 365 267
0.056699295 0.70300001 -0.033280019 7.7195753e-39 366 267
0.058179103 0.70599997 -0.033422034 7.6273796e-39 367 267
0.059416957 0.70599997 -0.033422034 6.7994267e-39 368 267
0.060654808 0.70599997 -0.033422034 6.6150354e-39 369 267
0.061980337 0.70700002 -0.033469379 5.0552683e-39 370 267
0.063488193 0.70999998 -0.033611398 4.4098989e-39 371 267
0.064733058 0.70999998 -0.033611398 4.7826289e-39 372 267
0.065977924 0.70999998 -0.033611398 8.8392366e-39 373 267
-0.0074271196 0.70599997 -0.034659892 5.7996731e-39 314 268
-0.0061892662 0.70599997 -0.034659892 2.1122164e-39 315 268
-0.0049514128 0.70599997 -0.034659892 4.3162795e-39 316 268
-0.0037135598 0.70599997 -0.034659892 4.9598553e-39 317 268
-0.0024686933 0.704 -0.034561705 5.7892656e-39 318 268
-0.0012343467 0.704 -0.034561705 5.9736569e-39 319 268
0 0.70300001 -0.034512613 7.351897e-39 320 268
0.0012290865 0.70099998 -0.034414422 7.351897e-39 321 268
0.0024581731 0.70099998 -0.034414422 8.2687932e-39 322 268
0.0036714801 0.69800001 -0.034267146 8.3613476e-39 323 268
0.0048953067 0.69800001 -0.034267146 9.2793382e-39 324 268
0.006119133 0.69800001 -0.034267146 9.3715338e-39 325 268
0.00733244 0.69700003 -0.034218054 9.7388674e-39 326 268
0.0085422397 0.69599998 -0.034168959 9.8310616e-39 327 268
0.0097625591 0.69599998 -0.034168959 9.5559139e-39 328 268
0.01095132 0.69400001 -0.034070771 9.4637196e-39 329 268
0.012168133 0.69400001 -0.034070771 9.3704492e-39 330 268
0.01336566 0.69300002 -0.034021679 9.1860607e-39 331 268
0.014580719 0.69300002 -0.034021679 9.0023898e-39 332 268
0.015795778 0.69300002 -0.034021679 9.4633609e-39 333 268
0.016961746 0.69099998 -0.033923492 9.2807661e-39 334 268
0.0181733 0.69099998 -0.033923492 9.2807661e-39 335 268
0.019356798 0.69 -0.0338744 9.4633609e-39 336 268
0.020566599 0.69 -0.0338744 9.4633609e-39 337 268
0.021776399 0.69 -0.0338744 9.0049009e-39 338 268
0.022986198 0.69 -0.0338744 8.5442885e-39 339 268
0.024195999 0.69 -0.0338744 8.3599e-39 340 268
0.02533216 0.68800002 -0.033776212 7.9914818e-39 341 268
0.026538454 0.68800002 -0.033776212 7.4411863e-39 342 268
0.027744746 0.68800002 -0.033776212 7.4411863e-39 343 268
0.028951041 0.68800002 -0.033776212 6.8905321e-39 344 268
0.030157333 0.68800002 -0.033776212 6.7983378e-39 345 268
0.031363625 0.68800002 -0.033776212 6.1562082e-39 346 268
0.032569919 0.68800002 -0.033776212 5.9718184e-39 347 268
0.033776212 0.68800002 -0.033776212 5.6956e-39 348 268
0.03498251 0.68800002 -0.033776212 5.5112088e-39 349 268
0.036451802 0.69300002 -0.034021679 5.5101368e-39 350 268
0.037666857 0.69300002 -0.034021679 5.6023324e-39 351 268
0.03888192 0.69300002 -0.034021679 5.3275434e-39 352 268
0.040154841 0.69400001 -0.034070771 5.2353478e-39 353 268
0.041371655 0.69400001 -0.034070771 5.0520285e-39 354 268
0.042588469 0.69400001 -0.034070771 5.2364197e-39 355 268
0.043931518 0.69599998 -0.034168959 4.8701554e-39 356 268
0.045151837 0.69599998 -0.034168959 4.962351e-39 357 268
0.046438783 0.69700003 -0.034218054 5.0534732e-39 358 268
0.047729239 0.69800001 -0.034267146 5.0534732e-39 359 268
0.048953064 0.69800001 -0.034267146 5.5119346e-39 360 268
0.050176892 0.69800001 -0.034267146 5.7885201e-39 361 268
0.051400717 0.69800001 -0.034267146 6.4317231e-39 362 268
0.052775331 0.69999999 -0.034365334 6.6161144e-39 363 268
0.054002665 0.69999999 -0.034365334 7.2600377e-39 364 268
0.055229999 0.69999999 -0.034365334 7.4444303e-39 365 268
0.056537982 0.70099998 -0.034414422 7.9028903e-39 366 268
0.057931885 0.70300001 -0.034512613 7.6259433e-39 367 268
0.059416957 0.70599997 -0.034659892 6.7987106e-39 368 268
0.060654808 0.70599997 -0.034659892 6.5217636e-39 369 268
0.061892662 0.70599997 -0.034659892 4.6868585e-39 370 268
0.063219935 0.70700002 -0.034708988 4.5024673e-39 371 268
0.06455072 0.708 -0.034758076 4.5074895e-39 372 268
0.065977924 0.70999998 -0.034856264 8.3793472e-39 373 268
0.067222796 0.70999998 -0.034856264 1.3177097e-38 374 268
-0.0074271196 0.70599997 -0.035897743 5.5202093e-39 314 269
-0.0061892662 0.70599997 -0.035897743 2.5713939e-39 315 269
-0.0049514128 0.70599997 -0.035897743 4.4999477e-39 316 269
-0.0037135598 0.70599997 -0.035897743 5.0509691e-39 317 269
-0.0024686933 0.704 -0.035796054 5.8778585e-39 318 269
-0.0012325933 0.70300001 -0.035745207 6.5232279e-39 319 269
0 0.70300001 -0.035745207 7.2582594e-39 320 269
0.0012290865 0.70099998 -0.035643511 7.2582594e-39 321 269
0.0024546667 0.69999999 -0.035592664 7.9929308e-39 322 269
0.0036714801 0.69800001 -0.035490975 7.9929308e-39 323 269
0.0048882933 0.69700003 -0.035440128 9.1871425e-39 324 269
0.0061103669 0.69700003 -0.035440128 9.2793382e-39 325 269
0.0073219193 0.69599998 -0.035389278 9.7399436e-39 326 269
0.0085176928 0.69400001 -0.035287585 9.6477494e-39 327 269
0.0097345067 0.69400001 -0.035287585 9.4622847e-39 328 269
0.01095132 0.69400001 -0.035287585 9.3700905e-39 329 269
0.012150601 0.69300002 -0.035236739 9.1846258e-39 330 269
0.01336566 0.69300002 -0.035236739 9.1846258e-39 331 269
0.014538639 0.69099998 -0.035135046 8.8190803e-39 332 269
0.015750192 0.69099998 -0.035135046 9.1878614e-39 333 269
0.016961746 0.69099998 -0.035135046 9.005268e-39 334 269
0.0181733 0.69099998 -0.035135046 8.7286825e-39 335 269
0.019356798 0.69 -0.035084199 9.1878586e-39 336 269
0.020566599 0.69 -0.035084199 9.1878586e-39 337 269
0.021776399 0.69 -0.035084199 8.6382848e-39 338 269
0.022986198 0.69 -0.035084199 8.4538935e-39 339 269
0.024195999 0.69 -0.035084199 8.3588238e-39 340 269
0.02533216 0.68800002 -0.03498251 8.1744354e-39 341 269
0.026538454 0.68800002 -0.03498251 7.2567993e-39 342 269
0.027744746 0.68800002 -0.03498251 7.2567993e-39 343 269
0.028951041 0.68800002 -0.03498251 6.6135963e-39 344 269
0.030157333 0.68800002 -0.03498251 6.5214006e-39 345 269
0.031363625 0.68800002 -0.03498251 5.9707478e-39 346 269
0.032569919 0.68800002 -0.03498251 5.7859978e-39 347 269
0.033776212 0.68800002 -0.03498251 5.6026883e-39 348 269
0.03498251 0.68800002 -0.03498251 5.5104927e-39 349 269
0.036451802 0.69300002 -0.035236739 5.2353449e-39 350 269
0.03755815 0.69099998 -0.035135046 5.3275406e-39 351 269
0.038769703 0.69099998 -0.035135046 5.1449472e-39 352 269
0.04009698 0.69300002 -0.035236739 5.0527516e-39 353 269
0.041312039 0.69300002 -0.035236739 4.8694365e-39 354 269
0.042527102 0.69300002 -0.035236739 5.146022e-39 355 269
0.043805279 0.69400001 -0.035287585 4.687562e-39 356 269
0.045022093 0.69400001 -0.035287585 4.5953663e-39 357 269
0.046372157 0.69599998 -0.035389278 4.68649e-39 358 269
0.047660861 0.69700003 -0.035440128 4.68649e-39 359 269
0.048882935 0.69700003 -0.035440128 5.3282651e-39 360 269
0.050105009 0.69700003 -0.035440128 5.5126563e-39 361 269
0.051400717 0.69800001 -0.035490975 6.1558579e-39 362 269
0.052624546 0.69800001 -0.035490975 6.5242817e-39 363 269
0.053848371 0.69800001 -0.035490975 7.2600377e-39 364 269
0.0550722 0.69800001 -0.035490975 7.4444303e-39 365 269
0.056457333 0.69999999 -0.035592664 7.6270265e-39 366 269
0.057767071 0.70099998 -0.035643511 7.2578839e-39 367 269
0.059164476 0.70300001 -0.035745207 6.0640252e-39 368 269
0.060482983 0.704 -0.035796054 5.6956028e-39 369 269
0.061892662 0.70599997 -0.035897743 4.5035435e-39 370 269
0.063219935 0.70700002 -0.035948593 4.1347595e-39 371 269
0.064459547 0.70700002 -0.035948593 4.6925968e-39 372 269
0.065792084 0.708 -0.03599944 8.5648133e-39 373 269
0.067033432 0.708 -0.03599944 1.3084179e-38 374 269
-0.0074271196 0.70599997 -0.037135597 5.4272948e-39 314 270
-0.0061892662 0.70599997 -0.037135597 3.0305714e-39 315 270
-0.0049514128 0.70599997 -0.037135597 4.3162767e-39 316 270
-0.0037135598 0.70599997 -0.037135597 4.5917874e-39 317 270
-0.0024686933 0.704 -0.037030395 5.3268399e-39 318 270
-0.0012325933 0.70300001 -0.036977798 5.7878167e-39 319 270
0 0.70300001 -0.036977798 6.7058087e-39 320 270
0.0012290865 0.70099998 -0.036872596 6.8902e-39 321 270
0.0024546667 0.69999999 -0.036819998 7.8078206e-39 322 270
0.0036714801 0.69800001 -0.0367148 7.9922119e-39 323 270
0.0048882933 0.69700003 -0.036662199 9.0949469e-39 324 270
0.0061015999 0.69599998 -0.036609598 9.1871425e-39 325 270
0.0073008798 0.69400001 -0.036504399 9.7385115e-39 326 270
0.0085176928 0.69400001 -0.036504399 9.4622847e-39 327 270
0.0097204801 0.69300002 -0.036451802 9.5534027e-39 328 270
0.010935539 0.69300002 -0.036451802 9.2771788e-39 329 270
0.012150601 0.69300002 -0.036451802 8.9091193e-39 330 270
0.01336566 0.69300002 -0.036451802 8.8169251e-39 331 270
0.014538639 0.69099998 -0.036346599 8.54142e-39 332 270
0.015750192 0.69099998 -0.036346599 8.4492244e-39 333 270
0.016961746 0.69099998 -0.036346599 8.5410669e-39 334 270
0.018146999 0.69 -0.036293998 8.5410669e-39 335 270
0.019356798 0.69 -0.036293998 8.4510222e-39 336 270
0.020566599 0.69 -0.036293998 8.6354149e-39 337 270
0.021776399 0.69 -0.036293998 8.6364897e-39 338 270
0.022986198 0.69 -0.036293998 8.4517383e-39 339 270
0.024125867 0.68800002 -0.0361888 8.0833173e-39 340 270
0.02533216 0.68800002 -0.0361888 7.9911231e-39 341 270
0.026538454 0.68800002 -0.0361888 6.9809326e-39 342 270
0.027744746 0.68800002 -0.0361888 6.7965442e-39 343 270
0.028951041 0.68800002 -0.0361888 6.5203202e-39 344 270
0.030157333 0.68800002 -0.0361888 6.5203202e-39 345 270
0.031363625 0.68800002 -0.0361888 5.7856363e-39 346 270
0.032569919 0.68800002 -0.0361888 5.7856363e-39 347 270
0.033776212 0.68800002 -0.0361888 5.5104885e-39 348 270
0.03498251 0.68800002 -0.0361888 5.4182943e-39 349 270
0.036346599 0.69099998 -0.036346599 5.2356995e-39 350 270
0.03755815 0.69099998 -0.036346599 5.3278965e-39 351 270
0.038769703 0.69099998 -0.036346599 5.2360638e-39 352 270
0.039981257 0.69099998 -0.036346599 5.0520327e-39 353 270
0.041192811 0.69099998 -0.036346599 4.7776066e-39 354 270
0.042527102 0.69300002 -0.036451802 4.7776066e-39 355 270
0.043742158 0.69300002 -0.036451802 4.68649e-39 356 270
0.044957221 0.69300002 -0.036451802 4.68649e-39 357 270
0.046238903 0.69400001 -0.036504399 4.5942971e-39 358 270
0.047592476 0.69599998 -0.036609598 4.5942971e-39 359 270
0.048812799 0.69599998 -0.036609598 4.5942971e-39 360 270
0.050105009 0.69700003 -0.036662199 4.7786884e-39 361 270
0.051327083 0.69700003 -0.036662199 5.7885145e-39 362 270
0.052549154 0.69700003 -0.036662199 6.1576572e-39 363 270
0.053848371 0.69800001 -0.0367148 7.167842e-39 364 270
0.0550722 0.69800001 -0.0367148 7.4444303e-39 365 270
0.056296028 0.69800001 -0.0367148 7.4426311e-39 366 270
0.05768466 0.69999999 -0.036819998 6.8894573e-39 367 270
0.059164476 0.70300001 -0.036977798 5.6963217e-39 368 270
0.060482983 0.704 -0.037030395 5.3275406e-39 369 270
0.061892662 0.70599997 -0.037135597 4.1354868e-39 370 270
0.063219935 0.70700002 -0.037188202 4.0432912e-39 371 270
0.064459547 0.70700002 -0.037188202 5.1539379e-39 372 270
0.065792084 0.708 -0.0372408 8.7492087e-39 373 270
0.067033432 0.708 -0.0372408 1.3175651e-38 374 270
-0.0074376399 0.70700002 -0.038427804 5.6116861e-39 314 271
-0.0061892662 0.70599997 -0.038373452 3.4911866e-39 315 271
-0.0049514128 0.70599997 -0.038373452 4.1326001e-39 316 271
-0.0037135598 0.70599997 -0.038373452 4.4081094e-39 317 271
-0.0024686933 0.704 -0.038264744 4.8672953e-39 318 271
-0.0012325933 0.70300001 -0.038210396 5.2353604e-39 319 271
0 0.70099998 -0.038101684 6.2455522e-39 320 271
0.0012273333 0.69999999 -0.038047329 6.4299449e-39 321 271
0.0024476533 0.69800001 -0.037938625 7.164619e-39 322 271
0.00366622 0.69700003 -0.037884273 7.3490103e-39 323 271
0.0048882933 0.69700003 -0.037884273 8.4517439e-39 324 271
0.0060840664 0.69400001 -0.037721213 8.6361366e-39 325 271
0.0073008798 0.69400001 -0.037721213 9.0038303e-39 326 271
0.0085176928 0.69400001 -0.037721213 8.8190803e-39 327 271
0.0097204801 0.69300002 -0.037666857 9.0942252e-39 328 271
0.010935539 0.69300002 -0.037666857 8.9098368e-39 329 271
0.012115533 0.69099998 -0.03755815 8.5417773e-39 330 271
0.013327086 0.69099998 -0.03755815 8.2651947e-39 331 271
0.014538639 0.69099998 -0.03755815 7.9896896e-39 332 271
0.015750192 0.69099998 -0.03755815 7.8060172e-39 333 271
0.0169372 0.69 -0.037503798 7.5305191e-39 334 271
0.018146999 0.69 -0.037503798 7.7141929e-39 335 271
0.019300694 0.68800002 -0.037395094 7.7141901e-39 336 271
0.020506985 0.68800002 -0.037395094 8.0826153e-39 337 271
0.021713281 0.68800002 -0.037395094 8.0836817e-39 338 271
0.022919573 0.68800002 -0.037395094 8.1758773e-39 339 271
0.024125867 0.68800002 -0.037395094 7.9921993e-39 340 271
0.02533216 0.68800002 -0.037395094 7.9921993e-39 341 271
0.026538454 0.68800002 -0.037395094 7.3479159e-39 342 271
0.027744746 0.68800002 -0.037395094 7.1631687e-39 343 271
0.028951041 0.68800002 -0.037395094 6.5203202e-39 344 271
0.030157333 0.68800002 -0.037395094 6.5203202e-39 345 271
0.031363625 0.68800002 -0.037395094 5.9693073e-39 346 271
0.032664597 0.69 -0.037503798 5.8774718e-39 347 271
0.0338744 0.69 -0.037503798 5.6938008e-39 348 271
0.035135046 0.69099998 -0.03755815 5.6938008e-39 349 271
0.036346599 0.69099998 -0.03755815 5.234982e-39 350 271
0.037503798 0.69 -0.037503798 5.234982e-39 351 271
0.038713597 0.69 -0.037503798 4.9598357e-39 352 271
0.039981257 0.69099998 -0.03755815 4.9598357e-39 353 271
0.041192811 0.69099998 -0.03755815 4.5942971e-39 354 271
0.042404365 0.69099998 -0.03755815 4.4095458e-39 355 271
0.043742158 0.69300002 -0.037666857 4.3184305e-39 356 271
0.044957221 0.69300002 -0.037666857 4.3184305e-39 357 271
0.04617228 0.69300002 -0.037666857 4.5028204e-39 358 271
0.047455717 0.69400001 -0.037721213 4.3184305e-39 359 271
0.048672531 0.69400001 -0.037721213 4.5028204e-39 360 271
0.050033119 0.69599998 -0.037829921 4.595016e-39 361 271
0.051253434 0.69599998 -0.037829921 5.2378645e-39 362 271
0.052549154 0.69700003 -0.037884273 5.6070071e-39 363 271
0.053771228 0.69700003 -0.037884273 6.5257138e-39 364 271
0.054993302 0.69700003 -0.037884273 6.5257138e-39 365 271
0.056296028 0.69800001 -0.037938625 7.0745688e-39 366 271
0.05768466 0.69999999 -0.038047329 6.6139494e-39 367 271
0.058996156 0.70099998 -0.038101684 5.6034072e-39 368 271
0.060482983 0.704 -0.038264744 5.4186572e-39 369 271
0.061892662 0.70599997 -0.038373452 4.1358371e-39 370 271
0.063219935 0.70700002 -0.038427804 3.9514445e-39 371 271
0.06455072 0.708 -0.038482159 5.707462e-39 372 271
0.065977924 0.70999998 -0.038590867 8.9343091e-39 373 271
0.067222796 0.70999998 -0.038590867 1.2991617e-38 374 271
-0.0074376399 0.70700002 -0.039667413 6.1634137e-39 314 272
-0.0061892662 0.70599997 -0.039611302 3.6741373e-39 315 272
-0.0049514128 0.70599997 -0.039611302 4.2244328e-39 316 272
-0.0037135598 0.70599997 -0.039611302 4.4999393e-39 317 272
-0.0024686933 0.704 -0.039499093 4.7754514e-39 318 272
-0.0012325933 0.70300001 -0.039442986 4.8672883e-39 319 272
0 0.70099998 -0.039330769 6.0611512e-39 320 272
0.0012273333 0.69999999 -0.039274666 6.4285001e-39 321 272
0.0024476533 0.69800001 -0.039162453 6.9795033e-39 322 272
0.00366622 0.69700003 -0.039106347 7.439764e-39 323 272
0.0048812795 0.69599998 -0.039050236 8.0833187e-39 324 272
0.0060840664 0.69400001 -0.038938027 7.9907644e-39 325 272
0.0073008798 0.69400001 -0.038938027 8.9101955e-39 326 272
0.0085054198 0.69300002 -0.03888192 8.9101955e-39 327 272
0.0097204801 0.69300002 -0.03888192 8.7261658e-39 328 272
0.010935539 0.69300002 -0.03888192 8.5417773e-39 329 272
0.012115533 0.69099998 -0.038769703 8.2651947e-39 330 272
0.013327086 0.69099998 -0.038769703 7.8978527e-39 331 272
0.014538639 0.69099998 -0.038769703 7.5305107e-39 332 272
0.015727401 0.69 -0.038713597 7.6223462e-39 333 272
0.0169372 0.69 -0.038713597 7.0713332e-39 334 272
0.0180944 0.68800002 -0.038601387 7.1631687e-39 335 272
0.019300694 0.68800002 -0.038601387 7.4386752e-39 336 272
0.020506985 0.68800002 -0.038601387 7.6223462e-39 337 272
0.021713281 0.68800002 -0.038601387 7.8985715e-39 338 272
0.022919573 0.68800002 -0.038601387 7.9907672e-39 339 272
