# .PCD v.7 - Point Cloud Data file format
FIELDS x y z rgb imX imY
SIZE 4 4 4 4 4 4
TYPE F F F F F F
COUNT 1 1 1 1 1 1
WIDTH 837
HEIGHT 1
VIEWPOINT 0 0 0 1 0 0 0
POINTS 837
DATA ascii
-0.021281958 0.71399999 -0.021281958 1.6414788e-38 303 257
-0.020030079 0.71399999 -0.021281958 1.6046728e-38 304 257
-0.018778199 0.71399999 -0.021281958 1.6046728e-38 305 257
-0.017501773 0.713 -0.021252153 1.5679037e-38 306 257
-0.016251646 0.713 -0.021252153 1.5494646e-38 307 257
-0.014959441 0.71100003 -0.021192541 1.5310981e-38 308 257
-0.013693533 0.70999998 -0.021162732 1.5218784e-38 309 257
-0.012448666 0.70999998 -0.021162732 1.4850724e-38 310 257
-0.011203799 0.70999998 -0.021162732 1.4850724e-38 311 257
-0.0099589331 0.70999998 -0.021162732 1.5125869e-38 312 257
-0.0087263398 0.71100003 -0.021192541 1.5310261e-38 313 257
-0.0074797203 0.71100003 -0.021192541 1.5403176e-38 314 257
-0.0062330998 0.71100003 -0.021192541 1.5679403e-38 315 257
-0.0049864799 0.71100003 -0.021192541 1.6883341e-38 316 257
-0.0037398601 0.71100003 -0.021192541 1.9188232e-38 317 257
-0.0024932399 0.71100003 -0.021192541 2.1297576e-38 318 257
-0.00124662 0.71100003 -0.021192541 2.139013e-38 319 257
0 0.71100003 -0.021192541 1.8345874e-38 320 257
0.00124662 0.71100003 -0.021192541 1.6962939e-38 321 257
0.0024932399 0.71100003 -0.021192541 1.4748802e-38 322 257
0.0037398601 0.71100003 -0.021192541 1.4932833e-38 323 257
0.0050005065 0.713 -0.021252153 1.4842068e-38 324 257
0.0062506334 0.713 -0.021252153 1.4657676e-38 325 257
0.0075007593 0.713 -0.021252153 1.4381446e-38 326 257
0.0087877065 0.71600002 -0.021341572 1.4381446e-38 327 257
0.010043093 0.71600002 -0.021341572 1.41985e-38 328 257
0.01131426 0.71700001 -0.021371379 1.4382531e-38 329 257
0.012606465 0.71899998 -0.021430992 1.3924074e-38 330 257
0.0138864 0.72000003 -0.021460801 1.3924074e-38 331 257
0.015190879 0.722 -0.021520413 1.3649287e-38 332 257
0.016456785 0.722 -0.021520413 1.3280506e-38 333 257
0.017747238 0.72299999 -0.021550218 1.2357827e-38 334 257
0.019014901 0.72299999 -0.021550218 1.1620262e-38 335 257
0.020282559 0.72299999 -0.021550218 1.0884492e-38 336 257
0.021609833 0.72500002 -0.021609833 1.346597e-38 337 257
-0.031691495 0.72299999 -0.02281788 1.6318276e-38 295 258
-0.030381758 0.722 -0.022786319 1.6226078e-38 296 258
-0.029035201 0.72000003 -0.022723202 1.6226078e-38 297 258
-0.027772799 0.72000003 -0.022723202 1.6133882e-38 298 258
-0.02639994 0.71700001 -0.02262852 1.57651e-38 299 258
-0.025107734 0.71600002 -0.022596961 1.5950217e-38 300 258
-0.023852346 0.71600002 -0.022596961 1.6595586e-38 301 258
-0.022533838 0.71399999 -0.022533838 1.6230762e-38 302 258
-0.021281958 0.71399999 -0.022533838 1.6230762e-38 303 258
-0.020002026 0.713 -0.022502279 1.595418e-38 304 258
-0.018751899 0.713 -0.022502279 1.5861984e-38 305 258
-0.017501773 0.713 -0.022502279 1.5126583e-38 306 258
-0.01620606 0.71100003 -0.022439159 1.5126583e-38 307 258
-0.014938398 0.70999998 -0.022407599 1.5218065e-38 308 258
-0.013693533 0.70999998 -0.022407599 1.5218065e-38 309 258
-0.012448666 0.70999998 -0.022407599 1.5126588e-38 310 258
-0.011203799 0.70999998 -0.022407599 1.5126588e-38 311 258
-0.0099589331 0.70999998 -0.022407599 1.549357e-38 312 258
-0.0087140659 0.70999998 -0.022407599 1.5401374e-38 313 258
-0.0074691991 0.70999998 -0.022407599 1.5310258e-38 314 258
-0.0062243328 0.70999998 -0.022407599 1.5310258e-38 315 258
-0.0049794666 0.70999998 -0.022407599 1.6235455e-38 316 258
-0.0037345996 0.70999998 -0.022407599 1.8079368e-38 317 258
-0.0024897333 0.70999998 -0.022407599 2.0011512e-38 318 258
-0.0012448666 0.70999998 -0.022407599 2.0011512e-38 319 258
0 0.70999998 -0.022407599 1.8802883e-38 320 258
0.0012448666 0.70999998 -0.022407599 1.7235916e-38 321 258
0.0024897333 0.70999998 -0.022407599 1.5025384e-38 322 258
0.0037398601 0.71100003 -0.022439159 1.5025384e-38 323 258
0.0049864799 0.71100003 -0.022439159 1.4566559e-38 324 258
0.0062330998 0.71100003 -0.022439159 1.4382168e-38 325 258
0.0075007593 0.713 -0.022502279 1.4381446e-38 326 258
0.0087631596 0.71399999 -0.022533838 1.4289251e-38 327 258
0.010043093 0.71600002 -0.022596961 1.3923711e-38 328 258
0.01131426 0.71700001 -0.02262852 1.3923711e-38 329 258
0.0125714 0.71700001 -0.02262852 1.3740761e-38 330 258
0.0138864 0.72000003 -0.022723202 1.3648566e-38 331 258
0.015190879 0.722 -0.022786319 1.34649e-38 332 258
0.016456785 0.722 -0.022786319 1.3188313e-38 333 258
0.017747238 0.72299999 -0.02281788 1.2081963e-38 334 258
0.019014901 0.72299999 -0.02281788 1.1529148e-38 335 258
0.020282559 0.72299999 -0.02281788 1.0699379e-38 336 258
0.021550218 0.72299999 -0.02281788 1.3188661e-38 337 258
0.02281788 0.72299999 -0.02281788 1.6688135e-38 338 258
0.024152167 0.72500002 -0.022880999 1.7241309e-38 339 258
-0.032959159 0.72299999 -0.024085538 1.6318992e-38 294 259
-0.031647664 0.722 -0.024052227 1.6318992e-38 295 259
-0.030381758 0.722 -0.024052227 1.6135683e-38 296 259
-0.029035201 0.72000003 -0.0239856 1.5766902e-38 297 259
-0.027734226 0.71899998 -0.023952285 1.5674353e-38 298 259
-0.02639994 0.71700001 -0.02388566 1.5766549e-38 299 259
-0.025107734 0.71600002 -0.023852346 1.6044213e-38 300 259
-0.02378572 0.71399999 -0.02378572 1.6412637e-38 301 259
-0.022533838 0.71399999 -0.02378572 1.5864138e-38 302 259
-0.021252153 0.713 -0.023752406 1.5771583e-38 303 259
-0.01994592 0.71100003 -0.023685781 1.5494279e-38 304 259
-0.0186993 0.71100003 -0.023685781 1.5401725e-38 305 259
-0.01745268 0.71100003 -0.023685781 1.4851077e-38 306 259
-0.016183265 0.70999998 -0.023652466 1.4851077e-38 307 259
-0.014938398 0.70999998 -0.023652466 1.457486e-38 308 259
-0.013693533 0.70999998 -0.023652466 1.457486e-38 309 259
-0.0124136 0.708 -0.023585839 1.4850368e-38 310 259
-0.01117224 0.708 -0.023585839 1.4942923e-38 311 259
-0.0099308798 0.708 -0.023585839 1.5126232e-38 312 259
-0.0087140659 0.70999998 -0.023652466 1.5218428e-38 313 259
-0.0074691991 0.70999998 -0.023652466 1.5218065e-38 314 259
-0.0062243328 0.70999998 -0.023652466 1.5494293e-38 315 259
-0.0049654399 0.708 -0.023585839 1.595635e-38 316 259
-0.00372408 0.708 -0.023585839 1.6509523e-38 317 259
-0.00248272 0.708 -0.023585839 1.7797369e-38 318 259
-0.00124136 0.708 -0.023585839 1.8442739e-38 319 259
0 0.708 -0.023585839 1.8065302e-38 320 259
0.0012448666 0.70999998 -0.023652466 1.5944802e-38 321 259
0.0024897333 0.70999998 -0.023652466 1.4933174e-38 322 259
0.0037345996 0.70999998 -0.023652466 1.502537e-38 323 259
0.0049794666 0.70999998 -0.023652466 1.4381093e-38 324 259
0.0062330998 0.71100003 -0.023685781 1.4288898e-38 325 259
0.0074797203 0.71100003 -0.023685781 1.447221e-38 326 259
0.0087508867 0.713 -0.023752406 1.4564764e-38 327 259
0.01001504 0.71399999 -0.02378572 1.3648566e-38 328 259
0.011266919 0.71399999 -0.02378572 1.3740761e-38 329 259
0.0125714 0.71700001 -0.02388566 1.3373424e-38 330 259
0.013867113 0.71899998 -0.023952285 1.3373424e-38 331 259
0.015190879 0.722 -0.024052227 1.3373424e-38 332 259
0.016456785 0.722 -0.024052227 1.3004642e-38 333 259
0.017722692 0.722 -0.024052227 1.2081963e-38 334 259
0.019014901 0.72299999 -0.024085538 1.1529148e-38 335 259
0.020282559 0.72299999 -0.024085538 1.0882697e-38 336 259
0.021550218 0.72299999 -0.024085538 1.3371979e-38 337 259
0.022880999 0.72500002 -0.024152167 1.6229678e-38 338 259
0.024152167 0.72500002 -0.024152167 1.7059078e-38 339 259
0.025423333 0.72500002 -0.024152167 1.7148753e-38 340 259
-0.032913569 0.722 -0.025318133 1.5766904e-38 294 260
-0.03156 0.72000003 -0.025248 1.6135327e-38 295 260
-0.0302976 0.72000003 -0.025248 1.6225725e-38 296 260
-0.028994869 0.71899998 -0.025212931 1.5765105e-38 297 260
-0.027657079 0.71700001 -0.0251428 1.5305213e-38 298 260
-0.026363119 0.71600002 -0.025107734 1.6134974e-38 299 260
-0.025037598 0.71399999 -0.025037598 1.5679388e-38 300 260
-0.02378572 0.71399999 -0.025037598 1.5864138e-38 301 260
-0.022502279 0.713 -0.025002534 1.5864138e-38 302 260
-0.021192541 0.71100003 -0.024932399 1.5587192e-38 303 260
-0.019917866 0.70999998 -0.024897331 1.5034024e-38 304 260
-0.018672999 0.70999998 -0.024897331 1.494147e-38 305 260
-0.017428132 0.70999998 -0.024897331 1.5033671e-38 306 260
-0.016183265 0.70999998 -0.024897331 1.4941475e-38 307 260
-0.01489632 0.708 -0.024827199 1.4941122e-38 308 260
-0.013654959 0.708 -0.024827199 1.4941122e-38 309 260
-0.012396066 0.70700002 -0.024792133 1.5033318e-38 310 260
-0.011156459 0.70700002 -0.024792133 1.5125513e-38 311 260
-0.0099168532 0.70700002 -0.024792133 1.5218065e-38 312 260
-0.008689519 0.708 -0.024827199 1.5218065e-38 313 260
-0.0074481601 0.708 -0.024827199 1.5493926e-38 314 260
-0.0062067998 0.708 -0.024827199 1.5678319e-38 315 260
-0.0049654399 0.708 -0.024827199 1.5218062e-38 316 260
-0.0037188199 0.70700002 -0.024792133 1.5310258e-38 317 260
-0.0024792133 0.70700002 -0.024792133 1.6692466e-38 318 260
-0.00124136 0.708 -0.024827199 1.7983205e-38 319 260
0 0.708 -0.024827199 1.8251142e-38 320 260
0.00124136 0.708 -0.024827199 1.6130642e-38 321 260
0.0024897333 0.70999998 -0.024897331 1.447112e-38 322 260
0.0037345996 0.70999998 -0.024897331 1.4932099e-38 323 260
0.0049794666 0.70999998 -0.024897331 1.4748076e-38 324 260
0.0062243328 0.70999998 -0.024897331 1.4564045e-38 325 260
0.0074797203 0.71100003 -0.024932399 1.4014108e-38 326 260
0.0087263398 0.71100003 -0.024932399 1.4014108e-38 327 260
0.010001013 0.713 -0.025002534 1.3649285e-38 328 260
0.011251139 0.713 -0.025002534 1.3465254e-38 329 260
0.012518799 0.71399999 -0.025037598 1.3373424e-38 330 260
0.013828539 0.71700001 -0.0251428 1.3281228e-38 331 260
0.0151488 0.72000003 -0.025248 1.309756e-38 332 260
0.016456785 0.722 -0.025318133 1.263694e-38 333 260
0.017722692 0.722 -0.025318133 1.198977e-38 334 260
0.0189886 0.722 -0.025318133 1.1712823e-38 335 260
0.020282559 0.72299999 -0.025353199 1.1251479e-38 336 260
0.021550218 0.72299999 -0.025353199 1.3095392e-38 337 260
0.02281788 0.72299999 -0.025353199 1.5216245e-38 338 260
0.024152167 0.72500002 -0.025423333 1.678357e-38 339 260
0.025423333 0.72500002 -0.025423333 1.7057994e-38 340 260
-0.035445385 0.722 -0.026584039 1.5306645e-38 292 261
-0.034179479 0.722 -0.026584039 1.5306645e-38 293 261
-0.032913569 0.722 -0.026584039 1.5214812e-38 294 261
-0.03156 0.72000003 -0.026510401 1.5122617e-38 295 261
-0.0302976 0.72000003 -0.026510401 1.5580005e-38 296 261
-0.028994869 0.71899998 -0.02647358 1.5764396e-38 297 261
-0.027657079 0.71700001 -0.02639994 1.5582879e-38 298 261
-0.026289478 0.71399999 -0.026289478 1.5859466e-38 299 261
-0.025002534 0.713 -0.026252659 1.5861265e-38 300 261
-0.023752406 0.713 -0.026252659 1.6045296e-38 301 261
-0.022439159 0.71100003 -0.026179021 1.5586126e-38 302 261
-0.021162732 0.70999998 -0.026142199 1.5401374e-38 303 261
-0.019917866 0.70999998 -0.026142199 1.4850359e-38 304 261
-0.018672999 0.70999998 -0.026142199 1.4757804e-38 305 261
-0.017428132 0.70999998 -0.026142199 1.4665611e-38 306 261
-0.01613768 0.708 -0.026068559 1.4665611e-38 307 261
-0.01489632 0.708 -0.026068559 1.4297916e-38 308 261
-0.013654959 0.708 -0.026068559 1.4297916e-38 309 261
-0.012396066 0.70700002 -0.02603174 1.4390113e-38 310 261
-0.011156459 0.70700002 -0.02603174 1.4482309e-38 311 261
-0.0099168532 0.70700002 -0.02603174 1.4850722e-38 312 261
-0.008677247 0.70700002 -0.02603174 1.4942917e-38 313 261
-0.0074376399 0.70700002 -0.02603174 1.4943273e-38 314 261
-0.0061980332 0.70700002 -0.02603174 1.4943273e-38 315 261
-0.0049584266 0.70700002 -0.02603174 1.5309535e-38 316 261
-0.0037188199 0.70700002 -0.02603174 1.5309535e-38 317 261
-0.0024792133 0.70700002 -0.02603174 1.6782145e-38 318 261
-0.0012396066 0.70700002 -0.02603174 1.7796296e-38 319 261
0 0.708 -0.026068559 1.7145523e-38 320 261
0.00124136 0.708 -0.026068559 1.6131011e-38 321 261
0.00248272 0.708 -0.026068559 1.4382884e-38 322 261
0.00372408 0.708 -0.026068559 1.4382884e-38 323 261
0.0049794666 0.70999998 -0.026142199 1.4382168e-38 324 261
0.0062243328 0.70999998 -0.026142199 1.4197418e-38 325 261
0.0074691991 0.70999998 -0.026142199 1.383044e-38 326 261
0.0087263398 0.71100003 -0.026179021 1.4014471e-38 327 261
0.0099729598 0.71100003 -0.026179021 1.3372702e-38 328 261
0.011251139 0.713 -0.026252659 1.3465256e-38 329 261
0.012518799 0.71399999 -0.026289478 1.309756e-38 330 261
0.013828539 0.71700001 -0.02639994 1.3005364e-38 331 261
0.01512776 0.71899998 -0.02647358 1.2820253e-38 332 261
0.0164112 0.72000003 -0.026510401 1.2728057e-38 333 261
0.017673599 0.72000003 -0.026510401 1.1990486e-38 334 261
0.0189886 0.722 -0.026584039 1.1437313e-38 335 261
0.020254506 0.722 -0.026584039 1.1435148e-38 336 261
0.021550218 0.72299999 -0.026620859 1.3186865e-38 337 261
0.02281788 0.72299999 -0.026620859 1.4754548e-38 338 261
0.024085538 0.72299999 -0.026620859 1.65981e-38 339 261
0.025423333 0.72500002 -0.026694499 1.7333501e-38 340 261
-0.036609601 0.72000003 -0.027772799 1.5952012e-38 291 262
-0.035445385 0.722 -0.027849946 1.4845307e-38 292 262
-0.034179479 0.722 -0.027849946 1.4845307e-38 293 262
-0.0328224 0.72000003 -0.027772799 1.4754194e-38 294 262
-0.03156 0.72000003 -0.027772799 1.4293216e-38 295 262
-0.030255521 0.71899998 -0.027734226 1.5302692e-38 296 262
-0.028914221 0.71700001 -0.027657079 1.6317204e-38 297 262
-0.027618507 0.71600002 -0.027618507 1.6320441e-38 298 262
-0.026289478 0.71399999 -0.02754136 1.5952017e-38 299 262
-0.025002534 0.713 -0.027502786 1.5676872e-38 300 262
-0.023752406 0.713 -0.027502786 1.5676872e-38 301 262
-0.022439159 0.71100003 -0.027425639 1.5125866e-38 302 262
-0.021162732 0.70999998 -0.027387066 1.4941475e-38 303 262
-0.019917866 0.70999998 -0.027387066 1.4665611e-38 304 262
-0.018672999 0.70999998 -0.027387066 1.4573414e-38 305 262
-0.017379038 0.708 -0.027309919 1.4480866e-38 306 262
-0.01613768 0.708 -0.027309919 1.4480866e-38 307 262
-0.01489632 0.708 -0.027309919 1.4297197e-38 308 262
-0.013654959 0.708 -0.027309919 1.4297197e-38 309 262
-0.012396066 0.70700002 -0.027271347 1.4390469e-38 310 262
-0.011140679 0.70599997 -0.027232772 1.4482665e-38 311 262
-0.0099028256 0.70599997 -0.027232772 1.466633e-38 312 262
-0.008677247 0.70700002 -0.027271347 1.4758526e-38 313 262
-0.0074376399 0.70700002 -0.027271347 1.4850003e-38 314 262
-0.0061980332 0.70700002 -0.027271347 1.4757807e-38 315 262
-0.0049584266 0.70700002 -0.027271347 1.4940756e-38 316 262
-0.0037135598 0.70599997 -0.027232772 1.4663809e-38 317 262
-0.0024757064 0.70599997 -0.027232772 1.5582156e-38 318 262
-0.0012396066 0.70700002 -0.027271347 1.530521e-38 319 262
0 0.70700002 -0.027271347 1.511578e-38 320 262
0.00124136 0.708 -0.027309919 1.511578e-38 321 262
0.00248272 0.708 -0.027309919 1.4384689e-38 322 262
0.00372408 0.708 -0.027309919 1.4015906e-38 323 262
0.0049794666 0.70999998 -0.027387066 1.4014106e-38 324 262
0.0062243328 0.70999998 -0.027387066 1.392191e-38 325 262
0.0074691991 0.70999998 -0.027387066 1.3739319e-38 326 262
0.0087263398 0.71100003 -0.027425639 1.3831515e-38 327 262
0.0099729598 0.71100003 -0.027425639 1.3373424e-38 328 262
0.01121958 0.71100003 -0.027425639 1.3373424e-38 329 262
0.012501267 0.713 -0.027502786 1.3005364e-38 330 262
0.013809253 0.71600002 -0.027618507 1.2820972e-38 331 262
0.015085679 0.71700001 -0.027657079 1.217668e-38 332 262
0.016388407 0.71899998 -0.027734226 1.2084484e-38 333 262
0.017649053 0.71899998 -0.027734226 1.2174517e-38 334 262
0.018909698 0.71899998 -0.027734226 1.1897572e-38 335 262
0.020254506 0.722 -0.027849946 1.1896849e-38 336 262
0.021550218 0.72299999 -0.02788852 1.3003196e-38 337 262
0.02281788 0.72299999 -0.02788852 1.4109897e-38 338 262
0.024085538 0.72299999 -0.02788852 1.6322592e-38 339 262
-0.036609601 0.72000003 -0.029035201 1.5582509e-38 291 263
-0.035347197 0.72000003 -0.029035201 1.5212652e-38 292 263
-0.034084801 0.72000003 -0.029035201 1.4751674e-38 293 263
-0.032776814 0.71899998 -0.028994869 1.511938e-38 294 263
-0.031516165 0.71899998 -0.028994869 1.5488162e-38 295 263
-0.030171359 0.71700001 -0.028914221 1.5674353e-38 296 263
-0.028873893 0.71600002 -0.028873893 1.613533e-38 297 263
-0.027618507 0.71600002 -0.028873893 1.5861265e-38 298 263
-0.026289478 0.71399999 -0.028793238 1.5584677e-38 299 263
-0.025002534 0.713 -0.028752912 1.5216261e-38 300 263
-0.023685781 0.71100003 -0.028672259 1.5031869e-38 301 263
-0.022407599 0.70999998 -0.028631933 1.4848924e-38 302 263
-0.021162732 0.70999998 -0.028631933 1.4756727e-38 303 263
-0.019917866 0.70999998 -0.028631933 1.4480866e-38 304 263
-0.0186204 0.708 -0.02855128 1.438867e-38 305 263
-0.017379038 0.708 -0.02855128 1.4112806e-38 306 263
-0.01613768 0.708 -0.02855128 1.4112806e-38 307 263
-0.01489632 0.708 -0.02855128 1.3929138e-38 308 263
-0.013654959 0.708 -0.02855128 1.4021334e-38 309 263
-0.012396066 0.70700002 -0.028510952 1.4022408e-38 310 263
-0.011140679 0.70599997 -0.028470624 1.4114604e-38 311 263
-0.0099028256 0.70599997 -0.028470624 1.4389749e-38 312 263
-0.008677247 0.70700002 -0.028510952 1.4481946e-38 313 263
-0.0074376399 0.70700002 -0.028510952 1.4481943e-38 314 263
-0.0061980332 0.70700002 -0.028510952 1.4389746e-38 315 263
-0.0049514128 0.70599997 -0.028470624 1.4572695e-38 316 263
-0.0037135598 0.70599997 -0.028470624 1.44805e-38 317 263
-0.0024757064 0.70599997 -0.028470624 1.5398844e-38 318 263
-0.0012378532 0.70599997 -0.028470624 1.5029702e-38 319 263
0 0.70700002 -0.028510952 1.511686e-38 320 263
0.0012396066 0.70700002 -0.028510952 1.4840272e-38 321 263
0.00248272 0.708 -0.02855128 1.4291064e-38 322 263
0.00372408 0.708 -0.02855128 1.4014477e-38 323 263
0.0049654399 0.708 -0.02855128 1.3738247e-38 324 263
0.0062067998 0.708 -0.02855128 1.3830443e-38 325 263
0.0074691991 0.70999998 -0.028631933 1.3556373e-38 326 263
0.0087140659 0.70999998 -0.028631933 1.3648569e-38 327 263
0.0099589331 0.70999998 -0.028631933 1.3280872e-38 328 263
0.01121958 0.71100003 -0.028672259 1.3096841e-38 329 263
0.012501267 0.713 -0.028752912 1.2820616e-38 330 263
0.013809253 0.71600002 -0.028873893 1.2544389e-38 331 263
0.015085679 0.71700001 -0.028914221 1.2175602e-38 332 263
0.016388407 0.71899998 -0.028994869 1.1991571e-38 333 263
0.017649053 0.71899998 -0.028994869 1.1990489e-38 334 263
0.018909698 0.71899998 -0.028994869 1.1990489e-38 335 263
0.020254506 0.722 -0.029115854 1.235783e-38 336 263
0.021550218 0.72299999 -0.029156178 1.2542221e-38 337 263
0.02281788 0.72299999 -0.029156178 1.2820956e-38 338 263
0.024085538 0.72299999 -0.029156178 1.5863053e-38 339 263
-0.037871998 0.72000003 -0.0302976 1.6503383e-38 290 264
-0.036609601 0.72000003 -0.0302976 1.5858014e-38 291 264
-0.035298105 0.71899998 -0.030255521 1.539704e-38 292 264
-0.03403746 0.71899998 -0.030255521 1.4567279e-38 293 264
-0.032685637 0.71700001 -0.030171359 1.4843516e-38 294 264
-0.031428497 0.71700001 -0.030171359 1.5857668e-38 295 264
-0.03012928 0.71600002 -0.03012928 1.6412284e-38 296 264
-0.028873893 0.71600002 -0.03012928 1.6227892e-38 297 264
-0.02754136 0.71399999 -0.030045118 1.540173e-38 298 264
-0.026289478 0.71399999 -0.030045118 1.5032949e-38 299 264
-0.025002534 0.713 -0.030003037 1.4756008e-38 300 264
-0.023685781 0.71100003 -0.029918881 1.4571616e-38 301 264
-0.022407599 0.70999998 -0.029876797 1.4480147e-38 302 264
-0.021162732 0.70999998 -0.029876797 1.4480147e-38 303 264
-0.019917866 0.70999998 -0.029876797 1.4112806e-38 304 264
-0.0186204 0.708 -0.02979264 1.4112806e-38 305 264
-0.017379038 0.708 -0.02979264 1.4020255e-38 306 264
-0.01613768 0.708 -0.02979264 1.4020255e-38 307 264
-0.01489632 0.708 -0.02979264 1.3929141e-38 308 264
-0.013654959 0.708 -0.02979264 1.3929141e-38 309 264
-0.012396066 0.70700002 -0.029750559 1.402169e-38 310 264
-0.011140679 0.70599997 -0.029708479 1.4205721e-38 311 264
-0.0099028256 0.70599997 -0.029708479 1.4297197e-38 312 264
-0.0086649731 0.70599997 -0.029708479 1.4297197e-38 313 264
-0.0074271196 0.70599997 -0.029708479 1.4297197e-38 314 264
-0.0061892662 0.70599997 -0.029708479 1.4297197e-38 315 264
-0.0049514128 0.70599997 -0.029708479 1.4756727e-38 316 264
-0.0037135598 0.70599997 -0.029708479 1.4941119e-38 317 264
-0.0024757064 0.70599997 -0.029708479 1.5766551e-38 318 264
-0.0012378532 0.70599997 -0.029708479 1.5397409e-38 319 264
0 0.70700002 -0.029750559 1.5025386e-38 320 264
0.0012396066 0.70700002 -0.029750559 1.4472213e-38 321 264
0.0024792133 0.70700002 -0.029750559 1.4106317e-38 322 264
0.0037188199 0.70700002 -0.029750559 1.383009e-38 323 264
0.0049654399 0.708 -0.02979264 1.3555301e-38 324 264
0.0062067998 0.708 -0.02979264 1.3923723e-38 325 264
0.0074481601 0.708 -0.02979264 1.34649e-38 326 264
0.0087140659 0.70999998 -0.029876797 1.3372705e-38 327 264
0.0099589331 0.70999998 -0.029876797 1.3004648e-38 328 264
0.011203799 0.70999998 -0.029876797 1.2912451e-38 329 264
0.0124662 0.71100003 -0.029918881 1.2544389e-38 330 264
0.013809253 0.71600002 -0.03012928 1.2359998e-38 331 264
0.015085679 0.71700001 -0.030171359 1.2082685e-38 332 264
0.016388407 0.71899998 -0.030255521 1.2082685e-38 333 264
0.017649053 0.71899998 -0.030255521 1.2081966e-38 334 264
0.018909698 0.71899998 -0.030255521 1.2174162e-38 335 264
0.020170346 0.71899998 -0.030255521 1.2450025e-38 336 264
0.021550218 0.72299999 -0.030423839 1.235783e-38 337 264
0.02281788 0.72299999 -0.030423839 1.235818e-38 338 264
0.024218792 0.727 -0.030592158 1.5769418e-38 339 264
-0.039134402 0.72000003 -0.03156 1.6963643e-38 289 265
-0.037871998 0.72000003 -0.03156 1.687145e-38 290 265
-0.036558751 0.71899998 -0.031516165 1.6778896e-38 291 265
-0.035199918 0.71700001 -0.031428497 1.5304131e-38 292 265
-0.033942781 0.71700001 -0.031428497 1.4842793e-38 293 265
-0.032685637 0.71700001 -0.031428497 1.5211945e-38 294 265
-0.031384666 0.71600002 -0.031384666 1.594951e-38 295 265
-0.03012928 0.71600002 -0.031384666 1.5583968e-38 296 265
-0.028873893 0.71600002 -0.031384666 1.5491772e-38 297 265
-0.02754136 0.71399999 -0.031296998 1.5216267e-38 298 265
-0.026289478 0.71399999 -0.031296998 1.4755289e-38 299 265
-0.025002534 0.713 -0.031253166 1.4387951e-38 300 265
-0.023685781 0.71100003 -0.031165501 1.4387951e-38 301 265
-0.022407599 0.70999998 -0.031121666 1.4112087e-38 302 265
-0.021162732 0.70999998 -0.031121666 1.4112087e-38 303 265
-0.019917866 0.70999998 -0.031121666 1.4019892e-38 304 265
-0.0186204 0.708 -0.031034 1.4019892e-38 305 265
-0.017379038 0.708 -0.031034 1.392734e-38 306 265
-0.01613768 0.708 -0.031034 1.392734e-38 307 265
-0.01489632 0.708 -0.031034 1.3836223e-38 308 265
-0.013654959 0.708 -0.031034 1.4020255e-38 309 265
-0.012378532 0.70599997 -0.030946331 1.4204999e-38 310 265
-0.011140679 0.70599997 -0.030946331 1.4204999e-38 311 265
-0.0099028256 0.70599997 -0.030946331 1.420428e-38 312 265
-0.0086649731 0.70599997 -0.030946331 1.438867e-38 313 265
-0.0074271196 0.70599997 -0.030946331 1.420428e-38 314 265
-0.0061892662 0.70599997 -0.030946331 1.4019889e-38 315 265
-0.0049514128 0.70599997 -0.030946331 1.4198881e-38 316 265
-0.0037135598 0.70599997 -0.030946331 1.401485e-38 317 265
-0.0024757064 0.70599997 -0.030946331 1.4933566e-38 318 265
-0.0012378532 0.70599997 -0.030946331 1.4933566e-38 319 265
0 0.70599997 -0.030946331 1.3921207e-38 320 265
0.0012378532 0.70599997 -0.030946331 1.4013402e-38 321 265
0.0024792133 0.70700002 -0.030990168 1.3830446e-38 322 265
0.0037188199 0.70700002 -0.030990168 1.3737892e-38 323 265
0.0049584266 0.70700002 -0.030990168 1.3554945e-38 324 265
0.0061980332 0.70700002 -0.030990168 1.3831531e-38 325 265
0.0074481601 0.708 -0.031034 1.3189761e-38 326 265
0.008689519 0.708 -0.031034 1.3005011e-38 327 265
0.0099589331 0.70999998 -0.031121666 1.3095407e-38 328 265
0.011203799 0.70999998 -0.031121666 1.2819181e-38 329 265
0.0124662 0.71100003 -0.031165501 1.2359276e-38 330 265
0.013809253 0.71600002 -0.031384666 1.2267079e-38 331 265
0.015085679 0.71700001 -0.031428497 1.2357474e-38 332 265
0.016388407 0.71899998 -0.031516165 1.2265278e-38 333 265
0.017649053 0.71899998 -0.031516165 1.1990486e-38 334 265
0.018909698 0.71899998 -0.031516165 1.2082682e-38 335 265
0.020170346 0.71899998 -0.031516165 1.2725889e-38 336 265
0.021550218 0.72299999 -0.031691495 1.2725889e-38 337 265
0.02281788 0.72299999 -0.031691495 1.2358896e-38 338 265
0.024085538 0.72299999 -0.031691495 1.5217321e-38 339 265
-0.040396802 0.72000003 -0.0328224 1.7333504e-38 288 266
-0.039080046 0.71899998 -0.032776814 1.6318992e-38 289 266
-0.037819397 0.71899998 -0.032776814 1.5766549e-38 290 266
-0.036558751 0.71899998 -0.032776814 1.6319722e-38 291 266
-0.035199918 0.71700001 -0.032685637 1.5120829e-38 292 266
-0.033942781 0.71700001 -0.032685637 1.4659491e-38 293 266
-0.032685637 0.71700001 -0.032685637 1.4938601e-38 294 266
-0.031384666 0.71600002 -0.032640055 1.5491775e-38 295 266
-0.03012928 0.71600002 -0.032640055 1.4756371e-38 296 266
-0.028873893 0.71600002 -0.032640055 1.457234e-38 297 266
-0.02754136 0.71399999 -0.032548878 1.4479791e-38 298 266
-0.026289478 0.71399999 -0.032548878 1.4387595e-38 299 266
-0.025002534 0.713 -0.032503292 1.4112087e-38 300 266
-0.023685781 0.71100003 -0.032412119 1.4019892e-38 301 266
-0.022439159 0.71100003 -0.032412119 1.3744028e-38 302 266
-0.021162732 0.70999998 -0.032366529 1.3744028e-38 303 266
-0.019917866 0.70999998 -0.032366529 1.3559998e-38 304 266
-0.0186204 0.708 -0.03227536 1.3559998e-38 305 266
-0.017379038 0.708 -0.03227536 1.3559998e-38 306 266
-0.01613768 0.708 -0.03227536 1.3652195e-38 307 266
-0.01489632 0.708 -0.03227536 1.3468883e-38 308 266
-0.013635674 0.70700002 -0.032229774 1.3561079e-38 309 266
-0.012378532 0.70599997 -0.032184184 1.3654346e-38 310 266
-0.011140679 0.70599997 -0.032184184 1.356215e-38 311 266
-0.0099028256 0.70599997 -0.032184184 1.383694e-38 312 266
-0.0086649731 0.70599997 -0.032184184 1.3744744e-38 313 266
-0.0074271196 0.70599997 -0.032184184 1.3744744e-38 314 266
-0.0061892662 0.70599997 -0.032184184 1.337632e-38 315 266
-0.0049514128 0.70599997 -0.032184184 1.3557467e-38 316 266
-0.0037135598 0.70599997 -0.032184184 1.3465272e-38 317 266
-0.0024757064 0.70599997 -0.032184184 1.4291431e-38 318 266
-0.0012378532 0.70599997 -0.032184184 1.4476181e-38 319 266
0 0.70599997 -0.032184184 1.3923358e-38 320 266
0.0012378532 0.70599997 -0.032184184 1.4015553e-38 321 266
0.0024757064 0.70599997 -0.032184184 1.3554215e-38 322 266
0.0037135598 0.70599997 -0.032184184 1.3554215e-38 323 266
0.0049584266 0.70700002 -0.032229774 1.3462749e-38 324 266
0.0061980332 0.70700002 -0.032229774 1.3831531e-38 325 266
0.0074376399 0.70700002 -0.032229774 1.3372354e-38 326 266
0.008689519 0.708 -0.03227536 1.3095407e-38 327 266
0.0099589331 0.70999998 -0.032366529 1.2636587e-38 328 266
0.011203799 0.70999998 -0.032366529 1.2359642e-38 329 266
0.0124662 0.71100003 -0.032412119 1.2174883e-38 330 266
0.01377068 0.71399999 -0.032548878 1.2082688e-38 331 266
0.015085679 0.71700001 -0.032685637 1.2081966e-38 332 266
0.016342819 0.71700001 -0.032685637 1.2081966e-38 333 266
0.017649053 0.71899998 -0.032776814 1.2174517e-38 334 266
0.018909698 0.71899998 -0.032776814 1.2450744e-38 335 266
0.020170346 0.71899998 -0.032776814 1.2910282e-38 336 266
0.021550218 0.72299999 -0.032959159 1.3186509e-38 337 266
0.02281788 0.72299999 -0.032959159 1.3278694e-38 338 266
0.024085538 0.72299999 -0.032959159 1.6044563e-38 339 266
-0.040396802 0.72000003 -0.034084801 1.7425703e-38 288 267
-0.039080046 0.71899998 -0.03403746 1.6134964e-38 289 267
-0.037819397 0.71899998 -0.03403746 1.4752042e-38 290 267
-0.036558751 0.71899998 -0.03403746 1.4198868e-38 291 267
-0.035199918 0.71700001 -0.033942781 1.4383629e-38 292 267
-0.033942781 0.71700001 -0.033942781 1.4844606e-38 293 267
-0.032640055 0.71600002 -0.03389544 1.4663093e-38 294 267
-0.031384666 0.71600002 -0.03389544 1.4755289e-38 295 267
-0.03012928 0.71600002 -0.03389544 1.4755289e-38 296 267
-0.028873893 0.71600002 -0.03389544 1.4663093e-38 297 267
-0.02754136 0.71399999 -0.033800758 1.4295397e-38 298 267
-0.026289478 0.71399999 -0.033800758 1.4203201e-38 299 267
-0.025002534 0.713 -0.033753417 1.4019889e-38 300 267
-0.023685781 0.71100003 -0.033658739 1.3927692e-38 301 267
-0.022439159 0.71100003 -0.033658739 1.3651828e-38 302 267
-0.021162732 0.70999998 -0.033611398 1.3651828e-38 303 267
-0.019917866 0.70999998 -0.033611398 1.3559632e-38 304 267
-0.0186204 0.708 -0.033516716 1.3559632e-38 305 267
-0.017379038 0.708 -0.033516716 1.3559632e-38 306 267
-0.01613768 0.708 -0.033516716 1.3651828e-38 307 267
-0.01489632 0.708 -0.033516716 1.3652548e-38 308 267
-0.013635674 0.70700002 -0.033469379 1.3744744e-38 309 267
-0.012378532 0.70599997 -0.033422034 1.3744744e-38 310 267
-0.011140679 0.70599997 -0.033422034 1.3744744e-38 311 267
-0.0099028256 0.70599997 -0.033422034 1.3652548e-38 312 267
-0.0086649731 0.70599997 -0.033422034 1.3652548e-38 313 267
-0.0074271196 0.70599997 -0.033422034 1.3651828e-38 314 267
-0.0061892662 0.70599997 -0.033422034 1.3559632e-38 315 267
-0.0049514128 0.70599997 -0.033422034 1.3835493e-38 316 267
-0.0037135598 0.70599997 -0.033422034 1.411244e-38 317 267
-0.0024757064 0.70599997 -0.033422034 1.4571611e-38 318 267
-0.0012378532 0.70599997 -0.033422034 1.4110991e-38 319 267
0 0.70599997 -0.033422034 1.3555301e-38 320 267
0.0012378532 0.70599997 -0.033422034 1.3647497e-38 321 267
0.0024757064 0.70599997 -0.033422034 1.3646418e-38 322 267
0.0037135598 0.70599997 -0.033422034 1.3738613e-38 323 267
0.0049584266 0.70700002 -0.033469379 1.3555301e-38 324 267
0.0061980332 0.70700002 -0.033469379 1.3555301e-38 325 267
0.0074376399 0.70700002 -0.033469379 1.3004292e-38 326 267
0.008689519 0.708 -0.033516716 1.28199e-38 327 267
0.0099589331 0.70999998 -0.033611398 1.2451837e-38 328 267
0.01121958 0.71100003 -0.033658739 1.2267446e-38 329 267
0.012501267 0.713 -0.033753417 1.2358198e-38 330 267
0.01377068 0.71399999 -0.033800758 1.2173808e-38 331 267
0.015085679 0.71700001 -0.033942781 1.2081966e-38 332 267
0.016342819 0.71700001 -0.033942781 1.2174162e-38 333 267
0.017649053 0.71899998 -0.03403746 1.2174515e-38 334 267
0.018909698 0.71899998 -0.03403746 1.2450741e-38 335 267
0.020170346 0.71899998 -0.03403746 1.2910282e-38 336 267
0.021550218 0.72299999 -0.03422682 1.3463456e-38 337 267
0.02281788 0.72299999 -0.03422682 1.4567635e-38 338 267
0.024085538 0.72299999 -0.03422682 1.7148753e-38 339 267
-0.039134402 0.72000003 -0.035347197 1.5858021e-38 289 268
-0.037871998 0.72000003 -0.035347197 1.44769e-38 290 268
-0.036558751 0.71899998 -0.035298105 1.4108119e-38 291 268
-0.035298105 0.71899998 -0.035298105 1.4843887e-38 292 268
-0.033942781 0.71700001 -0.035199918 1.502828e-38 293 268
-0.032640055 0.71600002 -0.035150826 1.4387229e-38 294 268
-0.031384666 0.71600002 -0.035150826 1.4387229e-38 295 268
-0.03012928 0.71600002 -0.035150826 1.420428e-38 296 268
-0.028873893 0.71600002 -0.035150826 1.4019889e-38 297 268
-0.02754136 0.71399999 -0.035052639 1.3836579e-38 298 268
-0.026289478 0.71399999 -0.035052639 1.3744025e-38 299 268
-0.025002534 0.713 -0.035003547 1.3651831e-38 300 268
-0.023752406 0.713 -0.035003547 1.3559635e-38 301 268
-0.022439159 0.71100003 -0.034905359 1.3375964e-38 302 268
-0.021162732 0.70999998 -0.034856264 1.3283769e-38 303 268
-0.019917866 0.70999998 -0.034856264 1.3283769e-38 304 268
-0.0186204 0.708 -0.034758076 1.3283769e-38 305 268
-0.017379038 0.708 -0.034758076 1.3467084e-38 306 268
-0.01613768 0.708 -0.034758076 1.3559279e-38 307 268
-0.01489632 0.708 -0.034758076 1.337597e-38 308 268
-0.013635674 0.70700002 -0.034708988 1.3560001e-38 309 268
-0.012378532 0.70599997 -0.034659892 1.3376686e-38 310 268
-0.011140679 0.70599997 -0.034659892 1.3376686e-38 311 268
-0.0099028256 0.70599997 -0.034659892 1.328449e-38 312 268
-0.0086649731 0.70599997 -0.034659892 1.328449e-38 313 268
-0.0074271196 0.70599997 -0.034659892 1.3283771e-38 314 268
-0.0061892662 0.70599997 -0.034659892 1.3191576e-38 315 268
-0.0049514128 0.70599997 -0.034659892 1.3466718e-38 316 268
-0.0037135598 0.70599997 -0.034659892 1.3466718e-38 317 268
-0.0024757064 0.70599997 -0.034659892 1.4382911e-38 318 268
-0.0012378532 0.70599997 -0.034659892 1.4198518e-38 319 268
0 0.70599997 -0.034659892 1.3554221e-38 320 268
0.0012378532 0.70599997 -0.034659892 1.3646418e-38 321 268
0.0024757064 0.70599997 -0.034659892 1.3554948e-38 322 268
0.0037135598 0.70599997 -0.034659892 1.3462752e-38 323 268
0.0049514128 0.70599997 -0.034659892 1.3186888e-38 324 268
0.0061980332 0.70700002 -0.034708988 1.3186888e-38 325 268
0.0074376399 0.70700002 -0.034708988 1.2544392e-38 326 268
0.008677247 0.70700002 -0.034708988 1.2451837e-38 327 268
0.0099308798 0.708 -0.034758076 1.2267443e-38 328 268
0.01121958 0.71100003 -0.034905359 1.1991215e-38 329 268
0.012501267 0.713 -0.035003547 1.1990136e-38 330 268
0.013809253 0.71600002 -0.035150826 1.1990136e-38 331 268
0.015085679 0.71700001 -0.035199918 1.2081966e-38 332 268
0.016342819 0.71700001 -0.035199918 1.2081966e-38 333 268
0.017649053 0.71899998 -0.035298105 1.2358549e-38 334 268
0.018909698 0.71899998 -0.035298105 1.2542941e-38 335 268
0.020198401 0.72000003 -0.035347197 1.3186865e-38 336 268
0.021550218 0.72299999 -0.035494477 1.4016625e-38 337 268
0.02281788 0.72299999 -0.035494477 1.5580708e-38 338 268
0.024085538 0.72299999 -0.035494477 1.7424621e-38 339 268
-0.040789545 0.727 -0.036965527 1.7425347e-38 288 269
-0.039297458 0.72299999 -0.036762137 1.5397043e-38 289 269
-0.0379772 0.722 -0.03671129 1.4476534e-38 290 269
-0.036609601 0.72000003 -0.036609601 1.456873e-38 291 269
-0.035298105 0.71899998 -0.036558751 1.4936436e-38 292 269
-0.033942781 0.71700001 -0.036457058 1.5028633e-38 293 269
-0.032640055 0.71600002 -0.036406212 1.4295387e-38 294 269
-0.031384666 0.71600002 -0.036406212 1.4295387e-38 295 269
-0.03012928 0.71600002 -0.036406212 1.4019886e-38 296 269
-0.028793238 0.71399999 -0.036304519 1.3927689e-38 297 269
-0.02754136 0.71399999 -0.036304519 1.3652903e-38 298 269
-0.026289478 0.71399999 -0.036304519 1.3376317e-38 299 269
-0.025002534 0.713 -0.036253672 1.337632e-38 300 269
-0.023752406 0.713 -0.036253672 1.3284124e-38 301 269
-0.022439159 0.71100003 -0.036151983 1.3284124e-38 302 269
-0.021162732 0.70999998 -0.036101133 1.3284124e-38 303 269
-0.019917866 0.70999998 -0.036101133 1.3374885e-38 304 269
-0.0186204 0.708 -0.03599944 1.3374885e-38 305 269
-0.017379038 0.708 -0.03599944 1.3374888e-38 306 269
-0.01613768 0.708 -0.03599944 1.3467084e-38 307 269
-0.01489632 0.708 -0.03599944 1.3467084e-38 308 269
-0.013635674 0.70700002 -0.035948593 1.3467084e-38 309 269
-0.012378532 0.70599997 -0.035897743 1.3375967e-38 310 269
-0.011140679 0.70599997 -0.035897743 1.3283771e-38 311 269
-0.0099028256 0.70599997 -0.035897743 1.3283769e-38 312 269
-0.0086649731 0.70599997 -0.035897743 1.3191573e-38 313 269
-0.0074271196 0.70599997 -0.035897743 1.328269e-38 314 269
-0.0061892662 0.70599997 -0.035897743 1.2914266e-38 315 269
-0.0049514128 0.70599997 -0.035897743 1.2819549e-38 316 269
-0.0037135598 0.70599997 -0.035897743 1.2634799e-38 317 269
-0.0024757064 0.70599997 -0.035897743 1.3368401e-38 318 269
-0.0012378532 0.70599997 -0.035897743 1.382974e-38 319 269
0 0.70599997 -0.035897743 1.382974e-38 320 269
0.0012378532 0.70599997 -0.035897743 1.3552793e-38 321 269
0.0024757064 0.70599997 -0.035897743 1.3277288e-38 322 269
0.0037135598 0.70599997 -0.035897743 1.3185092e-38 323 269
0.0049514128 0.70599997 -0.035897743 1.3002496e-38 324 269
0.0061980332 0.70700002 -0.035948593 1.29103e-38 325 269
0.0074376399 0.70700002 -0.035948593 1.2268881e-38 326 269
0.008677247 0.70700002 -0.035948593 1.2176327e-38 327 269
0.0099308798 0.708 -0.03599944 1.2174527e-38 328 269
0.01121958 0.71100003 -0.036151983 1.2082332e-38 329 269
0.012518799 0.71399999 -0.036304519 1.1990133e-38 330 269
0.013809253 0.71600002 -0.036406212 1.1990133e-38 331 269
0.015085679 0.71700001 -0.036457058 1.2174162e-38 332 269
0.016342819 0.71700001 -0.036457058 1.2174162e-38 333 269
0.017649053 0.71899998 -0.036558751 1.2726256e-38 334 269
0.018909698 0.71899998 -0.036558751 1.2818452e-38 335 269
0.020254506 0.722 -0.03671129 1.3462007e-38 336 269
0.021550218 0.72299999 -0.036762137 1.4844941e-38 337 269
0.02281788 0.72299999 -0.036762137 1.6501939e-38 338 269
0.024085538 0.72299999 -0.036762137 1.7516451e-38 339 269
-0.040789545 0.727 -0.038240198 1.6873248e-38 288 270
-0.039297458 0.72299999 -0.038029801 1.493714e-38 289 270
-0.0379772 0.722 -0.0379772 1.4752395e-38 290 270
-0.036558751 0.71899998 -0.037819397 1.4752395e-38 291 270
-0.035199918 0.71700001 -0.037714198 1.4844959e-38 292 270
-0.033942781 0.71700001 -0.037714198 1.4844959e-38 293 270
-0.032640055 0.71600002 -0.037661601 1.4111354e-38 294 270
-0.031384666 0.71600002 -0.037661601 1.3927323e-38 295 270
-0.03012928 0.71600002 -0.037661601 1.3835496e-38 296 270
-0.028793238 0.71399999 -0.037556399 1.3743301e-38 297 270
-0.02754136 0.71399999 -0.037556399 1.3559632e-38 298 270
-0.026289478 0.71399999 -0.037556399 1.3467437e-38 299 270
-0.025002534 0.713 -0.037503798 1.3284124e-38 300 270
-0.023752406 0.713 -0.037503798 1.3099374e-38 301 270
-0.022439159 0.71100003 -0.037398599 1.3099377e-38 302 270
-0.021192541 0.71100003 -0.037398599 1.3099377e-38 303 270
-0.019917866 0.70999998 -0.037345998 1.3282692e-38 304 270
-0.018672999 0.70999998 -0.037345998 1.3282692e-38 305 270
-0.017379038 0.708 -0.0372408 1.309938e-38 306 270
-0.01613768 0.708 -0.0372408 1.309938e-38 307 270
-0.01489632 0.708 -0.0372408 1.3282692e-38 308 270
-0.013635674 0.70700002 -0.037188202 1.3282692e-38 309 270
-0.012378532 0.70599997 -0.037135597 1.3283771e-38 310 270
-0.011140679 0.70599997 -0.037135597 1.3191576e-38 311 270
-0.0099028256 0.70599997 -0.037135597 1.2824588e-38 312 270
-0.0086649731 0.70599997 -0.037135597 1.2824588e-38 313 270
-0.0074271196 0.70599997 -0.037135597 1.2914985e-38 314 270
-0.0061892662 0.70599997 -0.037135597 1.2638399e-38 315 270
-0.0049514128 0.70599997 -0.037135597 1.272915e-38 316 270
-0.0037135598 0.70599997 -0.037135597 1.2913541e-38 317 270
-0.0024757064 0.70599997 -0.037135597 1.3373073e-38 318 270
-0.0012378532 0.70599997 -0.037135597 1.3465269e-38 319 270
0 0.70599997 -0.037135597 1.3555667e-38 320 270
0.0012343467 0.704 -0.037030395 1.3186884e-38 321 270
0.0024686933 0.704 -0.037030395 1.3185808e-38 322 270
0.0037030398 0.704 -0.037030395 1.3185808e-38 323 270
0.0049514128 0.70599997 -0.037135597 1.2910297e-38 324 270
0.0061892662 0.70599997 -0.037135597 1.2541875e-38 325 270
0.0074271196 0.70599997 -0.037135597 1.226673e-38 326 270
0.008677247 0.70700002 -0.037188202 1.2174533e-38 327 270
0.0099308798 0.708 -0.0372408 1.1899022e-38 328 270
0.011203799 0.70999998 -0.037345998 1.1806468e-38 329 270
0.012518799 0.71399999 -0.037556399 1.1714628e-38 330 270
0.013809253 0.71600002 -0.037661601 1.1806824e-38 331 270
0.015085679 0.71700001 -0.037714198 1.2082688e-38 332 270
0.016342819 0.71700001 -0.037714198 1.2174883e-38 333 270
0.017649053 0.71899998 -0.037819397 1.2818086e-38 334 270
0.018935999 0.72000003 -0.037871998 1.3278704e-38 335 270
0.020282559 0.72299999 -0.038029801 1.4199569e-38 336 270
0.021550218 0.72299999 -0.038029801 1.5582862e-38 337 270
0.022880999 0.72500002 -0.038135 1.7331699e-38 338 270
0.024152167 0.72500002 -0.038135 1.7608646e-38 339 270
-0.042295661 0.73100001 -0.039732285 1.7702283e-38 287 271
-0.040789545 0.727 -0.039514873 1.6688135e-38 288 271
-0.039297458 0.72299999 -0.039297458 1.4752027e-38 289 271
-0.0379772 0.722 -0.039243106 1.4751674e-38 290 271
-0.036558751 0.71899998 -0.039080046 1.4843869e-38 291 271
-0.035199918 0.71700001 -0.038971342 1.44769e-38 292 271
-0.033942781 0.71700001 -0.038971342 1.4569096e-38 293 271
-0.032640055 0.71600002 -0.038916986 1.3834775e-38 294 271
-0.031384666 0.71600002 -0.038916986 1.3834775e-38 295 271
-0.03012928 0.71600002 -0.038916986 1.3467437e-38 296 271
-0.028793238 0.71399999 -0.038808275 1.3375241e-38 297 271
-0.02754136 0.71399999 -0.038808275 1.3191573e-38 298 271
-0.026289478 0.71399999 -0.038808275 1.3191573e-38 299 271
-0.025002534 0.713 -0.038753927 1.3099377e-38 300 271
-0.023752406 0.713 -0.038753927 1.3007182e-38 301 271
-0.022502279 0.713 -0.038753927 1.3006826e-38 302 271
-0.021192541 0.71100003 -0.038645219 1.3006826e-38 303 271
-0.01994592 0.71100003 -0.038645219 1.3006829e-38 304 271
-0.018672999 0.70999998 -0.038590867 1.3006829e-38 305 271
-0.017428132 0.70999998 -0.038590867 1.2823516e-38 306 271
-0.01613768 0.708 -0.038482159 1.2823516e-38 307 271
-0.01487528 0.70700002 -0.038427804 1.3006829e-38 308 271
-0.013616386 0.70599997 -0.038373452 1.3099024e-38 309 271
-0.012378532 0.70599997 -0.038373452 1.309938e-38 310 271
-0.011109119 0.704 -0.038264744 1.309938e-38 311 271
-0.0098747732 0.704 -0.038264744 1.2824588e-38 312 271
-0.0086649731 0.70599997 -0.038373452 1.2732034e-38 313 271
-0.0074271196 0.70599997 -0.038373452 1.2731314e-38 314 271
-0.0061892662 0.70599997 -0.038373452 1.2639118e-38 315 271
-0.0049514128 0.70599997 -0.038373452 1.3189771e-38 316 271
-0.0037135598 0.70599997 -0.038373452 1.3466718e-38 317 271
-0.0024757064 0.70599997 -0.038373452 1.3925175e-38 318 271
-0.0012378532 0.70599997 -0.038373452 1.3648228e-38 319 271
0 0.70599997 -0.038373452 1.3095412e-38 320 271
0.0012343467 0.704 -0.038264744 1.3095412e-38 321 271
0.0024686933 0.704 -0.038264744 1.3187604e-38 322 271
0.0037030398 0.704 -0.038264744 1.2726985e-38 323 271
0.0049514128 0.70599997 -0.038373452 1.2540436e-38 324 271
0.0061892662 0.70599997 -0.038373452 1.2264209e-38 325 271
0.0074271196 0.70599997 -0.038373452 1.2357126e-38 326 271
0.008677247 0.70700002 -0.038427804 1.2264931e-38 327 271
0.0099308798 0.708 -0.038482159 1.1806824e-38 328 271
0.011203799 0.70999998 -0.038590867 1.1806824e-38 329 271
0.012501267 0.713 -0.038753927 1.1806821e-38 330 271
0.01377068 0.71399999 -0.038808275 1.1806821e-38 331 271
0.01506464 0.71600002 -0.038916986 1.2358193e-38 332 271
0.016342819 0.71700001 -0.038971342 1.2450388e-38 333 271
0.017673599 0.72000003 -0.039134402 1.309395e-38 334 271
0.019014901 0.72299999 -0.039297458 1.3739319e-38 335 271
0.020282559 0.72299999 -0.039297458 1.5212998e-38 336 271
0.021609833 0.72500002 -0.039406165 1.6503737e-38 337 271
0.022880999 0.72500002 -0.039406165 1.7792678e-38 338 271
-0.042295661 0.73100001 -0.041013971 1.761081e-38 287 272
-0.040845651 0.72799999 -0.040845651 1.6595583e-38 288 272
-0.039406165 0.72500002 -0.040677335 1.4475082e-38 289 272
-0.038029801 0.72299999 -0.040565118 1.4383617e-38 290 272
-0.036609601 0.72000003 -0.040396802 1.4752039e-38 291 272
-0.035298105 0.71899998 -0.040340692 1.4293948e-38 292 272
-0.033942781 0.71700001 -0.040228479 1.4293948e-38 293 272
-0.032685637 0.71700001 -0.040228479 1.3834777e-38 294 272
-0.031384666 0.71600002 -0.040172372 1.3742582e-38 295 272
-0.03012928 0.71600002 -0.040172372 1.3467437e-38 296 272
-0.028873893 0.71600002 -0.040172372 1.3375241e-38 297 272
-0.02754136 0.71399999 -0.040060159 1.3099377e-38 298 272
-0.026289478 0.71399999 -0.040060159 1.3099377e-38 299 272
-0.025037598 0.71399999 -0.040060159 1.3007182e-38 300 272
-0.023752406 0.713 -0.040004052 1.3007182e-38 301 272
-0.022502279 0.713 -0.040004052 1.3007182e-38 302 272
-0.021192541 0.71100003 -0.039891839 1.2914985e-38 303 272
-0.01994592 0.71100003 -0.039891839 1.3006461e-38 304 272
-0.018672999 0.70999998 -0.039835732 1.3006461e-38 305 272
-0.017428132 0.70999998 -0.039835732 1.3098661e-38 306 272
-0.01613768 0.708 -0.039723519 1.3098661e-38 307 272
-0.01487528 0.70700002 -0.039667413 1.3006826e-38 308 272
-0.013616386 0.70599997 -0.039611302 1.3006826e-38 309 272
-0.012378532 0.70599997 -0.039611302 1.309938e-38 310 272
-0.011109119 0.704 -0.039499093 1.309938e-38 311 272
-0.0098747732 0.704 -0.039499093 1.2824588e-38 312 272
-0.0086649731 0.70599997 -0.039611302 1.2732034e-38 313 272
-0.0074271196 0.70599997 -0.039611302 1.2639118e-38 314 272
-0.0061892662 0.70599997 -0.039611302 1.2546922e-38 315 272
-0.0049514128 0.70599997 -0.039611302 1.2911743e-38 316 272
-0.0037135598 0.70599997 -0.039611302 1.2635155e-38 317 272
-0.0024757064 0.70599997 -0.039611302 1.3183291e-38 318 272
-0.0012378532 0.70599997 -0.039611302 1.3091094e-38 319 272
0 0.704 -0.039499093 1.2999626e-38 320 272
0.0012343467 0.704 -0.039499093 1.3184017e-38 321 272
0.0024686933 0.704 -0.039499093 1.2909591e-38 322 272
0.0037030398 0.704 -0.039499093 1.27252e-38 323 272
0.0049514128 0.70599997 -0.039611302 1.2540441e-38 324 272
0.0061892662 0.70599997 -0.039611302 1.2540441e-38 325 272
0.0074271196 0.70599997 -0.039611302 1.198942e-38 326 272
0.008677247 0.70700002 -0.039667413 1.198942e-38 327 272
0.0099308798 0.708 -0.039723519 1.1714628e-38 328 272
0.011203799 0.70999998 -0.039835732 1.1714628e-38 329 272
0.012501267 0.713 -0.040004052 1.1806821e-38 330 272
0.013751393 0.713 -0.040004052 1.1899017e-38 331 272
0.015022559 0.71399999 -0.040060159 1.2358195e-38 332 272
0.016342819 0.71700001 -0.040228479 1.2634784e-38 333 272
0.017673599 0.72000003 -0.040396802 1.2910279e-38 334 272
0.019014901 0.72299999 -0.040565118 1.4016625e-38 335 272
0.020282559 0.72299999 -0.040565118 1.6226075e-38 336 272
0.021609833 0.72500002 -0.040677335 1.7056194e-38 337 272
0.022944121 0.727 -0.040789545 1.7426053e-38 338 272
-0.042295661 0.73100001 -0.042295661 1.8162183e-38 287 273
-0.040789545 0.727 -0.042064216 1.7239151e-38 288 273
-0.039406165 0.72500002 -0.041948501 1.5026816e-38 289 273
-0.038029801 0.72299999 -0.041832779 1.4291417e-38 290 273
-0.03671129 0.722 -0.041774917 1.4936786e-38 291 273
-0.035347197 0.72000003 -0.041659199 1.4110636e-38 292 273
-0.03403746 0.71899998 -0.041601337 1.4110636e-38 293 273
-0.032685637 0.71700001 -0.041485619 1.3742579e-38 294 273
-0.031428497 0.71700001 -0.041485619 1.3742579e-38 295 273
-0.03012928 0.71600002 -0.041427758 1.3466718e-38 296 273
-0.028873893 0.71600002 -0.041427758 1.3466718e-38 297 273
-0.02754136 0.71399999 -0.041312039 1.3374166e-38 298 273
-0.026289478 0.71399999 -0.041312039 1.3374166e-38 299 273
-0.025037598 0.71399999 -0.041312039 1.3098658e-38 300 273
-0.023752406 0.713 -0.041254178 1.3098658e-38 301 273
-0.022502279 0.713 -0.041254178 1.3007179e-38 302 273
-0.021252153 0.713 -0.041254178 1.2914982e-38 303 273
-0.01994592 0.71100003 -0.041138459 1.2914985e-38 304 273
-0.0186993 0.71100003 -0.041138459 1.2914985e-38 305 273
-0.017428132 0.70999998 -0.041080594 1.2914629e-38 306 273
-0.01613768 0.708 -0.040964879 1.2914629e-38 307 273
-0.01489632 0.708 -0.040964879 1.2730963e-38 308 273
-0.013635674 0.70700002 -0.040907022 1.282316e-38 309 273
-0.012378532 0.70599997 -0.040849157 1.2547648e-38 310 273
-0.011140679 0.70599997 -0.040849157 1.273204e-38 311 273
-0.0099028256 0.70599997 -0.040849157 1.2732034e-38 312 273
-0.0086649731 0.70599997 -0.040849157 1.2732034e-38 313 273
-0.0074271196 0.70599997 -0.040849157 1.254692e-38 314 273
-0.0061892662 0.70599997 -0.040849157 1.2178497e-38 315 273
-0.0049514128 0.70599997 -0.040849157 1.2359644e-38 316 273
-0.0037135598 0.70599997 -0.040849157 1.1714275e-38 317 273
-0.0024757064 0.70599997 -0.040849157 1.2080186e-38 318 273
-0.0012378532 0.70599997 -0.040849157 1.2264578e-38 319 273
0 0.704 -0.040733438 1.2909594e-38 320 273
0.0012343467 0.704 -0.040733438 1.3001789e-38 321 273
0.0024686933 0.704 -0.040733438 1.2817751e-38 322 273
0.0037030398 0.704 -0.040733438 1.2817751e-38 323 273
0.0049514128 0.70599997 -0.040849157 1.272555e-38 324 273
0.0061892662 0.70599997 -0.040849157 1.2357126e-38 325 273
0.0074271196 0.70599997 -0.040849157 1.1714272e-38 326 273
0.008677247 0.70700002 -0.040907022 1.1714272e-38 327 273
0.0099308798 0.708 -0.040964879 1.1714628e-38 328 273
0.011203799 0.70999998 -0.041080594 1.1806824e-38 329 273
0.0124662 0.71100003 -0.041138459 1.1806824e-38 330 273
0.013751393 0.713 -0.041254178 1.1899019e-38 331 273
0.015022559 0.71399999 -0.041312039 1.2450391e-38 332 273
0.016320027 0.71600002 -0.041427758 1.2450391e-38 333 273
0.017673599 0.72000003 -0.041659199 1.3921913e-38 334 273
0.019014901 0.72299999 -0.041832779 1.5120455e-38 335 273
0.020282559 0.72299999 -0.041832779 1.714839e-38 336 273
0.021609833 0.72500002 -0.041948501 1.7516814e-38 337 273
-0.042122077 0.72799999 -0.043398503 1.8069988e-38 287 274
