# .PCD v.7 - Point Cloud Data file format
FIELDS x y z rgb imX imY
SIZE 4 4 4 4 4 4
TYPE F F F F F F
COUNT 1 1 1 1 1 1
WIDTH 837
HEIGHT 1
VIEWPOINT 0 0 0 1 0 0 0
POINTS 837
DATA ascii
0.017747238 0.72299999 -0.019014901 1.3831159e-38 334 255
0.019120099 0.727 -0.019120099 1.337054e-38 335 255
0.020422826 0.72799999 -0.0191464 1.1344764e-38 336 255
0.021699252 0.72799999 -0.0191464 1.1437318e-38 337 255
0.022975679 0.72799999 -0.0191464 1.3741127e-38 338 255
0.024252106 0.72799999 -0.0191464 1.6783943e-38 339 255
0.025528532 0.72799999 -0.0191464 1.8071069e-38 340 255
0.026804959 0.72799999 -0.0191464 1.7701927e-38 341 255
-0.035445385 0.722 -0.020254506 1.8531324e-38 292 256
-0.034179479 0.722 -0.020254506 1.8069988e-38 293 256
-0.0328224 0.72000003 -0.020198401 1.6501942e-38 294 256
-0.03156 0.72000003 -0.020198401 1.6225356e-38 295 256
-0.0302976 0.72000003 -0.020198401 1.6133529e-38 296 256
-0.028994869 0.71899998 -0.020170346 1.631792e-38 297 256
-0.027734226 0.71899998 -0.020170346 1.6134979e-38 298 256
-0.02647358 0.71899998 -0.020170346 1.6595599e-38 299 256
-0.025212931 0.71899998 -0.020170346 1.733352e-38 300 256
-0.02388566 0.71700001 -0.020114239 1.8624259e-38 301 256
-0.02262852 0.71700001 -0.020114239 2.0095423e-38 302 256
-0.021371379 0.71700001 -0.020114239 2.0279814e-38 303 256
-0.020086186 0.71600002 -0.020086186 1.9360006e-38 304 256
-0.0188308 0.71600002 -0.020086186 1.8069267e-38 305 256
-0.017575413 0.71600002 -0.020086186 1.7513933e-38 306 256
-0.016320027 0.71600002 -0.020086186 1.6960759e-38 307 256
-0.015022559 0.71399999 -0.020030079 1.6683816e-38 308 256
-0.013751393 0.713 -0.020002026 1.6776012e-38 309 256
-0.012501267 0.713 -0.020002026 1.6499798e-38 310 256
-0.011251139 0.713 -0.020002026 1.6960774e-38 311 256
-0.0099729598 0.71100003 -0.01994592 1.7426066e-38 312 256
-0.0087263398 0.71100003 -0.01994592 1.7426066e-38 313 256
-0.0074797203 0.71100003 -0.01994592 1.825258e-38 314 256
-0.0062330998 0.71100003 -0.01994592 1.825258e-38 315 256
-0.0049864799 0.71100003 -0.01994592 1.8159668e-38 316 256
-0.0037398601 0.71100003 -0.01994592 1.7790887e-38 317 256
-0.0024932399 0.71100003 -0.01994592 1.714839e-38 318 256
-0.00124662 0.71100003 -0.01994592 1.6963999e-38 319 256
0 0.713 -0.020002026 1.6137482e-38 320 256
0.0012501266 0.713 -0.020002026 1.5952731e-38 321 256
0.0025037599 0.71399999 -0.020030079 1.5768342e-38 322 256
0.00376616 0.71600002 -0.020086186 1.5583952e-38 323 256
0.0050215465 0.71600002 -0.020086186 1.5399564e-38 324 256
0.0062769335 0.71600002 -0.020086186 1.5307367e-38 325 256
0.0075428397 0.71700001 -0.020114239 1.5122617e-38 326 256
0.0088245263 0.71899998 -0.020170346 1.4938586e-38 327 256
0.010085173 0.71899998 -0.020170346 1.4571245e-38 328 256
0.011361601 0.72000003 -0.020198401 1.447905e-38 329 256
0.012659066 0.722 -0.020254506 1.4478329e-38 330 256
0.013924973 0.722 -0.020254506 1.4293938e-38 331 256
0.015211919 0.72299999 -0.020282559 1.4201742e-38 332 256
0.01647958 0.72299999 -0.020282559 1.383296e-38 333 256
0.017747238 0.72299999 -0.020282559 1.3925513e-38 334 256
0.0190675 0.72500002 -0.020338668 1.3371979e-38 335 256
0.020394772 0.727 -0.020394772 1.1895775e-38 336 256
0.021699252 0.72799999 -0.020422826 1.0973821e-38 337 256
0.022975679 0.72799999 -0.020422826 1.198977e-38 338 256
0.024252106 0.72799999 -0.020422826 1.6322605e-38 339 256
0.025493465 0.727 -0.020394772 1.8071072e-38 340 256
0.026768139 0.727 -0.020394772 1.7701929e-38 341 256
0.028042812 0.727 -0.020394772 1.7794475e-38 342 256
-0.03671129 0.722 -0.021520413 1.8439492e-38 291 257
-0.035445385 0.722 -0.021520413 1.8069634e-38 292 257
-0.034179479 0.722 -0.021520413 1.7240232e-38 293 257
-0.0328224 0.72000003 -0.021460801 1.5672904e-38 294 257
-0.03156 0.72000003 -0.021460801 1.5672904e-38 295 257
-0.0302976 0.72000003 -0.021460801 1.5671835e-38 296 257
-0.028994869 0.71899998 -0.021430992 1.6225009e-38 297 257
-0.027734226 0.71899998 -0.021430992 1.613426e-38 298 257
-0.02647358 0.71899998 -0.021430992 1.6410487e-38 299 257
-0.0251428 0.71700001 -0.021371379 1.7241321e-38 300 257
-0.02388566 0.71700001 -0.021371379 1.853206e-38 301 257
-0.02262852 0.71700001 -0.021371379 1.982136e-38 302 257
-0.021341572 0.71600002 -0.021341572 2.0005392e-38 303 257
-0.020086186 0.71600002 -0.021341572 1.9820278e-38 304 257
-0.0188308 0.71600002 -0.021341572 1.8714289e-38 305 257
-0.017526319 0.71399999 -0.021281958 1.8527371e-38 306 257
-0.016274439 0.71399999 -0.021281958 1.7974558e-38 307 257
-0.015001519 0.713 -0.021252153 1.6500148e-38 308 257
-0.01371282 0.71100003 -0.021192541 1.6868929e-38 309 257
-0.0124662 0.71100003 -0.021192541 1.659414e-38 310 257
-0.01121958 0.71100003 -0.021192541 1.5856216e-38 311 257
-0.0099589331 0.70999998 -0.021162732 1.6133529e-38 312 257
-0.0087140659 0.70999998 -0.021162732 1.7424268e-38 313 257
-0.0074691991 0.70999998 -0.021162732 1.788416e-38 314 257
-0.0062243328 0.70999998 -0.021162732 1.6593421e-38 315 257
-0.0049794666 0.70999998 -0.021162732 1.6867128e-38 316 257
-0.0037345996 0.70999998 -0.021162732 1.7512498e-38 317 257
-0.0024897333 0.70999998 -0.021162732 1.6594866e-38 318 257
-0.00124662 0.71100003 -0.021192541 1.6594866e-38 319 257
0 0.71100003 -0.021192541 1.5860182e-38 320 257
0.00124662 0.71100003 -0.021192541 1.5767986e-38 321 257
0.0025002533 0.713 -0.021252153 1.5491759e-38 322 257
0.0037556398 0.71399999 -0.021281958 1.5399564e-38 323 257
0.0050075199 0.71399999 -0.021281958 1.50315e-38 324 257
0.0062769335 0.71600002 -0.021341572 1.4847109e-38 325 257
0.00753232 0.71600002 -0.021341572 1.4571601e-38 326 257
0.0087999795 0.71700001 -0.021371379 1.438685e-38 327 257
0.01005712 0.71700001 -0.021371379 1.4386852e-38 328 257
0.01134582 0.71899998 -0.021430992 1.4294657e-38 329 257
0.012624 0.72000003 -0.021460801 1.4110626e-38 330 257
0.013924973 0.722 -0.021520413 1.4018071e-38 331 257
0.015190879 0.722 -0.021520413 1.383368e-38 332 257
0.01647958 0.72299999 -0.021550218 1.3741483e-38 333 257
0.017747238 0.72299999 -0.021550218 1.3558168e-38 334 257
0.019014901 0.72299999 -0.021550218 1.3004996e-38 335 257
0.020394772 0.727 -0.021669446 1.2356029e-38 336 257
0.021669446 0.727 -0.021669446 1.106529e-38 337 257
0.022944121 0.727 -0.021669446 1.1064937e-38 338 257
0.024218792 0.727 -0.021669446 1.5951664e-38 339 257
0.025493465 0.727 -0.021669446 1.7979242e-38 340 257
0.026694499 0.72500002 -0.021609833 1.761046e-38 341 257
0.027965667 0.72500002 -0.021609833 1.7518612e-38 342 257
-0.038029801 0.72299999 -0.02281788 1.8348376e-38 290 258
-0.036762137 0.72299999 -0.02281788 1.8163984e-38 291 258
-0.035445385 0.722 -0.022786319 1.6320438e-38 292 258
-0.034179479 0.722 -0.022786319 1.5398841e-38 293 258
-0.0328224 0.72000003 -0.022723202 1.5304847e-38 294 258
-0.03156 0.72000003 -0.022723202 1.5765824e-38 295 258
-0.0302976 0.72000003 -0.022723202 1.604026e-38 296 258
-0.028994869 0.71899998 -0.022691639 1.6224653e-38 297 258
-0.027734226 0.71899998 -0.022691639 1.6042062e-38 298 258
-0.02639994 0.71700001 -0.02262852 1.6042062e-38 299 258
-0.0251428 0.71700001 -0.02262852 1.6320088e-38 300 258
-0.02388566 0.71700001 -0.02262852 1.6689229e-38 301 258
-0.022596961 0.71600002 -0.022596961 1.7428959e-38 302 258
-0.021341572 0.71600002 -0.022596961 1.8350916e-38 303 258
-0.020086186 0.71600002 -0.022596961 1.972953e-38 304 258
-0.018778199 0.71399999 -0.022533838 1.9453303e-38 305 258
-0.017526319 0.71399999 -0.022533838 1.9544767e-38 306 258
-0.016251646 0.713 -0.022502279 1.8346224e-38 307 258
-0.014959441 0.71100003 -0.022439159 1.6686336e-38 308 258
-0.01371282 0.71100003 -0.022439159 1.6686336e-38 309 258
-0.012448666 0.70999998 -0.022407599 1.6411188e-38 310 258
-0.011203799 0.70999998 -0.022407599 1.7056557e-38 311 258
-0.0099589331 0.70999998 -0.022407599 1.7605422e-38 312 258
-0.008689519 0.708 -0.022344479 1.659127e-38 313 258
-0.0074481601 0.708 -0.022344479 1.6225725e-38 314 258
-0.0062067998 0.708 -0.022344479 1.6594866e-38 315 258
-0.0049794666 0.70999998 -0.022407599 1.7695095e-38 316 258
-0.0037345996 0.70999998 -0.022407599 1.741851e-38 317 258
-0.0024897333 0.70999998 -0.022407599 1.5767623e-38 318 258
-0.0012448666 0.70999998 -0.022407599 1.5675069e-38 319 258
0 0.70999998 -0.022407599 1.5215896e-38 320 258
0.00124662 0.71100003 -0.022439159 1.5123699e-38 321 258
0.0024932399 0.71100003 -0.022439159 1.4939307e-38 322 258
0.0037398601 0.71100003 -0.022439159 1.4847112e-38 323 258
0.0050005065 0.713 -0.022502279 1.4571601e-38 324 258
0.0062593995 0.71399999 -0.022533838 1.438685e-38 325 258
0.00753232 0.71600002 -0.022596961 1.4294657e-38 326 258
0.0087877065 0.71600002 -0.022596961 1.4110626e-38 327 258
0.01005712 0.71700001 -0.02262852 1.4018074e-38 328 258
0.01134582 0.71899998 -0.022691639 1.4018074e-38 329 258
0.012624 0.72000003 -0.022723202 1.3925879e-38 330 258
0.0138864 0.72000003 -0.022723202 1.3833683e-38 331 258
0.015190879 0.722 -0.022786319 1.3741127e-38 332 258
0.01647958 0.72299999 -0.02281788 1.3648932e-38 333 258
0.017747238 0.72299999 -0.02281788 1.3373421e-38 334 258
0.019014901 0.72299999 -0.02281788 1.2912801e-38 335 258
0.020338668 0.72500002 -0.022880999 1.2357111e-38 336 258
0.021669446 0.727 -0.022944121 1.1066372e-38 337 258
0.022944121 0.727 -0.022944121 1.0418852e-38 338 258
0.024218792 0.727 -0.022944121 1.4751686e-38 339 258
0.025493465 0.727 -0.022944121 1.7334596e-38 340 258
0.026694499 0.72500002 -0.022880999 1.7611183e-38 341 258
0.027965667 0.72500002 -0.022880999 1.7794475e-38 342 258
-0.038029801 0.72299999 -0.024085538 1.8347296e-38 290 259
-0.036762137 0.72299999 -0.024085538 1.7978874e-38 291 259
-0.035494477 0.72299999 -0.024085538 1.5766904e-38 292 259
-0.034179479 0.722 -0.024052227 1.5121535e-38 293 259
-0.0328224 0.72000003 -0.0239856 1.5212652e-38 294 259
-0.03156 0.72000003 -0.0239856 1.567327e-38 295 259
-0.030255521 0.71899998 -0.023952285 1.5766549e-38 296 259
-0.028914221 0.71700001 -0.02388566 1.6043134e-38 297 259
-0.027657079 0.71700001 -0.02388566 1.5860185e-38 298 259
-0.02639994 0.71700001 -0.02388566 1.5860185e-38 299 259
-0.025107734 0.71600002 -0.023852346 1.530846e-38 300 259
-0.023852346 0.71600002 -0.023852346 1.5584687e-38 301 259
-0.022596961 0.71600002 -0.023852346 1.5679409e-38 302 259
-0.021281958 0.71399999 -0.02378572 1.6785758e-38 303 259
-0.020002026 0.713 -0.023752406 1.8625707e-38 304 259
-0.0186993 0.71100003 -0.023685781 1.9363273e-38 305 259
-0.01745268 0.71100003 -0.023685781 1.9547285e-38 306 259
-0.01620606 0.71100003 -0.023685781 1.8441297e-38 307 259
-0.014959441 0.71100003 -0.023685781 1.7331702e-38 308 259
-0.013693533 0.70999998 -0.023652466 1.6870725e-38 309 259
-0.012448666 0.70999998 -0.023652466 1.6134608e-38 310 259
-0.01117224 0.708 -0.023585839 1.7148758e-38 311 259
-0.0099308798 0.708 -0.023585839 1.7976356e-38 312 259
-0.008677247 0.70700002 -0.023552528 1.6132443e-38 313 259
-0.0074376399 0.70700002 -0.023552528 1.5670033e-38 314 259
-0.0062067998 0.708 -0.023585839 1.7974923e-38 315 259
-0.0049654399 0.708 -0.023585839 1.8341192e-38 316 259
-0.00372408 0.708 -0.023585839 1.6405084e-38 317 259
-0.00248272 0.708 -0.023585839 1.5121885e-38 318 259
-0.00124136 0.708 -0.023585839 1.5582862e-38 319 259
0 0.70999998 -0.023652466 1.4940026e-38 320 259
0.0012448666 0.70999998 -0.023652466 1.4940026e-38 321 259
0.0024932399 0.71100003 -0.023685781 1.466309e-38 322 259
0.0037398601 0.71100003 -0.023685781 1.4478699e-38 323 259
0.0049864799 0.71100003 -0.023685781 1.4294304e-38 324 259
0.0062506334 0.713 -0.023752406 1.4018077e-38 325 259
0.0075112795 0.71399999 -0.02378572 1.4018077e-38 326 259
0.0087877065 0.71600002 -0.023852346 1.3925523e-38 327 259
0.010043093 0.71600002 -0.023852346 1.3650736e-38 328 259
0.01131426 0.71700001 -0.02388566 1.3650736e-38 329 259
0.012606465 0.71899998 -0.023952285 1.3557462e-38 330 259
0.0138864 0.72000003 -0.0239856 1.3557462e-38 331 259
0.015190879 0.722 -0.024052227 1.328231e-38 332 259
0.016456785 0.722 -0.024052227 1.3189755e-38 333 259
0.017747238 0.72299999 -0.024085538 1.3005367e-38 334 259
0.019014901 0.72299999 -0.024085538 1.2636584e-38 335 259
0.020338668 0.72500002 -0.024152167 1.2449672e-38 336 259
0.021609833 0.72500002 -0.024152167 1.125113e-38 337 259
0.022944121 0.727 -0.024218792 1.0509248e-38 338 259
0.024218792 0.727 -0.024218792 1.3736095e-38 339 259
0.025493465 0.727 -0.024218792 1.6229325e-38 340 259
0.026768139 0.727 -0.024218792 1.7520063e-38 341 259
0.028042812 0.727 -0.024218792 1.7794478e-38 342 259
-0.038029801 0.72299999 -0.025353199 1.7976721e-38 290 260
-0.036762137 0.72299999 -0.025353199 1.6593787e-38 291 260
-0.035494477 0.72299999 -0.025353199 1.5303048e-38 292 260
-0.034179479 0.722 -0.025318133 1.5856222e-38 293 260
-0.0328224 0.72000003 -0.025248 1.5765105e-38 294 260
-0.03156 0.72000003 -0.025248 1.5949498e-38 295 260
-0.030255521 0.71899998 -0.025212931 1.5491759e-38 296 260
-0.028914221 0.71700001 -0.0251428 1.5767986e-38 297 260
-0.027657079 0.71700001 -0.0251428 1.5676516e-38 298 260
-0.02639994 0.71700001 -0.0251428 1.5676516e-38 299 260
-0.025107734 0.71600002 -0.025107734 1.5584687e-38 300 260
-0.023852346 0.71600002 -0.025107734 1.530846e-38 301 260
-0.022596961 0.71600002 -0.025107734 1.4942923e-38 302 260
-0.021281958 0.71399999 -0.025037598 1.5403542e-38 303 260
-0.01994592 0.71100003 -0.024932399 1.5955997e-38 304 260
-0.0186993 0.71100003 -0.024932399 1.6416974e-38 305 260
-0.01745268 0.71100003 -0.024932399 1.6970498e-38 306 260
-0.016183265 0.70999998 -0.024897331 1.6970498e-38 307 260
-0.014938398 0.70999998 -0.024897331 1.8161836e-38 308 260
-0.013693533 0.70999998 -0.024897331 1.7147684e-38 309 260
-0.0124136 0.708 -0.024827199 1.6318642e-38 310 260
-0.011156459 0.70700002 -0.024792133 1.5949861e-38 311 260
-0.0099168532 0.70700002 -0.024792133 1.6228246e-38 312 260
-0.008677247 0.70700002 -0.024792133 1.7058006e-38 313 260
-0.0074376399 0.70700002 -0.024792133 1.7877689e-38 314 260
-0.0061980332 0.70700002 -0.024792133 1.7048288e-38 315 260
-0.0049584266 0.70700002 -0.024792133 1.5387688e-38 316 260
-0.0037188199 0.70700002 -0.024792133 1.5203297e-38 317 260
-0.0024792133 0.70700002 -0.024792133 1.5121535e-38 318 260
-0.0012396066 0.70700002 -0.024792133 1.5489957e-38 319 260
0 0.708 -0.024827199 1.512262e-38 320 260
0.0012448666 0.70999998 -0.024897331 1.4846393e-38 321 260
0.0024897333 0.70999998 -0.024897331 1.4570173e-38 322 260
0.0037345996 0.70999998 -0.024897331 1.4477976e-38 323 260
0.0049864799 0.71100003 -0.024932399 1.4018796e-38 324 260
0.0062330998 0.71100003 -0.024932399 1.4018796e-38 325 260
0.0075007593 0.713 -0.025002534 1.3742566e-38 326 260
0.0087631596 0.71399999 -0.025037598 1.3742566e-38 327 260
0.01001504 0.71399999 -0.025037598 1.3833327e-38 328 260
0.01129848 0.71600002 -0.025107734 1.3833327e-38 329 260
0.0125714 0.71700001 -0.0251428 1.3557462e-38 330 260
0.013867113 0.71899998 -0.025212931 1.3465266e-38 331 260
0.0151488 0.72000003 -0.025248 1.337307e-38 332 260
0.016456785 0.722 -0.025318133 1.3096844e-38 333 260
0.017722692 0.722 -0.025318133 1.3004648e-38 334 260
0.019014901 0.72299999 -0.025353199 1.2635505e-38 335 260
0.020282559 0.72299999 -0.025353199 1.1990133e-38 336 260
0.021609833 0.72500002 -0.025423333 1.1252568e-38 337 260
0.022944121 0.727 -0.025493465 1.0695434e-38 338 260
0.024218792 0.727 -0.025493465 1.1986173e-38 339 260
0.025493465 0.727 -0.025493465 1.4846387e-38 340 260
0.026768139 0.727 -0.025493465 1.7151277e-38 341 260
0.028042812 0.727 -0.025493465 1.770228e-38 342 260
-0.039243106 0.722 -0.026584039 1.8531692e-38 289 261
-0.038029801 0.72299999 -0.026620859 1.6872895e-38 290 261
-0.036762137 0.72299999 -0.026620859 1.4844591e-38 291 261
-0.035494477 0.72299999 -0.026620859 1.4843872e-38 292 261
-0.034179479 0.722 -0.026584039 1.5673272e-38 293 261
-0.0328224 0.72000003 -0.026510401 1.5307011e-38 294 261
-0.03156 0.72000003 -0.026510401 1.5307011e-38 295 261
-0.030255521 0.71899998 -0.02647358 1.4940751e-38 296 261
-0.028914221 0.71700001 -0.02639994 1.5217336e-38 297 261
-0.027657079 0.71700001 -0.02639994 1.5216983e-38 298 261
-0.026363119 0.71600002 -0.026363119 1.5216983e-38 299 261
-0.025107734 0.71600002 -0.026363119 1.5033318e-38 300 261
-0.023852346 0.71600002 -0.026363119 1.5033318e-38 301 261
-0.022533838 0.71399999 -0.026289478 1.5125516e-38 302 261
-0.021252153 0.713 -0.026252659 1.5309907e-38 303 261
-0.01994592 0.71100003 -0.026179021 1.5217709e-38 304 261
-0.0186993 0.71100003 -0.026179021 1.5678687e-38 305 261
-0.01745268 0.71100003 -0.026179021 1.6046744e-38 306 261
-0.016183265 0.70999998 -0.026142199 1.6323691e-38 307 261
-0.014938398 0.70999998 -0.026142199 1.6873988e-38 308 261
-0.013654959 0.708 -0.026068559 1.6413008e-38 309 261
-0.012396066 0.70700002 -0.02603174 1.5676519e-38 310 261
-0.011156459 0.70700002 -0.02603174 1.5492128e-38 311 261
-0.0099028256 0.70599997 -0.025994917 1.5859469e-38 312 261
-0.0086649731 0.70599997 -0.025994917 1.6504838e-38 313 261
-0.0074271196 0.70599997 -0.025994917 1.7514298e-38 314 261
-0.0061892662 0.70599997 -0.025994917 1.6131364e-38 315 261
-0.0049514128 0.70599997 -0.025994917 1.5390556e-38 316 261
-0.0037135598 0.70599997 -0.025994917 1.5482752e-38 317 261
-0.0024757064 0.70599997 -0.025994917 1.4659841e-38 318 261
-0.0012396066 0.70700002 -0.02603174 1.5121179e-38 319 261
0 0.70700002 -0.02603174 1.4110636e-38 320 261
0.00124136 0.708 -0.026068559 1.4110636e-38 321 261
0.0024897333 0.70999998 -0.026142199 1.4294304e-38 322 261
0.0037345996 0.70999998 -0.026142199 1.4294304e-38 323 261
0.0049794666 0.70999998 -0.026142199 1.4110989e-38 324 261
0.0062330998 0.71100003 -0.026179021 1.4018793e-38 325 261
0.0074797203 0.71100003 -0.026179021 1.3835125e-38 326 261
0.0087508867 0.713 -0.026252659 1.3466341e-38 327 261
0.010001013 0.713 -0.026252659 1.3558185e-38 328 261
0.011266919 0.71399999 -0.026289478 1.3465988e-38 329 261
0.012553867 0.71600002 -0.026363119 1.3281957e-38 330 261
0.013828539 0.71700001 -0.02639994 1.3189761e-38 331 261
0.01512776 0.71899998 -0.02647358 1.3005011e-38 332 261
0.0164112 0.72000003 -0.026510401 1.2820618e-38 333 261
0.017673599 0.72000003 -0.026510401 1.2544389e-38 334 261
0.019014901 0.72299999 -0.026620859 1.2175246e-38 335 261
0.020282559 0.72299999 -0.026620859 1.1622427e-38 336 261
0.021550218 0.72299999 -0.026620859 1.1161807e-38 337 261
0.022880999 0.72500002 -0.026694499 1.0513564e-38 338 261
0.024218792 0.727 -0.026768139 1.0329173e-38 339 261
0.025528532 0.72799999 -0.026804959 1.401518e-38 340 261
0.026768139 0.727 -0.026768139 1.761081e-38 341 261
0.028042812 0.727 -0.026768139 1.7979221e-38 342 261
-0.039243106 0.722 -0.027849946 1.8071791e-38 289 262
-0.0379772 0.722 -0.027849946 1.5952017e-38 290 262
-0.03671129 0.722 -0.027849946 1.4476529e-38 291 262
-0.035445385 0.722 -0.027849946 1.5121182e-38 292 262
-0.034179479 0.722 -0.027849946 1.5305213e-38 293 262
-0.0328224 0.72000003 -0.027772799 1.4939673e-38 294 262
-0.03156 0.72000003 -0.027772799 1.5031869e-38 295 262
-0.030171359 0.71700001 -0.027657079 1.4848556e-38 296 262
-0.028914221 0.71700001 -0.027657079 1.4940754e-38 297 262
-0.027657079 0.71700001 -0.027657079 1.4848203e-38 298 262
-0.026363119 0.71600002 -0.027618507 1.49404e-38 299 262
-0.025107734 0.71600002 -0.027618507 1.4848926e-38 300 262
-0.02378572 0.71399999 -0.02754136 1.4941122e-38 301 262
-0.022533838 0.71399999 -0.02754136 1.4757454e-38 302 262
-0.021252153 0.713 -0.027502786 1.484965e-38 303 262
-0.01994592 0.71100003 -0.027425639 1.4573058e-38 304 262
-0.018672999 0.70999998 -0.027387066 1.4665255e-38 305 262
-0.017428132 0.70999998 -0.027387066 1.4665255e-38 306 262
-0.01613768 0.708 -0.027309919 1.475781e-38 307 262
-0.01489632 0.708 -0.027309919 1.5218065e-38 308 262
-0.013654959 0.708 -0.027309919 1.4941119e-38 309 262
-0.012396066 0.70700002 -0.027271347 1.4756005e-38 310 262
-0.011156459 0.70700002 -0.027271347 1.4848201e-38 311 262
-0.0099028256 0.70599997 -0.027232772 1.5399214e-38 312 262
-0.0086649731 0.70599997 -0.027232772 1.5491409e-38 313 262
-0.0074271196 0.70599997 -0.027232772 1.6503035e-38 314 262
-0.0061892662 0.70599997 -0.027232772 1.6042415e-38 315 262
-0.0049514128 0.70599997 -0.027232772 1.5947699e-38 316 262
-0.0037135598 0.70599997 -0.027232772 1.5210134e-38 317 262
-0.0024757064 0.70599997 -0.027232772 1.3001398e-38 318 262
-0.0012378532 0.70599997 -0.027232772 1.2263832e-38 319 262
0 0.70700002 -0.027271347 1.3648932e-38 320 262
0.0012396066 0.70700002 -0.027271347 1.3925879e-38 321 262
0.00248272 0.708 -0.027309919 1.4110273e-38 322 262
0.0037345996 0.70999998 -0.027387066 1.4294304e-38 323 262
0.0049794666 0.70999998 -0.027387066 1.3928039e-38 324 262
0.0062243328 0.70999998 -0.027387066 1.3928039e-38 325 262
0.0074797203 0.71100003 -0.027425639 1.3650736e-38 326 262
0.0087263398 0.71100003 -0.027425639 1.3465985e-38 327 262
0.010001013 0.713 -0.027502786 1.3372717e-38 328 262
0.011251139 0.713 -0.027502786 1.3372717e-38 329 262
0.012518799 0.71399999 -0.02754136 1.3005014e-38 330 262
0.013828539 0.71700001 -0.027657079 1.2912818e-38 331 262
0.01512776 0.71899998 -0.027734226 1.2819902e-38 332 262
0.016388407 0.71899998 -0.027734226 1.2727348e-38 333 262
0.017673599 0.72000003 -0.027772799 1.2267446e-38 334 262
0.019014901 0.72299999 -0.02788852 1.1806468e-38 335 262
0.020282559 0.72299999 -0.02788852 1.1713906e-38 336 262
0.021550218 0.72299999 -0.02788852 1.1529514e-38 337 262
0.022880999 0.72500002 -0.027965667 1.1160005e-38 338 262
0.024218792 0.727 -0.028042812 9.9614636e-39 339 262
0.025528532 0.72799999 -0.028081384 1.3189017e-38 340 262
0.026804959 0.72799999 -0.028081384 1.7245625e-38 341 262
0.028081384 0.72799999 -0.028081384 1.8162536e-38 342 262
-0.039243106 0.722 -0.029115854 1.7333151e-38 289 263
-0.0379772 0.722 -0.029115854 1.5398844e-38 290 263
-0.03671129 0.722 -0.029115854 1.4384333e-38 291 263
-0.035445385 0.722 -0.029115854 1.4570529e-38 292 263
-0.034084801 0.72000003 -0.029035201 1.475456e-38 293 263
-0.0328224 0.72000003 -0.029035201 1.4571616e-38 294 263
-0.031516165 0.71899998 -0.028994869 1.4663812e-38 295 263
-0.030171359 0.71700001 -0.028914221 1.4480144e-38 296 263
-0.028873893 0.71600002 -0.028873893 1.4480144e-38 297 263
-0.027618507 0.71600002 -0.028873893 1.4388667e-38 298 263
-0.026363119 0.71600002 -0.028873893 1.4480863e-38 299 263
-0.025037598 0.71399999 -0.028793238 1.4480863e-38 300 263
-0.02378572 0.71399999 -0.028793238 1.4573058e-38 301 263
-0.022502279 0.713 -0.028752912 1.4389749e-38 302 263
-0.021252153 0.713 -0.028752912 1.4389749e-38 303 263
-0.01994592 0.71100003 -0.028672259 1.4573061e-38 304 263
-0.018672999 0.70999998 -0.028631933 1.4573061e-38 305 263
-0.017428132 0.70999998 -0.028631933 1.4756373e-38 306 263
-0.01613768 0.708 -0.02855128 1.4756373e-38 307 263
-0.01487528 0.70700002 -0.028510952 1.4389746e-38 308 263
-0.013635674 0.70700002 -0.028510952 1.4297551e-38 309 263
-0.012396066 0.70700002 -0.028510952 1.4204633e-38 310 263
-0.011156459 0.70700002 -0.028510952 1.3928045e-38 311 263
-0.0099028256 0.70599997 -0.028470624 1.4570898e-38 312 263
-0.0086649731 0.70599997 -0.028470624 1.4755289e-38 313 263
-0.0074271196 0.70599997 -0.028470624 1.5213743e-38 314 263
-0.0061892662 0.70599997 -0.028470624 1.4937156e-38 315 263
-0.0049514128 0.70599997 -0.028470624 1.4291784e-38 316 263
-0.0037135598 0.70599997 -0.028470624 1.3554218e-38 317 263
-0.0024757064 0.70599997 -0.028470624 1.2907408e-38 318 263
-0.0012378532 0.70599997 -0.028470624 1.2446428e-38 319 263
0 0.70700002 -0.028510952 1.3648215e-38 320 263
0.0012396066 0.70700002 -0.028510952 1.3924804e-38 321 263
0.00248272 0.708 -0.02855128 1.3835128e-38 322 263
0.00372408 0.708 -0.02855128 1.3835128e-38 323 263
0.0049654399 0.708 -0.02855128 1.355962e-38 324 263
0.0062243328 0.70999998 -0.028631933 1.337487e-38 325 263
0.0074691991 0.70999998 -0.028631933 1.3465988e-38 326 263
0.0087263398 0.71100003 -0.028672259 1.3189761e-38 327 263
0.0099729598 0.71100003 -0.028672259 1.3097212e-38 328 263
0.01121958 0.71100003 -0.028672259 1.3004658e-38 329 263
0.012518799 0.71399999 -0.028793238 1.272915e-38 330 263
0.013828539 0.71700001 -0.028914221 1.2636954e-38 331 263
0.015085679 0.71700001 -0.028914221 1.2544036e-38 332 263
0.016388407 0.71899998 -0.028994869 1.2359644e-38 333 263
0.017673599 0.72000003 -0.029035201 1.1991938e-38 334 263
0.0189886 0.722 -0.029115854 1.1807187e-38 335 263
0.020282559 0.72299999 -0.029156178 1.1897938e-38 336 263
0.021550218 0.72299999 -0.029156178 1.1621709e-38 337 263
0.022880999 0.72500002 -0.029236834 1.1713179e-38 338 263
0.024218792 0.727 -0.029317487 1.1160005e-38 339 263
0.025528532 0.72799999 -0.029357811 1.3279413e-38 340 263
0.026804959 0.72799999 -0.029357811 1.7243825e-38 341 263
0.028081384 0.72799999 -0.029357811 1.7886672e-38 342 263
-0.039243106 0.722 -0.030381758 1.6412274e-38 289 264
-0.0379772 0.722 -0.030381758 1.512262e-38 290 264
-0.03671129 0.722 -0.030381758 1.447725e-38 291 264
-0.035445385 0.722 -0.030381758 1.4203187e-38 292 264
-0.034084801 0.72000003 -0.0302976 1.4295384e-38 293 264
-0.0328224 0.72000003 -0.0302976 1.4387229e-38 294 264
-0.031516165 0.71899998 -0.030255521 1.4387229e-38 295 264
-0.030171359 0.71700001 -0.030171359 1.4387948e-38 296 264
-0.028873893 0.71600002 -0.03012928 1.4387948e-38 297 264
-0.027618507 0.71600002 -0.03012928 1.4113159e-38 298 264
-0.026363119 0.71600002 -0.03012928 1.4113159e-38 299 264
-0.025037598 0.71399999 -0.030045118 1.4204999e-38 300 264
-0.02378572 0.71399999 -0.030045118 1.4112803e-38 301 264
-0.022502279 0.713 -0.030003037 1.438867e-38 302 264
-0.021192541 0.71100003 -0.029918881 1.438867e-38 303 264
-0.01994592 0.71100003 -0.029918881 1.4205002e-38 304 264
-0.018672999 0.70999998 -0.029876797 1.4297197e-38 305 264
-0.017428132 0.70999998 -0.029876797 1.4480512e-38 306 264
-0.01613768 0.708 -0.02979264 1.4480512e-38 307 264
-0.01487528 0.70700002 -0.029750559 1.402169e-38 308 264
-0.013635674 0.70700002 -0.029750559 1.402169e-38 309 264
-0.012378532 0.70599997 -0.029708479 1.4112803e-38 310 264
-0.011140679 0.70599997 -0.029708479 1.374438e-38 311 264
-0.0099028256 0.70599997 -0.029708479 1.3927692e-38 312 264
-0.0086649731 0.70599997 -0.029708479 1.3835496e-38 313 264
-0.0074271196 0.70599997 -0.029708479 1.4200317e-38 314 264
-0.0061892662 0.70599997 -0.029708479 1.392337e-38 315 264
-0.0049514128 0.70599997 -0.029708479 1.3186511e-38 316 264
-0.0037135598 0.70599997 -0.029708479 1.1895773e-38 317 264
-0.0024757064 0.70599997 -0.029708479 1.3001048e-38 318 264
-0.0012378532 0.70599997 -0.029708479 1.40152e-38 319 264
0 0.70700002 -0.029750559 1.3555669e-38 320 264
0.0012396066 0.70700002 -0.029750559 1.3555669e-38 321 264
0.00248272 0.708 -0.02979264 1.3465991e-38 322 264
0.00372408 0.708 -0.02979264 1.3465991e-38 323 264
0.0049654399 0.708 -0.02979264 1.3281604e-38 324 264
0.0062243328 0.70999998 -0.029876797 1.3097212e-38 325 264
0.0074691991 0.70999998 -0.029876797 1.3097209e-38 326 264
0.0087140659 0.70999998 -0.029876797 1.3005014e-38 327 264
0.0099729598 0.71100003 -0.029918881 1.2729506e-38 328 264
0.01121958 0.71100003 -0.029918881 1.2636952e-38 329 264
0.012553867 0.71600002 -0.03012928 1.2544755e-38 330 264
0.013828539 0.71700001 -0.030171359 1.2452559e-38 331 264
0.015085679 0.71700001 -0.030171359 1.2359644e-38 332 264
0.016388407 0.71899998 -0.030255521 1.2175253e-38 333 264
0.017673599 0.72000003 -0.0302976 1.1991215e-38 334 264
0.0189886 0.722 -0.030381758 1.1806824e-38 335 264
0.020254506 0.722 -0.030381758 1.1897938e-38 336 264
0.021550218 0.72299999 -0.030423839 1.1713906e-38 337 264
0.022880999 0.72500002 -0.030508002 1.1714978e-38 338 264
0.024218792 0.727 -0.030592158 1.1346196e-38 339 264
0.025493465 0.727 -0.030592158 1.3552404e-38 340 264
0.026804959 0.72799999 -0.030634239 1.7609012e-38 341 264
0.028081384 0.72799999 -0.030634239 1.7794475e-38 342 264
-0.039297458 0.72299999 -0.031691495 1.5397762e-38 289 265
-0.0379772 0.722 -0.031647664 1.438578e-38 290 265
-0.03671129 0.722 -0.031647664 1.4293585e-38 291 265
-0.035445385 0.722 -0.031647664 1.4110638e-38 292 265
-0.034084801 0.72000003 -0.03156 1.4202834e-38 293 265
-0.032776814 0.71899998 -0.031516165 1.4202837e-38 294 265
-0.031516165 0.71899998 -0.031516165 1.4202837e-38 295 265
-0.030171359 0.71700001 -0.031428497 1.4019886e-38 296 265
-0.028873893 0.71600002 -0.031384666 1.411244e-38 297 265
-0.027618507 0.71600002 -0.031384666 1.4020605e-38 298 265
-0.026363119 0.71600002 -0.031384666 1.3836574e-38 299 265
-0.025037598 0.71399999 -0.031296998 1.4020605e-38 300 265
-0.02378572 0.71399999 -0.031296998 1.3836574e-38 301 265
-0.022502279 0.713 -0.031253166 1.411244e-38 302 265
-0.021192541 0.71100003 -0.031165501 1.411244e-38 303 265
-0.01994592 0.71100003 -0.031165501 1.4112084e-38 304 265
-0.018672999 0.70999998 -0.031121666 1.4112084e-38 305 265
-0.017428132 0.70999998 -0.031121666 1.4111731e-38 306 265
-0.01613768 0.708 -0.031034 1.4111731e-38 307 265
-0.01487528 0.70700002 -0.030990168 1.4112087e-38 308 265
-0.013635674 0.70700002 -0.030990168 1.4112087e-38 309 265
-0.012378532 0.70599997 -0.030946331 1.3836579e-38 310 265
-0.011140679 0.70599997 -0.030946331 1.3744025e-38 311 265
-0.0099028256 0.70599997 -0.030946331 1.383514e-38 312 265
-0.0086649731 0.70599997 -0.030946331 1.3558913e-38 313 265
-0.0074271196 0.70599997 -0.030946331 1.4107768e-38 314 265
-0.0061892662 0.70599997 -0.030946331 1.383118e-38 315 265
-0.0049514128 0.70599997 -0.030946331 1.3646418e-38 316 265
-0.0037135598 0.70599997 -0.030946331 1.3277635e-38 317 265
-0.0024757064 0.70599997 -0.030946331 1.2913169e-38 318 265
-0.0012378532 0.70599997 -0.030946331 1.263694e-38 319 265
0 0.70700002 -0.030990168 1.1711757e-38 320 265
0.0012396066 0.70700002 -0.030990168 1.29103e-38 321 265
0.0024792133 0.70700002 -0.030990168 1.3096493e-38 322 265
0.00372408 0.708 -0.031034 1.3096493e-38 323 265
0.0049654399 0.708 -0.031034 1.3004658e-38 324 265
0.0062067998 0.708 -0.031034 1.2912462e-38 325 265
0.0074481601 0.708 -0.031034 1.2636952e-38 326 265
0.0087140659 0.70999998 -0.031121666 1.2729506e-38 327 265
0.0099729598 0.71100003 -0.031165501 1.2636231e-38 328 265
0.01121958 0.71100003 -0.031165501 1.2544036e-38 329 265
0.012518799 0.71399999 -0.031296998 1.2268525e-38 330 265
0.013828539 0.71700001 -0.031428497 1.2176329e-38 331 265
0.01512776 0.71899998 -0.031516165 1.2175246e-38 332 265
0.016388407 0.71899998 -0.031516165 1.1991215e-38 333 265
0.017673599 0.72000003 -0.03156 1.2082332e-38 334 265
0.0189886 0.722 -0.031647664 1.189794e-38 335 265
0.020254506 0.722 -0.031647664 1.1897938e-38 336 265
0.021550218 0.72299999 -0.031691495 1.1990133e-38 337 265
0.022880999 0.72500002 -0.031779166 1.2082682e-38 338 265
0.024218792 0.727 -0.03186683 1.1898291e-38 339 265
0.025493465 0.727 -0.03186683 1.3461285e-38 340 265
0.026804959 0.72799999 -0.031910665 1.7702283e-38 341 265
0.028081384 0.72799999 -0.031910665 1.8070338e-38 342 265
-0.039297458 0.72299999 -0.032959159 1.5211575e-38 289 266
-0.0379772 0.722 -0.032913569 1.44769e-38 290 266
-0.03671129 0.722 -0.032913569 1.4569096e-38 291 266
-0.035347197 0.72000003 -0.0328224 1.4110638e-38 292 266
-0.034084801 0.72000003 -0.0328224 1.4110638e-38 293 266
-0.032776814 0.71899998 -0.032776814 1.3742945e-38 294 266
-0.031516165 0.71899998 -0.032776814 1.383514e-38 295 266
-0.03012928 0.71600002 -0.032640055 1.3742945e-38 296 266
-0.028873893 0.71600002 -0.032640055 1.383514e-38 297 266
-0.027618507 0.71600002 -0.032640055 1.3652903e-38 298 266
-0.026363119 0.71600002 -0.032640055 1.3652903e-38 299 266
-0.025037598 0.71399999 -0.032548878 1.3469232e-38 300 266
-0.023752406 0.713 -0.032503292 1.3469232e-38 301 266
-0.022439159 0.71100003 -0.032412119 1.3652548e-38 302 266
-0.021192541 0.71100003 -0.032412119 1.3652548e-38 303 266
-0.01994592 0.71100003 -0.032412119 1.3651475e-38 304 266
-0.018672999 0.70999998 -0.032366529 1.3744031e-38 305 266
-0.017428132 0.70999998 -0.032366529 1.3743675e-38 306 266
-0.016183265 0.70999998 -0.032366529 1.3743675e-38 307 266
-0.01487528 0.70700002 -0.032229774 1.3652198e-38 308 266
-0.013635674 0.70700002 -0.032229774 1.3652198e-38 309 266
-0.012378532 0.70599997 -0.032184184 1.3651831e-38 310 266
-0.011140679 0.70599997 -0.032184184 1.3559635e-38 311 266
-0.0099028256 0.70599997 -0.032184184 1.3558913e-38 312 266
-0.0086649731 0.70599997 -0.032184184 1.3374522e-38 313 266
-0.0074271196 0.70599997 -0.032184184 1.3740784e-38 314 266
-0.0061892662 0.70599997 -0.032184184 1.3372001e-38 315 266
-0.0049514128 0.70599997 -0.032184184 1.4105603e-38 316 266
-0.0037135598 0.70599997 -0.032184184 1.4105603e-38 317 266
-0.0024757064 0.70599997 -0.032184184 1.3092891e-38 318 266
-0.0012378532 0.70599997 -0.032184184 1.1894347e-38 319 266
0 0.70700002 -0.032229774 1.1895796e-38 320 266
0.0012396066 0.70700002 -0.032229774 1.2541166e-38 321 266
0.0024792133 0.70700002 -0.032229774 1.2634805e-38 322 266
0.0037188199 0.70700002 -0.032229774 1.2819196e-38 323 266
0.0049654399 0.708 -0.03227536 1.2453286e-38 324 266
0.0062067998 0.708 -0.03227536 1.2268894e-38 325 266
0.0074481601 0.708 -0.03227536 1.2361089e-38 326 266
0.0087140659 0.70999998 -0.032366529 1.2268894e-38 327 266
0.0099729598 0.71100003 -0.032412119 1.2452206e-38 328 266
0.01121958 0.71100003 -0.032412119 1.2268175e-38 329 266
0.012518799 0.71399999 -0.032548878 1.2267093e-38 330 266
0.013828539 0.71700001 -0.032685637 1.2174897e-38 331 266
0.01512776 0.71899998 -0.032776814 1.1623874e-38 332 266
0.016388407 0.71899998 -0.032776814 1.1623874e-38 333 266
0.017673599 0.72000003 -0.0328224 1.1623512e-38 334 266
0.0189886 0.722 -0.032913569 1.1530957e-38 335 266
0.020282559 0.72299999 -0.032959159 1.2081613e-38 336 266
0.021550218 0.72299999 -0.032959159 1.2173808e-38 337 266
0.022880999 0.72500002 -0.033050332 1.1807174e-38 338 266
0.024218792 0.727 -0.033141505 1.2175955e-38 339 266
0.025528532 0.72799999 -0.033187091 1.4840622e-38 340 266
0.026804959 0.72799999 -0.033187091 1.8251861e-38 341 266
0.028081384 0.72799999 -0.033187091 1.8162536e-38 342 266
-0.039297458 0.72299999 -0.03422682 1.4934986e-38 289 267
-0.0379772 0.722 -0.034179479 1.4200668e-38 290 267
-0.03671129 0.722 -0.034179479 1.4476894e-38 291 267
-0.035347197 0.72000003 -0.034084801 1.383513e-38 292 267
-0.034084801 0.72000003 -0.034084801 1.383513e-38 293 267
-0.032776814 0.71899998 -0.03403746 1.3743298e-38 294 267
-0.031516165 0.71899998 -0.03403746 1.3743298e-38 295 267
-0.03012928 0.71600002 -0.03389544 1.3834777e-38 296 267
-0.028873893 0.71600002 -0.03389544 1.3834777e-38 297 267
-0.027618507 0.71600002 -0.03389544 1.355963e-38 298 267
-0.026363119 0.71600002 -0.03389544 1.3652184e-38 299 267
-0.025037598 0.71399999 -0.033800758 1.3560348e-38 300 267
-0.023752406 0.713 -0.033753417 1.3560348e-38 301 267
-0.022439159 0.71100003 -0.033658739 1.3743301e-38 302 267
-0.021192541 0.71100003 -0.033658739 1.3743301e-38 303 267
-0.01994592 0.71100003 -0.033658739 1.383514e-38 304 267
-0.018672999 0.70999998 -0.033611398 1.383514e-38 305 267
-0.017428132 0.70999998 -0.033611398 1.383514e-38 306 267
-0.016183265 0.70999998 -0.033611398 1.383514e-38 307 267
-0.01489632 0.708 -0.033516716 1.3651831e-38 308 267
-0.013635674 0.70700002 -0.033469379 1.3651831e-38 309 267
-0.012378532 0.70599997 -0.033422034 1.3467081e-38 310 267
-0.011140679 0.70599997 -0.033422034 1.3559635e-38 311 267
-0.0099028256 0.70599997 -0.033422034 1.3467084e-38 312 267
-0.0086649731 0.70599997 -0.033422034 1.3374888e-38 313 267
-0.0074271196 0.70599997 -0.033422034 1.3740431e-38 314 267
-0.0061892662 0.70599997 -0.033422034 1.3832626e-38 315 267
-0.0049514128 0.70599997 -0.033422034 1.3460597e-38 316 267
-0.0037135598 0.70599997 -0.033422034 1.2446805e-38 317 267
-0.0024757064 0.70599997 -0.033422034 1.2169492e-38 318 267
-0.0012378532 0.70599997 -0.033422034 1.2907057e-38 319 267
0 0.70700002 -0.033469379 1.3185805e-38 320 267
0.0012396066 0.70700002 -0.033469379 1.2817383e-38 321 267
0.0024792133 0.70700002 -0.033469379 1.2635508e-38 322 267
0.0037188199 0.70700002 -0.033469379 1.28199e-38 323 267
0.0049584266 0.70700002 -0.033469379 1.2269244e-38 324 267
0.0062067998 0.708 -0.033516716 1.2361439e-38 325 267
0.0074481601 0.708 -0.033516716 1.2452559e-38 326 267
0.0087140659 0.70999998 -0.033611398 1.2268528e-38 327 267
0.0099729598 0.71100003 -0.033658739 1.2267449e-38 328 267
0.011251139 0.713 -0.033753417 1.1898666e-38 329 267
0.012518799 0.71399999 -0.033800758 1.1806824e-38 330 267
0.013828539 0.71700001 -0.033942781 1.1806824e-38 331 267
0.01512776 0.71899998 -0.03403746 1.1806821e-38 332 267
0.016388407 0.71899998 -0.03403746 1.1806821e-38 333 267
0.017673599 0.72000003 -0.034084801 1.1714625e-38 334 267
0.0189886 0.722 -0.034179479 1.1806821e-38 335 267
0.020282559 0.72299999 -0.03422682 1.1990133e-38 336 267
0.021550218 0.72299999 -0.03422682 1.1990133e-38 337 267
0.022880999 0.72500002 -0.034321502 1.1898288e-38 338 267
0.024218792 0.727 -0.03441618 1.2912799e-38 339 267
0.025493465 0.727 -0.03441618 1.5948049e-38 340 267
0.026804959 0.72799999 -0.034463517 1.8437331e-38 341 267
0.028081384 0.72799999 -0.034463517 1.816182e-38 342 267
-0.039297458 0.72299999 -0.035494477 1.5027537e-38 289 268
-0.038029801 0.72299999 -0.035494477 1.4199584e-38 290 268
-0.03671129 0.722 -0.035445385 1.4568727e-38 291 268
-0.035347197 0.72000003 -0.035347197 1.383513e-38 292 268
-0.034084801 0.72000003 -0.035347197 1.383513e-38 293 268
-0.032776814 0.71899998 -0.035298105 1.3558911e-38 294 268
-0.031516165 0.71899998 -0.035298105 1.3558911e-38 295 268
-0.03012928 0.71600002 -0.035150826 1.3558913e-38 296 268
-0.028793238 0.71399999 -0.035052639 1.3558913e-38 297 268
-0.02754136 0.71399999 -0.035052639 1.3559632e-38 298 268
-0.026363119 0.71600002 -0.035150826 1.3467437e-38 299 268
-0.025037598 0.71399999 -0.035052639 1.3284124e-38 300 268
-0.023752406 0.713 -0.035003547 1.337632e-38 301 268
-0.022439159 0.71100003 -0.034905359 1.3467081e-38 302 268
-0.021192541 0.71100003 -0.034905359 1.3467081e-38 303 268
-0.01994592 0.71100003 -0.034905359 1.3467081e-38 304 268
-0.018672999 0.70999998 -0.034856264 1.3467081e-38 305 268
-0.017428132 0.70999998 -0.034856264 1.3375967e-38 306 268
-0.016183265 0.70999998 -0.034856264 1.3375967e-38 307 268
-0.01489632 0.708 -0.034758076 1.3375967e-38 308 268
-0.013635674 0.70700002 -0.034708988 1.3283771e-38 309 268
-0.012396066 0.70700002 -0.034708988 1.3283771e-38 310 268
-0.011156459 0.70700002 -0.034708988 1.3283771e-38 311 268
-0.0099028256 0.70599997 -0.034659892 1.319122e-38 312 268
-0.0086649731 0.70599997 -0.034659892 1.3099024e-38 313 268
-0.0074271196 0.70599997 -0.034659892 1.3097225e-38 314 268
-0.0061892662 0.70599997 -0.034659892 1.3281618e-38 315 268
-0.0049514128 0.70599997 -0.034659892 1.3646067e-38 316 268
-0.0037135598 0.70599997 -0.034659892 1.253972e-38 317 268
-0.0024757064 0.70599997 -0.034659892 1.2998174e-38 318 268
-0.0012378532 0.70599997 -0.034659892 1.3643544e-38 319 268
0 0.70599997 -0.034659892 1.2907063e-38 320 268
0.0012396066 0.70700002 -0.034708988 1.2907063e-38 321 268
0.0024792133 0.70700002 -0.034708988 1.2451121e-38 322 268
0.0037188199 0.70700002 -0.034708988 1.2727348e-38 323 268
0.0049584266 0.70700002 -0.034708988 1.2269247e-38 324 268
0.0062067998 0.708 -0.034758076 1.2084855e-38 325 268
0.0074481601 0.708 -0.034758076 1.2176332e-38 326 268
0.0087140659 0.70999998 -0.034856264 1.2084137e-38 327 268
0.0099729598 0.71100003 -0.034905359 1.1991938e-38 328 268
0.01121958 0.71100003 -0.034905359 1.1623156e-38 329 268
0.012553867 0.71600002 -0.035150826 1.1806468e-38 330 268
0.013828539 0.71700001 -0.035199918 1.1806468e-38 331 268
0.01512776 0.71899998 -0.035298105 1.1623512e-38 332 268
0.016388407 0.71899998 -0.035298105 1.1530957e-38 333 268
0.017673599 0.72000003 -0.035347197 1.1623509e-38 334 268
0.0189886 0.722 -0.035445385 1.1623509e-38 335 268
0.020282559 0.72299999 -0.035494477 1.1990136e-38 336 268
0.021550218 0.72299999 -0.035494477 1.2082332e-38 337 268
0.02281788 0.72299999 -0.035494477 1.2265634e-38 338 268
0.024152167 0.72500002 -0.035592668 1.3740764e-38 339 268
0.025423333 0.72500002 -0.035592668 1.5951286e-38 340 268
0.026768139 0.727 -0.035690852 1.797959e-38 341 268
0.028081384 0.72799999 -0.035739943 1.7794478e-38 342 268
-0.040845651 0.72799999 -0.037016369 1.8162189e-38 288 269
-0.039297458 0.72299999 -0.036762137 1.5765102e-38 289 269
-0.038029801 0.72299999 -0.036762137 1.4385778e-38 290 269
-0.03671129 0.722 -0.03671129 1.4478332e-38 291 269
-0.035347197 0.72000003 -0.036609601 1.3835847e-38 292 269
-0.034084801 0.72000003 -0.036609601 1.3743651e-38 293 269
-0.032776814 0.71899998 -0.036558751 1.3559267e-38 294 269
-0.031516165 0.71899998 -0.036558751 1.3559267e-38 295 269
-0.03012928 0.71600002 -0.036406212 1.3742582e-38 296 269
-0.028793238 0.71399999 -0.036304519 1.3742582e-38 297 269
-0.02754136 0.71399999 -0.036304519 1.3558911e-38 298 269
-0.026363119 0.71600002 -0.036406212 1.3466715e-38 299 269
-0.025037598 0.71399999 -0.036304519 1.3375238e-38 300 269
-0.023752406 0.713 -0.036253672 1.3467434e-38 301 269
-0.022439159 0.71100003 -0.036151983 1.3375241e-38 302 269
-0.021192541 0.71100003 -0.036151983 1.3467437e-38 303 269
-0.01994592 0.71100003 -0.036151983 1.3374885e-38 304 269
-0.018672999 0.70999998 -0.036101133 1.3374885e-38 305 269
-0.017428132 0.70999998 -0.036101133 1.3374888e-38 306 269
-0.016183265 0.70999998 -0.036101133 1.3467084e-38 307 269
-0.01489632 0.708 -0.03599944 1.319122e-38 308 269
-0.013654959 0.708 -0.03599944 1.3099024e-38 309 269
-0.012396066 0.70700002 -0.035948593 1.309938e-38 310 269
-0.011156459 0.70700002 -0.035948593 1.3191576e-38 311 269
-0.0099028256 0.70599997 -0.035897743 1.3007908e-38 312 269
-0.0086649731 0.70599997 -0.035897743 1.2915712e-38 313 269
-0.0074271196 0.70599997 -0.035897743 1.2730598e-38 314 269
-0.0061892662 0.70599997 -0.035897743 1.2546206e-38 315 269
-0.0049514128 0.70599997 -0.035897743 1.3647865e-38 316 269
-0.0037135598 0.70599997 -0.035897743 1.3463115e-38 317 269
-0.0024757064 0.70599997 -0.035897743 1.3551704e-38 318 269
-0.0012378532 0.70599997 -0.035897743 1.2629748e-38 319 269
0 0.70599997 -0.035897743 1.2905262e-38 320 269
0.0012378532 0.70599997 -0.035897743 1.3458436e-38 321 269
0.0024757064 0.70599997 -0.035897743 1.2634433e-38 322 269
0.0037188199 0.70700002 -0.035948593 1.2819183e-38 323 269
0.0049584266 0.70700002 -0.035948593 1.2268525e-38 324 269
0.0062243328 0.70999998 -0.036101133 1.2176329e-38 325 269
0.0074691991 0.70999998 -0.036101133 1.1992657e-38 326 269
0.0087263398 0.71100003 -0.036151983 1.1808626e-38 327 269
0.0099729598 0.71100003 -0.036151983 1.1899022e-38 328 269
0.01121958 0.71100003 -0.036151983 1.1899022e-38 329 269
0.012553867 0.71600002 -0.036406212 1.1623156e-38 330 269
0.013828539 0.71700001 -0.036457058 1.1623156e-38 331 269
0.01512776 0.71899998 -0.036558751 1.1623512e-38 332 269
0.016388407 0.71899998 -0.036558751 1.1623512e-38 333 269
0.017673599 0.72000003 -0.036609601 1.1807543e-38 334 269
0.0189886 0.722 -0.03671129 1.1807543e-38 335 269
0.020282559 0.72299999 -0.036762137 1.2082688e-38 336 269
0.021550218 0.72299999 -0.036762137 1.2082688e-38 337 269
0.02281788 0.72299999 -0.036762137 1.2358183e-38 338 269
0.024152167 0.72500002 -0.036863834 1.4386487e-38 339 269
0.025423333 0.72500002 -0.036863834 1.6410825e-38 340 269
0.026768139 0.727 -0.036965527 1.8254738e-38 341 269
0.028042812 0.727 -0.036965527 1.7979227e-38 342 269
-0.040845651 0.72799999 -0.038292799 1.7886325e-38 288 270
-0.039406165 0.72500002 -0.038135 1.567327e-38 289 270
-0.038029801 0.72299999 -0.038029801 1.4386499e-38 290 270
-0.036762137 0.72299999 -0.038029801 1.4386499e-38 291 270
-0.035445385 0.722 -0.0379772 1.3835849e-38 292 270
-0.034084801 0.72000003 -0.037871998 1.3743295e-38 293 270
-0.032776814 0.71899998 -0.037819397 1.3559985e-38 294 270
-0.031516165 0.71899998 -0.037819397 1.3559985e-38 295 270
-0.03012928 0.71600002 -0.037661601 1.3743298e-38 296 270
-0.028873893 0.71600002 -0.037661601 1.3559267e-38 297 270
-0.027618507 0.71600002 -0.037661601 1.3558913e-38 298 270
-0.026363119 0.71600002 -0.037661601 1.3558913e-38 299 270
-0.025037598 0.71399999 -0.037556399 1.3466718e-38 300 270
-0.023752406 0.713 -0.037503798 1.3466718e-38 301 270
-0.022502279 0.713 -0.037503798 1.3375241e-38 302 270
-0.021192541 0.71100003 -0.037398599 1.3283045e-38 303 270
-0.01994592 0.71100003 -0.037398599 1.3098658e-38 304 270
-0.018672999 0.70999998 -0.037345998 1.328269e-38 305 270
-0.017428132 0.70999998 -0.037345998 1.3282692e-38 306 270
-0.016183265 0.70999998 -0.037345998 1.3282692e-38 307 270
-0.01489632 0.708 -0.0372408 1.3006826e-38 308 270
-0.013654959 0.708 -0.0372408 1.3006826e-38 309 270
-0.012396066 0.70700002 -0.037188202 1.3006826e-38 310 270
-0.011156459 0.70700002 -0.037188202 1.3006826e-38 311 270
-0.0099028256 0.70599997 -0.037135597 1.2732037e-38 312 270
-0.0086649731 0.70599997 -0.037135597 1.2732037e-38 313 270
-0.0074376399 0.70700002 -0.037188202 1.2730595e-38 314 270
-0.0061892662 0.70599997 -0.037135597 1.2638399e-38 315 270
-0.0049514128 0.70599997 -0.037135597 1.3279803e-38 316 270
-0.0037135598 0.70599997 -0.037135597 1.3095412e-38 317 270
-0.0024757064 0.70599997 -0.037135597 1.3275837e-38 318 270
-0.0012378532 0.70599997 -0.037135597 1.2815218e-38 319 270
0 0.70599997 -0.037135597 1.3182921e-38 320 270
0.0012378532 0.70599997 -0.037135597 1.3275117e-38 321 270
0.0024757064 0.70599997 -0.037135597 1.2818102e-38 322 270
0.0037135598 0.70599997 -0.037135597 1.3002493e-38 323 270
0.0049584266 0.70700002 -0.037188202 1.2359644e-38 324 270
0.0062243328 0.70999998 -0.037345998 1.2175253e-38 325 270
0.0074691991 0.70999998 -0.037345998 1.1991582e-38 326 270
0.0087263398 0.71100003 -0.037398599 1.180719e-38 327 270
0.0099729598 0.71100003 -0.037398599 1.1623158e-38 328 270
0.01121958 0.71100003 -0.037398599 1.1623158e-38 329 270
0.012553867 0.71600002 -0.037661601 1.1623156e-38 330 270
0.013828539 0.71700001 -0.037714198 1.1807187e-38 331 270
0.01512776 0.71899998 -0.037819397 1.1807543e-38 332 270
0.0164112 0.72000003 -0.037871998 1.1807543e-38 333 270
0.017722692 0.722 -0.0379772 1.1807543e-38 334 270
0.0189886 0.722 -0.0379772 1.1899738e-38 335 270
0.020282559 0.72299999 -0.038029801 1.2175599e-38 336 270
0.021550218 0.72299999 -0.038029801 1.1991568e-38 337 270
0.02281788 0.72299999 -0.038029801 1.2725884e-38 338 270
0.024152167 0.72500002 -0.038135 1.5307361e-38 339 270
0.025423333 0.72500002 -0.038135 1.7239504e-38 340 270
0.026768139 0.727 -0.038240198 1.8254016e-38 341 270
-0.040845651 0.72799999 -0.039569225 1.7886322e-38 288 271
-0.039514873 0.727 -0.039514873 1.539704e-38 289 271
-0.038135 0.72500002 -0.039406165 1.4569449e-38 290 271
-0.036762137 0.72299999 -0.039297458 1.4661644e-38 291 271
-0.035494477 0.72299999 -0.039297458 1.3927326e-38 292 271
-0.034084801 0.72000003 -0.039134402 1.3927326e-38 293 271
-0.032776814 0.71899998 -0.039080046 1.3743295e-38 294 271
-0.031516165 0.71899998 -0.039080046 1.3743295e-38 295 271
-0.030171359 0.71700001 -0.038971342 1.3742579e-38 296 271
-0.028873893 0.71600002 -0.038916986 1.3834775e-38 297 271
-0.027618507 0.71600002 -0.038916986 1.3743298e-38 298 271
-0.026363119 0.71600002 -0.038916986 1.3559267e-38 299 271
-0.025037598 0.71399999 -0.038808275 1.3466715e-38 300 271
-0.02378572 0.71399999 -0.038808275 1.3466715e-38 301 271
-0.022502279 0.713 -0.038753927 1.3375241e-38 302 271
-0.021192541 0.71100003 -0.038645219 1.3283045e-38 303 271
-0.01994592 0.71100003 -0.038645219 1.3098658e-38 304 271
-0.0186993 0.71100003 -0.038645219 1.328269e-38 305 271
-0.017428132 0.70999998 -0.038590867 1.3098658e-38 306 271
-0.016183265 0.70999998 -0.038590867 1.3098658e-38 307 271
-0.01489632 0.708 -0.038482159 1.3098658e-38 308 271
-0.013654959 0.708 -0.038482159 1.3098658e-38 309 271
-0.012396066 0.70700002 -0.038427804 1.2914985e-38 310 271
-0.011156459 0.70700002 -0.038427804 1.2914985e-38 311 271
-0.0099028256 0.70599997 -0.038373452 1.2731314e-38 312 271
-0.0086649731 0.70599997 -0.038373452 1.2731314e-38 313 271
