# .PCD v.7 - Point Cloud Data file format
FIELDS x y z rgb imX imY
SIZE 4 4 4 4 4 4
TYPE F F F F F F
COUNT 1 1 1 1 1 1
WIDTH 834
HEIGHT 1
VIEWPOINT 0 0 0 1 0 0 0
POINTS 834
DATA ascii
0.030814834 0.70300001 -0 1.7330238e-38 345 240
0.032047424 0.70300001 -0 1.7513891e-38 346 240
0.033280019 0.70300001 -0 1.7329141e-38 347 240
0.0061103669 0.69700003 -0.0012220733 1.7518602e-38 325 241
0.00733244 0.69700003 -0.0012220733 1.779446e-38 326 241
0.0085545136 0.69700003 -0.0012220733 1.7610069e-38 327 241
0.0097765867 0.69700003 -0.0012220733 1.7702615e-38 328 241
0.01099866 0.69700003 -0.0012220733 1.7610419e-38 329 241
0.012238266 0.69800001 -0.0012238267 1.7793734e-38 330 241
0.013423519 0.69599998 -0.0012203199 1.7793734e-38 331 241
0.01460176 0.69400001 -0.0012168133 1.7793734e-38 332 241
0.015818574 0.69400001 -0.0012168133 1.7793734e-38 333 241
0.017035386 0.69400001 -0.0012168133 1.7610422e-38 334 241
0.018225901 0.69300002 -0.00121506 1.7610422e-38 335 241
0.01944096 0.69300002 -0.00121506 1.7517873e-38 336 241
0.020656019 0.69300002 -0.00121506 1.7517873e-38 337 241
0.021871079 0.69300002 -0.00121506 1.7334205e-38 338 241
0.022986198 0.69 -0.0012097999 1.7334205e-38 339 241
0.024336265 0.69400001 -0.0012168133 1.7334561e-38 340 241
0.025553079 0.69400001 -0.0012168133 1.7242007e-38 341 241
0.029624319 0.704 -0.0012343467 1.7700467e-38 344 241
0.030814834 0.70300001 -0.0012325933 1.7700467e-38 345 241
0.032047424 0.70300001 -0.0012325933 1.7149093e-38 346 241
0.033280019 0.70300001 -0.0012325933 1.7056898e-38 347 241
0.034414422 0.70099998 -0.0012290865 1.714729e-38 348 241
0.035643511 0.70099998 -0.0012290865 1.6778866e-38 349 241
0.00733244 0.69700003 -0.0024441467 1.7517893e-38 326 242
0.0085545136 0.69700003 -0.0024441467 1.8071067e-38 327 242
0.0097765867 0.69700003 -0.0024441467 1.8345835e-38 328 242
0.01099866 0.69700003 -0.0024441467 1.8069608e-38 329 242
0.0122032 0.69599998 -0.0024406398 1.7977762e-38 330 242
0.013384946 0.69400001 -0.0024336267 1.8069958e-38 331 242
0.01460176 0.69400001 -0.0024336267 1.7885927e-38 332 242
0.015818574 0.69400001 -0.0024336267 1.7978481e-38 333 242
0.01701084 0.69300002 -0.00243012 1.788593e-38 334 242
0.0181733 0.69099998 -0.0024231065 1.788593e-38 335 242
0.019384852 0.69099998 -0.0024231065 1.7610066e-38 336 242
0.020566599 0.69 -0.0024195998 1.7610066e-38 337 242
0.021776399 0.69 -0.0024195998 1.7426756e-38 338 242
0.022986198 0.69 -0.0024195998 1.7334561e-38 339 242
0.024336265 0.69400001 -0.0024336267 1.7334558e-38 340 242
0.025553079 0.69400001 -0.0024336267 1.7334558e-38 341 242
0.026769891 0.69400001 -0.0024336267 1.7517868e-38 342 242
0.028067358 0.69599998 -0.0024406398 1.7610422e-38 343 242
0.029371841 0.69800001 -0.0024476533 1.7517873e-38 344 242
0.030683333 0.69999999 -0.0024546667 1.7425677e-38 345 242
0.031910665 0.69999999 -0.0024546667 1.7241289e-38 346 242
0.033137999 0.69999999 -0.0024546667 1.7241289e-38 347 242
0.034414422 0.70099998 -0.0024581731 1.7056895e-38 348 242
0.035643511 0.70099998 -0.0024581731 1.6964699e-38 349 242
0.036819998 0.69999999 -0.0024546667 1.7513906e-38 350 242
0.038047329 0.69999999 -0.0024546667 1.7052929e-38 351 242
0.039274666 0.69999999 -0.0024546667 1.7418818e-38 352 242
0.040386278 0.69800001 -0.0024476533 1.7418818e-38 353 242
0.006119133 0.69800001 -0.0036714801 7.303981e-39 325 243
0.0073429602 0.69800001 -0.0036714801 1.4113156e-38 326 243
0.0085667865 0.69800001 -0.0036714801 1.6602438e-38 327 243
0.0097765867 0.69700003 -0.00366622 1.8622438e-38 328 243
0.01099866 0.69700003 -0.00366622 1.816182e-38 329 243
0.0122032 0.69599998 -0.0036609597 1.8070324e-38 330 243
0.013384946 0.69400001 -0.0036504399 1.8070324e-38 331 243
0.014580719 0.69300002 -0.0036451798 1.7978125e-38 332 243
0.015795778 0.69300002 -0.0036451798 1.8070321e-38 333 243
0.016961746 0.69099998 -0.0036346598 1.7978125e-38 334 243
0.018146999 0.69 -0.0036293997 1.7978125e-38 335 243
0.019356798 0.69 -0.0036293997 1.7885577e-38 336 243
0.020566599 0.69 -0.0036293997 1.7885577e-38 337 243
0.021776399 0.69 -0.0036293997 1.7609713e-38 338 243
0.022986198 0.69 -0.0036293997 1.7609713e-38 339 243
0.024195999 0.69 -0.0036293997 1.7426756e-38 340 243
0.025405798 0.69 -0.0036293997 1.7334561e-38 341 243
0.02673132 0.69300002 -0.0036451798 1.751787e-38 342 243
0.027986705 0.69400001 -0.0036504399 1.751787e-38 343 243
0.029287677 0.69599998 -0.0036609597 1.7425673e-38 344 243
0.030595668 0.69800001 -0.0036714801 1.7241642e-38 345 243
0.031819493 0.69800001 -0.0036714801 1.7241642e-38 346 243
0.033043321 0.69800001 -0.0036714801 1.7241642e-38 347 243
0.034365334 0.69999999 -0.0036819996 1.7057614e-38 348 243
0.035490975 0.69800001 -0.0036714801 1.7242007e-38 349 243
0.0367148 0.69800001 -0.0036714801 1.7424236e-38 350 243
0.037938625 0.69800001 -0.0036714801 1.6778866e-38 351 243
0.039162453 0.69800001 -0.0036714801 1.6867815e-38 352 243
0.040386278 0.69800001 -0.0036714801 1.6775619e-38 353 243
0.041550495 0.69700003 -0.00366622 1.7326257e-38 354 243
0.042588469 0.69400001 -0.0036504399 1.7326257e-38 355 243
0.0061103669 0.69700003 -0.0048882933 2.6826934e-39 325 244
0.00733244 0.69700003 -0.0048882933 3.6266081e-39 326 244
0.0085545136 0.69700003 -0.0048882933 9.5271284e-39 327 244
0.0097625591 0.69599998 -0.0048812795 1.7150202e-38 328 244
0.010982879 0.69599998 -0.0048812795 1.7888126e-38 329 244
0.012168133 0.69400001 -0.0048672534 1.8254366e-38 330 244
0.01336566 0.69300002 -0.00486024 1.8069974e-38 331 244
0.014538639 0.69099998 -0.0048462129 1.8253636e-38 332 244
0.015727401 0.69 -0.0048391996 1.8345832e-38 333 244
0.0169372 0.69 -0.0048391996 1.8070327e-38 334 244
0.0180944 0.68800002 -0.0048251734 1.8070327e-38 335 244
0.019300694 0.68800002 -0.0048251734 1.7886658e-38 336 244
0.020506985 0.68800002 -0.0048251734 1.7794463e-38 337 244
0.021713281 0.68800002 -0.0048251734 1.7702986e-38 338 244
0.022919573 0.68800002 -0.0048251734 1.7518596e-38 339 244
0.024125867 0.68800002 -0.0048251734 1.7427475e-38 340 244
0.02533216 0.68800002 -0.0048251734 1.7334921e-38 341 244
0.026615599 0.69 -0.0048391996 1.7426756e-38 342 244
0.027825398 0.69 -0.0048391996 1.7426756e-38 343 244
0.029161438 0.69300002 -0.00486024 1.7334561e-38 344 244
0.030420333 0.69400001 -0.0048672534 1.7242007e-38 345 244
0.03177391 0.69700003 -0.0048882933 1.7058697e-38 346 244
0.03299598 0.69700003 -0.0048882933 1.69665e-38 347 244
0.034267146 0.69800001 -0.0048953067 1.6966144e-38 348 244
0.035440128 0.69700003 -0.0048882933 1.6966144e-38 349 244
0.036662199 0.69700003 -0.0048882933 1.7241292e-38 350 244
0.037884273 0.69700003 -0.0048882933 1.7056542e-38 351 244
0.039106347 0.69700003 -0.0048882933 1.686998e-38 352 244
0.040328421 0.69700003 -0.0048882933 1.6132415e-38 353 244
0.041550495 0.69700003 -0.0048882933 1.5949809e-38 354 244
0.042588469 0.69400001 -0.0048672534 1.6502624e-38 355 244
0.043805279 0.69400001 -0.0048672534 1.7969472e-38 356 244
0.045022093 0.69400001 -0.0048672534 1.8062027e-38 357 244
0.0061103669 0.69700003 -0.0061103669 1.6620451e-39 325 245
0.00733244 0.69700003 -0.0061103669 1.9074475e-41 326 245
0.0085545136 0.69700003 -0.0061103669 5.83352e-39 327 245
0.0097625591 0.69599998 -0.0061015999 1.2549424e-38 328 245
0.010982879 0.69599998 -0.0061015999 1.5407848e-38 329 245
0.012150601 0.69300002 -0.0060753003 1.751933e-38 330 245
0.013327086 0.69099998 -0.0060577663 1.751933e-38 331 245
0.014475521 0.68800002 -0.0060314666 1.8162519e-38 332 245
0.015681813 0.68800002 -0.0060314666 1.8162519e-38 333 245
0.01686356 0.68699998 -0.0060226996 1.8162519e-38 334 245
0.018068098 0.68699998 -0.0060226996 1.8162519e-38 335 245
0.019272638 0.68699998 -0.0060226996 1.8162519e-38 336 245
0.020477179 0.68699998 -0.0060226996 1.8070324e-38 337 245
0.021681719 0.68699998 -0.0060226996 1.7887012e-38 338 245
0.022886258 0.68699998 -0.0060226996 1.7887012e-38 339 245
0.024090799 0.68699998 -0.0060226996 1.7794816e-38 340 245
0.02533216 0.68800002 -0.0060314666 1.7702262e-38 341 245
0.026538454 0.68800002 -0.0060314666 1.7702264e-38 342 245
0.027744746 0.68800002 -0.0060314666 1.7610069e-38 343 245
0.029035198 0.69 -0.0060489997 1.7242725e-38 344 245
0.030288832 0.69099998 -0.0060577663 1.7242725e-38 345 245
0.031637147 0.69400001 -0.0060840664 1.6783549e-38 346 245
0.032853961 0.69400001 -0.0060840664 1.6691352e-38 347 245
0.034168959 0.69599998 -0.0061015999 1.6599159e-38 348 245
0.035389278 0.69599998 -0.0061015999 1.6599159e-38 349 245
0.036609598 0.69599998 -0.0061015999 1.6873948e-38 350 245
0.037829921 0.69599998 -0.0061015999 1.6781753e-38 351 245
0.039106347 0.69700003 -0.0061103669 1.7056895e-38 352 245
0.040270556 0.69599998 -0.0061015999 1.6227134e-38 353 245
0.041490879 0.69599998 -0.0061015999 1.6134936e-38 354 245
0.042588469 0.69400001 -0.0060840664 1.6319327e-38 355 245
0.043805279 0.69400001 -0.0060840664 1.7512831e-38 356 245
0.045022093 0.69400001 -0.0060840664 1.7881614e-38 357 245
0.046638668 0.69999999 -0.0061366665 1.8063121e-38 358 245
0.047865998 0.69999999 -0.0061366665 1.7786176e-38 359 245
0.0083704125 0.68199998 -0.00717464 2.2141371e-39 327 246
0.0097204801 0.69300002 -0.0072903596 1.5096805e-39 328 246
0.010935539 0.69300002 -0.0072903596 7.5023964e-39 329 246
0.012150601 0.69300002 -0.0072903596 1.5497501e-38 330 246
0.013230653 0.68599999 -0.0072167199 1.6419457e-38 331 246
0.01439136 0.68400002 -0.0071956799 1.8162887e-38 332 246
0.01559064 0.68400002 -0.0071956799 1.8347637e-38 333 246
0.016789921 0.68400002 -0.0071956799 1.8072845e-38 334 246
0.0179892 0.68400002 -0.0071956799 1.8072845e-38 335 246
0.019244585 0.68599999 -0.0072167199 1.8072489e-38 336 246
0.020477179 0.68699998 -0.0072272392 1.7980293e-38 337 246
0.021681719 0.68699998 -0.0072272392 1.7888098e-38 338 246
0.022886258 0.68699998 -0.0072272392 1.7888098e-38 339 246
0.024090799 0.68699998 -0.0072272392 1.7612234e-38 340 246
0.025295338 0.68699998 -0.0072272392 1.7520037e-38 341 246
0.026499879 0.68699998 -0.0072272392 1.7519321e-38 342 246
0.027744746 0.68800002 -0.0072377604 1.7426766e-38 343 246
0.029035198 0.69 -0.0072587994 1.7242375e-38 344 246
0.030244999 0.69 -0.0072587994 1.7242375e-38 345 246
0.031591557 0.69300002 -0.0072903596 1.6966511e-38 346 246
0.03280662 0.69300002 -0.0072903596 1.6874314e-38 347 246
0.034070771 0.69400001 -0.0073008798 1.6691002e-38 348 246
0.035287585 0.69400001 -0.0073008798 1.6598806e-38 349 246
0.036504399 0.69400001 -0.0073008798 1.6874314e-38 350 246
0.037721213 0.69400001 -0.0073008798 1.7059066e-38 351 246
0.039050236 0.69599998 -0.0073219193 1.7058347e-38 352 246
0.040270556 0.69599998 -0.0073219193 1.6965791e-38 353 246
0.041490879 0.69599998 -0.0073219193 1.6781037e-38 354 246
0.042588469 0.69400001 -0.0073008798 1.6411894e-38 355 246
0.043805279 0.69400001 -0.0073008798 1.6781037e-38 356 246
0.045216713 0.69700003 -0.00733244 1.7702633e-38 357 246
0.046638668 0.69999999 -0.0073639993 1.8530593e-38 358 246
0.047865998 0.69999999 -0.0073639993 1.8346562e-38 359 246
0.049093332 0.69999999 -0.0073639993 1.8345113e-38 360 246
0.0083704125 0.68199998 -0.0083704125 2.3077802e-39 327 247
0.009566186 0.68199998 -0.0083704125 3.241265e-39 328 247
0.01079352 0.68400002 -0.0083949603 1.0985698e-38 329 247
0.0119928 0.68400002 -0.0083949603 1.6689933e-38 330 247
0.01319208 0.68400002 -0.0083949603 1.7980672e-38 331 247
0.014370319 0.68300003 -0.0083826864 1.8347637e-38 332 247
0.015567848 0.68300003 -0.0083826864 1.8439832e-38 333 247
0.016765373 0.68300003 -0.0083826864 1.8623142e-38 334 247
0.017962901 0.68300003 -0.0083826864 1.8623142e-38 335 247
0.019160427 0.68300003 -0.0083826864 1.8440185e-38 336 247
0.020387759 0.68400002 -0.0083949603 1.8347631e-38 337 247
0.021650158 0.68599999 -0.0084195063 1.8164319e-38 338 247
0.022852944 0.68599999 -0.0084195063 1.7979927e-38 339 247
0.024055731 0.68599999 -0.0084195063 1.8071773e-38 340 247
0.025258519 0.68599999 -0.0084195063 1.7794826e-38 341 247
0.026461305 0.68599999 -0.0084195063 1.7426772e-38 342 247
0.027704418 0.68699998 -0.0084317802 1.7057991e-38 343 247
0.028908957 0.68699998 -0.0084317802 1.6874317e-38 344 247
0.030157333 0.68800002 -0.0084440531 1.6874317e-38 345 247
0.031454802 0.69 -0.0084686 1.6507334e-38 346 247
0.032664597 0.69 -0.0084686 1.6415138e-38 347 247
0.034021679 0.69300002 -0.0085054198 1.6322945e-38 348 247
0.035236739 0.69300002 -0.0085054198 1.6507337e-38 349 247
0.036451802 0.69300002 -0.0085054198 1.7240583e-38 350 247
0.037721213 0.69400001 -0.0085176928 1.6963996e-38 351 247
0.039050236 0.69599998 -0.0085422397 1.6411175e-38 352 247
0.040270556 0.69599998 -0.0085422397 1.5765806e-38 353 247
0.041490879 0.69599998 -0.0085422397 1.4389352e-38 354 247
0.042772565 0.69700003 -0.0085545136 1.4389352e-38 355 247
0.043994639 0.69700003 -0.0085545136 1.5033655e-38 356 247
0.045216713 0.69700003 -0.0085545136 1.5955252e-38 357 247
0.046638668 0.69999999 -0.0085913334 1.7887044e-38 358 247
0.047865998 0.69999999 -0.0085913334 1.8532413e-38 359 247
0.049093332 0.69999999 -0.0085913334 1.8899032e-38 360 247
0.050320663 0.69999999 -0.0085913334 1.8806836e-38 361 247
0.009566186 0.68199998 -0.009566186 1.6413696e-38 328 248
0.010761959 0.68199998 -0.009566186 1.8626391e-38 329 248
0.011957732 0.68199998 -0.009566186 1.9359991e-38 330 248
0.013153506 0.68199998 -0.009566186 1.8990848e-38 331 248
0.01434928 0.68199998 -0.009566186 1.8348e-38 332 248
0.015545053 0.68199998 -0.009566186 1.8440195e-38 333 248
0.016740825 0.68199998 -0.009566186 1.8531675e-38 334 248
0.017936599 0.68199998 -0.009566186 1.8715707e-38 335 248
0.019132372 0.68199998 -0.009566186 1.8256883e-38 336 248
0.020357953 0.68300003 -0.0095802136 1.8256883e-38 337 248
0.02155548 0.68300003 -0.0095802136 1.8072492e-38 338 248
0.022786319 0.68400002 -0.0095942402 1.78881e-38 339 248
0.0239856 0.68400002 -0.0095942402 1.7611163e-38 340 248
0.025184879 0.68400002 -0.0095942402 1.7334576e-38 341 248
0.02638416 0.68400002 -0.0095942402 1.6873964e-38 342 248
0.027583439 0.68400002 -0.0095942402 1.6505541e-38 343 248
0.028908957 0.68699998 -0.0096363192 1.6322592e-38 344 248
0.030113498 0.68699998 -0.0096363192 1.6138201e-38 345 248
0.031318039 0.68699998 -0.0096363192 1.668993e-38 346 248
0.032569919 0.68800002 -0.0096503468 1.6873961e-38 347 248
0.033776212 0.68800002 -0.0096503468 1.7149459e-38 348 248
0.035135046 0.69099998 -0.0096924258 1.6688482e-38 349 248
0.036346599 0.69099998 -0.0096924258 1.5763635e-38 350 248
0.037666857 0.69300002 -0.0097204801 1.355094e-38 351 248
0.03888192 0.69300002 -0.0097204801 1.1154557e-38 352 248
0.040270556 0.69599998 -0.0097625591 7.3748951e-39 353 248
0.041550495 0.69700003 -0.0097765867 2.0513188e-39 354 248
0.042772565 0.69700003 -0.0097765867 5.6465882e-39 355 248
0.04405776 0.69800001 -0.0097906133 1.1258336e-38 356 248
0.045281585 0.69800001 -0.0097906133 1.3471031e-38 357 248
0.046638668 0.69999999 -0.0098186666 1.5679403e-38 358 248
0.047865998 0.69999999 -0.0098186666 1.6693915e-38 359 248
0.049093332 0.69999999 -0.0098186666 1.8256182e-38 360 248
0.0083458666 0.68000001 -0.0107304 1.7241659e-38 327 249
0.0095381327 0.68000001 -0.0107304 1.8807906e-38 328 249
0.0107304 0.68000001 -0.0107304 1.9177047e-38 329 249
0.011922667 0.68000001 -0.0107304 1.8899736e-38 330 249
0.013153506 0.68199998 -0.010761959 1.8715343e-38 331 249
0.01434928 0.68199998 -0.010761959 1.8532031e-38 332 249
0.015545053 0.68199998 -0.010761959 1.8532031e-38 333 249
0.016740825 0.68199998 -0.010761959 1.8532395e-38 334 249
0.017936599 0.68199998 -0.010761959 1.8532395e-38 335 249
0.019132372 0.68199998 -0.010761959 1.8440195e-38 336 249
0.020328145 0.68199998 -0.010761959 1.8348e-38 337 249
0.021523919 0.68199998 -0.010761959 1.7704079e-38 338 249
0.022753006 0.68300003 -0.01077774 1.724346e-38 339 249
0.023950534 0.68300003 -0.01077774 1.7150911e-38 340 249
0.02514806 0.68300003 -0.01077774 1.6873964e-38 341 249
0.026345588 0.68300003 -0.01077774 1.65981e-38 342 249
0.027543113 0.68300003 -0.01077774 1.6413709e-38 343 249
0.02878272 0.68400002 -0.01079352 1.5862337e-38 344 249
0.029982001 0.68400002 -0.01079352 1.5309163e-38 345 249
0.031272452 0.68599999 -0.010825079 1.5125121e-38 346 249
0.032380559 0.68400002 -0.01079352 1.4664144e-38 347 249
0.033579841 0.68400002 -0.01079352 1.4564016e-38 348 249
0.034931656 0.68699998 -0.010840859 1.1614116e-38 349 249
0.0361888 0.68800002 -0.010856641 9.3066845e-39 350 249
0.037395094 0.68800002 -0.010856641 7.9237501e-39 351 249
0.038601387 0.68800002 -0.010856641 5.4405707e-39 352 249
0.040270556 0.69599998 -0.010982879 2.3984849e-39 353 249
0.041550495 0.69700003 -0.01099866 6.1096613e-42 354 249
0.042833932 0.69800001 -0.01101444 1.8532635e-39 355 249
0.04405776 0.69800001 -0.01101444 3.8023841e-39 356 249
0.04541133 0.69999999 -0.011045999 7.7667962e-39 357 249
0.046638668 0.69999999 -0.011045999 1.2735281e-38 358 249
0.0047550397 0.67799997 -0.011887599 5.6296942e-39 324 250
0.0059437994 0.67799997 -0.011887599 1.2820953e-38 325 250
0.0071430802 0.67900002 -0.011905133 1.7884157e-38 326 250
0.0083335936 0.67900002 -0.011905133 1.972807e-38 327 250
0.009524107 0.67900002 -0.011905133 1.9084849e-38 328 250
0.010714619 0.67900002 -0.011905133 1.8715707e-38 329 250
0.011905133 0.67900002 -0.011905133 1.8532395e-38 330 250
0.013114933 0.68000001 -0.011922667 1.8532395e-38 331 250
0.014307199 0.68000001 -0.011922667 1.8532395e-38 332 250
0.015499466 0.68000001 -0.011922667 1.8532395e-38 333 250
0.016691733 0.68000001 -0.011922667 1.8532395e-38 334 250
0.017883999 0.68000001 -0.011922667 1.8532395e-38 335 250
0.019076265 0.68000001 -0.011922667 1.7981019e-38 336 250
0.020268533 0.68000001 -0.011922667 1.7796628e-38 337 250
0.021523919 0.68199998 -0.011957732 1.7611886e-38 338 250
0.022719691 0.68199998 -0.011957732 1.7150908e-38 339 250
0.023915464 0.68199998 -0.011957732 1.678357e-38 340 250
0.025111238 0.68199998 -0.011957732 1.6322592e-38 341 250
0.026307013 0.68199998 -0.011957732 1.6505904e-38 342 250
0.027543113 0.68300003 -0.011975267 1.6413709e-38 343 250
0.028740639 0.68300003 -0.011975267 1.577049e-38 344 250
0.029982001 0.68400002 -0.0119928 1.5125121e-38 345 250
0.03118128 0.68400002 -0.0119928 1.4019125e-38 346 250
0.032333218 0.68300003 -0.011975267 1.0884832e-38 347 250
0.033530746 0.68300003 -0.011975267 5.5353181e-39 348 250
0.034880809 0.68599999 -0.012027865 1.2939604e-39 349 250
0.035978399 0.68400002 -0.0119928 9.1835496e-41 350 250
0.037177678 0.68400002 -0.0119928 1.1960138e-39 351 250
0.038376961 0.68400002 -0.0119928 1.4787202e-39 352 250
0.040328421 0.69700003 -0.012220734 2.1240896e-39 353 250
0.041610107 0.69800001 -0.012238266 1.4798188e-39 354 250
0.042833932 0.69800001 -0.012238266 8.3444941e-40 355 250
0.044183996 0.69999999 -0.012273333 1.7670374e-41 356 250
0.04541133 0.69999999 -0.012273333 1.4067257e-39 357 250
0.046705291 0.70099998 -0.012290866 7.2136253e-39 358 250
-0.02308614 0.69300002 -0.01336566 1.6226065e-38 301 251
-0.021871079 0.69300002 -0.01336566 1.6409007e-38 302 251
-0.020656019 0.69300002 -0.01336566 1.6777431e-38 303 251
-0.01944096 0.69300002 -0.01336566 1.7057617e-38 304 251
-0.018225901 0.69300002 -0.01336566 1.7149812e-38 305 251
-0.016961746 0.69099998 -0.013327086 5.6304158e-39 306 251
-0.015750192 0.69099998 -0.013327086 3.7526493e-40 307 251
0.0035767998 0.68000001 -0.013114933 9.3167949e-39 323 251
0.0047550397 0.67799997 -0.013076359 1.3924783e-38 324 251
0.0059437994 0.67799997 -0.013076359 1.6875044e-38 325 251
0.0071430802 0.67900002 -0.013095647 1.8347649e-38 326 251
0.0083335936 0.67900002 -0.013095647 1.8624596e-38 327 251
0.009524107 0.67900002 -0.013095647 1.8716063e-38 328 251
0.010698839 0.67799997 -0.013076359 1.8532031e-38 329 251
0.011887599 0.67799997 -0.013076359 1.8532395e-38 330 251
0.013076359 0.67799997 -0.013076359 1.8624591e-38 331 251
0.014265119 0.67799997 -0.013076359 1.8533114e-38 332 251
0.015499466 0.68000001 -0.013114933 1.8533114e-38 333 251
0.016691733 0.68000001 -0.013114933 1.8533114e-38 334 251
0.017857701 0.67900002 -0.013095647 1.8256886e-38 335 251
0.019048214 0.67900002 -0.013095647 1.7889545e-38 336 251
0.020268533 0.68000001 -0.013114933 1.7705154e-38 337 251
0.0214608 0.68000001 -0.013114933 1.7428215e-38 338 251
0.022653066 0.68000001 -0.013114933 1.7243823e-38 339 251
0.023845334 0.68000001 -0.013114933 1.678357e-38 340 251
0.025037598 0.68000001 -0.013114933 1.6691016e-38 341 251
0.026307013 0.68199998 -0.013153506 1.6323311e-38 342 251
0.027502786 0.68199998 -0.013153506 1.6231115e-38 343 251
0.028740639 0.68300003 -0.013172794 1.5955602e-38 344 251
0.029938167 0.68300003 -0.013172794 1.5863406e-38 345 251
0.031135695 0.68300003 -0.013172794 1.5216225e-38 346 251
0.032285877 0.68199998 -0.013153506 1.0883032e-38 347 251
0.03348165 0.68199998 -0.013153506 1.1492049e-41 348 251
0.034728274 0.68300003 -0.013172794 8.9711128e-42 349 251
0.035925802 0.68300003 -0.013172794 1.0177477e-39 350 251
0.037123326 0.68300003 -0.013172794 2.3084865e-39 351 251
0.038376961 0.68400002 -0.01319208 2.860954e-39 352 251
0.041729331 0.69999999 -0.013500666 3.0460655e-39 354 251
0.042956665 0.69999999 -0.013500666 2.5854461e-39 355 251
0.044183996 0.69999999 -0.013500666 3.8032642e-40 356 251
0.045476202 0.70099998 -0.013519952 5.6471768e-40 357 251
-0.02308614 0.69300002 -0.014580719 1.6133865e-38 301 252
-0.021871079 0.69300002 -0.014580719 1.6318608e-38 302 252
-0.020656019 0.69300002 -0.014580719 1.6779585e-38 303 252
-0.019384852 0.69099998 -0.014538639 1.7149812e-38 304 252
-0.0181733 0.69099998 -0.014538639 1.659664e-38 305 252
-0.016961746 0.69099998 -0.014538639 2.7755799e-39 306 252
-0.015750192 0.69099998 -0.014538639 8.2704635e-42 307 252
0 0.67900002 -0.01428616 2.9527867e-39 320 252
0.0011905134 0.67900002 -0.01428616 4.0587755e-39 321 252
0.0023775198 0.67799997 -0.014265119 9.0391374e-39 322 252
0.0035662798 0.67799997 -0.014265119 1.4202093e-38 323 252
0.0047550397 0.67799997 -0.014265119 1.8072141e-38 324 252
0.0059437994 0.67799997 -0.014265119 1.834873e-38 325 252
0.0071325595 0.67799997 -0.014265119 1.807142e-38 326 252
0.0083213197 0.67799997 -0.014265119 1.8163615e-38 327 252
0.0095100794 0.67799997 -0.014265119 1.816469e-38 328 252
0.010698839 0.67799997 -0.014265119 1.8256886e-38 329 252
0.011887599 0.67799997 -0.014265119 1.8533114e-38 330 252
0.013076359 0.67799997 -0.014265119 1.8533114e-38 331 252
0.014265119 0.67799997 -0.014265119 1.8625309e-38 332 252
0.015476674 0.67900002 -0.01428616 1.8533114e-38 333 252
0.016667187 0.67900002 -0.01428616 1.8349083e-38 334 252
0.017857701 0.67900002 -0.01428616 1.8256886e-38 335 252
0.019048214 0.67900002 -0.01428616 1.8072141e-38 336 252
0.020238725 0.67900002 -0.01428616 1.7887391e-38 337 252
0.021429239 0.67900002 -0.01428616 1.7611166e-38 338 252
0.022619752 0.67900002 -0.01428616 1.7426416e-38 339 252
0.023810266 0.67900002 -0.01428616 1.7150911e-38 340 252
0.025000781 0.67900002 -0.01428616 1.6966161e-38 341 252
0.026229866 0.68000001 -0.014307199 1.6690652e-38 342 252
0.027422134 0.68000001 -0.014307199 1.6598456e-38 343 252
0.02869856 0.68199998 -0.01434928 1.6231113e-38 344 252
0.029894331 0.68199998 -0.01434928 1.650806e-38 345 252
0.031090107 0.68199998 -0.01434928 1.6689557e-38 346 252
0.032191198 0.68000001 -0.014307199 1.3001732e-38 347 252
0.033383466 0.68000001 -0.014307199 2.4950175e-39 348 252
0.034575731 0.68000001 -0.014307199 5.5890929e-40 349 252
0.035873197 0.68199998 -0.01434928 2.8598596e-39 350 252
0.037068974 0.68199998 -0.01434928 3.505229e-39 351 252
0.038264744 0.68199998 -0.01434928 2.6783578e-39 352 252
-0.02308614 0.69300002 -0.015795778 1.6226062e-38 301 253
-0.021871079 0.69300002 -0.015795778 1.6502642e-38 302 253
-0.020656019 0.69300002 -0.015795778 1.6779588e-38 303 253
-0.019384852 0.69099998 -0.015750192 1.7241642e-38 304 253
-0.0181733 0.69099998 -0.015750192 1.5858708e-38 305 253
-0.016961746 0.69099998 -0.015750192 4.6996328e-40 306 253
-0.015750192 0.69099998 -0.015750192 0 307 253
-0.0095381327 0.68000001 -0.015499466 2.7662248e-39 312 253
-0.0083335936 0.67900002 -0.015476674 2.8584205e-39 313 253
-0.0071430802 0.67900002 -0.015476674 3.043532e-39 314 253
-0.0059525664 0.67900002 -0.015476674 3.5045101e-39 315 253
-0.0047620535 0.67900002 -0.015476674 3.781453e-39 316 253
-0.0035715401 0.67900002 -0.015476674 4.2420724e-39 317 253
-0.0023810267 0.67900002 -0.015476674 3.3204678e-39 318 253
-0.0011905134 0.67900002 -0.015476674 2.029729e-39 319 253
0 0.67799997 -0.015453878 6.5505588e-39 320 253
0.0011887599 0.67799997 -0.015453878 1.180571e-38 321 253
0.0023775198 0.67799997 -0.015453878 1.5682608e-38 322 253
0.0035662798 0.67799997 -0.015453878 1.6604924e-38 323 253
0.0047550397 0.67799997 -0.015453878 1.8254013e-38 324 253
0.0059437994 0.67799997 -0.015453878 1.806962e-38 325 253
0.0071325595 0.67799997 -0.015453878 1.7703713e-38 326 253
0.0083213197 0.67799997 -0.015453878 1.797994e-38 327 253
0.0095100794 0.67799997 -0.015453878 1.816469e-38 328 253
0.01066728 0.676 -0.015408293 1.8256886e-38 329 253
0.011852534 0.676 -0.015408293 1.8532395e-38 330 253
0.013037786 0.676 -0.015408293 1.8624591e-38 331 253
0.014223038 0.676 -0.015408293 1.8625312e-38 332 253
0.015453878 0.67799997 -0.015453878 1.8533117e-38 333 253
0.016642639 0.67799997 -0.015453878 1.8532761e-38 334 253
0.0178314 0.67799997 -0.015453878 1.8256533e-38 335 253
0.019020159 0.67799997 -0.015453878 1.7888476e-38 336 253
0.020208918 0.67799997 -0.015453878 1.7703726e-38 337 253
0.021397678 0.67799997 -0.015453878 1.7519333e-38 338 253
0.022586439 0.67799997 -0.015453878 1.7335302e-38 339 253
0.023775198 0.67799997 -0.015453878 1.7058357e-38 340 253
0.024963958 0.67799997 -0.015453878 1.6966161e-38 341 253
0.026191294 0.67900002 -0.015476674 1.6506983e-38 342 253
0.027381808 0.67900002 -0.015476674 1.6414788e-38 343 253
0.028614398 0.68000001 -0.015499466 1.6230759e-38 344 253
0.029806666 0.68000001 -0.015499466 1.6046728e-38 345 253
0.030953348 0.67900002 -0.015476674 1.7518965e-38 346 253
0.032143861 0.67900002 -0.015476674 1.5582857e-38 347 253
0.033334374 0.67900002 -0.015476674 8.6652976e-39 348 253
0.034524884 0.67900002 -0.015476674 2.9491685e-39 349 253
0.035715401 0.67900002 -0.015476674 2.5807588e-39 350 253
0.036905911 0.67900002 -0.015476674 3.6871049e-39 351 253
0.038264744 0.68199998 -0.015545053 2.7698402e-39 352 253
-0.02308614 0.69300002 -0.01701084 1.6318614e-38 301 254
-0.021871079 0.69300002 -0.01701084 1.6503721e-38 302 254
-0.020656019 0.69300002 -0.01701084 1.6780308e-38 303 254
-0.01944096 0.69300002 -0.01701084 1.6873933e-38 304 254
-0.0181733 0.69099998 -0.016961746 1.502966e-38 305 254
-0.016961746 0.69099998 -0.016961746 4.9853939e-39 306 254
-0.015750192 0.69099998 -0.016961746 4.6780808e-40 307 254
-0.011922667 0.68000001 -0.016691733 3.5066583e-39 310 254
-0.0107304 0.68000001 -0.016691733 3.5066583e-39 311 254
-0.0095381327 0.68000001 -0.016691733 4.6079696e-39 312 254
-0.0083335936 0.67900002 -0.016667187 4.9763934e-39 313 254
-0.0071430802 0.67900002 -0.016667187 5.4334087e-39 314 254
-0.0059525664 0.67900002 -0.016667187 4.7880393e-39 315 254
-0.0047620535 0.67900002 -0.016667187 2.7676471e-39 316 254
-0.0035715401 0.67900002 -0.016667187 2.0297234e-39 317 254
-0.0023810267 0.67900002 -0.016667187 1.0406042e-41 318 254
-0.0011887599 0.67799997 -0.016642639 1.3287112e-41 319 254
0 0.67799997 -0.016642639 1.2632224e-38 320 254
0.0011887599 0.67799997 -0.016642639 1.5674679e-38 321 254
0.0023775198 0.67799997 -0.016642639 1.8347281e-38 322 254
0.0035662798 0.67799997 -0.016642639 1.8162889e-38 323 254
0.0047550397 0.67799997 -0.016642639 1.7518602e-38 324 254
0.0059437994 0.67799997 -0.016642639 1.7702633e-38 325 254
0.0071325595 0.67799997 -0.016642639 1.7428568e-38 326 254
0.0082967728 0.676 -0.016593546 1.7705154e-38 327 254
0.0094820261 0.676 -0.016593546 1.7796994e-38 328 254
0.01066728 0.676 -0.016593546 1.7981744e-38 329 254
0.011852534 0.676 -0.016593546 1.8257253e-38 330 254
0.013037786 0.676 -0.016593546 1.8349448e-38 331 254
0.014223038 0.676 -0.016593546 1.8532761e-38 332 254
0.015408293 0.676 -0.016593546 1.8532761e-38 333 254
0.016593546 0.676 -0.016593546 1.834873e-38 334 254
0.017778801 0.676 -0.016593546 1.8164337e-38 335 254
0.018964052 0.676 -0.016593546 1.8071785e-38 336 254
0.020208918 0.67799997 -0.016642639 1.7887394e-38 337 254
0.021397678 0.67799997 -0.016642639 1.7611166e-38 338 254
0.022586439 0.67799997 -0.016642639 1.7242025e-38 339 254
0.023775198 0.67799997 -0.016642639 1.7058357e-38 340 254
0.024963958 0.67799997 -0.016642639 1.6873964e-38 341 254
0.026152719 0.67799997 -0.016642639 1.6414791e-38 342 254
0.027341479 0.67799997 -0.016642639 1.6322595e-38 343 254
0.028572321 0.67900002 -0.016667187 1.6046731e-38 344 254
0.029762832 0.67900002 -0.016667187 1.5954536e-38 345 254
0.030953348 0.67900002 -0.016667187 1.6783568e-38 346 254
0.032143861 0.67900002 -0.016667187 1.6138198e-38 347 254
0.033334374 0.67900002 -0.016667187 1.1246422e-38 348 254
0.034524884 0.67900002 -0.016667187 4.7005324e-39 349 254
0.035715401 0.67900002 -0.016667187 1.2021431e-39 350 254
0.036905911 0.67900002 -0.016667187 2.6769131e-39 351 254
0.038264744 0.68199998 -0.016740825 2.4943407e-39 352 254
-0.024301201 0.69300002 -0.018225901 1.6226062e-38 300 255
-0.02308614 0.69300002 -0.018225901 1.6502289e-38 301 255
-0.021871079 0.69300002 -0.018225901 1.6504443e-38 302 255
-0.020596405 0.69099998 -0.0181733 1.6688836e-38 303 255
-0.019384852 0.69099998 -0.0181733 1.6596637e-38 304 255
-0.018146999 0.69 -0.018146999 1.5305898e-38 305 255
-0.016888106 0.68800002 -0.0180944 1.1159249e-38 306 255
-0.015681813 0.68800002 -0.0180944 1.1712062e-38 307 255
-0.014307199 0.68000001 -0.017883999 1.2909536e-38 308 255
-0.013114933 0.68000001 -0.017883999 1.2909536e-38 309 255
-0.011905133 0.67900002 -0.017857701 1.2816269e-38 310 255
-0.010714619 0.67900002 -0.017857701 1.2724073e-38 311 255
-0.009524107 0.67900002 -0.017857701 1.2906667e-38 312 255
-0.0083335936 0.67900002 -0.017857701 1.2814469e-38 313 255
-0.0071325595 0.67799997 -0.0178314 1.2258046e-38 314 255
-0.0059437994 0.67799997 -0.0178314 1.0414494e-38 315 255
-0.0047550397 0.67799997 -0.0178314 6.3647186e-39 316 255
-0.0035662798 0.67799997 -0.0178314 4.2445793e-39 317 255
-0.0023775198 0.67799997 -0.0178314 2.5972969e-39 318 255
-0.0011887599 0.67799997 -0.0178314 7.0226871e-39 319 255
0 0.676 -0.017778801 1.7886305e-38 320 255
0.0011852533 0.676 -0.017778801 1.8347283e-38 321 255
0.0023705065 0.676 -0.017778801 1.761116e-38 322 255
0.0035557596 0.676 -0.017778801 1.7426769e-38 323 255
0.0047410131 0.676 -0.017778801 1.7426772e-38 324 255
0.0059262668 0.676 -0.017778801 1.7518968e-38 325 255
0.0071115191 0.676 -0.017778801 1.7611883e-38 326 255
0.0082967728 0.676 -0.017778801 1.7704079e-38 327 255
0.0094820261 0.676 -0.017778801 1.788847e-38 328 255
0.01066728 0.676 -0.017778801 1.8165056e-38 329 255
0.011835 0.67500001 -0.0177525 1.834873e-38 330 255
0.0130185 0.67500001 -0.0177525 1.8532761e-38 331 255
0.014202001 0.67500001 -0.0177525 1.8624596e-38 332 255
0.015408293 0.676 -0.017778801 1.8532042e-38 333 255
0.016593546 0.676 -0.017778801 1.834873e-38 334 255
0.017778801 0.676 -0.017778801 1.8164337e-38 335 255
0.018964052 0.676 -0.017778801 1.7888476e-38 336 255
0.020149305 0.676 -0.017778801 1.761153e-38 337 255
0.021334561 0.676 -0.017778801 1.7242751e-38 338 255
0.022519812 0.676 -0.017778801 1.7058359e-38 339 255
0.023705067 0.676 -0.017778801 1.6690296e-38 340 255
0.024890319 0.676 -0.017778801 1.65981e-38 341 255
0.026152719 0.67799997 -0.0178314 1.6322595e-38 342 255
0.027341479 0.67799997 -0.0178314 1.6230041e-38 343 255
0.028530238 0.67799997 -0.0178314 1.5954536e-38 344 255
0.029718997 0.67799997 -0.0178314 1.5954536e-38 345 255
0.030907756 0.67799997 -0.0178314 1.60478e-38 346 255
0.03209652 0.67799997 -0.0178314 1.5679378e-38 347 255
0.033285279 0.67799997 -0.0178314 1.3367994e-38 348 255
0.034474038 0.67799997 -0.0178314 6.9142995e-39 349 255
0.0356628 0.67799997 -0.0178314 9.2339543e-40 350 255
0.036905911 0.67900002 -0.017857701 2.6754725e-39 351 255
0.038096428 0.67900002 -0.017857701 2.7694884e-39 352 255
-0.025553079 0.69400001 -0.019469013 1.5858367e-38 299 256
-0.024301201 0.69300002 -0.01944096 1.6318624e-38 300 256
-0.023019511 0.69099998 -0.019384852 1.6410819e-38 301 256
-0.021807959 0.69099998 -0.019384852 1.6504087e-38 302 256
-0.020596405 0.69099998 -0.019384852 1.6596643e-38 303 256
-0.019356798 0.69 -0.019356798 1.659664e-38 304 256
-0.0180944 0.68800002 -0.019300694 1.6135662e-38 305 256
-0.01686356 0.68699998 -0.019272638 1.5768324e-38 306 256
-0.015567848 0.68300003 -0.019160427 1.5676128e-38 307 256
-0.014307199 0.68000001 -0.019076265 1.6319345e-38 308 256
-0.013114933 0.68000001 -0.019076265 1.6411541e-38 309 256
-0.011905133 0.67900002 -0.019048214 1.6319345e-38 310 256
-0.010714619 0.67900002 -0.019048214 1.6319345e-38 311 256
-0.009524107 0.67900002 -0.019048214 1.6686686e-38 312 256
-0.0083213197 0.67799997 -0.019020159 1.659449e-38 313 256
-0.0071325595 0.67799997 -0.019020159 1.6318258e-38 314 256
-0.0059437994 0.67799997 -0.019020159 1.604167e-38 315 256
-0.0047410131 0.676 -0.018964052 1.502896e-38 316 256
-0.0035557596 0.676 -0.018964052 1.3830416e-38 317 256
-0.0023705065 0.676 -0.018964052 1.3371606e-38 318 256
-0.0011852533 0.676 -0.018964052 1.4570149e-38 319 256
0 0.676 -0.018964052 1.7886672e-38 320 256
0.0011852533 0.676 -0.018964052 1.7794475e-38 321 256
0.0023705065 0.676 -0.018964052 1.7150905e-38 322 256
0.0035505001 0.67500001 -0.018935999 1.7150905e-38 323 256
0.0047339997 0.67500001 -0.018935999 1.7243104e-38 324 256
0.0059174998 0.67500001 -0.018935999 1.751933e-38 325 256
0.0071010003 0.67500001 -0.018935999 1.7428215e-38 326 256
0.0082844999 0.67500001 -0.018935999 1.752077e-38 327 256
0.0094679995 0.67500001 -0.018935999 1.7796996e-38 328 256
0.0106515 0.67500001 -0.018935999 1.7981388e-38 329 256
0.011835 0.67500001 -0.018935999 1.8348732e-38 330 256
0.012999214 0.67400002 -0.018907947 1.8532764e-38 331 256
0.01418096 0.67400002 -0.018907947 1.862424e-38 332 256
0.0153855 0.67500001 -0.018935999 1.862424e-38 333 256
0.016569 0.67500001 -0.018935999 1.8256533e-38 334 256
0.0177525 0.67500001 -0.018935999 1.8164337e-38 335 256
0.018935999 0.67500001 -0.018935999 1.7796277e-38 336 256
0.020119499 0.67500001 -0.018935999 1.7335299e-38 337 256
0.021303 0.67500001 -0.018935999 1.7150558e-38 338 256
0.022486499 0.67500001 -0.018935999 1.6965808e-38 339 256
0.023669999 0.67500001 -0.018935999 1.6598106e-38 340 256
0.0248535 0.67500001 -0.018935999 1.6505551e-38 341 256
0.026075572 0.676 -0.018964052 1.5954536e-38 342 256
0.027260827 0.676 -0.018964052 1.5954536e-38 343 256
0.028446076 0.676 -0.018964052 1.5861984e-38 344 256
0.029631332 0.676 -0.018964052 1.595418e-38 345 256
0.030816587 0.676 -0.018964052 1.595453e-38 346 256
0.032001842 0.676 -0.018964052 1.595453e-38 347 256
0.033187091 0.676 -0.018964052 1.5029313e-38 348 256
0.034372345 0.676 -0.018964052 8.1146419e-39 349 256
0.0356628 0.67799997 -0.019020159 1.2903703e-39 350 256
0.036851559 0.67799997 -0.019020159 2.9498902e-39 351 256
0.038096428 0.67900002 -0.019048214 3.5041724e-39 352 256
-0.025553079 0.69400001 -0.020685827 1.6134232e-38 299 257
-0.024301201 0.69300002 -0.020656019 1.6044188e-38 300 257
-0.023019511 0.69099998 -0.020596405 1.6228579e-38 301 257
-0.021807959 0.69099998 -0.020596405 1.6320775e-38 302 257
-0.020566599 0.69 -0.020566599 1.6320775e-38 303 257
-0.019300694 0.68800002 -0.020506985 1.6321495e-38 304 257
-0.018068098 0.68699998 -0.020477179 1.6690636e-38 305 257
-0.01686356 0.68699998 -0.020477179 1.7334927e-38 306 257
-0.015567848 0.68300003 -0.020357953 1.7519318e-38 307 257
-0.01434928 0.68199998 -0.020328145 1.7794829e-38 308 257
-0.013114933 0.68000001 -0.020268533 1.7794829e-38 309 257
-0.011922667 0.68000001 -0.020268533 1.7794831e-38 310 257
-0.010714619 0.67900002 -0.020238725 1.7887028e-38 311 257
-0.009524107 0.67900002 -0.020238725 1.8346928e-38 312 257
-0.0083213197 0.67799997 -0.020208918 1.8346928e-38 313 257
-0.0071325595 0.67799997 -0.020208918 1.8348002e-38 314 257
-0.0059262668 0.676 -0.020149305 1.8440198e-38 315 257
-0.0047410131 0.676 -0.020149305 1.8532395e-38 316 257
-0.0035557596 0.676 -0.020149305 1.8532395e-38 317 257
-0.0023705065 0.676 -0.020149305 1.807142e-38 318 257
-0.0011852533 0.676 -0.020149305 1.7518246e-38 319 257
0 0.676 -0.020149305 1.705871e-38 320 257
0.0011834999 0.67500001 -0.020119499 1.6966514e-38 321 257
0.0023669999 0.67500001 -0.020119499 1.68754e-38 322 257
0.0035505001 0.67500001 -0.020119499 1.7059431e-38 323 257
0.0047339997 0.67500001 -0.020119499 1.715163e-38 324 257
0.0059174998 0.67500001 -0.020119499 1.7243825e-38 325 257
0.0070904801 0.67400002 -0.020089693 1.7336018e-38 326 257
0.0082722269 0.67400002 -0.020089693 1.752077e-38 327 257
0.0094539737 0.67400002 -0.020089693 1.7796996e-38 328 257
0.01063572 0.67400002 -0.020089693 1.7889192e-38 329 257
0.011817466 0.67400002 -0.020089693 1.81647e-38 330 257
0.012999214 0.67400002 -0.020089693 1.8257256e-38 331 257
0.01418096 0.67400002 -0.020089693 1.8348732e-38 332 257
0.015362706 0.67400002 -0.020089693 1.8256535e-38 333 257
0.016544454 0.67400002 -0.020089693 1.7980669e-38 334 257
0.0177262 0.67400002 -0.020089693 1.7888473e-38 335 257
0.018907947 0.67400002 -0.020089693 1.7520414e-38 336 257
0.020089693 0.67400002 -0.020089693 1.7059075e-38 337 257
0.021271439 0.67400002 -0.020089693 1.6506986e-38 338 257
0.022453187 0.67400002 -0.020089693 1.6414791e-38 339 257
0.023634933 0.67400002 -0.020089693 1.6322239e-38 340 257
0.0248535 0.67500001 -0.020119499 1.6230043e-38 341 257
0.026037 0.67500001 -0.020119499 1.586234e-38 342 257
0.027260827 0.676 -0.020149305 1.586234e-38 343 257
0.028446076 0.676 -0.020149305 1.5586473e-38 344 257
0.029631332 0.676 -0.020149305 1.5586473e-38 345 257
0.030816587 0.676 -0.020149305 1.5586473e-38 346 257
0.032001842 0.676 -0.020149305 1.5955254e-38 347 257
0.033187091 0.676 -0.020149305 1.6045264e-38 348 257
0.034372345 0.676 -0.020149305 1.0052548e-38 349 257
0.035557602 0.676 -0.020149305 2.672576e-39 350 257
0.036851559 0.67799997 -0.020208918 2.672576e-39 351 257
0.038040318 0.67799997 -0.020208918 4.0551756e-39 352 257
-0.026847038 0.69599998 -0.021965759 1.5674326e-38 298 258
-0.025553079 0.69400001 -0.021902639 1.6043469e-38 299 258
-0.024301201 0.69300002 -0.021871079 1.6044185e-38 300 258
-0.023019511 0.69099998 -0.021807959 1.6136381e-38 301 258
-0.021807959 0.69099998 -0.021807959 1.6228582e-38 302 258
-0.020506985 0.68800002 -0.021713281 1.6320777e-38 303 258
-0.019300694 0.68800002 -0.021713281 1.6321498e-38 304 258
-0.018068098 0.68699998 -0.021681719 1.6505889e-38 305 258
-0.016789921 0.68400002 -0.02158704 1.687323e-38 306 258
-0.015545053 0.68199998 -0.021523919 1.7057261e-38 307 258
-0.01434928 0.68199998 -0.021523919 1.7240936e-38 308 258
-0.013114933 0.68000001 -0.0214608 1.7240936e-38 309 258
-0.011905133 0.67900002 -0.021429239 1.7241656e-38 310 258
-0.010714619 0.67900002 -0.021429239 1.7241656e-38 311 258
-0.0095100794 0.67799997 -0.021397678 1.7609718e-38 312 258
-0.0083213197 0.67799997 -0.021397678 1.7609718e-38 313 258
-0.0071115191 0.676 -0.021334561 1.7426766e-38 314 258
-0.0059262668 0.676 -0.021334561 1.7426766e-38 315 258
-0.0047339997 0.67500001 -0.021303 1.7702277e-38 316 258
-0.0035505001 0.67500001 -0.021303 1.7518246e-38 317 258
-0.0023669999 0.67500001 -0.021303 1.7242022e-38 318 258
-0.0011834999 0.67500001 -0.021303 1.6965794e-38 319 258
0 0.67500001 -0.021303 1.6690286e-38 320 258
0.0011817467 0.67400002 -0.021271439 1.6690286e-38 321 258
0.0023634934 0.67400002 -0.021271439 1.6873961e-38 322 258
0.0035505001 0.67500001 -0.021303 1.6873961e-38 323 258
0.0047339997 0.67500001 -0.021303 1.6782849e-38 324 258
0.0059087332 0.67400002 -0.021271439 1.715163e-38 325 258
0.0070904801 0.67400002 -0.021271439 1.7243823e-38 326 258
0.0082722269 0.67400002 -0.021271439 1.7428215e-38 327 258
0.0094539737 0.67400002 -0.021271439 1.7888473e-38 328 258
0.01063572 0.67400002 -0.021271439 1.7980669e-38 329 258
0.011817466 0.67400002 -0.021271439 1.8256535e-38 330 258
0.012960639 0.67199999 -0.021208318 1.8256535e-38 331 258
0.01413888 0.67199999 -0.021208318 1.8257256e-38 332 258
0.015362706 0.67400002 -0.021271439 1.7980669e-38 333 258
0.016544454 0.67400002 -0.021271439 1.8071785e-38 334 258
0.0177262 0.67400002 -0.021271439 1.7887394e-38 335 258
0.018851839 0.67199999 -0.021208318 1.7243825e-38 336 258
0.020030079 0.67199999 -0.021208318 1.6782849e-38 337 258
0.021271439 0.67400002 -0.021271439 1.6414788e-38 338 258
0.022453187 0.67400002 -0.021271439 1.6322592e-38 339 258
0.023634933 0.67400002 -0.021271439 1.6230041e-38 340 258
0.024816679 0.67400002 -0.021271439 1.6045649e-38 341 258
0.025998428 0.67400002 -0.021271439 1.5769786e-38 342 258
0.027220501 0.67500001 -0.021303 1.5769786e-38 343 258
0.028446076 0.676 -0.021334561 1.5494276e-38 344 258
0.029631332 0.676 -0.021334561 1.5494276e-38 345 258
0.030816587 0.676 -0.021334561 1.5494276e-38 346 258
0.032001842 0.676 -0.021334561 1.5586473e-38 347 258
0.033187091 0.676 -0.021334561 1.6598085e-38 348 258
0.034372345 0.676 -0.021334561 1.2910258e-38 349 258
0.035557602 0.676 -0.021334561 5.7161122e-39 350 258
0.036742851 0.676 -0.021334561 2.5814622e-39 351 258
0.037928104 0.676 -0.021334561 3.9622639e-39 352 258
0.050811596 0.69 -0.021776399 1.5774473e-39 362 258
0.052021399 0.69 -0.021776399 1.0242735e-39 363 258
0.055408835 0.68699998 -0.021681719 1.6692466e-38 366 258
-0.028107686 0.69700003 -0.023219392 1.5122238e-38 297 259
-0.026847038 0.69599998 -0.023186078 1.5675408e-38 298 259
-0.025553079 0.69400001 -0.023119451 1.5951636e-38 299 259
-0.024301201 0.69300002 -0.02308614 1.6043835e-38 300 259
-0.023019511 0.69099998 -0.023019511 1.6043835e-38 301 259
-0.021807959 0.69099998 -0.023019511 1.5952721e-38 302 259
-0.020477179 0.68699998 -0.022886258 1.6228948e-38 303 259
-0.019272638 0.68699998 -0.022886258 1.6321145e-38 304 259
-0.018068098 0.68699998 -0.022886258 1.6321145e-38 305 259
-0.016789921 0.68400002 -0.022786319 1.6597008e-38 306 259
-0.015545053 0.68199998 -0.022719691 1.6597008e-38 307 259
-0.014307199 0.68000001 -0.022653066 1.6505536e-38 308 259
-0.013114933 0.68000001 -0.022653066 1.6505536e-38 309 259
-0.011905133 0.67900002 -0.022619752 1.659809e-38 310 259
-0.010714619 0.67900002 -0.022619752 1.6690286e-38 311 259
-0.0095100794 0.67799997 -0.022586439 1.668993e-38 312 259
-0.0082967728 0.676 -0.022519812 1.668993e-38 313 259
-0.0071115191 0.676 -0.022519812 1.6874314e-38 314 259
-0.0059262668 0.676 -0.022519812 1.7059066e-38 315 259
-0.0047339997 0.67500001 -0.022486499 1.7058344e-38 316 259
-0.0035505001 0.67500001 -0.022486499 1.6966147e-38 317 259
-0.0023669999 0.67500001 -0.022486499 1.6598809e-38 318 259
-0.0011834999 0.67500001 -0.022486499 1.6598809e-38 319 259
0 0.67500001 -0.022486499 1.6414062e-38 320 259
0.0011817467 0.67400002 -0.022453187 1.6414062e-38 321 259
0.0023634934 0.67400002 -0.022453187 1.6505904e-38 322 259
0.00354524 0.67400002 -0.022453187 1.65981e-38 323 259
0.0047269869 0.67400002 -0.022453187 1.6414788e-38 324 259
0.0059087332 0.67400002 -0.022453187 1.6691016e-38 325 259
0.0070694401 0.67199999 -0.022386558 1.6875766e-38 326 259
0.00824768 0.67199999 -0.022386558 1.7336385e-38 327 259
0.0094259195 0.67199999 -0.022386558 1.788812e-38 328 259
0.010604159 0.67199999 -0.022386558 1.788812e-38 329 259
0.011782399 0.67199999 -0.022386558 1.7981034e-38 330 259
0.012960639 0.67199999 -0.022386558 1.7888839e-38 331 259
0.01413888 0.67199999 -0.022386558 1.7888839e-38 332 259
0.01531712 0.67199999 -0.022386558 1.7796643e-38 333 259
0.01649536 0.67199999 -0.022386558 1.7704082e-38 334 259
0.017673599 0.67199999 -0.022386558 1.7335299e-38 335 259
0.018851839 0.67199999 -0.022386558 1.68754e-38 336 259
0.020030079 0.67199999 -0.022386558 1.6690649e-38 337 259
0.021208318 0.67199999 -0.022386558 1.6322592e-38 338 259
0.022386558 0.67199999 -0.022386558 1.6138201e-38 339 259
0.023564799 0.67199999 -0.022386558 1.6137848e-38 340 259
0.024743039 0.67199999 -0.022386558 1.5861621e-38 341 259
0.025998428 0.67400002 -0.022453187 1.5586473e-38 342 259
0.027180174 0.67400002 -0.022453187 1.5494276e-38 343 259
0.028404001 0.67500001 -0.022486499 1.5218412e-38 344 259
0.0295875 0.67500001 -0.022486499 1.5218412e-38 345 259
0.030771 0.67500001 -0.022486499 1.5126217e-38 346 259
0.032001842 0.676 -0.022519812 1.5218412e-38 347 259
0.033187091 0.676 -0.022519812 1.6231113e-38 348 259
0.034372345 0.676 -0.022519812 1.3926582e-38 349 259
0.035557602 0.676 -0.022519812 9.1252024e-39 350 259
0.036742851 0.676 -0.022519812 3.7774971e-39 351 259
0.037928104 0.676 -0.022519812 2.4003304e-39 352 259
0.039229076 0.67799997 -0.022586439 3.4144809e-39 353 259
0.050664321 0.68800002 -0.022919573 2.6812683e-39 362 259
0.051870614 0.68800002 -0.022919573 1.2983339e-39 363 259
0.052999757 0.68699998 -0.022886258 1.1276151e-39 364 259
0.054204296 0.68699998 -0.022886258 9.0564392e-39 365 259
0.055408835 0.68699998 -0.022886258 1.4851793e-38 366 259
0.056283753 0.68300003 -0.022753006 1.6419121e-38 367 259
-0.028107686 0.69700003 -0.024441468 1.530627e-38 297 260
-0.026847038 0.69599998 -0.0244064 1.5858718e-38 298 260
-0.025553079 0.69400001 -0.024336265 1.6043469e-38 299 260
-0.024231065 0.69099998 -0.024231065 1.5860876e-38 300 260
-0.022986198 0.69 -0.024195999 1.5860876e-38 301 260
-0.021713281 0.68800002 -0.024125867 1.6043116e-38 302 260
-0.020477179 0.68699998 -0.024090799 1.6411538e-38 303 260
-0.019272638 0.68699998 -0.024090799 1.6228945e-38 304 260
-0.018041799 0.68599999 -0.024055731 1.6321142e-38 305 260
-0.016789921 0.68400002 -0.0239856 1.6688482e-38 306 260
-0.015545053 0.68199998 -0.023915464 1.6688482e-38 307 260
-0.014307199 0.68000001 -0.023845334 1.6597008e-38 308 260
-0.013114933 0.68000001 -0.023845334 1.6597008e-38 309 260
-0.011905133 0.67900002 -0.023810266 1.6689204e-38 310 260
-0.010698839 0.67799997 -0.023775198 1.6689204e-38 311 260
-0.0095100794 0.67799997 -0.023775198 1.6689204e-38 312 260
-0.0082967728 0.676 -0.023705067 1.67814e-38 313 260
-0.0071115191 0.676 -0.023705067 1.67814e-38 314 260
-0.0059262668 0.676 -0.023705067 1.6689204e-38 315 260
-0.0047339997 0.67500001 -0.023669999 1.6872876e-38 316 260
-0.0035505001 0.67500001 -0.023669999 1.7056908e-38 317 260
-0.0023669999 0.67500001 -0.023669999 1.6690286e-38 318 260
-0.0011817467 0.67400002 -0.023634933 1.6505536e-38 319 260
0 0.67400002 -0.023634933 1.6230031e-38 320 260
0.0011817467 0.67400002 -0.023634933 1.6230031e-38 321 260
0.0023634934 0.67400002 -0.023634933 1.6596658e-38 322 260
0.00354524 0.67400002 -0.023634933 1.6688854e-38 323 260
0.0047129598 0.67199999 -0.023564799 1.6505904e-38 324 260
0.0058911997 0.67199999 -0.023564799 1.65981e-38 325 260
0.0070694401 0.67199999 -0.023564799 1.6966164e-38 326 260
0.00824768 0.67199999 -0.023564799 1.7242751e-38 327 260
0.0094259195 0.67199999 -0.023564799 1.7703729e-38 328 260
0.010604159 0.67199999 -0.023564799 1.7795924e-38 329 260
0.011782399 0.67199999 -0.023564799 1.788812e-38 330 260
0.012941353 0.671 -0.023529733 1.7795924e-38 331 260
0.01411784 0.671 -0.023529733 1.7979593e-38 332 260
0.015294326 0.671 -0.023529733 1.761081e-38 333 260
0.016470812 0.671 -0.023529733 1.7059075e-38 334 260
0.017673599 0.67199999 -0.023564799 1.6782849e-38 335 260
0.018823786 0.671 -0.023529733 1.6506983e-38 336 260
0.020000271 0.671 -0.023529733 1.6322592e-38 337 260
0.021208318 0.67199999 -0.023564799 1.6046728e-38 338 260
0.022386558 0.67199999 -0.023564799 1.5954533e-38 339 260
0.023564799 0.67199999 -0.023564799 1.5861621e-38 340 260
0.024743039 0.67199999 -0.023564799 1.5861621e-38 341 260
0.025998428 0.67400002 -0.023634933 1.5494276e-38 342 260
0.027180174 0.67400002 -0.023634933 1.5402081e-38 343 260
0.02836192 0.67400002 -0.023634933 1.5309529e-38 344 260
0.0295875 0.67500001 -0.023669999 1.5217333e-38 345 260
0.030771 0.67500001 -0.023669999 1.5401006e-38 346 260
0.031954501 0.67500001 -0.023669999 1.5401006e-38 347 260
