# .PCD v.7 - Point Cloud Data file format
FIELDS x y z rgb imX imY
SIZE 4 4 4 4 4 4
TYPE F F F F F F
COUNT 1 1 1 1 1 1
WIDTH 833
HEIGHT 1
VIEWPOINT 0 0 0 1 0 0 0
POINTS 833
DATA ascii
0.010825079 0.68599999 -0.027664091 1.3467787e-38 329 263
0.012027865 0.68599999 -0.027664091 1.3559264e-38 330 263
0.013230653 0.68599999 -0.027664091 1.3559264e-38 331 263
0.01443344 0.68599999 -0.027664091 1.3559264e-38 332 263
0.015636226 0.68599999 -0.027664091 1.3559264e-38 333 263
0.016839013 0.68599999 -0.027664091 1.3375235e-38 334 263
0.018041799 0.68599999 -0.027664091 1.3375235e-38 335 263
0.019244585 0.68599999 -0.027664091 1.3375235e-38 336 263
0.020447372 0.68599999 -0.027664091 1.346779e-38 337 263
0.021650158 0.68599999 -0.027664091 1.3743648e-38 338 263
0.022852944 0.68599999 -0.027664091 1.2729856e-38 339 263
0.0239856 0.68400002 -0.027583439 8.8558378e-39 340 263
0.025184879 0.68400002 -0.027583439 1.4559491e-42 341 263
0.026461305 0.68599999 -0.027664091 9.7975986e-41 342 263
0.027664091 0.68599999 -0.027664091 1.4809104e-39 343 263
0.028908957 0.68699998 -0.027704418 1.7549736e-39 344 263
0.030113498 0.68699998 -0.027704418 1.7549736e-39 345 263
0.031318039 0.68699998 -0.027704418 1.5716613e-39 346 263
0.032569919 0.68800002 -0.027744746 1.5716613e-39 347 263
0.033776212 0.68800002 -0.027744746 1.5716613e-39 348 263
0.03498251 0.68800002 -0.027744746 1.5716613e-39 349 263
0.0361888 0.68800002 -0.027744746 1.4801846e-39 350 263
0.037503798 0.69 -0.027825398 1.5723802e-39 351 263
0.038713597 0.69 -0.027825398 1.6638598e-39 352 263
0.039981257 0.69099998 -0.027865725 1.6638598e-39 353 263
0.041192811 0.69099998 -0.027865725 1.8478937e-39 354 263
0.042527102 0.69300002 -0.027946379 1.8478937e-39 355 263
0.043742158 0.69300002 -0.027946379 2.0315689e-39 356 263
0.045022093 0.69400001 -0.027986705 2.1237659e-39 357 263
0.046372157 0.69599998 -0.028067358 1.9400921e-39 358 263
0.047729239 0.69800001 -0.028148014 1.2021683e-39 359 263
0.048953064 0.69800001 -0.028148014 3.6028547e-39 360 263
0.050320663 0.69999999 -0.028228667 9.5955706e-39 361 263
0.051621638 0.70099998 -0.028268991 1.3744377e-38 362 263
0.052850723 0.70099998 -0.028268991 1.328304e-38 363 263
0.054311249 0.704 -0.028389972 1.2363242e-38 364 263
0.055545598 0.704 -0.028389972 1.217885e-38 365 263
0.056941248 0.70599997 -0.028470624 1.2545105e-38 366 263
0.058179103 0.70599997 -0.028470624 1.4020595e-38 367 263
0.059416957 0.70599997 -0.028470624 1.6411193e-38 368 263
-0.035052639 0.71399999 -0.030045118 1.4663797e-38 292 264
-0.033800758 0.71399999 -0.030045118 1.12522e-38 293 264
-0.032412119 0.71100003 -0.029918881 1.3003562e-38 294 264
-0.031121666 0.70999998 -0.029876797 1.3280509e-38 295 264
-0.02979264 0.708 -0.02979264 1.3923711e-38 296 264
-0.02855128 0.708 -0.02979264 1.4199937e-38 297 264
-0.027271347 0.70700002 -0.029750559 1.4109178e-38 298 264
-0.025994917 0.70599997 -0.029708479 1.4293569e-38 299 264
-0.024686933 0.704 -0.029624319 1.4201737e-38 300 264
-0.023419274 0.70300001 -0.029582238 1.4293932e-38 301 264
-0.022123558 0.70099998 -0.029498078 1.4293216e-38 302 264
-0.020864666 0.69999999 -0.029455997 1.4293216e-38 303 264
-0.019581227 0.69800001 -0.029371841 1.420174e-38 304 264
-0.0183574 0.69800001 -0.029371841 1.420174e-38 305 264
-0.017133573 0.69800001 -0.029371841 1.4110623e-38 306 264
-0.015886955 0.69700003 -0.02932976 1.4479047e-38 307 264
-0.014643839 0.69599998 -0.029287677 1.4939302e-38 308 264
-0.01336566 0.69300002 -0.029161438 1.4478682e-38 309 264
-0.012115533 0.69099998 -0.029077278 1.3834033e-38 310 264
-0.01090398 0.69099998 -0.029077278 1.3465251e-38 311 264
-0.0096924258 0.69099998 -0.029077278 1.3097563e-38 312 264
-0.0084686 0.69 -0.029035198 1.3005367e-38 313 264
-0.0072587994 0.69 -0.029035198 1.2822065e-38 314 264
-0.0060489997 0.69 -0.029035198 1.2822065e-38 315 264
-0.0048391996 0.69 -0.029035198 1.2914263e-38 316 264
-0.0036188802 0.68800002 -0.028951041 1.3006459e-38 317 264
-0.0024125867 0.68800002 -0.028951041 1.3006815e-38 318 264
-0.0012045399 0.68699998 -0.028908957 1.3006815e-38 319 264
0 0.68699998 -0.028908957 1.3099007e-38 320 264
0.0012045399 0.68699998 -0.028908957 1.3099007e-38 321 264
0.0024090798 0.68699998 -0.028908957 1.3282676e-38 322 264
0.00360836 0.68599999 -0.02886688 1.3282676e-38 323 264
0.0048111463 0.68599999 -0.02886688 1.3283396e-38 324 264
0.0060139326 0.68599999 -0.02886688 1.3283396e-38 325 264
0.0072167199 0.68599999 -0.02886688 1.3375591e-38 326 264
0.0084195063 0.68599999 -0.02886688 1.3375591e-38 327 264
0.0096363192 0.68699998 -0.028908957 1.3375591e-38 328 264
0.010825079 0.68599999 -0.02886688 1.3375591e-38 329 264
0.012027865 0.68599999 -0.02886688 1.3467068e-38 330 264
0.013230653 0.68599999 -0.02886688 1.3467068e-38 331 264
0.01443344 0.68599999 -0.02886688 1.3375591e-38 332 264
0.015636226 0.68599999 -0.02886688 1.3375591e-38 333 264
0.016839013 0.68599999 -0.02886688 1.3374517e-38 334 264
0.018041799 0.68599999 -0.02886688 1.328232e-38 335 264
0.019244585 0.68599999 -0.02886688 1.328232e-38 336 264
0.020447372 0.68599999 -0.02886688 1.328232e-38 337 264
0.021650158 0.68599999 -0.02886688 1.346814e-38 338 264
0.022852944 0.68599999 -0.02886688 1.328339e-38 339 264
0.0239856 0.68400002 -0.02878272 1.0144779e-38 340 264
0.025184879 0.68400002 -0.02878272 3.7835059e-43 341 264
0.026461305 0.68599999 -0.02886688 5.4174199e-42 342 264
0.027664091 0.68599999 -0.02886688 1.573462e-39 343 264
0.028908957 0.68699998 -0.028908957 1.6642129e-39 344 264
0.030113498 0.68699998 -0.028908957 1.6642129e-39 345 264
0.031318039 0.68699998 -0.028908957 1.4805405e-39 346 264
0.032522578 0.68699998 -0.028908957 1.4805405e-39 347 264
0.033776212 0.68800002 -0.028951041 1.2961506e-39 348 264
0.03498251 0.68800002 -0.028951041 1.2961506e-39 349 264
0.0361888 0.68800002 -0.028951041 1.4801846e-39 350 264
0.037395094 0.68800002 -0.028951041 1.4801846e-39 351 264
0.038713597 0.69 -0.029035198 1.7549764e-39 352 264
0.0399234 0.69 -0.029035198 1.7549764e-39 353 264
0.041192811 0.69099998 -0.029077278 1.7549792e-39 354 264
0.042404365 0.69099998 -0.029077278 1.7549792e-39 355 264
0.043742158 0.69300002 -0.029161438 1.6638626e-39 356 264
0.045022093 0.69400001 -0.029203519 1.8478937e-39 357 264
0.046372157 0.69599998 -0.029287677 1.4791126e-39 358 264
0.047660861 0.69700003 -0.02932976 7.4154753e-40 359 264
0.048953064 0.69800001 -0.029371841 5.6315116e-39 360 264
0.050320663 0.69999999 -0.029455997 9.872512e-39 361 264
0.051621638 0.70099998 -0.029498078 1.3006812e-38 362 264
0.053001512 0.70300001 -0.029582238 1.282242e-38 363 264
0.054311249 0.704 -0.029624319 1.2087018e-38 364 264
0.055545598 0.704 -0.029624319 1.2179213e-38 365 264
0.056941248 0.70599997 -0.029708479 1.2638021e-38 366 264
0.058179103 0.70599997 -0.029708479 1.3836924e-38 367 264
0.059416957 0.70599997 -0.029708479 1.6411193e-38 368 264
-0.034905359 0.71100003 -0.031165501 1.36482e-38 292 265
-0.033658739 0.71100003 -0.031165501 1.0882331e-38 293 265
-0.032366529 0.70999998 -0.031121666 1.3095748e-38 294 265
-0.031121666 0.70999998 -0.031121666 1.3464172e-38 295 265
-0.02979264 0.708 -0.031034 1.3923708e-38 296 265
-0.02855128 0.708 -0.031034 1.4200293e-38 297 265
-0.027271347 0.70700002 -0.030990168 1.4109175e-38 298 265
-0.025994917 0.70599997 -0.030946331 1.4201371e-38 299 265
-0.024686933 0.704 -0.030858666 1.4202093e-38 300 265
-0.023419274 0.70300001 -0.030814834 1.4202093e-38 301 265
-0.022123558 0.70099998 -0.030727165 1.4293214e-38 302 265
-0.020864666 0.69999999 -0.030683333 1.4293214e-38 303 265
-0.019581227 0.69800001 -0.030595668 1.4293938e-38 304 265
-0.0183574 0.69800001 -0.030595668 1.4201742e-38 305 265
-0.017109027 0.69700003 -0.030551834 1.4018071e-38 306 265
-0.015886955 0.69700003 -0.030551834 1.4294657e-38 307 265
-0.014643839 0.69599998 -0.030507999 1.3927676e-38 308 265
-0.013384946 0.69400001 -0.030420333 1.3927676e-38 309 265
-0.012115533 0.69099998 -0.030288832 1.3375223e-38 310 265
-0.01090398 0.69099998 -0.030288832 1.3098635e-38 311 265
-0.0096924258 0.69099998 -0.030288832 1.2914248e-38 312 265
-0.0084686 0.69 -0.030244999 1.2822052e-38 313 265
-0.0072587994 0.69 -0.030244999 1.2913897e-38 314 265
-0.0060489997 0.69 -0.030244999 1.2913897e-38 315 265
-0.0048391996 0.69 -0.030244999 1.2913541e-38 316 265
-0.0036188802 0.68800002 -0.030157333 1.3097931e-38 317 265
-0.0024125867 0.68800002 -0.030157333 1.3190127e-38 318 265
-0.0012045399 0.68699998 -0.030113498 1.3190127e-38 319 265
0 0.68699998 -0.030113498 1.319048e-38 320 265
0.0012045399 0.68699998 -0.030113498 1.319048e-38 321 265
0.0024090798 0.68699998 -0.030113498 1.319048e-38 322 265
0.00360836 0.68599999 -0.030069664 1.3282676e-38 323 265
0.0048111463 0.68599999 -0.030069664 1.319048e-38 324 265
0.0060139326 0.68599999 -0.030069664 1.3282676e-38 325 265
0.0072167199 0.68599999 -0.030069664 1.3282676e-38 326 265
0.0084195063 0.68599999 -0.030069664 1.3282676e-38 327 265
0.0096222926 0.68599999 -0.030069664 1.328232e-38 328 265
0.010825079 0.68599999 -0.030069664 1.328232e-38 329 265
0.012027865 0.68599999 -0.030069664 1.3374517e-38 330 265
0.013230653 0.68599999 -0.030069664 1.3374517e-38 331 265
0.01443344 0.68599999 -0.030069664 1.3558188e-38 332 265
0.015636226 0.68599999 -0.030069664 1.3558188e-38 333 265
0.016839013 0.68599999 -0.030069664 1.3465636e-38 334 265
0.018041799 0.68599999 -0.030069664 1.3281604e-38 335 265
0.019244585 0.68599999 -0.030069664 1.3281604e-38 336 265
0.020447372 0.68599999 -0.030069664 1.3189408e-38 337 265
0.021650158 0.68599999 -0.030069664 1.2731301e-38 338 265
0.022852944 0.68599999 -0.030069664 1.3192279e-38 339 265
0.0239856 0.68400002 -0.029982001 1.1434797e-38 340 265
0.025184879 0.68400002 -0.029982001 2.7912604e-40 341 265
0.026461305 0.68599999 -0.030069664 6.1376873e-42 342 265
0.027664091 0.68599999 -0.030069664 1.5749039e-39 343 265
0.028908957 0.68699998 -0.030113498 1.8471748e-39 344 265
0.030113498 0.68699998 -0.030113498 1.7549792e-39 345 265
0.031318039 0.68699998 -0.030113498 1.5716613e-39 346 265
0.032522578 0.68699998 -0.030113498 1.5716613e-39 347 265
0.033776212 0.68800002 -0.030157333 1.4801874e-39 348 265
0.03498251 0.68800002 -0.030157333 1.4801874e-39 349 265
0.0361888 0.68800002 -0.030157333 1.5716641e-39 350 265
0.037395094 0.68800002 -0.030157333 1.5716641e-39 351 265
0.038713597 0.69 -0.030244999 1.7549764e-39 352 265
0.0399234 0.69 -0.030244999 1.7549764e-39 353 265
0.041192811 0.69099998 -0.030288832 1.7549764e-39 354 265
0.042404365 0.69099998 -0.030288832 1.7549764e-39 355 265
0.043742158 0.69300002 -0.0303765 1.5716669e-39 356 265
0.045022093 0.69400001 -0.030420333 1.8478937e-39 357 265
0.046372157 0.69599998 -0.030507999 1.0181372e-39 358 265
0.047660861 0.69700003 -0.030551834 3.7276781e-40 359 265
0.048953064 0.69800001 -0.030595668 7.8431306e-39 360 265
0.050320663 0.69999999 -0.030683333 1.0608999e-38 361 265
0.051621638 0.70099998 -0.030727165 1.2546554e-38 362 265
0.053001512 0.70300001 -0.030814834 1.2362163e-38 363 265
0.054311249 0.704 -0.030858666 1.2178494e-38 364 265
0.055545598 0.704 -0.030858666 1.2271049e-38 365 265
0.056779943 0.704 -0.030858666 1.27295e-38 366 265
0.058179103 0.70599997 -0.030946331 1.4204989e-38 367 265
0.059416957 0.70599997 -0.030946331 1.6503035e-38 368 265
-0.034905359 0.71100003 -0.032412119 1.3831509e-38 292 266
-0.033658739 0.71100003 -0.032412119 1.0973444e-38 293 266
-0.032366529 0.70999998 -0.032366529 1.3003196e-38 294 266
-0.031121666 0.70999998 -0.032366529 1.3187588e-38 295 266
-0.02979264 0.708 -0.03227536 1.3647847e-38 296 266
-0.02855128 0.708 -0.03227536 1.3924074e-38 297 266
-0.027271347 0.70700002 -0.032229774 1.3741836e-38 298 266
-0.025994917 0.70599997 -0.032184184 1.3926229e-38 299 266
-0.024651866 0.70300001 -0.032047424 1.4109541e-38 300 266
-0.023419274 0.70300001 -0.032047424 1.4201737e-38 301 266
-0.022123558 0.70099998 -0.031956252 1.420174e-38 302 266
-0.020805053 0.69800001 -0.031819493 1.420174e-38 303 266
-0.019581227 0.69800001 -0.031819493 1.4018071e-38 304 266
-0.0183574 0.69800001 -0.031819493 1.4018071e-38 305 266
-0.017109027 0.69700003 -0.03177391 1.3926597e-38 306 266
-0.015886955 0.69700003 -0.03177391 1.3926597e-38 307 266
-0.014643839 0.69599998 -0.031728316 1.3743285e-38 308 266
-0.01336566 0.69300002 -0.031591557 1.3743285e-38 309 266
-0.012150601 0.69300002 -0.031591557 1.3742563e-38 310 266
-0.01090398 0.69099998 -0.031500384 1.3465616e-38 311 266
-0.0096924258 0.69099998 -0.031500384 1.3373426e-38 312 266
-0.008480873 0.69099998 -0.031500384 1.3280872e-38 313 266
-0.0072587994 0.69 -0.031454802 1.2913897e-38 314 266
-0.0060489997 0.69 -0.031454802 1.2913897e-38 315 266
-0.0048391996 0.69 -0.031454802 1.2822067e-38 316 266
-0.0036293997 0.69 -0.031454802 1.2822067e-38 317 266
-0.0024125867 0.68800002 -0.031363625 1.2914263e-38 318 266
-0.0012045399 0.68699998 -0.031318039 1.3006459e-38 319 266
0 0.68699998 -0.031318039 1.2915335e-38 320 266
0.0012045399 0.68699998 -0.031318039 1.2915335e-38 321 266
0.0024090798 0.68699998 -0.031318039 1.3006809e-38 322 266
0.00360836 0.68599999 -0.031272452 1.3006809e-38 323 266
0.0048111463 0.68599999 -0.031272452 1.3190124e-38 324 266
0.0060139326 0.68599999 -0.031272452 1.3190124e-38 325 266
0.0072167199 0.68599999 -0.031272452 1.3006815e-38 326 266
0.0084195063 0.68599999 -0.031272452 1.3006815e-38 327 266
0.0096222926 0.68599999 -0.031272452 1.2914982e-38 328 266
0.010825079 0.68599999 -0.031272452 1.2914982e-38 329 266
0.012027865 0.68599999 -0.031272452 1.3098656e-38 330 266
0.013230653 0.68599999 -0.031272452 1.3098656e-38 331 266
0.01443344 0.68599999 -0.031272452 1.3098656e-38 332 266
0.015636226 0.68599999 -0.031272452 1.3006459e-38 333 266
0.016839013 0.68599999 -0.031272452 1.3006815e-38 334 266
0.018041799 0.68599999 -0.031272452 1.291426e-38 335 266
0.019244585 0.68599999 -0.031272452 1.2913541e-38 336 266
0.020447372 0.68599999 -0.031272452 1.2821346e-38 337 266
0.021650158 0.68599999 -0.031272452 1.2638026e-38 338 266
0.022852944 0.68599999 -0.031272452 1.3099363e-38 339 266
0.0239856 0.68400002 -0.03118128 1.1714978e-38 340 266
0.025184879 0.68400002 -0.03118128 1.7578505e-39 341 266
0.026461305 0.68599999 -0.031272452 3.7239507e-40 342 266
0.027664091 0.68599999 -0.031272452 2.0319164e-39 343 266
0.028908957 0.68699998 -0.031318039 2.1230386e-39 344 266
0.030113498 0.68699998 -0.031318039 2.0304843e-39 345 266
0.031318039 0.68699998 -0.031318039 1.5716613e-39 346 266
0.032522578 0.68699998 -0.031318039 1.5716613e-39 347 266
0.033776212 0.68800002 -0.031363625 1.4794685e-39 348 266
0.03498251 0.68800002 -0.031363625 1.5716641e-39 349 266
0.0361888 0.68800002 -0.031363625 1.4801874e-39 350 266
0.037503798 0.69 -0.031454802 1.2961562e-39 351 266
0.038713597 0.69 -0.031454802 1.4801874e-39 352 266
0.0399234 0.69 -0.031454802 1.2961562e-39 353 266
0.041192811 0.69099998 -0.031500384 1.4794685e-39 354 266
0.042404365 0.69099998 -0.031500384 1.5716641e-39 355 266
0.043742158 0.69300002 -0.031591557 1.2958031e-39 356 266
0.044957221 0.69300002 -0.031591557 1.5720299e-39 357 266
0.046372157 0.69599998 -0.031728316 1.8982129e-40 358 266
0.047729239 0.69800001 -0.031819493 9.7625661e-41 359 266
0.048953064 0.69800001 -0.031819493 9.3175446e-39 360 266
0.050320663 0.69999999 -0.031910665 1.1622077e-38 361 266
0.051621638 0.70099998 -0.031956252 1.2269966e-38 362 266
0.053001512 0.70300001 -0.032047424 1.2085934e-38 363 266
0.054311249 0.704 -0.032093015 1.1902985e-38 364 266
0.055545598 0.704 -0.032093015 1.2179213e-38 365 266
0.056779943 0.704 -0.032093015 1.2637306e-38 366 266
0.058179103 0.70599997 -0.032184184 1.4204633e-38 367 266
0.059416957 0.70599997 -0.032184184 1.6228246e-38 368 266
-0.035003547 0.713 -0.033753417 1.4383967e-38 292 267
-0.033658739 0.71100003 -0.033658739 1.180249e-38 293 267
-0.032366529 0.70999998 -0.033611398 1.3003549e-38 294 267
-0.031121666 0.70999998 -0.033611398 1.3371973e-38 295 267
-0.02979264 0.708 -0.033516716 1.3739317e-38 296 267
-0.02855128 0.708 -0.033516716 1.3923708e-38 297 267
-0.027271347 0.70700002 -0.033469379 1.3924427e-38 298 267
-0.025994917 0.70599997 -0.033422034 1.4109178e-38 299 267
-0.024651866 0.70300001 -0.033280019 1.4201737e-38 300 267
-0.023419274 0.70300001 -0.033280019 1.4201737e-38 301 267
-0.022123558 0.70099998 -0.03318534 1.420174e-38 302 267
-0.020805053 0.69800001 -0.033043321 1.420174e-38 303 267
-0.019581227 0.69800001 -0.033043321 1.4201742e-38 304 267
-0.018331099 0.69700003 -0.03299598 1.4201742e-38 305 267
-0.017109027 0.69700003 -0.03299598 1.3742566e-38 306 267
-0.015864158 0.69599998 -0.032948639 1.3742566e-38 307 267
-0.014643839 0.69599998 -0.032948639 1.3742929e-38 308 267
-0.01336566 0.69300002 -0.03280662 1.3742929e-38 309 267
-0.012150601 0.69300002 -0.03280662 1.3650734e-38 310 267
-0.01090398 0.69099998 -0.032711938 1.3466341e-38 311 267
-0.0096924258 0.69099998 -0.032711938 1.3189758e-38 312 267
-0.008480873 0.69099998 -0.032711938 1.3097563e-38 313 267
-0.0072693196 0.69099998 -0.032711938 1.282242e-38 314 267
-0.0060577663 0.69099998 -0.032711938 1.282242e-38 315 267
-0.0048462129 0.69099998 -0.032711938 1.2638752e-38 316 267
-0.0036293997 0.69 -0.032664597 1.2730948e-38 317 267
-0.0024125867 0.68800002 -0.032569919 1.2914616e-38 318 267
-0.0012045399 0.68699998 -0.032522578 1.2914616e-38 319 267
0 0.68699998 -0.032522578 1.2914613e-38 320 267
0.0012045399 0.68699998 -0.032522578 1.2914613e-38 321 267
0.0024090798 0.68699998 -0.032522578 1.3098281e-38 322 267
0.00360836 0.68599999 -0.032475237 1.3190477e-38 323 267
0.0048111463 0.68599999 -0.032475237 1.3007165e-38 324 267
0.0060139326 0.68599999 -0.032475237 1.3007165e-38 325 267
0.0071956799 0.68400002 -0.032380559 1.2914613e-38 326 267
0.0083949603 0.68400002 -0.032380559 1.2914613e-38 327 267
0.0096222926 0.68599999 -0.032475237 1.3097928e-38 328 267
0.010825079 0.68599999 -0.032475237 1.3190124e-38 329 267
0.012027865 0.68599999 -0.032475237 1.3190124e-38 330 267
0.013230653 0.68599999 -0.032475237 1.3190124e-38 331 267
0.01443344 0.68599999 -0.032475237 1.3190127e-38 332 267
0.015636226 0.68599999 -0.032475237 1.3190127e-38 333 267
0.016839013 0.68599999 -0.032475237 1.3097931e-38 334 267
0.018041799 0.68599999 -0.032475237 1.2913541e-38 335 267
0.019244585 0.68599999 -0.032475237 1.2822067e-38 336 267
0.020387759 0.68400002 -0.032380559 1.2729872e-38 337 267
0.02158704 0.68400002 -0.032380559 1.2454005e-38 338 267
0.022786319 0.68400002 -0.032380559 1.2730951e-38 339 267
0.0239856 0.68400002 -0.032380559 1.1992657e-38 340 267
0.025184879 0.68400002 -0.032380559 3.7872459e-39 341 267
0.02638416 0.68400002 -0.032380559 6.504309e-40 342 267
0.027664091 0.68599999 -0.032475237 1.2958003e-39 343 267
0.028908957 0.68699998 -0.032522578 1.9393704e-39 344 267
0.030113498 0.68699998 -0.032522578 1.7549792e-39 345 267
0.031318039 0.68699998 -0.032522578 1.4798314e-39 346 267
0.032569919 0.68800002 -0.032569919 1.2958003e-39 347 267
0.033776212 0.68800002 -0.032569919 1.2958003e-39 348 267
0.03498251 0.68800002 -0.032569919 1.2958003e-39 349 267
0.0361888 0.68800002 -0.032569919 1.2961562e-39 350 267
0.037503798 0.69 -0.032664597 1.2961562e-39 351 267
0.038713597 0.69 -0.032664597 1.4791028e-39 352 267
0.039981257 0.69099998 -0.032711938 1.4791028e-39 353 267
0.041192811 0.69099998 -0.032711938 1.3872729e-39 354 267
0.042404365 0.69099998 -0.032711938 1.4794685e-39 355 267
0.043742158 0.69300002 -0.03280662 1.7539072e-39 356 267
0.044957221 0.69300002 -0.03280662 2.1223296e-39 357 267
0.046372157 0.69599998 -0.032948639 2.558771e-42 358 267
0.047660861 0.69700003 -0.03299598 1.1089063e-39 359 267
0.048953064 0.69800001 -0.033043321 1.1251865e-38 360 267
0.050320663 0.69999999 -0.033137999 1.2450768e-38 361 267
0.051621638 0.70099998 -0.03318534 1.2085934e-38 362 267
0.053001512 0.70300001 -0.033280019 1.2085934e-38 363 267
0.054311249 0.704 -0.03332736 1.226961e-38 364 267
0.055545598 0.704 -0.03332736 1.2362165e-38 365 267
0.056779943 0.704 -0.03332736 1.2820618e-38 366 267
0.058179103 0.70599997 -0.033422034 1.429575e-38 367 267
0.059416957 0.70599997 -0.033422034 1.6227892e-38 368 267
-0.035003547 0.713 -0.035003547 1.5856572e-38 292 268
-0.033658739 0.71100003 -0.034905359 1.2998509e-38 293 268
-0.032366529 0.70999998 -0.034856264 1.3462004e-38 294 268
-0.031121666 0.70999998 -0.034856264 1.3738951e-38 295 268
-0.02979264 0.708 -0.034758076 1.3555648e-38 296 268
-0.02855128 0.708 -0.034758076 1.3832234e-38 297 268
-0.027232772 0.70599997 -0.034659892 1.3648566e-38 298 268
-0.02592128 0.704 -0.034561705 1.3832957e-38 299 268
-0.024651866 0.70300001 -0.034512613 1.3833677e-38 300 268
-0.023419274 0.70300001 -0.034512613 1.4018427e-38 301 268
-0.022123558 0.70099998 -0.034414422 1.4018427e-38 302 268
-0.020805053 0.69800001 -0.034267146 1.4018427e-38 303 268
-0.019581227 0.69800001 -0.034267146 1.4109188e-38 304 268
-0.018331099 0.69700003 -0.034218054 1.4201742e-38 305 268
-0.017109027 0.69700003 -0.034218054 1.4018074e-38 306 268
-0.015864158 0.69599998 -0.034168959 1.3925879e-38 307 268
-0.01460176 0.69400001 -0.034070771 1.3650734e-38 308 268
-0.01336566 0.69300002 -0.034021679 1.3742929e-38 309 268
-0.012150601 0.69300002 -0.034021679 1.3375226e-38 310 268
-0.010935539 0.69300002 -0.034021679 1.3283029e-38 311 268
-0.0096924258 0.69099998 -0.033923492 1.3281954e-38 312 268
-0.008480873 0.69099998 -0.033923492 1.3189758e-38 313 268
-0.0072693196 0.69099998 -0.033923492 1.2914616e-38 314 268
-0.0060577663 0.69099998 -0.033923492 1.282242e-38 315 268
-0.0048462129 0.69099998 -0.033923492 1.2638749e-38 316 268
-0.0036346598 0.69099998 -0.033923492 1.2638749e-38 317 268
-0.0024195998 0.69 -0.0338744 1.2638749e-38 318 268
-0.0012062934 0.68800002 -0.033776212 1.2731304e-38 319 268
0 0.68800002 -0.033776212 1.2731304e-38 320 268
0.0012062934 0.68800002 -0.033776212 1.2731304e-38 321 268
0.0024090798 0.68699998 -0.033727121 1.2731301e-38 322 268
0.00360836 0.68599999 -0.033678025 1.2731301e-38 323 268
0.0048111463 0.68599999 -0.033678025 1.2731304e-38 324 268
0.0060139326 0.68599999 -0.033678025 1.2638749e-38 325 268
0.0071956799 0.68400002 -0.033579841 1.2638749e-38 326 268
0.0083949603 0.68400002 -0.033579841 1.2731304e-38 327 268
0.0096222926 0.68599999 -0.033678025 1.2638749e-38 328 268
0.010825079 0.68599999 -0.033678025 1.2731304e-38 329 268
0.012027865 0.68599999 -0.033678025 1.291426e-38 330 268
0.013230653 0.68599999 -0.033678025 1.291426e-38 331 268
0.01443344 0.68599999 -0.033678025 1.2822067e-38 332 268
0.015636226 0.68599999 -0.033678025 1.2822067e-38 333 268
0.016839013 0.68599999 -0.033678025 1.254692e-38 334 268
0.018041799 0.68599999 -0.033678025 1.254692e-38 335 268
0.019244585 0.68599999 -0.033678025 1.2362888e-38 336 268
0.020387759 0.68400002 -0.033579841 1.2178497e-38 337 268
0.02158704 0.68400002 -0.033579841 1.2362165e-38 338 268
0.022786319 0.68400002 -0.033579841 1.2638752e-38 339 268
0.0239856 0.68400002 -0.033579841 1.1993736e-38 340 268
0.025184879 0.68400002 -0.033579841 5.5400419e-39 341 268
0.02638416 0.68400002 -0.033579841 1.6645786e-39 342 268
0.027664091 0.68599999 -0.033678025 1.4801874e-39 343 268
0.02886688 0.68599999 -0.033678025 2.3074313e-39 344 268
0.030113498 0.68699998 -0.033727121 1.8464532e-39 345 268
0.031318039 0.68699998 -0.033727121 1.4791154e-39 346 268
0.032522578 0.68699998 -0.033727121 1.4791154e-39 347 268
0.033776212 0.68800002 -0.033776212 1.6624276e-39 348 268
0.03498251 0.68800002 -0.033776212 1.6624276e-39 349 268
0.036293998 0.69 -0.0338744 1.3869169e-39 350 268
0.037503798 0.69 -0.0338744 1.4791126e-39 351 268
0.038713597 0.69 -0.0338744 1.3869169e-39 352 268
0.039981257 0.69099998 -0.033923492 1.3869169e-39 353 268
0.041192811 0.69099998 -0.033923492 1.4783937e-39 354 268
0.042404365 0.69099998 -0.033923492 1.4783937e-39 355 268
0.043742158 0.69300002 -0.034021679 1.7539072e-39 356 268
0.045022093 0.69400001 -0.034070771 1.7539072e-39 357 268
0.046372157 0.69599998 -0.034168959 8.3339564e-40 358 268
0.047660861 0.69700003 -0.034218054 3.3226776e-39 359 268
0.048953064 0.69800001 -0.034267146 1.2542241e-38 360 268
0.050320663 0.69999999 -0.034365334 1.3002859e-38 361 268
0.051621638 0.70099998 -0.034414422 1.180971e-38 362 268
0.053001512 0.70300001 -0.034512613 1.180971e-38 363 268
0.054311249 0.704 -0.034561705 1.1810434e-38 364 268
0.055545598 0.704 -0.034561705 1.1810434e-38 365 268
0.056779943 0.704 -0.034561705 1.2269247e-38 366 268
0.058179103 0.70599997 -0.034659892 1.3836574e-38 367 268
0.059416957 0.70599997 -0.034659892 1.604458e-38 368 268
-0.034905359 0.71100003 -0.036151983 1.6778166e-38 292 269
-0.033658739 0.71100003 -0.036151983 1.4565112e-38 293 269
-0.032366529 0.70999998 -0.036101133 1.3829344e-38 294 269
-0.031121666 0.70999998 -0.036101133 1.4013736e-38 295 269
-0.02979264 0.708 -0.03599944 1.3647121e-38 296 269
-0.028510952 0.70700002 -0.035948593 1.3831512e-38 297 269
-0.027232772 0.70599997 -0.035897743 1.3648566e-38 298 269
-0.02592128 0.704 -0.035796054 1.3740761e-38 299 269
-0.024651866 0.70300001 -0.035745207 1.3741483e-38 300 269
-0.023352645 0.70099998 -0.035643511 1.383368e-38 301 269
-0.022123558 0.70099998 -0.035643511 1.3833677e-38 302 269
-0.020805053 0.69800001 -0.035490975 1.3926232e-38 303 269
-0.019581227 0.69800001 -0.035490975 1.392516e-38 304 269
-0.018331099 0.69700003 -0.035440128 1.4109191e-38 305 269
-0.017109027 0.69700003 -0.035440128 1.3925523e-38 306 269
-0.015864158 0.69599998 -0.035389278 1.4018077e-38 307 269
-0.01460176 0.69400001 -0.035287585 1.3650734e-38 308 269
-0.013384946 0.69400001 -0.035287585 1.3650734e-38 309 269
-0.012150601 0.69300002 -0.035236739 1.3375226e-38 310 269
-0.010935539 0.69300002 -0.035236739 1.3283029e-38 311 269
-0.0096924258 0.69099998 -0.035135046 1.3098281e-38 312 269
-0.008480873 0.69099998 -0.035135046 1.3098281e-38 313 269
-0.0072693196 0.69099998 -0.035135046 1.2914613e-38 314 269
-0.0060577663 0.69099998 -0.035135046 1.2822418e-38 315 269
-0.0048462129 0.69099998 -0.035135046 1.2547273e-38 316 269
-0.0036346598 0.69099998 -0.035135046 1.2547273e-38 317 269
-0.0024195998 0.69 -0.035084199 1.2639105e-38 318 269
-0.0012097999 0.69 -0.035084199 1.2731301e-38 319 269
0 0.68800002 -0.03498251 1.2822418e-38 320 269
0.0012062934 0.68800002 -0.03498251 1.2822418e-38 321 269
0.0024090798 0.68699998 -0.034931656 1.2822418e-38 322 269
0.00360836 0.68599999 -0.034880809 1.2822418e-38 323 269
0.0048111463 0.68599999 -0.034880809 1.2639105e-38 324 269
0.0060139326 0.68599999 -0.034880809 1.2639105e-38 325 269
0.0072167199 0.68599999 -0.034880809 1.2638749e-38 326 269
0.0084195063 0.68599999 -0.034880809 1.2638749e-38 327 269
0.0096363192 0.68699998 -0.034931656 1.2638749e-38 328 269
0.010825079 0.68599999 -0.034880809 1.2638749e-38 329 269
0.012027865 0.68599999 -0.034880809 1.2822065e-38 330 269
0.013249939 0.68699998 -0.034931656 1.2822065e-38 331 269
0.01443344 0.68599999 -0.034880809 1.2822067e-38 332 269
0.015636226 0.68599999 -0.034880809 1.2729872e-38 333 269
0.01686356 0.68699998 -0.034931656 1.2546559e-38 334 269
0.018041799 0.68599999 -0.034880809 1.2546559e-38 335 269
0.019244585 0.68599999 -0.034880809 1.2270693e-38 336 269
0.020447372 0.68599999 -0.034880809 1.2178497e-38 337 269
0.021650158 0.68599999 -0.034880809 1.2085944e-38 338 269
0.022786319 0.68400002 -0.03477912 1.2546922e-38 339 269
0.0239856 0.68400002 -0.03477912 1.2085578e-38 340 269
0.025184879 0.68400002 -0.03477912 7.0144587e-39 341 269
0.02638416 0.68400002 -0.03477912 3.0471599e-39 342 269
0.027664091 0.68599999 -0.034880809 1.1110517e-39 343 269
0.02886688 0.68599999 -0.034880809 1.9393733e-39 344 269
0.030113498 0.68699998 -0.034931656 1.7546233e-39 345 269
0.031318039 0.68699998 -0.034931656 1.2958003e-39 346 269
0.032522578 0.68699998 -0.034931656 1.2958003e-39 347 269
0.033776212 0.68800002 -0.03498251 1.4791126e-39 348 269
0.03498251 0.68800002 -0.03498251 1.3869169e-39 349 269
0.036293998 0.69 -0.035084199 1.2036047e-39 350 269
0.037503798 0.69 -0.035084199 1.2036047e-39 351 269
0.038769703 0.69099998 -0.035135046 1.3869169e-39 352 269
0.039981257 0.69099998 -0.035135046 1.3869169e-39 353 269
0.041192811 0.69099998 -0.035135046 1.3872729e-39 354 269
0.042404365 0.69099998 -0.035135046 1.4794685e-39 355 269
0.043742158 0.69300002 -0.035236739 1.4787468e-39 356 269
0.045022093 0.69400001 -0.035287585 1.1099629e-39 357 269
0.046372157 0.69599998 -0.035389278 2.5847371e-39 358 269
0.047660861 0.69700003 -0.035440128 6.4569535e-39 359 269
0.048953064 0.69800001 -0.035490975 1.3003212e-38 360 269
0.050320663 0.69999999 -0.035592664 1.2726985e-38 361 269
0.051621638 0.70099998 -0.035643511 1.1533844e-38 362 269
0.053001512 0.70300001 -0.035745207 1.1626398e-38 363 269
0.054311249 0.704 -0.035796054 1.1718238e-38 364 269
0.055545598 0.704 -0.035796054 1.1810434e-38 365 269
0.056779943 0.704 -0.035796054 1.2084855e-38 366 269
0.058179103 0.70599997 -0.035897743 1.3652181e-38 367 269
0.059416957 0.70599997 -0.035897743 1.5861265e-38 368 269
-0.034905359 0.71100003 -0.037398599 1.7238785e-38 292 270
-0.033658739 0.71100003 -0.037398599 1.5118285e-38 293 270
-0.032366529 0.70999998 -0.037345998 1.3369089e-38 294 270
-0.031121666 0.70999998 -0.037345998 1.3830066e-38 295 270
-0.02979264 0.708 -0.0372408 1.3554568e-38 296 270
-0.028510952 0.70700002 -0.037188202 1.3739319e-38 297 270
-0.027232772 0.70599997 -0.037135597 1.355637e-38 298 270
-0.02592128 0.704 -0.037030395 1.3648566e-38 299 270
-0.024651866 0.70300001 -0.036977798 1.3649285e-38 300 270
-0.023352645 0.70099998 -0.036872596 1.3649285e-38 301 270
-0.022091998 0.69999999 -0.036819998 1.3558168e-38 302 270
-0.020805053 0.69800001 -0.0367148 1.3558168e-38 303 270
-0.019581227 0.69800001 -0.0367148 1.3832963e-38 304 270
-0.018331099 0.69700003 -0.036662199 1.3832963e-38 305 270
-0.017109027 0.69700003 -0.036662199 1.3833327e-38 306 270
-0.015864158 0.69599998 -0.036609598 1.3833327e-38 307 270
-0.014643839 0.69599998 -0.036609598 1.3557818e-38 308 270
-0.013384946 0.69400001 -0.036504399 1.3650015e-38 309 270
-0.012150601 0.69300002 -0.036451802 1.3558538e-38 310 270
-0.010935539 0.69300002 -0.036451802 1.3466341e-38 311 270
-0.0096924258 0.69099998 -0.036346599 1.3281954e-38 312 270
-0.008480873 0.69099998 -0.036346599 1.3189758e-38 313 270
-0.0072693196 0.69099998 -0.036346599 1.3097926e-38 314 270
-0.0060577663 0.69099998 -0.036346599 1.2913894e-38 315 270
-0.0048462129 0.69099998 -0.036346599 1.282242e-38 316 270
-0.0036346598 0.69099998 -0.036346599 1.2729866e-38 317 270
-0.0024195998 0.69 -0.036293998 1.2546554e-38 318 270
-0.0012097999 0.69 -0.036293998 1.2546554e-38 319 270
0 0.68800002 -0.0361888 1.2729866e-38 320 270
0.0012045399 0.68699998 -0.036136195 1.2729866e-38 321 270
0.0024055731 0.68599999 -0.036083598 1.2637673e-38 322 270
0.00360836 0.68599999 -0.036083598 1.2729869e-38 323 270
0.0048111463 0.68599999 -0.036083598 1.2363244e-38 324 270
0.0060139326 0.68599999 -0.036083598 1.2363244e-38 325 270
0.0072167199 0.68599999 -0.036083598 1.2546557e-38 326 270
0.0084195063 0.68599999 -0.036083598 1.2454361e-38 327 270
0.0096363192 0.68699998 -0.036136195 1.2546559e-38 328 270
0.010840859 0.68699998 -0.036136195 1.2546559e-38 329 270
0.012045399 0.68699998 -0.036136195 1.2362891e-38 330 270
0.013249939 0.68699998 -0.036136195 1.2362891e-38 331 270
0.014454478 0.68699998 -0.036136195 1.2362891e-38 332 270
0.015659019 0.68699998 -0.036136195 1.2362891e-38 333 270
0.01686356 0.68699998 -0.036136195 1.2454005e-38 334 270
0.018041799 0.68599999 -0.036083598 1.2361809e-38 335 270
0.019244585 0.68599999 -0.036083598 1.1903708e-38 336 270
0.020447372 0.68599999 -0.036083598 1.1811152e-38 337 270
0.021650158 0.68599999 -0.036083598 1.1902632e-38 338 270
0.022852944 0.68599999 -0.036083598 1.2271414e-38 339 270
0.0239856 0.68400002 -0.035978399 1.1810787e-38 340 270
0.025184879 0.68400002 -0.035978399 7.6619833e-39 341 270
0.026461305 0.68599999 -0.036083598 3.9701952e-39 342 270
0.027664091 0.68599999 -0.036083598 7.433482e-40 343 270
0.028908957 0.68699998 -0.036136195 1.3887176e-39 344 270
0.030113498 0.68699998 -0.036136195 1.3887176e-39 345 270
0.031318039 0.68699998 -0.036136195 1.2043235e-39 346 270
0.032522578 0.68699998 -0.036136195 1.1121279e-39 347 270
0.033727121 0.68699998 -0.036136195 1.2036047e-39 348 270
0.03498251 0.68800002 -0.0361888 1.1114076e-39 349 270
0.036293998 0.69 -0.036293998 1.0199309e-39 350 270
0.03755815 0.69099998 -0.036346599 1.0199309e-39 351 270
0.03888192 0.69300002 -0.036451802 1.1114048e-39 352 270
0.039981257 0.69099998 -0.036346599 1.1114048e-39 353 270
0.041192811 0.69099998 -0.036346599 1.1114048e-39 354 270
0.042527102 0.69300002 -0.036451802 1.2961562e-39 355 270
0.043805279 0.69400001 -0.036504399 8.3481795e-40 356 270
0.045022093 0.69400001 -0.036504399 4.6985538e-42 357 270
0.046372157 0.69599998 -0.036609598 4.9829024e-39 358 270
0.047660861 0.69700003 -0.036662199 9.03915e-39 359 270
0.048953064 0.69800001 -0.0367148 1.2451837e-38 360 270
0.050320663 0.69999999 -0.036819998 1.2267446e-38 361 270
0.051621638 0.70099998 -0.036872596 1.1441651e-38 362 270
0.053001512 0.70300001 -0.036977798 1.1626042e-38 363 270
0.054234106 0.70300001 -0.036977798 1.1626042e-38 364 270
0.055545598 0.704 -0.037030395 1.1718238e-38 365 270
0.056779943 0.704 -0.037030395 1.2084855e-38 366 270
0.058179103 0.70599997 -0.037135597 1.346779e-38 367 270
0.059416957 0.70599997 -0.037135597 1.5586476e-38 368 270
-0.034905359 0.71100003 -0.038645219 1.7608646e-38 292 271
-0.033658739 0.71100003 -0.038645219 1.52112e-38 293 271
-0.032366529 0.70999998 -0.038590867 1.3184341e-38 294 271
-0.031121666 0.70999998 -0.038590867 1.382971e-38 295 271
-0.02979264 0.708 -0.038482159 1.3646765e-38 296 271
-0.028510952 0.70700002 -0.038427804 1.3646765e-38 297 271
-0.027232772 0.70599997 -0.038373452 1.3555654e-38 298 271
-0.02592128 0.704 -0.038264744 1.3555654e-38 299 271
-0.024651866 0.70300001 -0.038210396 1.3372702e-38 300 271
-0.023352645 0.70099998 -0.038101684 1.3649287e-38 301 271
-0.022091998 0.69999999 -0.038047329 1.3649287e-38 302 271
-0.020805053 0.69800001 -0.037938625 1.3649287e-38 303 271
-0.019581227 0.69800001 -0.037938625 1.3648932e-38 304 271
-0.018331099 0.69700003 -0.037884273 1.3648932e-38 305 271
-0.017109027 0.69700003 -0.037884273 1.3557462e-38 306 271
-0.015886955 0.69700003 -0.037884273 1.3557462e-38 307 271
-0.014643839 0.69599998 -0.037829921 1.3465266e-38 308 271
-0.01336566 0.69300002 -0.037666857 1.3557462e-38 309 271
-0.012150601 0.69300002 -0.037666857 1.3465985e-38 310 271
-0.010935539 0.69300002 -0.037666857 1.3281954e-38 311 271
-0.0096924258 0.69099998 -0.03755815 1.3281954e-38 312 271
-0.008480873 0.69099998 -0.03755815 1.3097563e-38 313 271
-0.0072693196 0.69099998 -0.03755815 1.282242e-38 314 271
-0.0060577663 0.69099998 -0.03755815 1.2729866e-38 315 271
-0.0048462129 0.69099998 -0.03755815 1.2546554e-38 316 271
-0.0036346598 0.69099998 -0.03755815 1.2546554e-38 317 271
-0.0024195998 0.69 -0.037503798 1.263767e-38 318 271
-0.0012062934 0.68800002 -0.037395094 1.263767e-38 319 271
0 0.68800002 -0.037395094 1.2454361e-38 320 271
0.0012045399 0.68699998 -0.037340738 1.2362165e-38 321 271
0.0024055731 0.68599999 -0.037286382 1.2361809e-38 322 271
0.00360836 0.68599999 -0.037286382 1.2454005e-38 323 271
0.0048111463 0.68599999 -0.037286382 1.2179216e-38 324 271
0.0060139326 0.68599999 -0.037286382 1.2179216e-38 325 271
0.0072167199 0.68599999 -0.037286382 1.2270693e-38 326 271
0.0084195063 0.68599999 -0.037286382 1.2178497e-38 327 271
0.0096363192 0.68699998 -0.037340738 1.2270696e-38 328 271
0.010840859 0.68699998 -0.037340738 1.2270696e-38 329 271
0.012045399 0.68699998 -0.037340738 1.2271414e-38 330 271
0.013249939 0.68699998 -0.037340738 1.2271414e-38 331 271
0.014454478 0.68699998 -0.037340738 1.2546559e-38 332 271
0.015659019 0.68699998 -0.037340738 1.2546559e-38 333 271
0.01686356 0.68699998 -0.037340738 1.2271049e-38 334 271
0.018068098 0.68699998 -0.037340738 1.2271049e-38 335 271
0.019244585 0.68599999 -0.037286382 1.1903708e-38 336 271
0.020447372 0.68599999 -0.037286382 1.1811152e-38 337 271
0.021650158 0.68599999 -0.037286382 1.1902632e-38 338 271
0.022852944 0.68599999 -0.037286382 1.2179219e-38 339 271
0.024055731 0.68599999 -0.037286382 1.1810789e-38 340 271
0.025258519 0.68599999 -0.037286382 8.5839424e-39 341 271
0.026461305 0.68599999 -0.037286382 4.4329713e-39 342 271
0.027704418 0.68699998 -0.037340738 7.5810247e-42 343 271
0.028908957 0.68699998 -0.037340738 1.4798314e-39 344 271
0.030113498 0.68699998 -0.037340738 1.5723858e-39 345 271
0.031318039 0.68699998 -0.037340738 1.2961562e-39 346 271
0.032522578 0.68699998 -0.037340738 1.2961562e-39 347 271
0.033727121 0.68699998 -0.037340738 1.1121251e-39 348 271
0.03498251 0.68800002 -0.037395094 1.1121251e-39 349 271
0.036293998 0.69 -0.037503798 1.1114048e-39 350 271
0.03755815 0.69099998 -0.03755815 1.1114048e-39 351 271
0.03888192 0.69300002 -0.037666857 1.3865526e-39 352 271
0.04009698 0.69300002 -0.037666857 1.3865526e-39 353 271
0.041312039 0.69300002 -0.037666857 1.2947227e-39 354 271
0.042527102 0.69300002 -0.037666857 1.3869197e-39 355 271
0.043805279 0.69400001 -0.037721213 9.7978789e-41 356 271
0.045022093 0.69400001 -0.037721213 3.6223565e-42 357 271
0.046438783 0.69700003 -0.037884273 7.6529814e-39 358 271
0.047660861 0.69700003 -0.037884273 1.1617393e-38 359 271
0.048953064 0.69800001 -0.037938625 1.1992657e-38 360 271
0.050320663 0.69999999 -0.038047329 1.171607e-38 361 271
0.051621638 0.70099998 -0.038101684 1.1258339e-38 362 271
0.052850723 0.70099998 -0.038101684 1.1350534e-38 363 271
0.054234106 0.70300001 -0.038210396 1.1626398e-38 364 271
0.055545598 0.704 -0.038264744 1.1718594e-38 365 271
0.056779943 0.704 -0.038264744 1.2085932e-38 366 271
0.058179103 0.70599997 -0.038373452 1.3284475e-38 367 271
0.059416957 0.70599997 -0.038373452 1.5769791e-38 368 271
-0.034905359 0.71100003 -0.039891839 1.8252935e-38 292 272
-0.033658739 0.71100003 -0.039891839 1.5763655e-38 293 272
-0.032366529 0.70999998 -0.039835732 1.3183978e-38 294 272
-0.031121666 0.70999998 -0.039835732 1.3829347e-38 295 272
-0.02979264 0.708 -0.039723519 1.3646401e-38 296 272
-0.028510952 0.70700002 -0.039667413 1.3646401e-38 297 272
-0.027232772 0.70599997 -0.039611302 1.3463453e-38 298 272
-0.02592128 0.704 -0.039499093 1.3555648e-38 299 272
-0.024651866 0.70300001 -0.039442986 1.3373055e-38 300 272
-0.023352645 0.70099998 -0.039330769 1.3373055e-38 301 272
-0.022091998 0.69999999 -0.039274666 1.3649285e-38 302 272
-0.020805053 0.69800001 -0.039162453 1.3465254e-38 303 272
-0.019581227 0.69800001 -0.039162453 1.34649e-38 304 272
-0.018331099 0.69700003 -0.039106347 1.3648932e-38 305 272
-0.017109027 0.69700003 -0.039106347 1.3465622e-38 306 272
-0.015886955 0.69700003 -0.039106347 1.3465622e-38 307 272
-0.014643839 0.69599998 -0.039050236 1.337307e-38 308 272
-0.01336566 0.69300002 -0.03888192 1.337307e-38 309 272
-0.012150601 0.69300002 -0.03888192 1.3465266e-38 310 272
-0.010935539 0.69300002 -0.03888192 1.3465266e-38 311 272
-0.0096924258 0.69099998 -0.038769703 1.2913894e-38 312 272
-0.008480873 0.69099998 -0.038769703 1.2821699e-38 313 272
-0.0072693196 0.69099998 -0.038769703 1.2821702e-38 314 272
-0.0060577663 0.69099998 -0.038769703 1.2821702e-38 315 272
-0.0048462129 0.69099998 -0.038769703 1.263767e-38 316 272
-0.0036346598 0.69099998 -0.038769703 1.263767e-38 317 272
-0.0024195998 0.69 -0.038713597 1.272915e-38 318 272
-0.0012062934 0.68800002 -0.038601387 1.2636954e-38 319 272
0 0.68800002 -0.038601387 1.2362163e-38 320 272
0.0012045399 0.68699998 -0.038545277 1.2362163e-38 321 272
0.0024055731 0.68599999 -0.03848917 1.226961e-38 322 272
0.00360836 0.68599999 -0.03848917 1.2085578e-38 323 272
0.0048111463 0.68599999 -0.03848917 1.2269612e-38 324 272
0.0060139326 0.68599999 -0.03848917 1.2269612e-38 325 272
0.0072167199 0.68599999 -0.03848917 1.208702e-38 326 272
0.0084195063 0.68599999 -0.03848917 1.208702e-38 327 272
0.0096363192 0.68699998 -0.038545277 1.2361809e-38 328 272
0.010840859 0.68699998 -0.038545277 1.2361809e-38 329 272
0.012045399 0.68699998 -0.038545277 1.2363244e-38 330 272
0.013249939 0.68699998 -0.038545277 1.2271049e-38 331 272
0.014454478 0.68699998 -0.038545277 1.2546557e-38 332 272
0.015659019 0.68699998 -0.038545277 1.2454361e-38 333 272
0.01686356 0.68699998 -0.038545277 1.2271049e-38 334 272
0.018068098 0.68699998 -0.038545277 1.2178494e-38 335 272
0.019272638 0.68699998 -0.038545277 1.2087018e-38 336 272
0.020477179 0.68699998 -0.038545277 1.1902985e-38 337 272
0.021681719 0.68699998 -0.038545277 1.1902988e-38 338 272
0.022886258 0.68699998 -0.038545277 1.2179216e-38 339 272
0.024055731 0.68599999 -0.03848917 1.2087374e-38 340 272
0.025258519 0.68599999 -0.03848917 9.229309e-39 341 272
0.026461305 0.68599999 -0.03848917 4.0659656e-39 342 272
0.027704418 0.68699998 -0.038545277 2.5153307e-42 343 272
0.028908957 0.68699998 -0.038545277 8.2788713e-42 344 272
0.030113498 0.68699998 -0.038545277 1.0335417e-40 345 272
0.031318039 0.68699998 -0.038545277 5.60752e-40 346 272
0.032569919 0.68800002 -0.038601387 9.2953452e-40 347 272
0.033776212 0.68800002 -0.038601387 1.0210085e-39 348 272
0.03498251 0.68800002 -0.038601387 1.0210085e-39 349 272
0.036293998 0.69 -0.038713597 1.1121279e-39 350 272
0.03755815 0.69099998 -0.038769703 1.1121279e-39 351 272
0.03888192 0.69300002 -0.03888192 1.3869169e-39 352 272
0.04009698 0.69300002 -0.03888192 1.3869169e-39 353 272
0.041312039 0.69300002 -0.03888192 1.2947199e-39 354 272
0.042588469 0.69400001 -0.038938027 9.2629752e-40 355 272
0.043805279 0.69400001 -0.038938027 1.8909262e-40 356 272
0.045022093 0.69400001 -0.038938027 1.7567771e-39 357 272
0.046438783 0.69700003 -0.039106347 1.0050791e-38 358 272
0.047729239 0.69800001 -0.039162453 1.3093247e-38 359 272
0.049093332 0.69999999 -0.039274666 1.180971e-38 360 272
0.050320663 0.69999999 -0.039274666 1.1440928e-38 361 272
0.051621638 0.70099998 -0.039330769 1.1441651e-38 362 272
0.052850723 0.70099998 -0.039330769 1.1533847e-38 363 272
0.054234106 0.70300001 -0.039442986 1.180971e-38 364 272
0.055545598 0.704 -0.039499093 1.1901906e-38 365 272
0.056779943 0.704 -0.039499093 1.2269963e-38 366 272
0.058179103 0.70599997 -0.039611302 1.3560702e-38 367 272
0.059416957 0.70599997 -0.039611302 1.6137129e-38 368 272
-0.034905359 0.71100003 -0.041138459 1.8713192e-38 292 273
-0.033658739 0.71100003 -0.041138459 1.6684888e-38 293 273
-0.032366529 0.70999998 -0.041080594 1.3459123e-38 294 273
-0.031121666 0.70999998 -0.041080594 1.4288523e-38 295 273
-0.02979264 0.708 -0.040964879 1.392191e-38 296 273
-0.028510952 0.70700002 -0.040907022 1.392191e-38 297 273
-0.027232772 0.70599997 -0.040849157 1.34631e-38 298 273
-0.02592128 0.704 -0.040733438 1.34631e-38 299 273
-0.024651866 0.70300001 -0.040675577 1.3280509e-38 300 273
-0.023352645 0.70099998 -0.040559858 1.3372705e-38 301 273
-0.022091998 0.69999999 -0.040502001 1.3373424e-38 302 273
-0.020805053 0.69800001 -0.040386278 1.3373424e-38 303 273
-0.019581227 0.69800001 -0.040386278 1.3373426e-38 304 273
-0.018331099 0.69700003 -0.040328421 1.3373426e-38 305 273
-0.017109027 0.69700003 -0.040328421 1.3189758e-38 306 273
-0.015886955 0.69700003 -0.040328421 1.3189758e-38 307 273
-0.014643839 0.69599998 -0.040270556 1.3097207e-38 308 273
-0.01336566 0.69300002 -0.04009698 1.3097207e-38 309 273
-0.012150601 0.69300002 -0.04009698 1.2913897e-38 310 273
-0.010935539 0.69300002 -0.04009698 1.2913897e-38 311 273
-0.0096924258 0.69099998 -0.039981257 1.282242e-38 312 273
-0.008480873 0.69099998 -0.039981257 1.263767e-38 313 273
-0.0072693196 0.69099998 -0.039981257 1.2729869e-38 314 273
-0.0060577663 0.69099998 -0.039981257 1.2637673e-38 315 273
-0.0048462129 0.69099998 -0.039981257 1.2454361e-38 316 273
-0.0036346598 0.69099998 -0.039981257 1.2362165e-38 317 273
-0.0024195998 0.69 -0.0399234 1.226961e-38 318 273
-0.0012062934 0.68800002 -0.039807681 1.2362165e-38 319 273
0 0.68800002 -0.039807681 1.1994105e-38 320 273
0.0012045399 0.68699998 -0.039749816 1.1994105e-38 321 273
0.0024090798 0.68699998 -0.039749816 1.1901553e-38 322 273
0.00360836 0.68599999 -0.039691959 1.1901553e-38 323 273
0.0048111463 0.68599999 -0.039691959 1.1718244e-38 324 273
0.0060139326 0.68599999 -0.039691959 1.1810439e-38 325 273
0.0072167199 0.68599999 -0.039691959 1.1810436e-38 326 273
0.0084195063 0.68599999 -0.039691959 1.1902632e-38 327 273
0.0096363192 0.68699998 -0.039749816 1.1902988e-38 328 273
0.010840859 0.68699998 -0.039749816 1.1902988e-38 329 273
0.012045399 0.68699998 -0.039749816 1.2179216e-38 330 273
0.013249939 0.68699998 -0.039749816 1.2179216e-38 331 273
0.014454478 0.68699998 -0.039749816 1.2179216e-38 332 273
0.015659019 0.68699998 -0.039749816 1.2179216e-38 333 273
0.01686356 0.68699998 -0.039749816 1.208702e-38 334 273
0.018068098 0.68699998 -0.039749816 1.208702e-38 335 273
0.019272638 0.68699998 -0.039749816 1.1902988e-38 336 273
0.020477179 0.68699998 -0.039749816 1.1902988e-38 337 273
0.021681719 0.68699998 -0.039749816 1.1718962e-38 338 273
0.022886258 0.68699998 -0.039749816 1.1903355e-38 339 273
0.024090799 0.68699998 -0.039749816 1.2179569e-38 340 273
0.025295338 0.68699998 -0.039749816 1.0243461e-38 341 273
0.026499879 0.68699998 -0.039749816 6.5537832e-39 342 273
0.027704418 0.68699998 -0.039749816 1.1138809e-39 343 273
0.028908957 0.68699998 -0.039749816 8.2578519e-42 344 273
0.030113498 0.68699998 -0.039749816 9.3368517e-42 345 273
0.031318039 0.68699998 -0.039749816 6.8565534e-42 346 273
0.032569919 0.68800002 -0.039807681 7.5754195e-42 347 273
0.033776212 0.68800002 -0.039807681 6.5150289e-40 348 273
0.035084199 0.69 -0.0399234 1.0199253e-39 349 273
0.036346599 0.69099998 -0.039981257 2.2137839e-39 350 273
0.03755815 0.69099998 -0.039981257 2.3059796e-39 351 273
0.03888192 0.69300002 -0.04009698 2.0311905e-39 352 273
0.04009698 0.69300002 -0.04009698 1.8471594e-39 353 273
0.041371655 0.69400001 -0.040154841 1.4783993e-39 354 273
0.042588469 0.69400001 -0.040154841 6.482785e-40 355 273
0.043931518 0.69599998 -0.040270556 8.3986543e-40 356 273
0.045151837 0.69599998 -0.040270556 4.7117232e-39 357 273
0.046438783 0.69700003 -0.040328421 1.1526641e-38 358 273
0.047729239 0.69800001 -0.040386278 1.3278357e-38 359 273
0.049093332 0.69999999 -0.040502001 1.1073943e-38 360 273
0.050320663 0.69999999 -0.040502001 1.1166139e-38 361 273
0.051621638 0.70099998 -0.040559858 1.1441295e-38 362 273
0.052850723 0.70099998 -0.040559858 1.1533849e-38 363 273
0.054234106 0.70300001 -0.040675577 1.1534926e-38 364 273
0.055545598 0.704 -0.040733438 1.1811152e-38 365 273
0.056779943 0.704 -0.040733438 1.2362514e-38 366 273
0.058179103 0.70599997 -0.040849157 1.3653253e-38 367 273
0.059416957 0.70599997 -0.040849157 1.6228241e-38 368 273
-0.034905359 0.71100003 -0.042385083 1.9266366e-38 292 274
-0.033658739 0.71100003 -0.042385083 1.7975627e-38 293 274
-0.032412119 0.71100003 -0.042385083 1.391794e-38 294 274
-0.031121666 0.70999998 -0.042325463 1.4287083e-38 295 274
-0.02979264 0.708 -0.042206239 1.3738595e-38 296 274
-0.028510952 0.70700002 -0.042146627 1.3738595e-38 297 274
-0.027232772 0.70599997 -0.042087011 1.3463453e-38 298 274
-0.02592128 0.704 -0.041967787 1.3463453e-38 299 274
-0.024651866 0.70300001 -0.041908171 1.3464175e-38 300 274
-0.023352645 0.70099998 -0.041788943 1.3464175e-38 301 274
-0.022091998 0.69999999 -0.041729331 1.3372705e-38 302 274
-0.020805053 0.69800001 -0.041610107 1.34649e-38 303 274
-0.019581227 0.69800001 -0.041610107 1.3373426e-38 304 274
-0.018331099 0.69700003 -0.041550495 1.3373426e-38 305 274
-0.017109027 0.69700003 -0.041550495 1.3189758e-38 306 274
-0.015864158 0.69599998 -0.041490879 1.3097563e-38 307 274
-0.014643839 0.69599998 -0.041490879 1.3097207e-38 308 274
-0.013384946 0.69400001 -0.041371655 1.3005011e-38 309 274
-0.012150601 0.69300002 -0.041312039 1.282242e-38 310 274
-0.010935539 0.69300002 -0.041312039 1.282242e-38 311 274
-0.0097204801 0.69300002 -0.041312039 1.2729866e-38 312 274
-0.0085054198 0.69300002 -0.041312039 1.263767e-38 313 274
-0.0072693196 0.69099998 -0.041192811 1.2637673e-38 314 274
