# .PCD v.7 - Point Cloud Data file format
FIELDS x y z rgb imX imY
SIZE 4 4 4 4 4 4
TYPE F F F F F F
COUNT 1 1 1 1 1 1
WIDTH 837
HEIGHT 1
VIEWPOINT 0 0 0 1 0 0 0
POINTS 837
DATA ascii
-0.020461399 0.778 0.0095486529 1.8939325e-38 305 233
-0.019097306 0.778 0.0095486529 1.7195192e-38 306 233
-0.017733213 0.778 0.0095486529 1.7287389e-38 307 233
-0.01632704 0.77600002 0.009524107 1.5267047e-38 308 233
-0.014966453 0.77600002 0.009524107 1.6557786e-38 309 233
-0.013605867 0.77600002 0.009524107 1.6841217e-38 310 233
-0.01224528 0.77600002 0.009524107 1.8592932e-38 311 233
-0.01085664 0.77399999 0.0094995592 2.0433953e-38 312 233
-0.0094995592 0.77399999 0.0094995592 2.2001277e-38 313 233
-0.0081424797 0.77399999 0.0094995592 2.2738476e-38 314 233
-0.0067853997 0.77399999 0.0094995592 2.2738476e-38 315 233
-0.0054283198 0.77399999 0.0094995592 2.1904012e-38 316 233
-0.0040712398 0.77399999 0.0094995592 1.9690958e-38 317 233
-0.0027211732 0.77600002 0.009524107 2.0328393e-38 318 233
-0.0013570799 0.77399999 0.0094995592 1.9590827e-38 319 233
0 0.77399999 0.0094995592 1.9403549e-38 320 233
0.0013570799 0.77399999 0.0094995592 1.8942572e-38 321 233
0.0027141599 0.77399999 0.0094995592 1.8114975e-38 322 233
0.0040712398 0.77399999 0.0094995592 1.8022779e-38 323 233
0.0054283198 0.77399999 0.0094995592 1.7196265e-38 324 233
0.0068204664 0.778 0.0095486529 1.793383e-38 325 233
0.0081845606 0.778 0.0095486529 1.7020858e-38 326 233
0.0095486529 0.778 0.0095486529 1.573012e-38 327 233
0.010912746 0.778 0.0095486529 1.6094958e-38 328 233
0.012276839 0.778 0.0095486529 1.6187154e-38 329 233
0.013640933 0.778 0.0095486529 1.5361751e-38 330 233
0.015005025 0.778 0.0095486529 1.5361751e-38 331 233
0.016369121 0.778 0.0095486529 1.3983541e-38 332 233
0.017778799 0.77999997 0.0095731998 1.6933799e-38 333 233
0.0191464 0.77999997 0.0095731998 1.7696934e-38 334 233
-0.038783733 0.79000002 0.0083108004 1.7884175e-38 292 234
-0.037398599 0.79000002 0.0083108004 1.3643178e-38 293 234
-0.036013465 0.79000002 0.0083108004 1.378327e-38 294 234
-0.034584496 0.78899997 0.0083002793 1.5534987e-38 295 234
-0.033116959 0.787 0.0082792398 1.7836946e-38 296 234
-0.031656433 0.78500003 0.0082582003 1.79295e-38 297 234
-0.030280067 0.78500003 0.0082582003 1.8388674e-38 298 234
-0.028830061 0.78299999 0.0082371598 1.8573066e-38 299 234
-0.027457198 0.78299999 0.0082371598 1.9311003e-38 300 234
-0.026017714 0.78100002 0.0082161194 2.1247111e-38 301 234
-0.024648361 0.78100002 0.0082161194 2.0325162e-38 302 234
-0.023249198 0.77999997 0.0082055992 1.931065e-38 303 234
-0.021881599 0.77999997 0.0082055992 1.7744031e-38 304 234
-0.020461399 0.778 0.0081845606 1.5807923e-38 305 234
-0.019048214 0.77600002 0.0081635201 1.4336762e-38 306 234
-0.017687626 0.77600002 0.0081635201 1.2676886e-38 307 234
-0.01632704 0.77600002 0.0081635201 1.4333903e-38 308 234
-0.014927879 0.77399999 0.0081424797 1.8113924e-38 309 234
-0.013570799 0.77399999 0.0081424797 1.9779586e-38 310 234
-0.01221372 0.77399999 0.0081424797 2.2729486e-38 311 234
-0.01085664 0.77399999 0.0081424797 2.2732007e-38 312 234
-0.0094995592 0.77399999 0.0081424797 2.0888094e-38 313 234
-0.0081424797 0.77399999 0.0081424797 2.0333459e-38 314 234
-0.0067853997 0.77399999 0.0081424797 2.0056513e-38 315 234
-0.0054283198 0.77399999 0.0081424797 2.024341e-38 316 234
-0.0040712398 0.77399999 0.0081424797 2.0888779e-38 317 234
-0.0027211732 0.77600002 0.0081635201 2.0431394e-38 318 234
-0.0013570799 0.77399999 0.0081424797 1.9601633e-38 319 234
0 0.77399999 0.0081424797 1.9227086e-38 320 234
0.0013570799 0.77399999 0.0081424797 1.7106586e-38 321 234
0.0027106532 0.773 0.0081319595 1.5997354e-38 322 234
0.0040659797 0.773 0.0081319595 1.5259787e-38 323 234
0.0054213065 0.773 0.0081319595 1.4615494e-38 324 234
0.0067853997 0.77399999 0.0081424797 1.4154516e-38 325 234
0.0081424797 0.77399999 0.0081424797 1.1759966e-38 326 234
0.0094995592 0.77399999 0.0081424797 1.0653276e-38 327 234
0.01085664 0.77399999 0.0081424797 1.1203931e-38 328 234
0.01224528 0.77600002 0.0081635201 1.2125521e-38 329 234
0.013605867 0.77600002 0.0081635201 1.1673203e-38 330 234
0.014966453 0.77600002 0.0081635201 1.3424561e-38 331 234
0.016369121 0.778 0.0081845606 1.343072e-38 332 234
0.017733213 0.778 0.0081845606 1.5459024e-38 333 234
-0.040168867 0.79000002 0.0069256667 1.9823893e-38 291 235
-0.038783733 0.79000002 0.0069256667 1.621637e-38 292 235
-0.037398599 0.79000002 0.0069256667 1.1975731e-38 293 235
-0.036013465 0.79000002 0.0069256667 1.5439181e-38 294 235
-0.034584496 0.78899997 0.0069168997 1.6822116e-38 295 235
-0.033201117 0.78899997 0.0069168997 1.7837668e-38 296 235
-0.031737085 0.787 0.0068993662 1.7837668e-38 297 235
-0.030280067 0.78500003 0.0068818335 1.8205005e-38 298 235
-0.028830061 0.78299999 0.0068642995 1.8297202e-38 299 235
-0.027387068 0.78100002 0.0068467669 1.8849306e-38 300 235
-0.026017714 0.78100002 0.0068467669 2.1614814e-38 301 235
-0.024616797 0.77999997 0.0068379994 2.0244485e-38 302 235
-0.023189586 0.778 0.0068204664 1.8953746e-38 303 235
-0.021825492 0.778 0.0068204664 1.526411e-38 304 235
-0.0204088 0.77600002 0.0068029333 1.1760324e-38 305 235
-0.018999118 0.77399999 0.0067853997 1.479738e-38 306 235
-0.01764204 0.77399999 0.0067853997 1.479738e-38 307 235
-0.016284959 0.77399999 0.0067853997 1.727877e-38 308 235
-0.014927879 0.77399999 0.0067853997 1.9030845e-38 309 235
-0.013570799 0.77399999 0.0067853997 1.9775983e-38 310 235
-0.01221372 0.77399999 0.0067853997 2.1712091e-38 311 235
-0.01085664 0.77399999 0.0067853997 2.1259022e-38 312 235
-0.0094995592 0.77399999 0.0067853997 1.9415109e-38 313 235
-0.0081424797 0.77399999 0.0067853997 1.9960691e-38 314 235
-0.0067853997 0.77399999 0.0067853997 1.9684105e-38 315 235
-0.0054213065 0.773 0.0067766332 1.913489e-38 316 235
-0.0040659797 0.773 0.0067766332 1.8766468e-38 317 235
-0.0027141599 0.77399999 0.0067853997 1.6011044e-38 318 235
-0.0013553266 0.773 0.0067766332 1.4259329e-38 319 235
0 0.773 0.0067766332 1.287675e-38 320 235
0.0013553266 0.773 0.0067766332 1.2138826e-38 321 235
0.0026966266 0.76899999 0.0067415666 1.1216869e-38 322 235
0.0040449398 0.76899999 0.0067415666 1.140126e-38 323 235
0.0054072798 0.77100003 0.0067590997 1.3694629e-38 324 235
0.0067590997 0.77100003 0.0067590997 1.3233651e-38 325 235
0.0081109209 0.77100003 0.0067590997 1.3134987e-38 326 235
0.0094627403 0.77100003 0.0067590997 1.3134987e-38 327 235
0.01085664 0.77399999 0.0067853997 1.2673298e-38 328 235
0.01221372 0.77399999 0.0067853997 1.2489627e-38 329 235
0.013570799 0.77399999 0.0067853997 1.0101916e-38 330 235
0.014927879 0.77399999 0.0067853997 1.0469263e-38 331 235
0.016284959 0.77399999 0.0067853997 6.8059553e-39 332 235
0.01764204 0.77399999 0.0067853997 8.6498665e-39 333 235
0.018974574 0.773 0.0067766332 9.765607e-39 334 235
-0.041501399 0.78899997 0.0055335197 1.9823174e-38 290 236
-0.040118016 0.78899997 0.0055335197 1.8532436e-38 291 236
-0.038734637 0.78899997 0.0055335197 1.4638954e-38 292 236
-0.037351258 0.78899997 0.0055335197 1.1319912e-38 293 236
-0.035967879 0.78899997 0.0055335197 1.6824617e-38 294 236
-0.034584496 0.78899997 0.0055335197 1.7377791e-38 295 236
-0.033201117 0.78899997 0.0055335197 1.7653281e-38 296 236
-0.031737085 0.787 0.005519493 1.7561085e-38 297 236
-0.030280067 0.78500003 0.0055054668 1.8387249e-38 298 236
-0.028830061 0.78299999 0.0054914397 1.8479446e-38 299 236
-0.027387068 0.78100002 0.0054774131 1.8941887e-38 300 236
-0.026017714 0.78100002 0.0054774131 2.161556e-38 301 236
-0.024616797 0.77999997 0.0054703997 1.933227e-38 302 236
-0.023189586 0.778 0.0054563731 1.850287e-38 303 236
-0.021769386 0.77600002 0.0054423464 1.5271676e-38 304 236
-0.0204088 0.77600002 0.0054423464 1.2690198e-38 305 236
-0.018999118 0.77399999 0.0054283198 1.664524e-38 306 236
-0.01764204 0.77399999 0.0054283198 1.7567195e-38 307 236
-0.016284959 0.77399999 0.0054283198 1.9122302e-38 308 236
-0.014908593 0.773 0.0054213065 1.9398529e-38 309 236
-0.013553266 0.773 0.0054213065 1.9311377e-38 310 236
-0.012197939 0.773 0.0054213065 2.0417723e-38 311 236
-0.010842613 0.773 0.0054213065 1.9691679e-38 312 236
-0.0094872871 0.773 0.0054213065 1.9322898e-38 313 236
-0.0081319595 0.773 0.0054213065 1.9779909e-38 314 236
-0.0067766332 0.773 0.0054213065 1.8212944e-38 315 236
-0.0054213065 0.773 0.0054213065 1.6371172e-38 316 236
-0.0040659797 0.773 0.0054213065 1.3789695e-38 317 236
-0.0027106532 0.773 0.0054213065 1.0750853e-38 318 236
-0.0013553266 0.773 0.0054213065 8.4488656e-39 319 236
0 0.773 0.0054213065 8.2651947e-39 320 236
0.0013553266 0.773 0.0054213065 9.4623029e-39 321 236
0.0026966266 0.76899999 0.0053932532 9.7439415e-39 322 236
0.0040449398 0.76899999 0.0053932532 1.1126876e-38 323 236
0.0054072798 0.77100003 0.0054072798 1.4339668e-38 324 236
0.0067590997 0.77100003 0.0054072798 1.4524058e-38 325 236
0.0081109209 0.77100003 0.0054072798 1.5628214e-38 326 236
0.0094627403 0.77100003 0.0054072798 1.5351987e-38 327 236
0.010842613 0.773 0.0054213065 1.5074327e-38 328 236
0.012197939 0.773 0.0054213065 1.415201e-38 329 236
0.013553266 0.773 0.0054213065 1.175784e-38 330 236
0.014927879 0.77399999 0.0054283198 9.9182336e-39 331 236
0.016263919 0.773 0.0054213065 4.1326352e-39 332 236
0.017619247 0.773 0.0054213065 4.0407983e-39 333 236
0.018974574 0.773 0.0054213065 4.1445602e-39 334 236
0.0203299 0.773 0.0054213065 1.0229832e-38 335 236
-0.041501399 0.78899997 0.0041501396 1.8808297e-38 290 237
-0.040118016 0.78899997 0.0041501396 1.6319375e-38 291 237
-0.038734637 0.78899997 0.0041501396 1.4540635e-38 292 237
-0.037351258 0.78899997 0.0041501396 1.2512331e-38 293 237
-0.035967879 0.78899997 0.0041501396 1.7194116e-38 294 237
-0.034584496 0.78899997 0.0041501396 1.7378507e-38 295 237
-0.033201117 0.78899997 0.0041501396 1.765293e-38 296 237
-0.031737085 0.787 0.0041396199 1.7560735e-38 297 237
-0.03020292 0.78299999 0.0041185799 1.8111387e-38 298 237
-0.028830061 0.78299999 0.0041185799 1.848017e-38 299 237
-0.027387068 0.78100002 0.0041080597 1.8481264e-38 300 237
-0.025984399 0.77999997 0.0041027996 1.7743699e-38 301 237
-0.024553679 0.778 0.0040922803 1.4084309e-38 302 237
-0.023129974 0.77600002 0.0040817601 1.6020418e-38 303 237
-0.021769386 0.77600002 0.0040817601 1.8407775e-38 304 237
-0.020356199 0.77399999 0.0040712398 1.767021e-38 305 237
-0.018999118 0.77399999 0.0040712398 1.9220602e-38 306 237
-0.01764204 0.77399999 0.0040712398 1.8299006e-38 307 237
-0.016263919 0.773 0.0040659797 1.9028302e-38 308 237
-0.014908593 0.773 0.0040659797 1.9305249e-38 309 237
-0.013553266 0.773 0.0040659797 1.9125537e-38 310 237
-0.012197939 0.773 0.0040659797 1.9955297e-38 311 237
-0.010842613 0.773 0.0040659797 1.968592e-38 312 237
-0.0094872871 0.773 0.0040659797 2.0423844e-38 313 237
-0.0081319595 0.773 0.0040659797 1.7300711e-38 314 237
-0.0067590997 0.77100003 0.0040554604 1.12158e-38 315 237
-0.0053932532 0.76899999 0.0040449398 7.7220738e-39 316 237
-0.0040449398 0.76899999 0.0040449398 8.3674334e-39 317 237
-0.0026966266 0.76899999 0.0040449398 1.1216866e-38 318 237
-0.0013483133 0.76899999 0.0040449398 1.112467e-38 319 237
0 0.77100003 0.0040554604 1.1387617e-38 320 237
0.0013553266 0.773 0.0040659797 1.2862388e-38 321 237
0.0027106532 0.773 0.0040659797 1.5729104e-38 322 237
0.0040554604 0.77100003 0.0040554604 1.5636909e-38 323 237
0.0054072798 0.77100003 0.0040554604 1.7099423e-38 324 237
0.0067590997 0.77100003 0.0040554604 1.7191619e-38 325 237
0.0081109209 0.77100003 0.0040554604 1.7743681e-38 326 237
0.0094627403 0.77100003 0.0040554604 1.7467093e-38 327 237
0.010842613 0.773 0.0040659797 1.7006116e-38 328 237
0.012197939 0.773 0.0040659797 1.691392e-38 329 237
0.013553266 0.773 0.0040659797 1.618106e-38 330 237
0.014908593 0.773 0.0040659797 1.553569e-38 331 237
0.016263919 0.773 0.0040659797 1.2129529e-38 332 237
0.017619247 0.773 0.0040659797 8.9998996e-39 333 237
0.018974574 0.773 0.0040659797 1.7449361e-39 334 237
0.0203299 0.773 0.0040659797 4.2324244e-39 335 237
-0.041501399 0.78899997 0.0027667598 1.8254384e-38 290 238
-0.040118016 0.78899997 0.0027667598 1.392119e-38 291 238
-0.038734637 0.78899997 0.0027667598 1.4721417e-38 292 238
-0.037351258 0.78899997 0.0027667598 1.4629221e-38 293 238
-0.035967879 0.78899997 0.0027667598 1.7012247e-38 294 238
-0.034584496 0.78899997 0.0027667598 1.692005e-38 295 238
-0.033201117 0.78899997 0.0027667598 1.7561454e-38 296 238
-0.031737085 0.787 0.0027597465 1.7469258e-38 297 238
-0.03020292 0.78299999 0.0027457199 1.7929514e-38 298 238
-0.028756421 0.78100002 0.0027387065 1.7837317e-38 299 238
-0.027351998 0.77999997 0.0027351999 1.6642723e-38 300 238
-0.025917772 0.778 0.0027281865 1.332368e-38 301 238
-0.024490559 0.77600002 0.0027211732 1.3695708e-38 302 238
-0.023129974 0.77600002 0.0027211732 1.8028544e-38 303 238
-0.021713279 0.77399999 0.0027141599 1.9510161e-38 304 238
-0.020356199 0.77399999 0.0027141599 2.0893454e-38 305 238
-0.018974574 0.773 0.0027106532 2.0513506e-38 306 238
-0.017619247 0.773 0.0027106532 1.8577398e-38 307 238
-0.016263919 0.773 0.0027106532 1.9121574e-38 308 238
-0.014908593 0.773 0.0027106532 1.8937182e-38 309 238
-0.013553266 0.773 0.0027106532 1.8849322e-38 310 238
-0.012197939 0.773 0.0027106532 1.9586888e-38 311 238
-0.010842613 0.773 0.0027106532 1.8767209e-38 312 238
-0.0094627403 0.77100003 0.0027036399 1.895124e-38 313 238
-0.0081109209 0.77100003 0.0027036399 1.4449831e-38 314 238
-0.0067415666 0.76899999 0.0026966266 7.8117569e-39 315 238
-0.0053932532 0.76899999 0.0026966266 8.5414186e-39 316 238
-0.00403442 0.76700002 0.0026896133 1.1952283e-38 317 238
-0.0026896133 0.76700002 0.0026896133 1.5082994e-38 318 238
-0.0013448066 0.76700002 0.0026896133 1.6465928e-38 319 238
0 0.76700002 0.0026896133 1.2765155e-38 320 238
0.0013430532 0.76599997 0.0026861064 1.2397807e-38 321 238
0.0026861064 0.76599997 0.0026861064 1.6188615e-38 322 238
0.00403442 0.76700002 0.0026896133 1.6280811e-38 323 238
0.0054072798 0.77100003 0.0027036399 1.7834801e-38 324 238
0.0067590997 0.77100003 0.0027036399 1.7558214e-38 325 238
0.0080898795 0.76899999 0.0026966266 1.7740787e-38 326 238
0.0094381925 0.76899999 0.0026966266 1.7740787e-38 327 238
0.010842613 0.773 0.0027106532 1.7279825e-38 328 238
0.012197939 0.773 0.0027106532 1.7464217e-38 329 238
0.013553266 0.773 0.0027106532 1.7285608e-38 330 238
0.014908593 0.773 0.0027106532 1.8023174e-38 331 238
0.016263919 0.773 0.0027106532 1.5354917e-38 332 238
0.017619247 0.773 0.0027106532 1.2773439e-38 333 238
0.018974574 0.773 0.0027106532 7.5305401e-39 334 238
0.0203299 0.773 0.0027106532 5.5101298e-39 335 238
0.021685226 0.773 0.0027106532 1.4755435e-39 336 238
-0.041501399 0.78899997 0.0013833799 1.8713565e-38 290 239
-0.040118016 0.78899997 0.0013833799 1.4749153e-38 291 239
-0.038734637 0.78899997 0.0013833799 1.5183474e-38 292 239
-0.037351258 0.78899997 0.0013833799 1.4906528e-38 293 239
-0.035967879 0.78899997 0.0013833799 1.6922218e-38 294 239
-0.034584496 0.78899997 0.0013833799 1.6369044e-38 295 239
-0.033201117 0.78899997 0.0013833799 1.7468905e-38 296 239
-0.031656433 0.78500003 0.0013763667 1.75611e-38 297 239
-0.03020292 0.78299999 0.0013728599 1.7838045e-38 298 239
-0.028756421 0.78100002 0.0013693533 1.5625348e-38 299 239
-0.027351998 0.77999997 0.0013675999 1.2957057e-38 300 239
-0.025917772 0.778 0.0013640933 1.3694982e-38 301 239
-0.024490559 0.77600002 0.0013605866 1.6455816e-38 302 239
-0.02307036 0.77399999 0.0013570799 1.8760347e-38 303 239
-0.021713279 0.77399999 0.0013570799 1.9964668e-38 304 239
-0.020356199 0.77399999 0.0013570799 2.1716745e-38 305 239
-0.018974574 0.773 0.0013553266 2.1533071e-38 306 239
-0.017619247 0.773 0.0013553266 2.0334529e-38 307 239
-0.016263919 0.773 0.0013553266 2.0232607e-38 308 239
-0.014908593 0.773 0.0013553266 1.8296858e-38 309 239
-0.013518199 0.77100003 0.00135182 1.8568776e-38 310 239
-0.01216638 0.77100003 0.00135182 1.8752807e-38 311 239
-0.01081456 0.77100003 0.00135182 1.6182119e-38 312 239
-0.0094627403 0.77100003 0.00135182 1.341625e-38 313 239
-0.0080898795 0.76899999 0.0013483133 4.6014606e-39 314 239
-0.0067415666 0.76899999 0.0013483133 7.3673085e-39 315 239
-0.0053792265 0.76700002 0.0013448066 1.6560998e-38 316 239
-0.00403442 0.76700002 0.0013448066 1.9787845e-38 317 239
-0.0026861064 0.76599997 0.0013430532 1.9871048e-38 318 239
-0.0013430532 0.76599997 0.0013430532 1.8211887e-38 319 239
0 0.76599997 0.0013430532 1.3596341e-38 320 239
0.0013430532 0.76599997 0.0013430532 1.1663108e-38 321 239
0.0026861064 0.76599997 0.0013430532 1.3973036e-38 322 239
0.0040291594 0.76599997 0.0013430532 1.5355971e-38 323 239
0.0053792265 0.76700002 0.0013448066 1.700541e-38 324 239
0.0067415666 0.76899999 0.0013483133 1.6728822e-38 325 239
0.0080898795 0.76899999 0.0013483133 1.7279106e-38 326 239
0.0094381925 0.76899999 0.0013483133 1.7094715e-38 327 239
0.01081456 0.77100003 0.00135182 1.7003248e-38 328 239
0.01216638 0.77100003 0.00135182 1.7095443e-38 329 239
0.013518199 0.77100003 0.00135182 1.6915734e-38 330 239
0.014908593 0.773 0.0013553266 1.7561103e-38 331 239
0.016263919 0.773 0.0013553266 1.6830395e-38 332 239
0.017619247 0.773 0.0013553266 1.6646003e-38 333 239
0.018974574 0.773 0.0013553266 1.4894662e-38 334 239
0.020277301 0.77100003 0.00135182 1.1022446e-38 335 239
0.021629119 0.77100003 0.00135182 1.5612287e-39 336 239
0.02298094 0.77100003 0.00135182 9.9452913e-39 337 239
-0.040118016 0.78899997 -0 1.6040613e-38 291 240
-0.038734637 0.78899997 -0 1.5460787e-38 292 240
-0.037351258 0.78899997 -0 1.4446275e-38 293 240
-0.035967879 0.78899997 -0 1.6738903e-38 294 240
-0.034584496 0.78899997 -0 1.6462316e-38 295 240
-0.033201117 0.78899997 -0 1.7010448e-38 296 240
-0.031575777 0.78299999 -0 1.6918252e-38 297 240
-0.03020292 0.78299999 -0 1.5815141e-38 298 240
-0.028756421 0.78100002 -0 1.3049633e-38 299 240
-0.027351998 0.77999997 -0 1.3132476e-38 300 240
-0.025917772 0.778 -0 1.7373116e-38 301 240
-0.024490559 0.77600002 -0 1.7653302e-38 302 240
-0.02307036 0.77399999 -0 1.8113921e-38 303 240
-0.021713279 0.77399999 -0 1.9037682e-38 304 240
-0.020356199 0.77399999 -0 2.097379e-38 305 240
-0.018974574 0.773 -0 2.0704406e-38 306 240
-0.017619247 0.773 -0 2.0704406e-38 307 240
-0.016263919 0.773 -0 1.9221348e-38 308 240
-0.014908593 0.773 -0 1.8022804e-38 309 240
-0.013518199 0.77100003 -0 1.765258e-38 310 240
-0.012134819 0.76899999 -0 1.6822819e-38 311 240
-0.010786506 0.76899999 -0 1.1306197e-38 312 240
-0.0094381925 0.76899999 -0 9.9232614e-39 313 240
-0.0080898795 0.76899999 -0 1.2862023e-38 314 240
-0.006724033 0.76700002 -0 1.8117173e-38 315 240
-0.0053792265 0.76700002 -0 1.9133866e-38 316 240
-0.00403442 0.76700002 -0 1.9963266e-38 317 240
-0.0026861064 0.76599997 -0 1.8943687e-38 318 240
-0.0013430532 0.76599997 -0 1.765295e-38 319 240
0 0.76599997 -0 1.5622829e-38 320 240
0.0013430532 0.76599997 -0 1.3410135e-38 321 240
0.0026861064 0.76599997 -0 1.2771619e-38 322 240
0.0040291594 0.76599997 -0 1.489176e-38 323 240
0.0053792265 0.76700002 -0 1.654912e-38 324 240
0.0067415666 0.76899999 -0 1.5996305e-38 325 240
0.0080898795 0.76899999 -0 1.7003613e-38 326 240
0.0094381925 0.76899999 -0 1.6911418e-38 327 240
0.01081456 0.77100003 -0 1.663592e-38 328 240
0.01216638 0.77100003 -0 1.6728115e-38 329 240
0.013518199 0.77100003 -0 1.6271829e-38 330 240
0.014908593 0.773 -0 1.645622e-38 331 240
0.016263919 0.773 -0 1.6459109e-38 332 240
0.017619247 0.773 -0 1.7288872e-38 333 240
0.018974574 0.773 -0 1.6465578e-38 334 240
0.020277301 0.77100003 -0 1.4252523e-38 335 240
0.021629119 0.77100003 -0 1.0101951e-38 336 240
0.02298094 0.77100003 -0 1.3604667e-38 337 240
-0.040118016 0.78899997 -0.0013833799 1.7056563e-38 291 241
-0.038734637 0.78899997 -0.0013833799 1.5369657e-38 292 241
-0.037351258 0.78899997 -0.0013833799 1.3710136e-38 293 241
-0.035967879 0.78899997 -0.0013833799 1.6557381e-38 294 241
-0.034584496 0.78899997 -0.0013833799 1.6096404e-38 295 241
-0.033201117 0.78899997 -0.0013833799 1.6919701e-38 296 241
-0.031575777 0.78299999 -0.0013728599 1.5813353e-38 297 241
-0.03020292 0.78299999 -0.0013728599 1.3693207e-38 298 241
-0.028756421 0.78100002 -0.0013693533 1.2218075e-38 299 241
-0.027351998 0.77999997 -0.0013675999 1.470267e-38 300 241
-0.025917772 0.778 -0.0013640933 1.7468539e-38 301 241
-0.024490559 0.77600002 -0.0013605866 1.8294705e-38 302 241
-0.02307036 0.77399999 -0.0013570799 1.8294705e-38 303 241
-0.021713279 0.77399999 -0.0013570799 1.8111034e-38 304 241
-0.020356199 0.77399999 -0.0013570799 1.8387621e-38 305 241
-0.018974574 0.773 -0.0013553266 1.8300821e-38 306 241
-0.017619247 0.773 -0.0013553266 1.7378504e-38 307 241
-0.016221842 0.77100003 -0.00135182 1.7924122e-38 308 241
-0.01487002 0.77100003 -0.00135182 1.83851e-38 309 241
-0.013483133 0.76899999 -0.0013483133 1.6461946e-38 310 241
-0.012134819 0.76899999 -0.0013483133 1.3788272e-38 311 241
-0.010786506 0.76899999 -0.0013483133 5.2356995e-39 312 241
-0.0094381925 0.76899999 -0.0013483133 8.001567e-39 313 241
-0.0080898795 0.76899999 -0.0013483133 1.7928866e-38 314 241
-0.006724033 0.76700002 -0.0013448066 2.244645e-38 315 241
-0.0053792265 0.76700002 -0.0013448066 2.0049331e-38 316 241
-0.00403442 0.76700002 -0.0013448066 1.7467854e-38 317 241
-0.0026896133 0.76700002 -0.0013448066 1.7466018e-38 318 241
-0.0013448066 0.76700002 -0.0013448066 1.7281627e-38 319 241
0 0.76700002 -0.0013448066 1.6911412e-38 320 241
0.0013430532 0.76599997 -0.0013430532 1.5252251e-38 321 241
0.0026861064 0.76599997 -0.0013430532 1.0836597e-38 322 241
0.0040291594 0.76599997 -0.0013430532 1.3140051e-38 323 241
0.0053792265 0.76700002 -0.0013448066 1.5906636e-38 324 241
0.0067415666 0.76899999 -0.0013483133 1.5169071e-38 325 241
0.0080898795 0.76899999 -0.0013483133 1.6636276e-38 326 241
0.0094381925 0.76899999 -0.0013483133 1.635969e-38 327 241
0.01081456 0.77100003 -0.00135182 1.626786e-38 328 241
0.01216638 0.77100003 -0.00135182 1.626786e-38 329 241
0.013518199 0.77100003 -0.00135182 1.5993797e-38 330 241
0.01487002 0.77100003 -0.00135182 1.6454775e-38 331 241
0.016263919 0.773 -0.0013553266 1.6088163e-38 332 241
0.017619247 0.773 -0.0013553266 1.6825728e-38 333 241
0.018974574 0.773 -0.0013553266 1.6187564e-38 334 241
0.020277301 0.77100003 -0.00135182 1.5818783e-38 335 241
0.021629119 0.77100003 -0.00135182 1.425437e-38 336 241
0.02307036 0.77399999 -0.0013570799 1.2318261e-38 337 241
0.02442744 0.77399999 -0.0013570799 9.5905511e-39 338 241
-0.040118016 0.78899997 -0.0027667598 1.8346224e-38 291 242
-0.038734637 0.78899997 -0.0027667598 1.565379e-38 292 242
-0.037351258 0.78899997 -0.0027667598 1.2795367e-38 293 242
-0.035967879 0.78899997 -0.0027667598 1.6376935e-38 294 242
-0.034584496 0.78899997 -0.0027667598 1.5823761e-38 295 242
-0.033116959 0.787 -0.0027597465 1.6460514e-38 296 242
-0.031575777 0.78299999 -0.0027457199 1.4340374e-38 297 242
-0.030125774 0.78100002 -0.0027387065 1.3226111e-38 298 242
-0.028756421 0.78100002 -0.0027387065 1.5162219e-38 299 242
-0.027351998 0.77999997 -0.0027351999 1.6638408e-38 300 242
-0.025917772 0.778 -0.0027281865 1.7375975e-38 301 242
-0.024490559 0.77600002 -0.0027211732 1.8017747e-38 302 242
-0.02307036 0.77399999 -0.0027141599 1.8109943e-38 303 242
-0.021713279 0.77399999 -0.0027141599 1.8109587e-38 304 242
-0.020356199 0.77399999 -0.0027141599 1.8386532e-38 305 242
-0.018974574 0.773 -0.0027106532 1.8574884e-38 306 242
-0.017619247 0.773 -0.0027106532 1.8759275e-38 307 242
-0.016221842 0.77100003 -0.0027036399 1.9036591e-38 308 242
-0.01487002 0.77100003 -0.0027036399 1.7838047e-38 309 242
-0.013483133 0.76899999 -0.0026966266 1.2322141e-38 310 242
-0.012134819 0.76899999 -0.0026966266 1.0939206e-38 311 242
-0.010786506 0.76899999 -0.0026966266 9.1874957e-39 312 242
-0.0094381925 0.76899999 -0.0026966266 1.4442647e-38 313 242
-0.0080898795 0.76899999 -0.0026966266 1.83023e-38 314 242
-0.006724033 0.76700002 -0.0026896133 1.8855474e-38 315 242
-0.0053792265 0.76700002 -0.0026896133 1.8482713e-38 316 242
-0.00403442 0.76700002 -0.0026896133 1.6822832e-38 317 242
-0.0026896133 0.76700002 -0.0026896133 1.7557841e-38 318 242
-0.0013448066 0.76700002 -0.0026896133 1.7281255e-38 319 242
0 0.76700002 -0.0026896133 1.7005413e-38 320 242
0.0013430532 0.76599997 -0.0026861064 1.6083096e-38 321 242
0.0026861064 0.76599997 -0.0026861064 1.129577e-38 322 242
0.0040291594 0.76599997 -0.0026861064 1.2858072e-38 323 242
0.0053792265 0.76700002 -0.0026896133 1.5168718e-38 324 242
0.0067415666 0.76899999 -0.0026966266 1.5445665e-38 325 242
0.0080898795 0.76899999 -0.0026966266 1.6086719e-38 326 242
0.0094381925 0.76899999 -0.0026966266 1.5717936e-38 327 242
0.010786506 0.76899999 -0.0026966266 1.5901248e-38 328 242
0.01216638 0.77100003 -0.0027036399 1.5901248e-38 329 242
0.013518199 0.77100003 -0.0027036399 1.5719377e-38 330 242
0.01487002 0.77100003 -0.0027036399 1.5903769e-38 331 242
0.016263919 0.773 -0.0027106532 1.5537876e-38 332 242
0.017619247 0.773 -0.0027106532 1.5630072e-38 333 242
0.018974574 0.773 -0.0027106532 1.5263461e-38 334 242
0.0203299 0.773 -0.0027106532 1.5355657e-38 335 242
0.021685226 0.773 -0.0027106532 1.4621704e-38 336 242
0.02307036 0.77399999 -0.0027141599 1.2132421e-38 337 242
0.024490559 0.77600002 -0.0027211732 9.7626979e-39 338 242
0.025851147 0.77600002 -0.0027211732 1.9074456e-38 339 242
-0.038734637 0.78899997 -0.0041501396 1.695101e-38 292 243
-0.037351258 0.78899997 -0.0041501396 1.2709651e-38 293 243
-0.035967879 0.78899997 -0.0041501396 1.6010323e-38 294 243
-0.034584496 0.78899997 -0.0041501396 1.5733736e-38 295 243
-0.033032801 0.78500003 -0.0041291001 1.5360287e-38 296 243
-0.031575777 0.78299999 -0.0041185799 1.2778809e-38 297 243
-0.030125774 0.78100002 -0.0041080597 1.3597039e-38 298 243
-0.028756421 0.78100002 -0.0041080597 1.6363266e-38 299 243
-0.027351998 0.77999997 -0.0041027996 1.7561435e-38 300 243
-0.025917772 0.778 -0.0040922803 1.7192651e-38 301 243
-0.024490559 0.77600002 -0.0040817601 1.7925547e-38 302 243
-0.023129974 0.77600002 -0.0040817601 1.810994e-38 303 243
-0.021713279 0.77399999 -0.0040712398 1.8018839e-38 304 243
-0.020356199 0.77399999 -0.0040712398 1.8572013e-38 305 243
-0.018974574 0.773 -0.0040659797 1.8759646e-38 306 243
-0.017619247 0.773 -0.0040659797 2.0050385e-38 307 243
-0.016179759 0.76899999 -0.0040449398 1.9230705e-38 308 243
-0.014831445 0.76899999 -0.0040449398 1.618825e-38 309 243
-0.013483133 0.76899999 -0.0040449398 7.2567979e-39 310 243
-0.012134819 0.76899999 -0.0040449398 8.9163164e-39 311 243
-0.010786506 0.76899999 -0.0040449398 1.3332352e-38 312 243
-0.0094381925 0.76899999 -0.0040449398 1.6559199e-38 313 243
-0.0080898795 0.76899999 -0.0040449398 1.8116439e-38 314 243
-0.006724033 0.76700002 -0.00403442 1.6457277e-38 315 243
-0.0053792265 0.76700002 -0.00403442 1.7097961e-38 316 243
-0.00403442 0.76700002 -0.00403442 1.7097961e-38 317 243
-0.0026896133 0.76700002 -0.00403442 1.7189428e-38 318 243
-0.0013448066 0.76700002 -0.00403442 1.7097233e-38 319 243
0 0.76700002 -0.00403442 1.6915365e-38 320 243
0.0013430532 0.76599997 -0.0040291594 1.6269996e-38 321 243
0.0026861064 0.76599997 -0.0040291594 1.203045e-38 322 243
0.0040291594 0.76599997 -0.0040291594 1.2673307e-38 323 243
0.0053792265 0.76700002 -0.00403442 1.3974848e-38 324 243
0.0067415666 0.76899999 -0.0040449398 1.4712413e-38 325 243
0.0080898795 0.76899999 -0.0040449398 1.5444944e-38 326 243
0.0094381925 0.76899999 -0.0040449398 1.5260551e-38 327 243
0.010786506 0.76899999 -0.0040449398 1.5443863e-38 328 243
0.01216638 0.77100003 -0.0040554604 1.5536059e-38 329 243
0.013518199 0.77100003 -0.0040554604 1.526235e-38 330 243
0.014908593 0.773 -0.0040659797 1.526235e-38 331 243
0.016263919 0.773 -0.0040659797 1.5262716e-38 332 243
0.017619247 0.773 -0.0040659797 1.5262716e-38 333 243
0.018974574 0.773 -0.0040659797 1.4619161e-38 334 243
0.020356199 0.77399999 -0.0040712398 1.4619161e-38 335 243
0.021713279 0.77399999 -0.0040712398 1.4527344e-38 336 243
0.02307036 0.77399999 -0.0040712398 1.249904e-38 337 243
0.024490559 0.77600002 -0.0040817601 9.5657117e-39 338 243
0.025984399 0.77999997 -0.0041027996 1.9615037e-38 339 243
-0.038734637 0.78899997 -0.0055335197 1.8615586e-38 292 244
-0.037351258 0.78899997 -0.0055335197 1.4466783e-38 293 244
-0.035967879 0.78899997 -0.0055335197 1.5642632e-38 294 244
-0.034584496 0.78899997 -0.0055335197 1.5734827e-38 295 244
-0.033032801 0.78500003 -0.0055054668 1.3799792e-38 296 244
-0.031575777 0.78299999 -0.0054914397 1.214063e-38 297 244
-0.030125774 0.78100002 -0.0054774131 1.4799901e-38 298 244
-0.028756421 0.78100002 -0.0054774131 1.6275031e-38 299 244
-0.027351998 0.77999997 -0.0054703997 1.7193379e-38 300 244
-0.025917772 0.778 -0.0054563731 1.691679e-38 301 244
-0.024490559 0.77600002 -0.0054423464 1.7650039e-38 302 244
-0.023129974 0.77600002 -0.0054423464 1.7834432e-38 303 244
-0.021713279 0.77399999 -0.0054283198 1.7834447e-38 304 244
-0.020356199 0.77399999 -0.0054283198 1.8203589e-38 305 244
-0.018999118 0.77399999 -0.0054283198 1.848163e-38 306 244
-0.017619247 0.773 -0.0054213065 1.9588338e-38 307 244
-0.016179759 0.76899999 -0.0053932532 1.5920663e-38 308 244
-0.014831445 0.76899999 -0.0053932532 1.2325035e-38 309 244
-0.013483133 0.76899999 -0.0053932532 4.8672813e-39 310 244
-0.012134819 0.76899999 -0.0053932532 9.4763271e-39 311 244
-0.010786506 0.76899999 -0.0053932532 1.7199896e-38 312 244
-0.0094381925 0.76899999 -0.0053932532 1.7384287e-38 313 244
-0.0080898795 0.76899999 -0.0053932532 1.7561456e-38 314 244
-0.006724033 0.76700002 -0.0053792265 1.645511e-38 315 244
-0.0053792265 0.76700002 -0.0053792265 1.7097233e-38 316 244
-0.00403442 0.76700002 -0.0053792265 1.69132e-38 317 244
-0.0026896133 0.76700002 -0.0053792265 1.691285e-38 318 244
-0.0013483133 0.76899999 -0.0053932532 1.67281e-38 319 244
0 0.76899999 -0.0053932532 1.6636626e-38 320 244
0.0013448066 0.76700002 -0.0053792265 1.6821017e-38 321 244
0.0026896133 0.76700002 -0.0053792265 1.3048203e-38 322 244
0.00403442 0.76700002 -0.0053792265 1.1941856e-38 323 244
0.0053792265 0.76700002 -0.0053792265 1.1676797e-38 324 244
0.0067590997 0.77100003 -0.0054072798 1.3428514e-38 325 244
0.0081109209 0.77100003 -0.0054072798 1.5264514e-38 326 244
0.0094627403 0.77100003 -0.0054072798 1.4803536e-38 327 244
0.01081456 0.77100003 -0.0054072798 1.5078675e-38 328 244
0.01216638 0.77100003 -0.0054072798 1.5078675e-38 329 244
0.013553266 0.773 -0.0054213065 1.5078678e-38 330 244
0.014908593 0.773 -0.0054213065 1.5078678e-38 331 244
0.016263919 0.773 -0.0054213065 1.4987205e-38 332 244
0.017619247 0.773 -0.0054213065 1.4987205e-38 333 244
0.018974574 0.773 -0.0054213065 1.452767e-38 334 244
0.020356199 0.77399999 -0.0054283198 1.4158889e-38 335 244
0.021713279 0.77399999 -0.0054283198 1.4250381e-38 336 244
0.023129974 0.77600002 -0.0054423464 1.2867447e-38 337 244
0.024490559 0.77600002 -0.0054423464 9.2833641e-39 338 244
0.025851147 0.77600002 -0.0054423464 1.8963547e-38 339 244
-0.038783733 0.79000002 -0.0069256667 2.0001057e-38 292 245
-0.037398599 0.79000002 -0.0069256667 1.6682014e-38 293 245
-0.035967879 0.78899997 -0.0069168997 1.5832786e-38 294 245
-0.034584496 0.78899997 -0.0069168997 1.4634243e-38 295 245
-0.033032801 0.78500003 -0.0068818335 1.2789233e-38 296 245
-0.031575777 0.78299999 -0.0068642995 1.223606e-38 297 245
-0.030125774 0.78100002 -0.0068467669 1.5356674e-38 298 245
-0.028719598 0.77999997 -0.0068379994 1.5909489e-38 299 245
-0.027351998 0.77999997 -0.0068379994 1.6642373e-38 300 245
-0.025917772 0.778 -0.0068204664 1.645798e-38 301 245
-0.024490559 0.77600002 -0.0068029333 1.7283425e-38 302 245
-0.023129974 0.77600002 -0.0068029333 1.7375622e-38 303 245
-0.021713279 0.77399999 -0.0067853997 1.7650785e-38 304 245
-0.020356199 0.77399999 -0.0067853997 1.7927012e-38 305 245
-0.018999118 0.77399999 -0.0067853997 1.7835915e-38 306 245
-0.01764204 0.77399999 -0.0067853997 1.9126295e-38 307 245
-0.016179759 0.76899999 -0.0067415666 1.3063678e-38 308 245
-0.014831445 0.76899999 -0.0067415666 9.8368308e-39 309 245
-0.013483133 0.76899999 -0.0067415666 8.2651947e-39 310 245
-0.012134819 0.76899999 -0.0067415666 1.3149753e-38 311 245
-0.010786506 0.76899999 -0.0067415666 1.8490269e-38 312 245
-0.0094381925 0.76899999 -0.0067415666 1.719953e-38 313 245
-0.0080898795 0.76899999 -0.0067415666 1.7376356e-38 314 245
-0.006724033 0.76700002 -0.006724033 1.6730987e-38 315 245
-0.0053792265 0.76700002 -0.006724033 1.691357e-38 316 245
-0.0040449398 0.76899999 -0.0067415666 1.6636623e-38 317 245
-0.0026966266 0.76899999 -0.0067415666 1.6452958e-38 318 245
-0.0013483133 0.76899999 -0.0067415666 1.6452958e-38 319 245
0 0.76899999 -0.0067415666 1.5994851e-38 320 245
0.0013448066 0.76700002 -0.006724033 1.581046e-38 321 245
0.0026896133 0.76700002 -0.006724033 1.3880469e-38 322 245
0.00403442 0.76700002 -0.006724033 1.2589731e-38 323 245
0.0053792265 0.76700002 -0.006724033 1.0478623e-38 324 245
0.006724033 0.76700002 -0.006724033 1.2875709e-38 325 245
0.0081109209 0.77100003 -0.0067590997 1.4990823e-38 326 245
0.0094627403 0.77100003 -0.0067590997 1.4068508e-38 327 245
0.01081456 0.77100003 -0.0067590997 1.4526596e-38 328 245
0.01216638 0.77100003 -0.0067590997 1.4342204e-38 329 245
0.013553266 0.773 -0.0067766332 1.4617718e-38 330 245
0.014908593 0.773 -0.0067766332 1.4709913e-38 331 245
0.016263919 0.773 -0.0067766332 1.4527321e-38 332 245
0.017619247 0.773 -0.0067766332 1.4250735e-38 333 245
0.018999118 0.77399999 -0.0067853997 1.4067059e-38 334 245
0.020356199 0.77399999 -0.0067853997 1.3790833e-38 335 245
0.021713279 0.77399999 -0.0067853997 1.4066709e-38 336 245
0.023129974 0.77600002 -0.0068029333 1.3052917e-38 337 245
0.024490559 0.77600002 -0.0068029333 9.3712381e-39 338 245
0.025851147 0.77600002 -0.0068029333 1.8959584e-38 339 245
-0.037398599 0.79000002 -0.0083108004 1.852882e-38 293 246
-0.036013465 0.79000002 -0.0083108004 1.7038186e-38 294 246
-0.034584496 0.78899997 -0.0083002793 1.4087566e-38 295 246
-0.033116959 0.787 -0.0082792398 1.2698132e-38 296 246
-0.031495128 0.78100002 -0.0082161194 1.2882525e-38 297 246
-0.030125774 0.78100002 -0.0082161194 1.5451757e-38 298 246
-0.028719598 0.77999997 -0.0082055992 1.5359561e-38 299 246
-0.027281865 0.778 -0.0081845606 1.6825691e-38 300 246
-0.025851147 0.77600002 -0.0081635201 1.6733135e-38 301 246
-0.024490559 0.77600002 -0.0081635201 1.7374188e-38 302 246
-0.02307036 0.77399999 -0.0081424797 1.7281993e-38 303 246
-0.021713279 0.77399999 -0.0081424797 1.7648617e-38 304 246
-0.020356199 0.77399999 -0.0081424797 1.7924844e-38 305 246
-0.018974574 0.773 -0.0081319595 1.7193047e-38 306 246
-0.017619247 0.773 -0.0081319595 1.6639873e-38 307 246
-0.016179759 0.76899999 -0.0080898795 9.0081617e-39 308 246
-0.014831445 0.76899999 -0.0080898795 7.4404773e-39 309 246
-0.013483133 0.76899999 -0.0080898795 1.2311367e-38 310 246
-0.012134819 0.76899999 -0.0080898795 1.5446018e-38 311 246
-0.010786506 0.76899999 -0.0080898795 1.737851e-38 312 246
-0.0094381925 0.76899999 -0.0080898795 1.6825337e-38 313 246
-0.0080898795 0.76899999 -0.0080898795 1.709833e-38 314 246
-0.0067415666 0.76899999 -0.0080898795 1.6637353e-38 315 246
-0.0053932532 0.76899999 -0.0080898795 1.663627e-38 316 246
-0.0040449398 0.76899999 -0.0080898795 1.6452239e-38 317 246
-0.0026966266 0.76899999 -0.0080898795 1.617745e-38 318 246
-0.0013483133 0.76899999 -0.0080898795 1.617745e-38 319 246
0 0.76899999 -0.0080898795 1.5903027e-38 320 246
0.0013448066 0.76700002 -0.00806884 1.6179615e-38 321 246
0.0026896133 0.76700002 -0.00806884 1.4710248e-38 322 246
0.00403442 0.76700002 -0.00806884 1.2404997e-38 323 246
0.0053792265 0.76700002 -0.00806884 9.2782816e-39 324 246
0.006724033 0.76700002 -0.00806884 1.1951955e-38 325 246
0.0081109209 0.77100003 -0.0081109209 1.4155668e-38 326 246
0.0094627403 0.77100003 -0.0081109209 1.3879081e-38 327 246
0.01081456 0.77100003 -0.0081109209 1.4430087e-38 328 246
0.012197939 0.773 -0.0081319595 1.4337532e-38 329 246
0.013553266 0.773 -0.0081319595 1.4337888e-38 330 246
0.014908593 0.773 -0.0081319595 1.4430084e-38 331 246
0.016284959 0.77399999 -0.0081424797 1.433897e-38 332 246
0.01764204 0.77399999 -0.0081424797 1.4523001e-38 333 246
0.018999118 0.77399999 -0.0081424797 1.4156374e-38 334 246
0.020356199 0.77399999 -0.0081424797 1.4524798e-38 335 246
0.021769386 0.77600002 -0.0081635201 1.4068861e-38 336 246
0.023129974 0.77600002 -0.0081635201 1.3976664e-38 337 246
0.024490559 0.77600002 -0.0081635201 9.8350861e-39 338 246
0.025917772 0.778 -0.0081845606 1.8501477e-38 339 246
-0.036013465 0.79000002 -0.0096959332 1.7597856e-38 294 247
-0.034584496 0.78899997 -0.0096836593 1.4371009e-38 295 247
-0.033032801 0.78500003 -0.0096345674 1.3162354e-38 296 247
-0.031495128 0.78100002 -0.0095854728 1.2885766e-38 297 247
-0.030125774 0.78100002 -0.0095854728 1.5635795e-38 298 247
-0.028719598 0.77999997 -0.0095731998 1.5359208e-38 299 247
-0.027281865 0.778 -0.0095486529 1.6367599e-38 300 247
-0.025851147 0.77600002 -0.009524107 1.6091371e-38 301 247
-0.02442744 0.77399999 -0.0094995592 1.6915737e-38 302 247
-0.02307036 0.77399999 -0.0094995592 1.6823182e-38 303 247
-0.021713279 0.77399999 -0.0094995592 1.7373122e-38 304 247
-0.020356199 0.77399999 -0.0094995592 1.7926296e-38 305 247
-0.018925481 0.77100003 -0.0094627403 1.5445996e-38 306 247
-0.01757366 0.77100003 -0.0094627403 1.3970866e-38 307 247
-0.016179759 0.76899999 -0.0094381925 7.168191e-39 308 247
-0.014831445 0.76899999 -0.0094381925 7.6288034e-39 309 247
-0.013483133 0.76899999 -0.0094381925 1.4526207e-38 310 247
-0.012134819 0.76899999 -0.0094381925 1.5171577e-38 311 247
-0.010786506 0.76899999 -0.0094381925 1.6729549e-38 312 247
-0.0094381925 0.76899999 -0.0094381925 1.6637353e-38 313 247
-0.0080898795 0.76899999 -0.0094381925 1.6727396e-38 314 247
-0.0067415666 0.76899999 -0.0094381925 1.6635201e-38 315 247
-0.0053932532 0.76899999 -0.0094381925 1.6084901e-38 316 247
-0.0040449398 0.76899999 -0.0094381925 1.6177097e-38 317 247
-0.0026966266 0.76899999 -0.0094381925 1.5718642e-38 318 247
-0.0013483133 0.76899999 -0.0094381925 1.5626088e-38 319 247
0 0.76899999 -0.0094381925 1.5167989e-38 320 247
0.0013448066 0.76700002 -0.0094136465 1.5167989e-38 321 247
0.0026896133 0.76700002 -0.0094136465 1.4616981e-38 322 247
0.00403442 0.76700002 -0.0094136465 1.2772708e-38 323 247
0.0053792265 0.76700002 -0.0094136465 8.0815237e-39 324 247
0.0067415666 0.76899999 -0.0094381925 1.1121828e-38 325 247
0.0081109209 0.77100003 -0.0094627403 1.3509926e-38 326 247
0.0094627403 0.77100003 -0.0094627403 1.3694317e-38 327 247
0.01081456 0.77100003 -0.0094627403 1.3969826e-38 328 247
0.012197939 0.773 -0.0094872871 1.3969826e-38 329 247
0.013553266 0.773 -0.0094872871 1.3970905e-38 330 247
0.014927879 0.77399999 -0.0094995592 1.4155295e-38 331 247
0.016284959 0.77399999 -0.0094995592 1.3972346e-38 332 247
0.01764204 0.77399999 -0.0094995592 1.4156738e-38 333 247
0.018999118 0.77399999 -0.0094995592 1.406741e-38 334 247
0.0204088 0.77600002 -0.009524107 1.4344355e-38 335 247
0.021769386 0.77600002 -0.009524107 1.3889135e-38 336 247
0.023189586 0.778 -0.0095486529 1.2782789e-38 337 247
0.024553679 0.778 -0.0095486529 9.1918719e-39 338 247
0.025984399 0.77999997 -0.0095731998 1.8595826e-38 339 247
-0.034584496 0.78899997 -0.011067039 1.5022515e-38 295 248
-0.033032801 0.78500003 -0.011010934 1.4088649e-38 296 248
-0.031575777 0.78299999 -0.010982879 1.3627311e-38 297 248
-0.030125774 0.78100002 -0.010954826 1.5915626e-38 298 248
-0.028719598 0.77999997 -0.010940799 1.4809278e-38 299 248
-0.027281865 0.778 -0.010912746 1.6459079e-38 300 248
-0.025851147 0.77600002 -0.010884693 1.6182132e-38 301 248
-0.02442744 0.77399999 -0.01085664 1.6823185e-38 302 248
-0.02307036 0.77399999 -0.01085664 1.6823185e-38 303 248
-0.021713279 0.77399999 -0.01085664 1.7282725e-38 304 248
-0.020356199 0.77399999 -0.01085664 1.7835539e-38 305 248
-0.018925481 0.77100003 -0.01081456 1.3880485e-38 306 248
-0.01757366 0.77100003 -0.01081456 1.1114615e-38 307 248
-0.016179759 0.76899999 -0.010786506 6.8926845e-39 308 248
-0.014831445 0.76899999 -0.010786506 8.6443958e-39 309 248
-0.013483133 0.76899999 -0.010786506 1.6002054e-38 310 248
-0.012134819 0.76899999 -0.010786506 1.5541434e-38 311 248
-0.010786506 0.76899999 -0.010786506 1.6636623e-38 312 248
-0.0094381925 0.76899999 -0.010786506 1.6360396e-38 313 248
-0.0080898795 0.76899999 -0.010786506 1.6267125e-38 314 248
-0.0067415666 0.76899999 -0.010786506 1.6267125e-38 315 248
-0.0053932532 0.76899999 -0.010786506 1.580939e-38 316 248
-0.0040449398 0.76899999 -0.010786506 1.5717195e-38 317 248
-0.0026966266 0.76899999 -0.010786506 1.5349502e-38 318 248
-0.00135182 0.77100003 -0.01081456 1.5256948e-38 319 248
0 0.77100003 -0.01081456 1.4981443e-38 320 248
0.0013483133 0.76899999 -0.010786506 1.4889247e-38 321 248
0.0026896133 0.76700002 -0.010758453 1.406021e-38 322 248
0.00403442 0.76700002 -0.010758453 1.2769471e-38 323 248
0.0053932532 0.76899999 -0.010786506 7.7141817e-39 324 248
0.0067590997 0.77100003 -0.01081456 1.0480401e-38 325 248
0.0081109209 0.77100003 -0.01081456 1.332838e-38 326 248
0.0094627403 0.77100003 -0.01081456 1.3144349e-38 327 248
0.01081456 0.77100003 -0.01081456 1.3971232e-38 328 248
0.012197939 0.773 -0.010842613 1.3971232e-38 329 248
0.013570799 0.77399999 -0.01085664 1.3880485e-38 330 248
0.014927879 0.77399999 -0.01085664 1.415743e-38 331 248
0.016284959 0.77399999 -0.01085664 1.3791889e-38 332 248
0.017687626 0.77600002 -0.010884693 1.4160312e-38 333 248
0.019048214 0.77600002 -0.010884693 1.4070634e-38 334 248
0.0204088 0.77600002 -0.010884693 1.434758e-38 335 248
0.021825492 0.778 -0.010912746 1.3982054e-38 336 248
0.023189586 0.778 -0.010912746 1.2415087e-38 337 248
0.024616797 0.77999997 -0.010940799 9.0107191e-39 338 248
0.025984399 0.77999997 -0.010940799 1.9060041e-38 339 248
-0.033032801 0.78500003 -0.0123873 1.4463561e-38 296 249
-0.031575777 0.78299999 -0.012355739 1.3449769e-38 297 249
-0.030125774 0.78100002 -0.01232418 1.5919589e-38 298 249
-0.028645959 0.778 -0.012276839 1.4352261e-38 299 249
-0.027211733 0.77600002 -0.01224528 1.6276129e-38 300 249
-0.025851147 0.77600002 -0.01224528 1.5999542e-38 301 249
-0.024490559 0.77600002 -0.01224528 1.6640236e-38 302 249
-0.02307036 0.77399999 -0.01221372 1.6640236e-38 303 249
-0.021713279 0.77399999 -0.01221372 1.6824984e-38 304 249
-0.0203299 0.773 -0.012197939 1.7285961e-38 305 249
-0.018925481 0.77100003 -0.01216638 1.2408244e-38 306 249
-0.01757366 0.77100003 -0.01216638 8.5407011e-39 307 249
-0.016179759 0.76899999 -0.012134819 9.2797067e-39 308 249
-0.014831445 0.76899999 -0.012134819 1.1492403e-38 309 249
-0.013483133 0.76899999 -0.012134819 1.6370113e-38 310 249
-0.01210326 0.76700002 -0.01210326 1.5448517e-38 311 249
-0.010758453 0.76700002 -0.01210326 1.6452958e-38 312 249
-0.0094136465 0.76700002 -0.01210326 1.6268566e-38 313 249
-0.0080898795 0.76899999 -0.012134819 1.5992703e-38 314 249
-0.0067415666 0.76899999 -0.012134819 1.5992703e-38 315 249
-0.0053932532 0.76899999 -0.012134819 1.5258738e-38 316 249
-0.0040449398 0.76899999 -0.012134819 1.5073986e-38 317 249
-0.0026966266 0.76899999 -0.012134819 1.4889247e-38 318 249
-0.00135182 0.77100003 -0.01216638 1.4889247e-38 319 249
0 0.77100003 -0.01216638 1.4430071e-38 320 249
0.0013483133 0.76899999 -0.012134819 1.424532e-38 321 249
0.0026896133 0.76700002 -0.01210326 1.4059844e-38 322 249
0.00403442 0.76700002 -0.01210326 1.2953136e-38 323 249
0.0054072798 0.77100003 -0.01216638 7.2575153e-39 324 249
0.0067590997 0.77100003 -0.01216638 9.7467805e-39 325 249
0.0081109209 0.77100003 -0.01216638 1.314614e-38 326 249
0.0094627403 0.77100003 -0.01216638 1.314614e-38 327 249
0.010842613 0.773 -0.012197939 1.3698595e-38 328 249
0.012197939 0.773 -0.012197939 1.3882986e-38 329 249
0.013570799 0.77399999 -0.01221372 1.3792958e-38 330 249
0.014927879 0.77399999 -0.01221372 1.397735e-38 331 249
0.01632704 0.77600002 -0.01224528 1.407027e-38 332 249
0.017687626 0.77600002 -0.01224528 1.4162467e-38 333 249
0.019048214 0.77600002 -0.01224528 1.4163911e-38 334 249
0.020461399 0.778 -0.012276839 1.4440138e-38 335 249
0.021825492 0.778 -0.012276839 1.3891656e-38 336 249
0.023249198 0.77999997 -0.012308398 1.2232136e-38 337 249
0.024616797 0.77999997 -0.012308398 9.7518798e-39 338 249
0.026017714 0.78100002 -0.01232418 1.9709008e-38 339 249
-0.031575777 0.78299999 -0.013728599 1.3729959e-38 297 250
-0.030125774 0.78100002 -0.013693534 1.5923907e-38 298 250
-0.028645959 0.778 -0.013640933 1.3987799e-38 299 250
-0.027211733 0.77600002 -0.013605867 1.6277567e-38 300 250
-0.025851147 0.77600002 -0.013605867 1.581659e-38 301 250
-0.024490559 0.77600002 -0.013605867 1.6457644e-38 302 250
-0.02307036 0.77399999 -0.013570799 1.6365447e-38 303 250
-0.021713279 0.77399999 -0.013570799 1.6366174e-38 304 250
-0.0203299 0.773 -0.013553266 1.6827151e-38 305 250
-0.018925481 0.77100003 -0.013518199 1.0566505e-38 306 250
-0.01757366 0.77100003 -0.013518199 6.4284847e-39 307 250
-0.016179759 0.76899999 -0.013483133 1.0937433e-38 308 250
-0.014831445 0.76899999 -0.013483133 1.2873541e-38 309 250
-0.013483133 0.76899999 -0.013483133 1.6185006e-38 310 250
-0.01210326 0.76700002 -0.013448066 1.5447441e-38 311 250
-0.010758453 0.76700002 -0.013448066 1.6268216e-38 312 250
-0.0094136465 0.76700002 -0.013448066 1.6083826e-38 313 250
-0.0080898795 0.76899999 -0.013483133 1.5534243e-38 314 250
-0.0067415666 0.76899999 -0.013483133 1.5442047e-38 315 250
-0.0053932532 0.76899999 -0.013483133 1.5075061e-38 316 250
-0.0040449398 0.76899999 -0.013483133 1.4614084e-38 317 250
-0.0026966266 0.76899999 -0.013483133 1.4521182e-38 318 250
-0.00135182 0.77100003 -0.013518199 1.4521182e-38 319 250
0 0.77100003 -0.013518199 1.4062714e-38 320 250
0.0013483133 0.76899999 -0.013483133 1.4062714e-38 321 250
0.0026896133 0.76700002 -0.013448066 1.3786475e-38 322 250
0.00403442 0.76700002 -0.013448066 1.304891e-38 323 250
0.0054072798 0.77100003 -0.013518199 7.9035924e-39 324 250
0.0067766332 0.773 -0.013553266 9.931892e-39 325 250
0.0081109209 0.77100003 -0.013518199 1.314974e-38 326 250
0.0094627403 0.77100003 -0.013518199 1.3057544e-38 327 250
0.010842613 0.773 -0.013553266 1.3517794e-38 328 250
0.01221372 0.77399999 -0.013570799 1.3702545e-38 329 250
0.013570799 0.77399999 -0.013570799 1.3795475e-38 330 250
0.014966453 0.77600002 -0.013605867 1.3887672e-38 331 250
0.016369121 0.778 -0.013640933 1.3979164e-38 332 250
0.017733213 0.778 -0.013640933 1.4163914e-38 333 250
0.019097306 0.778 -0.013640933 1.4164643e-38 334 250
0.020513998 0.77999997 -0.013675999 1.444159e-38 335 250
0.021881599 0.77999997 -0.013675999 1.407642e-38 336 250
0.023279008 0.78100002 -0.013693534 1.2324703e-38 337 250
0.024648361 0.78100002 -0.013693534 1.0401931e-38 338 250
-0.031575777 0.78299999 -0.01510146 1.3916877e-38 297 251
-0.030087199 0.77999997 -0.0150436 1.5836043e-38 298 251
-0.028645959 0.778 -0.015005025 1.3807739e-38 299 251
-0.027211733 0.77600002 -0.014966453 1.5820912e-38 300 251
-0.025851147 0.77600002 -0.014966453 1.5175542e-38 301 251
-0.024490559 0.77600002 -0.014966453 1.6091382e-38 302 251
-0.02307036 0.77399999 -0.014927879 1.5999186e-38 303 251
-0.021713279 0.77399999 -0.014927879 1.5631494e-38 304 251
-0.0203299 0.773 -0.014908593 1.5170517e-38 305 251
-0.018925481 0.77100003 -0.01487002 9.0917351e-39 306 251
-0.01757366 0.77100003 -0.01487002 6.3366492e-39 307 251
-0.016179759 0.76899999 -0.014831445 1.3054334e-38 308 251
-0.014831445 0.76899999 -0.014831445 1.4345073e-38 309 251
-0.013483133 0.76899999 -0.014831445 1.6092091e-38 310 251
-0.01210326 0.76700002 -0.014792874 1.5446722e-38 311 251
-0.010758453 0.76700002 -0.014792874 1.5901236e-38 312 251
-0.0094136465 0.76700002 -0.014792874 1.580904e-38 313 251
-0.0080898795 0.76899999 -0.014831445 1.507651e-38 314 251
-0.0067415666 0.76899999 -0.014831445 1.4984314e-38 315 251
-0.0053932532 0.76899999 -0.014831445 1.4615529e-38 316 251
-0.0040449398 0.76899999 -0.014831445 1.4246746e-38 317 251
-0.0027036399 0.77100003 -0.01487002 1.4429338e-38 318 251
