# .PCD v.7 - Point Cloud Data file format
FIELDS x y z rgb imX imY
SIZE 4 4 4 4 4 4
TYPE F F F F F F
COUNT 1 1 1 1 1 1
WIDTH 834
HEIGHT 1
VIEWPOINT 0 0 0 1 0 0 0
POINTS 834
DATA ascii
0.042527102 0.69300002 -0.0036451798 1.7334223e-38 355 243
0.043742158 0.69300002 -0.0036451798 1.74257e-38 356 243
0.045022093 0.69400001 -0.0036504399 1.7241309e-38 357 243
0.046238903 0.69400001 -0.0036504399 1.7148753e-38 358 243
0.047455717 0.69400001 -0.0036504399 1.7148753e-38 359 243
0.048672531 0.69400001 -0.0036504399 1.6690286e-38 360 243
0.049889345 0.69400001 -0.0036504399 1.659809e-38 361 243
0.051106159 0.69400001 -0.0036504399 1.6505539e-38 362 243
0.052322973 0.69400001 -0.0036504399 1.6505539e-38 363 243
0.053539783 0.69400001 -0.0036504399 1.6870725e-38 364 243
0.054756597 0.69400001 -0.0036504399 1.6594137e-38 365 243
0.056134716 0.69599998 -0.0036609597 1.6135311e-38 366 243
0.057355035 0.69599998 -0.0036609597 1.6043116e-38 367 243
0.058575355 0.69599998 -0.0036609597 1.6409005e-38 368 243
0.059967503 0.69800001 -0.0036714801 1.6224613e-38 369 243
0.061366666 0.69999999 -0.0036819996 1.7324827e-38 370 243
0.0049303733 0.70300001 -0.0049303733 1.8345116e-38 324 244
0.0061629666 0.70300001 -0.0049303733 1.7975974e-38 325 244
0.0073955595 0.70300001 -0.0049303733 1.7792665e-38 326 244
0.0086036054 0.70099998 -0.0049163462 1.7792665e-38 327 244
0.0098186666 0.69999999 -0.0049093333 1.8159652e-38 328 244
0.01101444 0.69800001 -0.0048953067 1.8159652e-38 329 244
0.012238266 0.69800001 -0.0048953067 1.8252567e-38 330 244
0.013442807 0.69700003 -0.0048882933 1.8252567e-38 331 244
0.01466488 0.69700003 -0.0048882933 1.8252564e-38 332 244
0.015818574 0.69400001 -0.0048672534 1.8345118e-38 333 244
0.017035386 0.69400001 -0.0048672534 1.8252567e-38 334 244
0.0182522 0.69400001 -0.0048672534 1.8344763e-38 335 244
0.019469013 0.69400001 -0.0048672534 1.8345483e-38 336 244
0.020685827 0.69400001 -0.0048672534 1.8714624e-38 337 244
0.021902639 0.69400001 -0.0048672534 1.8990848e-38 338 244
0.023119451 0.69400001 -0.0048672534 1.9083404e-38 339 244
0.024336265 0.69400001 -0.0048672534 1.9082684e-38 340 244
0.025553079 0.69400001 -0.0048672534 1.8990488e-38 341 244
0.026769891 0.69400001 -0.0048672534 1.889722e-38 342 244
0.027986705 0.69400001 -0.0048672534 1.889722e-38 343 244
0.029161438 0.69300002 -0.00486024 1.8713545e-38 344 244
0.0303765 0.69300002 -0.00486024 1.8344763e-38 345 244
0.031591557 0.69300002 -0.00486024 1.714693e-38 346 244
0.03280662 0.69300002 -0.00486024 1.5856191e-38 347 244
0.034021679 0.69300002 -0.00486024 1.4935689e-38 348 244
0.035236739 0.69300002 -0.00486024 1.6595569e-38 349 244
0.036346599 0.69099998 -0.0048462129 1.8162912e-38 350 244
0.03755815 0.69099998 -0.0048462129 1.7978521e-38 351 244
0.038769703 0.69099998 -0.0048462129 1.7701929e-38 352 244
0.039981257 0.69099998 -0.0048462129 1.7425703e-38 353 244
0.041192811 0.69099998 -0.0048462129 1.7425703e-38 354 244
0.042404365 0.69099998 -0.0048462129 1.7425703e-38 355 244
0.043615919 0.69099998 -0.0048462129 1.7333867e-38 356 244
0.044957221 0.69300002 -0.00486024 1.705764e-38 357 244
0.04617228 0.69300002 -0.00486024 1.7241309e-38 358 244
0.047455717 0.69400001 -0.0048672534 1.7148753e-38 359 244
0.048602402 0.69300002 -0.00486024 1.7149109e-38 360 244
0.049817458 0.69300002 -0.00486024 1.7056913e-38 361 244
0.051106159 0.69400001 -0.0048672534 1.6689933e-38 362 244
0.052322973 0.69400001 -0.0048672534 1.6689933e-38 363 244
0.053539783 0.69400001 -0.0048672534 1.6780331e-38 364 244
0.054756597 0.69400001 -0.0048672534 1.6595939e-38 365 244
0.055973411 0.69400001 -0.0048672534 1.6320071e-38 366 244
0.057190225 0.69400001 -0.0048672534 1.6227876e-38 367 244
0.058575355 0.69599998 -0.0048812795 1.631898e-38 368 244
0.059967503 0.69800001 -0.0048953067 1.5950197e-38 369 244
0.061366666 0.69999999 -0.0049093333 1.6775622e-38 370 244
0.062593997 0.69999999 -0.0049093333 1.6683068e-38 371 244
0.064186029 0.704 -0.0049373866 1.7508497e-38 372 244
0.065420374 0.704 -0.0049373866 1.7416301e-38 373 244
0.066560037 0.70300001 -0.0049303733 1.7874396e-38 374 244
0.0049163462 0.70099998 -0.0061454331 1.8251845e-38 324 245
0.0061454331 0.70099998 -0.0061454331 1.8067454e-38 325 245
0.0073429602 0.69800001 -0.006119133 1.7792309e-38 326 245
0.0085667865 0.69800001 -0.006119133 1.7884505e-38 327 245
0.0097906133 0.69800001 -0.006119133 1.8068176e-38 328 245
0.010982879 0.69599998 -0.0061015999 1.8160371e-38 329 245
0.012168133 0.69400001 -0.0060840664 1.8252564e-38 330 245
0.013384946 0.69400001 -0.0060840664 1.8252564e-38 331 245
0.014580719 0.69300002 -0.0060753003 1.8436235e-38 332 245
0.015795778 0.69300002 -0.0060753003 1.8528431e-38 333 245
0.01701084 0.69300002 -0.0060753003 1.8344763e-38 334 245
0.018225901 0.69300002 -0.0060753003 1.843696e-38 335 245
0.01944096 0.69300002 -0.0060753003 1.8437678e-38 336 245
0.020656019 0.69300002 -0.0060753003 1.8898655e-38 337 245
0.021871079 0.69300002 -0.0060753003 1.880754e-38 338 245
0.02308614 0.69300002 -0.0060753003 1.880754e-38 339 245
0.024301201 0.69300002 -0.0060753003 1.9449312e-38 340 245
0.02551626 0.69300002 -0.0060753003 1.9449312e-38 341 245
0.02673132 0.69300002 -0.0060753003 1.9540785e-38 342 245
0.027946379 0.69300002 -0.0060753003 1.9448589e-38 343 245
0.029161438 0.69300002 -0.0060753003 1.8803923e-38 344 245
0.0303765 0.69300002 -0.0060753003 1.7328793e-38 345 245
0.031591557 0.69300002 -0.0060753003 1.4932074e-38 346 245
0.03280662 0.69300002 -0.0060753003 1.2350596e-38 347 245
0.034021679 0.69300002 -0.0060753003 9.3189669e-39 348 245
0.035236739 0.69300002 -0.0060753003 1.2084837e-38 349 245
0.036346599 0.69099998 -0.0060577663 1.6231142e-38 350 245
0.037503798 0.69 -0.0060489997 1.6968707e-38 351 245
0.038713597 0.69 -0.0060489997 1.7886688e-38 352 245
0.0399234 0.69 -0.0060489997 1.7333873e-38 353 245
0.041133199 0.69 -0.0060489997 1.7243107e-38 354 245
0.042404365 0.69099998 -0.0060577663 1.7150911e-38 355 245
0.043615919 0.69099998 -0.0060577663 1.74257e-38 356 245
0.044827472 0.69099998 -0.0060577663 1.7241309e-38 357 245
0.046039023 0.69099998 -0.0060577663 1.7148753e-38 358 245
0.047387339 0.69300002 -0.0060753003 1.7148753e-38 359 245
0.048602402 0.69300002 -0.0060753003 1.7148753e-38 360 245
0.049817458 0.69300002 -0.0060753003 1.7148753e-38 361 245
0.051032521 0.69300002 -0.0060753003 1.6873242e-38 362 245
0.052322973 0.69400001 -0.0060840664 1.6873242e-38 363 245
0.053539783 0.69400001 -0.0060840664 1.7056194e-38 364 245
0.054756597 0.69400001 -0.0060840664 1.6963999e-38 365 245
0.055973411 0.69400001 -0.0060840664 1.6688488e-38 366 245
0.057190225 0.69400001 -0.0060840664 1.6595934e-38 367 245
0.058575355 0.69599998 -0.0061015999 1.6411894e-38 368 245
0.05988159 0.69700003 -0.0061103669 1.6135667e-38 369 245
0.061191335 0.69800001 -0.006119133 1.6501558e-38 370 245
0.062593997 0.69999999 -0.0061366665 1.6317165e-38 371 245
0.063821331 0.69999999 -0.0061366665 1.6958919e-38 372 245
0.065327443 0.70300001 -0.0061629666 1.6866723e-38 373 245
0.066560037 0.70300001 -0.0061629666 1.7599248e-38 374 245
0.067792632 0.70300001 -0.0061629666 1.7599248e-38 375 245
0.0036714801 0.69800001 -0.0073429602 1.7880539e-38 323 246
0.0048953067 0.69800001 -0.0073429602 1.8528431e-38 324 246
0.006119133 0.69800001 -0.0073429602 1.8067454e-38 325 246
0.00733244 0.69700003 -0.00733244 1.8068176e-38 326 246
0.0085422397 0.69599998 -0.0073219193 1.8068176e-38 327 246
0.0097345067 0.69400001 -0.0073008798 1.8159652e-38 328 246
0.01095132 0.69400001 -0.0073008798 1.8251848e-38 329 246
0.012150601 0.69300002 -0.0072903596 1.8252564e-38 330 246
0.01336566 0.69300002 -0.0072903596 1.8252564e-38 331 246
0.014538639 0.69099998 -0.0072693196 1.8435879e-38 332 246
0.015750192 0.69099998 -0.0072693196 1.8528075e-38 333 246
0.016961746 0.69099998 -0.0072693196 1.8344765e-38 334 246
0.0181733 0.69099998 -0.0072693196 1.8620993e-38 335 246
0.019384852 0.69099998 -0.0072693196 1.8714624e-38 336 246
0.020596405 0.69099998 -0.0072693196 1.9083048e-38 337 246
0.021807959 0.69099998 -0.0072693196 1.9266716e-38 338 246
0.02308614 0.69300002 -0.0072903596 1.8990488e-38 339 246
0.024301201 0.69300002 -0.0072903596 1.8895769e-38 340 246
0.02551626 0.69300002 -0.0072903596 1.7697227e-38 341 246
0.02673132 0.69300002 -0.0072903596 1.6403241e-38 342 246
0.027946379 0.69300002 -0.0072903596 1.4098709e-38 343 246
0.029161438 0.69300002 -0.0072903596 1.2154314e-38 344 246
0.0303765 0.69300002 -0.0072903596 9.3884447e-39 345 246
0.031500384 0.69099998 -0.0072693196 6.9059828e-39 346 246
0.032711938 0.69099998 -0.0072693196 6.6293959e-39 347 246
0.034021679 0.69300002 -0.0072903596 3.9658582e-39 348 246
0.035084199 0.69 -0.0072587994 5.256597e-39 349 246
0.036293998 0.69 -0.0072587994 4.4542234e-39 350 246
0.037395094 0.68800002 -0.0072377604 1.0723167e-38 351 246
0.038601387 0.68800002 -0.0072377604 1.7520082e-38 352 246
0.0399234 0.69 -0.0072587994 1.7612277e-38 353 246
0.041133199 0.69 -0.0072587994 1.7335305e-38 354 246
0.042342998 0.69 -0.0072587994 1.7150555e-38 355 246
0.043552797 0.69 -0.0072587994 1.7333504e-38 356 246
0.0447626 0.69 -0.0072587994 1.7241309e-38 357 246
0.045972396 0.69 -0.0072587994 1.7057638e-38 358 246
0.047250576 0.69099998 -0.0072693196 1.6965441e-38 359 246
0.048602402 0.69300002 -0.0072903596 1.7149109e-38 360 246
0.049817458 0.69300002 -0.0072903596 1.7056913e-38 361 246
0.051032521 0.69300002 -0.0072903596 1.6873245e-38 362 246
0.05224758 0.69300002 -0.0072903596 1.6873245e-38 363 246
0.053462639 0.69300002 -0.0072903596 1.6873248e-38 364 246
0.054756597 0.69400001 -0.0073008798 1.6781052e-38 365 246
0.055973411 0.69400001 -0.0073008798 1.6505186e-38 366 246
0.057190225 0.69400001 -0.0073008798 1.641299e-38 367 246
0.058575355 0.69599998 -0.0073219193 1.6320791e-38 368 246
0.059795678 0.69599998 -0.0073219193 1.6228594e-38 369 246
0.061103668 0.69700003 -0.00733244 1.6410822e-38 370 246
0.062325738 0.69700003 -0.00733244 1.6226431e-38 371 246
0.063638985 0.69800001 -0.0073429602 1.6409007e-38 372 246
0.065048665 0.69999999 -0.0073639993 1.6132062e-38 373 246
0.066560037 0.70300001 -0.0073955595 1.7231556e-38 374 246
0.067792632 0.70300001 -0.0073955595 1.7323753e-38 375 246
0.068828844 0.70099998 -0.0073745195 1.778256e-38 376 246
0.0024476533 0.69800001 -0.0085667865 1.465873e-38 322 247
0.00366622 0.69700003 -0.0085545136 1.6871785e-38 323 247
0.0048882933 0.69700003 -0.0085545136 1.7516448e-38 324 247
0.0061015999 0.69599998 -0.0085422397 1.7424251e-38 325 247
0.0073219193 0.69599998 -0.0085422397 1.7516448e-38 326 247
0.0085176928 0.69400001 -0.0085176928 1.7608644e-38 327 247
0.0097204801 0.69300002 -0.0085054198 1.7609e-38 328 247
0.010935539 0.69300002 -0.0085054198 1.7793031e-38 329 247
0.012115533 0.69099998 -0.008480873 1.7885224e-38 330 247
0.013327086 0.69099998 -0.008480873 1.7885224e-38 331 247
0.014517599 0.69 -0.0084686 1.7976706e-38 332 247
0.015727401 0.69 -0.0084686 1.8252933e-38 333 247
0.0169372 0.69 -0.0084686 1.862064e-38 334 247
0.018146999 0.69 -0.0084686 1.880539e-38 335 247
0.019356798 0.69 -0.0084686 1.9449312e-38 336 247
0.020566599 0.69 -0.0084686 1.908053e-38 337 247
0.021776399 0.69 -0.0084686 1.8711012e-38 338 247
0.022986198 0.69 -0.0084686 1.7512468e-38 339 247
0.024231065 0.69099998 -0.008480873 1.5944767e-38 340 247
0.02551626 0.69300002 -0.0085054198 1.3916463e-38 341 247
0.02673132 0.69300002 -0.0085054198 1.1889216e-38 342 247
0.027865725 0.69099998 -0.008480873 8.938597e-39 343 247
0.029035198 0.69 -0.0084686 7.2747597e-39 344 247
0.030244999 0.69 -0.0084686 6.2609665e-39 345 247
0.031454802 0.69 -0.0084686 6.2653147e-39 346 247
0.032711938 0.69099998 -0.008480873 6.6344574e-39 347 247
0.034021679 0.69300002 -0.0085054198 5.1647559e-39 348 247
0.035084199 0.69 -0.0084686 3.8740171e-39 349 247
0.036293998 0.69 -0.0084686 2.4507309e-41 350 247
0.037395094 0.68800002 -0.0084440531 4.9133966e-39 351 247
0.038601387 0.68800002 -0.0084440531 1.2184996e-38 352 247
0.039807681 0.68800002 -0.0084440531 1.485867e-38 353 247
0.041013971 0.68800002 -0.0084440531 1.8162562e-38 354 247
0.042220265 0.68800002 -0.0084440531 1.7701223e-38 355 247
0.043426562 0.68800002 -0.0084440531 1.7609012e-38 356 247
0.044632856 0.68800002 -0.0084440531 1.7424621e-38 357 247
0.045839146 0.68800002 -0.0084440531 1.6965443e-38 358 247
0.047045439 0.68800002 -0.0084440531 1.6965443e-38 359 247
0.048251733 0.68800002 -0.0084440531 1.6689933e-38 360 247
0.049458027 0.68800002 -0.0084440531 1.6689933e-38 361 247
0.050885238 0.69099998 -0.008480873 1.6781049e-38 362 247
0.052096792 0.69099998 -0.008480873 1.6781049e-38 363 247
0.053462639 0.69300002 -0.0085054198 1.6780696e-38 364 247
0.054677699 0.69300002 -0.0085054198 1.6780696e-38 365 247
0.055973411 0.69400001 -0.0085176928 1.6688501e-38 366 247
0.057190225 0.69400001 -0.0085176928 1.6596305e-38 367 247
0.058407038 0.69400001 -0.0085176928 1.6412271e-38 368 247
0.059795678 0.69599998 -0.0085422397 1.6320074e-38 369 247
0.061015997 0.69599998 -0.0085422397 1.6318992e-38 370 247
0.062325738 0.69700003 -0.0085545136 1.6134961e-38 371 247
0.06354782 0.69700003 -0.0085545136 1.613423e-38 372 247
0.06486281 0.69800001 -0.0085667865 1.5765806e-38 373 247
0.066370681 0.70099998 -0.0086036054 1.6497953e-38 374 247
0.067599766 0.70099998 -0.0086036054 1.6497953e-38 375 247
0 0.69999999 -0.0098186666 9.3096665e-40 320 248
0.0012238267 0.69800001 -0.0097906133 5.5407481e-39 321 248
0.0024476533 0.69800001 -0.0097906133 1.4659475e-38 322 248
0.00366622 0.69700003 -0.0097765867 1.604241e-38 323 248
0.0048812795 0.69599998 -0.0097625591 1.6595213e-38 324 248
0.0060840664 0.69400001 -0.0097345067 1.6503018e-38 325 248
0.0073008798 0.69400001 -0.0097345067 1.7147664e-38 326 248
0.0085054198 0.69300002 -0.0097204801 1.7424251e-38 327 248
0.0097204801 0.69300002 -0.0097204801 1.7791593e-38 328 248
0.01090398 0.69099998 -0.0096924258 1.7975624e-38 329 248
0.012097999 0.69 -0.0096783992 1.7975624e-38 330 248
0.0133078 0.69 -0.0096783992 1.7975624e-38 331 248
0.014475521 0.68800002 -0.0096503468 1.7975627e-38 332 248
0.015681813 0.68800002 -0.0096503468 1.7975627e-38 333 248
0.016888106 0.68800002 -0.0096503468 1.7977425e-38 334 248
0.0180944 0.68800002 -0.0096503468 1.806962e-38 335 248
0.019300694 0.68800002 -0.0096503468 1.8342952e-38 336 248
0.020506985 0.68800002 -0.0096503468 1.6222092e-38 337 248
0.021776399 0.69 -0.0096783992 1.4005768e-38 338 248
0.022986198 0.69 -0.0096783992 9.4881835e-39 339 248
0.024195999 0.69 -0.0096783992 5.9847398e-39 340 248
0.02551626 0.69300002 -0.0097204801 5.3393731e-39 341 248
0.02673132 0.69300002 -0.0097204801 5.1603965e-39 342 248
0.027865725 0.69099998 -0.0096924258 6.1745484e-39 343 248
0.028908957 0.68699998 -0.0096363192 7.0972488e-39 344 248
0.029982001 0.68400002 -0.0095942402 7.5578682e-39 345 248
0.03118128 0.68400002 -0.0095942402 8.3829654e-39 346 248
0.032380559 0.68400002 -0.0095942402 8.3829654e-39 347 248
0.033579841 0.68400002 -0.0095942402 8.0163507e-39 348 248
0.034677424 0.68199998 -0.009566186 7.7397638e-39 349 248
0.035925802 0.68300003 -0.0095802136 5.3502626e-39 350 248
0.037123326 0.68300003 -0.0095802136 3.6903812e-39 351 248
0.038601387 0.68800002 -0.0096503468 6.8247579e-40 352 248
0.039807681 0.68800002 -0.0096503468 8.5191043e-39 353 248
0.040954359 0.68699998 -0.0096363192 1.7335337e-38 354 248
0.042158898 0.68699998 -0.0096363192 1.770412e-38 355 248
0.043363437 0.68699998 -0.0096363192 1.7885249e-38 356 248
0.044567976 0.68699998 -0.0096363192 1.7424271e-38 357 248
0.045772515 0.68699998 -0.0096363192 1.6689936e-38 358 248
0.047045439 0.68800002 -0.0096503468 1.6689936e-38 359 248
0.048181597 0.68699998 -0.0096363192 1.6689936e-38 360 248
0.049386136 0.68699998 -0.0096363192 1.6597381e-38 361 248
0.050811596 0.69 -0.0096783992 1.6872173e-38 362 248
0.052021399 0.69 -0.0096783992 1.6872173e-38 363 248
0.053308345 0.69099998 -0.0096924258 1.6597387e-38 364 248
0.054519895 0.69099998 -0.0096924258 1.6597387e-38 365 248
0.055892758 0.69300002 -0.0097204801 1.6413356e-38 366 248
0.057107817 0.69300002 -0.0097204801 1.6413356e-38 367 248
0.058407038 0.69400001 -0.0097345067 1.6229325e-38 368 248
0.059623852 0.69400001 -0.0097345067 1.6137129e-38 369 248
0.061015997 0.69599998 -0.0097625591 1.5952736e-38 370 248
0.062236317 0.69599998 -0.0097625591 1.5860182e-38 371 248
0.06354782 0.69700003 -0.0097765867 1.5860172e-38 372 248
0.06486281 0.69800001 -0.0097906133 1.5675422e-38 373 248
0.066086642 0.69800001 -0.0097906133 1.5856201e-38 374 248
0.067503333 0.69999999 -0.0098186666 1.5764005e-38 375 248
-0.0012238267 0.69800001 -0.01101444 4.9796556e-39 319 249
0 0.69700003 -0.01099866 9.2253461e-39 320 249
0.0012203199 0.69599998 -0.010982879 1.2452193e-38 321 249
0.0024406398 0.69599998 -0.010982879 1.6317204e-38 322 249
0.0036504399 0.69400001 -0.01095132 1.6962574e-38 323 249
0.0048672534 0.69400001 -0.01095132 1.7514649e-38 324 249
0.0060753003 0.69300002 -0.010935539 1.7514649e-38 325 249
0.0072693196 0.69099998 -0.01090398 1.7332053e-38 326 249
0.008480873 0.69099998 -0.01090398 1.7424248e-38 327 249
0.0096783992 0.69 -0.010888199 1.7791593e-38 328 249
0.010856641 0.68800002 -0.010856641 1.7791593e-38 329 249
0.012062933 0.68800002 -0.010856641 1.7607566e-38 330 249
0.013269227 0.68800002 -0.010856641 1.7423535e-38 331 249
0.014475521 0.68800002 -0.010856641 1.68718e-38 332 249
0.015681813 0.68800002 -0.010856641 1.6779605e-38 333 249
0.016888106 0.68800002 -0.010856641 1.6501207e-38 334 249
0.018068098 0.68699998 -0.010840859 1.474913e-38 335 249
0.019272638 0.68699998 -0.010840859 1.2806523e-38 336 249
0.020506985 0.68800002 -0.010856641 1.0040652e-38 337 249
0.021713281 0.68800002 -0.010856641 7.3691133e-39 338 249
0.022886258 0.68699998 -0.010840859 5.1560609e-39 339 249
0.024090799 0.68699998 -0.010840859 3.1310164e-39 340 249
0.025295338 0.68699998 -0.010840859 4.974929e-39 341 249
0.026345588 0.68300003 -0.01077774 6.0805956e-39 342 249
0.027543113 0.68300003 -0.01077774 7.0021931e-39 343 249
0.028740639 0.68300003 -0.01077774 7.0961894e-39 344 249
0.029938167 0.68300003 -0.01077774 7.2809408e-39 345 249
0.031135695 0.68300003 -0.01077774 7.8312377e-39 346 249
0.032285877 0.68199998 -0.010761959 7.8312377e-39 347 249
0.03348165 0.68199998 -0.010761959 7.924155e-39 348 249
0.034677424 0.68199998 -0.010761959 8.0163507e-39 349 249
0.035925802 0.68300003 -0.01077774 7.2816569e-39 350 249
0.037123326 0.68300003 -0.01077774 5.253353e-39 351 249
0.038545277 0.68699998 -0.010840859 1.307319e-39 352 249
0.039749816 0.68699998 -0.010840859 5.7327092e-39 353 249
0.040954359 0.68699998 -0.010840859 1.0346472e-38 354 249
0.042158898 0.68699998 -0.010840859 1.3758069e-38 355 249
0.043363437 0.68699998 -0.010840859 1.8161129e-38 356 249
0.044567976 0.68699998 -0.010840859 1.7423564e-38 357 249
0.045772515 0.68699998 -0.010840859 1.6597384e-38 358 249
0.046977058 0.68699998 -0.010840859 1.6597384e-38 359 249
0.048111461 0.68599999 -0.010825079 1.6597384e-38 360 249
0.049314249 0.68599999 -0.010825079 1.6597384e-38 361 249
0.050664321 0.68800002 -0.010856641 1.6688503e-38 362 249
0.051870614 0.68800002 -0.010856641 1.6688503e-38 363 249
0.053076908 0.68800002 -0.010856641 1.6504832e-38 364 249
0.054440998 0.69 -0.010888199 1.6504832e-38 365 249
0.055650797 0.69 -0.010888199 1.6413712e-38 366 249
0.056942999 0.69099998 -0.01090398 1.6413712e-38 367 249
0.058154557 0.69099998 -0.01090398 1.6137845e-38 368 249
0.05953794 0.69300002 -0.010935539 1.5861617e-38 369 249
0.060840666 0.69400001 -0.01095132 1.604421e-38 370 249
0.06205748 0.69400001 -0.01095132 1.5952015e-38 371 249
0.063456632 0.69599998 -0.010982879 1.5768342e-38 372 249
0.064676955 0.69599998 -0.010982879 1.5583952e-38 373 249
0.06599196 0.69700003 -0.01099866 1.5857654e-38 374 249
0.067503333 0.69999999 -0.011045999 1.5672904e-38 375 249
0.068730667 0.69999999 -0.011045999 1.6591967e-38 376 249
-0.0012220733 0.69700003 -0.012220734 1.0512472e-38 319 250
0 0.69700003 -0.012220734 1.5861967e-38 320 250
0.0012203199 0.69599998 -0.0122032 1.6968315e-38 321 250
0.0024406398 0.69599998 -0.0122032 1.7975627e-38 322 250
0.0036451798 0.69300002 -0.012150601 1.7791596e-38 323 250
0.00486024 0.69300002 -0.012150601 1.7975624e-38 324 250
0.0060753003 0.69300002 -0.012150601 1.806782e-38 325 250
0.0072693196 0.69099998 -0.012115533 1.7975621e-38 326 250
0.0084686 0.69 -0.012097999 1.7975621e-38 327 250
0.0096503468 0.68800002 -0.012062933 1.7792312e-38 328 250
0.010856641 0.68800002 -0.012062933 1.7792312e-38 329 250
0.012045399 0.68699998 -0.012045399 1.7700116e-38 330 250
0.013249939 0.68699998 -0.012045399 1.7239138e-38 331 250
0.014454478 0.68699998 -0.012045399 1.6595567e-38 332 250
0.015659019 0.68699998 -0.012045399 1.5765806e-38 333 250
0.01686356 0.68699998 -0.012045399 1.2815176e-38 334 250
0.018068098 0.68699998 -0.012045399 8.3897869e-39 335 250
0.019272638 0.68699998 -0.012045399 3.7713636e-39 336 250
0.020477179 0.68699998 -0.012045399 1.9285454e-39 337 250
0.021681719 0.68699998 -0.012045399 2.2083567e-39 338 250
0.022886258 0.68699998 -0.012045399 3.4990955e-39 339 250
0.024090799 0.68699998 -0.012045399 4.3317499e-39 340 250
0.025295338 0.68699998 -0.012045399 5.2537062e-39 341 250
0.026345588 0.68300003 -0.011975267 6.3568293e-39 342 250
0.027543113 0.68300003 -0.011975267 6.6334162e-39 343 250
0.02869856 0.68199998 -0.011957732 6.8185278e-39 344 250
0.029894331 0.68199998 -0.011957732 7.0954734e-39 345 250
0.031090107 0.68199998 -0.011957732 7.5546523e-39 346 250
0.032191198 0.68000001 -0.011922667 7.7390449e-39 347 250
0.033383466 0.68000001 -0.011922667 7.8319566e-39 348 250
0.034677424 0.68199998 -0.011957732 7.924511e-39 349 250
0.035873197 0.68199998 -0.011957732 8.200372e-39 350 250
0.037068974 0.68199998 -0.011957732 8.1081764e-39 351 250
0.038264744 0.68199998 -0.011957732 5.9920153e-39 352 250
0.039749816 0.68699998 -0.012045399 3.4105377e-39 353 250
0.040954359 0.68699998 -0.012045399 1.8763358e-39 354 250
0.042097531 0.68599999 -0.012027865 9.1597906e-39 355 250
0.043300316 0.68599999 -0.012027865 1.6505581e-38 356 250
0.044503104 0.68599999 -0.012027865 1.6689612e-38 357 250
0.045705888 0.68599999 -0.012027865 1.6505557e-38 358 250
0.046908677 0.68599999 -0.012027865 1.6413003e-38 359 250
0.048111461 0.68599999 -0.012027865 1.6504835e-38 360 250
0.049314249 0.68599999 -0.012027865 1.6504835e-38 361 250
0.050590675 0.68699998 -0.012045399 1.6413358e-38 362 250
0.051795214 0.68699998 -0.012045399 1.6413358e-38 363 250
0.052999757 0.68699998 -0.012045399 1.6229327e-38 364 250
0.054283202 0.68800002 -0.012062933 1.6229327e-38 365 250
0.055489492 0.68800002 -0.012062933 1.595418e-38 366 250
0.0568606 0.69 -0.012097999 1.595418e-38 367 250
0.058070395 0.69 -0.012097999 1.586234e-38 368 250
0.059366114 0.69099998 -0.012115533 1.5769786e-38 369 250
0.060752999 0.69300002 -0.012150601 1.5952736e-38 370 250
0.06205748 0.69400001 -0.012168133 1.5860182e-38 371 250
0.063274294 0.69400001 -0.012168133 1.5860535e-38 372 250
0.064491108 0.69400001 -0.012168133 1.5768339e-38 373 250
0.065897278 0.69599998 -0.0122032 1.5767618e-38 374 250
0.067117594 0.69599998 -0.0122032 1.5399194e-38 375 250
0.068730667 0.69999999 -0.012273333 1.5582509e-38 376 250
-0.0024441467 0.69700003 -0.013442807 1.0980634e-38 318 251
-0.0012220733 0.69700003 -0.013442807 1.4391872e-38 319 251
0 0.69599998 -0.013423519 1.8160021e-38 320 251
0.0012203199 0.69599998 -0.013423519 1.7975271e-38 321 251
0.0024336267 0.69400001 -0.013384946 1.7607563e-38 322 251
0.0036451798 0.69300002 -0.01336566 1.769976e-38 323 251
0.00486024 0.69300002 -0.01336566 1.7792312e-38 324 251
0.0060577663 0.69099998 -0.013327086 1.7884507e-38 325 251
0.0072587994 0.69 -0.0133078 1.7884507e-38 326 251
0.0084686 0.69 -0.0133078 1.7792312e-38 327 251
0.0096503468 0.68800002 -0.013269227 1.7884507e-38 328 251
0.010856641 0.68800002 -0.013269227 1.7884507e-38 329 251
0.012045399 0.68699998 -0.013249939 1.7700116e-38 330 251
0.013230653 0.68599999 -0.013230653 1.7700116e-38 331 251
0.01443344 0.68599999 -0.013230653 1.8160371e-38 332 251
0.015636226 0.68599999 -0.013230653 1.5855482e-38 333 251
0.016839013 0.68599999 -0.013230653 3.3265803e-39 334 251
0.018041799 0.68599999 -0.013230653 1.8514502e-39 335 251
0.019272638 0.68699998 -0.013249939 3.1317647e-39 336 251
0.020477179 0.68699998 -0.013249939 3.8693298e-39 337 251
0.021681719 0.68699998 -0.013249939 4.7905756e-39 338 251
0.022886258 0.68699998 -0.013249939 5.0675226e-39 339 251
0.024090799 0.68699998 -0.013249939 5.2544292e-39 340 251
0.025037598 0.68000001 -0.013114933 5.5310147e-39 341 251
0.026229866 0.68000001 -0.013114933 5.9912712e-39 342 251
0.027502786 0.68199998 -0.013153506 6.1756625e-39 343 251
0.028614398 0.68000001 -0.013114933 6.5433688e-39 344 251
0.029806666 0.68000001 -0.013114933 6.7281202e-39 345 251
0.030998932 0.68000001 -0.013114933 7.2791388e-39 346 251
0.032143861 0.67900002 -0.013095647 7.46353e-39 347 251
0.033334374 0.67900002 -0.013095647 7.7401169e-39 348 251
0.034575731 0.68000001 -0.013114933 7.9245082e-39 349 251
0.035767999 0.68000001 -0.013114933 8.200372e-39 350 251
0.036960267 0.68000001 -0.013114933 8.200372e-39 351 251
0.038152531 0.68000001 -0.013114933 7.2812898e-39 352 251
0.039344799 0.68000001 -0.013114933 6.082748e-39 353 251
0.040715907 0.68300003 -0.013172794 2.501193e-39 354 251
0.041913435 0.68300003 -0.013172794 4.9904736e-39 355 251
0.043110959 0.68300003 -0.013172794 8.6901945e-39 356 251
0.04437336 0.68400002 -0.01319208 1.2286183e-38 357 251
0.045572639 0.68400002 -0.01319208 1.6689599e-38 358 251
0.046771921 0.68400002 -0.01319208 1.6412652e-38 359 251
0.0479712 0.68400002 -0.01319208 1.641264e-38 360 251
0.049170479 0.68400002 -0.01319208 1.641264e-38 361 251
0.050369758 0.68400002 -0.01319208 1.6229327e-38 362 251
0.051719822 0.68599999 -0.013230653 1.6229327e-38 363 251
0.05292261 0.68599999 -0.013230653 1.6137132e-38 364 251
0.054125395 0.68599999 -0.013230653 1.6044577e-38 365 251
0.055408835 0.68699998 -0.013249939 1.5769788e-38 366 251
0.056695789 0.68800002 -0.013269227 1.5769788e-38 367 251
0.057902083 0.68800002 -0.013269227 1.5677591e-38 368 251
0.059280202 0.69 -0.0133078 1.5677591e-38 369 251
0.060577665 0.69099998 -0.013327086 1.5769068e-38 370 251
0.061968062 0.69300002 -0.01336566 1.5676872e-38 371 251
0.063183114 0.69300002 -0.01336566 1.5860182e-38 372 251
0.064491108 0.69400001 -0.013384946 1.5860182e-38 373 251
0.065707922 0.69400001 -0.013384946 1.5677226e-38 374 251
0.066924736 0.69400001 -0.013384946 1.5216249e-38 375 251
0.068828844 0.70099998 -0.013519952 1.374328e-38 376 251
-0.0036609597 0.69599998 -0.014643839 1.2542196e-38 317 252
-0.0024406398 0.69599998 -0.014643839 1.6411894e-38 318 252
-0.0012203199 0.69599998 -0.014643839 1.7794829e-38 319 252
0 0.69400001 -0.01460176 1.7975624e-38 320 252
0.0012168133 0.69400001 -0.01460176 1.7699396e-38 321 252
0.00243012 0.69300002 -0.014580719 1.7791593e-38 322 252
0.0036451798 0.69300002 -0.014580719 1.7975624e-38 323 252
0.0048462129 0.69099998 -0.014538639 1.7792312e-38 324 252
0.0060577663 0.69099998 -0.014538639 1.7792312e-38 325 252
0.0072587994 0.69 -0.014517599 1.7792315e-38 326 252
0.0084440531 0.68800002 -0.014475521 1.7792315e-38 327 252
0.0096363192 0.68699998 -0.014454478 1.7792315e-38 328 252
0.010825079 0.68599999 -0.01443344 1.7792315e-38 329 252
0.012027865 0.68599999 -0.01443344 1.779159e-38 330 252
0.01319208 0.68400002 -0.01439136 1.8068176e-38 331 252
0.01439136 0.68400002 -0.01439136 1.8621347e-38 332 252
0.015567848 0.68300003 -0.014370319 1.5763641e-38 333 252
0.016740825 0.68199998 -0.01434928 1.3865246e-39 334 252
0.017936599 0.68199998 -0.01434928 1.3865246e-39 335 252
0.019132372 0.68199998 -0.01434928 5.8040031e-39 336 252
0.020238725 0.67900002 -0.01428616 6.1731443e-39 337 252
0.0214608 0.68000001 -0.014307199 6.35716e-39 338 252
0.022653066 0.68000001 -0.014307199 6.6341071e-39 339 252
0.023845334 0.68000001 -0.014307199 6.1767162e-39 340 252
0.025037598 0.68000001 -0.014307199 6.4533017e-39 341 252
0.026229866 0.68000001 -0.014307199 6.6355448e-39 342 252
0.027422134 0.68000001 -0.014307199 6.8199361e-39 343 252
0.028614398 0.68000001 -0.014307199 7.0029008e-39 344 252
0.029806666 0.68000001 -0.014307199 7.0950978e-39 345 252
0.030998932 0.68000001 -0.014307199 7.462451e-39 346 252
0.032143861 0.67900002 -0.01428616 7.6468423e-39 347 252
0.033334374 0.67900002 -0.01428616 7.8323125e-39 348 252
0.034524884 0.67900002 -0.01428616 7.9245082e-39 349 252
0.035715401 0.67900002 -0.01428616 8.1092498e-39 350 252
0.036905911 0.67900002 -0.01428616 8.2018041e-39 351 252
0.038096428 0.67900002 -0.01428616 8.1096057e-39 352 252
0.039286941 0.67900002 -0.01428616 7.7404644e-39 353 252
0.040477451 0.67900002 -0.01428616 4.4275566e-39 354 252
0.041852064 0.68199998 -0.01434928 1.5694935e-39 355 252
0.043110959 0.68300003 -0.014370319 3.2499166e-39 356 252
0.044308487 0.68300003 -0.014370319 9.9801976e-39 357 252
0.045506012 0.68300003 -0.014370319 1.5402473e-38 358 252
0.04670354 0.68300003 -0.014370319 1.5955647e-38 359 252
0.047901068 0.68300003 -0.014370319 1.5769435e-38 360 252
0.049098592 0.68300003 -0.014370319 1.5769435e-38 361 252
0.05029612 0.68300003 -0.014370319 1.5586126e-38 362 252
0.051569041 0.68400002 -0.01439136 1.5401374e-38 363 252
0.05276832 0.68400002 -0.01439136 1.5401374e-38 364 252
0.053967599 0.68400002 -0.01439136 1.5401374e-38 365 252
0.055328183 0.68599999 -0.01443344 1.5401374e-38 366 252
0.056613375 0.68699998 -0.014454478 1.5401374e-38 367 252
0.057817914 0.68699998 -0.014454478 1.5309179e-38 368 252
0.059108373 0.68800002 -0.014475521 1.5309179e-38 369 252
0.060489997 0.69 -0.014517599 1.5401011e-38 370 252
0.061789215 0.69099998 -0.014538639 1.5585043e-38 371 252
0.063000768 0.69099998 -0.014538639 1.5401006e-38 372 252
0.064398177 0.69300002 -0.014580719 1.5585396e-38 373 252
0.06561324 0.69300002 -0.014580719 1.5678674e-38 374 252
0.066924736 0.69400001 -0.01460176 1.4848554e-38 375 252
-0.0036609597 0.69599998 -0.015864158 1.7516801e-38 317 253
-0.0024406398 0.69599998 -0.015864158 1.7975624e-38 318 253
-0.0012168133 0.69400001 -0.015818574 1.7699396e-38 319 253
0 0.69400001 -0.015818574 1.7332053e-38 320 253
0.00121506 0.69300002 -0.015795778 1.7516804e-38 321 253
0.00243012 0.69300002 -0.015795778 1.7609e-38 322 253
0.0036346598 0.69099998 -0.015750192 1.7609e-38 323 253
0.0048391996 0.69 -0.015727401 1.7975627e-38 324 253
0.0060489997 0.69 -0.015727401 1.7975627e-38 325 253
0.0072377604 0.68800002 -0.015681813 1.7975627e-38 326 253
0.0084440531 0.68800002 -0.015681813 1.7975627e-38 327 253
0.0096222926 0.68599999 -0.015636226 1.7791596e-38 328 253
0.010825079 0.68599999 -0.015636226 1.7791596e-38 329 253
0.0119928 0.68400002 -0.01559064 1.7975624e-38 330 253
0.013172794 0.68300003 -0.015567848 1.806782e-38 331 253
0.014370319 0.68300003 -0.015567848 1.8713189e-38 332 253
0.015545053 0.68199998 -0.015545053 1.6316461e-38 333 253
0.016691733 0.68000001 -0.015499466 5.3430277e-39 334 253
0.017883999 0.68000001 -0.015499466 4.8824083e-39 335 253
0.019048214 0.67900002 -0.015476674 6.0859878e-39 336 253
0.020238725 0.67900002 -0.015476674 5.7172052e-39 337 253
0.021429239 0.67900002 -0.015476674 6.4522423e-39 338 253
0.022619752 0.67900002 -0.015476674 6.7291894e-39 339 253
0.023810266 0.67900002 -0.015476674 6.7313404e-39 340 253
0.025000781 0.67900002 -0.015476674 6.6391447e-39 341 253
0.026191294 0.67900002 -0.015476674 6.9124988e-39 342 253
0.027381808 0.67900002 -0.015476674 6.7284677e-39 343 253
0.028572321 0.67900002 -0.015476674 6.9117856e-39 344 253
0.029762832 0.67900002 -0.015476674 7.0961768e-39 345 253
0.030907756 0.67799997 -0.015453878 7.2802108e-39 346 253
0.03209652 0.67799997 -0.015453878 7.556799e-39 347 253
0.033285279 0.67799997 -0.015453878 7.9248585e-39 348 253
0.034474038 0.67799997 -0.015453878 8.0170541e-39 349 253
0.0356628 0.67799997 -0.015453878 8.1099686e-39 350 253
0.036905911 0.67900002 -0.015476674 8.1099686e-39 351 253
0.038096428 0.67900002 -0.015476674 8.0177758e-39 352 253
0.039286941 0.67900002 -0.015476674 7.741549e-39 353 253
0.040477451 0.67900002 -0.015476674 6.9110793e-39 354 253
0.041729335 0.68000001 -0.015499466 5.4359478e-39 355 253
0.043047838 0.68199998 -0.015545053 2.9137759e-40 356 253
0.044243611 0.68199998 -0.015545053 2.8728552e-39 357 253
0.045506012 0.68300003 -0.015567848 9.5145405e-39 358 253
0.04670354 0.68300003 -0.015567848 1.2833942e-38 359 253
0.047901068 0.68300003 -0.015567848 1.5216615e-38 360 253
0.049098592 0.68300003 -0.015567848 1.5401006e-38 361 253
0.05029612 0.68300003 -0.015567848 1.5767639e-38 362 253
0.051493648 0.68300003 -0.015567848 1.5767639e-38 363 253
0.05276832 0.68400002 -0.01559064 1.5308816e-38 364 253
0.053967599 0.68400002 -0.01559064 1.5308816e-38 365 253
0.055166878 0.68400002 -0.01559064 1.5032949e-38 366 253
0.056366164 0.68400002 -0.01559064 1.521698e-38 367 253
0.057733759 0.68599999 -0.015636226 1.530846e-38 368 253
0.059022456 0.68699998 -0.015659019 1.530846e-38 369 253
0.060314666 0.68800002 -0.015681813 1.5584324e-38 370 253
0.06152096 0.68800002 -0.015681813 1.5584324e-38 371 253
0.062909603 0.69 -0.015727401 1.5401725e-38 372 253
0.064119399 0.69 -0.015727401 1.5401725e-38 373 253
0.065423876 0.69099998 -0.015750192 1.5678674e-38 374 253
0.066828303 0.69300002 -0.015795778 1.3465619e-38 375 253
0.068043359 0.69300002 -0.015795778 6.2797467e-39 376 253
-0.0048812795 0.69599998 -0.017084479 1.6778516e-38 316 254
-0.0036504399 0.69400001 -0.017035386 1.7792309e-38 317 254
-0.0024336267 0.69400001 -0.017035386 1.7699393e-38 318 254
-0.0012168133 0.69400001 -0.017035386 1.7699393e-38 319 254
0 0.69300002 -0.01701084 1.7608997e-38 320 254
0.00121506 0.69300002 -0.01701084 1.7608997e-38 321 254
0.0024231065 0.69099998 -0.016961746 1.7792312e-38 322 254
0.0036346598 0.69099998 -0.016961746 1.7884507e-38 323 254
0.0048391996 0.69 -0.0169372 1.7699763e-38 324 254
0.0060314666 0.68800002 -0.016888106 1.7699763e-38 325 254
0.0072377604 0.68800002 -0.016888106 1.7699766e-38 326 254
0.0084317802 0.68699998 -0.01686356 1.760721e-38 327 254
0.0096222926 0.68599999 -0.016839013 1.7423898e-38 328 254
0.01079352 0.68400002 -0.016789921 1.7331702e-38 329 254
0.011975267 0.68300003 -0.016765373 1.7424254e-38 330 254
0.013172794 0.68300003 -0.016765373 1.7516451e-38 331 254
0.01434928 0.68199998 -0.016740825 1.8436962e-38 332 254
0.015499466 0.68000001 -0.016691733 1.6684885e-38 333 254
0.016691733 0.68000001 -0.016691733 5.7118102e-39 334 254
0.017857701 0.67900002 -0.016667187 4.6976583e-39 335 254
0.019048214 0.67900002 -0.016667187 6.6359203e-39 336 254
0.020208918 0.67799997 -0.016642639 6.7281174e-39 337 254
0.021397678 0.67799997 -0.016642639 6.9124988e-39 338 254
0.022586439 0.67799997 -0.016642639 7.1894444e-39 339 254
0.023775198 0.67799997 -0.016642639 7.097246e-39 340 254
0.024963958 0.67799997 -0.016642639 7.1894416e-39 341 254
0.026152719 0.67799997 -0.016642639 7.2798394e-39 342 254
0.027381808 0.67900002 -0.016667187 7.2798394e-39 343 254
0.028530238 0.67799997 -0.016642639 7.4645894e-39 344 254
0.029718997 0.67799997 -0.016642639 7.7408176e-39 345 254
0.030907756 0.67799997 -0.016642639 7.9244928e-39 346 254
0.03209652 0.67799997 -0.016642639 8.1085239e-39 347 254
0.033285279 0.67799997 -0.016642639 7.9248585e-39 348 254
0.034474038 0.67799997 -0.016642639 8.0170541e-39 349 254
0.0356628 0.67799997 -0.016642639 8.0177758e-39 350 254
0.036851559 0.67799997 -0.016642639 8.0177758e-39 351 254
0.038040318 0.67799997 -0.016642639 8.2003664e-39 352 254
0.039229076 0.67799997 -0.016642639 7.9241396e-39 353 254
0.040477451 0.67900002 -0.016667187 7.6464793e-39 354 254
0.041729335 0.68000001 -0.016691733 6.3557405e-39 355 254
0.043047838 0.68199998 -0.016740825 8.3837585e-40 356 254
0.044243611 0.68199998 -0.016740825 1.9300644e-40 357 254
0.045439381 0.68199998 -0.016740825 1.1985412e-38 358 254
0.046635158 0.68199998 -0.016740825 1.6502639e-38 359 254
0.047830928 0.68199998 -0.016740825 1.5491759e-38 360 254
0.049026705 0.68199998 -0.016740825 1.5491759e-38 361 254
0.050222475 0.68199998 -0.016740825 1.5399579e-38 362 254
0.051493648 0.68300003 -0.016765373 1.5399579e-38 363 254
0.052691177 0.68300003 -0.016765373 1.5123713e-38 364 254
0.053888701 0.68300003 -0.016765373 1.5031516e-38 365 254
0.055086225 0.68300003 -0.016765373 1.4848924e-38 366 254
0.056366164 0.68400002 -0.016789921 1.4756727e-38 367 254
0.057565439 0.68400002 -0.016789921 1.4756371e-38 368 254
0.058936544 0.68599999 -0.016839013 1.4848926e-38 369 254
0.060226995 0.68699998 -0.01686356 1.4848924e-38 370 254
0.06152096 0.68800002 -0.016888106 1.4941119e-38 371 254
0.06272725 0.68800002 -0.016888106 1.5218059e-38 372 254
0.063933544 0.68800002 -0.016888106 1.5494646e-38 373 254
0.065139838 0.68800002 -0.016888106 1.4480863e-38 374 254
0.06663543 0.69099998 -0.016961746 1.0424255e-38 375 254
0.067846984 0.69099998 -0.016961746 1.2147604e-39 376 254
-0.0061103669 0.69700003 -0.018331099 1.7424999e-38 315 255
-0.0048812795 0.69599998 -0.018304799 1.8160018e-38 316 255
-0.0036504399 0.69400001 -0.0182522 1.7791596e-38 317 255
-0.0024336267 0.69400001 -0.0182522 1.7607919e-38 318 255
-0.00121506 0.69300002 -0.018225901 1.7792312e-38 319 255
0 0.69300002 -0.018225901 1.7517167e-38 320 255
0.0012115532 0.69099998 -0.0181733 1.7517167e-38 321 255
0.0024195998 0.69 -0.018146999 1.7608646e-38 322 255
0.0036293997 0.69 -0.018146999 1.7608646e-38 323 255
0.0048251734 0.68800002 -0.0180944 1.7699763e-38 324 255
0.0060226996 0.68699998 -0.018068098 1.7607566e-38 325 255
0.0072272392 0.68699998 -0.018068098 1.7423179e-38 326 255
0.0084195063 0.68599999 -0.018041799 1.7423179e-38 327 255
0.0095942402 0.68400002 -0.0179892 1.7423179e-38 328 255
0.01077774 0.68300003 -0.017962901 1.7330983e-38 329 255
0.011975267 0.68300003 -0.017962901 1.7330983e-38 330 255
0.013153506 0.68199998 -0.017936599 1.7423179e-38 331 255
0.01434928 0.68199998 -0.017936599 1.8345132e-38 332 255
0.015499466 0.68000001 -0.017883999 1.6962197e-38 333 255
0.016667187 0.67900002 -0.017857701 6.0816676e-39 334 255
0.0178314 0.67799997 -0.0178314 3.7767782e-39 335 255
0.019020159 0.67799997 -0.0178314 6.1756625e-39 336 255
0.020208918 0.67799997 -0.0178314 6.6366406e-39 337 255
0.021334561 0.676 -0.017778801 6.8210319e-39 338 255
0.022519812 0.676 -0.017778801 6.9132275e-39 339 255
0.023705067 0.676 -0.017778801 7.0968985e-39 340 255
0.024890319 0.676 -0.017778801 7.0968985e-39 341 255
0.026152719 0.67799997 -0.0178314 7.3724036e-39 342 255
0.027341479 0.67799997 -0.0178314 7.4645992e-39 343 255
0.028446076 0.676 -0.017778801 7.5578682e-39 344 255
0.029631332 0.676 -0.017778801 7.7426182e-39 345 255
0.030907756 0.67799997 -0.0178314 7.8348139e-39 346 255
0.03209652 0.67799997 -0.0178314 7.8348139e-39 347 255
0.033187091 0.676 -0.017778801 7.7422679e-39 348 255
0.034372345 0.676 -0.017778801 7.5575179e-39 349 255
0.0356628 0.67799997 -0.0178314 7.9245082e-39 350 255
0.036851559 0.67799997 -0.0178314 7.8323125e-39 351 255
0.038040318 0.67799997 -0.0178314 7.8323097e-39 352 255
0.039229076 0.67799997 -0.0178314 7.7401141e-39 353 255
0.040477451 0.67900002 -0.017857701 6.7277642e-39 354 255
0.041667968 0.67900002 -0.017857701 5.2526328e-39 355 255
0.042921599 0.68000001 -0.017883999 2.0336947e-39 356 255
0.044243611 0.68199998 -0.017936599 4.7995649e-39 357 255
0.045439381 0.68199998 -0.017936599 1.4015175e-38 358 255
0.046635158 0.68199998 -0.017936599 1.6781403e-38 359 255
0.047690667 0.68000001 -0.017883999 1.5859463e-38 360 255
0.048882935 0.68000001 -0.017883999 1.5675072e-38 361 255
0.050075196 0.68000001 -0.017883999 1.5032949e-38 362 255
0.051418249 0.68199998 -0.017936599 1.4940754e-38 363 255
0.052691177 0.68300003 -0.017962901 1.4848556e-38 364 255
0.053888701 0.68300003 -0.017962901 1.4848556e-38 365 255
0.055086225 0.68300003 -0.017962901 1.4756361e-38 366 255
0.056283753 0.68300003 -0.017962901 1.4756361e-38 367 255
0.057565439 0.68400002 -0.0179892 1.466309e-38 368 255
0.058764715 0.68400002 -0.0179892 1.4755286e-38 369 255
0.060139328 0.68599999 -0.018041799 1.4755289e-38 370 255
0.061431535 0.68699998 -0.018068098 1.4755289e-38 371 255
0.062636077 0.68699998 -0.018068098 1.5585396e-38 372 255
0.06384062 0.68699998 -0.018068098 1.5585396e-38 373 255
0.065139838 0.68800002 -0.0180944 1.1714628e-38 374 255
0.066346131 0.68800002 -0.0180944 6.5516729e-39 375 255
0.0677488 0.69 -0.018146999 1.1546699e-41 376 255
-0.0061015999 0.69599998 -0.019525118 1.7607919e-38 315 256
-0.0048812795 0.69599998 -0.019525118 1.7331699e-38 316 256
-0.0036504399 0.69400001 -0.019469013 1.7147308e-38 317 256
-0.00243012 0.69300002 -0.01944096 1.7423535e-38 318 256
-0.00121506 0.69300002 -0.01944096 1.7607566e-38 319 256
0 0.69099998 -0.019384852 1.7699766e-38 320 256
0.0012097999 0.69 -0.019356798 1.7699766e-38 321 256
0.0024195998 0.69 -0.019356798 1.7608649e-38 322 256
0.0036188802 0.68800002 -0.019300694 1.7516095e-38 323 256
0.0048251734 0.68800002 -0.019300694 1.7423898e-38 324 256
0.0060226996 0.68699998 -0.019272638 1.7331702e-38 325 256
0.0072167199 0.68599999 -0.019244585 1.7331702e-38 326 256
0.0083949603 0.68400002 -0.01918848 1.7147311e-38 327 256
0.0095802136 0.68300003 -0.019160427 1.7147311e-38 328 256
0.010761959 0.68199998 -0.019132372 1.696328e-38 329 256
0.011957732 0.68199998 -0.019132372 1.6871447e-38 330 256
0.013114933 0.68000001 -0.019076265 1.6963643e-38 331 256
0.014307199 0.68000001 -0.019076265 1.7977072e-38 332 256
0.015476674 0.67900002 -0.019048214 1.7147311e-38 333 256
0.016642639 0.67799997 -0.019020159 7.3734896e-39 334 256
0.0178314 0.67799997 -0.019020159 3.5931086e-39 335 256
0.019020159 0.67799997 -0.019020159 6.267135e-39 336 256
0.020149305 0.676 -0.018964052 6.9125044e-39 337 256
0.021334561 0.676 -0.018964052 6.9139464e-39 338 256
0.022486499 0.67500001 -0.018935999 7.006142e-39 339 256
0.023669999 0.67500001 -0.018935999 7.464602e-39 340 256
0.024890319 0.676 -0.018964052 7.464602e-39 341 256
0.026075572 0.676 -0.018964052 7.373484e-39 342 256
0.027260827 0.676 -0.018964052 7.6500695e-39 343 256
0.028446076 0.676 -0.018964052 8.1106777e-39 344 256
0.029631332 0.676 -0.018964052 8.2028747e-39 345 256
0.030816587 0.676 -0.018964052 8.2950703e-39 346 256
0.032001842 0.676 -0.018964052 8.2028747e-39 347 256
0.033187091 0.676 -0.018964052 7.8326629e-39 348 256
0.034372345 0.676 -0.018964052 7.4638803e-39 349 256
0.035557602 0.676 -0.018964052 7.2798576e-39 350 256
0.036742851 0.676 -0.018964052 7.2798576e-39 351 256
0.038040318 0.67799997 -0.019020159 7.3720533e-39 352 256
0.039229076 0.67799997 -0.019020159 7.2798576e-39 353 256
0.040477451 0.67900002 -0.019048214 6.6323442e-39 354 256
0.041667968 0.67900002 -0.019048214 3.958671e-39 355 256
0.042921599 0.68000001 -0.019076265 5.5353447e-39 356 256
0.044113863 0.68000001 -0.019076265 1.1435865e-38 357 256
0.045306131 0.68000001 -0.019076265 1.6316477e-38 358 256
0.046498399 0.68000001 -0.019076265 1.7146239e-38 359 256
0.047690667 0.68000001 -0.019076265 1.5308813e-38 360 256
0.048811045 0.67900002 -0.019048214 1.5216617e-38 361 256
0.050001562 0.67900002 -0.019048214 1.4848554e-38 362 256
0.051418249 0.68199998 -0.019132372 1.4848554e-38 363 256
0.052614026 0.68199998 -0.019132372 1.493967e-38 364 256
0.053809796 0.68199998 -0.019132372 1.4755639e-38 365 256
0.055005573 0.68199998 -0.019132372 1.4480494e-38 366 256
0.056283753 0.68300003 -0.019160427 1.4480494e-38 367 256
0.057481278 0.68300003 -0.019160427 1.4387227e-38 368 256
0.058764715 0.68400002 -0.01918848 1.4387227e-38 369 256
0.059964001 0.68400002 -0.01918848 1.4295034e-38 370 256
0.061342116 0.68599999 -0.019244585 1.3925891e-38 371 256
0.062544905 0.68599999 -0.019244585 1.3926951e-38 372 256
0.063747689 0.68599999 -0.019244585 1.2820603e-38 373 256
0.064950474 0.68599999 -0.019244585 4.2546911e-39 374 256
0.066153266 0.68599999 -0.019244585 1.9494416e-39 375 256
0.067552425 0.68800002 -0.019300694 1.2097396e-39 376 256
-0.0085913334 0.69999999 -0.020864666 1.6321851e-38 313 257
-0.00733244 0.69700003 -0.020775247 1.7514652e-38 314 257
-0.0061015999 0.69599998 -0.020745439 1.7053673e-38 315 257
-0.0048672534 0.69400001 -0.020685827 1.6779249e-38 316 257
-0.0036451798 0.69300002 -0.020656019 1.6871444e-38 317 257
-0.00243012 0.69300002 -0.020656019 1.7238791e-38 318 257
-0.0012115532 0.69099998 -0.020596405 1.7330986e-38 319 257
0 0.69099998 -0.020596405 1.7331349e-38 320 257
0.0012097999 0.69 -0.020566599 1.7331349e-38 321 257
0.0024125867 0.68800002 -0.020506985 1.7423545e-38 322 257
0.0036188802 0.68800002 -0.020506985 1.7423545e-38 323 257
0.0048181596 0.68699998 -0.020477179 1.7331702e-38 324 257
0.0060139326 0.68599999 -0.020447372 1.7239507e-38 325 257
0.0071956799 0.68400002 -0.020387759 1.723986e-38 326 257
0.0083949603 0.68400002 -0.020387759 1.7147664e-38 327 257
0.0095802136 0.68300003 -0.020357953 1.696328e-38 328 257
0.010761959 0.68199998 -0.020328145 1.6870725e-38 329 257
0.011957732 0.68199998 -0.020328145 1.6962927e-38 330 257
0.013114933 0.68000001 -0.020268533 1.6962927e-38 331 257
0.01428616 0.67900002 -0.020238725 1.788452e-38 332 257
0.015476674 0.67900002 -0.020238725 1.7331705e-38 333 257
0.016642639 0.67799997 -0.020208918 8.6649473e-39 334 257
0.017778801 0.676 -0.020149305 3.8704144e-39 335 257
0.018964052 0.676 -0.020149305 5.9912712e-39 336 257
0.020119499 0.67500001 -0.020119499 6.8210319e-39 337 257
0.021303 0.67500001 -0.020119499 6.6391601e-39 338 257
0.022486499 0.67500001 -0.020119499 6.7313558e-39 339 257
0.023669999 0.67500001 -0.020119499 7.1894571e-39 340 257
0.0248535 0.67500001 -0.020119499 7.1894571e-39 341 257
0.026037 0.67500001 -0.020119499 7.1905375e-39 342 257
0.027220501 0.67500001 -0.020119499 7.4671229e-39 343 257
0.028404001 0.67500001 -0.020119499 7.8351824e-39 344 257
0.0295875 0.67500001 -0.020119499 8.0195751e-39 345 257
0.030771 0.67500001 -0.020119499 7.83626e-39 346 257
0.032001842 0.676 -0.020149305 7.4674761e-39 347 257
0.033137999 0.67500001 -0.020119499 7.0036281e-39 348 257
0.034321502 0.67500001 -0.020119499 6.726681e-39 349 257
0.035557602 0.676 -0.020149305 6.4508228e-39 350 257
0.036742851 0.676 -0.020149305 6.5430185e-39 351 257
0.037928104 0.676 -0.020149305 6.3600733e-39 352 257
0.039229076 0.67799997 -0.020208918 6.2678763e-39 353 257
0.040477451 0.67900002 -0.020238725 5.2519265e-39 354 257
0.041667968 0.67900002 -0.020238725 4.4221658e-39 355 257
0.042858478 0.67900002 -0.020238725 1.0966255e-38 356 257
0.044048995 0.67900002 -0.020238725 1.695933e-38 357 257
0.045239504 0.67900002 -0.020238725 1.6044213e-38 358 257
0.046430022 0.67900002 -0.020238725 1.5582876e-38 359 257
0.047620531 0.67900002 -0.020238725 1.5031869e-38 360 257
0.048811045 0.67900002 -0.020238725 1.4939673e-38 361 257
0.050001562 0.67900002 -0.020238725 1.4663809e-38 362 257
0.051267464 0.68000001 -0.020268533 1.4663809e-38 363 257
0.052459732 0.68000001 -0.020268533 1.4663809e-38 364 257
0.053809796 0.68199998 -0.020328145 1.4571614e-38 365 257
0.055005573 0.68199998 -0.020328145 1.4480494e-38 366 257
0.056201346 0.68199998 -0.020328145 1.4480494e-38 367 257
0.05739712 0.68199998 -0.020328145 1.4571611e-38 368 257
0.05867881 0.68300003 -0.020357953 1.4571611e-38 369 257
0.059876334 0.68300003 -0.020357953 1.4203184e-38 370 257
0.061342116 0.68599999 -0.020447372 1.3557815e-38 371 257
0.062544905 0.68599999 -0.020447372 1.2727686e-38 372 257
0.063747689 0.68599999 -0.020447372 9.408643e-39 373 257
0.064950474 0.68599999 -0.020447372 7.2096806e-42 374 257
0.066153266 0.68599999 -0.020447372 1.2613087e-41 375 257
0.067454241 0.68699998 -0.020477179 3.2340777e-39 376 257
-0.0085913334 0.69999999 -0.022091998 1.6962547e-38 313 258
-0.00733244 0.69700003 -0.02199732 1.6594134e-38 314 258
-0.0061015999 0.69599998 -0.021965759 1.6594134e-38 315 258
-0.0048672534 0.69400001 -0.021902639 1.6594137e-38 316 258
-0.0036346598 0.69099998 -0.021807959 1.6778528e-38 317 258
-0.0024195998 0.69 -0.021776399 1.7054041e-38 318 258
-0.0012097999 0.69 -0.021776399 1.7146236e-38 319 258
0 0.69 -0.021776399 1.7330986e-38 320 258
