# .PCD v.7 - Point Cloud Data file format
FIELDS x y z rgb imX imY
SIZE 4 4 4 4 4 4
TYPE F F F F F F
COUNT 1 1 1 1 1 1
WIDTH 847
HEIGHT 1
VIEWPOINT 0 0 0 1 0 0 0
POINTS 847
DATA ascii
-0.027387068 0.78100002 0.0095854728 1.8350893e-38 300 233
-0.025984399 0.77999997 0.0095731998 1.8719676e-38 301 233
-0.024616797 0.77999997 0.0095731998 1.8993019e-38 302 233
-0.023189586 0.778 0.0095486529 1.7886672e-38 303 233
-0.021825492 0.778 0.0095486529 1.7060861e-38 304 233
-0.020461399 0.778 0.0095486529 1.6876469e-38 305 233
-0.019048214 0.77600002 0.009524107 1.3837954e-38 306 233
-0.017687626 0.77600002 0.009524107 9.873542e-39 307 233
-0.01632704 0.77600002 0.009524107 6.5469435e-39 308 233
-0.014966453 0.77600002 0.009524107 4.7030309e-39 309 233
-0.013640933 0.778 0.0095486529 5.9865853e-39 310 233
-0.012276839 0.778 0.0095486529 4.9720746e-39 311 233
-0.010940799 0.77999997 0.0095731998 4.7681562e-40 312 233
-0.009524107 0.77600002 0.009524107 7.5340251e-40 313 233
-0.0081635201 0.77600002 0.009524107 3.9813664e-39 314 233
-0.0067853997 0.77399999 0.0094995592 1.1817995e-38 315 233
-0.0054283198 0.77399999 0.0094995592 1.7427883e-38 316 233
-0.0040712398 0.77399999 0.0094995592 1.8349839e-38 317 233
-0.0027141599 0.77399999 0.0094995592 1.7889545e-38 318 233
-0.0013570799 0.77399999 0.0094995592 1.715198e-38 319 233
0 0.77399999 0.0094995592 1.6598453e-38 320 233
0.0013570799 0.77399999 0.0094995592 1.6690649e-38 321 233
0.0027141599 0.77399999 0.0094995592 1.7152723e-38 322 233
0.0040712398 0.77399999 0.0094995592 1.7429668e-38 323 233
0.0054283198 0.77399999 0.0094995592 1.7613328e-38 324 233
0.0068029333 0.77600002 0.009524107 1.6230394e-38 325 233
0.0081635201 0.77600002 0.009524107 1.3558831e-38 326 233
0.0095731998 0.77999997 0.0095731998 7.6583105e-39 327 233
0.010954826 0.78100002 0.0095854728 2.3462543e-39 328 233
0.01232418 0.78100002 0.0095854728 8.9843396e-39 329 233
0.013728599 0.78299999 0.0096100196 1.5774148e-38 330 233
0.01510146 0.78299999 0.0096100196 1.5774148e-38 331 233
0.01647432 0.78299999 0.0096100196 1.5866321e-38 332 233
0.017892767 0.78500003 0.0096345674 1.5773767e-38 333 233
-0.031656433 0.78500003 0.0082582003 6.4673455e-39 297 234
-0.030280067 0.78500003 0.0082582003 9.4114694e-39 298 234
-0.0289037 0.78500003 0.0082582003 1.4943566e-38 299 234
-0.027387068 0.78100002 0.0082161194 1.6233968e-38 300 234
-0.025984399 0.77999997 0.0082055992 1.6971533e-38 301 234
-0.024553679 0.778 0.0081845606 1.7336374e-38 302 234
-0.023189586 0.778 0.0081845606 1.7428571e-38 303 234
-0.021769386 0.77600002 0.0081635201 1.770912e-38 304 234
-0.020356199 0.77399999 0.0081424797 1.853888e-38 305 234
-0.018999118 0.77399999 0.0081424797 2.0008247e-38 306 234
-0.01764204 0.77399999 0.0081424797 1.9916051e-38 307 234
-0.016284959 0.77399999 0.0081424797 1.9636573e-38 308 234
-0.014927879 0.77399999 0.0081424797 1.7792662e-38 309 234
-0.013570799 0.77399999 0.0081424797 1.5945471e-38 310 234
-0.01221372 0.77399999 0.0081424797 9.1229939e-39 311 234
-0.01085664 0.77399999 0.0081424797 4.6259343e-39 312 234
-0.0094995592 0.77399999 0.0081424797 1.3937693e-38 313 234
-0.0081424797 0.77399999 0.0081424797 1.8171919e-38 314 234
-0.0067853997 0.77399999 0.0081424797 2.020022e-38 315 234
-0.0054283198 0.77399999 0.0081424797 2.1390127e-38 316 234
-0.0040712398 0.77399999 0.0081424797 2.0283781e-38 317 234
-0.0027141599 0.77399999 0.0081424797 1.9087385e-38 318 234
-0.0013570799 0.77399999 0.0081424797 1.8718604e-38 319 234
0 0.77399999 0.0081424797 1.8718604e-38 320 234
0.0013570799 0.77399999 0.0081424797 1.770445e-38 321 234
0.0027141599 0.77399999 0.0081424797 1.6415507e-38 322 234
0.0040712398 0.77399999 0.0081424797 1.5032572e-38 323 234
0.0054283198 0.77399999 0.0081424797 1.3180731e-38 324 234
0.0067853997 0.77399999 0.0081424797 4.9753214e-39 325 234
0.0081424797 0.77399999 0.0081424797 3.239802e-42 326 234
0.0095731998 0.77999997 0.0082055992 7.1886611e-43 327 234
0.010954826 0.78100002 0.0082161194 2.6675118e-41 328 234
0.01232418 0.78100002 0.0082161194 4.1798001e-39 329 234
0.013728599 0.78299999 0.0082371598 1.2828943e-38 330 234
0.01510146 0.78299999 0.0082371598 1.4949443e-38 331 234
0.01647432 0.78299999 0.0082371598 1.614076e-38 332 234
0.017892767 0.78500003 0.0082582003 1.6048564e-38 333 234
0.019367319 0.78899997 0.0083002793 1.5039439e-38 334 234
-0.031575777 0.78299999 0.0068642995 1.1524279e-41 297 235
-0.03020292 0.78299999 0.0068642995 2.4024533e-39 298 235
-0.028756421 0.78100002 0.0068467669 1.383507e-38 299 235
-0.027351998 0.77999997 0.0068379994 1.7518927e-38 300 235
-0.025984399 0.77999997 0.0068379994 1.8809666e-38 301 235
-0.024553679 0.778 0.0068204664 1.8441997e-38 302 235
-0.023129974 0.77600002 0.0068029333 1.8902975e-38 303 235
-0.021713279 0.77399999 0.0067853997 1.8721476e-38 304 235
-0.0203299 0.773 0.0067766332 1.8721476e-38 305 235
-0.018974574 0.773 0.0067766332 1.9364323e-38 306 235
-0.017619247 0.773 0.0067766332 1.98253e-38 307 235
-0.016263919 0.773 0.0067766332 2.0468502e-38 308 235
-0.014908593 0.773 0.0067766332 1.9823132e-38 309 235
-0.013553266 0.773 0.0067766332 1.9082637e-38 310 235
-0.012197939 0.773 0.0067766332 1.5579202e-38 311 235
-0.010842613 0.773 0.0067766332 1.4930259e-38 312 235
-0.0094995592 0.77399999 0.0067853997 2.1383953e-38 313 235
-0.0081424797 0.77399999 0.0067853997 2.1392646e-38 314 235
-0.0067853997 0.77399999 0.0067853997 2.1945812e-38 315 235
-0.0054283198 0.77399999 0.0067853997 2.1021699e-38 316 235
-0.0040712398 0.77399999 0.0067853997 1.9546568e-38 317 235
-0.0027106532 0.773 0.0067766332 1.8628572e-38 318 235
-0.0013553266 0.773 0.0067766332 1.844418e-38 319 235
0 0.773 0.0067766332 1.8442741e-38 320 235
0.0013553266 0.773 0.0067766332 1.825835e-38 321 235
0.0027106532 0.773 0.0067766332 1.7613328e-38 322 235
0.0040659797 0.773 0.0067766332 1.5769774e-38 323 235
0.0054283198 0.77399999 0.0067853997 1.2631157e-38 324 235
0.0067766332 0.773 0.0067766332 2.0286598e-39 325 235
0.0081319595 0.773 0.0067766332 1.1056245e-42 326 235
0.0094995592 0.77399999 0.0067853997 1.5741949e-39 327 235
0.010954826 0.78100002 0.0068467669 1.5188674e-41 328 235
0.01232418 0.78100002 0.0068467669 1.4931984e-39 329 235
0.013693534 0.78100002 0.0068467669 6.8473819e-39 330 235
0.01510146 0.78299999 0.0068642995 1.154936e-38 331 235
0.01647432 0.78299999 0.0068642995 1.5589754e-38 332 235
0.017983939 0.78899997 0.0069168997 1.5589754e-38 333 235
0.019367319 0.78899997 0.0069168997 1.5038002e-38 334 235
0.0207507 0.78899997 0.0069168997 1.5222395e-38 335 235
-0.031575777 0.78299999 0.0054914397 0 297 236
-0.030125774 0.78100002 0.0054774131 3.0467564e-39 298 236
-0.028719598 0.77999997 0.0054703997 1.5585362e-38 299 236
-0.027211733 0.77600002 0.0054423464 1.9913164e-38 300 236
-0.025851147 0.77600002 0.0054423464 2.0466338e-38 301 236
-0.024490559 0.77600002 0.0054423464 1.9915701e-38 302 236
-0.02307036 0.77399999 0.0054283198 1.973167e-38 303 236
-0.021713279 0.77399999 0.0054283198 1.8996981e-38 304 236
-0.0203299 0.773 0.0054213065 1.8996981e-38 305 236
-0.018974574 0.773 0.0054213065 1.8997688e-38 306 236
-0.017619247 0.773 0.0054213065 1.8997688e-38 307 236
-0.016263919 0.773 0.0054213065 1.9273203e-38 308 236
-0.01487002 0.77100003 0.0054072798 1.954979e-38 309 236
-0.013518199 0.77100003 0.0054072798 2.0835117e-38 310 236
-0.01216638 0.77100003 0.0054072798 1.9544378e-38 311 236
-0.01081456 0.77100003 0.0054072798 1.7804534e-38 312 236
-0.0094872871 0.773 0.0054213065 2.1305815e-38 313 236
-0.0081424797 0.77399999 0.0054283198 2.2681214e-38 314 236
-0.0067766332 0.773 0.0054213065 2.2220243e-38 315 236
-0.0054213065 0.773 0.0054213065 2.0744758e-38 316 236
-0.0040659797 0.773 0.0054213065 1.9177432e-38 317 236
-0.0027106532 0.773 0.0054213065 1.7891735e-38 318 236
-0.0013553266 0.773 0.0054213065 1.779954e-38 319 236
0 0.773 0.0054213065 1.7890656e-38 320 236
0.0013553266 0.773 0.0054213065 1.7890656e-38 321 236
0.0027106532 0.773 0.0054213065 1.825835e-38 322 236
0.0040659797 0.773 0.0054213065 1.7152003e-38 323 236
0.0054213065 0.773 0.0054213065 1.4108469e-38 324 236
0.0067766332 0.773 0.0054213065 2.9527979e-39 325 236
0.0081319595 0.773 0.0054213065 9.7460308e-42 326 236
0.0094995592 0.77399999 0.0054283198 2.1370881e-39 327 236
0.010954826 0.78100002 0.0054774131 1.4885139e-39 328 236
0.01232418 0.78100002 0.0054774131 1.1583133e-41 329 236
0.013693534 0.78100002 0.0054774131 1.8706129e-39 330 236
0.01510146 0.78299999 0.0054914397 7.8633289e-39 331 236
0.01655848 0.787 0.005519493 1.4210419e-38 332 236
0.017983939 0.78899997 0.0055335197 1.503982e-38 333 236
0.019367319 0.78899997 0.0055335197 1.5037283e-38 334 236
0.0207507 0.78899997 0.0055335197 1.5221675e-38 335 236
-0.031374145 0.778 0.0040922803 3.321579e-39 297 237
-0.03001005 0.778 0.0040922803 1.326357e-38 298 237
-0.028645959 0.778 0.0040922803 2.146934e-38 299 237
-0.027141599 0.77399999 0.0040712398 2.0652897e-38 300 237
-0.025784519 0.77399999 0.0040712398 2.0376309e-38 301 237
-0.02442744 0.77399999 0.0040712398 1.9732749e-38 302 237
-0.02307036 0.77399999 0.0040712398 1.9456522e-38 303 237
-0.021685226 0.773 0.0040659797 1.9181733e-38 304 237
-0.0203299 0.773 0.0040659797 1.9181733e-38 305 237
-0.018974574 0.773 0.0040659797 1.9182449e-38 306 237
-0.017619247 0.773 0.0040659797 1.9274645e-38 307 237
-0.016263919 0.773 0.0040659797 1.9273575e-38 308 237
-0.01487002 0.77100003 0.0040554604 1.9365771e-38 309 237
-0.013518199 0.77100003 0.0040554604 1.9917499e-38 310 237
-0.01216638 0.77100003 0.0040554604 1.9364326e-38 311 237
-0.01081456 0.77100003 0.0040554604 1.9179931e-38 312 237
-0.0094872871 0.773 0.0040659797 2.2130551e-38 313 237
-0.0081319595 0.773 0.0040659797 2.1759986e-38 314 237
-0.0067766332 0.773 0.0040659797 2.0561443e-38 315 237
-0.0054213065 0.773 0.0040659797 1.9180679e-38 316 237
-0.0040659797 0.773 0.0040659797 1.8258363e-38 317 237
-0.0027106532 0.773 0.0040659797 1.770771e-38 318 237
-0.0013553266 0.773 0.0040659797 1.7523679e-38 319 237
0 0.773 0.0040659797 1.75226e-38 320 237
0.0013553266 0.773 0.0040659797 1.7430404e-38 321 237
0.0027106532 0.773 0.0040659797 1.7615148e-38 322 237
0.0040659797 0.773 0.0040659797 1.7615148e-38 323 237
0.0054213065 0.773 0.0040659797 1.604386e-38 324 237
0.0067766332 0.773 0.0040659797 4.058428e-39 325 237
0.0081319595 0.773 0.0040659797 6.5048275e-42 326 237
0.0094872871 0.773 0.0040659797 2.5937446e-39 327 237
0.010842613 0.773 0.0040659797 2.7760003e-39 328 237
0.012450419 0.78899997 0.0041501396 5.636653e-40 329 237
0.013833799 0.78899997 0.0041501396 1.4459999e-41 330 237
0.015217179 0.78899997 0.0041501396 4.2594218e-39 331 237
0.016600559 0.78899997 0.0041501396 1.080566e-38 332 237
0.017983939 0.78899997 0.0041501396 1.2833966e-38 333 237
0.019318225 0.787 0.0041396199 1.4577025e-38 334 237
0.0206981 0.787 0.0041396199 1.4761775e-38 335 237
0.022077972 0.787 0.0041396199 1.6049265e-38 336 237
-0.032654081 0.77600002 0.0027211732 1.1210388e-44 296 238
-0.031293493 0.77600002 0.0027211732 9.2141932e-39 297 238
-0.029932907 0.77600002 0.0027211732 1.7973093e-38 298 238
-0.028572321 0.77600002 0.0027211732 2.1568363e-38 299 238
-0.027141599 0.77399999 0.0027141599 2.0561065e-38 300 238
-0.025751207 0.773 0.0027106532 2.000825e-38 301 238
-0.024395877 0.773 0.0027106532 1.9548718e-38 302 238
-0.023040552 0.773 0.0027106532 1.9732749e-38 303 238
-0.021685226 0.773 0.0027106532 1.9366124e-38 304 238
-0.0203299 0.773 0.0027106532 1.9366124e-38 305 238
-0.018974574 0.773 0.0027106532 1.9183178e-38 306 238
-0.01757366 0.77100003 0.0027036399 1.9459406e-38 307 238
-0.016221842 0.77100003 0.0027036399 1.9366861e-38 308 238
-0.01487002 0.77100003 0.0027036399 1.9459058e-38 309 238
-0.013518199 0.77100003 0.0027036399 1.9826043e-38 310 238
-0.01216638 0.77100003 0.0027036399 1.9273228e-38 311 238
-0.01081456 0.77100003 0.0027036399 1.8445625e-38 312 238
-0.0094627403 0.77100003 0.0027036399 2.0381733e-38 313 238
-0.0081319595 0.773 0.0027106532 2.0566127e-38 314 238
-0.0067590997 0.77100003 0.0027036399 1.8630023e-38 315 238
-0.0054072798 0.77100003 0.0027036399 1.7984301e-38 316 238
-0.0040554604 0.77100003 0.0027036399 1.7799908e-38 317 238
-0.0027036399 0.77100003 0.0027036399 1.770771e-38 318 238
-0.00135182 0.77100003 0.0027036399 1.7523679e-38 319 238
0 0.77100003 0.0027036399 1.7247089e-38 320 238
0.00135182 0.77100003 0.0027036399 1.7154892e-38 321 238
0.0027106532 0.773 0.0027106532 1.6879025e-38 322 238
0.0040659797 0.773 0.0027106532 1.7524395e-38 323 238
0.0054213065 0.773 0.0027106532 1.7428584e-38 324 238
0.0067766332 0.773 0.0027106532 7.1026732e-39 325 238
0.0081319595 0.773 0.0027106532 6.4866106e-42 326 238
0.0094872871 0.773 0.0027106532 2.6841227e-39 327 238
0.010842613 0.773 0.0027106532 3.7865453e-39 328 238
0.012197939 0.773 0.0027106532 2.3114152e-39 329 238
0.013798732 0.787 0.0027597465 1.1912438e-41 330 238
0.015178605 0.787 0.0027597465 2.5980732e-39 331 238
0.01655848 0.787 0.0027597465 1.208702e-38 332 238
0.017938353 0.787 0.0027597465 1.356215e-38 333 238
0.019318225 0.787 0.0027597465 1.3746895e-38 334 238
0.0206981 0.787 0.0027597465 1.402348e-38 335 238
0.022077972 0.787 0.0027597465 1.586415e-38 336 238
-0.032654081 0.77600002 0.0013605866 1.5633768e-39 296 239
-0.031293493 0.77600002 0.0013605866 1.3364417e-38 297 239
-0.029932907 0.77600002 0.0013605866 2.0005013e-38 298 239
-0.028498679 0.77399999 0.0013570799 2.0834413e-38 299 239
-0.027106533 0.773 0.0013553266 1.9917499e-38 300 239
-0.025751207 0.773 0.0013553266 1.9548718e-38 301 239
-0.024395877 0.773 0.0013553266 1.9916427e-38 302 239
-0.023040552 0.773 0.0013553266 2.0100458e-38 303 239
-0.021685226 0.773 0.0013553266 2.0009345e-38 304 239
-0.0203299 0.773 0.0013553266 2.0377768e-38 305 239
-0.018974574 0.773 0.0013553266 1.9918597e-38 306 239
-0.01757366 0.77100003 0.00135182 1.9549455e-38 307 239
-0.016221842 0.77100003 0.00135182 1.8815136e-38 308 239
-0.01487002 0.77100003 0.00135182 1.8907332e-38 309 239
-0.013518199 0.77100003 0.00135182 1.9642746e-38 310 239
-0.01216638 0.77100003 0.00135182 1.9366159e-38 311 239
-0.01081456 0.77100003 0.00135182 1.587567e-38 312 239
-0.0094627403 0.77100003 0.00135182 1.6244812e-38 313 239
-0.0081109209 0.77100003 0.00135182 1.9641297e-38 314 239
-0.0067590997 0.77100003 0.00135182 1.8995929e-38 315 239
-0.0054072798 0.77100003 0.00135182 1.7617313e-38 316 239
-0.0040554604 0.77100003 0.00135182 1.7525116e-38 317 239
-0.0027036399 0.77100003 0.00135182 1.761659e-38 318 239
-0.00135182 0.77100003 0.00135182 1.7432199e-38 319 239
0 0.77100003 0.00135182 1.7247808e-38 320 239
0.00135182 0.77100003 0.00135182 1.6971221e-38 321 239
0.0027036399 0.77100003 0.00135182 1.6512041e-38 322 239
0.0040554604 0.77100003 0.00135182 1.715741e-38 323 239
0.0054213065 0.773 0.0013553266 1.8259404e-38 324 239
0.0067590997 0.77100003 0.00135182 1.0238384e-38 325 239
0.0081109209 0.77100003 0.00135182 2.8698593e-42 326 239
0.0094627403 0.77100003 0.00135182 3.7417472e-40 327 239
0.010842613 0.773 0.0013553266 5.6688829e-40 328 239
0.012197939 0.773 0.0013553266 1.3714508e-41 329 239
0.015178605 0.787 0.0013798733 6.7425479e-39 331 239
0.01655848 0.787 0.0013798733 1.5583605e-38 332 239
0.017938353 0.787 0.0013798733 1.6044583e-38 333 239
0.019318225 0.787 0.0013798733 1.3470305e-38 334 239
0.0206981 0.787 0.0013798733 1.3101881e-38 335 239
0.022077972 0.787 0.0013798733 1.60471e-38 336 239
-0.032654081 0.77600002 -0 3.8880413e-39 296 240
-0.031293493 0.77600002 -0 1.2922854e-38 297 240
-0.029932907 0.77600002 -0 1.9547291e-38 298 240
-0.028498679 0.77399999 -0 1.9731682e-38 299 240
-0.027106533 0.773 -0 1.9456893e-38 300 240
-0.025751207 0.773 -0 1.9272143e-38 301 240
-0.024395877 0.773 -0 1.9456537e-38 302 240
-0.023040552 0.773 -0 1.9641287e-38 303 240
-0.021685226 0.773 -0 1.8905887e-38 304 240
-0.020277301 0.77100003 -0 1.8721136e-38 305 240
-0.018925481 0.77100003 -0 1.8079736e-38 306 240
-0.01757366 0.77100003 -0 1.7711313e-38 307 240
-0.016221842 0.77100003 -0 1.7802076e-38 308 240
-0.01487002 0.77100003 -0 1.7894272e-38 309 240
-0.013518199 0.77100003 -0 1.8354542e-38 310 240
-0.01216638 0.77100003 -0 1.7709174e-38 311 240
-0.01081456 0.77100003 -0 1.4031408e-38 312 240
-0.0094627403 0.77100003 -0 1.4308353e-38 313 240
-0.0081109209 0.77100003 -0 1.835056e-38 314 240
-0.0067590997 0.77100003 -0 1.8258363e-38 315 240
-0.0054072798 0.77100003 -0 1.6423089e-38 316 240
-0.0040554604 0.77100003 -0 1.660748e-38 317 240
-0.0027036399 0.77100003 -0 1.7709862e-38 318 240
-0.00135182 0.77100003 -0 1.7709862e-38 319 240
0 0.77100003 -0 1.7247805e-38 320 240
0.00135182 0.77100003 -0 1.6971577e-38 321 240
0.0027036399 0.77100003 -0 1.6971221e-38 322 240
0.0040554604 0.77100003 -0 1.7247808e-38 323 240
0.0054213065 0.773 -0 1.7800218e-38 324 240
0.0067590997 0.77100003 -0 1.2821654e-38 325 240
0.0081109209 0.77100003 -0 1.4884144e-39 326 240
0.0094627403 0.77100003 -0 1.3036644e-39 327 240
0.010842613 0.773 -0 2.5847427e-39 328 240
0.012197939 0.773 -0 1.1092539e-39 329 240
0.013570799 0.77399999 -0 2.1381544e-39 330 240
0.014966453 0.77600002 -0 8.1308718e-39 331 240
0.01655848 0.787 -0 1.5954185e-38 332 240
0.017938353 0.787 -0 1.6599196e-38 333 240
0.019318225 0.787 -0 1.3470661e-38 334 240
0.0206981 0.787 -0 1.2732736e-38 335 240
-0.034014668 0.77600002 -0.0013605866 1.2182771e-38 295 241
-0.032654081 0.77600002 -0.0013605866 1.4851075e-38 296 241
-0.031293493 0.77600002 -0.0013605866 1.6049618e-38 297 241
-0.029932907 0.77600002 -0.0013605866 1.7706994e-38 298 241
-0.028498679 0.77399999 -0.0013570799 1.8720787e-38 299 241
-0.027106533 0.773 -0.0013553266 1.8627518e-38 300 241
-0.025751207 0.773 -0.0013553266 1.8535322e-38 301 241
-0.024395877 0.773 -0.0013553266 1.7984667e-38 302 241
-0.023040552 0.773 -0.0013553266 1.7524047e-38 303 241
-0.021685226 0.773 -0.0013553266 1.5862731e-38 304 241
-0.020277301 0.77100003 -0.00135182 1.4479796e-38 305 241
-0.018925481 0.77100003 -0.00135182 1.43044e-38 306 241
-0.01757366 0.77100003 -0.00135182 1.5318912e-38 307 241
-0.016221842 0.77100003 -0.00135182 1.6145078e-38 308 241
-0.01487002 0.77100003 -0.00135182 1.6237274e-38 309 241
-0.013483133 0.76899999 -0.0013483133 1.5871736e-38 310 241
-0.012134819 0.76899999 -0.0013483133 1.5502593e-38 311 241
-0.010786506 0.76899999 -0.0013483133 1.4764306e-38 312 241
-0.0094381925 0.76899999 -0.0013483133 1.4672111e-38 313 241
-0.0081109209 0.77100003 -0.00135182 1.6417351e-38 314 241
-0.0067415666 0.76899999 -0.0013483133 1.5956012e-38 315 241
-0.0053932532 0.76899999 -0.0013483133 1.421436e-38 316 241
-0.0040449398 0.76899999 -0.0013483133 1.4859729e-38 317 241
-0.0026966266 0.76899999 -0.0013483133 1.6514206e-38 318 241
-0.00135182 0.77100003 -0.00135182 1.6698597e-38 319 241
0 0.77100003 -0.00135182 1.7340004e-38 320 241
0.00135182 0.77100003 -0.00135182 1.7247808e-38 321 241
0.0027036399 0.77100003 -0.00135182 1.7340357e-38 322 241
0.0040554604 0.77100003 -0.00135182 1.6418402e-38 323 241
0.0054213065 0.773 -0.0013553266 1.4760674e-38 324 241
0.0067766332 0.773 -0.0013553266 1.4207502e-38 325 241
0.0081319595 0.773 -0.0013553266 1.5124419e-38 326 241
0.0094872871 0.773 -0.0013553266 1.4571245e-38 327 241
0.010842613 0.773 -0.0013553266 1.2078369e-38 328 241
0.01221372 0.77399999 -0.0013570799 7.5607829e-39 329 241
0.013570799 0.77399999 -0.0013570799 3.4403993e-39 330 241
0.014966453 0.77600002 -0.0013605866 7.4048114e-39 331 241
0.016411198 0.77999997 -0.0013675999 1.5494296e-38 332 241
0.017801592 0.78100002 -0.0013693533 1.6139665e-38 333 241
0.019170946 0.78100002 -0.0013693533 1.4207154e-38 334 241
-0.036735836 0.77600002 -0.0027211732 1.5770844e-38 293 242
-0.035466425 0.778 -0.0027281865 1.5770137e-38 294 242
-0.034014668 0.77600002 -0.0027211732 1.7153073e-38 295 242
-0.032654081 0.77600002 -0.0027211732 1.7704473e-38 296 242
-0.031293493 0.77600002 -0.0027211732 1.6137147e-38 297 242
-0.029932907 0.77600002 -0.0027211732 1.4579542e-38 298 242
-0.028498679 0.77399999 -0.0027141599 1.6700402e-38 299 242
-0.027106533 0.773 -0.0027106532 1.8352379e-38 300 242
-0.025751207 0.773 -0.0027106532 1.8075793e-38 301 242
-0.024395877 0.773 -0.0027106532 1.7983953e-38 302 242
-0.023040552 0.773 -0.0027106532 1.7707006e-38 303 242
-0.021685226 0.773 -0.0027106532 1.6417704e-38 304 242
-0.0203299 0.773 -0.0027106532 1.4942214e-38 305 242
-0.018925481 0.77100003 -0.0027036399 1.3749431e-38 306 242
-0.01757366 0.77100003 -0.0027036399 1.4856139e-38 307 242
-0.016221842 0.77100003 -0.0027036399 1.6051811e-38 308 242
-0.01487002 0.77100003 -0.0027036399 1.6235842e-38 309 242
-0.013483133 0.76899999 -0.0026966266 1.6052527e-38 310 242
-0.012134819 0.76899999 -0.0026966266 1.5868136e-38 311 242
-0.010786506 0.76899999 -0.0026966266 1.540896e-38 312 242
-0.0094381925 0.76899999 -0.0026966266 1.5501155e-38 313 242
-0.0080898795 0.76899999 -0.0026966266 1.6050376e-38 314 242
-0.0067415666 0.76899999 -0.0026966266 1.4851833e-38 315 242
-0.0053932532 0.76899999 -0.0026966266 1.3477165e-38 316 242
-0.0040449398 0.76899999 -0.0026966266 1.4491315e-38 317 242
-0.0026966266 0.76899999 -0.0026966266 1.6052877e-38 318 242
-0.0013483133 0.76899999 -0.0026966266 1.6237627e-38 319 242
0 0.76899999 -0.0026966266 1.7064142e-38 320 242
0.0013483133 0.76899999 -0.0026966266 1.6879391e-38 321 242
0.0026966266 0.76899999 -0.0026966266 1.6050697e-38 322 242
0.0040554604 0.77100003 -0.0027036399 1.5128382e-38 323 242
0.0054072798 0.77100003 -0.0027036399 1.3564301e-38 324 242
0.0067590997 0.77100003 -0.0027036399 1.5039433e-38 325 242
0.0081319595 0.773 -0.0027106532 1.7247455e-38 326 242
0.0094872871 0.773 -0.0027106532 1.6878672e-38 327 242
0.010842613 0.773 -0.0027106532 1.6597387e-38 328 242
0.01221372 0.77399999 -0.0027141599 1.3831159e-38 329 242
0.013605867 0.77600002 -0.0027211732 1.0430356e-38 330 242
0.014966453 0.77600002 -0.0027211732 1.1905128e-38 331 242
0.016411198 0.77999997 -0.0027351999 1.5218431e-38 332 242
0.017801592 0.78100002 -0.0027387065 1.5771604e-38 333 242
0.019170946 0.78100002 -0.0027387065 1.4299353e-38 334 242
-0.038096428 0.77600002 -0.0040817601 1.8350896e-38 292 243
-0.036735836 0.77600002 -0.0040817601 1.7705527e-38 293 243
-0.035375252 0.77600002 -0.0040817601 1.8259069e-38 294 243
-0.034014668 0.77600002 -0.0040817601 1.8904438e-38 295 243
-0.032654081 0.77600002 -0.0040817601 1.8812966e-38 296 243
-0.031293493 0.77600002 -0.0040817601 1.5954901e-38 297 243
-0.029855758 0.77399999 -0.0040712398 1.2646661e-38 298 243
-0.028498679 0.77399999 -0.0040712398 1.5781313e-38 299 243
-0.027106533 0.773 -0.0040659797 1.78932e-38 300 243
-0.025751207 0.773 -0.0040659797 1.7524416e-38 301 243
-0.024395877 0.773 -0.0040659797 1.7524413e-38 302 243
-0.023040552 0.773 -0.0040659797 1.7524413e-38 303 243
-0.021685226 0.773 -0.0040659797 1.7707004e-38 304 243
-0.0203299 0.773 -0.0040659797 1.7061993e-38 305 243
-0.018974574 0.773 -0.0040659797 1.3195907e-38 306 243
-0.01757366 0.77100003 -0.0040554604 1.33803e-38 307 243
-0.016221842 0.77100003 -0.0040554604 1.5683398e-38 308 243
-0.01487002 0.77100003 -0.0040554604 1.6051821e-38 309 243
-0.013483133 0.76899999 -0.0040449398 1.5591556e-38 310 243
-0.012134819 0.76899999 -0.0040449398 1.5499e-38 311 243
-0.010786506 0.76899999 -0.0040449398 1.5316764e-38 312 243
-0.0094381925 0.76899999 -0.0040449398 1.5777382e-38 313 243
-0.0080898795 0.76899999 -0.0040449398 1.4856505e-38 314 243
-0.0067415666 0.76899999 -0.0040449398 1.3104788e-38 315 243
-0.0053932532 0.76899999 -0.0040449398 1.3108025e-38 316 243
-0.0040449398 0.76899999 -0.0040449398 1.4583515e-38 317 243
-0.0026966266 0.76899999 -0.0040449398 1.5777016e-38 318 243
-0.0013483133 0.76899999 -0.0040449398 1.5869212e-38 319 243
0 0.76899999 -0.0040449398 1.6788281e-38 320 243
0.0013483133 0.76899999 -0.0040449398 1.5958161e-38 321 243
0.0026966266 0.76899999 -0.0040449398 1.3655421e-38 322 243
0.0040554604 0.77100003 -0.0040554604 1.3655421e-38 323 243
0.0054072798 0.77100003 -0.0040554604 1.4762138e-38 324 243
0.0067590997 0.77100003 -0.0040554604 1.5868486e-38 325 243
0.0081319595 0.773 -0.0040659797 1.6696084e-38 326 243
0.0094872871 0.773 -0.0040659797 1.6880477e-38 327 243
0.010842613 0.773 -0.0040659797 1.7798105e-38 328 243
0.012197939 0.773 -0.0040659797 1.7153094e-38 329 243
0.013570799 0.77399999 -0.0040712398 1.5493573e-38 330 243
0.014966453 0.77600002 -0.0040817601 1.4387227e-38 331 243
0.016411198 0.77999997 -0.0041027996 1.4575582e-38 332 243
0.017778799 0.77999997 -0.0041027996 1.485217e-38 333 243
0.0191464 0.77999997 -0.0041027996 1.4574507e-38 334 243
-0.038096428 0.77600002 -0.0054423464 1.8075035e-38 292 244
-0.036735836 0.77600002 -0.0054423464 1.7429666e-38 293 244
-0.035375252 0.77600002 -0.0054423464 1.7890654e-38 294 244
-0.034014668 0.77600002 -0.0054423464 1.8167599e-38 295 244
-0.032569919 0.77399999 -0.0054283198 1.8353785e-38 296 244
-0.031212838 0.77399999 -0.0054283198 1.7524026e-38 297 244
-0.029855758 0.77399999 -0.0054283198 1.641877e-38 298 244
-0.028498679 0.77399999 -0.0054283198 1.7617313e-38 299 244
-0.027106533 0.773 -0.0054213065 1.706524e-38 300 244
-0.025751207 0.773 -0.0054213065 1.6788294e-38 301 244
-0.024395877 0.773 -0.0054213065 1.6787572e-38 302 244
-0.023040552 0.773 -0.0054213065 1.6880127e-38 303 244
-0.021685226 0.773 -0.0054213065 1.7156351e-38 304 244
-0.0203299 0.773 -0.0054213065 1.6880124e-38 305 244
-0.018974574 0.773 -0.0054213065 1.3748359e-38 306 244
-0.01757366 0.77100003 -0.0054072798 1.310299e-38 307 244
-0.016221842 0.77100003 -0.0054072798 1.5129499e-38 308 244
-0.01487002 0.77100003 -0.0054072798 1.6235486e-38 309 244
-0.013483133 0.76899999 -0.0053932532 1.5959612e-38 310 244
-0.012134819 0.76899999 -0.0053932532 1.5959612e-38 311 244
-0.010786506 0.76899999 -0.0053932532 1.5867414e-38 312 244
-0.0094381925 0.76899999 -0.0053932532 1.5775218e-38 313 244
-0.0080898795 0.76899999 -0.0053932532 1.4118218e-38 314 244
-0.0067415666 0.76899999 -0.0053932532 1.2919675e-38 315 244
-0.0053932532 0.76899999 -0.0053932532 1.393419e-38 316 244
-0.0040449398 0.76899999 -0.0053932532 1.5317483e-38 317 244
-0.0026966266 0.76899999 -0.0053932532 1.5868136e-38 318 244
-0.0013483133 0.76899999 -0.0053932532 1.5684105e-38 319 244
0 0.76899999 -0.0053932532 1.5774495e-38 320 244
0.0013483133 0.76899999 -0.0053932532 1.5129126e-38 321 244
0.0027036399 0.77100003 -0.0054072798 1.411605e-38 322 244
0.0040554604 0.77100003 -0.0054072798 1.5406789e-38 323 244
0.0054213065 0.773 -0.0054213065 1.7155985e-38 324 244
0.0067766332 0.773 -0.0054213065 1.7248181e-38 325 244
0.0081319595 0.773 -0.0054213065 1.6971591e-38 326 244
0.0094872871 0.773 -0.0054213065 1.6971591e-38 327 244
0.010842613 0.773 -0.0054213065 1.6878672e-38 328 244
0.012197939 0.773 -0.0054213065 1.6694281e-38 329 244
0.013570799 0.77399999 -0.0054283198 1.5863797e-38 330 244
0.014927879 0.77399999 -0.0054283198 1.4665255e-38 331 244
0.016369121 0.778 -0.0054563731 1.4115324e-38 332 244
0.017733213 0.778 -0.0054563731 1.4299716e-38 333 244
0.019097306 0.778 -0.0054563731 1.4851093e-38 334 244
-0.038096428 0.77600002 -0.0068029333 1.8166154e-38 292 245
-0.036735836 0.77600002 -0.0068029333 1.7428231e-38 293 245
-0.035375252 0.77600002 -0.0068029333 1.7522597e-38 294 245
-0.034014668 0.77600002 -0.0068029333 1.7706988e-38 295 245
-0.032569919 0.77399999 -0.0067853997 1.7342169e-38 296 245
-0.031212838 0.77399999 -0.0067853997 1.7526919e-38 297 245
-0.029855758 0.77399999 -0.0067853997 1.7709525e-38 298 245
-0.028498679 0.77399999 -0.0067853997 1.7248905e-38 299 245
-0.027106533 0.773 -0.0067766332 1.6144369e-38 300 245
-0.025751207 0.773 -0.0067766332 1.6052174e-38 301 245
-0.024395877 0.773 -0.0067766332 1.6235489e-38 302 245
-0.023040552 0.773 -0.0067766332 1.6235489e-38 303 245
-0.021685226 0.773 -0.0067766332 1.6052174e-38 304 245
-0.0203299 0.773 -0.0067766332 1.6052174e-38 305 245
-0.018974574 0.773 -0.0067766332 1.485434e-38 306 245
-0.01757366 0.77100003 -0.0067590997 1.3747993e-38 307 245
-0.016221842 0.77100003 -0.0067590997 1.4667425e-38 308 245
-0.01487002 0.77100003 -0.0067590997 1.5773772e-38 309 245
-0.013483133 0.76899999 -0.0067415666 1.6325507e-38 310 245
-0.012134819 0.76899999 -0.0067415666 1.6048561e-38 311 245
-0.010786506 0.76899999 -0.0067415666 1.5585785e-38 312 245
-0.0094381925 0.76899999 -0.0067415666 1.4110655e-38 313 245
-0.0080898795 0.76899999 -0.0067415666 1.0620898e-38 314 245
-0.0067415666 0.76899999 -0.0067415666 1.1727245e-38 315 245
-0.0053932532 0.76899999 -0.0067415666 1.4854351e-38 316 245
-0.0040449398 0.76899999 -0.0067415666 1.568447e-38 317 245
-0.0026966266 0.76899999 -0.0067415666 1.5591553e-38 318 245
-0.0013483133 0.76899999 -0.0067415666 1.5591553e-38 319 245
0 0.76899999 -0.0067415666 1.5406441e-38 320 245
0.0013483133 0.76899999 -0.0067415666 1.4945103e-38 321 245
0.0026966266 0.76899999 -0.0067415666 1.559047e-38 322 245
0.0040449398 0.76899999 -0.0067415666 1.6881209e-38 323 245
0.0054072798 0.77100003 -0.0067590997 1.7525847e-38 324 245
0.0067766332 0.773 -0.0067766332 1.7248899e-38 325 245
0.0081319595 0.773 -0.0067766332 1.7156691e-38 326 245
0.0094872871 0.773 -0.0067766332 1.6879744e-38 327 245
0.010842613 0.773 -0.0067766332 1.6510966e-38 328 245
0.012197939 0.773 -0.0067766332 1.6234378e-38 329 245
0.013570799 0.77399999 -0.0067853997 1.5589011e-38 330 245
0.014927879 0.77399999 -0.0067853997 1.4851087e-38 331 245
0.01632704 0.77600002 -0.0068029333 1.3838012e-38 332 245
0.017687626 0.77600002 -0.0068029333 1.3930207e-38 333 245
0.019097306 0.778 -0.0068204664 1.4852168e-38 334 245
-0.038096428 0.77600002 -0.0081635201 1.86257e-38 292 246
-0.036735836 0.77600002 -0.0081635201 1.779594e-38 293 246
-0.035375252 0.77600002 -0.0081635201 1.7247102e-38 294 246
-0.034014668 0.77600002 -0.0081635201 1.7524047e-38 295 246
-0.032654081 0.77600002 -0.0081635201 1.7801004e-38 296 246
-0.031212838 0.77399999 -0.0081424797 1.724783e-38 297 246
-0.029855758 0.77399999 -0.0081424797 1.5685912e-38 298 246
-0.028498679 0.77399999 -0.0081424797 1.5593717e-38 299 246
-0.027106533 0.773 -0.0081319595 1.5500449e-38 300 246
-0.025751207 0.773 -0.0081319595 1.5408253e-38 301 246
-0.02433276 0.77100003 -0.0081109209 1.5959628e-38 302 246
-0.02298094 0.77100003 -0.0081109209 1.5959628e-38 303 246
-0.021629119 0.77100003 -0.0081109209 1.5776316e-38 304 246
-0.0203299 0.773 -0.0081319595 1.568412e-38 305 246
-0.018974574 0.773 -0.0081319595 1.5959975e-38 306 246
-0.01757366 0.77100003 -0.0081109209 1.439301e-38 307 246
-0.016221842 0.77100003 -0.0081109209 9.1414504e-39 308 246
-0.01487002 0.77100003 -0.0081109209 5.8224077e-39 309 246
-0.013518199 0.77100003 -0.0081109209 6.0871368e-39 310 246
-0.01216638 0.77100003 -0.0081109209 3.3212679e-39 311 246
-0.010786506 0.76899999 -0.0080898795 7.3904481e-40 312 246
-0.0094381925 0.76899999 -0.0080898795 1.1196375e-42 313 246
-0.0080898795 0.76899999 -0.0080898795 8.6110491e-40 314 246
-0.0067415666 0.76899999 -0.0080898795 6.9460179e-39 315 246
-0.0053932532 0.76899999 -0.0080898795 1.4485221e-38 316 246
-0.0040449398 0.76899999 -0.0080898795 1.5868514e-38 317 246
-0.0026896133 0.76700002 -0.00806884 1.5684105e-38 318 246
-0.0013448066 0.76700002 -0.00806884 1.5684105e-38 319 246
0 0.76700002 -0.00806884 1.5683021e-38 320 246
0.0013483133 0.76899999 -0.0080898795 1.5590826e-38 321 246
0.0026966266 0.76899999 -0.0080898795 1.5684102e-38 322 246
0.0040449398 0.76899999 -0.0080898795 1.6145078e-38 323 246
0.0054072798 0.77100003 -0.0081109209 1.6329468e-38 324 246
0.0067766332 0.773 -0.0081319595 1.6606054e-38 325 246
0.0081319595 0.773 -0.0081319595 1.6881196e-38 326 246
0.0094872871 0.773 -0.0081319595 1.6512413e-38 327 246
0.010842613 0.773 -0.0081319595 1.6051079e-38 328 246
0.01221372 0.77399999 -0.0081424797 1.5590101e-38 329 246
0.013570799 0.77399999 -0.0081424797 1.5130198e-38 330 246
0.014966453 0.77600002 -0.0081635201 1.4577025e-38 331 246
0.01632704 0.77600002 -0.0081635201 1.3653627e-38 332 246
0.017687626 0.77600002 -0.0081635201 1.3653627e-38 333 246
0.019097306 0.778 -0.0081845606 1.4944366e-38 334 246
-0.038096428 0.77600002 -0.009524107 1.835056e-38 292 247
-0.036735836 0.77600002 -0.009524107 1.7336767e-38 293 247
-0.035375252 0.77600002 -0.009524107 1.6510987e-38 294 247
-0.034014668 0.77600002 -0.009524107 1.669538e-38 295 247
-0.032654081 0.77600002 -0.009524107 1.6236935e-38 296 247
-0.031212838 0.77399999 -0.0094995592 1.5868511e-38 297 247
-0.029855758 0.77399999 -0.0094995592 1.48576e-38 298 247
-0.028498679 0.77399999 -0.0094995592 1.48576e-38 299 247
-0.027106533 0.773 -0.0094872871 1.4949799e-38 300 247
-0.025751207 0.773 -0.0094872871 1.4765406e-38 301 247
-0.02433276 0.77100003 -0.0094627403 1.476505e-38 302 247
-0.02298094 0.77100003 -0.0094627403 1.4949443e-38 303 247
-0.021629119 0.77100003 -0.0094627403 1.513383e-38 304 247
-0.020277301 0.77100003 -0.0094627403 1.5226026e-38 305 247
-0.018925481 0.77100003 -0.0094627403 1.5501168e-38 306 247
-0.01757366 0.77100003 -0.0094627403 1.4118233e-38 307 247
-0.016221842 0.77100003 -0.0094627403 3.3406801e-39 308 247
-0.01487002 0.77100003 -0.0094627403 7.2321014e-42 309 247
-0.013518199 0.77100003 -0.0094627403 8.4077908e-45 310 247
-0.01216638 0.77100003 -0.0094627403 9.8090893e-45 311 247
-0.01081456 0.77100003 -0.0094627403 0 312 247
-0.0094627403 0.77100003 -0.0094627403 0 313 247
-0.0080898795 0.76899999 -0.0094381925 2.5769879e-42 314 247
-0.0067415666 0.76899999 -0.0094381925 5.3560444e-39 315 247
-0.0053932532 0.76899999 -0.0094381925 1.0990437e-38 316 247
-0.0040449398 0.76899999 -0.0094381925 1.440167e-38 317 247
-0.0026896133 0.76700002 -0.0094136465 1.568447e-38 318 247
-0.0013448066 0.76700002 -0.0094136465 1.5407523e-38 319 247
0 0.76700002 -0.0094136465 1.5500429e-38 320 247
0.0013483133 0.76899999 -0.0094381925 1.5592625e-38 321 247
0.0026966266 0.76899999 -0.0094381925 1.5316761e-38 322 247
0.0040449398 0.76899999 -0.0094381925 1.5408957e-38 323 247
0.0054072798 0.77100003 -0.0094627403 1.5500802e-38 324 247
0.0067766332 0.773 -0.0094872871 1.5869583e-38 325 247
0.0081319595 0.773 -0.0094872871 1.6236925e-38 326 247
0.0094872871 0.773 -0.0094872871 1.6236925e-38 327 247
0.010842613 0.773 -0.0094872871 1.5868133e-38 328 247
0.01221372 0.77399999 -0.0094995592 1.5038732e-38 329 247
0.013570799 0.77399999 -0.0094995592 1.4669943e-38 330 247
0.014966453 0.77600002 -0.009524107 1.430152e-38 331 247
0.01632704 0.77600002 -0.009524107 1.3561797e-38 332 247
0.017733213 0.778 -0.0095486529 1.3469602e-38 333 247
0.019097306 0.778 -0.0095486529 1.4299002e-38 334 247
-0.038096428 0.77600002 -0.010884693 1.807505e-38 292 248
-0.036735836 0.77600002 -0.010884693 1.6692116e-38 293 248
-0.035375252 0.77600002 -0.010884693 1.4853631e-38 294 248
-0.034014668 0.77600002 -0.010884693 1.5038382e-38 295 248
-0.032569919 0.77399999 -0.01085664 1.4120048e-38 296 248
-0.031212838 0.77399999 -0.01085664 1.4120048e-38 297 248
-0.029855758 0.77399999 -0.01085664 1.4028937e-38 298 248
-0.028498679 0.77399999 -0.01085664 1.4305164e-38 299 248
-0.027106533 0.773 -0.010842613 1.4489912e-38 300 248
-0.025751207 0.773 -0.010842613 1.4674304e-38 301 248
-0.02433276 0.77100003 -0.01081456 1.4766142e-38 302 248
-0.02298094 0.77100003 -0.01081456 1.4673948e-38 303 248
-0.021685226 0.773 -0.010842613 1.4675022e-38 304 248
-0.020277301 0.77100003 -0.01081456 1.4306241e-38 305 248
-0.018925481 0.77100003 -0.01081456 1.4490258e-38 306 248
-0.01757366 0.77100003 -0.01081456 1.2554152e-38 307 248
-0.016221842 0.77100003 -0.01081456 2.8481391e-41 308 248
-0.01487002 0.77100003 -0.01081456 1.2276776e-41 309 248
-0.013518199 0.77100003 -0.01081456 9.2882827e-40 310 248
-0.01216638 0.77100003 -0.01081456 2.4965127e-39 311 248
-0.01081456 0.77100003 -0.01081456 3.5052542e-39 312 248
-0.0094627403 0.77100003 -0.01081456 2.8598848e-39 313 248
-0.0081109209 0.77100003 -0.01081456 1.8623257e-42 314 248
-0.0067590997 0.77100003 -0.01081456 4.0231279e-42 315 248
-0.0053932532 0.76899999 -0.010786506 5.8346691e-39 316 248
-0.0040449398 0.76899999 -0.010786506 1.2933733e-38 317 248
-0.0026966266 0.76899999 -0.010786506 1.6327687e-38 318 248
-0.0013483133 0.76899999 -0.010786506 1.5958906e-38 319 248
0 0.76899999 -0.010786506 1.5592272e-38 320 248
0.0013483133 0.76899999 -0.010786506 1.5500076e-38 321 248
0.0026966266 0.76899999 -0.010786506 1.5499356e-38 322 248
0.0040449398 0.76899999 -0.010786506 1.540716e-38 323 248
0.0054072798 0.77100003 -0.01081456 1.5132018e-38 324 248
0.0067590997 0.77100003 -0.01081456 1.5039464e-38 325 248
0.0081109209 0.77100003 -0.01081456 1.4673205e-38 326 248
0.0094872871 0.773 -0.010842613 1.5134183e-38 327 248
0.010842613 0.773 -0.010842613 1.5316411e-38 328 248
0.01221372 0.77399999 -0.01085664 1.4671041e-38 329 248
0.013570799 0.77399999 -0.01085664 1.4394082e-38 330 248
0.014966453 0.77600002 -0.010884693 1.4117135e-38 331 248
0.01632704 0.77600002 -0.010884693 1.3654712e-38 332 248
0.017687626 0.77600002 -0.010884693 1.2825311e-38 333 248
-0.038194612 0.778 -0.012276839 1.8258363e-38 292 249
-0.036735836 0.77600002 -0.01224528 1.6691397e-38 293 249
-0.035375252 0.77600002 -0.01224528 1.3012242e-38 294 249
-0.034014668 0.77600002 -0.01224528 1.3749807e-38 295 249
-0.032569919 0.77399999 -0.01221372 1.3659794e-38 296 249
-0.031212838 0.77399999 -0.01221372 1.375199e-38 297 249
-0.029855758 0.77399999 -0.01221372 1.375164e-38 298 249
-0.028498679 0.77399999 -0.01221372 1.3475413e-38 299 249
-0.027106533 0.773 -0.012197939 1.3571563e-38 300 249
-0.025751207 0.773 -0.012197939 1.4309117e-38 301 249
-0.024395877 0.773 -0.012197939 1.4861206e-38 302 249
-0.023040552 0.773 -0.012197939 1.4953759e-38 303 249
-0.021685226 0.773 -0.012197939 1.4954476e-38 304 249
-0.0203299 0.773 -0.012197939 1.4401311e-38 305 249
-0.018974574 0.773 -0.012197939 1.4582827e-38 306 249
-0.01757366 0.77100003 -0.01216638 1.135598e-38 307 249
-0.016221842 0.77100003 -0.01216638 1.55404e-41 308 249
-0.01487002 0.77100003 -0.01216638 1.1218796e-41 309 249
-0.013553266 0.773 -0.012197939 1.6700059e-39 310 249
-0.012197939 0.773 -0.012197939 2.2231796e-39 311 249
-0.010842613 0.773 -0.012197939 3.0471655e-39 312 249
-0.0094627403 0.77100003 -0.01216638 2.7702199e-39 313 249
-0.0081109209 0.77100003 -0.01216638 9.2523814e-40 314 249
-0.0067590997 0.77100003 -0.01216638 3.5032462e-44 315 249
-0.0054072798 0.77100003 -0.01216638 4.0710579e-39 316 249
-0.0040449398 0.76899999 -0.012134819 1.2553056e-38 317 249
-0.0026966266 0.76899999 -0.012134819 1.5223139e-38 318 249
-0.0013483133 0.76899999 -0.012134819 1.5499726e-38 319 249
0 0.76899999 -0.012134819 1.522241e-38 320 249
0.0013483133 0.76899999 -0.012134819 1.4853987e-38 321 249
0.0026966266 0.76899999 -0.012134819 1.4393013e-38 322 249
0.0040449398 0.76899999 -0.012134819 1.4208261e-38 323 249
0.0054072798 0.77100003 -0.01216638 1.4116068e-38 324 249
0.0067590997 0.77100003 -0.01216638 1.4023873e-38 325 249
0.0081109209 0.77100003 -0.01216638 1.3016561e-38 326 249
0.0094872871 0.773 -0.012197939 1.4215104e-38 327 249
0.010842613 0.773 -0.012197939 1.5039469e-38 328 249
0.01221372 0.77399999 -0.01221372 1.4486296e-38 329 249
0.013570799 0.77399999 -0.01221372 1.4118221e-38 330 249
0.014966453 0.77600002 -0.01224528 1.3933469e-38 331 249
0.01632704 0.77600002 -0.01224528 1.3287011e-38 332 249
0.017687626 0.77600002 -0.01224528 1.1903718e-38 333 249
-0.036735836 0.77600002 -0.013605867 1.7336041e-38 293 250
-0.035375252 0.77600002 -0.013605867 1.1907333e-38 294 250
-0.034014668 0.77600002 -0.013605867 1.2276476e-38 295 250
-0.032569919 0.77399999 -0.013570799 1.3015508e-38 296 250
-0.031212838 0.77399999 -0.013570799 1.3383931e-38 297 250
-0.029855758 0.77399999 -0.013570799 1.3383212e-38 298 250
-0.028498679 0.77399999 -0.013570799 1.319882e-38 299 250
-0.027106533 0.773 -0.013553266 1.3293903e-38 300 250
-0.025751207 0.773 -0.013553266 1.4123652e-38 301 250
-0.024395877 0.773 -0.013553266 1.4954476e-38 302 250
-0.023040552 0.773 -0.013553266 1.5876419e-38 303 250
-0.021685226 0.773 -0.013553266 1.633739e-38 304 250
-0.0203299 0.773 -0.013553266 1.6429584e-38 305 250
-0.018974574 0.773 -0.013553266 1.5412578e-38 306 250
-0.017619247 0.773 -0.013553266 1.0341831e-38 307 250
-0.016221842 0.77100003 -0.013518199 6.9168092e-42 308 250
-0.01487002 0.77100003 -0.013518199 9.7992802e-42 309 250
-0.013553266 0.773 -0.013553266 2.6827215e-39 310 250
-0.012197939 0.773 -0.013553266 2.7749185e-39 311 250
-0.010842613 0.773 -0.013553266 3.0486089e-39 312 250
-0.0081319595 0.773 -0.013553266 1.7567911e-39 314 250
-0.0067766332 0.773 -0.013553266 3.0828566e-44 315 250
-0.0054072798 0.77100003 -0.013518199 2.1309686e-39 316 250
-0.0040554604 0.77100003 -0.013518199 9.7832045e-39 317 250
-0.0026966266 0.76899999 -0.013483133 1.3105847e-38 318 250
-0.0013483133 0.76899999 -0.013483133 1.3658662e-38 319 250
0 0.76899999 -0.013483133 1.3656517e-38 320 250
0.0013483133 0.76899999 -0.013483133 1.3011147e-38 321 250
0.0026966266 0.76899999 -0.013483133 1.264237e-38 322 250
0.0040449398 0.76899999 -0.013483133 1.264237e-38 323 250
0.0054072798 0.77100003 -0.013518199 1.245727e-38 324 250
0.0067590997 0.77100003 -0.013518199 1.2180682e-38 325 250
0.0081109209 0.77100003 -0.013518199 1.1266286e-38 326 250
0.0094872871 0.773 -0.013553266 1.3571178e-38 327 250
0.010842613 0.773 -0.013553266 1.4763603e-38 328 250
0.01221372 0.77399999 -0.013570799 1.4210429e-38 329 250
0.013605867 0.77600002 -0.013605867 1.4026025e-38 330 250
0.014966453 0.77600002 -0.013605867 1.3841274e-38 331 250
0.01632704 0.77600002 -0.013605867 1.2826036e-38 332 250
0.017687626 0.77600002 -0.013605867 1.1258351e-38 333 250
-0.035375252 0.77600002 -0.014966453 1.3565416e-38 294 251
-0.034014668 0.77600002 -0.014966453 1.2459068e-38 295 251
-0.032654081 0.77600002 -0.014966453 1.2186462e-38 296 251
-0.031293493 0.77600002 -0.014966453 1.3016224e-38 297 251
-0.029855758 0.77399999 -0.014927879 1.3751993e-38 298 251
-0.028498679 0.77399999 -0.014927879 1.3659797e-38 299 251
-0.027141599 0.77399999 -0.014927879 1.3108072e-38 300 251
-0.025751207 0.773 -0.014908593 1.3200268e-38 301 251
-0.024395877 0.773 -0.014908593 1.3385022e-38 302 251
-0.023040552 0.773 -0.014908593 1.4030382e-38 303 251
-0.021685226 0.773 -0.014908593 1.4218358e-38 304 251
-0.0203299 0.773 -0.014908593 1.4955911e-38 305 251
-0.018974574 0.773 -0.014908593 1.4951607e-38 306 251
-0.017619247 0.773 -0.014908593 8.9585403e-39 307 251
-0.016263919 0.773 -0.014908593 7.6440831e-42 308 251
-0.014908593 0.773 -0.014908593 4.7474451e-40 309 251
-0.013553266 0.773 -0.014908593 2.6892207e-39 310 251
-0.012197939 0.773 -0.014908593 2.5044707e-39 311 251
-0.010842613 0.773 -0.014908593 2.6852494e-39 312 251
-0.0094872871 0.773 -0.014908593 1.579262e-39 313 251
-0.0081319595 0.773 -0.014908593 1.4092859e-41 314 251
-0.0067766332 0.773 -0.014908593 4.0091149e-42 315 251
-0.0054072798 0.77100003 -0.01487002 2.7763562e-39 316 251
-0.0040554604 0.77100003 -0.01487002 1.0428954e-38 317 251
-0.0027036399 0.77100003 -0.01487002 1.3288453e-38 318 251
-0.00135182 0.77100003 -0.01487002 1.3749431e-38 319 251
0 0.77100003 -0.01487002 1.3657961e-38 320 251
0.00135182 0.77100003 -0.01487002 1.3565766e-38 321 251
0.0027036399 0.77100003 -0.01487002 1.375016e-38 322 251
0.0040554604 0.77100003 -0.01487002 1.4026388e-38 323 251
0.0054072798 0.77100003 -0.01487002 1.3750527e-38 324 251
0.0067590997 0.77100003 -0.01487002 1.3566134e-38 325 251
0.0081109209 0.77100003 -0.01487002 1.3106958e-38 326 251
0.0094872871 0.773 -0.014908593 1.4120752e-38 327 251
0.010842613 0.773 -0.014908593 1.4488095e-38 328 251
0.01221372 0.77399999 -0.014927879 1.4211148e-38 329 251
0.013605867 0.77600002 -0.014966453 1.4026025e-38 330 251
0.014966453 0.77600002 -0.014966453 1.3841274e-38 331 251
0.01632704 0.77600002 -0.014966453 1.1630011e-38 332 251
0.017687626 0.77600002 -0.014966453 1.0431468e-38 333 251
-0.034014668 0.77600002 -0.01632704 1.3747287e-38 295 252
-0.032654081 0.77600002 -0.01632704 1.2091744e-38 296 252
-0.031293493 0.77600002 -0.01632704 1.3014059e-38 297 252
-0.029855758 0.77399999 -0.016284959 1.3843467e-38 298 252
-0.028498679 0.77399999 -0.016284959 1.4120054e-38 299 252
-0.027141599 0.77399999 -0.016284959 1.3843114e-38 300 252
-0.025784519 0.77399999 -0.016284959 1.3474331e-38 301 252
-0.024395877 0.773 -0.016263919 1.2647094e-38 302 252
-0.023040552 0.773 -0.016263919 1.2462703e-38 303 252
-0.021685226 0.773 -0.016263919 1.2557767e-38 304 252
-0.0203299 0.773 -0.016263919 1.3571918e-38 305 252
-0.018974574 0.773 -0.016263919 1.3292438e-38 306 252
-0.017619247 0.773 -0.016263919 7.7610593e-39 307 252
-0.016263919 0.773 -0.016263919 2.6704545e-41 308 252
-0.014908593 0.773 -0.016263919 2.7424812e-41 309 252
-0.013553266 0.773 -0.016263919 2.5106098e-39 310 252
-0.012197939 0.773 -0.016263919 2.3262199e-39 311 252
-0.010842613 0.773 -0.016263919 2.6906822e-39 312 252
-0.0094872871 0.773 -0.016263919 3.8615161e-40 313 252
-0.0081109209 0.77100003 -0.016221842 1.3061503e-41 314 252
-0.0067590997 0.77100003 -0.016221842 1.2339834e-41 315 252
-0.0054072798 0.77100003 -0.016221842 3.2485518e-39 316 252
-0.0040554604 0.77100003 -0.016221842 1.0347614e-38 317 252
-0.0027036399 0.77100003 -0.016221842 1.3842391e-38 318 252
-0.00135182 0.77100003 -0.016221842 1.4211174e-38 319 252
0 0.77100003 -0.016221842 1.457994e-38 320 252
0.00135182 0.77100003 -0.016221842 1.4672136e-38 321 252
0.0027036399 0.77100003 -0.016221842 1.4580293e-38 322 252
0.0040554604 0.77100003 -0.016221842 1.485652e-38 323 252
0.0054072798 0.77100003 -0.016221842 1.4855801e-38 324 252
0.0067766332 0.773 -0.016263919 1.4763606e-38 325 252
0.0081319595 0.773 -0.016263919 1.4487023e-38 326 252
0.0094872871 0.773 -0.016263919 1.4210435e-38 327 252
0.010842613 0.773 -0.016263919 1.4303346e-38 328 252
0.01221372 0.77399999 -0.016284959 1.402712e-38 329 252
0.013605867 0.77600002 -0.01632704 1.4118584e-38 330 252
0.014966453 0.77600002 -0.01632704 1.3934192e-38 331 252
0.01632704 0.77600002 -0.01632704 1.0249238e-38 332 252
0.017733213 0.778 -0.016369121 9.1432497e-39 333 252
-0.032654081 0.77600002 -0.017687626 1.0155619e-38 296 253
-0.031293493 0.77600002 -0.017687626 6.8365765e-39 297 253
-0.029932907 0.77600002 -0.017687626 4.8230381e-39 298 253
-0.028572321 0.77600002 -0.017687626 8.4186677e-39 299 253
-0.027141599 0.77399999 -0.01764204 1.2920438e-38 300 253
-0.025784519 0.77399999 -0.01764204 1.3934589e-38 301 253
-0.02442744 0.77399999 -0.01764204 1.3291735e-38 302 253
-0.02307036 0.77399999 -0.01764204 1.2738561e-38 303 253
-0.021713279 0.77399999 -0.01764204 1.1815166e-38 304 253
-0.0203299 0.773 -0.017619247 1.1169796e-38 305 253
-0.018974574 0.773 -0.017619247 1.1632567e-38 306 253
-0.017619247 0.773 -0.017619247 1.1263784e-38 307 253
-0.016263919 0.773 -0.017619247 1.107615e-38 308 253
-0.014908593 0.773 -0.017619247 9.3244334e-39 309 253
-0.013553266 0.773 -0.017619247 6.1966245e-39 310 253
-0.012197939 0.773 -0.017619247 3.8913736e-39 311 253
-0.010842613 0.773 -0.017619247 1.1319913e-39 312 253
-0.0094872871 0.773 -0.017619247 1.7360687e-41 313 253
-0.0081319595 0.773 -0.017619247 1.503292e-39 314 253
-0.0067590997 0.77100003 -0.01757366 9.5246719e-39 315 253
-0.0054072798 0.77100003 -0.01757366 1.3668421e-38 316 253
-0.0040554604 0.77100003 -0.01757366 1.4590363e-38 317 253
-0.0027036399 0.77100003 -0.01757366 1.449207e-38 318 253
-0.00135182 0.77100003 -0.01757366 1.3846709e-38 319 253
0 0.77100003 -0.01757366 1.4212246e-38 320 253
0.00135182 0.77100003 -0.01757366 1.4212246e-38 321 253
0.0027036399 0.77100003 -0.01757366 1.4212234e-38 322 253
0.0040554604 0.77100003 -0.01757366 1.4120037e-38 323 253
0.0054072798 0.77100003 -0.01757366 1.4211153e-38 324 253
0.0067766332 0.773 -0.017619247 1.4026764e-38 325 253
0.0081319595 0.773 -0.017619247 1.4118236e-38 326 253
0.0094872871 0.773 -0.017619247 1.4118236e-38 327 253
0.010842613 0.773 -0.017619247 1.4118236e-38 328 253
0.01221372 0.77399999 -0.01764204 1.4026041e-38 329 253
0.013605867 0.77600002 -0.017687626 1.365833e-38 330 253
0.014966453 0.77600002 -0.017687626 1.3289549e-38 331 253
