# .PCD v.7 - Point Cloud Data file format
FIELDS x y z rgb imX imY
SIZE 4 4 4 4 4 4
TYPE F F F F F F
COUNT 1 1 1 1 1 1
WIDTH 849
HEIGHT 1
VIEWPOINT 0 0 0 1 0 0 0
POINTS 849
DATA ascii
0.010982879 0.78299999 0.017847179 1.6879744e-38 328 227
0.0123873 0.78500003 0.017892767 1.6050344e-38 329 227
0.013763667 0.78500003 0.017892767 1.7059454e-38 330 227
0.015140033 0.78500003 0.017892767 1.779702e-38 331 227
0.01655848 0.787 0.017938353 1.8811524e-38 332 227
-0.027667599 0.78899997 0.016600559 1.7979965e-38 300 228
-0.026284218 0.78899997 0.016600559 1.7979965e-38 301 228
-0.0247746 0.78500003 0.016516401 1.6419104e-38 302 228
-0.02333862 0.78299999 0.01647432 1.5773734e-38 303 228
-0.021909652 0.78100002 0.016432239 1.6969758e-38 304 228
-0.020540299 0.78100002 0.016432239 1.7799517e-38 305 228
-0.0191464 0.77999997 0.016411198 1.9365048e-38 306 228
-0.017778799 0.77999997 0.016411198 1.9641635e-38 307 228
-0.016411198 0.77999997 0.016411198 2.129756e-38 308 228
-0.0150436 0.77999997 0.016411198 2.1666342e-38 309 228
-0.013640933 0.778 0.016369121 2.0929854e-38 310 228
-0.012276839 0.778 0.016369121 2.1483026e-38 311 228
-0.010912746 0.778 0.016369121 2.0386756e-38 312 228
-0.0095486529 0.778 0.016369121 1.1812562e-38 313 228
-0.0081845606 0.778 0.016369121 4.7142021e-39 314 228
-0.0068204664 0.778 0.016369121 7.1830559e-42 315 228
0.0013675999 0.77999997 0.016411198 1.5676985e-39 321 228
0.0027351999 0.77999997 0.016411198 1.1628546e-38 322 228
0.0041027996 0.77999997 0.016411198 1.5408567e-38 323 228
0.0054774131 0.78100002 0.016432239 1.7156341e-38 324 228
0.0068467669 0.78100002 0.016432239 1.6603167e-38 325 228
0.0082371598 0.78299999 0.01647432 1.6510969e-38 326 228
0.0096100196 0.78299999 0.01647432 1.6510969e-38 327 228
0.010982879 0.78299999 0.01647432 1.6051065e-38 328 228
0.0123873 0.78500003 0.016516401 1.595887e-38 329 228
0.013763667 0.78500003 0.016516401 1.7613349e-38 330 228
0.015140033 0.78500003 0.016516401 1.8074329e-38 331 228
0.01655848 0.787 0.01655848 1.7890288e-38 332 228
0.017938353 0.787 0.01655848 1.7429668e-38 333 228
-0.026217593 0.787 0.015178605 1.4567282e-38 301 229
-0.024711479 0.78299999 0.01510146 9.7028596e-39 302 229
-0.02333862 0.78299999 0.01510146 1.2469087e-38 303 229
-0.021909652 0.78100002 0.015062887 1.7890288e-38 304 229
-0.020513998 0.77999997 0.0150436 1.8351265e-38 305 229
-0.0191464 0.77999997 0.0150436 1.917958e-38 306 229
-0.017778799 0.77999997 0.0150436 1.9363973e-38 307 229
-0.016411198 0.77999997 0.0150436 1.9087385e-38 308 229
-0.0150436 0.77999997 0.0150436 1.770445e-38 309 229
-0.013605867 0.77600002 0.014966453 1.5955254e-38 310 229
-0.01224528 0.77600002 0.014966453 1.6139646e-38 311 229
-0.010884693 0.77600002 0.014966453 1.5503613e-38 312 229
-0.009524107 0.77600002 0.014966453 8.8655263e-39 313 229
-0.0081635201 0.77600002 0.014966453 3.2451424e-39 314 229
-0.0068029333 0.77600002 0.014966453 1.6860423e-41 315 229
0 0.778 0.015005025 0 320 229
0.0013675999 0.77999997 0.0150436 1.751361e-39 321 229
0.0027351999 0.77999997 0.0150436 9.9697453e-39 322 229
0.0041027996 0.77999997 0.0150436 1.3934157e-38 323 229
0.0054774131 0.78100002 0.015062887 1.5867397e-38 324 229
0.0068467669 0.78100002 0.015062887 1.5037637e-38 325 229
0.0082161194 0.78100002 0.015062887 1.4945435e-38 326 229
0.0096100196 0.78299999 0.01510146 1.4945435e-38 327 229
0.010982879 0.78299999 0.01510146 1.5313132e-38 328 229
0.0123873 0.78500003 0.015140033 1.5681556e-38 329 229
0.013763667 0.78500003 0.015140033 1.7798458e-38 330 229
0.015140033 0.78500003 0.015140033 1.8259796e-38 331 229
0.016516401 0.78500003 0.015140033 1.7153091e-38 332 229
0.017938353 0.787 0.015178605 1.6507722e-38 333 229
0.019318225 0.787 0.015178605 1.5404248e-38 334 229
-0.026217593 0.787 0.013798732 4.7959902e-39 301 230
-0.024711479 0.78299999 0.013728599 3.072693e-39 302 230
-0.023279008 0.78100002 0.013693534 1.0079561e-38 303 230
-0.021881599 0.77999997 0.013675999 1.7890656e-38 304 230
-0.020513998 0.77999997 0.013675999 1.8167603e-38 305 230
-0.019097306 0.778 0.013640933 1.8628209e-38 306 230
-0.017733213 0.778 0.013640933 1.8536013e-38 307 230
-0.016369121 0.778 0.013640933 1.8165433e-38 308 230
-0.014966453 0.77600002 0.013605867 1.8165433e-38 309 230
-0.013605867 0.77600002 0.013605867 1.7892442e-38 310 230
-0.01224528 0.77600002 0.013605867 1.816867e-38 311 230
-0.010884693 0.77600002 0.013605867 1.8627107e-38 312 230
-0.009524107 0.77600002 0.013605867 1.752112e-38 313 230
-0.0081635201 0.77600002 0.013605867 1.5752781e-38 314 230
-0.0027036399 0.77100003 0.013518199 8.3011099e-40 318 230
0.0013640933 0.778 0.013640933 2.1252008e-39 321 230
0.0027281865 0.778 0.013640933 8.3138337e-39 322 230
0.0041027996 0.77999997 0.013675999 1.2831418e-38 323 230
0.0054703997 0.77999997 0.013675999 1.660172e-38 324 230
0.0068467669 0.78100002 0.013693534 1.6048546e-38 325 230
0.0082161194 0.78100002 0.013693534 1.5498241e-38 326 230
0.0095854728 0.78100002 0.013693534 1.5959217e-38 327 230
0.010982879 0.78299999 0.013728599 1.6785015e-38 328 230
0.012355739 0.78299999 0.013728599 1.6508069e-38 329 230
0.013763667 0.78500003 0.013763667 1.5589361e-38 330 230
0.015140033 0.78500003 0.013763667 1.6050341e-38 331 230
0.016516401 0.78500003 0.013763667 1.6324778e-38 332 230
0.017892767 0.78500003 0.013763667 1.6048193e-38 333 230
0.019318225 0.787 0.013798732 1.5496094e-38 334 230
0.0206981 0.787 0.013798732 1.6602083e-38 335 230
-0.024648361 0.78100002 0.01232418 2.2238677e-39 302 231
-0.023249198 0.77999997 0.012308398 1.1996604e-38 303 231
-0.021881599 0.77999997 0.012308398 1.7337483e-38 304 231
-0.020461399 0.778 0.012276839 1.844383e-38 305 231
-0.019097306 0.778 0.012276839 1.8720051e-38 306 231
-0.017687626 0.77600002 0.01224528 1.8443464e-38 307 231
-0.01632704 0.77600002 0.01224528 1.8536379e-38 308 231
-0.014966453 0.77600002 0.01224528 1.936614e-38 309 231
-0.013605867 0.77600002 0.01224528 1.9919311e-38 310 231
-0.01224528 0.77600002 0.01224528 1.9919311e-38 311 231
-0.010884693 0.77600002 0.01224528 2.0194453e-38 312 231
-0.009524107 0.77600002 0.01224528 2.1392996e-38 313 231
-0.0081635201 0.77600002 0.01224528 2.1751278e-38 314 231
-0.0067853997 0.77399999 0.01221372 1.5205389e-38 315 231
-0.0054283198 0.77399999 0.01221372 9.027906e-39 316 231
-0.0040554604 0.77100003 0.01216638 3.496206e-39 317 231
-0.0027036399 0.77100003 0.01216638 3.267828e-42 318 231
0.0013640933 0.778 0.012276839 5.9157146e-39 321 231
0.0027281865 0.778 0.012276839 1.0890646e-38 322 231
0.0040922803 0.778 0.012276839 1.3933104e-38 323 231
0.0054703997 0.77999997 0.012308398 1.6602073e-38 324 231
0.0068379994 0.77999997 0.012308398 1.6602073e-38 325 231
0.0082161194 0.78100002 0.01232418 1.6419107e-38 326 231
0.0095854728 0.78100002 0.01232418 1.697228e-38 327 231
0.010954826 0.78100002 0.01232418 1.7430384e-38 328 231
0.012355739 0.78299999 0.012355739 1.6139646e-38 329 231
0.013728599 0.78299999 0.012355739 1.356502e-38 330 231
0.015140033 0.78500003 0.0123873 1.3934163e-38 331 231
0.016516401 0.78500003 0.0123873 1.4945807e-38 332 231
0.017892767 0.78500003 0.0123873 1.5130198e-38 333 231
0.019269135 0.78500003 0.0123873 1.5128034e-38 334 231
0.0206981 0.787 0.01241886 1.5865599e-38 335 231
-0.024616797 0.77999997 0.010940799 2.0311905e-39 302 232
-0.023249198 0.77999997 0.010940799 1.1619896e-38 303 232
-0.021825492 0.778 0.010912746 1.6325479e-38 304 232
-0.020461399 0.778 0.010912746 1.8353783e-38 305 232
-0.019048214 0.77600002 0.010884693 1.9365423e-38 306 232
-0.017687626 0.77600002 0.010884693 1.9180674e-38 307 232
-0.01632704 0.77600002 0.010884693 1.8447424e-38 308 232
-0.014966453 0.77600002 0.010884693 1.8632174e-38 309 232
-0.013605867 0.77600002 0.010884693 1.918283e-38 310 232
-0.01221372 0.77399999 0.01085664 1.8905884e-38 311 232
-0.01085664 0.77399999 0.01085664 1.973348e-38 312 232
-0.0094995592 0.77399999 0.01085664 2.2407142e-38 313 232
-0.0081424797 0.77399999 0.01085664 2.3234369e-38 314 232
-0.0067853997 0.77399999 0.01085664 2.1574847e-38 315 232
-0.0054283198 0.77399999 0.01085664 1.9344859e-38 316 232
-0.0040554604 0.77100003 0.01081456 1.5380089e-38 317 232
-0.0027036399 0.77100003 0.01081456 1.1720717e-38 318 232
-0.0013553266 0.773 0.010842613 1.3749021e-38 319 232
0 0.773 0.010842613 1.5960316e-38 320 232
0.0013640933 0.778 0.010912746 1.6881912e-38 321 232
0.0027281865 0.778 0.010912746 1.7983208e-38 322 232
0.0040922803 0.778 0.010912746 1.7245284e-38 323 232
0.0054703997 0.77999997 0.010940799 1.5958854e-38 324 232
0.0068379994 0.77999997 0.010940799 1.6235081e-38 325 232
0.0082161194 0.78100002 0.010954826 1.7154521e-38 326 232
0.0095854728 0.78100002 0.010954826 1.7707694e-38 327 232
0.010954826 0.78100002 0.010954826 1.7063774e-38 328 232
0.012355739 0.78299999 0.010982879 1.5496447e-38 329 232
0.013728599 0.78299999 0.010982879 1.3289878e-38 330 232
0.015140033 0.78500003 0.011010934 1.2921097e-38 331 232
0.016516401 0.78500003 0.011010934 1.3568271e-38 332 232
0.017892767 0.78500003 0.011010934 1.4028889e-38 333 232
0.019269135 0.78500003 0.011010934 1.5127678e-38 334 232
0.0206981 0.787 0.011038986 1.5865602e-38 335 232
-0.024616797 0.77999997 0.0095731998 1.8467769e-39 302 233
-0.023249198 0.77999997 0.0095731998 1.0605722e-38 303 233
-0.021825492 0.778 0.0095486529 1.6228948e-38 304 233
-0.020461399 0.778 0.0095486529 1.8810425e-38 305 233
-0.019048214 0.77600002 0.009524107 1.8813339e-38 306 233
-0.017687626 0.77600002 0.009524107 1.899773e-38 307 233
-0.01632704 0.77600002 0.009524107 1.8630389e-38 308 233
-0.014966453 0.77600002 0.009524107 1.8538194e-38 309 233
-0.013570799 0.77399999 0.0094995592 1.8537828e-38 310 233
-0.01221372 0.77399999 0.0094995592 1.8445631e-38 311 233
-0.01085664 0.77399999 0.0094995592 1.9365421e-38 312 233
-0.0094995592 0.77399999 0.0094995592 2.1854694e-38 313 233
-0.0081424797 0.77399999 0.0094995592 2.2774484e-38 314 233
-0.0067853997 0.77399999 0.0094995592 2.341805e-38 315 233
-0.0054283198 0.77399999 0.0094995592 2.1663469e-38 316 233
-0.0040659797 0.773 0.0094872871 1.8436981e-38 317 233
-0.0027036399 0.77100003 0.0094627403 1.7709859e-38 318 233
-0.00135182 0.77100003 0.0094627403 1.9553771e-38 319 233
0 0.773 0.0094872871 1.9365423e-38 320 233
0.0013553266 0.773 0.0094872871 1.9088478e-38 321 233
0.0027211732 0.77600002 0.009524107 1.8628575e-38 322 233
0.0040817601 0.77600002 0.009524107 1.7614783e-38 323 233
0.0054563731 0.778 0.0095486529 1.5498945e-38 324 233
0.0068379994 0.77999997 0.0095731998 1.5775174e-38 325 233
0.0082055992 0.77999997 0.0095731998 1.7522947e-38 326 233
0.0095854728 0.78100002 0.0095854728 1.807612e-38 327 233
0.010954826 0.78100002 0.0095854728 1.6512767e-38 328 233
0.01232418 0.78100002 0.0095854728 1.5222028e-38 329 233
0.013728599 0.78299999 0.0096100196 1.4024924e-38 330 233
0.01510146 0.78299999 0.0096100196 1.2549794e-38 331 233
0.016516401 0.78500003 0.0096345674 1.3015814e-38 332 233
0.017892767 0.78500003 0.0096345674 1.3845933e-38 333 233
0.019318225 0.787 0.0096591124 1.4485184e-38 334 233
0.0206981 0.787 0.0096591124 1.5130554e-38 335 233
-0.023189586 0.778 0.0081845606 1.2541145e-38 303 234
-0.021769386 0.77600002 0.0081635201 1.5678319e-38 304 234
-0.0204088 0.77600002 0.0081635201 1.6969057e-38 305 234
-0.019048214 0.77600002 0.0081635201 1.7063777e-38 306 234
-0.01764204 0.77399999 0.0081424797 1.7985373e-38 307 234
-0.016284959 0.77399999 0.0081424797 1.8538191e-38 308 234
-0.014927879 0.77399999 0.0081424797 1.8630745e-38 309 234
-0.013570799 0.77399999 0.0081424797 1.8905168e-38 310 234
-0.01221372 0.77399999 0.0081424797 1.8905168e-38 311 234
-0.01085664 0.77399999 0.0081424797 1.9640931e-38 312 234
-0.0094995592 0.77399999 0.0081424797 2.093167e-38 313 234
-0.0081424797 0.77399999 0.0081424797 2.1485559e-38 314 234
-0.0067766332 0.773 0.0081319595 2.2315665e-38 315 234
-0.0054213065 0.773 0.0081319595 2.1575229e-38 316 234
-0.0040659797 0.773 0.0081319595 2.0376686e-38 317 234
-0.0027036399 0.77100003 0.0081109209 2.0196255e-38 318 234
-0.00135182 0.77100003 0.0081109209 1.9919666e-38 319 234
0 0.773 0.0081319595 1.8075048e-38 320 234
0.0013553266 0.773 0.0081319595 1.7798461e-38 321 234
0.0027141599 0.77399999 0.0081424797 1.7064496e-38 322 234
0.0040817601 0.77600002 0.0081635201 1.6695713e-38 323 234
0.0054563731 0.778 0.0081845606 1.6512038e-38 324 234
0.0068204664 0.778 0.0081845606 1.6696429e-38 325 234
0.0082055992 0.77999997 0.0082055992 1.7340006e-38 326 234
0.0095854728 0.78100002 0.0082161194 1.7063421e-38 327 234
0.010954826 0.78100002 0.0082161194 1.6142909e-38 328 234
0.01232418 0.78100002 0.0082161194 1.5958517e-38 329 234
0.013693534 0.78100002 0.0082161194 1.4944722e-38 330 234
0.01510146 0.78299999 0.0082371598 1.3377036e-38 331 234
0.016516401 0.78500003 0.0082582003 1.3472472e-38 332 234
0.017938353 0.787 0.0082792398 1.4210037e-38 333 234
0.019318225 0.787 0.0082792398 1.4393713e-38 334 234
0.0206981 0.787 0.0082792398 1.485469e-38 335 234
-0.023189586 0.778 0.0068204664 1.6140369e-38 303 235
-0.021769386 0.77600002 0.0068029333 1.6970145e-38 304 235
-0.020356199 0.77399999 0.0067853997 1.706234e-38 305 235
-0.018999118 0.77399999 0.0067853997 1.7246733e-38 306 235
-0.01764204 0.77399999 0.0067853997 1.7984657e-38 307 235
-0.016284959 0.77399999 0.0067853997 1.8814415e-38 308 235
-0.014927879 0.77399999 0.0067853997 1.8630023e-38 309 235
-0.013570799 0.77399999 0.0067853997 1.8536752e-38 310 235
-0.01221372 0.77399999 0.0067853997 1.8444556e-38 311 235
-0.01085664 0.77399999 0.0067853997 1.872114e-38 312 235
-0.0094995592 0.77399999 0.0067853997 1.8997727e-38 313 235
-0.0081319595 0.773 0.0067766332 1.9370825e-38 314 235
-0.0067766332 0.773 0.0067766332 2.066155e-38 315 235
-0.0054213065 0.773 0.0067766332 2.1389406e-38 316 235
-0.0040659797 0.773 0.0067766332 2.0651841e-38 317 235
-0.0027106532 0.773 0.0067766332 2.092807e-38 318 235
-0.0013553266 0.773 0.0067766332 2.0374896e-38 319 235
0 0.773 0.0067766332 1.7523676e-38 320 235
0.0013553266 0.773 0.0067766332 1.7523676e-38 321 235
0.0027106532 0.773 0.0067766332 1.7432202e-38 322 235
0.0040659797 0.773 0.0067766332 1.7247452e-38 323 235
0.0054423464 0.77600002 0.0068029333 1.6695363e-38 324 235
0.0068029333 0.77600002 0.0068029333 1.7156341e-38 325 235
0.0081635201 0.77600002 0.0068029333 1.7523691e-38 326 235
0.0095731998 0.77999997 0.0068379994 1.6417704e-38 327 235
0.010940799 0.77999997 0.0068379994 1.5131644e-38 328 235
0.012308398 0.77999997 0.0068379994 1.5039448e-38 329 235
0.013693534 0.78100002 0.0068467669 1.5588655e-38 330 235
0.015062887 0.78100002 0.0068467669 1.4390113e-38 331 235
0.016516401 0.78500003 0.0068818335 1.3469955e-38 332 235
0.017892767 0.78500003 0.0068818335 1.4115324e-38 333 235
0.019269135 0.78500003 0.0068818335 1.4118568e-38 334 235
0.020645501 0.78500003 0.0068818335 1.4671741e-38 335 235
-0.023189586 0.778 0.0054563731 1.9825653e-38 303 236
-0.021769386 0.77600002 0.0054423464 1.8998799e-38 304 236
-0.020356199 0.77399999 0.0054283198 1.8630377e-38 305 236
-0.018999118 0.77399999 0.0054283198 1.8812971e-38 306 236
-0.01764204 0.77399999 0.0054283198 1.9181395e-38 307 236
-0.016284959 0.77399999 0.0054283198 1.8905534e-38 308 236
-0.014927879 0.77399999 0.0054283198 1.8536752e-38 309 236
-0.013570799 0.77399999 0.0054283198 1.8352363e-38 310 236
-0.01221372 0.77399999 0.0054283198 1.8260168e-38 311 236
-0.01085664 0.77399999 0.0054283198 1.7985023e-38 312 236
-0.0094995592 0.77399999 0.0054283198 1.761624e-38 313 236
-0.0081319595 0.773 0.0054213065 1.7898222e-38 314 236
-0.0067766332 0.773 0.0054213065 1.9188954e-38 315 236
-0.0054213065 0.773 0.0054213065 2.0561443e-38 316 236
-0.0040712398 0.77399999 0.0054283198 2.083803e-38 317 236
-0.0027106532 0.773 0.0054213065 2.0928421e-38 318 236
-0.0013553266 0.773 0.0054213065 1.9730236e-38 319 236
0 0.773 0.0054213065 1.7432196e-38 320 236
0.0013553266 0.773 0.0054213065 1.7616946e-38 321 236
0.0027106532 0.773 0.0054213065 1.7892456e-38 322 236
0.0040659797 0.773 0.0054213065 1.7431836e-38 323 236
0.0054283198 0.77399999 0.0054283198 1.6603167e-38 324 236
0.0068029333 0.77600002 0.0054423464 1.7340732e-38 325 236
0.0081635201 0.77600002 0.0054423464 1.7524413e-38 326 236
0.0095486529 0.778 0.0054563731 1.5772697e-38 327 236
0.010940799 0.77999997 0.0054703997 1.4211851e-38 328 236
0.012308398 0.77999997 0.0054703997 1.4211851e-38 329 236
0.013693534 0.78100002 0.0054774131 1.5773416e-38 330 236
0.015062887 0.78100002 0.0054774131 1.5589385e-38 331 236
0.016516401 0.78500003 0.0055054668 1.2640214e-38 332 236
0.017892767 0.78500003 0.0055054668 1.2363626e-38 333 236
0.019269135 0.78500003 0.0055054668 1.3475018e-38 334 236
0.020645501 0.78500003 0.0055054668 1.4028192e-38 335 236
-0.024553679 0.778 0.0040922803 1.9179931e-38 302 237
-0.023129974 0.77600002 0.0040817601 1.9456878e-38 303 237
-0.021769386 0.77600002 0.0040817601 1.8537824e-38 304 237
-0.020356199 0.77399999 0.0040712398 1.8537824e-38 305 237
-0.018999118 0.77399999 0.0040712398 1.8997008e-38 306 237
-0.01764204 0.77399999 0.0040712398 1.8997008e-38 307 237
-0.016284959 0.77399999 0.0040712398 1.8353082e-38 308 237
-0.014927879 0.77399999 0.0040712398 1.8076497e-38 309 237
-0.013570799 0.77399999 0.0040712398 1.7892827e-38 310 237
-0.01221372 0.77399999 0.0040712398 1.7892827e-38 311 237
-0.01085664 0.77399999 0.0040712398 1.7892827e-38 312 237
-0.0094995592 0.77399999 0.0040712398 1.7708437e-38 313 237
-0.0081319595 0.773 0.0040659797 1.7709525e-38 314 237
-0.0067766332 0.773 0.0040659797 1.7433298e-38 315 237
-0.0054213065 0.773 0.0040659797 1.660748e-38 316 237
-0.0040712398 0.77399999 0.0040712398 1.7713828e-38 317 237
-0.0027106532 0.773 0.0040659797 1.9365421e-38 318 237
-0.0013553266 0.773 0.0040659797 1.8627856e-38 319 237
0 0.773 0.0040659797 1.798537e-38 320 237
0.0013553266 0.773 0.0040659797 1.7616946e-38 321 237
0.0027141599 0.77399999 0.0040712398 1.7063774e-38 322 237
0.0040712398 0.77399999 0.0040712398 1.6326208e-38 323 237
0.0054283198 0.77399999 0.0040712398 1.4762489e-38 324 237
0.0067853997 0.77399999 0.0040712398 1.5039436e-38 325 237
0.0081424797 0.77399999 0.0040712398 1.5865968e-38 326 237
0.009524107 0.77600002 0.0040817601 1.5312794e-38 327 237
0.010940799 0.77999997 0.0041027996 1.4486999e-38 328 237
0.012308398 0.77999997 0.0041027996 1.4486999e-38 329 237
0.013675999 0.77999997 0.0041027996 1.5590107e-38 330 237
0.0150436 0.77999997 0.0041027996 1.5036933e-38 331 237
0.016516401 0.78500003 0.0041291001 5.738142e-39 332 237
0.017938353 0.787 0.0041396199 5.3693595e-39 333 237
0.019318225 0.787 0.0041396199 9.7944022e-39 334 237
-0.025984399 0.77999997 0.0027351999 2.0284092e-38 301 238
-0.024553679 0.778 0.0027281865 1.9365421e-38 302 238
-0.023129974 0.77600002 0.0027211732 1.8904082e-38 303 238
-0.021713279 0.77399999 0.0027141599 1.798537e-38 304 238
-0.020356199 0.77399999 0.0027141599 1.817012e-38 305 238
-0.018999118 0.77399999 0.0027141599 1.8722222e-38 306 238
-0.01764204 0.77399999 0.0027141599 1.8722222e-38 307 238
-0.016284959 0.77399999 0.0027141599 1.7892824e-38 308 238
-0.014927879 0.77399999 0.0027141599 1.7708793e-38 309 238
-0.013570799 0.77399999 0.0027141599 1.7616607e-38 310 238
-0.012197939 0.773 0.0027106532 1.7616607e-38 311 238
-0.010842613 0.773 0.0027106532 1.7341098e-38 312 238
-0.0094872871 0.773 0.0027106532 1.7341098e-38 313 238
-0.0081319595 0.773 0.0027106532 1.752406e-38 314 238
-0.0067766332 0.773 0.0027106532 1.5219529e-38 315 238
-0.0054213065 0.773 0.0027106532 1.3293492e-38 316 238
-0.0040712398 0.77399999 0.0027141599 1.5598742e-38 317 238
-0.0027106532 0.773 0.0027106532 1.8169411e-38 318 238
-0.0013553266 0.773 0.0027106532 1.7892824e-38 319 238
0 0.773 0.0027106532 1.7801705e-38 320 238
0.0013553266 0.773 0.0027106532 1.7525116e-38 321 238
0.0027141599 0.77399999 0.0027141599 1.6419845e-38 322 238
0.0040712398 0.77399999 0.0027141599 1.5774476e-38 323 238
0.0054283198 0.77399999 0.0027141599 1.4485532e-38 324 238
0.0067853997 0.77399999 0.0027141599 1.411711e-38 325 238
0.0081424797 0.77399999 0.0027141599 1.3746895e-38 326 238
0.009524107 0.77600002 0.0027211732 1.3839091e-38 327 238
0.010912746 0.778 0.0027281865 1.3749784e-38 328 238
0.012276839 0.778 0.0027281865 1.4395154e-38 329 238
0.013675999 0.77999997 0.0027351999 1.4852536e-38 330 238
0.0150436 0.77999997 0.0027351999 1.3101178e-38 331 238
0.016516401 0.78500003 0.0027527334 1.3134679e-39 332 238
0.017938353 0.787 0.0027597465 1.9127724e-41 333 238
0.019367319 0.78899997 0.0027667598 3.6277221e-39 334 238
-0.027387068 0.78100002 0.0013693533 1.6502667e-38 300 239
-0.025984399 0.77999997 0.0013675999 1.982171e-38 301 239
-0.024553679 0.778 0.0013640933 1.8813339e-38 302 239
-0.023129974 0.77600002 0.0013605866 1.8260165e-38 303 239
-0.021713279 0.77399999 0.0013570799 1.6695716e-38 304 239
-0.020356199 0.77399999 0.0013570799 1.5958151e-38 305 239
-0.018999118 0.77399999 0.0013570799 1.6695363e-38 306 239
-0.01764204 0.77399999 0.0013570799 1.7524763e-38 307 239
-0.016284959 0.77399999 0.0013570799 1.770844e-38 308 239
-0.014927879 0.77399999 0.0013570799 1.7524047e-38 309 239
-0.013570799 0.77399999 0.0013570799 1.7248183e-38 310 239
-0.012197939 0.773 0.0013553266 1.7340379e-38 311 239
-0.010842613 0.773 0.0013553266 1.7524766e-38 312 239
-0.0094872871 0.773 0.0013553266 1.7985746e-38 313 239
-0.0081319595 0.773 0.0013553266 1.7707004e-38 314 239
-0.0067766332 0.773 0.0013553266 1.4572712e-38 315 239
-0.0054213065 0.773 0.0013553266 1.475999e-38 316 239
-0.0040712398 0.77399999 0.0013570799 1.7341468e-38 317 239
-0.0027106532 0.773 0.0013553266 1.7341465e-38 318 239
-0.0013553266 0.773 0.0013553266 1.6973041e-38 319 239
0 0.773 0.0013553266 1.688084e-38 320 239
0.0013553266 0.773 0.0013553266 1.6696449e-38 321 239
0.0027141599 0.77399999 0.0013570799 1.6236543e-38 322 239
0.0040712398 0.77399999 0.0013570799 1.6236543e-38 323 239
0.0054283198 0.77399999 0.0013570799 1.6325852e-38 324 239
0.0067853997 0.77399999 0.0013570799 1.5773038e-38 325 239
0.0081424797 0.77399999 0.0013570799 1.4575582e-38 326 239
0.0094995592 0.77399999 0.0013570799 1.2362888e-38 327 239
0.010884693 0.77600002 0.0013605866 1.2548724e-38 328 239
0.01224528 0.77600002 0.0013605866 1.3009342e-38 329 239
0.013605867 0.77600002 0.0013605866 6.56716e-39 330 239
0.014966453 0.77600002 0.0013605866 8.5103238e-40 331 239
0.01655848 0.787 0.0013798733 7.2475157e-42 332 239
0.017938353 0.787 0.0013798733 1.1208986e-41 333 239
0.019318225 0.787 0.0013798733 1.9130527e-41 334 239
-0.03020292 0.78299999 -0 1.8257982e-38 298 240
-0.028830061 0.78299999 -0 1.7428221e-38 299 240
-0.027387068 0.78100002 -0 1.6690668e-38 300 240
-0.025984399 0.77999997 -0 1.8811168e-38 301 240
-0.024553679 0.778 -0 1.8536757e-38 302 240
-0.023129974 0.77600002 -0 1.8167616e-38 303 240
-0.021713279 0.77399999 -0 1.7523676e-38 304 240
-0.020356199 0.77399999 -0 1.6509523e-38 305 240
-0.018999118 0.77399999 -0 1.5128034e-38 306 240
-0.017619247 0.773 -0 1.5589011e-38 307 240
-0.016263919 0.773 -0 1.6236195e-38 308 240
-0.014908593 0.773 -0 1.6881565e-38 309 240
-0.013553266 0.773 -0 1.7708087e-38 310 240
-0.012197939 0.773 -0 1.8076868e-38 311 240
-0.010842613 0.773 -0 1.8259093e-38 312 240
-0.0094872871 0.773 -0 1.7797754e-38 313 240
-0.0081319595 0.773 -0 1.6319385e-38 314 240
-0.0067853997 0.77399999 -0 1.1986549e-38 315 240
-0.0054283198 0.77399999 -0 8.5994338e-39 316 240
-0.0040712398 0.77399999 -0 1.3116661e-38 317 240
-0.0027141599 0.77399999 -0 1.7157086e-38 318 240
-0.0013553266 0.773 -0 1.6972335e-38 319 240
0 0.773 -0 1.6512416e-38 320 240
0.0013553266 0.773 -0 1.6328025e-38 321 240
0.0027141599 0.77399999 -0 1.6052158e-38 322 240
0.0040712398 0.77399999 -0 1.6052158e-38 323 240
0.0054283198 0.77399999 -0 1.6693928e-38 324 240
0.0067853997 0.77399999 -0 1.6417701e-38 325 240
0.0081424797 0.77399999 -0 1.5680149e-38 326 240
0.0094995592 0.77399999 -0 1.438941e-38 327 240
0.010884693 0.77600002 -0 1.4115324e-38 328 240
0.01224528 0.77600002 -0 1.3469955e-38 329 240
0.013605867 0.77600002 -0 6.006387e-39 330 240
0.014966453 0.77600002 -0 4.6663239e-42 331 240
0.01632704 0.77600002 -0 5.7565341e-42 332 240
0.017687626 0.77600002 -0 1.4870075e-39 333 240
-0.031575777 0.78299999 -0.0013728599 1.8165433e-38 297 241
-0.03020292 0.78299999 -0.0013728599 1.7706248e-38 298 241
-0.028830061 0.78299999 -0.0013728599 1.6968683e-38 299 241
-0.027387068 0.78100002 -0.0013693533 1.6507719e-38 300 241
-0.025984399 0.77999997 -0.0013675999 1.8075404e-38 301 241
-0.024553679 0.778 -0.0013640933 1.7891752e-38 302 241
-0.023129974 0.77600002 -0.0013605866 1.7891752e-38 303 241
-0.021713279 0.77399999 -0.0013570799 1.8721143e-38 304 241
-0.020356199 0.77399999 -0.0013570799 1.8721143e-38 305 241
-0.018999118 0.77399999 -0.0013570799 1.6231861e-38 306 241
-0.017619247 0.773 -0.0013553266 1.457234e-38 307 241
-0.016263919 0.773 -0.0013553266 1.2553043e-38 308 241
-0.014908593 0.773 -0.0013553266 1.4581347e-38 309 241
-0.013553266 0.773 -0.0013553266 1.770736e-38 310 241
-0.012197939 0.773 -0.0013553266 1.7338578e-38 311 241
-0.010842613 0.773 -0.0013553266 1.6412284e-38 312 241
-0.0094872871 0.773 -0.0013553266 1.1064937e-38 313 241
-0.0081319595 0.773 -0.0013553266 5.1579358e-39 314 241
-0.0067853997 0.77399999 -0.0013570799 5.5102419e-40 315 241
-0.0054283198 0.77399999 -0.0013570799 2.4158386e-41 316 241
-0.0040712398 0.77399999 -0.0013570799 6.75624e-39 317 241
-0.0027141599 0.77399999 -0.0013570799 1.4670706e-38 318 241
-0.0013570799 0.77399999 -0.0013570799 1.6145827e-38 319 241
0 0.773 -0.0013553266 1.6327322e-38 320 241
0.0013553266 0.773 -0.0013553266 1.6419517e-38 321 241
0.0027106532 0.773 -0.0013553266 1.6234755e-38 322 241
0.0040659797 0.773 -0.0013553266 1.6234755e-38 323 241
0.0054283198 0.77399999 -0.0013570799 1.6235471e-38 324 241
0.0067853997 0.77399999 -0.0013570799 1.6235471e-38 325 241
0.0081424797 0.77399999 -0.0013570799 1.6233308e-38 326 241
0.0094995592 0.77399999 -0.0013570799 1.5403189e-38 327 241
0.01085664 0.77399999 -0.0013570799 1.5771599e-38 328 241
0.01224528 0.77600002 -0.0013605866 1.5864153e-38 329 241
0.013605867 0.77600002 -0.0013605866 1.0149798e-38 330 241
0.014966453 0.77600002 -0.0013605866 1.2068221e-39 331 241
0.01632704 0.77600002 -0.0013605866 8.9879284e-42 332 241
-0.033032801 0.78500003 -0.0027527334 1.7981407e-38 296 242
-0.031575777 0.78299999 -0.0027457199 1.8073603e-38 297 242
-0.03020292 0.78299999 -0.0027457199 1.7798811e-38 298 242
-0.028830061 0.78299999 -0.0027457199 1.7153442e-38 299 242
-0.027387068 0.78100002 -0.0027387065 1.4947592e-38 300 242
-0.025984399 0.77999997 -0.0027351999 1.6145776e-38 301 242
-0.024553679 0.778 -0.0027281865 1.7891035e-38 302 242
-0.023129974 0.77600002 -0.0027211732 1.8259458e-38 303 242
-0.021713279 0.77399999 -0.0027141599 1.8537122e-38 304 242
-0.020356199 0.77399999 -0.0027141599 1.8814067e-38 305 242
-0.018999118 0.77399999 -0.0027141599 1.7431127e-38 306 242
-0.017619247 0.773 -0.0027106532 1.5955997e-38 307 242
-0.016263919 0.773 -0.0027106532 1.4116403e-38 308 242
-0.014908593 0.773 -0.0027106532 1.3932012e-38 309 242
-0.013553266 0.773 -0.0027106532 1.5213743e-38 310 242
-0.012197939 0.773 -0.0027106532 1.1894701e-38 311 242
-0.010842613 0.773 -0.0027106532 8.9426062e-39 312 242
-0.0094627403 0.77100003 -0.0027036399 4.3328247e-39 313 242
-0.0081109209 0.77100003 -0.0027036399 3.5873241e-43 314 242
-0.0067853997 0.77399999 -0.0027141599 0 315 242
-0.0054283198 0.77399999 -0.0027141599 2.5699814e-42 316 242
-0.0040659797 0.773 -0.0027106532 3.419932e-39 317 242
-0.0027106532 0.773 -0.0027106532 7.2151022e-39 318 242
-0.0013570799 0.77399999 -0.0027141599 1.1824884e-38 319 242
0 0.773 -0.0027106532 1.6510283e-38 320 242
0.0013553266 0.773 -0.0027106532 1.6233698e-38 321 242
0.0027106532 0.773 -0.0027106532 1.5221326e-38 322 242
0.0040659797 0.773 -0.0027106532 1.4944737e-38 323 242
0.0054213065 0.773 -0.0027106532 1.4213288e-38 324 242
0.0067766332 0.773 -0.0027106532 1.5134884e-38 325 242
0.0081319595 0.773 -0.0027106532 1.6235108e-38 326 242
0.0094995592 0.77399999 -0.0027141599 1.5497543e-38 327 242
0.01085664 0.77399999 -0.0027141599 1.5589008e-38 328 242
0.01221372 0.77399999 -0.0027141599 1.5865597e-38 329 242
0.013605867 0.77600002 -0.0027211732 1.2730207e-38 330 242
0.014966453 0.77600002 -0.0027211732 5.3545548e-39 331 242
0.01632704 0.77600002 -0.0027211732 3.7454045e-40 332 242
-0.033032801 0.78500003 -0.0041291001 1.7522234e-38 296 243
-0.031575777 0.78299999 -0.0041185799 1.7798461e-38 297 243
-0.03020292 0.78299999 -0.0041185799 1.7523679e-38 298 243
-0.028756421 0.78100002 -0.0041080597 1.7154536e-38 299 243
-0.027387068 0.78100002 -0.0041080597 1.5128753e-38 300 243
-0.025984399 0.77999997 -0.0041027996 1.5958514e-38 301 243
-0.024490559 0.77600002 -0.0040817601 1.7340732e-38 302 243
-0.023129974 0.77600002 -0.0040817601 1.8170133e-38 303 243
-0.021713279 0.77399999 -0.0040712398 1.8262333e-38 304 243
-0.020356199 0.77399999 -0.0040712398 1.8262333e-38 305 243
-0.018999118 0.77399999 -0.0040712398 1.7708443e-38 306 243
-0.017619247 0.773 -0.0040659797 1.7523691e-38 307 243
-0.016263919 0.773 -0.0040659797 1.7064505e-38 308 243
-0.014908593 0.773 -0.0040659797 1.4298997e-38 309 243
-0.013553266 0.773 -0.0040659797 1.1335393e-38 310 243
-0.012197939 0.773 -0.0040659797 3.2221779e-39 311 243
-0.010842613 0.773 -0.0040659797 0 312 243
-0.0094627403 0.77100003 -0.0040554604 0 313 243
-0.0081109209 0.77100003 -0.0040554604 1.8090763e-42 314 243
-0.0067766332 0.773 -0.0040659797 2.819973e-40 315 243
-0.0054213065 0.773 -0.0040659797 1.1196375e-42 316 243
-0.0040659797 0.773 -0.0040659797 2.1986373e-42 317 243
-0.0027106532 0.773 -0.0040659797 2.4547946e-41 318 243
-0.0013570799 0.77399999 -0.0040712398 5.1893025e-39 319 243
0 0.773 -0.0040659797 1.3565075e-38 320 243
0.0013553266 0.773 -0.0040659797 1.3657631e-38 321 243
0.0027106532 0.773 -0.0040659797 1.2827835e-38 322 243
0.0040659797 0.773 -0.0040659797 1.2643084e-38 323 243
0.0054213065 0.773 -0.0040659797 1.2464808e-38 324 243
0.0067766332 0.773 -0.0040659797 1.4124328e-38 325 243
0.0081319595 0.773 -0.0040659797 1.6142922e-38 326 243
0.0094995592 0.77399999 -0.0040712398 1.5405357e-38 327 243
0.01085664 0.77399999 -0.0040712398 1.540534e-38 328 243
0.01221372 0.77399999 -0.0040712398 1.5497537e-38 329 243
0.013605867 0.77600002 -0.0040817601 1.4112414e-38 330 243
0.014966453 0.77600002 -0.0040817601 9.9636118e-39 331 243
0.01632704 0.77600002 -0.0040817601 1.2053633e-39 332 243
0.017778799 0.77999997 -0.0041027996 1.9085265e-40 333 243
-0.034496833 0.787 -0.005519493 1.8625335e-38 295 244
-0.033032801 0.78500003 -0.0055054668 1.7430401e-38 296 244
-0.031575777 0.78299999 -0.0054914397 1.7614793e-38 297 244
-0.03020292 0.78299999 -0.0054914397 1.7156338e-38 298 244
-0.028756421 0.78100002 -0.0054774131 1.7248534e-38 299 244
-0.027387068 0.78100002 -0.0054774131 1.6416974e-38 300 244
-0.025984399 0.77999997 -0.0054703997 1.58638e-38 301 244
-0.024490559 0.77600002 -0.0054423464 1.5595126e-38 302 244
-0.023129974 0.77600002 -0.0054423464 1.7254289e-38 303 244
-0.021713279 0.77399999 -0.0054283198 1.8261259e-38 304 244
-0.020356199 0.77399999 -0.0054283198 1.7892118e-38 305 244
-0.018999118 0.77399999 -0.0054283198 1.6880846e-38 306 244
-0.017619247 0.773 -0.0054213065 1.6973041e-38 307 244
-0.016263919 0.773 -0.0054213065 1.75262e-38 308 244
-0.014908593 0.773 -0.0054213065 1.5774123e-38 309 244
-0.013553266 0.773 -0.0054213065 1.2262392e-38 310 244
-0.012197939 0.773 -0.0054213065 2.1208722e-39 311 244
-0.010842613 0.773 -0.0054213065 0 312 244
-0.0094627403 0.77100003 -0.0054072798 9.2412411e-40 313 244
-0.0081109209 0.77100003 -0.0054072798 1.0192064e-39 314 244
-0.0067766332 0.773 -0.0054213065 1.2961534e-39 315 244
-0.0054213065 0.773 -0.0054213065 6.5078683e-40 316 244
-0.0040712398 0.77399999 -0.0054283198 2.8964839e-42 317 244
-0.0027141599 0.77399999 -0.0054283198 7.8893104e-43 318 244
-0.0013570799 0.77399999 -0.0054283198 2.2188861e-39 319 244
0 0.773 -0.0054213065 4.0026353e-39 320 244
0.0013553266 0.773 -0.0054213065 8.6124168e-39 321 244
0.0027106532 0.773 -0.0054213065 1.3843429e-38 322 244
0.0040659797 0.773 -0.0054213065 1.4211851e-38 323 244
0.0054213065 0.773 -0.0054213065 1.4946537e-38 324 244
0.0067853997 0.77399999 -0.0054283198 1.5407155e-38 325 244
0.0081424797 0.77399999 -0.0054283198 1.5407158e-38 326 244
0.0094995592 0.77399999 -0.0054283198 1.4946181e-38 327 244
0.01085664 0.77399999 -0.0054283198 1.5038002e-38 328 244
0.01221372 0.77399999 -0.0054283198 1.5130198e-38 329 244
0.013605867 0.77600002 -0.0054423464 1.5126933e-38 330 244
0.014966453 0.77600002 -0.0054423464 1.2177033e-38 331 244
0.016411198 0.77999997 -0.0054703997 1.2078786e-39 332 244
0.017778799 0.77999997 -0.0054703997 7.8949155e-42 333 244
-0.034496833 0.787 -0.0068993662 1.8165799e-38 295 245
-0.033032801 0.78500003 -0.0068818335 1.7247452e-38 296 245
-0.031575777 0.78299999 -0.0068642995 1.7247452e-38 297 245
-0.03020292 0.78299999 -0.0068642995 1.6880477e-38 298 245
-0.028756421 0.78100002 -0.0068467669 1.7248899e-38 299 245
-0.027387068 0.78100002 -0.0068467669 1.651169e-38 300 245
-0.025984399 0.77999997 -0.0068379994 1.5128397e-38 301 245
-0.024490559 0.77600002 -0.0068029333 1.5040518e-38 302 245
-0.02307036 0.77399999 -0.0067853997 1.7161376e-38 303 245
-0.021713279 0.77399999 -0.0067853997 1.7801001e-38 304 245
-0.020356199 0.77399999 -0.0067853997 1.7248186e-38 305 245
-0.018999118 0.77399999 -0.0067853997 1.6512786e-38 306 245
-0.01764204 0.77399999 -0.0067853997 1.6604982e-38 307 245
-0.016263919 0.773 -0.0067766332 1.7341818e-38 308 245
-0.014908593 0.773 -0.0067766332 1.6328025e-38 309 245
-0.013553266 0.773 -0.0067766332 1.3466341e-38 310 245
-0.012197939 0.773 -0.0067766332 1.849693e-39 311 245
-0.010842613 0.773 -0.0067766332 0 312 245
-0.0094627403 0.77100003 -0.0067590997 2.2155846e-39 313 245
-0.0081109209 0.77100003 -0.0067590997 2.4910925e-39 314 245
-0.0067590997 0.77100003 -0.0067590997 2.3070614e-39 315 245
-0.0054283198 0.77399999 -0.0067853997 2.123033e-39 316 245
-0.0040712398 0.77399999 -0.0067853997 8.3229422e-40 317 245
-0.0027141599 0.77399999 -0.0067853997 5.6051939e-45 318 245
-0.0013570799 0.77399999 -0.0067853997 1.1210388e-44 319 245
0 0.773 -0.0067766332 8.4139411e-39 320 245
0.0013553266 0.773 -0.0067766332 1.2286158e-38 321 245
0.0027106532 0.773 -0.0067766332 1.5685189e-38 322 245
0.0040659797 0.773 -0.0067766332 1.5961777e-38 323 245
0.0054213065 0.773 -0.0067766332 1.5959262e-38 324 245
0.0067853997 0.77399999 -0.0067853997 1.5590119e-38 325 245
0.0081424797 0.77399999 -0.0067853997 1.4763234e-38 326 245
0.0094995592 0.77399999 -0.0067853997 1.4671039e-38 327 245
0.01085664 0.77399999 -0.0067853997 1.4761422e-38 328 245
0.01221372 0.77399999 -0.0067853997 1.4945453e-38 329 245
0.013605867 0.77600002 -0.0068029333 1.494507e-38 330 245
0.014966453 0.77600002 -0.0068029333 1.2916766e-38 331 245
0.016411198 0.77999997 -0.0068379994 5.9070462e-39 332 245
0.017778799 0.77999997 -0.0068379994 1.7582414e-39 333 245
0.0191464 0.77999997 -0.0068379994 7.2024695e-39 334 245
-0.034496833 0.787 -0.0082792398 1.7705543e-38 295 246
-0.033032801 0.78500003 -0.0082582003 1.6879394e-38 296 246
-0.031575777 0.78299999 -0.0082371598 1.6971591e-38 297 246
-0.030125774 0.78100002 -0.0082161194 1.6971241e-38 298 246
-0.028756421 0.78100002 -0.0082161194 1.6971241e-38 299 246
-0.027351998 0.77999997 -0.0082055992 1.6512419e-38 300 246
-0.025917772 0.778 -0.0081845606 1.5774495e-38 301 246
-0.024490559 0.77600002 -0.0081635201 1.6696096e-38 302 246
-0.02307036 0.77399999 -0.0081424797 1.7157433e-38 303 246
-0.021713279 0.77399999 -0.0081424797 1.632984e-38 304 246
-0.020356199 0.77399999 -0.0081424797 1.614509e-38 305 246
-0.018999118 0.77399999 -0.0081424797 1.6695026e-38 306 246
-0.01764204 0.77399999 -0.0081424797 1.6510634e-38 307 246
-0.016263919 0.773 -0.0081319595 1.6788294e-38 308 246
-0.014908593 0.773 -0.0081319595 1.6512067e-38 309 246
-0.013553266 0.773 -0.0081319595 1.3837649e-38 310 246
-0.012197939 0.773 -0.0081319595 1.7596609e-39 311 246
-0.010842613 0.773 -0.0081319595 1.4012985e-44 312 246
-0.0094872871 0.773 -0.0081319595 2.2188342e-39 313 246
-0.0081319595 0.773 -0.0081319595 2.4028667e-39 314 246
-0.0067766332 0.773 -0.0081319595 2.2188342e-39 315 246
-0.0054213065 0.773 -0.0081319595 1.9422445e-39 316 246
-0.0040712398 0.77399999 -0.0081424797 1.0199281e-39 317 246
-0.0027141599 0.77399999 -0.0081424797 3.2706306e-42 318 246
-0.0013553266 0.773 -0.0081319595 3.7868928e-39 319 246
0 0.773 -0.0081319595 1.6323719e-38 320 246
0.0013553266 0.773 -0.0081319595 1.7061284e-38 321 246
0.0027106532 0.773 -0.0081319595 1.5777385e-38 322 246
0.0040659797 0.773 -0.0081319595 1.5501158e-38 323 246
0.0054213065 0.773 -0.0081319595 1.5132743e-38 324 246
0.0067766332 0.773 -0.0081319595 1.494835e-38 325 246
0.0081319595 0.773 -0.0081319595 1.4946552e-38 326 246
0.0094995592 0.77399999 -0.0081424797 1.4854356e-38 327 246
0.01085664 0.77399999 -0.0081424797 1.4578479e-38 328 246
0.01224528 0.77600002 -0.0081635201 1.4578479e-38 329 246
0.013605867 0.77600002 -0.0081635201 1.3932375e-38 330 246
0.015005025 0.778 -0.0081845606 1.2918582e-38 331 246
0.016411198 0.77999997 -0.0082055992 1.3099363e-38 332 246
0.017778799 0.77999997 -0.0082055992 1.2822418e-38 333 246
0.0191464 0.77999997 -0.0082055992 1.3192279e-38 334 246
-0.035876706 0.787 -0.0096591124 1.7889937e-38 294 247
-0.034496833 0.787 -0.0096591124 1.7428959e-38 295 247
-0.033032801 0.78500003 -0.0096345674 1.697052e-38 296 247
-0.031575777 0.78299999 -0.0096100196 1.6878325e-38 297 247
-0.030125774 0.78100002 -0.0095854728 1.6419514e-38 298 247
-0.028756421 0.78100002 -0.0095854728 1.6419514e-38 299 247
-0.027351998 0.77999997 -0.0095731998 1.6420235e-38 300 247
-0.025917772 0.778 -0.0095486529 1.651243e-38 301 247
-0.02442744 0.77399999 -0.0094995592 1.6696824e-38 302 247
-0.02307036 0.77399999 -0.0094995592 1.6604629e-38 303 247
-0.021713279 0.77399999 -0.0094995592 1.5869227e-38 304 247
-0.020356199 0.77399999 -0.0094995592 1.5869227e-38 305 247
-0.018999118 0.77399999 -0.0094995592 1.5776313e-38 306 247
-0.01764204 0.77399999 -0.0094995592 1.5684117e-38 307 247
-0.016263919 0.773 -0.0094872871 1.6052177e-38 308 247
-0.014908593 0.773 -0.0094872871 1.6236569e-38 309 247
-0.013553266 0.773 -0.0094872871 1.4482665e-38 310 247
-0.012197939 0.773 -0.0094872871 3.234798e-39 311 247
-0.010842613 0.773 -0.0094872871 1.0860063e-42 312 247
-0.0094872871 0.773 -0.0094872871 2.3128193e-39 313 247
-0.0081319595 0.773 -0.0094872871 3.2308127e-39 314 247
-0.0067766332 0.773 -0.0094872871 3.1386171e-39 315 247
-0.0054213065 0.773 -0.0094872871 1.573462e-39 316 247
-0.0040659797 0.773 -0.0094872871 5.0572862e-42 317 247
-0.0027141599 0.77399999 -0.0094995592 3.6964992e-39 318 247
-0.0013553266 0.773 -0.0094872871 9.9658007e-39 319 247
0 0.773 -0.0094872871 1.6878692e-38 320 247
0.0013553266 0.773 -0.0094872871 1.6510268e-38 321 247
0.0027106532 0.773 -0.0094872871 1.4673561e-38 322 247
0.0040659797 0.773 -0.0094872871 1.4673561e-38 323 247
0.0054213065 0.773 -0.0094872871 1.4949069e-38 324 247
0.0067766332 0.773 -0.0094872871 1.4672842e-38 325 247
0.0081319595 0.773 -0.0094872871 1.5314609e-38 326 247
0.0094995592 0.77399999 -0.0094995592 1.4946186e-38 327 247
0.01085664 0.77399999 -0.0094995592 1.4578479e-38 328 247
0.01224528 0.77600002 -0.009524107 1.4301533e-38 329 247
0.013640933 0.778 -0.0095486529 1.292075e-38 330 247
0.015005025 0.778 -0.0095486529 1.2459771e-38 331 247
0.016411198 0.77999997 -0.0095731998 1.4483031e-38 332 247
0.017778799 0.77999997 -0.0095731998 1.51284e-38 333 247
0.0191464 0.77999997 -0.0095731998 1.4299353e-38 334 247
-0.035876706 0.787 -0.011038986 1.7430404e-38 294 248
-0.034409165 0.78500003 -0.011010934 1.7061622e-38 295 248
-0.033032801 0.78500003 -0.011010934 1.6879046e-38 296 248
-0.031575777 0.78299999 -0.010982879 1.6602461e-38 297 248
-0.03020292 0.78299999 -0.010982879 1.6234767e-38 298 248
-0.028756421 0.78100002 -0.010954826 1.6327322e-38 299 248
-0.027351998 0.77999997 -0.010940799 1.6145092e-38 300 248
-0.025917772 0.778 -0.010912746 1.6422038e-38 301 248
-0.02442744 0.77399999 -0.01085664 1.6604997e-38 302 248
-0.02307036 0.77399999 -0.01085664 1.6144019e-38 303 248
-0.021713279 0.77399999 -0.01085664 1.4949799e-38 304 248
-0.020356199 0.77399999 -0.01085664 1.4857603e-38 305 248
-0.018999118 0.77399999 -0.01085664 1.5591571e-38 306 248
-0.01764204 0.77399999 -0.01085664 1.5591571e-38 307 248
-0.016263919 0.773 -0.010842613 1.5776316e-38 308 248
-0.014908593 0.773 -0.010842613 1.5960707e-38 309 248
-0.013553266 0.773 -0.010842613 1.4670281e-38 310 248
-0.012197939 0.773 -0.010842613 3.6990005e-39 311 248
-0.010842613 0.773 -0.010842613 0 312 248
-0.0094872871 0.773 -0.010842613 7.4153352e-40 313 248
-0.0081319595 0.773 -0.010842613 1.0481713e-41 314 248
-0.0067766332 0.773 -0.010842613 1.0841846e-41 315 248
-0.0054213065 0.773 -0.010842613 4.3776564e-42 316 248
-0.0040659797 0.773 -0.010842613 5.6051939e-44 317 248
-0.0027141599 0.77399999 -0.01085664 9.0384732e-39 318 248
-0.0013553266 0.773 -0.010842613 1.4846798e-38 319 248
0 0.773 -0.010842613 1.6235489e-38 320 248
0.0013553266 0.773 -0.010842613 1.5406088e-38 321 248
0.0027106532 0.773 -0.010842613 1.4581012e-38 322 248
0.0040659797 0.773 -0.010842613 1.4765403e-38 323 248
0.0054213065 0.773 -0.010842613 1.4949072e-38 324 248
0.0067766332 0.773 -0.010842613 1.4856517e-38 325 248
0.0081319595 0.773 -0.010842613 1.4763237e-38 326 248
0.0094995592 0.77399999 -0.01085664 1.4763237e-38 327 248
0.010884693 0.77600002 -0.010884693 1.4027823e-38 328 248
0.01224528 0.77600002 -0.010884693 1.3105508e-38 329 248
0.013640933 0.778 -0.010912746 1.2735281e-38 330 248
0.015005025 0.778 -0.010912746 1.3104062e-38 331 248
0.016411198 0.77999997 -0.010940799 1.4023857e-38 332 248
0.017778799 0.77999997 -0.010940799 1.3931662e-38 333 248
0.019170946 0.78100002 -0.010954826 1.3563595e-38 334 248
-0.035785533 0.78500003 -0.0123873 1.6969794e-38 294 249
-0.034409165 0.78500003 -0.0123873 1.6785763e-38 295 249
-0.032948639 0.78299999 -0.012355739 1.6327319e-38 296 249
-0.031575777 0.78299999 -0.012355739 1.6235123e-38 297 249
-0.03020292 0.78299999 -0.012355739 1.5867429e-38 298 249
-0.028756421 0.78100002 -0.01232418 1.5959625e-38 299 249
-0.027351998 0.77999997 -0.012308398 1.5868511e-38 300 249
-0.025917772 0.778 -0.012276839 1.6144739e-38 301 249
-0.024490559 0.77600002 -0.01224528 1.5685565e-38 302 249
-0.02307036 0.77399999 -0.01221372 1.5501173e-38 303 249
-0.021713279 0.77399999 -0.01221372 1.476542e-38 304 249
-0.020356199 0.77399999 -0.01221372 1.4673225e-38 305 249
-0.018999118 0.77399999 -0.01221372 1.4582471e-38 306 249
-0.01764204 0.77399999 -0.01221372 1.4582471e-38 307 249
-0.016284959 0.77399999 -0.01221372 1.476542e-38 308 249
-0.014927879 0.77399999 -0.01221372 1.4857616e-38 309 249
-0.013553266 0.773 -0.012197939 1.366082e-38 310 249
-0.012197939 0.773 -0.012197939 6.7457877e-39 311 249
-0.010842613 0.773 -0.012197939 2.9618012e-39 312 249
-0.0094872871 0.773 -0.012197939 3.7915619e-39 313 249
-0.0081424797 0.77399999 -0.01221372 3.1473121e-39 314 249
-0.0067853997 0.77399999 -0.01221372 2.5941384e-39 315 249
-0.0054283198 0.77399999 -0.01221372 2.8889169e-40 316 249
-0.0040712398 0.77399999 -0.01221372 2.8889169e-40 317 249
-0.0027141599 0.77399999 -0.01221372 1.2080574e-38 318 249
-0.0013553266 0.773 -0.012197939 1.6505965e-38 319 249
0 0.773 -0.012197939 1.5223861e-38 320 249
0.0013553266 0.773 -0.012197939 1.4762884e-38 321 249
0.0027106532 0.773 -0.012197939 1.4488461e-38 322 249
0.0040659797 0.773 -0.012197939 1.4672852e-38 323 249
0.0054213065 0.773 -0.012197939 1.4765757e-38 324 249
0.0067766332 0.773 -0.012197939 1.4673561e-38 325 249
0.0081319595 0.773 -0.012197939 1.5131296e-38 326 249
0.0094995592 0.77399999 -0.01221372 1.4485927e-38 327 249
0.010884693 0.77600002 -0.01224528 1.3014747e-38 328 249
0.01224528 0.77600002 -0.01224528 1.2184626e-38 329 249
0.013675999 0.77999997 -0.012308398 1.3010426e-38 330 249
0.0150436 0.77999997 -0.012308398 1.3563598e-38 331 249
0.016411198 0.77999997 -0.012308398 1.3747991e-38 332 249
0.017778799 0.77999997 -0.012308398 1.3747991e-38 333 249
0.0191464 0.77999997 -0.012308398 1.3287011e-38 334 249
-0.035785533 0.78500003 -0.013763667 1.6602814e-38 294 250
-0.034409165 0.78500003 -0.013763667 1.6510618e-38 295 250
-0.032948639 0.78299999 -0.013728599 1.5959978e-38 296 250
-0.031575777 0.78299999 -0.013728599 1.5867783e-38 297 250
-0.03020292 0.78299999 -0.013728599 1.5408609e-38 298 250
-0.028756421 0.78100002 -0.013693534 1.5316055e-38 299 250
-0.027351998 0.77999997 -0.013675999 1.54079e-38 300 250
-0.025917772 0.778 -0.013640933 1.54079e-38 301 250
-0.024490559 0.77600002 -0.013605867 1.4672869e-38 302 250
-0.02307036 0.77399999 -0.013570799 1.4672869e-38 303 250
-0.021713279 0.77399999 -0.013570799 1.4306247e-38 304 250
-0.020356199 0.77399999 -0.013570799 1.4583188e-38 305 250
-0.018999118 0.77399999 -0.013570799 1.4768653e-38 306 250
-0.01764204 0.77399999 -0.013570799 1.4676459e-38 307 250
-0.016284959 0.77399999 -0.013570799 1.5227113e-38 308 250
-0.014927879 0.77399999 -0.013570799 1.4766142e-38 309 250
-0.013570799 0.77399999 -0.013570799 1.2467369e-38 310 250
-0.01221372 0.77399999 -0.013570799 1.0162118e-38 311 250
-0.01085664 0.77399999 -0.013570799 1.1170865e-38 312 250
-0.0094995592 0.77399999 -0.013570799 1.1540008e-38 313 250
-0.0081424797 0.77399999 -0.013570799 1.1262345e-38 314 250
-0.0067853997 0.77399999 -0.013570799 1.0432226e-38 315 250
-0.0054283198 0.77399999 -0.013570799 6.8412624e-39 316 250
-0.0040712398 0.77399999 -0.013570799 5.8274692e-39 317 250
-0.0027141599 0.77399999 -0.013570799 1.2554506e-38 318 250
-0.0013570799 0.77399999 -0.013570799 1.4767203e-38 319 250
0 0.773 -0.013553266 1.4304432e-38 320 250
0.0013553266 0.773 -0.013553266 1.4304432e-38 321 250
0.0027106532 0.773 -0.013553266 1.4488107e-38 322 250
0.0040659797 0.773 -0.013553266 1.4580303e-38 323 250
0.0054213065 0.773 -0.013553266 1.4672133e-38 324 250
0.0067766332 0.773 -0.013553266 1.4856523e-38 325 250
0.0081319595 0.773 -0.013553266 1.4304777e-38 326 250
0.0094995592 0.77399999 -0.013570799 1.273745e-38 327 250
0.010884693 0.77600002 -0.013605867 1.2275746e-38 328 250
0.012276839 0.778 -0.013640933 1.2367942e-38 329 250
0.013675999 0.77999997 -0.013675999 1.3378854e-38 330 250
0.0150436 0.77999997 -0.013675999 1.3563245e-38 331 250
0.016411198 0.77999997 -0.013675999 1.3747993e-38 332 250
0.017778799 0.77999997 -0.013675999 1.3932025e-38 333 250
0.0191464 0.77999997 -0.013675999 1.2182463e-38 334 250
-0.035876706 0.787 -0.015178605 1.6510618e-38 294 251
-0.034409165 0.78500003 -0.015140033 1.6602814e-38 295 251
-0.033032801 0.78500003 -0.015140033 1.5500802e-38 296 251
-0.031575777 0.78299999 -0.01510146 1.5316411e-38 297 251
-0.030125774 0.78100002 -0.015062887 1.5041269e-38 298 251
-0.028756421 0.78100002 -0.015062887 1.3934921e-38 299 251
-0.027351998 0.77999997 -0.0150436 1.375234e-38 300 251
-0.025984399 0.77999997 -0.0150436 1.4029287e-38 301 251
-0.024490559 0.77600002 -0.014966453 1.3753436e-38 302 251
-0.023129974 0.77600002 -0.014966453 1.3753436e-38 303 251
-0.021769386 0.77600002 -0.014966453 1.3755593e-38 304 251
-0.020356199 0.77399999 -0.014927879 1.4308758e-38 305 251
-0.018999118 0.77399999 -0.014927879 1.6057579e-38 306 251
-0.01764204 0.77399999 -0.014927879 1.5688802e-38 307 251
-0.016284959 0.77399999 -0.014927879 1.5506566e-38 308 251
-0.014927879 0.77399999 -0.014927879 1.5045594e-38 309 251
-0.013570799 0.77399999 -0.014927879 1.3300003e-38 310 251
-0.01221372 0.77399999 -0.014927879 1.3207808e-38 311 251
-0.01085664 0.77399999 -0.014927879 1.4309117e-38 312 251
-0.0094995592 0.77399999 -0.014927879 1.3848146e-38 313 251
-0.0081424797 0.77399999 -0.014927879 1.4215488e-38 314 251
-0.0067853997 0.77399999 -0.014927879 1.4215488e-38 315 251
-0.0054283198 0.77399999 -0.014927879 1.3476845e-38 316 251
-0.0040712398 0.77399999 -0.014927879 1.1909879e-38 317 251
