# .PCD v.7 - Point Cloud Data file format
FIELDS x y z rgb imX imY
SIZE 4 4 4 4 4 4
TYPE F F F F F F
COUNT 1 1 1 1 1 1
WIDTH 851
HEIGHT 1
VIEWPOINT 0 0 0 1 0 0 0
POINTS 851
DATA ascii
-0.032064959 0.76200002 0.062793881 1.8394789e-38 296 193
-0.030728921 0.76200002 0.062793881 1.9132354e-38 297 193
-0.029354304 0.76099998 0.06271147 1.9319985e-38 298 193
-0.028020019 0.76099998 0.06271147 1.9873159e-38 299 193
-0.026685731 0.76099998 0.06271147 1.9781341e-38 300 193
-0.025284819 0.759 0.062546656 1.9965374e-38 301 193
-0.023954039 0.759 0.062546656 1.978099e-38 302 193
-0.02262326 0.759 0.062546656 1.9965021e-38 303 193
-0.021180267 0.755 0.062217031 1.9506201e-38 304 193
-0.0198565 0.755 0.062217031 1.9321449e-38 305 193
-0.018532733 0.755 0.062217031 1.9504752e-38 306 193
-0.017095 0.75 0.061804999 1.9412556e-38 307 193
-0.01578 0.75 0.061804999 1.9779894e-38 308 193
-0.014503572 0.75199997 0.061969809 1.987209e-38 309 193
-0.013185065 0.75199997 0.061969809 1.9598367e-38 310 193
-0.038846854 0.764 0.061619148 1.9357858e-38 291 194
-0.037507307 0.764 0.061619148 1.9155089e-38 292 194
-0.036073081 0.76200002 0.061457843 1.6481415e-38 293 194
-0.034737039 0.76200002 0.061457843 1.7662651e-38 294 194
-0.033401001 0.76200002 0.061457843 1.8768999e-38 295 194
-0.032022879 0.76099998 0.061377186 1.9781689e-38 296 194
-0.030607941 0.759 0.061215881 1.9781689e-38 297 194
-0.029277159 0.759 0.061215881 2.0057554e-38 298 194
-0.027946379 0.759 0.061215881 2.0057554e-38 299 194
-0.026615599 0.759 0.061215881 1.9966431e-38 300 194
-0.025218192 0.75700003 0.061054576 1.9966431e-38 301 194
-0.02389092 0.75700003 0.061054576 1.9690563e-38 302 194
-0.022563647 0.75700003 0.061054576 1.9690563e-38 303 194
-0.021152213 0.75400001 0.060812615 1.9690565e-38 304 194
-0.0197776 0.75199997 0.060651302 1.9690565e-38 305 194
-0.018409999 0.75 0.060489997 1.9690568e-38 306 194
-0.017072206 0.74900001 0.060409348 1.9782765e-38 307 194
-0.01575896 0.74900001 0.060409348 1.9782762e-38 308 194
-0.014445714 0.74900001 0.060409348 1.9690565e-38 309 194
-0.013132467 0.74900001 0.060409348 1.9783118e-38 310 194
-0.01181922 0.74900001 0.060409348 1.9875314e-38 311 194
-0.010505973 0.74900001 0.060409348 1.9693084e-38 312 194
-0.0091681797 0.74699998 0.060248036 1.9785279e-38 313 194
-0.0078584393 0.74699998 0.060248036 1.9044477e-38 314 194
-0.0065662335 0.74900001 0.060409348 1.6186413e-38 315 194
-0.040291596 0.76599997 0.060437392 2.0356147e-38 290 195
-0.038948543 0.76599997 0.060437392 1.8696985e-38 291 195
-0.037507307 0.764 0.0602796 1.8041863e-38 292 195
-0.036073081 0.76200002 0.060121801 1.6474538e-38 293 195
-0.034737039 0.76200002 0.060121801 1.8952644e-38 294 195
-0.033401001 0.76200002 0.060121801 1.9137396e-38 295 195
-0.032022879 0.76099998 0.060042895 1.9872796e-38 296 195
-0.030607941 0.759 0.059885096 2.0149023e-38 297 195
-0.029277159 0.759 0.059885096 2.014902e-38 298 195
-0.027946379 0.759 0.059885096 2.0241217e-38 299 195
-0.026545467 0.75700003 0.059727304 2.0058253e-38 300 195
-0.025218192 0.75700003 0.059727304 1.9966058e-38 301 195
-0.02389092 0.75700003 0.059727304 1.9966061e-38 302 195
-0.022504034 0.755 0.059569497 1.9966061e-38 303 195
-0.021096105 0.75199997 0.059332799 1.9965708e-38 304 195
-0.019724999 0.75 0.059175 1.9965708e-38 305 195
-0.018385453 0.74900001 0.059096102 2.0057905e-38 306 195
-0.017026618 0.74699998 0.058938295 2.0057905e-38 307 195
-0.015716879 0.74699998 0.058938295 2.0057905e-38 308 195
-0.014407139 0.74699998 0.058938295 2.0057905e-38 309 195
-0.013097399 0.74699998 0.058938295 1.9966058e-38 310 195
-0.01181922 0.74900001 0.059096102 2.0058253e-38 311 195
-0.010477919 0.74699998 0.058938295 1.9691269e-38 312 195
-0.0091681797 0.74699998 0.058938295 1.9783464e-38 313 195
-0.0078584393 0.74699998 0.058938295 1.9967507e-38 314 195
-0.0065486995 0.74699998 0.058938295 1.9414333e-38 315 195
-0.0052389596 0.74699998 0.058938295 1.6648833e-38 316 195
-0.041634649 0.76599997 0.059094343 1.5472656e-38 289 196
-0.040291596 0.76599997 0.059094343 1.7479689e-38 290 196
-0.038948543 0.76599997 0.059094343 1.7387494e-38 291 196
-0.037507307 0.764 0.058940053 1.8308711e-38 292 196
-0.036073081 0.76200002 0.058785759 1.8954081e-38 293 196
-0.034691449 0.76099998 0.058708608 1.959837e-38 294 196
-0.033269498 0.759 0.058554318 1.9414339e-38 295 196
-0.031938717 0.759 0.058554318 2.0056461e-38 296 196
-0.030527288 0.75700003 0.058400027 2.0240852e-38 297 196
-0.029200014 0.75700003 0.058400027 2.014937e-38 298 196
-0.027872739 0.75700003 0.058400027 2.014937e-38 299 196
-0.026545467 0.75700003 0.058400027 2.0149726e-38 300 196
-0.025151566 0.755 0.058245733 2.0149726e-38 301 196
-0.023827799 0.755 0.058245733 2.014937e-38 302 196
-0.022474226 0.75400001 0.058168583 2.014937e-38 303 196
-0.02104 0.75 0.057859998 2.0149376e-38 304 196
-0.0196987 0.74900001 0.057782855 2.0149376e-38 305 196
-0.018336359 0.74699998 0.057628557 2.0241217e-38 306 196
-0.017026618 0.74699998 0.057628557 2.0241217e-38 307 196
-0.015716879 0.74699998 0.057628557 2.005826e-38 308 196
-0.014407139 0.74699998 0.057628557 2.005826e-38 309 196
-0.013097399 0.74699998 0.057628557 1.9966428e-38 310 196
-0.011787659 0.74699998 0.057628557 2.0058623e-38 311 196
-0.010477919 0.74699998 0.057628557 1.9966781e-38 312 196
-0.0091681797 0.74699998 0.057628557 2.0058977e-38 313 196
-0.0078584393 0.74699998 0.057628557 2.0242652e-38 314 196
-0.0065486995 0.74699998 0.057628557 2.1072052e-38 315 196
-0.0052389596 0.74699998 0.057628557 1.9229589e-38 316 196
-0.0039292197 0.74699998 0.057628557 1.5265177e-38 317 196
-0.044494338 0.76899999 0.057977475 1.4929205e-38 287 197
-0.043146025 0.76899999 0.057977475 1.7857825e-38 288 197
-0.041689005 0.76700002 0.057826683 1.6198304e-38 289 197
-0.040291596 0.76599997 0.057751291 1.7939203e-38 290 197
-0.038846854 0.764 0.057600506 1.840018e-38 291 197
-0.037507307 0.764 0.057600506 1.8769682e-38 292 197
-0.036073081 0.76200002 0.057449725 1.9046629e-38 293 197
-0.034691449 0.76099998 0.057374325 1.950545e-38 294 197
-0.033181835 0.75700003 0.057072755 1.9598004e-38 295 197
-0.031854562 0.75700003 0.057072755 2.0056458e-38 296 197
-0.030446632 0.755 0.056921966 2.024085e-38 297 197
-0.029122867 0.755 0.056921966 1.9966414e-38 298 197
-0.027799098 0.755 0.056921966 1.9966414e-38 299 197
-0.026475333 0.755 0.056921966 1.9966414e-38 300 197
-0.025151566 0.755 0.056921966 1.9966414e-38 301 197
-0.02379624 0.75400001 0.056846574 2.0149373e-38 302 197
-0.022355 0.75 0.056544997 2.0149373e-38 303 197
-0.021011947 0.74900001 0.056469604 2.0240497e-38 304 197
-0.019646099 0.74699998 0.056318816 2.0240497e-38 305 197
-0.018336359 0.74699998 0.056318816 2.0241217e-38 306 197
-0.017003827 0.74599999 0.056243423 2.0241217e-38 307 197
-0.015695838 0.74599999 0.056243423 2.0057905e-38 308 197
-0.014387853 0.74599999 0.056243423 2.01501e-38 309 197
-0.013079867 0.74599999 0.056243423 2.0150819e-38 310 197
-0.011771879 0.74599999 0.056243423 2.0243373e-38 311 197
-0.010463892 0.74599999 0.056243423 2.015297e-38 312 197
-0.0091559067 0.74599999 0.056243423 2.015297e-38 313 197
-0.0078479191 0.74599999 0.056243423 2.006114e-38 314 197
-0.0065399334 0.74599999 0.056243423 2.0338087e-38 315 197
-0.0052319462 0.74599999 0.056243423 1.9417225e-38 316 197
-0.0039239596 0.74599999 0.056243423 1.7573313e-38 317 197
-0.045842651 0.76899999 0.056629159 1.7870429e-38 286 198
-0.044494338 0.76899999 0.056629159 1.2983701e-38 287 198
-0.043033812 0.76700002 0.056481879 1.7479668e-38 288 198
-0.041634649 0.76599997 0.056408234 1.8586017e-38 289 198
-0.040186398 0.764 0.056260962 1.8862251e-38 290 198
-0.038745161 0.76200002 0.056113683 1.9046642e-38 291 198
-0.037360024 0.76099998 0.056040037 1.9230663e-38 292 198
-0.036025736 0.76099998 0.056040037 1.9230663e-38 293 198
-0.034509107 0.75700003 0.055745479 1.9781316e-38 294 198
-0.033094164 0.755 0.055598196 1.9781316e-38 295 198
-0.031770397 0.755 0.055598196 1.9965345e-38 296 198
-0.030446632 0.755 0.055598196 1.9965345e-38 297 198
-0.029084291 0.75400001 0.055524562 1.9690553e-38 298 198
-0.027762281 0.75400001 0.055524562 1.9782748e-38 299 198
-0.026440267 0.75400001 0.055524562 1.9965339e-38 300 198
-0.025118252 0.75400001 0.055524562 2.014937e-38 301 198
-0.023669999 0.75 0.055229999 2.0149373e-38 302 198
-0.022325192 0.74900001 0.055156358 2.024157e-38 303 198
-0.020955838 0.74699998 0.055009075 2.014902e-38 304 198
-0.019646099 0.74699998 0.055009075 2.014902e-38 305 198
-0.018311813 0.74599999 0.054935437 2.0057905e-38 306 198
-0.017003827 0.74599999 0.054935437 2.0057905e-38 307 198
-0.015695838 0.74599999 0.054935437 2.0058626e-38 308 198
-0.014387853 0.74599999 0.054935437 2.0243017e-38 309 198
-0.013079867 0.74599999 0.054935437 2.0152976e-38 310 198
-0.011771879 0.74599999 0.054935437 2.0245173e-38 311 198
-0.01043584 0.74400002 0.054788161 2.0154769e-38 312 198
-0.0091313599 0.74400002 0.054788161 2.052355e-38 313 198
-0.0078268806 0.74400002 0.054788161 2.0247333e-38 314 198
-0.0065399334 0.74599999 0.054935437 1.9878551e-38 315 198
-0.0052319462 0.74599999 0.054935437 1.9233204e-38 316 198
-0.0039134403 0.74400002 0.054788161 1.9048813e-38 317 198
-0.00260896 0.74400002 0.054788161 1.489858e-38 318 198
-0.047190964 0.76899999 0.055280842 1.2997063e-38 285 199
-0.045842651 0.76899999 0.055280842 1.7207784e-38 286 199
-0.04437862 0.76700002 0.055137072 1.7300338e-38 287 199
-0.043033812 0.76700002 0.055137072 1.8311231e-38 288 199
-0.041634649 0.76599997 0.055065181 1.8587459e-38 289 199
-0.040186398 0.764 0.054921411 1.8862248e-38 290 199
-0.038745161 0.76200002 0.054777641 1.8954802e-38 291 199
-0.037360024 0.76099998 0.05470575 1.9230663e-38 292 199
-0.035931058 0.759 0.054561976 1.9230663e-38 293 199
-0.034509107 0.75700003 0.054418206 1.987244e-38 294 199
-0.033094164 0.755 0.054274432 1.987244e-38 295 199
-0.03172832 0.75400001 0.054202545 2.0056108e-38 296 199
-0.030406307 0.75400001 0.054202545 2.0056108e-38 297 199
-0.029084291 0.75400001 0.054202545 1.9873512e-38 298 199
-0.027762281 0.75400001 0.054202545 1.9873512e-38 299 199
-0.026440267 0.75400001 0.054202545 2.0149376e-38 300 199
-0.024984999 0.75 0.053914998 2.0149376e-38 301 199
-0.023669999 0.75 0.053914998 1.9966428e-38 302 199
-0.022325192 0.74900001 0.053843111 1.9966428e-38 303 199
-0.020955838 0.74699998 0.053699337 2.0149023e-38 304 199
-0.019646099 0.74699998 0.053699337 2.024122e-38 305 199
-0.018311813 0.74599999 0.053627454 2.0057554e-38 306 199
-0.017003827 0.74599999 0.053627454 2.0241945e-38 307 199
-0.015695838 0.74599999 0.053627454 2.0059352e-38 308 199
-0.014387853 0.74599999 0.053627454 2.0428135e-38 309 199
-0.013079867 0.74599999 0.053627454 2.0062939e-38 310 199
-0.011740319 0.74400002 0.05348368 2.0247689e-38 311 199
-0.01043584 0.74400002 0.05348368 2.0156937e-38 312 199
-0.0091313599 0.74400002 0.05348368 2.0433523e-38 313 199
-0.0078268806 0.74400002 0.05348368 1.9879648e-38 314 199
-0.0065223998 0.74400002 0.05348368 1.941867e-38 315 199
-0.0052179201 0.74400002 0.05348368 1.9140658e-38 316 199
-0.0039134403 0.74400002 0.05348368 1.9325049e-38 317 199
-0.00260896 0.74400002 0.05348368 1.6380553e-38 318 199
-0.048539277 0.76899999 0.053932533 1.6773101e-38 284 200
-0.047190964 0.76899999 0.053932533 1.197857e-38 285 200
-0.045842651 0.76899999 0.053932533 1.7293499e-38 286 200
-0.04437862 0.76700002 0.053792264 1.8860826e-38 287 200
-0.042977702 0.76599997 0.053722132 1.8586032e-38 288 200
-0.041525945 0.764 0.053581864 1.8678588e-38 289 200
-0.040081199 0.76200002 0.053441599 1.9046279e-38 290 200
-0.038745161 0.76200002 0.053441599 1.923031e-38 291 200
-0.037163652 0.75700003 0.053090934 1.9505452e-38 292 200
-0.035741698 0.755 0.052950665 1.9597648e-38 293 200
-0.034417931 0.755 0.052950665 1.9780244e-38 294 200
-0.033050332 0.75400001 0.052880533 1.987244e-38 295 200
-0.031644158 0.75199997 0.052740261 2.0056108e-38 296 200
-0.030244999 0.75 0.0526 2.0148304e-38 297 200
-0.028929999 0.75 0.0526 1.9964989e-38 298 200
-0.027615 0.75 0.0526 1.9964989e-38 299 200
-0.0263 0.75 0.0526 1.9965708e-38 300 200
-0.024951685 0.74900001 0.052529868 1.9965708e-38 301 200
-0.02363844 0.74900001 0.052529868 2.0149376e-38 302 200
-0.022265578 0.74699998 0.052389596 2.0241573e-38 303 200
-0.020955838 0.74699998 0.052389596 1.996571e-38 304 200
-0.019619798 0.74599999 0.052319467 2.0057907e-38 305 200
-0.018311813 0.74599999 0.052319467 2.0058276e-38 306 200
-0.017003827 0.74599999 0.052319467 2.0242667e-38 307 200
-0.015695838 0.74599999 0.052319467 2.0244466e-38 308 200
-0.014387853 0.74599999 0.052319467 2.0520693e-38 309 200
-0.013079867 0.74599999 0.052319467 2.0339535e-38 310 200
-0.011740319 0.74400002 0.052179199 2.0615763e-38 311 200
-0.01043584 0.74400002 0.052179199 2.0341347e-38 312 200
-0.0091313599 0.74400002 0.052179199 2.0249151e-38 313 200
-0.0078058392 0.74199998 0.05203893 1.9696699e-38 314 200
-0.0065048663 0.74199998 0.05203893 1.9143525e-38 315 200
-0.0052038929 0.74199998 0.05203893 1.8497804e-38 316 200
-0.0038976599 0.741 0.051968798 1.8682554e-38 317 200
-0.0025984398 0.741 0.051968798 1.6295207e-38 318 200
-0.048539277 0.76899999 0.052584216 1.6490758e-38 284 201
-0.047190964 0.76899999 0.052584216 1.3540137e-38 285 201
-0.045842651 0.76899999 0.052584216 1.812398e-38 286 201
-0.04437862 0.76700002 0.052447457 1.8769349e-38 287 201
-0.042865492 0.764 0.052242316 1.8586388e-38 288 201
-0.041417241 0.76200002 0.052105557 1.8586388e-38 289 201
-0.040028598 0.76099998 0.052037176 1.9320708e-38 290 201
-0.038592618 0.759 0.051900417 1.9412904e-38 291 201
-0.037065465 0.755 0.051626898 1.9505455e-38 292 201
-0.035741698 0.755 0.051626898 1.9597651e-38 293 201
-0.034372345 0.75400001 0.051558517 1.978096e-38 294 201
-0.032874998 0.75 0.051284999 1.978096e-38 295 201
-0.03156 0.75 0.051284999 1.9965345e-38 296 201
-0.030244999 0.75 0.051284999 1.987279e-38 297 201
-0.028929999 0.75 0.051284999 1.9965345e-38 298 201
-0.027578179 0.74900001 0.051216617 1.9965345e-38 299 201
-0.026264934 0.74900001 0.051216617 2.014902e-38 300 201
-0.024951685 0.74900001 0.051216617 2.014902e-38 301 201
-0.02363844 0.74900001 0.051216617 2.0057907e-38 302 201
-0.022265578 0.74699998 0.051079858 2.0057907e-38 303 201
-0.020955838 0.74699998 0.051079858 1.9965357e-38 304 201
-0.019619798 0.74599999 0.051011477 2.0057554e-38 305 201
-0.018311813 0.74599999 0.051011477 2.0057926e-38 306 201
-0.016958239 0.74400002 0.050874721 2.0887686e-38 307 201
-0.015653761 0.74400002 0.050874721 2.0431744e-38 308 201
-0.01434928 0.74400002 0.050874721 2.0616494e-38 309 201
-0.0130448 0.74400002 0.050874721 2.0342419e-38 310 201
-0.011740319 0.74400002 0.050874721 2.0434614e-38 311 201
-0.010407786 0.74199998 0.050737958 2.0250226e-38 312 201
-0.009106813 0.74199998 0.050737958 1.9697052e-38 313 201
-0.0078058392 0.74199998 0.050737958 1.8225516e-38 314 201
-0.0065048663 0.74199998 0.050737958 1.7395756e-38 315 201
-0.0052038929 0.74199998 0.050737958 1.6932276e-38 316 201
-0.0038976599 0.741 0.050669577 1.6656048e-38 317 201
-0.0025984398 0.741 0.050669577 1.4274468e-38 318 201
-0.048223678 0.764 0.050902773 1.7036739e-38 284 202
-0.046884131 0.764 0.050902773 1.4270868e-38 285 202
-0.045544583 0.764 0.050902773 1.8216528e-38 286 202
-0.04420504 0.764 0.050902773 1.858567e-38 287 202
-0.042753279 0.76200002 0.050769519 1.8586386e-38 288 202
-0.041362885 0.76099998 0.050702889 1.8678583e-38 289 202
-0.0399234 0.759 0.050569639 1.9229591e-38 290 202
-0.038490929 0.75700003 0.050436385 1.9321787e-38 291 202
-0.037065465 0.755 0.050303131 1.9414336e-38 292 202
-0.035694357 0.75400001 0.050236505 1.9414336e-38 293 202
-0.034372345 0.75400001 0.050236505 1.978096e-38 294 202
-0.032874998 0.75 0.049969997 1.978096e-38 295 202
-0.031517919 0.74900001 0.04990337 2.0056461e-38 296 202
-0.030204674 0.74900001 0.04990337 2.0148657e-38 297 202
-0.028891427 0.74900001 0.04990337 2.0149373e-38 298 202
-0.027578179 0.74900001 0.04990337 2.0149373e-38 299 202
-0.026194798 0.74699998 0.049770117 2.0057905e-38 300 202
-0.024885058 0.74699998 0.049770117 2.0057905e-38 301 202
-0.023575317 0.74699998 0.049770117 2.01501e-38 302 202
-0.022235774 0.74599999 0.04970349 2.0242655e-38 303 202
-0.020927785 0.74599999 0.04970349 2.0059352e-38 304 202
-0.019619798 0.74599999 0.04970349 2.0335938e-38 305 202
-0.018311813 0.74599999 0.04970349 1.9969327e-38 306 202
-0.016958239 0.74400002 0.04957024 2.0153718e-38 307 202
-0.015653761 0.74400002 0.04957024 1.8868733e-38 308 202
-0.01434928 0.74400002 0.04957024 1.8315561e-38 309 202
-0.0130448 0.74400002 0.04957024 1.6845099e-38 310 202
-0.011740319 0.74400002 0.04957024 1.5831307e-38 311 202
-0.010407786 0.74199998 0.049436983 1.3989559e-38 312 202
-0.009106813 0.74199998 0.049436983 1.2329678e-38 313 202
-0.0078058392 0.74199998 0.049436983 9.1129144e-39 314 202
-0.0064960998 0.741 0.049370356 8.467545e-39 315 202
-0.0051968796 0.741 0.049370356 7.9143908e-39 316 202
-0.00388714 0.73900002 0.049237106 7.8221938e-39 317 202
-0.0025914267 0.73900002 0.049237106 7.5524816e-39 318 202
-0.048223678 0.764 0.049563225 1.7036021e-38 284 203
-0.046884131 0.764 0.049563225 1.4362348e-38 285 203
-0.045544583 0.764 0.049563225 1.8217963e-38 286 203
-0.044089317 0.76200002 0.049433477 1.8401994e-38 287 203
-0.042753279 0.76200002 0.049433477 1.8770054e-38 288 203
-0.041362885 0.76099998 0.049368605 1.8770054e-38 289 203
-0.039818201 0.75700003 0.049109112 1.9412904e-38 290 203
-0.038389232 0.755 0.048979364 1.9505099e-38 291 203
-0.037016369 0.75400001 0.048914492 1.9597648e-38 292 203
-0.035694357 0.75400001 0.048914492 1.9597648e-38 293 203
-0.034189999 0.75 0.048655 1.9873512e-38 294 203
-0.032831166 0.74900001 0.048590127 1.9873512e-38 295 203
-0.031517919 0.74900001 0.048590127 1.9965345e-38 296 203
-0.030124018 0.74699998 0.048460379 2.0149376e-38 297 203
-0.028814279 0.74699998 0.048460379 1.9966063e-38 298 203
-0.027504537 0.74699998 0.048460379 1.9966063e-38 299 203
-0.026194798 0.74699998 0.048460379 1.9966061e-38 300 203
-0.024885058 0.74699998 0.048460379 2.0058258e-38 301 203
-0.023575317 0.74699998 0.048460379 1.9967507e-38 302 203
-0.022235774 0.74599999 0.048395503 1.9967507e-38 303 203
-0.020927785 0.74599999 0.048395503 1.941902e-38 304 203
-0.019567199 0.74400002 0.048265759 1.941902e-38 305 203
-0.01826272 0.74400002 0.048265759 1.7948575e-38 306 203
-0.016912652 0.74199998 0.048136011 1.6934424e-38 307 203
-0.015611678 0.74199998 0.048136011 1.5278866e-38 308 203
-0.014310705 0.74199998 0.048136011 1.4080323e-38 309 203
-0.013009733 0.74199998 0.048136011 1.205452e-38 310 203
-0.01169298 0.741 0.048071139 9.9340206e-39 311 203
-0.010393759 0.741 0.048071139 6.6161018e-39 312 203
-0.0090945391 0.741 0.048071139 4.8672813e-39 313 203
-0.0077953199 0.741 0.048071139 2.3877229e-39 314 203
-0.0064785667 0.73900002 0.047941394 2.6632294e-39 315 203
-0.0051828534 0.73900002 0.047941394 2.8469004e-39 316 203
-0.0038818798 0.73799998 0.047876518 3.2142438e-39 317 203
-0.0025879198 0.73799998 0.047876518 5.1514464e-39 318 203
-0.048097439 0.76200002 0.048097439 1.6481047e-38 284 204
-0.046761397 0.76200002 0.048097439 1.472897e-38 285 204
-0.045425359 0.76200002 0.048097439 1.8125765e-38 286 204
-0.044089317 0.76200002 0.048097439 1.821796e-38 287 204
-0.042697169 0.76099998 0.048034318 1.8586017e-38 288 204
-0.041254178 0.759 0.047908079 1.8586017e-38 289 204
-0.039818201 0.75700003 0.04778184 1.9320705e-38 290 204
-0.038389232 0.755 0.047655597 1.9412901e-38 291 204
-0.037016369 0.75400001 0.04759248 1.9505452e-38 292 204
-0.035694357 0.75400001 0.04759248 1.9597648e-38 293 204
-0.034189999 0.75 0.047339998 1.9781316e-38 294 204
-0.032831166 0.74900001 0.047276881 1.9873512e-38 295 204
-0.031517919 0.74900001 0.047276881 1.9873509e-38 296 204
-0.030124018 0.74699998 0.047150634 2.0150456e-38 297 204
-0.028814279 0.74699998 0.047150634 2.0150819e-38 298 204
-0.027504537 0.74699998 0.047150634 2.0427765e-38 299 204
-0.026194798 0.74699998 0.047150634 2.0152976e-38 300 204
-0.024885058 0.74699998 0.047150634 1.9968226e-38 301 204
-0.023543758 0.74599999 0.047087517 1.8953351e-38 302 204
-0.022235774 0.74599999 0.047087517 1.7201635e-38 303 204
-0.02087168 0.74400002 0.046961278 1.4900709e-38 304 204
-0.019567199 0.74400002 0.046961278 1.2780569e-38 305 204
-0.018213626 0.74199998 0.046835039 8.9188177e-39 306 204
-0.016912652 0.74199998 0.046835039 7.9965041e-39 307 204
-0.01559064 0.741 0.046771921 5.5230652e-39 308 204
-0.01429142 0.741 0.046771921 5.3386725e-39 309 204
-0.0129922 0.741 0.046771921 5.5226952e-39 310 204
-0.01169298 0.741 0.046771921 5.338304e-39 311 204
-0.010365707 0.73900002 0.046645679 5.2425182e-39 312 204
-0.0090699932 0.73900002 0.046645679 6.533257e-39 313 204
-0.0077742799 0.73900002 0.046645679 9.7486106e-39 314 204
-0.0064697997 0.73799998 0.046582557 1.0670927e-38 315 204
-0.0051758396 0.73799998 0.046582557 1.1862277e-38 316 204
-0.0038713599 0.736 0.046456318 1.2139223e-38 317 204
-0.0025809065 0.736 0.046456318 1.2697782e-38 318 204
-0.0012904532 0.736 0.046456318 1.2697782e-38 319 204
0 0.736 0.046456318 8.0923361e-39 320 204
-0.048097439 0.76200002 0.046761397 1.6384888e-38 284 205
-0.046761397 0.76200002 0.046761397 1.5554767e-38 285 205
-0.045425359 0.76200002 0.046761397 1.7850976e-38 286 205
-0.044089317 0.76200002 0.046761397 1.7943171e-38 287 205
-0.042697169 0.76099998 0.046700031 1.8493468e-38 288 205
-0.041254178 0.759 0.046577301 1.8586023e-38 289 205
-0.039712999 0.755 0.04633183 1.913704e-38 290 205
-0.038389232 0.755 0.04633183 1.9229594e-38 291 205
-0.037016369 0.75400001 0.046270464 1.9321787e-38 292 205
-0.035505001 0.75 0.046024997 1.9413983e-38 293 205
-0.034144413 0.74900001 0.045963634 1.9598367e-38 294 205
-0.032743499 0.74699998 0.045840897 1.9690563e-38 295 205
-0.031433757 0.74699998 0.045840897 1.9782762e-38 296 205
-0.030124018 0.74699998 0.045840897 2.0059708e-38 297 205
-0.028775707 0.74599999 0.045779534 1.9601614e-38 298 205
-0.027467718 0.74599999 0.045779534 1.9693809e-38 299 205
-0.026159734 0.74599999 0.045779534 1.8316983e-38 300 205
-0.024851745 0.74599999 0.045779534 1.711844e-38 301 205
-0.023543758 0.74599999 0.045779534 1.5274883e-38 302 205
-0.022235774 0.74599999 0.045779534 1.3154384e-38 303 205
-0.02087168 0.74400002 0.0456568 9.6531373e-39 304 205
-0.019567199 0.74400002 0.0456568 6.3366492e-39 305 205
-0.018213626 0.74199998 0.045534063 4.8672883e-39 306 205
-0.016912652 0.74199998 0.045534063 5.0509607e-39 307 205
-0.01559064 0.741 0.045472696 6.4328358e-39 308 205
-0.01429142 0.741 0.045472696 7.4469891e-39 309 205
-0.012957133 0.73900002 0.045349967 9.8397427e-39 310 205
-0.01166142 0.73900002 0.045349967 1.0945731e-38 311 205
-0.010365707 0.73900002 0.045349967 1.2326854e-38 312 205
-0.0090331733 0.736 0.045165867 1.3525397e-38 313 205
-0.0077427197 0.736 0.045165867 1.5088754e-38 314 205
-0.0064522666 0.736 0.045165867 1.6010711e-38 315 205
-0.005161813 0.736 0.045165867 1.6654263e-38 316 205
-0.0038713599 0.736 0.045165867 1.7299632e-38 317 205
-0.0025809065 0.736 0.045165867 1.7119554e-38 318 205
-0.0012904532 0.736 0.045165867 1.6935523e-38 319 205
0 0.736 0.045165867 9.651027e-39 320 205
0.0012904532 0.736 0.045165867 6.0611427e-39 321 205
-0.049757849 0.76700002 0.045723427 1.5109649e-38 283 206
-0.048413042 0.76700002 0.045723427 1.6656061e-38 284 206
-0.046761397 0.76200002 0.045425359 1.6748258e-38 285 206
-0.045425359 0.76200002 0.045425359 1.8216881e-38 286 206
-0.044031456 0.76099998 0.045365743 1.8216881e-38 287 206
-0.042584959 0.759 0.045246519 1.8676783e-38 288 206
-0.041036766 0.755 0.045008067 1.8768979e-38 289 206
-0.039660402 0.75400001 0.044948451 1.9320711e-38 290 206
-0.038338386 0.75400001 0.044948451 1.9320711e-38 291 206
-0.036918186 0.75199997 0.044829223 1.9504734e-38 292 206
-0.035505001 0.75 0.044709999 1.9596929e-38 293 206
-0.034144413 0.74900001 0.044650383 1.96902e-38 294 206
-0.032743499 0.74699998 0.044531155 2.0243373e-38 295 206
-0.031433757 0.74699998 0.044531155 2.0522847e-38 296 206
-0.03008369 0.74599999 0.044471547 2.006187e-38 297 206
-0.028775707 0.74599999 0.044471547 1.794389e-38 298 206
-0.027467718 0.74599999 0.044471547 1.5177663e-38 299 206
-0.026159734 0.74599999 0.044471547 1.121255e-38 300 206
-0.024718491 0.74199998 0.044233091 7.8060172e-39 301 206
-0.023417519 0.74199998 0.044233091 9.1835496e-41 302 206
-0.022116546 0.74199998 0.044233091 0 303 206
-0.020815572 0.74199998 0.044233091 0 304 206
-0.019409399 0.73799998 0.043994635 1.1027546e-39 305 206
-0.018066347 0.736 0.043875411 7.9151573e-39 306 206
-0.016821479 0.73799998 0.043994635 1.0957253e-38 307 206
-0.015527519 0.73799998 0.043994635 1.4361639e-38 308 206
-0.014233559 0.73799998 0.043994635 1.5928965e-38 309 206
-0.012957133 0.73900002 0.044054255 1.8503234e-38 310 206
-0.011645639 0.73799998 0.043994635 1.8964211e-38 311 206
-0.010295574 0.73400003 0.043756187 2.0157346e-38 312 206
-0.0090086265 0.73400003 0.043756187 1.9972955e-38 313 206
-0.0077427197 0.736 0.043875411 1.9788195e-38 314 206
-0.006434733 0.73400003 0.043756187 1.9603444e-38 315 206
-0.0051477868 0.73400003 0.043756187 1.9786381e-38 316 206
-0.0038608401 0.73400003 0.043756187 1.9693826e-38 317 206
-0.0025809065 0.736 0.043875411 1.9603434e-38 318 206
-0.0012904532 0.736 0.043875411 1.9971858e-38 319 206
0 0.736 0.043875411 1.0292806e-38 320 206
0.0012904532 0.736 0.043875411 5.6019653e-39 321 206
0.0025809065 0.736 0.043875411 3.0345651e-39 322 206
0.0091559067 0.74599999 0.044471547 7.0064923e-45 327 206
0.010463892 0.74599999 0.044471547 0 328 206
0.011771879 0.74599999 0.044471547 1.8367099e-40 329 206
-0.051235907 0.76899999 0.044494338 1.6483921e-38 282 207
-0.049757849 0.76700002 0.04437862 1.4916235e-38 283 207
-0.048413042 0.76700002 0.04437862 1.6746446e-38 284 207
-0.047068235 0.76700002 0.04437862 1.7299619e-38 285 207
-0.045365743 0.76099998 0.044031456 1.7850272e-38 286 207
-0.044031456 0.76099998 0.044031456 1.7850272e-38 287 207
-0.042360533 0.755 0.043684296 1.8493837e-38 288 207
-0.040982414 0.75400001 0.043626439 1.8586032e-38 289 207
-0.039555199 0.75199997 0.04351072 1.895373e-38 290 207
-0.038236689 0.75199997 0.04351072 1.895373e-38 291 207
-0.036672719 0.74699998 0.043221418 1.9412906e-38 292 207
-0.035362978 0.74699998 0.043221418 1.9689493e-38 293 207
-0.034144413 0.74900001 0.04333714 1.9416504e-38 294 207
-0.032699663 0.74599999 0.04316356 1.9324308e-38 295 207
-0.031307522 0.74400002 0.043047838 1.7395739e-38 296 207
-0.030003037 0.74400002 0.043047838 1.5459631e-38 297 207
-0.028775707 0.74599999 0.04316356 1.2055592e-38 298 207
-0.027467718 0.74599999 0.04316356 9.1978989e-39 299 207
-0.026019465 0.74199998 0.042932119 4.5932097e-39 300 207
-0.024685178 0.741 0.042874258 4.5932097e-39 301 207
-0.023385961 0.741 0.042874258 5.3282651e-39 302 207
-0.022027127 0.73900002 0.042758539 6.3424184e-39 303 207
-0.020703359 0.73799998 0.042700678 1.0935324e-38 304 207
-0.019409399 0.73799998 0.042700678 1.3148378e-38 305 207
-0.018066347 0.736 0.042584959 1.5453615e-38 306 207
-0.016775893 0.736 0.042584959 1.7204973e-38 307 207
-0.015485439 0.736 0.042584959 1.8407071e-38 308 207
-0.014233559 0.73799998 0.042700678 1.9329388e-38 309 207
-0.012904533 0.736 0.042584959 2.0249517e-38 310 207
-0.01161408 0.736 0.042584959 1.997329e-38 311 207
-0.010295574 0.73400003 0.042469237 2.0524649e-38 312 207
-0.0090086265 0.73400003 0.042469237 2.0339899e-38 313 207
-0.0077427197 0.736 0.042584959 2.0061846e-38 314 207
-0.006434733 0.73400003 0.042469237 1.9693065e-38 315 207
-0.0051477868 0.73400003 0.042469237 1.9968186e-38 316 207
-0.0038608401 0.73400003 0.042469237 1.9784155e-38 317 207
-0.0025738934 0.73400003 0.042469237 1.9511217e-38 318 207
-0.0012869467 0.73400003 0.042469237 2.0894152e-38 319 207
0 0.736 0.042584959 1.0846702e-38 320 207
0.0012869467 0.73400003 0.042469237 5.2346233e-39 321 207
0.0025738934 0.73400003 0.042469237 2.4817416e-39 322 207
0.0091559067 0.74599999 0.04316356 9.3672444e-39 327 207
0.01043584 0.74400002 0.043047838 7.6223504e-39 328 207
0.011740319 0.74400002 0.043047838 7.2550042e-39 329 207
0.0130448 0.74400002 0.043047838 4.9591308e-39 330 207
0.014387853 0.74599999 0.04316356 5.1428046e-39 331 207
0.015653761 0.74400002 0.043047838 3.7699623e-39 332 207
0.016958239 0.74400002 0.043047838 3.6777667e-39 333 207
-0.051102653 0.76700002 0.043033812 1.5921389e-38 282 208
-0.049757849 0.76700002 0.043033812 1.6105422e-38 283 208
-0.048223678 0.764 0.042865492 1.7390733e-38 284 208
-0.046761397 0.76200002 0.042753279 1.7390733e-38 285 208
-0.045365743 0.76099998 0.042697169 1.7940667e-38 286 208
-0.044031456 0.76099998 0.042697169 1.7940667e-38 287 208
-0.042360533 0.755 0.042360533 1.8401275e-38 288 208
-0.040982414 0.75400001 0.042304426 1.8493471e-38 289 208
-0.039555199 0.75199997 0.04219221 1.8861528e-38 290 208
-0.038084153 0.74900001 0.042023893 1.8954084e-38 291 208
-0.036672719 0.74699998 0.041911677 1.913991e-38 292 208
-0.035362978 0.74699998 0.041911677 1.9509052e-38 293 208
-0.034053236 0.74699998 0.041911677 1.785349e-38 294 208
-0.032612 0.74400002 0.04174336 1.5825186e-38 295 208
-0.031223357 0.74199998 0.041631144 1.1217222e-38 296 208
-0.029922385 0.74199998 0.041631144 7.9904056e-39 297 208
-0.028621411 0.74199998 0.041631144 2.0203809e-39 298 208
-0.027209979 0.73900002 0.041462827 1.6530389e-39 299 208
-0.025914267 0.73900002 0.041462827 2.2959014e-39 300 208
-0.024618553 0.73900002 0.041462827 5.7979004e-39 301 208
-0.023322839 0.73900002 0.041462827 1.2146438e-38 302 208
-0.021997318 0.73799998 0.041406717 1.4820113e-38 303 208
-0.020703359 0.73799998 0.041406717 1.7581629e-38 304 208
-0.019356798 0.736 0.041294504 1.8595783e-38 305 208
-0.018017253 0.73400003 0.041182294 2.0247378e-38 306 208
-0.016730307 0.73400003 0.041182294 2.0247378e-38 307 208
-0.015485439 0.736 0.041294504 2.0615062e-38 308 208
-0.014194986 0.736 0.041294504 2.0431031e-38 309 208
-0.012904533 0.736 0.041294504 2.0431732e-38 310 208
-0.01161408 0.736 0.041294504 2.0339535e-38 311 208
-0.010295574 0.73400003 0.041182294 2.0247336e-38 312 208
-0.0090086265 0.73400003 0.041182294 2.0155141e-38 313 208
-0.0077427197 0.736 0.041294504 1.9969677e-38 314 208
-0.006434733 0.73400003 0.041182294 1.987748e-38 315 208
-0.0051477868 0.73400003 0.041182294 1.9691661e-38 316 208
-0.0038608401 0.73400003 0.041182294 1.9599466e-38 317 208
-0.0025738934 0.73400003 0.041182294 1.9510885e-38 318 208
-0.0012869467 0.73400003 0.041182294 2.0986015e-38 319 208
0 0.73400003 0.041182294 1.1770085e-38 320 208
0.0012869467 0.73400003 0.041182294 4.6836103e-39 321 208
0.0025738934 0.73400003 0.041182294 9.1835496e-40 322 208
0.0077953199 0.741 0.041575037 1.7485823e-38 326 208
0.0091313599 0.74400002 0.04174336 1.4904345e-38 327 208
0.01043584 0.74400002 0.04174336 1.4441925e-38 328 208
0.01170876 0.74199998 0.041631144 1.305899e-38 329 208
0.013009733 0.74199998 0.041631144 1.0294569e-38 330 208
0.014387853 0.74599999 0.04185557 8.2662709e-39 331 208
0.015653761 0.74400002 0.04174336 4.5031903e-39 332 208
0.016958239 0.74400002 0.04174336 4.5957447e-39 333 208
0.01826272 0.74400002 0.04174336 6.4972745e-40 334 208
-0.052584216 0.76899999 0.041797712 1.3727798e-38 281 209
-0.051102653 0.76700002 0.041689005 1.628837e-38 282 209
-0.049757849 0.76700002 0.041689005 1.6472762e-38 283 209
-0.048223678 0.764 0.041525945 1.7299619e-38 284 209
-0.046761397 0.76200002 0.041417241 1.7207065e-38 285 209
-0.045365743 0.76099998 0.041362885 1.7482563e-38 286 209
-0.043800019 0.75700003 0.041145474 1.7482563e-38 287 209
-0.042360533 0.755 0.041036766 1.8217607e-38 288 209
-0.040982414 0.75400001 0.040982414 1.8494193e-38 289 209
-0.039555199 0.75199997 0.040873703 1.8771856e-38 290 209
-0.038084153 0.74900001 0.040710647 1.8956247e-38 291 209
-0.036672719 0.74699998 0.040601939 1.775913e-38 292 209
-0.03531564 0.74599999 0.040547583 1.6468392e-38 293 209
-0.033916477 0.74400002 0.040438879 1.0946027e-38 294 209
-0.032524332 0.74199998 0.040330172 8.9177289e-39 295 209
-0.031223357 0.74199998 0.040330172 3.8613984e-39 296 209
-0.029922385 0.74199998 0.040330172 4.5989635e-39 297 209
-0.028582839 0.741 0.04027582 7.5434811e-39 298 209
-0.027283618 0.741 0.04027582 9.2948393e-39 299 209
-0.025914267 0.73900002 0.040167112 1.3520728e-38 300 209
-0.024585238 0.73799998 0.040112756 1.582562e-38 301 209
-0.023291279 0.73799998 0.040112756 1.7758832e-38 302 209
-0.021997318 0.73799998 0.040112756 1.8496397e-38 303 209
-0.020647252 0.736 0.040004052 1.9325405e-38 304 209
-0.019356798 0.736 0.040004052 1.9601633e-38 305 209
-0.018017253 0.73400003 0.039895348 1.9877127e-38 306 209
-0.016730307 0.73400003 0.039895348 1.9969324e-38 307 209
-0.015485439 0.736 0.040004052 2.0245185e-38 308 209
-0.014194986 0.736 0.040004052 2.0337381e-38 309 209
-0.012869466 0.73400003 0.039895348 2.0339532e-38 310 209
-0.011582521 0.73400003 0.039895348 2.0431729e-38 311 209
-0.010295574 0.73400003 0.039895348 2.0339535e-38 312 209
-0.0090086265 0.73400003 0.039895348 2.0339535e-38 313 209
-0.0077216802 0.73400003 0.039895348 2.0154071e-38 314 209
-0.006434733 0.73400003 0.039895348 1.9969321e-38 315 209
-0.0051477868 0.73400003 0.039895348 1.9876055e-38 316 209
-0.0038608401 0.73400003 0.039895348 1.9599468e-38 317 209
-0.0025738934 0.73400003 0.039895348 1.9326138e-38 318 209
-0.0012869467 0.73400003 0.039895348 2.1262246e-38 319 209
0 0.73400003 0.039895348 1.4084333e-38 320 209
0.0012869467 0.73400003 0.039895348 5.6023352e-39 321 209
0.0025738934 0.73400003 0.039895348 1.8367099e-40 322 209
0.0038608401 0.73400003 0.039895348 3.8657298e-39 323 209
0.0051477868 0.73400003 0.039895348 1.2052766e-38 324 209
0.0077953199 0.741 0.04027582 1.8040054e-38 326 209
0.0090945391 0.741 0.04027582 1.6841513e-38 327 209
0.010393759 0.741 0.04027582 1.7207054e-38 328 209
0.01169298 0.741 0.04027582 1.646913e-38 329 209
0.0129922 0.741 0.04027582 1.5639372e-38 330 209
0.01429142 0.741 0.04027582 1.4163883e-38 331 209
0.015611678 0.74199998 0.040330172 1.0198799e-38 332 209
0.016889861 0.741 0.04027582 7.2550042e-39 333 209
0.018189078 0.741 0.04027582 2.7648179e-39 334 209
-0.053932533 0.76899999 0.0404494 1.3999689e-38 280 210
-0.052447457 0.76700002 0.040344197 1.3999689e-38 281 210
-0.051102653 0.76700002 0.040344197 1.6473101e-38 282 210
-0.04969297 0.76599997 0.040291596 1.6657134e-38 283 210
-0.048223678 0.764 0.040186398 1.7024106e-38 284 210
-0.046700031 0.76099998 0.040028598 1.6931909e-38 285 210
-0.045127295 0.75700003 0.039818201 1.7390366e-38 286 210
-0.043800019 0.75700003 0.039818201 1.7390366e-38 287 210
-0.042360533 0.755 0.039712999 1.8033216e-38 288 210
-0.040982414 0.75400001 0.039660402 1.8401997e-38 289 210
-0.0393974 0.74900001 0.0393974 1.8130437e-38 290 210
-0.03798246 0.74699998 0.039292198 1.7669098e-38 291 210
-0.036623627 0.74599999 0.039239597 1.4811388e-38 292 210
-0.035220962 0.74400002 0.039134398 1.0939186e-38 293 210
-0.033825304 0.74199998 0.0390292 4.7754458e-39 294 210
-0.032524332 0.74199998 0.0390292 3.5815844e-39 295 210
-0.03118128 0.741 0.038976599 4.4088479e-39 296 210
-0.029882059 0.741 0.038976599 8.0044789e-39 297 210
-0.028582839 0.741 0.038976599 1.3251345e-38 298 210
-0.027209979 0.73900002 0.0388714 1.5925019e-38 299 210
-0.025879199 0.73799998 0.038818799 1.8686535e-38 300 210
-0.024585238 0.73799998 0.038818799 1.8870928e-38 301 210
-0.023291279 0.73799998 0.038818799 2.0244832e-38 302 210
-0.021937706 0.736 0.038713597 1.9784213e-38 303 210
-0.020647252 0.736 0.038713597 1.996751e-38 304 210
-0.019304199 0.73400003 0.038608398 1.9875314e-38 305 210
-0.018017253 0.73400003 0.038608398 1.9875329e-38 306 210
-0.016730307 0.73400003 0.038608398 2.0151916e-38 307 210
-0.01544336 0.73400003 0.038608398 2.0061167e-38 308 210
-0.014194986 0.736 0.038713597 2.0429948e-38 309 210
-0.012869466 0.73400003 0.038608398 2.0156234e-38 310 210
-0.011582521 0.73400003 0.038608398 2.0432819e-38 311 210
-0.010295574 0.73400003 0.038608398 2.0248785e-38 312 210
-0.0090086265 0.73400003 0.038608398 2.015659e-38 313 210
-0.0077216802 0.73400003 0.038608398 2.0337749e-38 314 210
-0.006434733 0.73400003 0.038608398 2.0061523e-38 315 210
-0.0051477868 0.73400003 0.038608398 1.9875702e-38 316 210
-0.0038608401 0.73400003 0.038608398 1.9599115e-38 317 210
-0.0025738934 0.73400003 0.038608398 1.9049206e-38 318 210
-0.0012851933 0.73299998 0.038555797 2.1353738e-38 319 210
0 0.73299998 0.038555797 1.5289022e-38 320 210
0.0012869467 0.73400003 0.038608398 8.4669046e-39 321 210
0.0025738934 0.73400003 0.038608398 0 322 210
0.0038608401 0.73400003 0.038608398 3.4072908e-39 323 210
0.0051477868 0.73400003 0.038608398 1.2695618e-38 324 210
0.006434733 0.73400003 0.038608398 1.5922465e-38 325 210
0.0077742799 0.73900002 0.0388714 1.8037898e-38 326 210
0.0090699932 0.73900002 0.0388714 1.7208137e-38 327 210
0.010365707 0.73900002 0.0388714 1.7943184e-38 328 210
0.01166142 0.73900002 0.0388714 1.803538e-38 329 210
0.012957133 0.73900002 0.0388714 1.7945004e-38 330 210
0.014252847 0.73900002 0.0388714 1.7023049e-38 331 210
0.01559064 0.741 0.038976599 1.1668203e-38 332 210
0.016889861 0.741 0.038976599 6.6121557e-39 333 210
0.018189078 0.741 0.038976599 4.0505345e-39 334 210
0.019488299 0.741 0.038976599 4.7880995e-39 335 210
-0.055568393 0.773 0.039304473 1.7335319e-38 279 211
-0.053932533 0.76899999 0.039101087 1.4457427e-38 280 211
-0.052447457 0.76700002 0.038999394 1.4273036e-38 281 211
-0.051102653 0.76700002 0.038999394 1.6473822e-38 282 211
-0.04969297 0.76599997 0.038948543 1.6473822e-38 283 211
-0.048223678 0.764 0.038846854 1.6931556e-38 284 211
-0.046577301 0.759 0.038592618 1.683936e-38 285 211
-0.045008067 0.755 0.038389232 1.7389291e-38 286 211
-0.043684296 0.755 0.038389232 1.7573681e-38 287 211
-0.042360533 0.755 0.038389232 1.7942465e-38 288 211
-0.040710647 0.74900001 0.038084153 1.8403443e-38 289 211
-0.039292198 0.74699998 0.03798246 1.6467332e-38 290 211
-0.03793161 0.74599999 0.03793161 1.2410723e-38 291 211
-0.036623627 0.74599999 0.03793161 4.7801093e-39 292 211
-0.035220962 0.74400002 0.037829921 2.9387359e-39 293 211
-0.033825304 0.74199998 0.037728224 5.4226089e-39 294 211
-0.032524332 0.74199998 0.037728224 8.4650647e-39 295 211
-0.03118128 0.741 0.037677377 1.4081089e-38 296 211
-0.029882059 0.741 0.037677377 1.6293784e-38 297 211
-0.028582839 0.741 0.037677377 1.9052088e-38 298 211
-0.027173158 0.73799998 0.037524838 1.9236838e-38 299 211
-0.025879199 0.73799998 0.037524838 1.9878945e-38 300 211
-0.024518613 0.736 0.037423145 1.9417968e-38 301 211
-0.023228159 0.736 0.037423145 1.9967156e-38 302 211
-0.021878093 0.73400003 0.037321456 1.9782765e-38 303 211
-0.020591147 0.73400003 0.037321456 1.9966075e-38 304 211
-0.019304199 0.73400003 0.037321456 2.005827e-38 305 211
-0.018017253 0.73400003 0.037321456 2.0149765e-38 306 211
-0.016730307 0.73400003 0.037321456 2.0426711e-38 307 211
-0.01544336 0.73400003 0.037321456 2.0244482e-38 308 211
-0.014156413 0.73400003 0.037321456 2.0521427e-38 309 211
-0.012869466 0.73400003 0.037321456 2.0432466e-38 310 211
-0.011582521 0.73400003 0.037321456 2.0524662e-38 311 211
-0.010295574 0.73400003 0.037321456 2.0432466e-38 312 211
-0.0090086265 0.73400003 0.037321456 2.0248435e-38 313 211
-0.0077216802 0.73400003 0.037321456 2.01548e-38 314 211
-0.006434733 0.73400003 0.037321456 1.9786378e-38 315 211
-0.0051477868 0.73400003 0.037321456 1.9692027e-38 316 211
-0.0038608401 0.73400003 0.037321456 1.9231409e-38 317 211
-0.0025703865 0.73299998 0.037270606 1.849603e-38 318 211
-0.0012851933 0.73299998 0.037270606 1.9786769e-38 319 211
0 0.73299998 0.037270606 1.1874913e-38 320 211
0.0012869467 0.73400003 0.037321456 6.8041532e-39 321 211
0.0025738934 0.73400003 0.037321456 0 322 211
0.0038608401 0.73400003 0.037321456 2.5825735e-39 323 211
0.0051477868 0.73400003 0.037321456 1.3339186e-38 324 211
0.006434733 0.73400003 0.037321456 1.6105055e-38 325 211
0.0077742799 0.73900002 0.037575684 1.7852067e-38 326 211
0.0090699932 0.73900002 0.037575684 1.7206698e-38 327 211
0.010365707 0.73900002 0.037575684 1.7665878e-38 328 211
0.01166142 0.73900002 0.037575684 1.7665878e-38 329 211
0.012957133 0.73900002 0.037575684 1.7391828e-38 330 211
0.014252847 0.73900002 0.037575684 1.7207436e-38 331 211
0.01559064 0.741 0.037677377 1.0475055e-38 332 211
0.016889861 0.741 0.037677377 5.1427878e-39 333 211
0.018189078 0.741 0.037677377 5.8861598e-39 334 211
0.019488299 0.741 0.037677377 9.0211714e-39 335 211
0.020815572 0.74199998 0.037728224 1.4909428e-38 336 211
0.022176161 0.74400002 0.037829921 1.3894915e-38 337 211
0.023480639 0.74400002 0.037829921 1.2414734e-38 338 211
0.024851745 0.74599999 0.03793161 1.0570822e-38 339 211
0.026194798 0.74699998 0.03798246 5.9747261e-39 340 211
0.027504537 0.74699998 0.03798246 4.7761843e-39 341 211
-0.056923717 0.773 0.037949149 1.9731685e-38 278 212
-0.055568393 0.773 0.037949149 1.7518631e-38 279 212
-0.053932533 0.76899999 0.03775277 1.4456355e-38 280 212
-0.052584216 0.76899999 0.03775277 1.436416e-38 281 212
-0.051102653 0.76700002 0.037654586 1.6473113e-38 282 212
-0.049757849 0.76700002 0.037654586 1.6473113e-38 283 212
-0.048349917 0.76599997 0.037605491 1.6839004e-38 284 212
-0.046454567 0.75700003 0.037163652 1.6931559e-38 285 212
-0.045008067 0.755 0.037065465 1.7206698e-38 286 212
-0.043626439 0.75400001 0.037016369 1.7483285e-38 287 212
-0.04219221 0.75199997 0.036918186 1.7667676e-38 288 212
-0.040547583 0.74599999 0.036623627 1.6837915e-38 289 212
-0.039239597 0.74599999 0.036623627 1.2415787e-38 290 212
-0.037829921 0.74400002 0.036525439 7.0713332e-39 291 212
-0.036525439 0.74400002 0.036525439 3.9489263e-39 292 212
-0.03512628 0.74199998 0.036427252 4.6836103e-39 293 212
-0.033825304 0.74199998 0.036427252 1.1955901e-38 294 212
-0.032524332 0.74199998 0.036427252 1.472177e-38 295 212
-0.03118128 0.741 0.036378156 1.8224828e-38 296 212
-0.029882059 0.741 0.036378156 1.923934e-38 297 212
-0.028582839 0.741 0.036378156 2.0341349e-38 298 212
-0.027173158 0.73799998 0.036230877 1.969598e-38 299 212
-0.025809066 0.736 0.036132693 2.006079e-38 300 212
-0.024518613 0.736 0.036132693 1.9876759e-38 301 212
-0.023228159 0.736 0.036132693 2.0059708e-38 302 212
-0.021878093 0.73400003 0.036034506 1.9967154e-38 303 212
-0.020591147 0.73400003 0.036034506 1.9965724e-38 304 212
-0.019304199 0.73400003 0.036034506 2.0150116e-38 305 212
-0.018017253 0.73400003 0.036034506 1.9966103e-38 306 212
-0.016730307 0.73400003 0.036034506 2.0242329e-38 307 212
-0.01544336 0.73400003 0.036034506 2.0061538e-38 308 212
-0.014156413 0.73400003 0.036034506 2.0245929e-38 309 212
-0.012869466 0.73400003 0.036034506 2.0248082e-38 310 212
-0.011582521 0.73400003 0.036034506 2.0524309e-38 311 212
-0.010295574 0.73400003 0.036034506 2.0524299e-38 312 212
-0.0090086265 0.73400003 0.036034506 2.0431744e-38 313 212
-0.0077216802 0.73400003 0.036034506 2.0246633e-38 314 212
-0.0064259665 0.73299998 0.035985414 1.9877492e-38 315 212
-0.005140773 0.73299998 0.035985414 1.9691661e-38 316 212
-0.0038555798 0.73299998 0.035985414 1.9230683e-38 317 212
-0.0025703865 0.73299998 0.035985414 1.840309e-38 318 212
-0.0012851933 0.73299998 0.035985414 1.7296743e-38 319 212
0 0.73299998 0.035985414 8.8187454e-39 320 212
0.0012869467 0.73400003 0.036034506 5.6019653e-39 321 212
0.0025738934 0.73400003 0.036034506 0 322 212
0.0038608401 0.73400003 0.036034506 3.4108656e-39 323 212
0.0051477868 0.73400003 0.036034506 1.4258978e-38 324 212
0.006434733 0.73400003 0.036034506 1.674826e-38 325 212
0.0077427197 0.736 0.036132693 1.7850991e-38 326 212
0.0090331733 0.736 0.036132693 1.7390013e-38 327 212
0.010351679 0.73799998 0.036230877 1.7573678e-38 328 212
0.01166142 0.73900002 0.036279973 1.7573678e-38 329 212
0.012957133 0.73900002 0.036279973 1.720779e-38 330 212
0.014252847 0.73900002 0.036279973 1.6931203e-38 331 212
0.01554856 0.73900002 0.036279973 9.8329225e-39 332 212
0.016889861 0.741 0.036378156 4.5917748e-39 333 212
0.018189078 0.741 0.036378156 5.7028335e-39 334 212
0.019488299 0.741 0.036378156 1.0220419e-38 335 212
0.020815572 0.74199998 0.036427252 1.6847677e-38 336 212
0.022116546 0.74199998 0.036427252 1.6294503e-38 337 212
0.023480639 0.74400002 0.036525439 1.5736995e-38 338 212
0.02478512 0.74400002 0.036525439 1.3800887e-38 339 212
0.026159734 0.74599999 0.036623627 1.2138842e-38 340 212
0.027504537 0.74699998 0.036672719 9.8343098e-39 341 212
0.028891427 0.74900001 0.036770906 5.6977678e-39 342 212
0.030204674 0.74900001 0.036770906 4.2244328e-39 343 212
-0.056923717 0.773 0.036593821 1.9914641e-38 278 213
-0.055568393 0.773 0.036593821 1.7702306e-38 279 213
-0.053932533 0.76899999 0.036404461 1.4271243e-38 280 213
-0.052584216 0.76899999 0.036404461 1.4271243e-38 281 213
-0.051102653 0.76700002 0.036309779 1.6471669e-38 282 213
-0.049757849 0.76700002 0.036309779 1.6563865e-38 283 213
-0.048034318 0.76099998 0.036025736 1.6930477e-38 284 213
-0.046454567 0.75700003 0.03583638 1.6930477e-38 285 213
-0.045008067 0.755 0.035741698 1.7114502e-38 286 213
-0.043626439 0.75400001 0.035694357 1.7206698e-38 287 213
-0.04219221 0.75199997 0.035599679 1.6279354e-38 288 213
-0.040547583 0.74599999 0.03531564 9.8263981e-39 289 213
-0.039134398 0.74400002 0.035220962 1.7448744e-39 290 213
-0.037829921 0.74400002 0.035220962 9.1835496e-40 291 213
-0.036427252 0.74199998 0.03512628 9.1071971e-39 292 213
-0.03512628 0.74199998 0.03512628 1.2979055e-38 293 213
-0.033779722 0.741 0.035078939 1.8408857e-38 294 213
-0.032480497 0.741 0.035078939 1.8869835e-38 295 213
-0.03118128 0.741 0.035078939 1.9878223e-38 296 213
-0.029801406 0.73900002 0.034984261 1.9970419e-38 297 213
-0.028505694 0.73900002 0.034984261 1.9970772e-38 298 213
-0.027173158 0.73799998 0.034936916 1.9878576e-38 299 213
-0.025809066 0.736 0.034842238 1.9970043e-38 300 213
-0.024518613 0.736 0.034842238 1.9877848e-38 301 213
-0.023228159 0.736 0.034842238 2.0060074e-38 302 213
-0.021848286 0.73299998 0.034700219 1.9967878e-38 303 213
-0.020563092 0.73299998 0.034700219 2.0057204e-38 304 213
-0.019277899 0.73299998 0.034700219 2.01494e-38 305 213
-0.017992707 0.73299998 0.034700219 1.9966456e-38 306 213
-0.016707512 0.73299998 0.034700219 2.0334878e-38 307 213
-0.015422319 0.73299998 0.034700219 2.0152286e-38 308 213
-0.014156413 0.73400003 0.03474756 2.0428873e-38 309 213
-0.012869466 0.73400003 0.03474756 2.0615062e-38 310 213
-0.011566739 0.73299998 0.034700219 2.0799453e-38 311 213
-0.010281546 0.73299998 0.034700219 2.0433192e-38 312 213
-0.0089963535 0.73299998 0.034700219 2.0340996e-38 313 213
-0.0077111595 0.73299998 0.034700219 2.0246633e-38 314 213
-0.0064259665 0.73299998 0.034700219 1.9509068e-38 315 213
-0.005140773 0.73299998 0.034700219 1.9508346e-38 316 213
-0.0038555798 0.73299998 0.034700219 1.9231758e-38 317 213
-0.0025703865 0.73299998 0.034700219 1.8310897e-38 318 213
-0.0012851933 0.73299998 0.034700219 1.720455e-38 319 213
0 0.73299998 0.034700219 8.9080655e-39 320 213
0.0012869467 0.73400003 0.03474756 7.2550042e-39 321 213
0.0025738934 0.73400003 0.03474756 1.1956551e-39 322 213
0.0038608401 0.73400003 0.03474756 4.0537168e-39 323 213
0.0051477868 0.73400003 0.03474756 1.5364973e-38 324 213
0.006434733 0.73400003 0.03474756 1.7116688e-38 325 213
0.0077216802 0.73400003 0.03474756 1.7757718e-38 326 213
0.0090331733 0.736 0.034842238 1.7665522e-38 327 213
0.010323626 0.736 0.034842238 1.7482563e-38 328 213
0.01161408 0.736 0.034842238 1.7482563e-38 329 213
0.012904533 0.736 0.034842238 1.693157e-38 330 213
0.014233559 0.73799998 0.034936916 1.6655342e-38 331 213
0.01554856 0.73900002 0.034984261 9.6492543e-39 332 213
0.016844273 0.73900002 0.034984261 4.4999393e-39 333 213
0.018139986 0.73900002 0.034984261 5.7042727e-39 334 213
0.019488299 0.741 0.035078939 9.6686847e-39 335 213
0.020815572 0.74199998 0.03512628 1.6202661e-38 336 213
0.022116546 0.74199998 0.03512628 1.6202661e-38 337 213
0.023480639 0.74400002 0.035220962 1.6842627e-38 338 213
0.02478512 0.74400002 0.035220962 1.7303245e-38 339 213
0.026159734 0.74599999 0.03531564 1.7664115e-38 340 213
