# .PCD v.7 - Point Cloud Data file format
FIELDS x y z rgb imX imY
SIZE 4 4 4 4 4 4
TYPE F F F F F F
COUNT 1 1 1 1 1 1
WIDTH 845
HEIGHT 1
VIEWPOINT 0 0 0 1 0 0 0
POINTS 845
DATA ascii
-0.0048391996 0.69 0.010888199 1.4003286e-38 316 231
-0.0036293997 0.69 0.010888199 1.5294025e-38 317 231
-0.0024231065 0.69099998 0.01090398 1.6221759e-38 318 231
-0.0012115532 0.69099998 0.01090398 1.7328465e-38 319 231
0 0.69099998 0.01090398 1.7423179e-38 320 231
0.0012115532 0.69099998 0.01090398 1.7423179e-38 321 231
0.0024231065 0.69099998 0.01090398 1.7604678e-38 322 231
0.0036346598 0.69099998 0.01090398 1.6313939e-38 323 231
0.0048462129 0.69099998 0.01090398 1.5204685e-38 324 231
0.0060577663 0.69099998 0.01090398 1.2623208e-38 325 231
0.0072903596 0.69300002 0.010935539 1.2426196e-38 326 231
0.0085054198 0.69300002 0.010935539 1.1319849e-38 327 231
0.0097204801 0.69300002 0.010935539 1.2421508e-38 328 231
0.01095132 0.69400001 0.01095132 1.2974681e-38 329 231
0.012168133 0.69400001 0.01095132 1.2792849e-38 330 231
0.013423519 0.69599998 0.010982879 1.4544566e-38 331 231
0.014643839 0.69599998 0.010982879 1.584757e-38 332 231
0.015864158 0.69599998 0.010982879 1.5570985e-38 333 231
0.017084479 0.69599998 0.010982879 1.3534007e-38 334 231
0.018304799 0.69599998 0.010982879 1.1229117e-38 335 231
0.019525118 0.69599998 0.010982879 1.1134401e-38 336 231
0.020775247 0.69700003 0.01099866 1.3808074e-38 337 231
0.02199732 0.69700003 0.01099866 1.4283117e-38 338 231
0.023319334 0.69999999 0.011045999 1.4651898e-38 339 231
0.024546666 0.69999999 0.011045999 1.2898339e-38 340 231
0.02592128 0.704 0.011109119 8.7498954e-39 341 231
0.027155625 0.704 0.011109119 1.2530656e-38 342 231
0.028389972 0.704 0.011109119 1.621848e-38 343 231
0.029708479 0.70599997 0.011140679 1.3274376e-38 344 231
0.030990168 0.70700002 0.011156459 1.1153876e-38 345 231
0.032229774 0.70700002 0.011156459 1.1411712e-38 346 231
0.033516716 0.708 0.01117224 1.1411712e-38 347 231
0.034758076 0.708 0.01117224 1.1963422e-38 348 231
0.036101133 0.70999998 0.011203799 1.1963422e-38 349 231
0.037345998 0.70999998 0.011203799 1.2055266e-38 350 231
0.038590867 0.70999998 0.011203799 1.196307e-38 351 231
0.039835732 0.70999998 0.011203799 1.2146737e-38 352 231
0.041080594 0.70999998 0.011203799 1.2146737e-38 353 231
0.042385083 0.71100003 0.01121958 1.1963439e-38 354 231
0.043631699 0.71100003 0.01121958 1.2055634e-38 355 231
-0.034218054 0.69700003 0.0097765867 1.3166295e-38 292 232
-0.03299598 0.69700003 0.0097765867 1.3074098e-38 293 232
-0.031591557 0.69300002 0.0097204801 1.3441793e-38 294 232
-0.0303765 0.69300002 0.0097204801 1.3349596e-38 295 232
-0.029161438 0.69300002 0.0097204801 1.3899894e-38 296 232
-0.027946379 0.69300002 0.0097204801 1.3992449e-38 297 232
-0.02673132 0.69300002 0.0097204801 1.4083923e-38 298 232
-0.025442619 0.69099998 0.0096924258 1.4360149e-38 299 232
-0.024231065 0.69099998 0.0096924258 1.4360502e-38 300 232
-0.023019511 0.69099998 0.0096924258 1.4268307e-38 301 232
-0.021807959 0.69099998 0.0096924258 1.4636366e-38 302 232
-0.020596405 0.69099998 0.0096924258 1.4728562e-38 303 232
-0.01944096 0.69300002 0.0097204801 1.4820765e-38 304 232
-0.0181733 0.69099998 0.0096924258 1.5005156e-38 305 232
-0.016961746 0.69099998 0.0096924258 1.4456664e-38 306 232
-0.015750192 0.69099998 0.0096924258 1.454922e-38 307 232
-0.014538639 0.69099998 0.0096924258 1.5375746e-38 308 232
-0.0133078 0.69 0.0096783992 1.5560496e-38 309 232
-0.012097999 0.69 0.0096783992 1.5102759e-38 310 232
-0.010856641 0.68800002 0.0096503468 1.4918368e-38 311 232
-0.0096503468 0.68800002 0.0096503468 1.5011289e-38 312 232
-0.0084440531 0.68800002 0.0096503468 1.5471907e-38 313 232
-0.0072377604 0.68800002 0.0096503468 1.5295101e-38 314 232
-0.0060314666 0.68800002 0.0096503468 1.6770231e-38 315 232
-0.0048251734 0.68800002 0.0096503468 1.6318276e-38 316 232
-0.0036188802 0.68800002 0.0096503468 1.7055841e-38 317 232
-0.0024125867 0.68800002 0.0096503468 1.779089e-38 318 232
-0.0012062934 0.68800002 0.0096503468 1.7329551e-38 319 232
0 0.69 0.0096783992 1.6404338e-38 320 232
0.0012097999 0.69 0.0096783992 1.5113599e-38 321 232
0.0024195998 0.69 0.0096783992 1.5196772e-38 322 232
0.0036346598 0.69099998 0.0096924258 1.335286e-38 323 232
0.0048462129 0.69099998 0.0096924258 1.3716585e-38 324 232
0.0060577663 0.69099998 0.0096924258 1.3531833e-38 325 232
0.0072693196 0.69099998 0.0096924258 1.3167742e-38 326 232
0.008480873 0.69099998 0.0096924258 1.5011655e-38 327 232
0.0096924258 0.69099998 0.0096924258 1.3718383e-38 328 232
0.010935539 0.69300002 0.0097204801 1.2150698e-38 329 232
0.012168133 0.69400001 0.0097345067 1.2515889e-38 330 232
0.013384946 0.69400001 0.0097345067 1.3622237e-38 331 232
0.01460176 0.69400001 0.0097345067 1.4005101e-38 332 232
0.015818574 0.69400001 0.0097345067 1.529584e-38 333 232
0.017035386 0.69400001 0.0097345067 1.5385129e-38 334 232
0.018304799 0.69599998 0.0097625591 1.1973891e-38 335 232
0.019525118 0.69599998 0.0097625591 1.1315901e-38 336 232
0.020745439 0.69599998 0.0097625591 1.159249e-38 337 232
0.02199732 0.69700003 0.0097765867 1.1517231e-38 338 232
0.023252707 0.69800001 0.0097906133 1.4744078e-38 339 232
0.024476532 0.69800001 0.0097906133 1.391324e-38 340 232
0.025810819 0.70099998 0.0098326923 1.0409805e-38 341 232
0.027117053 0.70300001 0.0098607466 1.2161895e-38 342 232
0.028349647 0.70300001 0.0098607466 1.5480937e-38 343 232
0.029624319 0.704 0.0098747732 1.2813397e-38 344 232
0.030858666 0.704 0.0098747732 1.0600702e-38 345 232
0.032184184 0.70599997 0.0099028256 1.131988e-38 346 232
0.033422034 0.70599997 0.0099028256 1.131988e-38 347 232
0.034708988 0.70700002 0.0099168532 1.1963066e-38 348 232
0.035948593 0.70700002 0.0099168532 1.187087e-38 349 232
0.0372408 0.708 0.0099308798 1.2146737e-38 350 232
0.038482159 0.708 0.0099308798 1.2054182e-38 351 232
0.039835732 0.70999998 0.0099589331 1.2053819e-38 352 232
0.041080594 0.70999998 0.0099589331 1.2053819e-38 353 232
0.042385083 0.71100003 0.0099729598 1.1870876e-38 354 232
0.043631699 0.71100003 0.0099729598 1.1778321e-38 355 232
0.044878319 0.71100003 0.0099729598 1.1504631e-38 356 232
-0.035389278 0.69599998 0.0085422397 1.3165931e-38 291 233
-0.034168959 0.69599998 0.0085422397 1.3624385e-38 292 233
-0.032853961 0.69400001 0.0085176928 1.3624385e-38 293 233
-0.031591557 0.69300002 0.0085054198 1.3807697e-38 294 233
-0.0303765 0.69300002 0.0085054198 1.3807697e-38 295 233
-0.029077278 0.69099998 0.008480873 1.3991727e-38 296 233
-0.027865725 0.69099998 0.008480873 1.4083923e-38 297 233
-0.026654173 0.69099998 0.008480873 1.4267235e-38 298 233
-0.025405798 0.69 0.0084686 1.435943e-38 299 233
-0.024195999 0.69 0.0084686 1.4359786e-38 300 233
-0.022986198 0.69 0.0084686 1.4451982e-38 301 233
-0.021776399 0.69 0.0084686 1.4636016e-38 302 233
-0.020566599 0.69 0.0084686 1.4636016e-38 303 233
-0.019356798 0.69 0.0084686 1.4360878e-38 304 233
-0.0181733 0.69099998 0.008480873 1.4545269e-38 305 233
-0.0169372 0.69 0.0084686 1.436197e-38 306 233
-0.015727401 0.69 0.0084686 1.4546361e-38 307 233
-0.014475521 0.68800002 0.0084440531 1.4639282e-38 308 233
-0.013269227 0.68800002 0.0084440531 1.4823674e-38 309 233
-0.012062933 0.68800002 0.0084440531 1.4733629e-38 310 233
-0.010856641 0.68800002 0.0084440531 1.4548879e-38 311 233
-0.0096363192 0.68699998 0.0084317802 1.4824039e-38 312 233
-0.0084317802 0.68699998 0.0084317802 1.7497713e-38 313 233
-0.0072272392 0.68699998 0.0084317802 1.6128843e-38 314 233
-0.0060226996 0.68699998 0.0084317802 1.8249344e-38 315 233
-0.0048181596 0.68699998 0.0084317802 1.8252229e-38 316 233
-0.0036136196 0.68699998 0.0084317802 1.8252229e-38 317 233
-0.0024090798 0.68699998 0.0084317802 1.8248604e-38 318 233
-0.0012045399 0.68699998 0.0084317802 1.6865311e-38 319 233
0 0.68800002 0.0084440531 1.5570224e-38 320 233
0.0012062934 0.68800002 0.0084440531 1.3725951e-38 321 233
0.0024125867 0.68800002 0.0084440531 1.3438906e-38 322 233
0.0036188802 0.68800002 0.0084440531 1.2977568e-38 323 233
0.0048251734 0.68800002 0.0084440531 1.3344921e-38 324 233
0.0060314666 0.68800002 0.0084440531 1.3714064e-38 325 233
0.0072587994 0.69 0.0084686 1.3723462e-38 326 233
0.0084686 0.69 0.0084686 1.6950309e-38 327 233
0.0096783992 0.69 0.0084686 1.5202883e-38 328 233
0.01090398 0.69099998 0.008480873 1.1976036e-38 329 233
0.012150601 0.69300002 0.0085054198 1.1961971e-38 330 233
0.01336566 0.69300002 0.0085054198 1.177758e-38 331 233
0.014580719 0.69300002 0.0085054198 1.188027e-38 332 233
0.015795778 0.69300002 0.0085054198 1.483017e-38 333 233
0.017035386 0.69400001 0.0085176928 1.5758969e-38 334 233
0.0182522 0.69400001 0.0085176928 1.4191643e-38 335 233
0.019469013 0.69400001 0.0085176928 1.2243603e-38 336 233
0.020745439 0.69599998 0.0085422397 9.6621253e-39 337 233
0.02199732 0.69700003 0.0085545136 8.9281728e-39 338 233
0.023219392 0.69700003 0.0085545136 1.3906735e-38 339 233
0.024441468 0.69700003 0.0085545136 1.3640988e-38 340 233
0.025773998 0.69999999 0.0085913334 1.1981466e-38 341 233
0.027001332 0.69999999 0.0085913334 1.2989873e-38 342 233
0.028268991 0.70099998 0.0086036054 1.5110732e-38 343 233
0.029582238 0.70300001 0.0086281532 1.2444245e-38 344 233
0.030858666 0.704 0.0086404262 9.9549644e-39 345 233
0.032093015 0.704 0.0086404262 1.0860334e-38 346 233
0.033422034 0.70599997 0.0086649731 1.1321313e-38 347 233
0.034659892 0.70599997 0.0086649731 1.1595362e-38 348 233
0.035948593 0.70700002 0.008677247 1.1595362e-38 349 233
0.037188202 0.70700002 0.008677247 1.1870157e-38 350 233
0.038482159 0.708 0.008689519 1.1870157e-38 351 233
0.039723519 0.708 0.008689519 1.1870154e-38 352 233
0.041080594 0.70999998 0.0087140659 1.2054185e-38 353 233
0.042325463 0.70999998 0.0087140659 1.2054185e-38 354 233
0.043631699 0.71100003 0.0087263398 1.2054185e-38 355 233
0.044878319 0.71100003 0.0087263398 1.1595027e-38 356 233
0.046254687 0.713 0.0087508867 1.1687224e-38 357 233
-0.036609598 0.69599998 0.0073219193 1.3531836e-38 290 234
-0.035287585 0.69400001 0.0073008798 1.3624032e-38 291 234
-0.034070771 0.69400001 0.0073008798 1.3807334e-38 292 234
-0.03280662 0.69300002 0.0072903596 1.389953e-38 293 234
-0.031591557 0.69300002 0.0072903596 1.3899883e-38 294 234
-0.030288832 0.69099998 0.0072693196 1.3899883e-38 295 234
-0.029035198 0.69 0.0072587994 1.417539e-38 296 234
-0.027825398 0.69 0.0072587994 1.4267585e-38 297 234
-0.026615599 0.69 0.0072587994 1.4267222e-38 298 234
-0.025405798 0.69 0.0072587994 1.4451253e-38 299 234
-0.024125867 0.68800002 0.0072377604 1.436014e-38 300 234
-0.022919573 0.68800002 0.0072377604 1.436014e-38 301 234
-0.021713281 0.68800002 0.0072377604 1.4543096e-38 302 234
-0.020506985 0.68800002 0.0072377604 1.4543096e-38 303 234
-0.019356798 0.69 0.0072587994 1.4543101e-38 304 234
-0.018146999 0.69 0.0072587994 1.4727493e-38 305 234
-0.016888106 0.68800002 0.0072377604 1.4452351e-38 306 234
-0.015681813 0.68800002 0.0072377604 1.4636743e-38 307 234
-0.014475521 0.68800002 0.0072377604 1.4637109e-38 308 234
-0.013249939 0.68699998 0.0072272392 1.4821859e-38 309 234
-0.012045399 0.68699998 0.0072272392 1.4823658e-38 310 234
-0.010825079 0.68599999 0.0072167199 1.436232e-38 311 234
-0.0096222926 0.68599999 0.0072167199 1.4917321e-38 312 234
-0.0084195063 0.68599999 0.0072167199 2.063309e-38 313 234
-0.0072167199 0.68599999 0.0072167199 1.8621372e-38 314 234
-0.0060139326 0.68599999 0.0072167199 1.8436981e-38 315 234
-0.0048111463 0.68599999 0.0072167199 1.6960403e-38 316 234
-0.00360836 0.68599999 0.0072167199 1.4747708e-38 317 234
-0.0024055731 0.68599999 0.0072167199 1.5561251e-38 318 234
-0.0012027866 0.68599999 0.0072167199 1.4363067e-38 319 234
0 0.68699998 0.0072272392 1.3718032e-38 320 234
0.0012045399 0.68699998 0.0072272392 1.3625837e-38 321 234
0.0024090798 0.68699998 0.0072272392 1.3900247e-38 322 234
0.0036136196 0.68699998 0.0072272392 1.3900247e-38 323 234
0.0048181596 0.68699998 0.0072272392 1.3808757e-38 324 234
0.0060226996 0.68699998 0.0072272392 1.334778e-38 325 234
0.0072377604 0.68800002 0.0072377604 1.3076999e-38 326 234
0.0084440531 0.68800002 0.0072377604 1.7317637e-38 327 234
0.0096503468 0.68800002 0.0072377604 1.5392707e-38 328 234
0.01090398 0.69099998 0.0072693196 1.4378555e-38 329 234
0.012115533 0.69099998 0.0072693196 1.3258475e-38 330 234
0.013327086 0.69099998 0.0072693196 1.0676997e-38 331 234
0.014538639 0.69099998 0.0072693196 9.9405296e-39 332 234
0.015795778 0.69300002 0.0072903596 1.2706038e-38 333 234
0.01701084 0.69300002 0.0072903596 1.373248e-38 334 234
0.018225901 0.69300002 0.0072903596 1.456224e-38 335 234
0.019469013 0.69400001 0.0073008798 1.4282006e-38 336 234
0.020685827 0.69400001 0.0073008798 9.6722244e-39 337 234
0.021965759 0.69599998 0.0073219193 9.6632337e-39 338 234
0.023186078 0.69599998 0.0073219193 1.3167026e-38 339 234
0.0244064 0.69599998 0.0073219193 1.2631527e-38 340 234
0.025663542 0.69700003 0.00733244 1.3553483e-38 341 234
0.027001332 0.69999999 0.0073639993 1.3369458e-38 342 234
0.028228667 0.69999999 0.0073639993 1.3461654e-38 343 234
0.029498078 0.70099998 0.0073745195 1.2167655e-38 344 234
0.030814834 0.70300001 0.0073955595 9.3095922e-39 345 234
0.032047424 0.70300001 0.0073955595 1.0398634e-38 346 234
0.03332736 0.704 0.0074060797 1.1044003e-38 347 234
0.034659892 0.70599997 0.0074271196 1.1686482e-38 348 234
0.035897743 0.70599997 0.0074271196 1.1778677e-38 349 234
0.037188202 0.70700002 0.0074376399 1.1778321e-38 350 234
0.038427804 0.70700002 0.0074376399 1.1963073e-38 351 234
0.039723519 0.708 0.0074481601 1.1871589e-38 352 234
0.041080594 0.70999998 0.0074691991 1.1871589e-38 353 234
0.042325463 0.70999998 0.0074691991 1.1596081e-38 354 234
0.043631699 0.71100003 0.0074797203 1.1596081e-38 355 234
0.044878319 0.71100003 0.0074797203 1.1502816e-38 356 234
0.046254687 0.713 0.0075007593 1.1318066e-38 357 234
-0.037666857 0.69300002 0.0060753003 1.3073382e-38 289 235
-0.036451802 0.69300002 0.0060753003 1.3806981e-38 290 235
-0.035236739 0.69300002 0.0060753003 1.3806981e-38 291 235
-0.034021679 0.69300002 0.0060753003 1.4082123e-38 292 235
-0.032711938 0.69099998 0.0060577663 1.4082123e-38 293 235
-0.031454802 0.69 0.0060489997 1.4174669e-38 294 235
-0.030244999 0.69 0.0060489997 1.4174669e-38 295 235
-0.028951041 0.68800002 0.0060314666 1.417539e-38 296 235
-0.027744746 0.68800002 0.0060314666 1.417539e-38 297 235
-0.026538454 0.68800002 0.0060314666 1.4267585e-38 298 235
-0.02533216 0.68800002 0.0060314666 1.4267585e-38 299 235
-0.024090799 0.68699998 0.0060226996 1.4084276e-38 300 235
-0.022886258 0.68699998 0.0060226996 1.4084276e-38 301 235
-0.021681719 0.68699998 0.0060226996 1.426831e-38 302 235
-0.020477179 0.68699998 0.0060226996 1.426831e-38 303 235
-0.019300694 0.68800002 0.0060314666 1.4083925e-38 304 235
-0.0180944 0.68800002 0.0060314666 1.4267957e-38 305 235
-0.016888106 0.68800002 0.0060314666 1.417649e-38 306 235
-0.015659019 0.68699998 0.0060226996 1.4360881e-38 307 235
-0.014454478 0.68699998 0.0060226996 1.4361248e-38 308 235
-0.013230653 0.68599999 0.0060139326 1.4545998e-38 309 235
-0.012027865 0.68599999 0.0060139326 1.4548513e-38 310 235
-0.010825079 0.68599999 0.0060139326 1.4271925e-38 311 235
-0.0095942402 0.68400002 0.0059964 1.4457427e-38 312 235
-0.0083949603 0.68400002 0.0059964 1.9344156e-38 313 235
-0.0071956799 0.68400002 0.0059964 1.8254031e-38 314 235
-0.0059964 0.68400002 0.0059964 1.8254031e-38 315 235
-0.0047971201 0.68400002 0.0059964 1.6499052e-38 316 235
-0.00359784 0.68400002 0.0059964 1.3548791e-38 317 235
-0.0023985601 0.68400002 0.0059964 1.4090422e-38 318 235
-0.00119928 0.68400002 0.0059964 1.3813834e-38 319 235
0 0.68400002 0.0059964 1.4363767e-38 320 235
0.0012027866 0.68599999 0.0060139326 1.5009137e-38 321 235
0.0024055731 0.68599999 0.0060139326 1.5197846e-38 322 235
0.00360836 0.68599999 0.0060139326 1.4091497e-38 323 235
0.0048111463 0.68599999 0.0060139326 1.353397e-38 324 235
0.0060139326 0.68599999 0.0060139326 1.2151035e-38 325 235
0.0072167199 0.68599999 0.0060139326 1.2703169e-38 326 235
0.0084317802 0.68699998 0.0060226996 1.5100614e-38 327 235
0.0096363192 0.68699998 0.0060226996 1.437965e-38 328 235
0.010856641 0.68800002 0.0060314666 1.5117216e-38 329 235
0.012097999 0.69 0.0060489997 1.4557867e-38 330 235
0.0133078 0.69 0.0060489997 1.0961879e-38 331 235
0.014517599 0.69 0.0060489997 1.0765596e-38 332 235
0.015750192 0.69099998 0.0060577663 1.0950346e-38 333 235
0.01701084 0.69300002 0.0060753003 1.1516172e-38 334 235
0.018225901 0.69300002 0.0060753003 1.4466432e-38 335 235
0.01944096 0.69300002 0.0060753003 1.4195588e-38 336 235
0.020685827 0.69400001 0.0060840664 1.1982891e-38 337 235
0.021902639 0.69400001 0.0060840664 1.0874027e-38 338 235
0.023119451 0.69400001 0.0060840664 1.3178916e-38 339 235
0.0244064 0.69599998 0.0061015999 1.3000325e-38 340 235
0.025626717 0.69599998 0.0061015999 1.3553499e-38 341 235
0.026924185 0.69800001 0.006119133 1.3185795e-38 342 235
0.028148014 0.69800001 0.006119133 1.2908848e-38 343 235
0.029455997 0.69999999 0.0061366665 1.2076904e-38 344 235
0.030727165 0.70099998 0.0061454331 9.3110355e-39 345 235
0.032047424 0.70300001 0.0061629666 9.8468991e-39 346 235
0.03332736 0.704 0.0061717331 1.086141e-38 347 235
0.034561705 0.704 0.0061717331 1.1503885e-38 348 235
0.035897743 0.70599997 0.0061892662 1.1688277e-38 349 235
0.037135597 0.70599997 0.0061892662 1.1963792e-38 350 235
0.038427804 0.70700002 0.0061980332 1.1871237e-38 351 235
0.039667413 0.70700002 0.0061980332 1.1595012e-38 352 235
0.040964879 0.708 0.0062067998 1.1595012e-38 353 235
0.042325463 0.70999998 0.0062243328 1.1044003e-38 354 235
0.043570329 0.70999998 0.0062243328 1.0859612e-38 355 235
0.044878319 0.71100003 0.0062330998 1.085854e-38 356 235
0.046124939 0.71100003 0.0062330998 1.0581952e-38 357 235
-0.04009698 0.69300002 0.00486024 1.2614925e-38 287 236
-0.03888192 0.69300002 0.00486024 1.2980462e-38 288 236
-0.03755815 0.69099998 0.0048462129 1.3073016e-38 289 236
-0.036346599 0.69099998 0.0048462129 1.3623666e-38 290 236
-0.035135046 0.69099998 0.0048462129 1.3807697e-38 291 236
-0.0338744 0.69 0.0048391996 1.4174675e-38 292 236
-0.032664597 0.69 0.0048391996 1.4082121e-38 293 236
-0.031363625 0.68800002 0.0048251734 1.4174669e-38 294 236
-0.030157333 0.68800002 0.0048251734 1.4174669e-38 295 236
-0.028908957 0.68699998 0.0048181596 1.4174669e-38 296 236
-0.027704418 0.68699998 0.0048181596 1.4267225e-38 297 236
-0.026499879 0.68699998 0.0048181596 1.4175392e-38 298 236
-0.025295338 0.68699998 0.0048181596 1.4175392e-38 299 236
-0.024090799 0.68699998 0.0048181596 1.399208e-38 300 236
-0.022886258 0.68699998 0.0048181596 1.399208e-38 301 236
-0.021681719 0.68699998 0.0048181596 1.4267591e-38 302 236
-0.020477179 0.68699998 0.0048181596 1.4267591e-38 303 236
-0.019272638 0.68699998 0.0048181596 1.3991727e-38 304 236
-0.018068098 0.68699998 0.0048181596 1.4083923e-38 305 236
-0.01686356 0.68699998 0.0048181596 1.4083925e-38 306 236
-0.015636226 0.68599999 0.0048111463 1.4360152e-38 307 236
-0.01439136 0.68400002 0.0047971201 1.4361601e-38 308 236
-0.01319208 0.68400002 0.0047971201 1.4545992e-38 309 236
-0.0119928 0.68400002 0.0047971201 1.4548513e-38 310 236
-0.01077774 0.68300003 0.0047901068 1.4548513e-38 311 236
-0.0095802136 0.68300003 0.0047901068 1.3996807e-38 312 236
-0.0083826864 0.68300003 0.0047901068 1.7315849e-38 313 236
-0.0071851597 0.68300003 0.0047901068 1.6778898e-38 314 236
-0.0059876335 0.68300003 0.0047901068 1.8530974e-38 315 236
-0.0047901068 0.68300003 0.0047901068 1.6685241e-38 316 236
-0.0035925799 0.68300003 0.0047901068 1.2997416e-38 317 236
-0.0023950534 0.68300003 0.0047901068 1.4183336e-38 318 236
-0.00119928 0.68400002 0.0047971201 1.4552479e-38 319 236
0 0.68400002 0.0047971201 1.4827289e-38 320 236
0.00119928 0.68400002 0.0047971201 1.6947788e-38 321 236
0.0023985601 0.68400002 0.0047971201 1.7692923e-38 322 236
0.00359784 0.68400002 0.0047971201 1.5480587e-38 323 236
0.0047971201 0.68400002 0.0047971201 1.4092923e-38 324 236
0.0059964 0.68400002 0.0047971201 1.1695835e-38 325 236
0.0071956799 0.68400002 0.0047971201 1.2517314e-38 326 236
0.0084195063 0.68599999 0.0048111463 1.2148533e-38 327 236
0.0096222926 0.68599999 0.0048111463 1.1888555e-38 328 236
0.010840859 0.68699998 0.0048181596 1.5023206e-38 329 236
0.012062933 0.68800002 0.0048251734 1.529908e-38 330 236
0.013269227 0.68800002 0.0048251734 1.317894e-38 331 236
0.014475521 0.68800002 0.0048251734 1.1504275e-38 332 236
0.015750192 0.69099998 0.0048462129 1.0029144e-38 333 236
0.016961746 0.69099998 0.0048462129 7.9208928e-39 334 236
0.018225901 0.69300002 0.00486024 1.1700912e-38 335 236
0.01944096 0.69300002 0.00486024 1.401339e-38 336 236
0.020656019 0.69300002 0.00486024 1.4197421e-38 337 236
0.021902639 0.69400001 0.0048672534 1.4013758e-38 338 236
0.023119451 0.69400001 0.0048672534 1.4013758e-38 339 236
0.024336265 0.69400001 0.0048672534 1.3646418e-38 340 236
0.025626717 0.69599998 0.0048812795 1.3093244e-38 341 236
0.026885614 0.69700003 0.0048882933 1.2632266e-38 342 236
0.028148014 0.69800001 0.0048953067 1.2263482e-38 343 236
0.029455997 0.69999999 0.0049093333 1.216947e-38 344 236
0.030683333 0.69999999 0.0049093333 1.0602144e-38 345 236
0.031910665 0.69999999 0.0049093333 1.0033464e-38 346 236
0.033280019 0.70300001 0.0049303733 1.0310051e-38 347 236
0.034561705 0.704 0.0049373866 1.1505332e-38 348 236
0.035796054 0.704 0.0049373866 1.1689723e-38 349 236
0.037135597 0.70599997 0.0049514128 1.1688291e-38 350 236
0.038373452 0.70599997 0.0049514128 1.1319867e-38 351 236
0.039667413 0.70700002 0.0049584266 1.1409196e-38 352 236
0.040907022 0.70700002 0.0049584266 1.1317e-38 353 236
0.042206239 0.708 0.0049654399 1.0766346e-38 354 236
0.043570329 0.70999998 0.0049794666 1.0673791e-38 355 236
0.044815198 0.70999998 0.0049794666 1.0489403e-38 356 236
0.046060063 0.70999998 0.0049794666 1.0489403e-38 357 236
-0.041192811 0.69099998 0.0036346598 1.2888266e-38 286 237
-0.039981257 0.69099998 0.0036346598 1.2980462e-38 287 237
-0.038769703 0.69099998 0.0036346598 1.3623669e-38 288 237
-0.037503798 0.69 0.0036293997 1.38077e-38 289 237
-0.036293998 0.69 0.0036293997 1.3991727e-38 290 237
-0.035084199 0.69 0.0036293997 1.389953e-38 291 237
-0.033776212 0.68800002 0.0036188802 1.4083195e-38 292 237
-0.032569919 0.68800002 0.0036188802 1.4083195e-38 293 237
-0.031318039 0.68699998 0.0036136196 1.4083192e-38 294 237
-0.030069664 0.68599999 0.00360836 1.4083192e-38 295 237
-0.02886688 0.68599999 0.00360836 1.4083195e-38 296 237
-0.027664091 0.68599999 0.00360836 1.4083195e-38 297 237
-0.026461305 0.68599999 0.00360836 1.3807331e-38 298 237
-0.025258519 0.68599999 0.00360836 1.3807331e-38 299 237
-0.024055731 0.68599999 0.00360836 1.389953e-38 300 237
-0.022852944 0.68599999 0.00360836 1.389953e-38 301 237
-0.021650158 0.68599999 0.00360836 1.3991727e-38 302 237
-0.020447372 0.68599999 0.00360836 1.3991727e-38 303 237
-0.01918848 0.68400002 0.00359784 1.389953e-38 304 237
-0.0179892 0.68400002 0.00359784 1.4083923e-38 305 237
-0.016789921 0.68400002 0.00359784 1.3992093e-38 306 237
-0.01559064 0.68400002 0.00359784 1.4176484e-38 307 237
-0.014370319 0.68300003 0.0035925799 1.4086092e-38 308 237
-0.013172794 0.68300003 0.0035925799 1.4638907e-38 309 237
-0.011975267 0.68300003 0.0035925799 1.4365917e-38 310 237
-0.01077774 0.68300003 0.0035925799 1.4734698e-38 311 237
-0.0095802136 0.68300003 0.0035925799 1.4365582e-38 312 237
-0.0083826864 0.68300003 0.0035925799 1.5656321e-38 313 237
-0.0071851597 0.68300003 0.0035925799 1.622356e-38 314 237
-0.0059876335 0.68300003 0.0035925799 1.9265657e-38 315 237
-0.0047901068 0.68300003 0.0035925799 1.7239135e-38 316 237
-0.0035925799 0.68300003 0.0035925799 1.3920093e-38 317 237
-0.0023950534 0.68300003 0.0035925799 1.4458837e-38 318 237
-0.0011975267 0.68300003 0.0035925799 1.4458837e-38 319 237
0 0.68300003 0.0035925799 1.4458499e-38 320 237
0.0011975267 0.68300003 0.0035925799 1.6025827e-38 321 237
0.0023950534 0.68300003 0.0035925799 1.6037375e-38 322 237
0.0035925799 0.68300003 0.0035925799 1.631396e-38 323 237
0.0047901068 0.68300003 0.0035925799 1.5572038e-38 324 237
0.0059876335 0.68300003 0.0035925799 1.2252996e-38 325 237
0.0071851597 0.68300003 0.0035925799 1.2611657e-38 326 237
0.0083949603 0.68400002 0.00359784 1.1505668e-38 327 237
0.0096222926 0.68599999 0.00360836 1.1143407e-38 328 237
0.010825079 0.68599999 0.00360836 1.3356104e-38 329 237
0.012045399 0.68699998 0.0036136196 1.4011588e-38 330 237
0.013249939 0.68699998 0.0036136196 1.4011588e-38 331 237
0.014454478 0.68699998 0.0036136196 1.234558e-38 332 237
0.015681813 0.68800002 0.0036188802 1.1147036e-38 333 237
0.0169372 0.69 0.0036293997 1.0139727e-38 334 237
0.0181733 0.69099998 0.0036346598 1.1891085e-38 335 237
0.019384852 0.69099998 0.0036346598 1.373861e-38 336 237
0.020656019 0.69300002 0.0036451798 1.373861e-38 337 237
0.021871079 0.69300002 0.0036451798 1.3462752e-38 338 237
0.02308614 0.69300002 0.0036451798 1.3370555e-38 339 237
0.024336265 0.69400001 0.0036504399 1.3094691e-38 340 237
0.025553079 0.69400001 0.0036504399 1.2817746e-38 341 237
0.026847038 0.69599998 0.0036609597 1.2632268e-38 342 237
0.028067358 0.69599998 0.0036609597 1.2263127e-38 343 237
0.029371841 0.69800001 0.0036714801 1.272337e-38 344 237
0.030595668 0.69800001 0.0036714801 1.1893608e-38 345 237
0.031819493 0.69800001 0.0036714801 1.0775345e-38 346 237
0.033280019 0.70300001 0.0036977797 9.3002147e-39 347 237
0.034561705 0.704 0.0037030398 1.0306794e-38 348 237
0.035796054 0.704 0.0037030398 1.0859609e-38 349 237
0.037030395 0.704 0.0037030398 1.1317366e-38 350 237
0.038373452 0.70599997 0.0037135598 1.122517e-38 351 237
0.039611302 0.70599997 0.0037135598 1.0948939e-38 352 237
0.040907022 0.70700002 0.0037188199 1.0856743e-38 353 237
0.042146627 0.70700002 0.0037188199 1.0398283e-38 354 237
0.043447599 0.708 0.00372408 1.0306088e-38 355 237
0.044688959 0.708 0.00372408 1.0030943e-38 356 237
0.045865446 0.70700002 0.0037188199 9.9387472e-39 357 237
0.047105055 0.70700002 0.0037188199 9.7550818e-39 358 237
-0.042404365 0.69099998 0.0024231065 1.2061755e-38 285 238
-0.041192811 0.69099998 0.0024231065 1.3071931e-38 286 238
-0.039981257 0.69099998 0.0024231065 1.3348877e-38 287 238
-0.038769703 0.69099998 0.0024231065 1.3624738e-38 288 238
-0.037503798 0.69 0.0024195998 1.3716935e-38 289 238
-0.0361888 0.68800002 0.0024125867 1.4267588e-38 290 238
-0.03498251 0.68800002 0.0024125867 1.4175392e-38 291 238
-0.033727121 0.68699998 0.0024090798 1.3992433e-38 292 238
-0.032475237 0.68599999 0.0024055731 1.3899877e-38 293 238
-0.03118128 0.68400002 0.0023985601 1.4083548e-38 294 238
-0.029982001 0.68400002 0.0023985601 1.4083548e-38 295 238
-0.02878272 0.68400002 0.0023985601 1.3899883e-38 296 238
-0.027583439 0.68400002 0.0023985601 1.3807329e-38 297 238
-0.02638416 0.68400002 0.0023985601 1.3990647e-38 298 238
-0.025184879 0.68400002 0.0023985601 1.3990647e-38 299 238
-0.023950534 0.68300003 0.0023950534 1.3623666e-38 300 238
-0.022753006 0.68300003 0.0023950534 1.3807697e-38 301 238
-0.02155548 0.68300003 0.0023950534 1.389953e-38 302 238
-0.020357953 0.68300003 0.0023950534 1.389953e-38 303 238
-0.019160427 0.68300003 0.0023950534 1.390025e-38 304 238
-0.017962901 0.68300003 0.0023950534 1.390025e-38 305 238
-0.016765373 0.68300003 0.0023950534 1.3808783e-38 306 238
-0.015567848 0.68300003 0.0023950534 1.408501e-38 307 238
-0.01434928 0.68199998 0.0023915465 1.3995695e-38 308 238
-0.013153506 0.68199998 0.0023915465 1.4456313e-38 309 238
-0.011957732 0.68199998 0.0023915465 1.4458834e-38 310 238
-0.010761959 0.68199998 0.0023915465 1.4643226e-38 311 238
-0.009566186 0.68199998 0.0023915465 1.4550682e-38 312 238
-0.0083704125 0.68199998 0.0023915465 1.4089706e-38 313 238
-0.00717464 0.68199998 0.0023915465 1.5483827e-38 314 238
-0.005978866 0.68199998 0.0023915465 1.9540436e-38 315 238
-0.004783093 0.68199998 0.0023915465 1.7792675e-38 316 238
-0.00358732 0.68199998 0.0023915465 1.5211556e-38 317 238
-0.0023915465 0.68199998 0.0023915465 1.4736848e-38 318 238
-0.0011975267 0.68300003 0.0023950534 1.3538305e-38 319 238
0 0.68300003 0.0023950534 1.3628702e-38 320 238
0.0011975267 0.68300003 0.0023950534 1.4089679e-38 321 238
0.0023950534 0.68300003 0.0023950534 1.4009776e-38 322 238
0.0035925799 0.68300003 0.0023950534 1.603808e-38 323 238
0.0047901068 0.68300003 0.0023950534 1.6866761e-38 324 238
0.0059876335 0.68300003 0.0023950534 1.3824307e-38 325 238
0.0071851597 0.68300003 0.0023950534 1.3076957e-38 326 238
0.0083949603 0.68400002 0.0023985601 1.1048294e-38 327 238
0.0095942402 0.68400002 0.0023985601 1.077169e-38 328 238
0.010825079 0.68599999 0.0024055731 1.0402909e-38 329 238
0.012027865 0.68599999 0.0024055731 1.3174595e-38 330 238
0.013230653 0.68599999 0.0024055731 1.6033019e-38 331 238
0.01443344 0.68599999 0.0024055731 1.3366584e-38 332 238
0.015659019 0.68699998 0.0024090798 1.2905966e-38 333 238
0.016888106 0.68800002 0.0024125867 1.3093247e-38 334 238
0.0180944 0.68800002 0.0024125867 1.3646062e-38 335 238
0.019356798 0.69 0.0024195998 1.3095407e-38 336 238
0.020566599 0.69 0.0024195998 1.2726985e-38 337 238
0.021776399 0.69 0.0024195998 1.3001774e-38 338 238
0.023019511 0.69099998 0.0024231065 1.3001774e-38 339 238
0.024301201 0.69300002 0.00243012 1.2910297e-38 340 238
0.02551626 0.69300002 0.00243012 1.2818102e-38 341 238
0.026769891 0.69400001 0.0024336267 1.2632985e-38 342 238
0.027986705 0.69400001 0.0024336267 1.2356758e-38 343 238
0.029287677 0.69599998 0.0024406398 1.2908836e-38 344 238
0.030551834 0.69700003 0.0024441467 1.2816281e-38 345 238
0.03177391 0.69700003 0.0024441467 1.1612298e-38 346 238
0.033137999 0.69999999 0.0024546667 8.5694824e-39 347 238
0.034512613 0.70300001 0.0024651866 9.4791788e-39 348 238
0.035745207 0.70300001 0.0024651866 9.0182006e-39 349 238
0.037030395 0.704 0.0024686933 1.0672702e-38 350 238
0.038373452 0.70599997 0.0024757064 1.0949289e-38 351 238
0.039611302 0.70599997 0.0024757064 1.0581949e-38 352 238
0.040849157 0.70599997 0.0024757064 1.0581949e-38 353 238
0.042146627 0.70700002 0.0024792133 1.030716e-38 354 238
0.043386232 0.70700002 0.0024792133 1.030716e-38 355 238
0.044625837 0.70700002 0.0024792133 1.0031299e-38 356 238
0.045865446 0.70700002 0.0024792133 9.9387444e-39 357 238
0.047105055 0.70700002 0.0024792133 9.6628834e-39 358 238
0.048618179 0.71100003 0.0024932399 9.6628834e-39 359 238
0.050005067 0.713 0.0025002533 8.9264156e-39 360 238
-0.043615919 0.69099998 0.0012115532 1.2429809e-38 284 239
-0.042342998 0.69 0.0012097999 1.2522004e-38 285 239
-0.041133199 0.69 0.0012097999 1.3257032e-38 286 239
-0.0399234 0.69 0.0012097999 1.353362e-38 287 239
-0.038601387 0.68800002 0.0012062934 1.3810203e-38 288 239
-0.037395094 0.68800002 0.0012062934 1.3810203e-38 289 239
-0.036136195 0.68699998 0.0012045399 1.4084995e-38 290 239
-0.034931656 0.68699998 0.0012045399 1.3992799e-38 291 239
-0.033727121 0.68699998 0.0012045399 1.4084273e-38 292 239
-0.032380559 0.68400002 0.00119928 1.3992077e-38 293 239
-0.031135695 0.68300003 0.0011975267 1.3992433e-38 294 239
-0.029938167 0.68300003 0.0011975267 1.3807682e-38 295 239
-0.02869856 0.68199998 0.0011957732 1.4083192e-38 296 239
-0.027502786 0.68199998 0.0011957732 1.3990997e-38 297 239
-0.026307013 0.68199998 0.0011957732 1.3807329e-38 298 239
-0.02514806 0.68300003 0.0011975267 1.3715133e-38 299 239
-0.023915464 0.68199998 0.0011957732 1.3807334e-38 300 239
-0.022719691 0.68199998 0.0011957732 1.3807334e-38 301 239
-0.021523919 0.68199998 0.0011957732 1.3899174e-38 302 239
-0.020357953 0.68300003 0.0011975267 1.399173e-38 303 239
-0.019132372 0.68199998 0.0011957732 1.3716585e-38 304 239
-0.017936599 0.68199998 0.0011957732 1.3716585e-38 305 239
-0.016740825 0.68199998 0.0011957732 1.3808783e-38 306 239
-0.015545053 0.68199998 0.0011957732 1.408501e-38 307 239
-0.01434928 0.68199998 0.0011957732 1.4178286e-38 308 239
-0.013153506 0.68199998 0.0011957732 1.4639263e-38 309 239
-0.011957732 0.68199998 0.0011957732 1.4641781e-38 310 239
-0.010761959 0.68199998 0.0011957732 1.4733977e-38 311 239
-0.0095381327 0.68000001 0.0011922666 1.4643228e-38 312 239
-0.0083458666 0.68000001 0.0011922666 1.3628718e-38 313 239
-0.0071535995 0.68000001 0.0011922666 1.4743375e-38 314 239
-0.0059613334 0.68000001 0.0011922666 1.9260961e-38 315 239
-0.0047690663 0.68000001 0.0011922666 1.8620646e-38 316 239
-0.0035767998 0.68000001 0.0011922666 1.705332e-38 317 239
-0.0023845332 0.68000001 0.0011922666 1.4925926e-38 318 239
-0.0011957732 0.68199998 0.0011957732 1.3450796e-38 319 239
0 0.68199998 0.0011957732 1.3628705e-38 320 239
0.0011957732 0.68199998 0.0011957732 1.3351758e-38 321 239
0.0023915465 0.68199998 0.0011957732 1.14265e-38 322 239
0.00358732 0.68199998 0.0011957732 1.4007978e-38 323 239
0.004783093 0.68199998 0.0011957732 1.5025386e-38 324 239
0.005978866 0.68199998 0.0011957732 1.5486723e-38 325 239
0.0071851597 0.68300003 0.0011975267 1.4742614e-38 326 239
0.0083826864 0.68300003 0.0011975267 9.7636914e-39 327 239
0.0095802136 0.68300003 0.0011975267 1.0682038e-38 328 239
0.01077774 0.68300003 0.0011975267 1.1419603e-38 329 239
0.0119928 0.68400002 0.00119928 1.2994549e-38 330 239
0.01319208 0.68400002 0.00119928 1.4930656e-38 331 239
0.01439136 0.68400002 0.00119928 1.3737894e-38 332 239
0.015636226 0.68599999 0.0012027866 1.3368752e-38 333 239
0.01686356 0.68699998 0.0012045399 1.2451118e-38 334 239
0.018068098 0.68699998 0.0012045399 1.2635508e-38 335 239
0.019300694 0.68800002 0.0012062934 1.2817746e-38 336 239
0.020506985 0.68800002 0.0012062934 1.2817746e-38 337 239
0.021713281 0.68800002 0.0012062934 1.2910297e-38 338 239
0.022986198 0.69 0.0012097999 1.3002493e-38 339 239
0.024195999 0.69 0.0012097999 1.2818099e-38 340 239
0.025442619 0.69099998 0.0012115532 1.2818099e-38 341 239
0.02673132 0.69300002 0.00121506 1.2725183e-38 342 239
0.027946379 0.69300002 0.00121506 1.2540792e-38 343 239
0.029203519 0.69400001 0.0012168133 1.2173083e-38 344 239
0.030507999 0.69599998 0.0012203199 1.2080887e-38 345 239
0.031728316 0.69599998 0.0012203199 1.2538606e-38 346 239
0.033043321 0.69800001 0.0012238267 1.1155671e-38 347 239
0.034512613 0.70300001 0.0012325933 1.1239923e-38 348 239
0.035745207 0.70300001 0.0012325933 9.2116176e-39 349 239
0.037030395 0.704 0.0012343467 9.4784781e-39 350 239
0.038264744 0.704 0.0012343467 9.6628694e-39 351 239
0.039611302 0.70599997 0.0012378532 1.0031296e-38 352 239
0.040849157 0.70599997 0.0012378532 1.0307883e-38 353 239
0.042146627 0.70700002 0.0012396066 1.0123492e-38 354 239
0.043386232 0.70700002 0.0012396066 1.0031296e-38 355 239
0.044625837 0.70700002 0.0012396066 1.0031299e-38 356 239
0.045865446 0.70700002 0.0012396066 9.8465488e-39 357 239
0.047105055 0.70700002 0.0012396066 9.5706877e-39 358 239
0.048618179 0.71100003 0.00124662 9.3862951e-39 359 239
0.049864799 0.71100003 0.00124662 9.2015577e-39 360 239
0.051255193 0.713 0.0012501266 9.8469271e-39 361 239
0.052726239 0.71600002 0.0012553866 9.3059951e-39 362 239
0.053981625 0.71600002 0.0012553866 9.3059951e-39 363 239
0.055314157 0.71700001 0.00125714 8.847891e-39 364 239
-0.044827472 0.69099998 -0 1.1144123e-38 283 240
-0.043552797 0.69 -0 1.2611678e-38 284 240
-0.042342998 0.69 -0 1.2888266e-38 285 240
-0.041013971 0.68800002 -0 1.3441776e-38 286 240
-0.039807681 0.68800002 -0 1.3902396e-38 287 240
-0.038545277 0.68699998 -0 1.4178613e-38 288 240
-0.037340738 0.68699998 -0 1.4178613e-38 289 240
-0.036136195 0.68699998 -0 1.4268657e-38 290 240
-0.034880809 0.68599999 -0 1.4084626e-38 291 240
-0.033579841 0.68400002 -0 1.4084629e-38 292 240
-0.032333218 0.68300003 -0 1.3992433e-38 293 240
-0.031135695 0.68300003 -0 1.3992433e-38 294 240
-0.029938167 0.68300003 -0 1.3899877e-38 295 240
-0.02869856 0.68199998 -0 1.3624372e-38 296 240
-0.027502786 0.68199998 -0 1.3531818e-38 297 240
-0.026307013 0.68199998 -0 1.3531824e-38 298 240
-0.025111238 0.68199998 -0 1.3531824e-38 299 240
-0.023915464 0.68199998 -0 1.3532189e-38 300 240
-0.022653066 0.68000001 -0 1.3439994e-38 301 240
-0.0214608 0.68000001 -0 1.38077e-38 302 240
-0.020328145 0.68199998 -0 1.3899897e-38 303 240
-0.019132372 0.68199998 -0 1.3716585e-38 304 240
-0.017936599 0.68199998 -0 1.3716585e-38 305 240
-0.016740825 0.68199998 -0 1.3808783e-38 306 240
-0.015545053 0.68199998 -0 1.408501e-38 307 240
-0.01434928 0.68199998 -0 1.4086456e-38 308 240
-0.013114933 0.68000001 -0 1.4547433e-38 309 240
-0.011922667 0.68000001 -0 1.427409e-38 310 240
-0.0107304 0.68000001 -0 1.4458481e-38 311 240
-0.0095381327 0.68000001 -0 1.4643593e-38 312 240
-0.0083458666 0.68000001 -0 1.3813831e-38 313 240
-0.0071535995 0.68000001 -0 1.409369e-38 314 240
-0.0059525664 0.67900002 -0 1.8703471e-38 315 240
-0.0047620535 0.67900002 -0 1.8161836e-38 316 240
-0.0035715401 0.67900002 -0 1.806964e-38 317 240
-0.0023810267 0.67900002 -0 1.7511036e-38 318 240
-0.0011922666 0.68000001 -0 1.5943712e-38 319 240
0 0.68000001 -0 1.4466022e-38 320 240
0.0011905134 0.67900002 -0 1.2068935e-38 321 240
0.0023810267 0.67900002 -0 1.1514332e-38 322 240
0.0035767998 0.68000001 -0 1.2067506e-38 323 240
0.004783093 0.68199998 -0 1.2353861e-38 324 240
0.005978866 0.68199998 -0 1.4935339e-38 325 240
0.00717464 0.68199998 -0 1.5394149e-38 326 240
0.0083704125 0.68199998 -0 1.2075107e-38 327 240
0.0095802136 0.68300003 -0 1.0601769e-38 328 240
0.01077774 0.68300003 -0 1.2077258e-38 329 240
0.011975267 0.68300003 -0 1.3183643e-38 330 240
0.013172794 0.68300003 -0 1.4013405e-38 331 240
0.01439136 0.68400002 -0 1.3463105e-38 332 240
0.01559064 0.68400002 -0 1.3186158e-38 333 240
0.016839013 0.68599999 -0 1.3002124e-38 334 240
0.018041799 0.68599999 -0 1.3002124e-38 335 240
0.019244585 0.68599999 -0 1.2725906e-38 336 240
0.020477179 0.68699998 -0 1.2818102e-38 337 240
0.021713281 0.68800002 -0 1.2819183e-38 338 240
0.022919573 0.68800002 -0 1.2726629e-38 339 240
0.024195999 0.69 -0 1.281738e-38 340 240
0.025405798 0.69 -0 1.2632987e-38 341 240
0.026654173 0.69099998 -0 1.2630101e-38 342 240
0.027946379 0.69300002 -0 1.1984731e-38 343 240
0.029161438 0.69300002 -0 1.1895054e-38 344 240
0.030420333 0.69400001 -0 1.1710662e-38 345 240
0.031728316 0.69599998 -0 1.1893254e-38 346 240
0.03299598 0.69700003 -0 1.2723017e-38 347 240
0.034512613 0.70300001 -0 1.3089982e-38 348 240
0.035745207 0.70300001 -0 1.143046e-38 349 240
0.037030395 0.704 -0 1.0502001e-38 350 240
0.038264744 0.704 -0 9.0268704e-39 351 240
0.039499093 0.704 -0 9.6653903e-39 352 240
0.040849157 0.70599997 -0 9.5728359e-39 353 240
0.042087011 0.70599997 -0 1.0857457e-38 354 240
0.043324865 0.70599997 -0 1.058123e-38 355 240
0.044625837 0.70700002 -0 9.7554349e-39 356 240
0.045865446 0.70700002 -0 9.6632393e-39 357 240
0.047171678 0.708 -0 9.3873713e-39 358 240
0.048549797 0.70999998 -0 9.2951757e-39 359 240
0.049864799 0.71100003 -0 8.9267659e-39 360 240
0.051255193 0.713 -0 9.2955484e-39 361 240
0.052578956 0.71399999 -0 8.2918488e-39 362 240
0.053830836 0.71399999 -0 8.8450225e-39 363 240
0.055314157 0.71700001 -0 8.2976011e-39 364 240
0.056729097 0.71899998 -0 8.3901554e-39 365 240
-0.0447626 0.69 -0.0012097999 1.1513281e-38 283 241
-0.043426562 0.68800002 -0.0012062934 1.2799704e-38 284 241
-0.042220265 0.68800002 -0.0012062934 1.3260684e-38 285 241
-0.041013971 0.68800002 -0.0012062934 1.3444336e-38 286 241
-0.039749816 0.68699998 -0.0012045399 1.3444336e-38 287 241
-0.038545277 0.68699998 -0.0012045399 1.408536e-38 288 241
-0.037286382 0.68599999 -0.0012027866 1.3901329e-38 289 241
-0.035978399 0.68400002 -0.00119928 1.4177909e-38 290 241
-0.03477912 0.68400002 -0.00119928 1.4085713e-38 291 241
-0.033530746 0.68300003 -0.0011975267 1.4085713e-38 292 241
-0.032285877 0.68199998 -0.0011957732 1.3716932e-38 293 241
-0.031090107 0.68199998 -0.0011957732 1.3900603e-38 294 241
-0.029894331 0.68199998 -0.0011957732 1.3624016e-38 295 241
-0.028614398 0.68000001 -0.0011922666 1.3807331e-38 296 241
-0.027422134 0.68000001 -0.0011922666 1.3715136e-38 297 241
-0.026229866 0.68000001 -0.0011922666 1.3531468e-38 298 241
-0.025037598 0.68000001 -0.0011922666 1.3439272e-38 299 241
-0.023845334 0.68000001 -0.0011922666 1.371478e-38 300 241
-0.022653066 0.68000001 -0.0011922666 1.371478e-38 301 241
-0.0214608 0.68000001 -0.0011922666 1.3623666e-38 302 241
-0.020328145 0.68199998 -0.0011957732 1.3899894e-38 303 241
-0.019076265 0.68000001 -0.0011922666 1.3716582e-38 304 241
-0.017883999 0.68000001 -0.0011922666 1.3901332e-38 305 241
-0.016691733 0.68000001 -0.0011922666 1.3900976e-38 306 241
-0.015499466 0.68000001 -0.0011922666 1.4177203e-38 307 241
-0.014307199 0.68000001 -0.0011922666 1.3903141e-38 308 241
-0.013114933 0.68000001 -0.0011922666 1.4271922e-38 309 241
-0.011922667 0.68000001 -0.0011922666 1.4457037e-38 310 241
-0.0107304 0.68000001 -0.0011922666 1.4549232e-38 311 241
-0.009524107 0.67900002 -0.0011905134 1.455103e-38 312 241
-0.0083335936 0.67900002 -0.0011905134 1.4274443e-38 313 241
-0.0071430802 0.67900002 -0.0011905134 1.4735456e-38 314 241
-0.0059525664 0.67900002 -0.0011905134 1.7593881e-38 315 241
-0.0047620535 0.67900002 -0.0011905134 1.7148051e-38 316 241
-0.0035662798 0.67799997 -0.0011887599 1.8346593e-38 317 241
-0.0023775198 0.67799997 -0.0011887599 1.8989075e-38 318 241
-0.0011905134 0.67900002 -0.0011905134 1.8712488e-38 319 241
0 0.67900002 -0.0011905134 1.7329904e-38 320 241
0.0011905134 0.67900002 -0.0011905134 1.5670383e-38 321 241
0.0023810267 0.67900002 -0.0011905134 1.5020329e-38 322 241
0.0035767998 0.68000001 -0.0011922666 1.2715437e-38 323 241
0.0047690663 0.68000001 -0.0011922666 1.0236962e-38 324 241
0.0059613334 0.68000001 -0.0011922666 1.2910635e-38 325 241
0.00717464 0.68199998 -0.0011957732 1.4199587e-38 326 241
0.0083704125 0.68199998 -0.0011957732 1.4015556e-38 327 241
0.009566186 0.68199998 -0.0011957732 1.3740764e-38 328 241
0.01077774 0.68300003 -0.0011975267 1.3556373e-38 329 241
0.011975267 0.68300003 -0.0011975267 1.3186161e-38 330 241
0.013172794 0.68300003 -0.0011975267 1.3186161e-38 331 241
0.014370319 0.68300003 -0.0011975267 1.3186158e-38 332 241
0.015567848 0.68300003 -0.0011975267 1.337055e-38 333 241
0.016789921 0.68400002 -0.00119928 1.3003562e-38 334 241
0.0179892 0.68400002 -0.00119928 1.2819531e-38 335 241
0.01918848 0.68400002 -0.00119928 1.3093244e-38 336 241
0.020447372 0.68599999 -0.0012027866 1.2908851e-38 337 241
0.021681719 0.68699998 -0.0012045399 1.2356761e-38 338 241
0.022919573 0.68800002 -0.0012062934 1.2725183e-38 339 241
0.024125867 0.68800002 -0.0012062934 1.3001031e-38 340 241
0.02533216 0.68800002 -0.0012062934 1.0511751e-38 341 241
0.026615599 0.69 -0.0012097999 1.0034574e-38 342 241
0.027865725 0.69099998 -0.0012115532 8.9282274e-39 343 241
0.029161438 0.69300002 -0.00121506 9.3121272e-39 344 241
0.0303765 0.69300002 -0.00121506 1.0602866e-38 345 241
0.031637147 0.69400001 -0.0012168133 9.0341151e-39 346 241
0.032948639 0.69599998 -0.0012203199 1.041705e-38 347 241
0.034218054 0.69700003 -0.0012220733 1.3001045e-38 348 241
0.035643511 0.70099998 -0.0012290865 1.3554218e-38 349 241
0.036977798 0.70300001 -0.0012325933 1.4012309e-38 350 241
0.038210396 0.70300001 -0.0012325933 1.2813766e-38 351 241
0.039499093 0.704 -0.0012343467 1.2344488e-38 352 241
0.040733438 0.704 -0.0012343467 8.8410541e-39 353 241
0.042087011 0.70599997 -0.0012378532 1.0213539e-38 354 241
0.043324865 0.70599997 -0.0012378532 1.0305735e-38 355 241
0.044625837 0.70700002 -0.0012396066 9.8461956e-39 356 241
0.045865446 0.70700002 -0.0012396066 9.6621645e-39 357 241
0.047171678 0.708 -0.00124136 9.2951757e-39 358 241
0.048549797 0.70999998 -0.0012448666 9.1107844e-39 359 241
0.049794663 0.70999998 -0.0012448666 8.9267687e-39 360 241
0.051111419 0.71100003 -0.00124662 9.0189643e-39 361 241
0.052505318 0.713 -0.0012501266 8.3808004e-39 362 241
0.053830836 0.71399999 -0.00125188 9.1183654e-39 363 241
0.05508272 0.71399999 -0.00125188 8.3876345e-39 364 241
0.056571297 0.71700001 -0.00125714 8.8486127e-39 365 241
0.057828441 0.71700001 -0.00125714 8.4819853e-39 366 241
-0.047250576 0.69099998 -0.0024231065 1.0689285e-38 281 242
-0.045839146 0.68800002 -0.0024125867 1.1613775e-38 282 242
-0.044632856 0.68800002 -0.0024125867 1.2904514e-38 283 242
-0.043426562 0.68800002 -0.0024125867 1.3642082e-38 284 242
-0.042158898 0.68699998 -0.0024090798 1.4287451e-38 285 242
-0.040954359 0.68699998 -0.0024090798 1.4928484e-38 286 242
-0.039749816 0.68699998 -0.0024090798 1.4006526e-38 287 242
-0.038376961 0.68400002 -0.0023985601 1.4277684e-38 288 242
-0.037177678 0.68400002 -0.0023985601 1.3632674e-38 289 242
-0.035925802 0.68300003 -0.0023950534 1.4178992e-38 290 242
-0.034728274 0.68300003 -0.0023950534 1.380985e-38 291 242
-0.03348165 0.68199998 -0.0023915465 1.3717288e-38 292 242
-0.032285877 0.68199998 -0.0023915465 1.3717288e-38 293 242
-0.030998932 0.68000001 -0.0023845332 1.3808048e-38 294 242
-0.029806666 0.68000001 -0.0023845332 1.3624016e-38 295 242
-0.028614398 0.68000001 -0.0023845332 1.371478e-38 296 242
-0.027422134 0.68000001 -0.0023845332 1.371478e-38 297 242
-0.026229866 0.68000001 -0.0023845332 1.3622584e-38 298 242
-0.025037598 0.68000001 -0.0023845332 1.371478e-38 299 242
-0.023845334 0.68000001 -0.0023845332 1.3531468e-38 300 242
-0.022619752 0.67900002 -0.0023810267 1.3623663e-38 301 242
-0.021429239 0.67900002 -0.0023810267 1.3623666e-38 302 242
-0.020268533 0.68000001 -0.0023845332 1.3899894e-38 303 242
-0.019076265 0.68000001 -0.0023845332 1.3808778e-38 304 242
-0.017883999 0.68000001 -0.0023845332 1.3901332e-38 305 242
-0.016691733 0.68000001 -0.0023845332 1.3993891e-38 306 242
-0.015499466 0.68000001 -0.0023845332 1.4178642e-38 307 242
-0.014307199 0.68000001 -0.0023845332 1.4179727e-38 308 242
-0.013095647 0.67900002 -0.0023810267 1.4271922e-38 309 242
-0.011905133 0.67900002 -0.0023810267 1.4181175e-38 310 242
-0.010714619 0.67900002 -0.0023810267 1.4273371e-38 311 242
-0.0095100794 0.67799997 -0.0023775198 1.4366288e-38 312 242
-0.0083213197 0.67799997 -0.0023775198 1.4089703e-38 313 242
-0.0071325595 0.67799997 -0.0023775198 1.4089368e-38 314 242
-0.0059437994 0.67799997 -0.0023775198 1.5472302e-38 315 242
-0.0047550397 0.67799997 -0.0023775198 1.5665717e-38 316 242
-0.0035662798 0.67799997 -0.0023775198 1.7048651e-38 317 242
-0.0023775198 0.67799997 -0.0023775198 1.7144089e-38 318 242
-0.0011887599 0.67799997 -0.0023775198 1.7420678e-38 319 242
0 0.67900002 -0.0023810267 1.6777106e-38 320 242
0.0011905134 0.67900002 -0.0023810267 1.6500519e-38 321 242
0.0023810267 0.67900002 -0.0023810267 1.5670753e-38 322 242
0.0035715401 0.67900002 -0.0023810267 1.447221e-38 323 242
0.0047690663 0.68000001 -0.0023845332 1.2172714e-38 324 242
0.0059613334 0.68000001 -0.0023845332 1.3002833e-38 325 242
0.0071535995 0.68000001 -0.0023845332 1.383261e-38 326 242
0.0083458666 0.68000001 -0.0023845332 1.3740414e-38 327 242
0.009566186 0.68199998 -0.0023915465 1.4015925e-38 328 242
0.010761959 0.68199998 -0.0023915465 1.3554948e-38 329 242
0.011957732 0.68199998 -0.0023915465 1.3370552e-38 330 242
0.013153506 0.68199998 -0.0023915465 1.3370552e-38 331 242
0.01434928 0.68199998 -0.0023915465 1.3003568e-38 332 242
0.015545053 0.68199998 -0.0023915465 1.2819178e-38 333 242
0.016765373 0.68300003 -0.0023950534 1.3095042e-38 334 242
0.017962901 0.68300003 -0.0023950534 1.2541868e-38 335 242
0.01918848 0.68400002 -0.0023985601 1.1985084e-38 336 242
0.020387759 0.68400002 -0.0023985601 1.0048976e-38 337 242
0.021650158 0.68599999 -0.0024055731 1.0597478e-38 338 242
0.022886258 0.68699998 -0.0024090798 1.2349195e-38 339 242
0.024125867 0.68800002 -0.0024125867 1.2815193e-38 340 242
0.02533216 0.68800002 -0.0024125867 1.1155671e-38 341 242
0.026615599 0.69 -0.0024195998 9.7565265e-39 342 242
0.027865725 0.69099998 -0.0024231065 7.5438314e-39 343 242
0.029077278 0.69099998 -0.0024231065 9.0276131e-39 344 242
0.0303765 0.69300002 -0.00243012 1.1793841e-38 345 242
0.031637147 0.69400001 -0.0024336267 1.0783311e-38 346 242
0.032948639 0.69599998 -0.0024406398 9.3085412e-39 347 242
0.034218054 0.69700003 -0.0024441467 1.0416699e-38 348 242
