# .PCD v.7 - Point Cloud Data file format
FIELDS x y z rgb imX imY
SIZE 4 4 4 4 4 4
TYPE F F F F F F
COUNT 1 1 1 1 1 1
WIDTH 835
HEIGHT 1
VIEWPOINT 0 0 0 1 0 0 0
POINTS 835
DATA ascii
0.06628301 0.727 -0.010197386 1.3708338e-38 372 248
0.067557678 0.727 -0.010197386 1.3893088e-38 373 248
0.068927035 0.72799999 -0.010211413 1.4282743e-38 374 248
-0.035150826 0.71600002 -0.01129848 1.7412707e-38 292 249
-0.03389544 0.71600002 -0.01129848 1.5015621e-38 293 249
-0.032503292 0.713 -0.011251139 1.619579e-38 294 249
-0.031253166 0.713 -0.011251139 1.6472017e-38 295 249
-0.030003037 0.713 -0.011251139 1.692974e-38 296 249
-0.028672259 0.71100003 -0.01121958 1.6837543e-38 297 249
-0.027387066 0.70999998 -0.011203799 1.6744275e-38 298 249
-0.026068559 0.708 -0.01117224 1.6744275e-38 299 249
-0.024792133 0.70700002 -0.011156459 1.6651726e-38 300 249
-0.023519212 0.70599997 -0.011140679 1.6651726e-38 301 249
-0.022281358 0.70599997 -0.011140679 1.6559178e-38 302 249
-0.021043506 0.70599997 -0.011140679 1.6466982e-38 303 249
-0.019749546 0.704 -0.011109119 1.6373713e-38 304 249
-0.018488899 0.70300001 -0.01109334 1.6189322e-38 305 249
-0.017207211 0.70099998 -0.011061779 1.6189322e-38 306 249
-0.015978126 0.70099998 -0.011061779 1.6189322e-38 307 249
-0.014749039 0.70099998 -0.011061779 1.6096407e-38 308 249
-0.013500666 0.69999999 -0.011045999 1.6188603e-38 309 249
-0.012273333 0.69999999 -0.011045999 1.5821615e-38 310 249
-0.01101444 0.69800001 -0.01101444 1.572942e-38 311 249
-0.0097906133 0.69800001 -0.01101444 1.5729064e-38 312 249
-0.0085667865 0.69800001 -0.01101444 1.5636867e-38 313 249
-0.00733244 0.69700003 -0.01099866 1.563687e-38 314 249
-0.0061103669 0.69700003 -0.01099866 1.5544315e-38 315 249
-0.0048882933 0.69700003 -0.01099866 1.5636148e-38 316 249
-0.00366622 0.69700003 -0.01099866 1.5543952e-38 317 249
-0.0024441467 0.69700003 -0.01099866 1.4165702e-38 318 249
-0.0012220733 0.69700003 -0.01099866 1.3151552e-38 319 249
0 0.69700003 -0.01099866 5.2367953e-39 320 249
0.0012220733 0.69700003 -0.01099866 4.4081108e-39 321 249
0.0024441467 0.69700003 -0.01099866 2.9412526e-39 322 249
0.0036504399 0.69400001 -0.01095132 5.9840685e-39 323 249
0.00486024 0.69300002 -0.010935539 1.4077451e-38 324 249
0.0060753003 0.69300002 -0.010935539 1.3985256e-38 325 249
0.0072903596 0.69300002 -0.010935539 1.4903602e-38 326 249
0.008480873 0.69099998 -0.01090398 1.4995798e-38 327 249
0.0096924258 0.69099998 -0.01090398 1.5545749e-38 328 249
0.010888199 0.69 -0.010888199 1.5545749e-38 329 249
0.012097999 0.69 -0.010888199 1.5820543e-38 330 249
0.0133078 0.69 -0.010888199 1.6004574e-38 331 249
0.014517599 0.69 -0.010888199 1.6096773e-38 332 249
0.015681813 0.68800002 -0.010856641 1.6188969e-38 333 249
0.016888106 0.68800002 -0.010856641 1.6098571e-38 334 249
0.0180944 0.68800002 -0.010856641 1.6282963e-38 335 249
0.019300694 0.68800002 -0.010856641 1.6284035e-38 336 249
0.020506985 0.68800002 -0.010856641 1.6468427e-38 337 249
0.021713281 0.68800002 -0.010856641 1.6469501e-38 338 249
0.022919573 0.68800002 -0.010856641 1.6653894e-38 339 249
0.024125867 0.68800002 -0.010856641 1.6930127e-38 340 249
0.02533216 0.68800002 -0.010856641 1.7022322e-38 341 249
0.026538454 0.68800002 -0.010856641 1.683866e-38 342 249
0.027744746 0.68800002 -0.010856641 1.6746105e-38 343 249
0.028908957 0.68699998 -0.010840859 1.6745739e-38 344 249
0.030113498 0.68699998 -0.010840859 1.6653544e-38 345 249
0.031318039 0.68699998 -0.010840859 1.6560978e-38 346 249
0.032569919 0.68800002 -0.010856641 1.6468783e-38 347 249
0.033776212 0.68800002 -0.010856641 1.6559178e-38 348 249
0.03498251 0.68800002 -0.010856641 1.6466982e-38 349 249
0.036293998 0.69 -0.010888199 1.6374069e-38 350 249
0.037503798 0.69 -0.010888199 1.6281514e-38 351 249
0.038713597 0.69 -0.010888199 1.582306e-38 352 249
0.0399234 0.69 -0.010888199 1.5730864e-38 353 249
0.041133199 0.69 -0.010888199 1.5363171e-38 354 249
0.042342998 0.69 -0.010888199 1.4809997e-38 355 249
0.043615919 0.69099998 -0.01090398 9.6578639e-39 356 249
0.044957221 0.69300002 -0.010935539 6.5232125e-39 357 249
0.046372157 0.69599998 -0.010982879 9.5789848e-39 358 249
0.047660861 0.69700003 -0.01099866 1.2621801e-38 359 249
0.048953064 0.69800001 -0.01101444 1.4449143e-38 360 249
0.050176892 0.69800001 -0.01101444 1.4080719e-38 361 249
0.051547997 0.69999999 -0.011045999 1.4446256e-38 362 249
0.053227689 0.70599997 -0.011140679 1.4261865e-38 363 249
0.054542694 0.70700002 -0.011156459 1.3986001e-38 364 249
0.055861197 0.708 -0.01117224 1.3709413e-38 365 249
0.057263866 0.70999998 -0.011203799 1.2235372e-38 366 249
0.059085581 0.71700001 -0.01131426 9.7464498e-39 367 249
0.060342718 0.71700001 -0.01131426 7.0007288e-39 368 249
0.062115334 0.72299999 -0.01140894 1.032013e-38 369 249
0.063558333 0.72500002 -0.0114405 1.3986367e-38 370 249
0.065008335 0.727 -0.01147206 1.3986367e-38 371 249
0.06628301 0.727 -0.01147206 1.3433552e-38 372 249
0.067557678 0.727 -0.01147206 1.3340998e-38 373 249
0.068927035 0.72799999 -0.01148784 1.4647214e-38 374 249
-0.035150826 0.71600002 -0.012553867 1.6584767e-38 292 250
-0.033800758 0.71399999 -0.012518799 1.3173528e-38 293 250
-0.032503292 0.713 -0.012501267 1.6378749e-38 294 250
-0.031165501 0.71100003 -0.0124662 1.6471304e-38 295 250
-0.029918881 0.71100003 -0.0124662 1.6838266e-38 296 250
-0.028672259 0.71100003 -0.0124662 1.6561679e-38 297 250
-0.027387066 0.70999998 -0.012448666 1.6651726e-38 298 250
-0.026068559 0.708 -0.0124136 1.6559531e-38 299 250
-0.024792133 0.70700002 -0.012396066 1.6559178e-38 300 250
-0.023519212 0.70599997 -0.012378532 1.6374786e-38 301 250
-0.022281358 0.70599997 -0.012378532 1.6098202e-38 302 250
-0.020983893 0.704 -0.012343466 1.6006007e-38 303 250
-0.019749546 0.704 -0.012343466 1.6097126e-38 304 250
-0.018488899 0.70300001 -0.012325933 1.600493e-38 305 250
-0.017207211 0.70099998 -0.012290866 1.600493e-38 306 250
-0.015978126 0.70099998 -0.012290866 1.600493e-38 307 250
-0.014727999 0.69999999 -0.012273333 1.5820896e-38 308 250
-0.013500666 0.69999999 -0.012273333 1.5820896e-38 309 250
-0.012273333 0.69999999 -0.012273333 1.5545749e-38 310 250
-0.01101444 0.69800001 -0.012238266 1.5453552e-38 311 250
-0.0097906133 0.69800001 -0.012238266 1.5544668e-38 312 250
-0.0085667865 0.69800001 -0.012238266 1.5360637e-38 313 250
-0.00733244 0.69700003 -0.012220734 1.5544668e-38 314 250
-0.0061103669 0.69700003 -0.012220734 1.5360637e-38 315 250
-0.0048882933 0.69700003 -0.012220734 1.5360634e-38 316 250
-0.00366622 0.69700003 -0.012220734 1.5360634e-38 317 250
-0.0024441467 0.69700003 -0.012220734 1.3797996e-38 318 250
-0.0012220733 0.69700003 -0.012220734 1.2599453e-38 319 250
0 0.69700003 -0.012220734 4.868733e-39 320 250
0.0012220733 0.69700003 -0.012220734 4.1326029e-39 321 250
0.0024406398 0.69599998 -0.0122032 3.4015077e-39 322 250
0.0036504399 0.69400001 -0.012168133 6.7205504e-39 323 250
0.00486024 0.69300002 -0.012150601 1.4077807e-38 324 250
0.0060753003 0.69300002 -0.012150601 1.3893057e-38 325 250
0.0072903596 0.69300002 -0.012150601 1.4810688e-38 326 250
0.008480873 0.69099998 -0.012115533 1.4994719e-38 327 250
0.0096924258 0.69099998 -0.012115533 1.5361356e-38 328 250
0.010856641 0.68800002 -0.012062933 1.5361356e-38 329 250
0.012062933 0.68800002 -0.012062933 1.5544315e-38 330 250
0.013269227 0.68800002 -0.012062933 1.563687e-38 331 250
0.014475521 0.68800002 -0.012062933 1.5820543e-38 332 250
0.015681813 0.68800002 -0.012062933 1.609677e-38 333 250
0.016888106 0.68800002 -0.012062933 1.5914533e-38 334 250
0.0180944 0.68800002 -0.012062933 1.6006728e-38 335 250
0.019300694 0.68800002 -0.012062933 1.5915609e-38 336 250
0.020506985 0.68800002 -0.012062933 1.6191837e-38 337 250
0.021713281 0.68800002 -0.012062933 1.6467348e-38 338 250
0.022919573 0.68800002 -0.012062933 1.6652098e-38 339 250
0.024125867 0.68800002 -0.012062933 1.6469151e-38 340 250
0.025295338 0.68699998 -0.012045399 1.6561348e-38 341 250
0.026499879 0.68699998 -0.012045399 1.6653541e-38 342 250
0.027744746 0.68800002 -0.012062933 1.6561345e-38 343 250
0.028908957 0.68699998 -0.012045399 1.6652098e-38 344 250
0.030113498 0.68699998 -0.012045399 1.6559543e-38 345 250
0.031318039 0.68699998 -0.012045399 1.6284391e-38 346 250
0.032522578 0.68699998 -0.012045399 1.6284391e-38 347 250
0.033776212 0.68800002 -0.012062933 1.6466982e-38 348 250
0.03498251 0.68800002 -0.012062933 1.6374786e-38 349 250
0.0361888 0.68800002 -0.012062933 1.6099274e-38 350 250
0.037503798 0.69 -0.012097999 1.6099274e-38 351 250
0.038713597 0.69 -0.012097999 1.582341e-38 352 250
0.039807681 0.68800002 -0.012062933 1.5731215e-38 353 250
0.041013971 0.68800002 -0.012062933 1.5363877e-38 354 250
0.042220265 0.68800002 -0.012062933 1.4810703e-38 355 250
0.043426562 0.68800002 -0.012062933 1.0115601e-38 356 250
0.0447626 0.69 -0.012097999 6.6121669e-39 357 250
0.046372157 0.69599998 -0.0122032 8.8432233e-39 358 250
0.047660861 0.69700003 -0.012220734 1.2162267e-38 359 250
0.048953064 0.69800001 -0.012238266 1.4265834e-38 360 250
0.050176892 0.69800001 -0.012238266 1.4081084e-38 361 250
0.051400717 0.69800001 -0.012238266 1.4263666e-38 362 250
0.053076904 0.704 -0.012343466 1.398672e-38 363 250
0.054465543 0.70599997 -0.012378532 1.3893801e-38 364 250
0.055861197 0.708 -0.0124136 1.3801606e-38 365 250
0.057263866 0.70999998 -0.012448666 1.3248438e-38 366 250
0.058508728 0.70999998 -0.012448666 9.8368406e-39 367 250
0.061016005 0.72500002 -0.012711667 4.8838278e-39 368 250
0.062287167 0.72500002 -0.012711667 9.2170224e-39 369 250
0.063558333 0.72500002 -0.012711667 1.3618665e-38 370 250
0.065008335 0.727 -0.012746733 1.3618665e-38 371 250
0.06628301 0.727 -0.012746733 1.3617237e-38 372 250
0.067557678 0.727 -0.012746733 1.3617237e-38 373 250
0.068927035 0.72799999 -0.012764266 1.4183747e-38 374 250
0.070203468 0.72799999 -0.012764266 1.8055963e-38 375 250
-0.035003547 0.713 -0.013751393 1.4461393e-38 292 251
-0.033753417 0.713 -0.013751393 1.1879917e-38 293 251
-0.032412119 0.71100003 -0.01371282 1.6101442e-38 294 251
-0.031165501 0.71100003 -0.01371282 1.6285833e-38 295 251
-0.029918881 0.71100003 -0.01371282 1.6652798e-38 296 251
-0.028631933 0.70999998 -0.013693533 1.6468407e-38 297 251
-0.027309919 0.708 -0.013654959 1.6467335e-38 298 251
-0.026068559 0.708 -0.013654959 1.6282942e-38 299 251
-0.024757065 0.70599997 -0.013616386 1.6098558e-38 300 251
-0.023519212 0.70599997 -0.013616386 1.5913808e-38 301 251
-0.022218239 0.704 -0.013577812 1.6004212e-38 302 251
-0.020983893 0.704 -0.013577812 1.6004212e-38 303 251
-0.019749546 0.704 -0.013577812 1.5728344e-38 304 251
-0.018488899 0.70300001 -0.013558527 1.5820541e-38 305 251
-0.017207211 0.70099998 -0.013519952 1.5636864e-38 306 251
-0.015978126 0.70099998 -0.013519952 1.5636864e-38 307 251
-0.014727999 0.69999999 -0.013500666 1.563722e-38 308 251
-0.013500666 0.69999999 -0.013500666 1.563722e-38 309 251
-0.012273333 0.69999999 -0.013500666 1.5361353e-38 310 251
-0.01101444 0.69800001 -0.013462093 1.5361353e-38 311 251
-0.0097906133 0.69800001 -0.013462093 1.5268439e-38 312 251
-0.0085545136 0.69700003 -0.013442807 1.5268439e-38 313 251
-0.00733244 0.69700003 -0.013442807 1.5268439e-38 314 251
-0.0061103669 0.69700003 -0.013442807 1.5268439e-38 315 251
-0.0048882933 0.69700003 -0.013442807 1.4992931e-38 316 251
-0.00366622 0.69700003 -0.013442807 1.5176962e-38 317 251
-0.0024441467 0.69700003 -0.013442807 1.3429218e-38 318 251
-0.0012220733 0.69700003 -0.013442807 1.2046282e-38 319 251
0 0.69700003 -0.013442807 4.9591294e-39 320 251
0.0012220733 0.69700003 -0.013442807 4.5917818e-39 321 251
0.0024406398 0.69599998 -0.013423519 4.3209473e-39 322 251
0.0036504399 0.69400001 -0.013384946 7.6403487e-39 323 251
0.00486024 0.69300002 -0.01336566 1.4077088e-38 324 251
0.0060753003 0.69300002 -0.01336566 1.3892338e-38 325 251
0.0072903596 0.69300002 -0.01336566 1.4809253e-38 326 251
0.008480873 0.69099998 -0.013327086 1.4901807e-38 327 251
0.0096783992 0.69 -0.0133078 1.5176965e-38 328 251
0.010856641 0.68800002 -0.013269227 1.526916e-38 329 251
0.012062933 0.68800002 -0.013269227 1.5544671e-38 330 251
0.013269227 0.68800002 -0.013269227 1.5544671e-38 331 251
0.014475521 0.68800002 -0.013269227 1.5819816e-38 332 251
0.015681813 0.68800002 -0.013269227 1.6004209e-38 333 251
0.016888106 0.68800002 -0.013269227 1.5821615e-38 334 251
0.0180944 0.68800002 -0.013269227 1.5913811e-38 335 251
0.019300694 0.68800002 -0.013269227 1.5913811e-38 336 251
0.020506985 0.68800002 -0.013269227 1.6006007e-38 337 251
0.021713281 0.68800002 -0.013269227 1.6098202e-38 338 251
0.022919573 0.68800002 -0.013269227 1.6282233e-38 339 251
0.024090799 0.68699998 -0.013249939 1.6283672e-38 340 251
0.025295338 0.68699998 -0.013249939 1.6283672e-38 341 251
0.026499879 0.68699998 -0.013249939 1.6467704e-38 342 251
0.027704418 0.68699998 -0.013249939 1.6467704e-38 343 251
0.028908957 0.68699998 -0.013249939 1.6466266e-38 344 251
0.030113498 0.68699998 -0.013249939 1.6466266e-38 345 251
0.031318039 0.68699998 -0.013249939 1.6191118e-38 346 251
0.032522578 0.68699998 -0.013249939 1.6098921e-38 347 251
0.033727121 0.68699998 -0.013249939 1.6098558e-38 348 251
0.034931656 0.68699998 -0.013249939 1.6282589e-38 349 251
0.0361888 0.68800002 -0.013269227 1.6007076e-38 350 251
0.037395094 0.68800002 -0.013269227 1.6007076e-38 351 251
0.038601387 0.68800002 -0.013269227 1.5731215e-38 352 251
0.039749816 0.68699998 -0.013249939 1.582341e-38 353 251
0.040954359 0.68699998 -0.013249939 1.573338e-38 354 251
0.042220265 0.68800002 -0.013269227 1.5641184e-38 355 251
0.043426562 0.68800002 -0.013269227 1.1586416e-38 356 251
0.044632856 0.68800002 -0.013269227 7.1631785e-39 357 251
0.046238903 0.69400001 -0.013384946 8.3818934e-39 358 251
0.047592476 0.69599998 -0.013423519 1.2069717e-38 359 251
0.048882935 0.69700003 -0.013442807 1.4448071e-38 360 251
0.050176892 0.69800001 -0.013462093 1.4448071e-38 361 251
0.051400717 0.69800001 -0.013462093 1.4172189e-38 362 251
0.052775331 0.69999999 -0.013500666 1.3803408e-38 363 251
0.054234106 0.70300001 -0.013558527 1.3893804e-38 364 251
0.055545598 0.704 -0.013577812 1.3893804e-38 365 251
0.057263866 0.70999998 -0.013693533 1.3801255e-38 366 251
0.058508728 0.70999998 -0.013693533 1.0021236e-38 367 251
0.061016005 0.72500002 -0.013982833 5.4301675e-39 368 251
0.062287167 0.72500002 -0.013982833 9.9473946e-39 369 251
0.063558333 0.72500002 -0.013982833 1.3250605e-38 370 251
0.065008335 0.727 -0.014021406 1.3342801e-38 371 251
0.06628301 0.727 -0.014021406 1.3618312e-38 372 251
0.067557678 0.727 -0.014021406 1.3526116e-38 373 251
0.068927035 0.72799999 -0.014040692 1.2154008e-38 374 251
0.070396334 0.73000002 -0.014079267 1.7409159e-38 375 251
0.071676269 0.73000002 -0.014079267 1.8898329e-38 376 251
-0.035003547 0.713 -0.015001519 1.2983379e-38 292 252
-0.033753417 0.713 -0.015001519 1.1876673e-38 293 252
-0.032412119 0.71100003 -0.014959441 1.6193638e-38 294 252
-0.031165501 0.71100003 -0.014959441 1.6009246e-38 295 252
-0.029918881 0.71100003 -0.014959441 1.6191837e-38 296 252
-0.028631933 0.70999998 -0.014938398 1.5915609e-38 297 252
-0.027309919 0.708 -0.01489632 1.5823413e-38 298 252
-0.026068559 0.708 -0.01489632 1.5639022e-38 299 252
-0.024757065 0.70599997 -0.014854239 1.5638666e-38 300 252
-0.023519212 0.70599997 -0.014854239 1.5454275e-38 301 252
-0.022218239 0.704 -0.014812159 1.563687e-38 302 252
-0.020983893 0.704 -0.014812159 1.5544315e-38 303 252
-0.019749546 0.704 -0.014812159 1.5453199e-38 304 252
-0.018488899 0.70300001 -0.014791119 1.5453199e-38 305 252
-0.017207211 0.70099998 -0.014749039 1.5270239e-38 306 252
-0.015978126 0.70099998 -0.014749039 1.5270239e-38 307 252
-0.014727999 0.69999999 -0.014727999 1.5178044e-38 308 252
-0.013500666 0.69999999 -0.014727999 1.5085848e-38 309 252
-0.012273333 0.69999999 -0.014727999 1.4993297e-38 310 252
-0.01101444 0.69800001 -0.01468592 1.4901101e-38 311 252
-0.0097906133 0.69800001 -0.01468592 1.4992578e-38 312 252
-0.0085545136 0.69700003 -0.01466488 1.4992578e-38 313 252
-0.00733244 0.69700003 -0.01466488 1.4992934e-38 314 252
-0.0061103669 0.69700003 -0.01466488 1.4900379e-38 315 252
-0.0048882933 0.69700003 -0.01466488 1.4625223e-38 316 252
-0.0036609597 0.69599998 -0.014643839 1.4625223e-38 317 252
-0.0024406398 0.69599998 -0.014643839 1.3427416e-38 318 252
-0.0012203199 0.69599998 -0.014643839 1.2044481e-38 319 252
0 0.69599998 -0.014643839 4.6843404e-39 320 252
0.0012168133 0.69400001 -0.01460176 4.4081122e-39 321 252
0.0024336267 0.69400001 -0.01460176 5.5169723e-39 322 252
0.0036504399 0.69400001 -0.01460176 8.6516237e-39 323 252
0.00486024 0.69300002 -0.014580719 1.4077457e-38 324 252
0.0060753003 0.69300002 -0.014580719 1.3708676e-38 325 252
0.0072903596 0.69300002 -0.014580719 1.4625587e-38 326 252
0.008480873 0.69099998 -0.014538639 1.4625587e-38 327 252
0.0096783992 0.69 -0.014517599 1.4992578e-38 328 252
0.010888199 0.69 -0.014517599 1.4992578e-38 329 252
0.012062933 0.68800002 -0.014475521 1.5269163e-38 330 252
0.013269227 0.68800002 -0.014475521 1.5269163e-38 331 252
0.014475521 0.68800002 -0.014475521 1.5543952e-38 332 252
0.015681813 0.68800002 -0.014475521 1.5636148e-38 333 252
0.016888106 0.68800002 -0.014475521 1.5453554e-38 334 252
0.0180944 0.68800002 -0.014475521 1.5545752e-38 335 252
0.019300694 0.68800002 -0.014475521 1.554647e-38 336 252
0.020506985 0.68800002 -0.014475521 1.554647e-38 337 252
0.021713281 0.68800002 -0.014475521 1.5821981e-38 338 252
0.022919573 0.68800002 -0.014475521 1.5914177e-38 339 252
0.024090799 0.68699998 -0.014454478 1.582306e-38 340 252
0.025295338 0.68699998 -0.014454478 1.582306e-38 341 252
0.026499879 0.68699998 -0.014454478 1.5823057e-38 342 252
0.027664091 0.68599999 -0.01443344 1.5915612e-38 343 252
0.02886688 0.68599999 -0.01443344 1.6098202e-38 344 252
0.030113498 0.68699998 -0.014454478 1.6282233e-38 345 252
0.031272452 0.68599999 -0.01443344 1.6005653e-38 346 252
0.032475237 0.68599999 -0.01443344 1.5913458e-38 347 252
0.033727121 0.68699998 -0.014454478 1.5638313e-38 348 252
0.034931656 0.68699998 -0.014454478 1.5638313e-38 349 252
0.036136195 0.68699998 -0.014454478 1.5455357e-38 350 252
0.037340738 0.68699998 -0.014454478 1.5455357e-38 351 252
0.038545277 0.68699998 -0.014454478 1.5363521e-38 352 252
0.039749816 0.68699998 -0.014454478 1.5363521e-38 353 252
0.040954359 0.68699998 -0.014454478 1.5640831e-38 354 252
0.042158898 0.68699998 -0.014454478 1.5825581e-38 355 252
0.043363437 0.68699998 -0.014454478 1.2139959e-38 356 252
0.044632856 0.68800002 -0.014475521 6.9795145e-39 357 252
0.046238903 0.69400001 -0.01460176 7.8287252e-39 358 252
0.047592476 0.69599998 -0.014643839 1.1700583e-38 359 252
0.048882935 0.69700003 -0.01466488 1.4082531e-38 360 252
0.050176892 0.69800001 -0.01468592 1.3621912e-38 361 252
0.051400717 0.69800001 -0.01468592 1.3987799e-38 362 252
0.052624546 0.69800001 -0.01468592 1.3803408e-38 363 252
0.053848371 0.69800001 -0.01468592 1.3618647e-38 364 252
0.055308893 0.70099998 -0.014749039 1.3618647e-38 365 252
0.056779943 0.704 -0.014812159 1.3983839e-38 366 252
0.058014292 0.704 -0.014812159 1.1125414e-38 367 252
0.061016005 0.72500002 -0.015254001 6.165213e-39 368 252
0.062287167 0.72500002 -0.015254001 9.9452338e-39 369 252
0.063558333 0.72500002 -0.015254001 1.2609199e-38 370 252
0.065008335 0.727 -0.015296079 1.2793592e-38 371 252
0.06628301 0.727 -0.015296079 1.352791e-38 372 252
0.067650609 0.72799999 -0.01531712 1.3343517e-38 373 252
0.068927035 0.72799999 -0.01531712 1.1409959e-38 374 252
0.070396334 0.73000002 -0.0153592 1.6388163e-38 375 252
0.071676269 0.73000002 -0.0153592 1.8161129e-38 376 252
-0.036101133 0.70999998 -0.016183265 1.6411565e-38 291 253
-0.034905359 0.71100003 -0.01620606 1.3072695e-38 292 253
-0.033753417 0.713 -0.016251646 1.2519521e-38 293 253
-0.032412119 0.71100003 -0.01620606 1.6100723e-38 294 253
-0.031165501 0.71100003 -0.01620606 1.5731581e-38 295 253
-0.029876797 0.70999998 -0.016183265 1.5822334e-38 296 253
-0.028631933 0.70999998 -0.016183265 1.5638303e-38 297 253
-0.027309919 0.708 -0.01613768 1.572942e-38 298 253
-0.02603174 0.70700002 -0.016114887 1.5544668e-38 299 253
-0.024757065 0.70599997 -0.016092092 1.5544668e-38 300 253
-0.023519212 0.70599997 -0.016092092 1.5268442e-38 301 253
-0.022218239 0.704 -0.016046507 1.526916e-38 302 253
-0.020983893 0.704 -0.016046507 1.526916e-38 303 253
-0.019749546 0.704 -0.016046507 1.5360634e-38 304 253
-0.018488899 0.70300001 -0.016023712 1.5360634e-38 305 253
-0.017207211 0.70099998 -0.015978126 1.5360637e-38 306 253
-0.015978126 0.70099998 -0.015978126 1.5360637e-38 307 253
-0.014727999 0.69999999 -0.015955333 1.5176965e-38 308 253
-0.013500666 0.69999999 -0.015955333 1.5176965e-38 309 253
-0.012238266 0.69800001 -0.015909746 1.4901454e-38 310 253
-0.01101444 0.69800001 -0.015909746 1.4901454e-38 311 253
-0.0097906133 0.69800001 -0.015909746 1.499185e-38 312 253
-0.0085545136 0.69700003 -0.015886955 1.499185e-38 313 253
-0.00733244 0.69700003 -0.015886955 1.4808182e-38 314 253
-0.0061103669 0.69700003 -0.015886955 1.4808182e-38 315 253
-0.0048882933 0.69700003 -0.015886955 1.4624873e-38 316 253
-0.0036609597 0.69599998 -0.015864158 1.4624873e-38 317 253
-0.0024406398 0.69599998 -0.015864158 1.3058287e-38 318 253
-0.0012203199 0.69599998 -0.015864158 1.1675351e-38 319 253
0 0.69599998 -0.015864158 4.6843432e-39 320 253
0.0012168133 0.69400001 -0.015818574 4.1326057e-39 321 253
0.0024336267 0.69400001 -0.015818574 6.3449351e-39 322 253
0.0036504399 0.69400001 -0.015818574 9.5717822e-39 323 253
0.00486024 0.69300002 -0.015795778 1.3892713e-38 324 253
0.0060577663 0.69099998 -0.015750192 1.3431734e-38 325 253
0.0072693196 0.69099998 -0.015750192 1.4624867e-38 326 253
0.008480873 0.69099998 -0.015750192 1.4532672e-38 327 253
0.0096783992 0.69 -0.015727401 1.5084045e-38 328 253
0.010888199 0.69 -0.015727401 1.4991848e-38 329 253
0.012062933 0.68800002 -0.015681813 1.517588e-38 330 253
0.013269227 0.68800002 -0.015681813 1.517588e-38 331 253
0.014475521 0.68800002 -0.015681813 1.56347e-38 332 253
0.015681813 0.68800002 -0.015681813 1.5726896e-38 333 253
0.016888106 0.68800002 -0.015681813 1.5452107e-38 334 253
0.0180944 0.68800002 -0.015681813 1.5636498e-38 335 253
0.019300694 0.68800002 -0.015681813 1.5636501e-38 336 253
0.020477179 0.68699998 -0.015659019 1.5636501e-38 337 253
0.021681719 0.68699998 -0.015659019 1.5728697e-38 338 253
0.022886258 0.68699998 -0.015659019 1.5820894e-38 339 253
0.024090799 0.68699998 -0.015659019 1.5821613e-38 340 253
0.025295338 0.68699998 -0.015659019 1.5729417e-38 341 253
0.026499879 0.68699998 -0.015659019 1.6004925e-38 342 253
0.027664091 0.68599999 -0.015636226 1.6004925e-38 343 253
0.02886688 0.68599999 -0.015636226 1.6005281e-38 344 253
0.030069664 0.68599999 -0.015636226 1.582125e-38 345 253
0.031272452 0.68599999 -0.015636226 1.6004206e-38 346 253
0.032475237 0.68599999 -0.015636226 1.5912009e-38 347 253
0.033678025 0.68599999 -0.015636226 1.5636864e-38 348 253
0.034931656 0.68699998 -0.015659019 1.5544668e-38 349 253
0.036136195 0.68699998 -0.015659019 1.5361359e-38 350 253
0.037340738 0.68699998 -0.015659019 1.5269163e-38 351 253
0.038545277 0.68699998 -0.015659019 1.5361359e-38 352 253
0.039749816 0.68699998 -0.015659019 1.5361359e-38 353 253
0.040954359 0.68699998 -0.015659019 1.5086944e-38 354 253
0.042158898 0.68699998 -0.015659019 1.5640118e-38 355 253
0.043363437 0.68699998 -0.015659019 1.195881e-38 356 253
0.044632856 0.68800002 -0.015681813 6.7040178e-39 357 253
0.046372157 0.69599998 -0.015864158 7.367031e-39 358 253
0.047660861 0.69700003 -0.015886955 1.1331443e-38 359 253
0.048882935 0.69700003 -0.015886955 1.4080013e-38 360 253
0.050176892 0.69800001 -0.015909746 1.4080013e-38 361 253
0.051400717 0.69800001 -0.015909746 1.3987799e-38 362 253
0.052624546 0.69800001 -0.015909746 1.3711212e-38 363 253
0.053848371 0.69800001 -0.015909746 1.3801606e-38 364 253
0.055308893 0.70099998 -0.015978126 1.3801606e-38 365 253
0.056699295 0.70300001 -0.016023712 1.3803405e-38 366 253
0.057931885 0.70300001 -0.016023712 1.1590709e-38 367 253
0.061016005 0.72500002 -0.016525166 8.3746669e-39 368 253
0.062287167 0.72500002 -0.016525166 9.5728513e-39 369 253
0.063558333 0.72500002 -0.016525166 1.1414976e-38 370 253
0.065008335 0.727 -0.016570752 1.2152541e-38 371 253
0.06628301 0.727 -0.016570752 1.3435714e-38 372 253
0.067650609 0.72799999 -0.016593546 1.352791e-38 373 253
0.068927035 0.72799999 -0.016593546 1.1593269e-38 374 253
0.070396334 0.73000002 -0.016639132 1.4727919e-38 375 253
0.071676269 0.73000002 -0.016639132 1.6132823e-38 376 253
-0.037345998 0.70999998 -0.017428132 1.8069287e-38 290 254
-0.036101133 0.70999998 -0.017428132 1.5764396e-38 291 254
-0.034905359 0.71100003 -0.01745268 1.389814e-38 292 254
-0.033658739 0.71100003 -0.01745268 1.325277e-38 293 254
-0.032412119 0.71100003 -0.01745268 1.5456438e-38 294 254
-0.031165501 0.71100003 -0.01745268 1.5088016e-38 295 254
-0.029876797 0.70999998 -0.017428132 1.5086941e-38 296 254
-0.028631933 0.70999998 -0.017428132 1.4902549e-38 297 254
-0.027309919 0.708 -0.017379038 1.4809634e-38 298 254
-0.02603174 0.70700002 -0.017354494 1.4717438e-38 299 254
-0.024757065 0.70599997 -0.017329946 1.4625959e-38 300 254
-0.023519212 0.70599997 -0.017329946 1.4625959e-38 301 254
-0.022218239 0.704 -0.017280852 1.4809984e-38 302 254
-0.020983893 0.704 -0.017280852 1.4994015e-38 303 254
-0.019749546 0.704 -0.017280852 1.4993297e-38 304 254
-0.018488899 0.70300001 -0.017256306 1.4993297e-38 305 254
-0.017207211 0.70099998 -0.017207211 1.4993299e-38 306 254
-0.015978126 0.70099998 -0.017207211 1.4993299e-38 307 254
-0.014727999 0.69999999 -0.017182667 1.4993299e-38 308 254
-0.013500666 0.69999999 -0.017182667 1.4993299e-38 309 254
-0.012238266 0.69800001 -0.017133573 1.4717789e-38 310 254
-0.01101444 0.69800001 -0.017133573 1.4625593e-38 311 254
-0.0097906133 0.69800001 -0.017133573 1.4625593e-38 312 254
-0.0085545136 0.69700003 -0.017109027 1.4533037e-38 313 254
-0.00733244 0.69700003 -0.017109027 1.4533037e-38 314 254
-0.0061103669 0.69700003 -0.017109027 1.4533037e-38 315 254
-0.0048882933 0.69700003 -0.017109027 1.4348996e-38 316 254
-0.0036609597 0.69599998 -0.017084479 1.407277e-38 317 254
-0.0024406398 0.69599998 -0.017084479 1.2506185e-38 318 254
-0.0012203199 0.69599998 -0.017084479 1.1215446e-38 319 254
0 0.69599998 -0.017084479 4.3187991e-39 320 254
0.0012168133 0.69400001 -0.017035386 3.4897545e-39 321 254
0.0024336267 0.69400001 -0.017035386 6.8991837e-39 322 254
0.0036504399 0.69400001 -0.017035386 9.6650526e-39 323 254
0.00486024 0.69300002 -0.01701084 1.3799439e-38 324 254
0.0060577663 0.69099998 -0.016961746 1.3615047e-38 325 254
0.0072693196 0.69099998 -0.016961746 1.4258601e-38 326 254
0.008480873 0.69099998 -0.016961746 1.4258601e-38 327 254
0.0096783992 0.69 -0.0169372 1.4625587e-38 328 254
0.010888199 0.69 -0.0169372 1.4625587e-38 329 254
0.012062933 0.68800002 -0.016888106 1.4808903e-38 330 254
0.013269227 0.68800002 -0.016888106 1.4808903e-38 331 254
0.014475521 0.68800002 -0.016888106 1.5176246e-38 332 254
0.015681813 0.68800002 -0.016888106 1.5176246e-38 333 254
0.016888106 0.68800002 -0.016888106 1.5269163e-38 334 254
0.0180944 0.68800002 -0.016888106 1.5269163e-38 335 254
0.019300694 0.68800002 -0.016888106 1.536064e-38 336 254
0.020477179 0.68699998 -0.01686356 1.5544671e-38 337 254
0.021681719 0.68699998 -0.01686356 1.5361359e-38 338 254
0.022886258 0.68699998 -0.01686356 1.5453554e-38 339 254
0.024090799 0.68699998 -0.01686356 1.5453552e-38 340 254
0.025295338 0.68699998 -0.01686356 1.5453552e-38 341 254
0.026499879 0.68699998 -0.01686356 1.5454272e-38 342 254
0.027664091 0.68599999 -0.016839013 1.5454272e-38 343 254
0.02886688 0.68599999 -0.016839013 1.5545749e-38 344 254
0.030069664 0.68599999 -0.016839013 1.5453552e-38 345 254
0.031272452 0.68599999 -0.016839013 1.5453552e-38 346 254
0.032475237 0.68599999 -0.016839013 1.5453552e-38 347 254
0.033678025 0.68599999 -0.016839013 1.5177688e-38 348 254
0.034880809 0.68599999 -0.016839013 1.5085492e-38 349 254
0.036083598 0.68599999 -0.016839013 1.5085498e-38 350 254
0.037340738 0.68699998 -0.01686356 1.4992943e-38 351 254
0.038545277 0.68699998 -0.01686356 1.4625606e-38 352 254
0.039749816 0.68699998 -0.01686356 1.4441575e-38 353 254
0.040954359 0.68699998 -0.01686356 1.4258994e-38 354 254
0.042158898 0.68699998 -0.01686356 1.4535941e-38 355 254
0.043363437 0.68699998 -0.01686356 1.0488726e-38 356 254
0.044632856 0.68800002 -0.016888106 5.5101606e-39 357 254
0.04617228 0.69300002 -0.01701084 6.631268e-39 358 254
0.047729239 0.69800001 -0.017133573 1.059568e-38 359 254
0.048953064 0.69800001 -0.017133573 1.3347487e-38 360 254
0.050176892 0.69800001 -0.017133573 1.30709e-38 361 254
0.051547997 0.69999999 -0.017182667 1.3803408e-38 362 254
0.052775331 0.69999999 -0.017182667 1.3619015e-38 363 254
0.054002665 0.69999999 -0.017182667 1.3618647e-38 364 254
0.055308893 0.70099998 -0.017207211 1.3618647e-38 365 254
0.056699295 0.70300001 -0.017256306 1.3528247e-38 366 254
0.058179103 0.70599997 -0.017329946 1.196092e-38 367 254
0.059585281 0.708 -0.017379038 9.5688885e-39 368 254
0.062287167 0.72500002 -0.017796334 9.7532797e-39 369 254
0.063558333 0.72500002 -0.017796334 1.0768526e-38 370 254
0.065008335 0.727 -0.017845426 1.2059265e-38 371 254
0.066374183 0.72799999 -0.017869972 1.3344247e-38 372 254
0.067650609 0.72799999 -0.017869972 1.3252052e-38 373 254
0.068927035 0.72799999 -0.017869972 1.2604179e-38 374 254
0.070396334 0.73000002 -0.017919067 1.4079311e-38 375 254
0.071676269 0.73000002 -0.017919067 1.474772e-38 376 254
-0.037345998 0.70999998 -0.018672999 1.760759e-38 290 255
-0.036101133 0.70999998 -0.018672999 1.4564774e-38 291 255
-0.034905359 0.71100003 -0.0186993 1.3805944e-38 292 255
-0.033658739 0.71100003 -0.0186993 1.3160575e-38 293 255
-0.032412119 0.71100003 -0.0186993 1.5087294e-38 294 255
-0.031165501 0.71100003 -0.0186993 1.4718152e-38 295 255
-0.029876797 0.70999998 -0.018672999 1.4441928e-38 296 255
-0.028631933 0.70999998 -0.018672999 1.4349732e-38 297 255
-0.027309919 0.708 -0.0186204 1.4532688e-38 298 255
-0.02603174 0.70700002 -0.018594101 1.4440491e-38 299 255
-0.024757065 0.70599997 -0.018567799 1.4533044e-38 300 255
-0.023452586 0.704 -0.018515198 1.4533044e-38 301 255
-0.022218239 0.704 -0.018515198 1.4626312e-38 302 255
-0.020983893 0.704 -0.018515198 1.4718508e-38 303 255
-0.019749546 0.704 -0.018515198 1.4901098e-38 304 255
-0.018488899 0.70300001 -0.018488899 1.4901098e-38 305 255
-0.017207211 0.70099998 -0.018436298 1.4900382e-38 306 255
-0.015978126 0.70099998 -0.018436298 1.4900382e-38 307 255
-0.014727999 0.69999999 -0.018409999 1.4900382e-38 308 255
-0.013500666 0.69999999 -0.018409999 1.4900382e-38 309 255
-0.012273333 0.69999999 -0.018409999 1.4533393e-38 310 255
-0.01101444 0.69800001 -0.0183574 1.4533393e-38 311 255
-0.0097906133 0.69800001 -0.0183574 1.4440842e-38 312 255
-0.0085545136 0.69700003 -0.018331099 1.4440842e-38 313 255
-0.00733244 0.69700003 -0.018331099 1.4258253e-38 314 255
-0.0061103669 0.69700003 -0.018331099 1.4258253e-38 315 255
-0.0048882933 0.69700003 -0.018331099 1.4257532e-38 316 255
-0.0036609597 0.69599998 -0.018304799 1.4257532e-38 317 255
-0.0024406398 0.69599998 -0.018304799 1.2138138e-38 318 255
-0.0012203199 0.69599998 -0.018304799 1.0571173e-38 319 255
0 0.69599998 -0.018304799 3.9525431e-39 320 255
0.0012168133 0.69400001 -0.0182522 3.3071737e-39 321 255
0.0024336267 0.69400001 -0.0182522 7.3587311e-39 322 255
0.0036504399 0.69400001 -0.0182522 9.7561762e-39 323 255
0.00486024 0.69300002 -0.018225901 1.3799442e-38 324 255
0.0060753003 0.69300002 -0.018225901 1.361505e-38 325 255
0.0072693196 0.69099998 -0.0181733 1.4258248e-38 326 255
0.008480873 0.69099998 -0.0181733 1.4258248e-38 327 255
0.0096783992 0.69 -0.018146999 1.4350081e-38 328 255
0.010888199 0.69 -0.018146999 1.4442278e-38 329 255
0.012062933 0.68800002 -0.0180944 1.4808903e-38 330 255
0.013269227 0.68800002 -0.0180944 1.4808903e-38 331 255
0.014475521 0.68800002 -0.0180944 1.4900735e-38 332 255
0.015681813 0.68800002 -0.0180944 1.4992931e-38 333 255
0.016888106 0.68800002 -0.0180944 1.4992931e-38 334 255
0.0180944 0.68800002 -0.0180944 1.5176962e-38 335 255
0.019300694 0.68800002 -0.0180944 1.5176246e-38 336 255
0.020477179 0.68699998 -0.018068098 1.5268442e-38 337 255
0.021681719 0.68699998 -0.018068098 1.5543949e-38 338 255
0.022886258 0.68699998 -0.018068098 1.5543949e-38 339 255
0.024090799 0.68699998 -0.018068098 1.5361356e-38 340 255
0.025295338 0.68699998 -0.018068098 1.5361356e-38 341 255
0.026499879 0.68699998 -0.018068098 1.5453552e-38 342 255
0.027664091 0.68599999 -0.018041799 1.5453552e-38 343 255
0.02886688 0.68599999 -0.018041799 1.563722e-38 344 255
0.030069664 0.68599999 -0.018041799 1.5545024e-38 345 255
0.031272452 0.68599999 -0.018041799 1.5545021e-38 346 255
0.032475237 0.68599999 -0.018041799 1.5545021e-38 347 255
0.033678025 0.68599999 -0.018041799 1.5269514e-38 348 255
0.034880809 0.68599999 -0.018041799 1.5177318e-38 349 255
0.036083598 0.68599999 -0.018041799 1.4901101e-38 350 255
0.037286382 0.68599999 -0.018041799 1.4808905e-38 351 255
0.038545277 0.68699998 -0.018068098 1.4532677e-38 352 255
0.039691959 0.68599999 -0.018041799 1.4532677e-38 353 255
0.040894743 0.68599999 -0.018041799 1.3889122e-38 354 255
0.042097531 0.68599999 -0.018041799 1.3612177e-38 355 255
0.043300316 0.68599999 -0.018041799 9.0135917e-39 356 255
0.044567976 0.68699998 -0.018068098 5.0509733e-39 357 255
0.04617228 0.69300002 -0.018225901 5.9869748e-39 358 255
0.047729239 0.69800001 -0.0183574 9.2138219e-39 359 255
0.048953064 0.69800001 -0.0183574 1.297906e-38 360 255
0.050320663 0.69999999 -0.018409999 1.2886865e-38 361 255
0.051400717 0.69800001 -0.0183574 1.3894524e-38 362 255
0.052624546 0.69800001 -0.0183574 1.3710492e-38 363 255
0.054002665 0.69999999 -0.018409999 1.3618294e-38 364 255
0.055308893 0.70099998 -0.018436298 1.3618294e-38 365 255
0.056779943 0.704 -0.018515198 1.3159836e-38 366 255
0.058179103 0.70599997 -0.018567799 1.2514467e-38 367 255
0.059585281 0.708 -0.0186204 1.0487978e-38 368 255
0.060826641 0.708 -0.0186204 9.8426083e-39 369 255
0.06373366 0.727 -0.019120099 1.0585931e-38 370 255
0.065008335 0.727 -0.019120099 1.2061061e-38 371 255
0.066374183 0.72799999 -0.0191464 1.3435717e-38 372 255
0.067650609 0.72799999 -0.0191464 1.3527913e-38 373 255
0.068927035 0.72799999 -0.0191464 1.2973316e-38 374 255
0.070203468 0.72799999 -0.0191464 1.3802717e-38 375 255
0.071479887 0.72799999 -0.0191464 1.391472e-38 376 255
0.072756313 0.72799999 -0.0191464 1.8063882e-38 377 255
-0.037345998 0.70999998 -0.019917866 1.5489254e-38 290 256
-0.036101133 0.70999998 -0.019917866 1.051105e-38 291 256
-0.034905359 0.71100003 -0.01994592 1.1781606e-38 292 256
-0.033658739 0.71100003 -0.01994592 1.1965997e-38 293 256
-0.032412119 0.71100003 -0.01994592 1.4074587e-38 294 256
-0.031165501 0.71100003 -0.01994592 1.398239e-38 295 256
-0.029876797 0.70999998 -0.019917866 1.3981318e-38 296 256
-0.028631933 0.70999998 -0.019917866 1.3889122e-38 297 256
-0.027309919 0.708 -0.01986176 1.3889839e-38 298 256
-0.02603174 0.70700002 -0.019833706 1.3889839e-38 299 256
-0.024757065 0.70599997 -0.019805651 1.4166055e-38 300 256
-0.023452586 0.704 -0.019749546 1.4258253e-38 301 256
-0.022218239 0.704 -0.019749546 1.4626312e-38 302 256
-0.020983893 0.704 -0.019749546 1.4626312e-38 303 256
-0.019749546 0.704 -0.019749546 1.4808905e-38 304 256
-0.018488899 0.70300001 -0.019721493 1.4808905e-38 305 256
-0.017256306 0.70300001 -0.019721493 1.4625593e-38 306 256
-0.015978126 0.70099998 -0.019665385 1.4717789e-38 307 256
-0.014749039 0.70099998 -0.019665385 1.4624873e-38 308 256
-0.013500666 0.69999999 -0.019637333 1.4624873e-38 309 256
-0.012273333 0.69999999 -0.019637333 1.4532321e-38 310 256
-0.01101444 0.69800001 -0.019581227 1.4532321e-38 311 256
-0.0097906133 0.69800001 -0.019581227 1.4257532e-38 312 256
-0.0085545136 0.69700003 -0.019553173 1.4257532e-38 313 256
-0.00733244 0.69700003 -0.019553173 1.3982384e-38 314 256
-0.0061103669 0.69700003 -0.019553173 1.3982384e-38 315 256
-0.0048882933 0.69700003 -0.019553173 1.3982022e-38 316 256
-0.0036609597 0.69599998 -0.019525118 1.3982022e-38 317 256
-0.0024406398 0.69599998 -0.019525118 1.1770435e-38 318 256
-0.0012168133 0.69400001 -0.019469013 9.9265223e-39 319 256
0 0.69400001 -0.019469013 3.5844836e-39 320 256
0.0012168133 0.69400001 -0.019469013 3.3075366e-39 321 256
0.0024336267 0.69400001 -0.019469013 7.8182701e-39 322 256
0.0036451798 0.69300002 -0.01944096 1.0215357e-38 323 256
0.00486024 0.69300002 -0.01944096 1.3891638e-38 324 256
0.0060753003 0.69300002 -0.01944096 1.3707245e-38 325 256
0.0072693196 0.69099998 -0.019384852 1.41657e-38 326 256
0.008480873 0.69099998 -0.019384852 1.41657e-38 327 256
0.0096783992 0.69 -0.019356798 1.4440847e-38 328 256
0.010888199 0.69 -0.019356798 1.4440847e-38 329 256
0.012062933 0.68800002 -0.019300694 1.4533037e-38 330 256
0.013269227 0.68800002 -0.019300694 1.4533037e-38 331 256
0.014475521 0.68800002 -0.019300694 1.4808185e-38 332 256
0.015681813 0.68800002 -0.019300694 1.4992578e-38 333 256
0.016888106 0.68800002 -0.019300694 1.4901104e-38 334 256
0.018068098 0.68699998 -0.019272638 1.4901104e-38 335 256
0.019272638 0.68699998 -0.019272638 1.4900385e-38 336 256
0.020477179 0.68699998 -0.019272638 1.4900385e-38 337 256
0.021681719 0.68699998 -0.019272638 1.5359205e-38 338 256
0.022886258 0.68699998 -0.019272638 1.5359205e-38 339 256
0.024090799 0.68699998 -0.019272638 1.5268807e-38 340 256
0.025295338 0.68699998 -0.019272638 1.5268807e-38 341 256
0.026499879 0.68699998 -0.019272638 1.5085495e-38 342 256
0.027664091 0.68599999 -0.019244585 1.5177691e-38 343 256
0.02886688 0.68599999 -0.019244585 1.526916e-38 344 256
0.030069664 0.68599999 -0.019244585 1.5361356e-38 345 256
0.031272452 0.68599999 -0.019244585 1.5361709e-38 346 256
0.032475237 0.68599999 -0.019244585 1.5269514e-38 347 256
0.033678025 0.68599999 -0.019244585 1.5269158e-38 348 256
0.034880809 0.68599999 -0.019244585 1.5176962e-38 349 256
0.036083598 0.68599999 -0.019244585 1.4992578e-38 350 256
0.037286382 0.68599999 -0.019244585 1.4992578e-38 351 256
0.03848917 0.68599999 -0.019244585 1.4625593e-38 352 256
0.039691959 0.68599999 -0.019244585 1.4533037e-38 353 256
0.040894743 0.68599999 -0.019244585 1.3797287e-38 354 256
0.042097531 0.68599999 -0.019244585 1.2967886e-38 355 256
0.043300316 0.68599999 -0.019244585 8.0927116e-39 356 256
0.044567976 0.68699998 -0.019272638 4.7754626e-39 357 256
0.045772515 0.68699998 -0.019272638 5.9862518e-39 358 256
0.047729239 0.69800001 -0.019581227 8.659925e-39 359 256
0.048882935 0.69700003 -0.019553173 1.297906e-38 360 256
0.050105009 0.69700003 -0.019553173 1.2886865e-38 361 256
0.051400717 0.69800001 -0.019581227 1.3710492e-38 362 256
0.052624546 0.69800001 -0.019581227 1.3618296e-38 363 256
0.053848371 0.69800001 -0.019581227 1.3526814e-38 364 256
0.055229999 0.69999999 -0.019637333 1.3526814e-38 365 256
0.056779943 0.704 -0.019749546 1.3342786e-38 366 256
0.058179103 0.70599997 -0.019805651 1.306584e-38 367 256
0.059585281 0.708 -0.01986176 1.1131548e-38 368 256
0.060826641 0.708 -0.01986176 9.840809e-39 369 256
0.063558333 0.72500002 -0.020338668 9.7590475e-39 370 256
0.064829499 0.72500002 -0.020338668 1.1695156e-38 371 256
0.06628301 0.727 -0.020394772 1.343572e-38 372 256
0.067650609 0.72799999 -0.020422826 1.343572e-38 373 256
0.068927035 0.72799999 -0.020422826 1.3157704e-38 374 256
0.070203468 0.72799999 -0.020422826 1.3434292e-38 375 256
0.071479887 0.72799999 -0.020422826 1.3727445e-38 376 256
0.072956197 0.73000002 -0.020478934 1.8337226e-38 377 256
-0.037345998 0.70999998 -0.021162732 1.2634436e-38 290 257
-0.036101133 0.70999998 -0.021162732 4.5208607e-39 291 257
-0.034905359 0.71100003 -0.021192541 9.1133432e-39 292 257
-0.033658739 0.71100003 -0.021192541 1.0496278e-38 293 257
-0.032412119 0.71100003 -0.021192541 1.361398e-38 294 257
-0.031165501 0.71100003 -0.021192541 1.3521426e-38 295 257
-0.029876797 0.70999998 -0.021162732 1.3704378e-38 296 257
-0.028631933 0.70999998 -0.021162732 1.3796574e-38 297 257
-0.027387066 0.70999998 -0.021162732 1.3797996e-38 298 257
-0.02603174 0.70700002 -0.021073313 1.3890192e-38 299 257
-0.024757065 0.70599997 -0.021043506 1.4258604e-38 300 257
-0.023452586 0.704 -0.020983893 1.4258604e-38 301 257
-0.022218239 0.704 -0.020983893 1.462559e-38 302 257
-0.020983893 0.704 -0.020983893 1.462559e-38 303 257
-0.019721493 0.70300001 -0.020954086 1.4624873e-38 304 257
-0.018488899 0.70300001 -0.020954086 1.4624873e-38 305 257
-0.017256306 0.70300001 -0.020954086 1.4533042e-38 306 257
-0.015978126 0.70099998 -0.020894472 1.4533042e-38 307 257
-0.014749039 0.70099998 -0.020894472 1.4533042e-38 308 257
-0.013500666 0.69999999 -0.020864666 1.4440845e-38 309 257
-0.012273333 0.69999999 -0.020864666 1.4257532e-38 310 257
-0.01101444 0.69800001 -0.020805053 1.4257532e-38 311 257
-0.0097906133 0.69800001 -0.020805053 1.4257532e-38 312 257
-0.0085667865 0.69800001 -0.020805053 1.4257532e-38 313 257
-0.00733244 0.69700003 -0.020775247 1.3981668e-38 314 257
-0.0061103669 0.69700003 -0.020775247 1.3889473e-38 315 257
-0.0048882933 0.69700003 -0.020775247 1.3889826e-38 316 257
-0.0036609597 0.69599998 -0.020745439 1.3797272e-38 317 257
-0.0024406398 0.69599998 -0.020745439 1.1310532e-38 318 257
-0.0012168133 0.69400001 -0.020685827 9.0056422e-39 319 257
0 0.69400001 -0.020685827 3.1249404e-39 320 257
0.0012168133 0.69400001 -0.020685827 3.1249404e-39 321 257
0.00243012 0.69300002 -0.020656019 8.0941311e-39 322 257
0.0036451798 0.69300002 -0.020656019 1.0214989e-38 323 257
0.00486024 0.69300002 -0.020656019 1.3708679e-38 324 257
0.0060753003 0.69300002 -0.020656019 1.3431732e-38 325 257
0.0072693196 0.69099998 -0.020596405 1.4072782e-38 326 257
0.008480873 0.69099998 -0.020596405 1.4165337e-38 327 257
0.0096783992 0.69 -0.020566599 1.4440847e-38 328 257
0.010888199 0.69 -0.020566599 1.4440847e-38 329 257
0.012062933 0.68800002 -0.020506985 1.4532321e-38 330 257
0.013269227 0.68800002 -0.020506985 1.4532321e-38 331 257
0.014475521 0.68800002 -0.020506985 1.4807831e-38 332 257
0.015681813 0.68800002 -0.020506985 1.4807831e-38 333 257
0.01686356 0.68699998 -0.020477179 1.4624521e-38 334 257
0.018068098 0.68699998 -0.020477179 1.4624521e-38 335 257
0.019272638 0.68699998 -0.020477179 1.4807833e-38 336 257
0.020477179 0.68699998 -0.020477179 1.4807833e-38 337 257
0.021681719 0.68699998 -0.020477179 1.5083341e-38 338 257
0.022886258 0.68699998 -0.020477179 1.5175896e-38 339 257
0.024090799 0.68699998 -0.020477179 1.4900748e-38 340 257
0.025295338 0.68699998 -0.020477179 1.4900748e-38 341 257
0.026499879 0.68699998 -0.020477179 1.4901101e-38 342 257
0.027664091 0.68599999 -0.020447372 1.5085492e-38 343 257
0.02886688 0.68599999 -0.020447372 1.5085845e-38 344 257
0.030069664 0.68599999 -0.020447372 1.5085845e-38 345 257
0.031272452 0.68599999 -0.020447372 1.5086201e-38 346 257
0.032475237 0.68599999 -0.020447372 1.5178397e-38 347 257
0.033678025 0.68599999 -0.020447372 1.5178397e-38 348 257
0.034880809 0.68599999 -0.020447372 1.5086201e-38 349 257
0.036083598 0.68599999 -0.020447372 1.5269158e-38 350 257
0.037286382 0.68599999 -0.020447372 1.5361353e-38 351 257
0.03848917 0.68599999 -0.020447372 1.4809984e-38 352 257
0.039691959 0.68599999 -0.020447372 1.4717789e-38 353 257
0.040894743 0.68599999 -0.020447372 1.4257182e-38 354 257
0.042097531 0.68599999 -0.020447372 1.3150836e-38 355 257
0.043300316 0.68599999 -0.020447372 7.9086707e-39 356 257
0.044567976 0.68699998 -0.020477179 5.0509635e-39 357 257
0.045839146 0.68800002 -0.020506985 5.9855259e-39 358 257
0.047250576 0.69099998 -0.020596405 8.4748079e-39 359 257
0.048882935 0.69700003 -0.020775247 1.2886143e-38 360 257
0.050105009 0.69700003 -0.020775247 1.2793947e-38 361 257
0.051400717 0.69800001 -0.020805053 1.3618296e-38 362 257
0.052624546 0.69800001 -0.020805053 1.3618296e-38 363 257
0.053848371 0.69800001 -0.020805053 1.3526095e-38 364 257
0.055229999 0.69999999 -0.020864666 1.3526095e-38 365 257
0.056537982 0.70099998 -0.020894472 1.3251293e-38 366 257
0.058014292 0.704 -0.020983893 1.2974346e-38 367 257
0.059585281 0.708 -0.021103119 1.1683257e-38 368 257
0.060998458 0.70999998 -0.021162732 9.6549534e-39 369 257
0.063295327 0.722 -0.021520413 8.8399582e-39 370 257
0.064561233 0.722 -0.021520413 1.114485e-38 371 257
0.066100664 0.72500002 -0.021609833 1.3343517e-38 372 257
0.067557678 0.727 -0.021669446 1.3435714e-38 373 257
0.06883236 0.727 -0.021669446 1.306694e-38 374 257
0.070107035 0.727 -0.021669446 1.3343168e-38 375 257
0.071381703 0.727 -0.021669446 1.372564e-38 376 257
0.072956197 0.73000002 -0.021758866 1.8520171e-38 377 257
-0.036101133 0.70999998 -0.022407599 4.7027576e-42 291 258
-0.034905359 0.71100003 -0.022439159 7.457419e-39 292 258
-0.033658739 0.71100003 -0.022439159 1.0038538e-38 293 258
-0.032366529 0.70999998 -0.022407599 1.3521429e-38 294 258
-0.031121666 0.70999998 -0.022407599 1.3521429e-38 295 258
-0.029876797 0.70999998 -0.022407599 1.3521779e-38 296 258
-0.028631933 0.70999998 -0.022407599 1.3429583e-38 297 258
-0.027309919 0.708 -0.022344479 1.3706874e-38 298 258
-0.02603174 0.70700002 -0.022312919 1.3799428e-38 299 258
-0.024757065 0.70599997 -0.022281358 1.4350796e-38 300 258
-0.023452586 0.704 -0.022218239 1.4350796e-38 301 258
-0.022218239 0.704 -0.022218239 1.4625587e-38 302 258
-0.020983893 0.704 -0.022218239 1.4625587e-38 303 258
-0.019721493 0.70300001 -0.02218668 1.4624518e-38 304 258
-0.018488899 0.70300001 -0.02218668 1.4532321e-38 305 258
-0.017207211 0.70099998 -0.022123558 1.4440847e-38 306 258
-0.015978126 0.70099998 -0.022123558 1.4440847e-38 307 258
-0.014749039 0.70099998 -0.022123558 1.4257532e-38 308 258
-0.013500666 0.69999999 -0.022091998 1.4257532e-38 309 258
-0.012273333 0.69999999 -0.022091998 1.4166053e-38 310 258
-0.01101444 0.69800001 -0.02202888 1.4166053e-38 311 258
-0.0097906133 0.69800001 -0.02202888 1.3981668e-38 312 258
-0.0085667865 0.69800001 -0.02202888 1.3981668e-38 313 258
-0.0073429602 0.69800001 -0.02202888 1.3889117e-38 314 258
-0.0061103669 0.69700003 -0.02199732 1.3889117e-38 315 258
-0.0048882933 0.69700003 -0.02199732 1.3889473e-38 316 258
-0.00366622 0.69700003 -0.02199732 1.3981668e-38 317 258
-0.0024406398 0.69599998 -0.021965759 1.1126866e-38 318 258
-0.0012168133 0.69400001 -0.021902639 8.2684429e-39 319 258
0 0.69300002 -0.021871079 2.8501486e-39 320 258
0.00121506 0.69300002 -0.021871079 3.0349e-39 321 258
0.00243012 0.69300002 -0.021871079 8.1874016e-39 322 258
0.0036451798 0.69300002 -0.021871079 9.9394787e-39 323 258
0.00486024 0.69300002 -0.021871079 1.3707598e-38 324 258
0.0060753003 0.69300002 -0.021871079 1.3431013e-38 325 258
0.0072903596 0.69300002 -0.021871079 1.4164615e-38 326 258
0.0085054198 0.69300002 -0.021871079 1.4164615e-38 327 258
0.0096924258 0.69099998 -0.021807959 1.4164618e-38 328 258
0.010888199 0.69 -0.021776399 1.4348649e-38 329 258
0.012097999 0.69 -0.021776399 1.4440126e-38 330 258
0.013269227 0.68800002 -0.021713281 1.4532321e-38 331 258
0.014475521 0.68800002 -0.021713281 1.4715634e-38 332 258
0.015681813 0.68800002 -0.021713281 1.4715634e-38 333 258
0.01686356 0.68699998 -0.021681719 1.4715636e-38 334 258
0.018068098 0.68699998 -0.021681719 1.4715636e-38 335 258
0.019272638 0.68699998 -0.021681719 1.4715636e-38 336 258
0.020477179 0.68699998 -0.021681719 1.4715636e-38 337 258
0.021681719 0.68699998 -0.021681719 1.4807833e-38 338 258
0.022852944 0.68599999 -0.021650158 1.4900029e-38 339 258
0.024055731 0.68599999 -0.021650158 1.4808552e-38 340 258
0.025295338 0.68699998 -0.021681719 1.4808552e-38 341 258
0.026499879 0.68699998 -0.021681719 1.4900382e-38 342 258
0.027664091 0.68599999 -0.021650158 1.5176609e-38 343 258
0.02886688 0.68599999 -0.021650158 1.5176962e-38 344 258
0.030069664 0.68599999 -0.021650158 1.5176962e-38 345 258
0.031272452 0.68599999 -0.021650158 1.5176962e-38 346 258
0.032380559 0.68400002 -0.02158704 1.5269158e-38 347 258
0.033579841 0.68400002 -0.02158704 1.5269158e-38 348 258
