# .PCD v.7 - Point Cloud Data file format
FIELDS x y z rgb imX imY
SIZE 4 4 4 4 4 4
TYPE F F F F F F
COUNT 1 1 1 1 1 1
WIDTH 839
HEIGHT 1
VIEWPOINT 0 0 0 1 0 0 0
POINTS 839
DATA ascii
0.0025212932 0.71899998 -0.013867113 1.3804114e-38 322 251
0.0037819401 0.71899998 -0.013867113 1.684621e-38 323 251
0.0050496003 0.72000003 -0.0138864 1.8316661e-38 324 251
0.0063295332 0.722 -0.013924973 1.7579096e-38 325 251
0.0075954394 0.722 -0.013924973 1.7756628e-38 326 251
0.0088613462 0.722 -0.013924973 1.6558085e-38 327 251
0.010127253 0.722 -0.013924973 1.535882e-38 328 251
0.01140894 0.72299999 -0.01394426 1.1578447e-38 329 251
0.012676599 0.72299999 -0.01394426 1.0852406e-38 330 251
0.013982833 0.72500002 -0.013982833 1.2604122e-38 331 251
0.015254001 0.72500002 -0.013982833 1.213852e-38 332 251
0.016525166 0.72500002 -0.013982833 1.6656105e-38 333 251
-0.0075112795 0.71399999 -0.015022559 1.7206698e-38 314 252
-0.0062593995 0.71399999 -0.015022559 1.7206698e-38 315 252
-0.0050075199 0.71399999 -0.015022559 1.7389269e-38 316 252
-0.0037714199 0.71700001 -0.015085679 1.6928291e-38 317 252
-0.0025142799 0.71700001 -0.015085679 1.7659389e-38 318 252
-0.00125714 0.71700001 -0.015085679 1.7751943e-38 319 252
0 0.71899998 -0.01512776 1.545748e-38 320 252
0.0012606466 0.71899998 -0.01512776 1.2415024e-38 321 252
0.0025212932 0.71899998 -0.01512776 1.2697035e-38 322 252
0.0037819401 0.71899998 -0.01512776 1.5923882e-38 323 252
0.0050425865 0.71899998 -0.01512776 1.8131914e-38 324 252
0.0063120001 0.72000003 -0.0151488 1.6380197e-38 325 252
0.0075743999 0.72000003 -0.0151488 1.7291681e-38 326 252
0.0088367993 0.72000003 -0.0151488 1.5816551e-38 327 252
0.010127253 0.722 -0.015190879 1.5260847e-38 328 252
0.01139316 0.722 -0.015190879 1.3140009e-38 329 252
0.012676599 0.72299999 -0.015211919 1.1585629e-38 330 252
0.01394426 0.72299999 -0.015211919 1.3798684e-38 331 252
0.015254001 0.72500002 -0.015254001 1.1489901e-38 332 252
0.017796334 0.72500002 -0.015254001 1.4287464e-38 334 252
-0.0075007593 0.713 -0.016251646 1.591813e-38 314 253
-0.0062506334 0.713 -0.016251646 1.6839726e-38 315 253
-0.0050005065 0.713 -0.016251646 1.7481111e-38 316 253
-0.00376616 0.71600002 -0.016320027 1.6835742e-38 317 253
-0.0025107733 0.71600002 -0.016320027 1.6919306e-38 318 253
-0.0012553866 0.71600002 -0.016320027 1.7288447e-38 319 253
0 0.71700001 -0.016342819 1.6839357e-38 320 253
0.00125714 0.71700001 -0.016342819 1.2967141e-38 321 253
0.0025142799 0.71700001 -0.016342819 1.0471044e-38 322 253
0.0037714199 0.71700001 -0.016342819 1.3882283e-38 323 253
0.0050425865 0.71899998 -0.016388407 1.6093883e-38 324 253
0.0063032326 0.71899998 -0.016388407 1.507973e-38 325 253
0.0075743999 0.72000003 -0.0164112 1.6546916e-38 326 253
0.0088367993 0.72000003 -0.0164112 1.6546916e-38 327 253
0.010099201 0.72000003 -0.0164112 1.5447406e-38 328 253
0.011361601 0.72000003 -0.0164112 1.4893872e-38 329 253
0.012676599 0.72299999 -0.01647958 1.2045185e-38 330 253
0.01394426 0.72299999 -0.01647958 1.1952989e-38 331 253
0.015254001 0.72500002 -0.016525166 9.7468001e-39 332 253
0.016525166 0.72500002 -0.016525166 9.0092337e-39 333 253
-0.0099729598 0.71100003 -0.01745268 6.9042031e-39 312 254
-0.0087263398 0.71100003 -0.01745268 1.077642e-38 313 254
-0.0074797203 0.71100003 -0.01745268 1.6282966e-38 314 254
-0.0062330998 0.71100003 -0.01745268 1.6928336e-38 315 254
-0.0049864799 0.71100003 -0.01745268 1.7017269e-38 316 254
-0.0037503797 0.713 -0.017501773 1.63719e-38 317 254
-0.0025002533 0.713 -0.017501773 1.6918234e-38 318 254
-0.0012501266 0.713 -0.017501773 1.7010788e-38 319 254
0 0.713 -0.017501773 1.6371918e-38 320 254
0.0012553866 0.71600002 -0.017575413 1.4620201e-38 321 254
0.0025107733 0.71600002 -0.017575413 1.0561082e-38 322 254
0.00376616 0.71600002 -0.017575413 1.2859502e-38 323 254
0.0050285598 0.71700001 -0.017599959 1.5539265e-38 324 254
0.0063032326 0.71899998 -0.017649053 1.5262677e-38 325 254
0.0075638802 0.71899998 -0.017649053 1.608775e-38 326 254
0.0088245263 0.71899998 -0.017649053 1.5995554e-38 327 254
0.010085173 0.71899998 -0.017649053 1.5535299e-38 328 254
0.01134582 0.71899998 -0.017649053 1.5258711e-38 329 254
0.012624 0.72000003 -0.017673599 1.3240138e-38 330 254
0.01394426 0.72299999 -0.017747238 1.1949399e-38 331 254
0.015211919 0.72299999 -0.017747238 1.0485419e-38 332 254
0.01647958 0.72299999 -0.017747238 9.9322452e-39 333 254
-0.025248 0.72000003 -0.018935999 1.5264123e-38 300 255
-0.023952285 0.71899998 -0.018909698 1.507973e-38 301 255
-0.02262852 0.71700001 -0.018857099 1.5445996e-38 302 255
-0.021341572 0.71600002 -0.0188308 1.7566137e-38 303 255
-0.020086186 0.71600002 -0.0188308 1.7126038e-38 304 255
-0.0099729598 0.71100003 -0.0186993 5.5162282e-39 312 255
-0.0087140659 0.70999998 -0.018672999 1.1324553e-38 313 255
-0.0074691991 0.70999998 -0.018672999 1.7206718e-38 314 255
-0.0062243328 0.70999998 -0.018672999 1.6561348e-38 315 255
-0.0049864799 0.71100003 -0.0186993 1.701547e-38 316 255
-0.0037398601 0.71100003 -0.0186993 1.63701e-38 317 255
-0.0024932399 0.71100003 -0.0186993 1.6916434e-38 318 255
-0.00124662 0.71100003 -0.0186993 1.6548012e-38 319 255
0 0.71100003 -0.0186993 1.6089921e-38 320 255
0.00124662 0.71100003 -0.0186993 1.5167963e-38 321 255
0.0025037599 0.71399999 -0.018778199 1.1387602e-38 322 255
0.0037556398 0.71399999 -0.018778199 1.2860202e-38 323 255
0.0050215465 0.71600002 -0.0188308 1.5081164e-38 324 255
0.0062769335 0.71600002 -0.0188308 1.4712021e-38 325 255
0.0075428397 0.71700001 -0.018857099 1.5903724e-38 326 255
0.0087999795 0.71700001 -0.018857099 1.5627498e-38 327 255
0.01005712 0.71700001 -0.018857099 1.544203e-38 328 255
0.01131426 0.71700001 -0.018857099 1.5534226e-38 329 255
0.0125714 0.71700001 -0.018857099 1.4344315e-38 330 255
0.01394426 0.72299999 -0.019014901 1.2500402e-38 331 255
0.015211919 0.72299999 -0.019014901 1.1771475e-38 332 255
0.01647958 0.72299999 -0.019014901 1.2693071e-38 333 255
-0.025212931 0.71899998 -0.020170346 1.4988981e-38 300 256
-0.023852346 0.71600002 -0.020086186 1.415922e-38 301 256
-0.022533838 0.71399999 -0.020030079 1.3237269e-38 302 256
-0.021252153 0.713 -0.020002026 1.5265573e-38 303 256
-0.01994592 0.71100003 -0.01994592 1.7126043e-38 304 256
-0.0186993 0.71100003 -0.01994592 1.657287e-38 305 256
-0.017428132 0.70999998 -0.019917866 1.6548012e-38 306 256
-0.016183265 0.70999998 -0.019917866 1.5810447e-38 307 256
-0.014938398 0.70999998 -0.019917866 1.6548339e-38 308 256
-0.013693533 0.70999998 -0.019917866 1.8576642e-38 309 256
-0.012448666 0.70999998 -0.019917866 1.9048457e-38 310 256
-0.0099589331 0.70999998 -0.019917866 5.9721771e-39 312 256
-0.0087140659 0.70999998 -0.019917866 1.2057082e-38 313 256
-0.0074481601 0.708 -0.01986176 1.6837212e-38 314 256
-0.0062067998 0.708 -0.01986176 1.582306e-38 315 256
-0.0049794666 0.70999998 -0.019917866 1.6738524e-38 316 256
-0.0037345996 0.70999998 -0.019917866 1.6277905e-38 317 256
-0.0024897333 0.70999998 -0.019917866 1.6549094e-38 318 256
-0.0012448666 0.70999998 -0.019917866 1.6272867e-38 319 256
0 0.71100003 -0.01994592 1.5905512e-38 320 256
0.00124662 0.71100003 -0.01994592 1.5260143e-38 321 256
0.0025002533 0.713 -0.020002026 1.1575219e-38 322 256
0.0037503797 0.713 -0.020002026 1.2773392e-38 323 256
0.0050005065 0.713 -0.020002026 1.4531946e-38 324 256
0.0062506334 0.713 -0.020002026 1.4347915e-38 325 256
0.0075112795 0.71399999 -0.020030079 1.5264107e-38 326 256
0.0087877065 0.71600002 -0.020086186 1.4894965e-38 327 256
0.01001504 0.71399999 -0.020030079 1.5259434e-38 328 256
0.011266919 0.71399999 -0.020030079 1.5167238e-38 329 256
0.012501267 0.713 -0.020002026 1.5170829e-38 330 256
0.013751393 0.713 -0.020002026 1.5263024e-38 331 256
0.015001519 0.713 -0.020002026 1.3421279e-38 332 256
0.017599959 0.71700001 -0.020114239 1.3240501e-38 334 256
0.018857099 0.71700001 -0.020114239 1.2595131e-38 335 256
-0.025212931 0.71899998 -0.021430992 1.4528721e-38 300 257
-0.023752406 0.713 -0.021252153 1.3422734e-38 301 257
-0.022502279 0.713 -0.021252153 1.249718e-38 302 257
-0.021192541 0.71100003 -0.021192541 1.3603528e-38 303 257
-0.019917866 0.70999998 -0.021162732 1.6843329e-38 304 257
-0.018672999 0.70999998 -0.021162732 1.8686883e-38 305 257
-0.017428132 0.70999998 -0.021162732 1.8022413e-38 306 257
-0.016183265 0.70999998 -0.021162732 1.5809717e-38 307 257
-0.014938398 0.70999998 -0.021162732 1.6453999e-38 308 257
-0.013654959 0.708 -0.021103119 1.8390107e-38 309 257
-0.0124136 0.708 -0.021103119 1.8221594e-38 310 257
-0.01117224 0.708 -0.021103119 1.3980236e-38 311 257
-0.0099168532 0.70700002 -0.021073313 6.0658119e-39 312 257
-0.008677247 0.70700002 -0.021073313 1.1874137e-38 313 257
-0.0074376399 0.70700002 -0.021073313 1.6559549e-38 314 257
-0.0061980332 0.70700002 -0.021073313 1.5545398e-38 315 257
-0.0049584266 0.70700002 -0.021073313 1.655414e-38 316 257
-0.00372408 0.708 -0.021103119 1.6185356e-38 317 257
-0.0024897333 0.70999998 -0.021162732 1.6367207e-38 318 257
-0.0012448666 0.70999998 -0.021162732 1.6090621e-38 319 257
0 0.70999998 -0.021162732 1.6089525e-38 320 257
0.0012448666 0.70999998 -0.021162732 1.5628907e-38 321 257
0.0024897333 0.70999998 -0.021162732 1.2406407e-38 322 257
0.0037345996 0.70999998 -0.021162732 1.2867745e-38 323 257
0.0049864799 0.71100003 -0.021192541 1.3799075e-38 324 257
0.0062330998 0.71100003 -0.021192541 1.4167499e-38 325 257
0.0074797203 0.71100003 -0.021192541 1.544887e-38 326 257
0.0087508867 0.713 -0.021252153 1.4711305e-38 327 257
0.010001013 0.713 -0.021252153 1.516761e-38 328 257
0.011251139 0.713 -0.021252153 1.5075414e-38 329 257
0.0124662 0.71100003 -0.021192541 1.5633628e-38 330 257
0.013693533 0.70999998 -0.021162732 1.7846322e-38 331 257
0.014938398 0.70999998 -0.021162732 1.5174797e-38 332 257
0.016183265 0.70999998 -0.021162732 1.0841611e-38 333 257
0.017599959 0.71700001 -0.021371379 1.3332331e-38 334 257
0.018857099 0.71700001 -0.021371379 1.3240135e-38 335 257
0.020114239 0.71700001 -0.021371379 1.1763245e-38 336 257
-0.025037598 0.71399999 -0.022533838 1.41585e-38 300 258
-0.023752406 0.713 -0.022502279 1.332838e-38 301 258
-0.022502279 0.713 -0.022502279 1.3237264e-38 302 258
-0.021192541 0.71100003 -0.022439159 1.415922e-38 303 258
-0.019917866 0.70999998 -0.022407599 1.7387515e-38 304 258
-0.0186204 0.708 -0.022344479 2.0245579e-38 305 258
-0.017379038 0.708 -0.022344479 1.9231036e-38 306 258
-0.01613768 0.708 -0.022344479 1.5266624e-38 307 258
-0.01489632 0.708 -0.022344479 1.6637314e-38 308 258
-0.013635674 0.70700002 -0.022312919 1.7928053e-38 309 258
-0.012378532 0.70599997 -0.022281358 1.6010342e-38 310 258
-0.011109119 0.704 -0.022218239 1.2967886e-38 311 258
-0.0098747732 0.704 -0.022218239 6.163764e-39 312 258
-0.0086404262 0.704 -0.022218239 1.1326719e-38 313 258
-0.0074060797 0.704 -0.022218239 1.6928333e-38 314 258
-0.0061892662 0.70599997 -0.022281358 1.5545398e-38 315 258
-0.0049514128 0.70599997 -0.022281358 1.6554143e-38 316 258
-0.0037135598 0.70599997 -0.022281358 1.6554143e-38 317 258
-0.00248272 0.708 -0.022344479 1.6462652e-38 318 258
-0.00124136 0.708 -0.022344479 1.6093511e-38 319 258
0 0.708 -0.022344479 1.6092419e-38 320 258
0.00124136 0.708 -0.022344479 1.5908028e-38 321 258
0.00248272 0.708 -0.022344479 1.3603878e-38 322 258
0.0037345996 0.70999998 -0.022407599 1.3050705e-38 323 258
0.0049794666 0.70999998 -0.022407599 1.26027e-38 324 258
0.0062243328 0.70999998 -0.022407599 1.407747e-38 325 258
0.0074797203 0.71100003 -0.022439159 1.5448883e-38 326 258
0.0087263398 0.71100003 -0.022439159 1.4619122e-38 327 258
0.0099729598 0.71100003 -0.022439159 1.5074327e-38 328 258
0.01121958 0.71100003 -0.022439159 1.479738e-38 329 258
0.0124662 0.71100003 -0.022439159 1.5632901e-38 330 258
0.013693533 0.70999998 -0.022407599 1.8398771e-38 331 258
0.014938398 0.70999998 -0.022407599 1.674968e-38 332 258
0.01620606 0.71100003 -0.022439159 1.333844e-38 333 258
0.01745268 0.71100003 -0.022439159 1.2592603e-38 334 258
0.018857099 0.71700001 -0.02262852 1.2592603e-38 335 258
0.020170346 0.71899998 -0.022691639 1.2313535e-38 336 258
0.021460801 0.72000003 -0.022723202 1.7568686e-38 337 258
0.025353199 0.72299999 -0.02281788 1.7241309e-38 340 258
-0.026252659 0.713 -0.023752406 1.3241582e-38 299 259
-0.024932399 0.71100003 -0.023685781 1.3970881e-38 300 259
-0.023685781 0.71100003 -0.023685781 1.4247828e-38 301 259
-0.022439159 0.71100003 -0.023685781 1.4068098e-38 302 259
-0.021162732 0.70999998 -0.023652466 1.4252848e-38 303 259
-0.01986176 0.708 -0.023585839 1.6644912e-38 304 259
-0.0186204 0.708 -0.023585839 2.0240541e-38 305 259
-0.017379038 0.708 -0.023585839 1.8867311e-38 306 259
-0.01613768 0.708 -0.023585839 1.637803e-38 307 259
-0.01489632 0.708 -0.023585839 1.7193735e-38 308 259
-0.013635674 0.70700002 -0.023552528 1.6916788e-38 309 259
-0.012343466 0.704 -0.023452586 1.4810706e-38 310 259
-0.011109119 0.704 -0.023452586 1.3427413e-38 311 259
-0.0098747732 0.704 -0.023452586 7.9183593e-39 312 259
-0.0086404262 0.704 -0.023452586 1.0960814e-38 313 259
-0.0074060797 0.704 -0.023452586 1.6835787e-38 314 259
-0.0061892662 0.70599997 -0.023519212 1.5637244e-38 315 259
-0.0049514128 0.70599997 -0.023519212 1.6279366e-38 316 259
-0.0037135598 0.70599997 -0.023519212 1.6463758e-38 317 259
-0.0024757064 0.70599997 -0.023519212 1.6555578e-38 318 259
-0.0012396066 0.70700002 -0.023552528 1.5910208e-38 319 259
0 0.70700002 -0.023552528 1.618499e-38 320 259
0.0012396066 0.70700002 -0.023552528 1.6461217e-38 321 259
0.0024792133 0.70700002 -0.023552528 1.4154528e-38 322 259
0.00372408 0.708 -0.023585839 1.3232932e-38 323 259
0.0049654399 0.708 -0.023585839 1.1958031e-38 324 259
0.0062067998 0.708 -0.023585839 1.3894139e-38 325 259
0.0074691991 0.70999998 -0.023652466 1.5355965e-38 326 259
0.0087140659 0.70999998 -0.023652466 1.4434009e-38 327 259
0.0099729598 0.71100003 -0.023685781 1.5073971e-38 328 259
0.01121958 0.71100003 -0.023685781 1.4612991e-38 329 259
0.012448666 0.70999998 -0.023652466 1.5263754e-38 330 259
0.013693533 0.70999998 -0.023652466 1.7753035e-38 331 259
0.014938398 0.70999998 -0.023652466 1.7302851e-38 332 259
0.01620606 0.71100003 -0.023685781 1.6842231e-38 333 259
0.01745268 0.71100003 -0.023685781 1.259584e-38 334 259
0.018857099 0.71700001 -0.02388566 1.0844123e-38 335 259
0.020170346 0.71899998 -0.023952285 1.1033946e-38 336 259
0.021460801 0.72000003 -0.0239856 1.5828117e-38 337 259
0.022786319 0.722 -0.024052227 1.4749506e-38 338 259
0.024085538 0.72299999 -0.024085538 1.760721e-38 339 259
0.025353199 0.72299999 -0.024085538 1.7424621e-38 340 259
0.026620859 0.72299999 -0.024085538 1.7148034e-38 341 259
-0.026252659 0.713 -0.025002534 1.1217595e-38 299 260
-0.024932399 0.71100003 -0.024932399 1.3783956e-38 300 260
-0.023685781 0.71100003 -0.024932399 1.5074695e-38 301 260
-0.022439159 0.71100003 -0.024932399 1.4621623e-38 302 260
-0.021162732 0.70999998 -0.024897331 1.4437232e-38 303 260
-0.01986176 0.708 -0.024827199 1.544203e-38 304 260
-0.0186204 0.708 -0.024827199 1.5995204e-38 305 260
-0.017354494 0.70700002 -0.024792133 1.655558e-38 306 260
-0.016114887 0.70700002 -0.024792133 1.8307658e-38 307 260
-0.01487528 0.70700002 -0.024792133 1.8032515e-38 308 260
-0.013616386 0.70599997 -0.024757065 1.5727265e-38 309 260
-0.012343466 0.704 -0.024686933 1.3059356e-38 310 260
-0.011109119 0.704 -0.024686933 1.2506182e-38 311 260
-0.0098607466 0.70300001 -0.024651866 9.8454628e-39 312 260
-0.0086281532 0.70300001 -0.024651866 1.1965602e-38 313 260
-0.0073955595 0.70300001 -0.024651866 1.5908426e-38 314 260
-0.0061717331 0.704 -0.024686933 1.5539283e-38 315 260
-0.0049373866 0.704 -0.024686933 1.6091365e-38 316 260
-0.0037030398 0.704 -0.024686933 1.6367952e-38 317 260
-0.0024757064 0.70599997 -0.024757065 1.6643813e-38 318 260
-0.0012378532 0.70599997 -0.024757065 1.6459782e-38 319 260
0 0.70599997 -0.024757065 1.6092069e-38 320 260
0.0012378532 0.70599997 -0.024757065 1.5170112e-38 321 260
0.0024792133 0.70700002 -0.024792133 1.4337831e-38 322 260
0.0037188199 0.70700002 -0.024792133 1.3876853e-38 323 260
0.0049584266 0.70700002 -0.024792133 1.1588175e-38 324 260
0.0062067998 0.708 -0.024827199 1.3708676e-38 325 260
0.0074691991 0.70999998 -0.024897331 1.508011e-38 326 260
0.0087140659 0.70999998 -0.024897331 1.4065598e-38 327 260
0.0099729598 0.71100003 -0.024932399 1.4981048e-38 328 260
0.01121958 0.71100003 -0.024932399 1.4981048e-38 329 260
0.012448666 0.70999998 -0.024897331 1.5449942e-38 330 260
0.013693533 0.70999998 -0.024897331 1.784667e-38 331 260
0.014938398 0.70999998 -0.024897331 1.7393983e-38 332 260
0.01620606 0.71100003 -0.024932399 1.7762405e-38 333 260
0.01745268 0.71100003 -0.024932399 1.3061876e-38 334 260
0.0186993 0.71100003 -0.024932399 9.8350287e-39 335 260
0.020114239 0.71700001 -0.0251428 9.8364902e-39 336 260
0.021460801 0.72000003 -0.025248 1.4446272e-38 337 260
0.022786319 0.722 -0.025318133 1.4104492e-38 338 260
0.024085538 0.72299999 -0.025353199 1.7607566e-38 339 260
0.025353199 0.72299999 -0.025353199 1.7791606e-38 340 260
0.026620859 0.72299999 -0.025353199 1.7330986e-38 341 260
0.02788852 0.72299999 -0.025353199 1.7056557e-38 342 260
-0.026179021 0.71100003 -0.026179021 1.1128283e-38 299 261
-0.024897331 0.70999998 -0.026142199 1.2500402e-38 300 261
-0.023652466 0.70999998 -0.026142199 1.4344315e-38 301 261
-0.022407599 0.70999998 -0.026142199 1.4804923e-38 302 261
-0.021162732 0.70999998 -0.026142199 1.4620173e-38 303 261
-0.01986176 0.708 -0.026068559 1.5809714e-38 304 261
-0.018594101 0.70700002 -0.02603174 1.4795922e-38 305 261
-0.017354494 0.70700002 -0.02603174 1.7106586e-38 306 261
-0.016114887 0.70700002 -0.02603174 1.9319282e-38 307 261
-0.014854239 0.70599997 -0.025994917 1.6652843e-38 308 261
-0.013616386 0.70599997 -0.025994917 1.3794419e-38 309 261
-0.012325933 0.70300001 -0.025884461 8.5507709e-39 310 261
-0.01109334 0.70300001 -0.025884461 8.7355223e-39 311 261
-0.0098607466 0.70300001 -0.025884461 9.7493014e-39 312 261
-0.0086281532 0.70300001 -0.025884461 1.168541e-38 313 261
-0.0073955595 0.70300001 -0.025884461 1.5079011e-38 314 261
-0.0061629666 0.70300001 -0.025884461 1.4894261e-38 315 261
-0.0049303733 0.70300001 -0.025884461 1.5170829e-38 316 261
-0.0037030398 0.704 -0.02592128 1.5263024e-38 317 261
-0.0024686933 0.704 -0.02592128 1.5447759e-38 318 261
-0.0012378532 0.70599997 -0.025994917 1.5723987e-38 319 261
0 0.70599997 -0.025994917 1.5170816e-38 320 261
0.0012378532 0.70599997 -0.025994917 1.4525446e-38 321 261
0.0024757064 0.70599997 -0.025994917 1.4061964e-38 322 261
0.0037188199 0.70700002 -0.02603174 1.2863785e-38 323 261
0.0049584266 0.70700002 -0.02603174 9.0110175e-39 324 261
0.0061980332 0.70700002 -0.02603174 1.1592495e-38 325 261
0.0074481601 0.708 -0.026068559 1.4619853e-38 326 261
0.008689519 0.708 -0.026068559 1.3605343e-38 327 261
0.0099589331 0.70999998 -0.026142199 1.4431125e-38 328 261
0.011203799 0.70999998 -0.026142199 1.4523321e-38 329 261
0.012448666 0.70999998 -0.026142199 1.4805315e-38 330 261
0.013693533 0.70999998 -0.026142199 1.7109846e-38 331 261
0.014938398 0.70999998 -0.026142199 1.7022696e-38 332 261
0.01620606 0.71100003 -0.026179021 1.7575869e-38 333 261
0.01745268 0.71100003 -0.026179021 1.3333798e-38 334 261
0.0186993 0.71100003 -0.026179021 1.075232e-38 335 261
0.020114239 0.71700001 -0.02639994 9.6470613e-39 336 261
0.021460801 0.72000003 -0.026510401 1.4533788e-38 337 261
0.022786319 0.722 -0.026584039 1.4378553e-38 338 261
0.024085538 0.72299999 -0.026620859 1.7881987e-38 339 261
0.025353199 0.72299999 -0.026620859 1.7699766e-38 340 261
0.026620859 0.72299999 -0.026620859 1.7423179e-38 341 261
0.02788852 0.72299999 -0.026620859 1.7056913e-38 342 261
-0.027502786 0.713 -0.027502786 1.4727505e-38 298 262
-0.026179021 0.71100003 -0.027425639 1.1224432e-38 299 262
-0.024897331 0.70999998 -0.027387066 1.2686232e-38 300 262
-0.023652466 0.70999998 -0.027387066 1.4161721e-38 301 262
-0.022407599 0.70999998 -0.027387066 1.4803854e-38 302 262
-0.021162732 0.70999998 -0.027387066 1.4711299e-38 303 262
-0.01986176 0.708 -0.027309919 1.5717891e-38 304 262
-0.018594101 0.70700002 -0.027271347 1.5717891e-38 305 262
-0.017329946 0.70599997 -0.027232772 1.7479339e-38 306 262
-0.016092092 0.70599997 -0.027232772 1.8677882e-38 307 262
-0.014854239 0.70599997 -0.027232772 1.4990798e-38 308 262
-0.013616386 0.70599997 -0.027232772 1.1487364e-38 309 262
-0.012325933 0.70300001 -0.027117053 2.6632294e-39 310 262
-0.01109334 0.70300001 -0.027117053 4.5031679e-39 311 262
-0.0098326923 0.70099998 -0.027039904 1.0205606e-38 312 262
-0.0086036054 0.70099998 -0.027039904 1.1865488e-38 313 262
-0.0073955595 0.70300001 -0.027117053 1.4248176e-38 314 262
-0.0061629666 0.70300001 -0.027117053 1.4340371e-38 315 262
-0.0049303733 0.70300001 -0.027117053 1.4431844e-38 316 262
-0.0037030398 0.704 -0.027155625 1.4063061e-38 317 262
-0.0024686933 0.704 -0.027155625 1.424673e-38 318 262
-0.0012343467 0.704 -0.027155625 1.4338925e-38 319 262
0 0.70599997 -0.027232772 1.4431478e-38 320 262
0.0012378532 0.70599997 -0.027232772 1.4154531e-38 321 262
0.0024757064 0.70599997 -0.027232772 1.387867e-38 322 262
0.0037135598 0.70599997 -0.027232772 1.1942562e-38 323 262
0.0049514128 0.70599997 -0.027232772 5.9700247e-39 324 262
0.0061980332 0.70700002 -0.027271347 9.9344284e-39 325 262
0.0074376399 0.70700002 -0.027271347 1.4159595e-38 326 262
0.008689519 0.708 -0.027309919 1.3145083e-38 327 262
0.0099308798 0.708 -0.027309919 1.4246377e-38 328 262
0.011203799 0.70999998 -0.027387066 1.4246377e-38 329 262
0.012448666 0.70999998 -0.027387066 1.4436529e-38 330 262
0.013693533 0.70999998 -0.027387066 1.6188606e-38 331 262
0.014938398 0.70999998 -0.027387066 1.6649591e-38 332 262
0.016183265 0.70999998 -0.027387066 1.729496e-38 333 262
0.017428132 0.70999998 -0.027387066 1.3331633e-38 334 262
0.0186993 0.71100003 -0.027425639 1.1763948e-38 335 262
0.01994592 0.71100003 -0.027425639 9.3693856e-39 336 262
0.021550218 0.72299999 -0.02788852 1.4532341e-38 337 262
0.02281788 0.72299999 -0.02788852 1.4652976e-38 338 262
0.024085538 0.72299999 -0.02788852 1.8248604e-38 339 262
0.025353199 0.72299999 -0.02788852 1.7516817e-38 340 262
0.026620859 0.72299999 -0.02788852 1.7055838e-38 341 262
0.027965667 0.72500002 -0.027965667 1.6965441e-38 342 262
-0.027502786 0.713 -0.028752912 1.3996061e-38 298 263
-0.026252659 0.713 -0.028752912 1.1598975e-38 299 263
-0.024897331 0.70999998 -0.028631933 1.361035e-38 300 263
-0.023652466 0.70999998 -0.028631933 1.4070968e-38 301 263
-0.022407599 0.70999998 -0.028631933 1.489497e-38 302 263
-0.021103119 0.708 -0.02855128 1.489497e-38 303 263
-0.019833706 0.70700002 -0.028510952 1.5627145e-38 304 263
-0.018515198 0.704 -0.028389972 1.5995926e-38 305 263
-0.017280852 0.704 -0.028389972 1.7204562e-38 306 263
-0.016046507 0.704 -0.028389972 1.7573705e-38 307 263
-0.014812159 0.704 -0.028389972 1.3423478e-38 308 263
-0.013577812 0.704 -0.028389972 1.1210424e-38 309 263
-0.012290866 0.70099998 -0.028268991 3.0305714e-39 310 263
-0.011061779 0.70099998 -0.028268991 5.794257e-39 311 263
-0.0098326923 0.70099998 -0.028268991 1.204196e-38 312 263
-0.0086036054 0.70099998 -0.028268991 1.268733e-38 313 263
-0.0073955595 0.70300001 -0.028349647 1.3971582e-38 314 263
-0.0061629666 0.70300001 -0.028349647 1.3971582e-38 315 263
-0.0049303733 0.70300001 -0.028349647 1.4063429e-38 316 263
-0.0037030398 0.704 -0.028389972 1.3879036e-38 317 263
-0.0024686933 0.704 -0.028389972 1.4153831e-38 318 263
-0.0012343467 0.704 -0.028389972 1.4246026e-38 319 263
0 0.70599997 -0.028470624 1.4153462e-38 320 263
0.0012378532 0.70599997 -0.028470624 1.4153462e-38 321 263
0.0024757064 0.70599997 -0.028470624 1.3879039e-38 322 263
0.0037135598 0.70599997 -0.028470624 1.2127323e-38 323 263
0.0049514128 0.70599997 -0.028470624 4.4999393e-39 324 263
0.0061892662 0.70599997 -0.028470624 8.4610962e-39 325 263
0.0074376399 0.70700002 -0.028510952 1.3515298e-38 326 263
0.008677247 0.70700002 -0.028510952 1.2869929e-38 327 263
0.0099308798 0.708 -0.02855128 1.3972312e-38 328 263
0.01117224 0.708 -0.02855128 1.4248897e-38 329 263
0.0124136 0.708 -0.02855128 1.4345056e-38 330 263
0.013654959 0.708 -0.02855128 1.5727992e-38 331 263
0.01489632 0.708 -0.02855128 1.6003135e-38 332 263
0.016183265 0.70999998 -0.028631933 1.6003135e-38 333 263
0.017428132 0.70999998 -0.028631933 1.2318557e-38 334 263
0.018672999 0.70999998 -0.028631933 1.0658675e-38 335 263
0.020394772 0.727 -0.029317487 9.3672206e-39 336 263
0.021550218 0.72299999 -0.029156178 1.5357064e-38 337 263
0.02281788 0.72299999 -0.029156178 1.548129e-38 338 263
0.024085538 0.72299999 -0.029156178 1.8615942e-38 339 263
0.025353199 0.72299999 -0.029156178 1.7424618e-38 340 263
0.026620859 0.72299999 -0.029156178 1.7056194e-38 341 263
-0.028873893 0.71600002 -0.03012928 1.4278798e-38 297 264
-0.027502786 0.713 -0.030003037 1.3813115e-38 298 264
-0.026252659 0.713 -0.030003037 1.2522376e-38 299 264
-0.024897331 0.70999998 -0.029876797 1.4441195e-38 300 264
-0.023652466 0.70999998 -0.029876797 1.3980218e-38 301 264
-0.022344479 0.708 -0.02979264 1.4986813e-38 302 264
-0.021073313 0.70700002 -0.029750559 1.4986813e-38 303 264
-0.019805651 0.70599997 -0.029708479 1.5629315e-38 304 264
-0.018515198 0.704 -0.029624319 1.6274683e-38 305 264
-0.017256306 0.70300001 -0.029582238 1.6373733e-38 306 264
-0.016023712 0.70300001 -0.029582238 1.6097504e-38 307 264
-0.014791119 0.70300001 -0.029582238 1.167645e-38 308 264
-0.013558527 0.70300001 -0.029582238 9.9243727e-39 309 264
-0.012290866 0.70099998 -0.029498078 4.4098975e-39 310 264
-0.011061779 0.70099998 -0.029498078 6.9913639e-39 311 264
-0.0098186666 0.69999999 -0.029455997 1.2963547e-38 312 264
-0.0085913334 0.69999999 -0.029455997 1.2686961e-38 313 264
-0.0073745195 0.70099998 -0.029498078 1.3513115e-38 314 264
-0.0061629666 0.70300001 -0.029582238 1.3513115e-38 315 264
-0.0049303733 0.70300001 -0.029582238 1.3695355e-38 316 264
-0.0036977797 0.70300001 -0.029582238 1.3603159e-38 317 264
-0.0024686933 0.704 -0.029624319 1.3786475e-38 318 264
-0.0012378532 0.70599997 -0.029708479 1.3786475e-38 319 264
0 0.70599997 -0.029708479 1.3786472e-38 320 264
0.0012378532 0.70599997 -0.029708479 1.3786472e-38 321 264
0.0024757064 0.70599997 -0.029708479 1.3603162e-38 322 264
0.0037135598 0.70599997 -0.029708479 1.2035476e-38 323 264
0.0049514128 0.70599997 -0.029708479 4.2244328e-39 324 264
0.0061892662 0.70599997 -0.029708479 8.0015403e-39 325 264
0.0074376399 0.70700002 -0.029750559 1.314687e-38 326 264
0.008677247 0.70700002 -0.029750559 1.2869923e-38 327 264
0.0099168532 0.70700002 -0.029750559 1.3514574e-38 328 264
0.01117224 0.708 -0.02979264 1.3883355e-38 329 264
0.0124136 0.708 -0.02979264 1.4069545e-38 330 264
0.013654959 0.708 -0.02979264 1.4991502e-38 331 264
0.01489632 0.708 -0.02979264 1.5448164e-38 332 264
0.016183265 0.70999998 -0.029876797 1.5079381e-38 333 264
0.017428132 0.70999998 -0.029876797 1.1488439e-38 334 264
0.018672999 0.70999998 -0.029876797 9.5523321e-39 335 264
0.020394772 0.727 -0.030592158 9.0917141e-39 336 264
0.021609833 0.72500002 -0.030508002 1.572477e-38 337 264
0.022880999 0.72500002 -0.030508002 1.5759319e-38 338 264
0.024152167 0.72500002 -0.030508002 1.8340797e-38 339 264
0.025423333 0.72500002 -0.030508002 1.7056913e-38 340 264
0.026694499 0.72500002 -0.030508002 1.6780328e-38 341 264
-0.028873893 0.71600002 -0.031384666 1.4463911e-38 297 265
-0.02754136 0.71399999 -0.031296998 1.4458131e-38 298 265
-0.026179021 0.71100003 -0.031165501 1.3259588e-38 299 265
-0.024897331 0.70999998 -0.031121666 1.4809984e-38 300 265
-0.023652466 0.70999998 -0.031121666 1.3703277e-38 301 265
-0.022344479 0.708 -0.031034 1.4986097e-38 302 265
-0.021073313 0.70700002 -0.030990168 1.4986097e-38 303 265
-0.019749546 0.704 -0.030858666 1.5537468e-38 304 265
-0.018515198 0.704 -0.030858666 1.6459426e-38 305 265
-0.017256306 0.70300001 -0.030814834 1.5909508e-38 306 265
-0.016023712 0.70300001 -0.030814834 1.5356334e-38 307 265
-0.014791119 0.70300001 -0.030814834 9.1032468e-39 308 265
-0.013500666 0.69999999 -0.030683333 6.7983575e-39 309 265
-0.012273333 0.69999999 -0.030683333 5.1463751e-39 310 265
-0.011045999 0.69999999 -0.030683333 8.0047928e-39 311 265
-0.0098186666 0.69999999 -0.030683333 1.3240488e-38 312 265
-0.0085913334 0.69999999 -0.030683333 1.2595119e-38 313 265
-0.0073745195 0.70099998 -0.030727165 1.3420916e-38 314 265
-0.0061629666 0.70300001 -0.030814834 1.3420916e-38 315 265
-0.0049303733 0.70300001 -0.030814834 1.3602806e-38 316 265
-0.0036977797 0.70300001 -0.030814834 1.3510611e-38 317 265
-0.0024686933 0.704 -0.030858666 1.3602809e-38 318 265
-0.0012378532 0.70599997 -0.030946331 1.3510614e-38 319 265
0 0.70599997 -0.030946331 1.3510608e-38 320 265
0.0012378532 0.70599997 -0.030946331 1.3418412e-38 321 265
0.0024757064 0.70599997 -0.030946331 1.3418778e-38 322 265
0.0037135598 0.70599997 -0.030946331 1.2220594e-38 323 265
0.0049514128 0.70599997 -0.030946331 4.1325973e-39 324 265
0.0061892662 0.70599997 -0.030946331 7.7260353e-39 325 265
0.0074271196 0.70599997 -0.030946331 1.3147216e-38 326 265
0.0086649731 0.70599997 -0.030946331 1.2501848e-38 327 265
0.0099168532 0.70700002 -0.030990168 1.3330166e-38 328 265
0.011156459 0.70700002 -0.030990168 1.3698948e-38 329 265
0.012396066 0.70700002 -0.030990168 1.4068101e-38 330 265
0.013654959 0.708 -0.031034 1.4436882e-38 331 265
0.01489632 0.708 -0.031034 1.4433289e-38 332 265
0.01613768 0.708 -0.031034 1.3972312e-38 333 265
0.017428132 0.70999998 -0.031121666 1.0659757e-38 334 265
0.018594101 0.70700002 -0.030990168 9.1842685e-39 335 265
0.019833706 0.70700002 -0.030990168 9.4590575e-39 336 265
0.021609833 0.72500002 -0.031779166 1.6002436e-38 337 265
0.022880999 0.72500002 -0.031779166 1.5760041e-38 338 265
0.024152167 0.72500002 -0.031779166 1.8064933e-38 339 265
0.025493465 0.727 -0.03186683 1.7056913e-38 340 265
-0.028793238 0.71399999 -0.032548878 1.4741577e-38 297 266
-0.02754136 0.71399999 -0.032548878 1.4735809e-38 298 266
-0.026142199 0.70999998 -0.032366529 1.3537266e-38 299 266
-0.024827199 0.708 -0.03227536 1.4997265e-38 300 266
-0.023552528 0.70700002 -0.032229774 1.2968961e-38 301 266
-0.022312919 0.70700002 -0.032229774 1.4802066e-38 302 266
-0.021043506 0.70599997 -0.032184184 1.4986816e-38 303 266
-0.019749546 0.704 -0.032093015 1.5078658e-38 304 266
-0.018515198 0.704 -0.032093015 1.5539636e-38 305 266
-0.017256306 0.70300001 -0.032047424 1.4619848e-38 306 266
-0.016023712 0.70300001 -0.032047424 1.3790087e-38 307 266
-0.014749039 0.70099998 -0.031956252 6.987408e-39 308 266
-0.013500666 0.69999999 -0.031910665 5.5126409e-39 309 266
-0.012273333 0.69999999 -0.031910665 7.4458554e-39 310 266
-0.011045999 0.69999999 -0.031910665 9.4741593e-39 311 266
-0.0098186666 0.69999999 -0.031910665 1.3055021e-38 312 266
-0.0085913334 0.69999999 -0.031910665 1.2778434e-38 313 266
-0.0073745195 0.70099998 -0.031956252 1.3328733e-38 314 266
-0.0061629666 0.70300001 -0.032047424 1.3328733e-38 315 266
-0.0049303733 0.70300001 -0.032047424 1.3420216e-38 316 266
-0.0036977797 0.70300001 -0.032047424 1.3327661e-38 317 266
-0.0024686933 0.704 -0.032093015 1.3235469e-38 318 266
-0.0012343467 0.704 -0.032093015 1.3235469e-38 319 266
0 0.70599997 -0.032184184 1.314327e-38 320 266
0.0012343467 0.704 -0.032093015 1.3051073e-38 321 266
0.0024686933 0.704 -0.032093015 1.323402e-38 322 266
0.0037030398 0.704 -0.032093015 1.2127673e-38 323 266
0.0049514128 0.70599997 -0.032184184 4.2244328e-39 324 266
0.0061892662 0.70599997 -0.032184184 7.4498029e-39 325 266
0.0074271196 0.70599997 -0.032184184 1.2779162e-38 326 266
0.0086649731 0.70599997 -0.032184184 1.2502217e-38 327 266
0.0099168532 0.70700002 -0.032229774 1.3145071e-38 328 266
0.011156459 0.70700002 -0.032229774 1.3513495e-38 329 266
0.012396066 0.70700002 -0.032229774 1.351387e-38 330 266
0.013654959 0.708 -0.03227536 1.351387e-38 331 266
0.01489632 0.708 -0.03227536 1.3787213e-38 332 266
0.01613768 0.708 -0.03227536 1.3510626e-38 333 266
0.017428132 0.70999998 -0.032366529 1.038568e-38 334 266
0.018594101 0.70700002 -0.032229774 9.2796913e-39 335 266
0.019833706 0.70700002 -0.032229774 9.9200385e-39 336 266
0.021609833 0.72500002 -0.033050332 1.5912754e-38 337 266
0.022880999 0.72500002 -0.033050332 1.5942637e-38 338 266
-0.028631933 0.70999998 -0.033611398 1.4834492e-38 297 267
-0.027387066 0.70999998 -0.033611398 1.4645412e-38 298 267
-0.026142199 0.70999998 -0.033611398 1.3539066e-38 299 267
-0.024827199 0.708 -0.033516716 1.4999783e-38 300 267
-0.023552528 0.70700002 -0.033469379 1.232611e-38 301 267
-0.022281358 0.70599997 -0.033422034 1.4708431e-38 302 267
-0.021043506 0.70599997 -0.033422034 1.5077213e-38 303 267
-0.019749546 0.704 -0.03332736 1.5169043e-38 304 267
-0.018515198 0.704 -0.03332736 1.5629661e-38 305 267
-0.017256306 0.70300001 -0.033280019 1.3056116e-38 306 267
-0.016023712 0.70300001 -0.033280019 1.1857213e-38 307 267
-0.014749039 0.70099998 -0.03318534 4.3191382e-39 308 267
-0.013500666 0.69999999 -0.033137999 5.2410889e-39 309 267
-0.012273333 0.69999999 -0.033137999 1.029997e-38 310 267
-0.011045999 0.69999999 -0.033137999 1.0761308e-38 311 267
-0.0098326923 0.70099998 -0.03318534 1.2595137e-38 312 267
-0.0086036054 0.70099998 -0.03318534 1.2318551e-38 313 267
-0.0073745195 0.70099998 -0.03318534 1.3052154e-38 314 267
-0.0061629666 0.70300001 -0.033280019 1.3052154e-38 315 267
-0.0049303733 0.70300001 -0.033280019 1.3418778e-38 316 267
-0.0036977797 0.70300001 -0.033280019 1.3418778e-38 317 267
-0.0024686933 0.704 -0.03332736 1.3235469e-38 318 267
-0.0012343467 0.704 -0.03332736 1.3143273e-38 319 267
0 0.704 -0.03332736 1.3142553e-38 320 267
0.0012343467 0.704 -0.03332736 1.3142553e-38 321 267
0.0024686933 0.704 -0.03332736 1.3052154e-38 322 267
0.0037030398 0.704 -0.03332736 1.1945446e-38 323 267
0.0049373866 0.704 -0.03332736 4.2244328e-39 324 267
0.0061892662 0.70599997 -0.033422034 7.3572569e-39 325 267
0.0074271196 0.70599997 -0.033422034 1.2779881e-38 326 267
0.0086649731 0.70599997 -0.033422034 1.2042316e-38 327 267
0.0099028256 0.70599997 -0.033422034 1.3236172e-38 328 267
0.011156459 0.70700002 -0.033469379 1.3236172e-38 329 267
0.012396066 0.70700002 -0.033469379 1.3603162e-38 330 267
0.013654959 0.708 -0.033516716 1.3695358e-38 331 267
0.01489632 0.708 -0.033516716 1.3328017e-38 332 267
0.016183265 0.70999998 -0.033611398 1.3235822e-38 333 267
0.017428132 0.70999998 -0.033611398 1.0017975e-38 334 267
0.018672999 0.70999998 -0.033611398 9.4648014e-39 335 267
0.019917866 0.70999998 -0.033611398 1.0566127e-38 336 267
0.021162732 0.70999998 -0.033611398 1.6005669e-38 337 267
0.022407599 0.70999998 -0.033611398 1.5943715e-38 338 267
-0.027309919 0.708 -0.034758076 1.4922719e-38 298 268
-0.026068559 0.708 -0.034758076 1.381673e-38 299 268
-0.024792133 0.70700002 -0.034708988 1.5093778e-38 300 268
-0.023519212 0.70599997 -0.034659892 1.2143517e-38 301 268
-0.022218239 0.704 -0.034561705 1.4433639e-38 302 268
-0.020983893 0.704 -0.034561705 1.4894617e-38 303 268
-0.019749546 0.704 -0.034561705 1.4803498e-38 304 268
-0.018488899 0.70300001 -0.034512613 1.5356672e-38 305 268
-0.017256306 0.70300001 -0.034512613 1.1399838e-38 306 268
-0.016023712 0.70300001 -0.034512613 8.9101955e-39 307 268
-0.014791119 0.70300001 -0.034512613 4.6900801e-39 308 268
-0.013558527 0.70300001 -0.034512613 6.2577645e-39 309 268
-0.012290866 0.70099998 -0.034414422 1.1772939e-38 310 268
-0.011061779 0.70099998 -0.034414422 1.1588189e-38 311 268
-0.0098326923 0.70099998 -0.034414422 1.2410747e-38 312 268
-0.0086036054 0.70099998 -0.034414422 1.2318551e-38 313 268
-0.0073745195 0.70099998 -0.034414422 1.2685179e-38 314 268
-0.0061629666 0.70300001 -0.034512613 1.2685179e-38 315 268
-0.0049303733 0.70300001 -0.034512613 1.2777011e-38 316 268
-0.0036977797 0.70300001 -0.034512613 1.2869207e-38 317 268
-0.0024686933 0.704 -0.034561705 1.2960324e-38 318 268
-0.0012343467 0.704 -0.034561705 1.2960324e-38 319 268
0 0.704 -0.034561705 1.2867761e-38 320 268
0.0012343467 0.704 -0.034561705 1.2867761e-38 321 268
0.0024686933 0.704 -0.034561705 1.305107e-38 322 268
0.0037030398 0.704 -0.034561705 1.1852529e-38 323 268
0.0049373866 0.704 -0.034561705 4.5917748e-39 324 268
0.0061717331 0.704 -0.034561705 7.6334809e-39 325 268
0.0074271196 0.70599997 -0.034659892 1.2596213e-38 326 268
0.0086649731 0.70599997 -0.034659892 1.1950844e-38 327 268
0.0099028256 0.70599997 -0.034659892 1.2960674e-38 328 268
0.011140679 0.70599997 -0.034659892 1.2868478e-38 329 268
0.012396066 0.70700002 -0.034708988 1.3235113e-38 330 268
0.013654959 0.708 -0.034758076 1.3235113e-38 331 268
0.01489632 0.708 -0.034758076 1.2777364e-38 332 268
0.016183265 0.70999998 -0.034856264 1.286956e-38 333 268
0.017428132 0.70999998 -0.034856264 1.1216516e-38 334 268
0.018672999 0.70999998 -0.034856264 1.0571146e-38 335 268
0.019917866 0.70999998 -0.034856264 1.0289897e-38 336 268
0.021162732 0.70999998 -0.034856264 1.6190417e-38 337 268
0.022407599 0.70999998 -0.034856264 1.6496884e-38 338 268
-0.027309919 0.708 -0.03599944 1.5292578e-38 298 269
-0.026068559 0.708 -0.03599944 1.4001839e-38 299 269
-0.024757065 0.70599997 -0.035897743 1.5186693e-38 300 269
-0.023452586 0.704 -0.035796054 1.2328627e-38 301 269
-0.022218239 0.704 -0.035796054 1.4525837e-38 302 269
-0.020983893 0.704 -0.035796054 1.4894261e-38 303 269
-0.019721493 0.70300001 -0.035745207 1.4620568e-38 304 269
-0.018488899 0.70300001 -0.035745207 1.5081545e-38 305 269
-0.017207211 0.70099998 -0.035643511 8.9152626e-39 306 269
-0.015978126 0.70099998 -0.035643511 5.8774718e-39 307 269
-0.014727999 0.69999999 -0.035592664 5.9819133e-39 308 269
-0.013462093 0.69800001 -0.035490975 7.8258259e-39 309 269
-0.012238266 0.69800001 -0.035490975 1.2325041e-38 310 269
-0.011061779 0.70099998 -0.035643511 1.1863702e-38 311 269
-0.0098326923 0.70099998 -0.035643511 1.2594062e-38 312 269
-0.0086036054 0.70099998 -0.035643511 1.2501866e-38 313 269
-0.0073745195 0.70099998 -0.035643511 1.2685179e-38 314 269
-0.0061629666 0.70300001 -0.035745207 1.2777374e-38 315 269
-0.0049303733 0.70300001 -0.035745207 1.2686614e-38 316 269
-0.0036977797 0.70300001 -0.035745207 1.2686614e-38 317 269
-0.0024686933 0.704 -0.035796054 1.2686611e-38 318 269
-0.0012343467 0.704 -0.035796054 1.2686611e-38 319 269
0 0.704 -0.035796054 1.2777009e-38 320 269
0.0012325933 0.70300001 -0.035745207 1.2777009e-38 321 269
0.0024651866 0.70300001 -0.035745207 1.2869573e-38 322 269
0.0036977797 0.70300001 -0.035745207 1.1578834e-38 323 269
0.0049373866 0.704 -0.035796054 4.4106149e-39 324 269
0.0061717331 0.704 -0.035796054 7.0842756e-39 325 269
0.0074060797 0.704 -0.035796054 1.250402e-38 326 269
0.0086404262 0.704 -0.035796054 1.1858651e-38 327 269
0.0099028256 0.70599997 -0.035897743 1.2868478e-38 328 269
0.011140679 0.70599997 -0.035897743 1.2868478e-38 329 269
0.012396066 0.70700002 -0.035948593 1.2959958e-38 330 269
0.013654959 0.708 -0.03599944 1.3052154e-38 331 269
0.01489632 0.708 -0.03599944 1.2594768e-38 332 269
0.016183265 0.70999998 -0.036101133 1.2502573e-38 333 269
0.01745268 0.71100003 -0.036151983 1.1402709e-38 334 269
0.0186993 0.71100003 -0.036151983 1.0665144e-38 335 269
0.01994592 0.71100003 -0.036151983 1.0013683e-38 336 269
0.021192541 0.71100003 -0.036151983 1.637518e-38 337 269
0.02262852 0.71700001 -0.036457058 1.6866758e-38 338 269
-0.027271347 0.70700002 -0.037188202 1.5754637e-38 298 270
-0.02603174 0.70700002 -0.037188202 1.4186952e-38 299 270
-0.024757065 0.70599997 -0.037135597 1.5096661e-38 300 270
-0.023452586 0.704 -0.037030395 1.2422987e-38 301 270
-0.022218239 0.704 -0.037030395 1.4343614e-38 302 270
-0.020983893 0.704 -0.037030395 1.425106e-38 303 270
-0.019721493 0.70300001 -0.036977798 1.268591e-38 304 270
-0.018488899 0.70300001 -0.036977798 1.1763595e-38 305 270
-0.017207211 0.70099998 -0.036872596 6.0701587e-39 306 270
-0.015978126 0.70099998 -0.036872596 4.9641713e-39 307 270
-0.014727999 0.69999999 -0.036819998 8.0984668e-39 308 270
-0.013462093 0.69800001 -0.0367148 9.0207818e-39 309 270
-0.012238266 0.69800001 -0.0367148 1.1956624e-38 310 270
-0.011045999 0.69999999 -0.036819998 1.1495646e-38 311 270
-0.0098186666 0.69999999 -0.036819998 1.2319276e-38 312 270
-0.0086036054 0.70099998 -0.036872596 1.2319276e-38 313 270
-0.0073745195 0.70099998 -0.036872596 1.2319273e-38 314 270
-0.0061454331 0.70099998 -0.036872596 1.2411469e-38 315 270
-0.0049303733 0.70300001 -0.036977798 1.2595137e-38 316 270
-0.0036977797 0.70300001 -0.036977798 1.2779528e-38 317 270
-0.0024686933 0.704 -0.037030395 1.2504739e-38 318 270
-0.0012343467 0.704 -0.037030395 1.2412185e-38 319 270
0 0.704 -0.037030395 1.2686611e-38 320 270
0.0012325933 0.70300001 -0.036977798 1.2410024e-38 321 270
0.0024651866 0.70300001 -0.036977798 1.2318201e-38 322 270
0.0036977797 0.70300001 -0.036977798 1.1027462e-38 323 270
0.0049373866 0.704 -0.037030395 4.3194969e-39 324 270
0.0061717331 0.704 -0.037030395 6.9009633e-39 325 270
0.0074060797 0.704 -0.037030395 1.2226356e-38 326 270
0.0086404262 0.704 -0.037030395 1.1949767e-38 327 270
0.0099028256 0.70599997 -0.037135597 1.2592613e-38 328 270
0.011140679 0.70599997 -0.037135597 1.268481e-38 329 270
0.012396066 0.70700002 -0.037188202 1.2684813e-38 330 270
0.013654959 0.708 -0.0372408 1.2684813e-38 331 270
0.01489632 0.708 -0.0372408 1.2317471e-38 332 270
0.016183265 0.70999998 -0.037345998 1.2409668e-38 333 270
0.01745268 0.71100003 -0.037398599 1.1861532e-38 334 270
0.0186993 0.71100003 -0.037398599 1.084774e-38 335 270
0.020002026 0.713 -0.037503798 9.5534237e-39 336 270
0.021281958 0.71399999 -0.037556399 1.6283703e-38 337 270
0.02262852 0.71700001 -0.037714198 1.6959677e-38 338 270
0.02388566 0.71700001 -0.037714198 1.8250416e-38 339 270
-0.027271347 0.70700002 -0.038427804 1.6400373e-38 298 271
-0.02603174 0.70700002 -0.038427804 1.4003286e-38 299 271
-0.024686933 0.704 -0.038264744 1.4822602e-38 300 271
-0.023452586 0.704 -0.038264744 1.2425155e-38 301 271
-0.022218239 0.704 -0.038264744 1.4160665e-38 302 271
-0.020983893 0.704 -0.038264744 1.3515295e-38 303 271
-0.019721493 0.70300001 -0.038210396 1.1027834e-38 304 271
-0.018488899 0.70300001 -0.038210396 8.7243791e-39 305 271
-0.017256306 0.70300001 -0.038210396 4.5103986e-39 306 271
-0.015978126 0.70099998 -0.038101684 5.2479636e-39 307 271
-0.014727999 0.69999999 -0.038047329 9.3856155e-39 308 271
-0.013462093 0.69800001 -0.037938625 1.0030985e-38 309 271
-0.012238266 0.69800001 -0.037938625 1.1587491e-38 310 271
-0.011045999 0.69999999 -0.038047329 1.1310904e-38 311 271
-0.0098186666 0.69999999 -0.038047329 1.2135255e-38 312 271
-0.0085913334 0.69999999 -0.038047329 1.2135255e-38 313 271
-0.0073639993 0.69999999 -0.038047329 1.2135608e-38 314 271
-0.0061454331 0.70099998 -0.038101684 1.2043412e-38 315 271
-0.0049303733 0.70300001 -0.038210396 1.2227806e-38 316 271
-0.0036977797 0.70300001 -0.038210396 1.2504033e-38 317 271
-0.0024651866 0.70300001 -0.038210396 1.2412915e-38 318 271
-0.0012325933 0.70300001 -0.038210396 1.2228522e-38 319 271
0 0.70300001 -0.038210396 1.2318551e-38 320 271
0.0012325933 0.70300001 -0.038210396 1.2041963e-38 321 271
0.0024651866 0.70300001 -0.038210396 1.2039459e-38 322 271
0.0036977797 0.70300001 -0.038210396 1.074872e-38 323 271
0.0049303733 0.70300001 -0.038210396 4.869075e-39 324 271
0.0061717331 0.704 -0.038264744 7.5430887e-39 325 271
0.0074060797 0.704 -0.038264744 1.1949046e-38 326 271
0.0086649731 0.70599997 -0.038373452 1.1949046e-38 327 271
0.0099028256 0.70599997 -0.038373452 1.2316752e-38 328 271
0.011140679 0.70599997 -0.038373452 1.2316752e-38 329 271
0.012396066 0.70700002 -0.038427804 1.213344e-38 330 271
0.013654959 0.708 -0.038482159 1.213344e-38 331 271
0.01489632 0.708 -0.038482159 1.2317118e-38 332 271
0.016183265 0.70999998 -0.038590867 1.2501869e-38 333 271
0.01745268 0.71100003 -0.038645219 1.1953011e-38 334 271
0.018751899 0.713 -0.038753927 1.1123251e-38 335 271
0.020030079 0.71399999 -0.038808275 9.8303624e-39 336 271
0.021341572 0.71600002 -0.038916986 1.6283698e-38 337 271
0.02262852 0.71700001 -0.038971342 1.6867479e-38 338 271
0.023952285 0.71899998 -0.039080046 1.7881989e-38 339 271
0.025212931 0.71899998 -0.039080046 1.6688135e-38 340 271
-0.02592128 0.704 -0.039499093 1.3450836e-38 299 272
-0.024686933 0.704 -0.039499093 1.4453462e-38 300 272
-0.023452586 0.704 -0.039499093 1.2609549e-38 301 272
-0.022218239 0.704 -0.039499093 1.3886604e-38 302 272
-0.020983893 0.704 -0.039499093 1.3241235e-38 303 272
-0.019721493 0.70300001 -0.039442986 9.7428597e-39 304 272
-0.018488899 0.70300001 -0.039442986 6.7039912e-39 305 272
-0.017256306 0.70300001 -0.039442986 4.1405399e-39 306 272
-0.016023712 0.70300001 -0.039442986 5.0624976e-39 307 272
-0.014727999 0.69999999 -0.039274666 9.9323054e-39 308 272
-0.013500666 0.69999999 -0.039274666 1.0393282e-38 309 272
-0.012273333 0.69999999 -0.039274666 1.1951232e-38 310 272
-0.011045999 0.69999999 -0.039274666 1.1766842e-38 311 272
-0.0098186666 0.69999999 -0.039274666 1.2134526e-38 312 272
-0.0085913334 0.69999999 -0.039274666 1.2134526e-38 313 272
-0.0073639993 0.69999999 -0.039274666 1.2317474e-38 314 272
-0.0061454331 0.70099998 -0.039330769 1.2317474e-38 315 272
-0.0049303733 0.70300001 -0.039442986 1.2226721e-38 316 272
-0.0036977797 0.70300001 -0.039442986 1.2411471e-38 317 272
-0.0024651866 0.70300001 -0.039442986 1.2228875e-38 318 272
-0.0012325933 0.70300001 -0.039442986 1.2044484e-38 319 272
0 0.70300001 -0.039442986 1.2226359e-38 320 272
0.0012325933 0.70300001 -0.039442986 1.1857216e-38 321 272
0.0024651866 0.70300001 -0.039442986 1.1762876e-38 322 272
0.0036977797 0.70300001 -0.039442986 1.037994e-38 323 272
0.0049303733 0.70300001 -0.039442986 5.6945182e-39 324 272
0.0061717331 0.704 -0.039499093 8.4603773e-39 325 272
0.0074271196 0.70599997 -0.039611302 1.2041963e-38 326 272
0.0086649731 0.70599997 -0.039611302 1.1673182e-38 327 272
0.0099028256 0.70599997 -0.039611302 1.2132714e-38 328 272
0.011140679 0.70599997 -0.039611302 1.2132714e-38 329 272
0.0124136 0.708 -0.039723519 1.2132361e-38 330 272
0.013654959 0.708 -0.039723519 1.2316752e-38 331 272
0.01489632 0.708 -0.039723519 1.1950846e-38 332 272
0.016183265 0.70999998 -0.039835732 1.2411466e-38 333 272
0.01745268 0.71100003 -0.039891839 1.2046276e-38 334 272
0.018778199 0.71399999 -0.040060159 1.1677854e-38 335 272
0.020086186 0.71600002 -0.040172372 1.0477528e-38 336 272
0.021371379 0.71700001 -0.040228479 1.6193657e-38 337 272
0.02262852 0.71700001 -0.040228479 1.6591969e-38 338 272
0.023952285 0.71899998 -0.040340692 1.7513927e-38 339 272
0.025212931 0.71899998 -0.040340692 1.6871447e-38 340 272
-0.02592128 0.704 -0.040733438 1.2624668e-38 299 273
-0.024686933 0.704 -0.040733438 1.426655e-38 300 273
-0.023452586 0.704 -0.040733438 1.3160202e-38 301 273
-0.022218239 0.704 -0.040733438 1.361398e-38 302 273
-0.020983893 0.704 -0.040733438 1.2691665e-38 303 273
-0.019721493 0.70300001 -0.040675577 9.0089044e-39 304 273
-0.018488899 0.70300001 -0.040675577 5.5101326e-39 305 273
-0.017207211 0.70099998 -0.040559858 5.243998e-39 306 273
-0.015978126 0.70099998 -0.040559858 6.4425412e-39 307 273
-0.014727999 0.69999999 -0.040502001 1.1032868e-38 308 273
-0.013500666 0.69999999 -0.040502001 1.1125065e-38 309 273
-0.012273333 0.69999999 -0.040502001 1.2133808e-38 310 273
-0.011045999 0.69999999 -0.040502001 1.2041613e-38 311 273
-0.0098186666 0.69999999 -0.040502001 1.2224559e-38 312 273
-0.0086036054 0.70099998 -0.040559858 1.2224559e-38 313 273
-0.0073745195 0.70099998 -0.040559858 1.2041607e-38 314 273
-0.0061629666 0.70300001 -0.040675577 1.2041607e-38 315 273
-0.0049303733 0.70300001 -0.040675577 1.1950143e-38 316 273
-0.0036977797 0.70300001 -0.040675577 1.2226371e-38 317 273
-0.0024651866 0.70300001 -0.040675577 1.2043778e-38 318 273
-0.0012325933 0.70300001 -0.040675577 1.1674995e-38 319 273
0 0.70300001 -0.040675577 1.2132011e-38 320 273
0.0012325933 0.70300001 -0.040675577 1.1763228e-38 321 273
0.0024651866 0.70300001 -0.040675577 1.1485566e-38 322 273
0.0036977797 0.70300001 -0.040675577 1.0102632e-38 323 273
0.0049373866 0.704 -0.040733438 6.337008e-39 324 273
