# .PCD v.7 - Point Cloud Data file format
FIELDS x y z rgb imX imY
SIZE 4 4 4 4 4 4
TYPE F F F F F F
COUNT 1 1 1 1 1 1
WIDTH 846
HEIGHT 1
VIEWPOINT 0 0 0 1 0 0 0
POINTS 846
DATA ascii
0.017801592 0.78100002 0.016432239 1.7523679e-38 333 228
0.019170946 0.78100002 0.016432239 1.5956713e-38 334 228
0.020540299 0.78100002 0.016432239 1.4665974e-38 335 228
0.022021867 0.78500003 0.016516401 1.3474258e-38 336 228
-0.023547266 0.79000002 0.015236467 1.8811874e-38 303 229
-0.022162134 0.79000002 0.015236467 1.964054e-38 304 229
-0.020777 0.79000002 0.015236467 1.9732736e-38 305 229
-0.019367319 0.78899997 0.015217179 1.7705154e-38 306 229
-0.017938353 0.787 0.015178605 1.6783199e-38 307 229
-0.016516401 0.78500003 0.015140033 1.7798078e-38 308 229
-0.01510146 0.78299999 0.01510146 1.8719676e-38 309 229
-0.013693534 0.78100002 0.015062887 1.9271408e-38 310 229
-0.01232418 0.78100002 0.015062887 1.9455439e-38 311 229
-0.010954826 0.78100002 0.015062887 1.9456522e-38 312 229
-0.0095731998 0.77999997 0.0150436 1.9456522e-38 313 229
-0.0082055992 0.77999997 0.0150436 1.9457241e-38 314 229
-0.0068379994 0.77999997 0.0150436 2.0471753e-38 315 229
-0.0054563731 0.778 0.015005025 2.2493585e-38 316 229
-0.0040922803 0.778 0.015005025 2.2585781e-38 317 229
-0.0027281865 0.778 0.015005025 2.1113871e-38 318 229
-0.0013675999 0.77999997 0.0150436 1.9915329e-38 319 229
0 0.778 0.015005025 1.4023831e-38 320 229
0.0013640933 0.778 0.015005025 1.4208223e-38 321 229
0.0027351999 0.77999997 0.0150436 1.8078311e-38 322 229
0.0040817601 0.77600002 0.014966453 1.8631484e-38 323 229
0.0054423464 0.77600002 0.014966453 1.8812966e-38 324 229
0.0068204664 0.778 0.015005025 1.872077e-38 325 229
0.0081845606 0.778 0.015005025 1.8353064e-38 326 229
0.0095486529 0.778 0.015005025 1.8168673e-38 327 229
0.010912746 0.778 0.015005025 1.8168319e-38 328 229
0.012276839 0.778 0.015005025 1.7892091e-38 329 229
0.013675999 0.77999997 0.0150436 1.7708063e-38 330 229
0.0150436 0.77999997 0.0150436 1.7524032e-38 331 229
0.016411198 0.77999997 0.0150436 1.7431483e-38 332 229
0.017801592 0.78100002 0.015062887 1.770771e-38 333 229
0.019170946 0.78100002 0.015062887 1.6140391e-38 334 229
0.0205929 0.78299999 0.01510146 1.1806836e-38 335 229
0.022021867 0.78500003 0.015140033 4.176912e-39 336 229
0.023457846 0.787 0.015178605 8.5101052e-39 337 229
-0.023547266 0.79000002 0.013851333 1.8994821e-38 303 230
-0.022162134 0.79000002 0.013851333 1.7978479e-38 304 230
-0.0207507 0.78899997 0.013833799 1.521261e-38 305 230
-0.019318225 0.787 0.013798732 1.242842e-38 306 230
-0.017892767 0.78500003 0.013763667 1.602441e-38 307 230
-0.01647432 0.78299999 0.013728599 1.7709139e-38 308 230
-0.015062887 0.78100002 0.013693534 1.8631095e-38 309 230
-0.013693534 0.78100002 0.013693534 1.9547639e-38 310 230
-0.01232418 0.78100002 0.013693534 1.9639834e-38 311 230
-0.010940799 0.77999997 0.013675999 1.9732749e-38 312 230
-0.0095486529 0.778 0.013640933 1.9548718e-38 313 230
-0.0081845606 0.778 0.013640933 1.9457244e-38 314 230
-0.0068204664 0.778 0.013640933 2.0010417e-38 315 230
-0.0054563731 0.778 0.013640933 2.083803e-38 316 230
-0.0040817601 0.77600002 0.013605867 2.083803e-38 317 230
-0.0027211732 0.77600002 0.013605867 1.8902975e-38 318 230
-0.0013640933 0.778 0.013640933 1.6044911e-38 319 230
0 0.778 0.013640933 1.1411787e-38 320 230
0.0013605866 0.77600002 0.013605867 1.1780928e-38 321 230
0.0027211732 0.77600002 0.013605867 1.1628586e-38 322 230
0.0040817601 0.77600002 0.013605867 1.4671041e-38 323 230
0.0054423464 0.77600002 0.013605867 1.7523679e-38 324 230
0.0068204664 0.778 0.013640933 1.8353079e-38 325 230
0.0081845606 0.778 0.013640933 1.8628221e-38 326 230
0.009524107 0.77600002 0.013605867 1.8259799e-38 327 230
0.010884693 0.77600002 0.013605867 1.8075768e-38 328 230
0.012276839 0.778 0.013640933 1.7891735e-38 329 230
0.013675999 0.77999997 0.013675999 1.7891735e-38 330 230
0.0150436 0.77999997 0.013675999 1.7891735e-38 331 230
0.016411198 0.77999997 0.013675999 1.7982499e-38 332 230
0.017778799 0.77999997 0.013675999 1.7982499e-38 333 230
0.019170946 0.78100002 0.013693534 1.3008977e-38 334 230
0.020540299 0.78100002 0.013693534 6.8318681e-39 335 230
0.022021867 0.78500003 0.013763667 1.4807521e-41 336 230
0.023457846 0.787 0.013798732 2.9715501e-39 337 230
0.024900839 0.78899997 0.013833799 7.4030584e-39 338 230
-0.022162134 0.79000002 0.0124662 1.392185e-38 304 231
-0.0207507 0.78899997 0.012450419 7.1915674e-39 305 231
-0.019269135 0.78500003 0.0123873 2.0203809e-39 306 231
-0.017847179 0.78299999 0.012355739 6.2585072e-39 307 231
-0.01647432 0.78299999 0.012355739 1.595996e-38 308 231
-0.015062887 0.78100002 0.01232418 1.8264849e-38 309 231
-0.013693534 0.78100002 0.01232418 1.9641282e-38 310 231
-0.012308398 0.77999997 0.012308398 1.945689e-38 311 231
-0.010940799 0.77999997 0.012308398 1.9365042e-38 312 231
-0.0095486529 0.778 0.012276839 1.9457597e-38 313 231
-0.0081845606 0.778 0.012276839 1.9366124e-38 314 231
-0.0068204664 0.778 0.012276839 1.9734907e-38 315 231
-0.0054423464 0.77600002 0.01224528 2.0100458e-38 316 231
-0.0040712398 0.77399999 0.01221372 1.9271057e-38 317 231
-0.0027141599 0.77399999 0.01221372 1.4390071e-38 318 231
-0.0013570799 0.77399999 0.01221372 1.0057235e-38 319 231
0 0.778 0.012276839 3.5898716e-39 320 231
0.0013605866 0.77600002 0.01224528 2.9445022e-39 321 231
0.0027141599 0.77399999 0.01221372 1.3091225e-39 322 231
0.0040712398 0.77399999 0.01221372 6.4720777e-39 323 231
0.0054423464 0.77600002 0.01224528 1.3102274e-38 324 231
0.0068204664 0.778 0.012276839 1.6052174e-38 325 231
0.0081845606 0.778 0.012276839 1.835201e-38 326 231
0.009524107 0.77600002 0.01224528 1.8075064e-38 327 231
0.010884693 0.77600002 0.01224528 1.7891738e-38 328 231
0.012276839 0.778 0.012276839 1.7706988e-38 329 231
0.013640933 0.778 0.012276839 1.7524026e-38 330 231
0.0150436 0.77999997 0.012308398 1.7524026e-38 331 231
0.016411198 0.77999997 0.012308398 1.7708063e-38 332 231
0.017778799 0.77999997 0.012308398 1.6693912e-38 333 231
0.0191464 0.77999997 0.012308398 7.4847989e-39 334 231
0.020540299 0.78100002 0.01232418 1.9530597e-39 335 231
0.021965759 0.78299999 0.012355739 3.2888475e-42 336 231
0.023457846 0.787 0.01241886 9.7698529e-42 337 231
0.024900839 0.78899997 0.012450419 2.2357605e-39 338 231
0.026317533 0.79000002 0.0124662 1.1455323e-38 339 231
-0.022162134 0.79000002 0.011081067 1.7520505e-39 304 232
-0.0207507 0.78899997 0.011067039 0 305 232
-0.019269135 0.78500003 0.011010934 0 306 232
-0.017847179 0.78299999 0.010982879 5.5317378e-40 307 232
-0.016432239 0.78100002 0.010954826 9.6985436e-39 308 232
-0.0150436 0.77999997 0.010940799 1.4493075e-38 309 232
-0.013675999 0.77999997 0.010940799 1.7983555e-38 310 232
-0.012308398 0.77999997 0.010940799 1.724599e-38 311 232
-0.010912746 0.778 0.010912746 1.6877917e-38 312 232
-0.009524107 0.77600002 0.010884693 1.6877917e-38 313 232
-0.0081635201 0.77600002 0.010884693 1.6881154e-38 314 232
-0.0068029333 0.77600002 0.010884693 1.7526523e-38 315 232
-0.0054423464 0.77600002 0.010884693 1.7792662e-38 316 232
-0.0040712398 0.77399999 0.01085664 1.4565815e-38 317 232
-0.0027141599 0.77399999 0.01085664 6.5548342e-39 318 232
-0.0013553266 0.773 0.010842613 4.803476e-39 319 232
0 0.773 0.010842613 5.6267696e-39 320 232
0.0013605866 0.77600002 0.010884693 4.0590838e-39 321 232
0.0027141599 0.77399999 0.01085664 9.653405e-41 322 232
0.0040712398 0.77399999 0.01085664 3.2580189e-42 323 232
0.0054283198 0.77399999 0.01085664 7.527411e-40 324 232
0.0068204664 0.778 0.010912746 5.6391095e-39 325 232
0.0081845606 0.778 0.010912746 1.1350547e-38 326 232
0.009524107 0.77600002 0.010884693 1.402422e-38 327 232
0.010884693 0.77600002 0.010884693 1.5216986e-38 328 232
0.01224528 0.77600002 0.010884693 1.4756008e-38 329 232
0.013640933 0.778 0.010912746 1.4203184e-38 330 232
0.015005025 0.778 0.010912746 1.4018793e-38 331 232
0.016411198 0.77999997 0.010940799 1.3653253e-38 332 232
0.017778799 0.77999997 0.010940799 1.2362514e-38 333 232
0.0191464 0.77999997 0.010940799 1.335017e-41 334 232
0.020540299 0.78100002 0.010954826 1.2271171e-41 335 232
0.021909652 0.78100002 0.010954826 1.3714508e-41 336 232
0.023398234 0.78500003 0.011010934 1.0833438e-41 337 232
0.024837719 0.787 0.011038986 1.8379431e-41 338 232
0.026317533 0.79000002 0.011081067 1.0532643e-38 339 232
-0.017847179 0.78299999 0.0096100196 9.3270426e-41 307 233
-0.016411198 0.77999997 0.0095731998 1.2535331e-38 308 233
-0.015005025 0.778 0.0095486529 1.7052917e-38 309 233
-0.013640933 0.778 0.0095486529 1.83523e-38 310 233
-0.012276839 0.778 0.0095486529 1.7338147e-38 311 233
-0.010912746 0.778 0.0095486529 1.6508778e-38 312 233
-0.0094995592 0.77399999 0.0094995592 1.6139996e-38 313 233
-0.0081424797 0.77399999 0.0094995592 1.558934e-38 314 233
-0.0067853997 0.77399999 0.0094995592 1.6142514e-38 315 233
-0.0054283198 0.77399999 0.0094995592 1.7693219e-38 316 233
-0.0040659797 0.773 0.0094872871 1.3083438e-38 317 233
-0.0027106532 0.773 0.0094872871 8.7566903e-39 318 233
-0.0013553266 0.773 0.0094872871 9.0332786e-39 319 233
0 0.773 0.0094872871 9.3999535e-39 320 233
0.0013553266 0.773 0.0094872871 6.9106715e-39 321 233
0.0027106532 0.773 0.0094872871 3.0449571e-39 322 233
0.0040659797 0.773 0.0094872871 2.7873508e-40 323 233
0.0054213065 0.773 0.0094872871 0 324 233
0.0067766332 0.773 0.0094872871 9.2445481e-40 325 233
0.0081635201 0.77600002 0.009524107 9.7658844e-39 326 233
0.009524107 0.77600002 0.009524107 1.8524109e-38 327 233
0.010884693 0.77600002 0.009524107 1.5497147e-38 328 233
0.01224528 0.77600002 0.009524107 1.4943974e-38 329 233
0.013605867 0.77600002 0.009524107 1.4575917e-38 330 233
0.015005025 0.778 0.0095486529 1.4575917e-38 331 233
0.016369121 0.778 0.0095486529 1.4300027e-38 332 233
0.017778799 0.77999997 0.0095731998 1.1902942e-38 333 233
0.0191464 0.77999997 0.0095731998 8.4414079e-40 334 233
0.020513998 0.77999997 0.0095731998 9.6983867e-42 335 233
0.021909652 0.78100002 0.0095854728 1.656615e-41 336 233
0.02333862 0.78299999 0.0096100196 1.1162744e-41 337 233
0.024837719 0.787 0.0096591124 6.497821e-42 338 233
0.026217593 0.787 0.0096591124 1.1075377e-38 339 233
-0.016369121 0.778 0.0081845606 1.7331334e-38 308 234
-0.015005025 0.778 0.0081845606 2.0558181e-38 309 234
-0.013605867 0.77600002 0.0081635201 2.0838733e-38 310 234
-0.01224528 0.77600002 0.0081635201 1.9824581e-38 311 234
-0.010884693 0.77600002 0.0081635201 1.9181377e-38 312 234
-0.0094995592 0.77399999 0.0081424797 1.9181377e-38 313 234
-0.0081424797 0.77399999 0.0081424797 1.8905869e-38 314 234
-0.0067853997 0.77399999 0.0081424797 1.9551238e-38 315 234
-0.0054213065 0.773 0.0081319595 1.9815927e-38 316 234
-0.0040659797 0.773 0.0081319595 1.6128102e-38 317 234
-0.0027106532 0.773 0.0081319595 1.2260189e-38 318 234
-0.00135182 0.77100003 0.0081109209 1.1614819e-38 319 234
0 0.76700002 0.00806884 1.1149891e-38 320 234
0.0013448066 0.76700002 0.00806884 8.5684132e-39 321 234
0.0026966266 0.76899999 0.0080898795 4.8863488e-39 322 234
0.0040449398 0.76899999 0.0080898795 3.6878056e-39 323 234
0.0054072798 0.77100003 0.0081109209 9.542282e-41 324 234
0.0067590997 0.77100003 0.0081109209 1.5701745e-39 325 234
0.0081319595 0.773 0.0081319595 1.1158893e-38 326 234
0.009524107 0.77600002 0.0081635201 1.9733086e-38 327 234
0.010884693 0.77600002 0.0081635201 1.8904436e-38 328 234
0.01224528 0.77600002 0.0081635201 1.8259066e-38 329 234
0.013605867 0.77600002 0.0081635201 1.7890654e-38 330 234
0.014966453 0.77600002 0.0081635201 1.7614427e-38 331 234
0.016369121 0.778 0.0081845606 1.7893878e-38 332 234
0.017733213 0.778 0.0081845606 1.6234715e-38 333 234
0.019097306 0.778 0.0081845606 1.0970924e-38 334 234
0.020461399 0.778 0.0081845606 4.9782081e-39 335 234
0.021881599 0.77999997 0.0082055992 1.0450884e-41 336 234
0.023279008 0.78100002 0.0082161194 9.0103491e-42 337 234
0.024648361 0.78100002 0.0082161194 7.2250949e-42 338 234
-0.017687626 0.77600002 0.0068029333 7.8394998e-39 307 235
-0.01632704 0.77600002 0.0068029333 2.009863e-38 308 235
-0.014966453 0.77600002 0.0068029333 2.1757793e-38 309 235
-0.013605867 0.77600002 0.0068029333 2.1206086e-38 310 235
-0.01224528 0.77600002 0.0068029333 2.0099739e-38 311 235
-0.010884693 0.77600002 0.0068029333 1.8813686e-38 312 235
-0.0094995592 0.77399999 0.0067853997 1.8537458e-38 313 235
-0.0081424797 0.77399999 0.0067853997 1.8631095e-38 314 235
-0.0067853997 0.77399999 0.0067853997 2.0198421e-38 315 235
-0.0054213065 0.773 0.0067766332 2.1390112e-38 316 235
-0.0040659797 0.773 0.0067766332 1.8071069e-38 317 235
-0.0027106532 0.773 0.0067766332 1.0505968e-38 318 235
-0.00135182 0.77100003 0.0067590997 9.0308361e-39 319 235
0 0.76700002 0.006724033 9.1277051e-39 320 235
0.0013448066 0.76700002 0.006724033 7.8369663e-39 321 235
0.0026896133 0.76700002 0.006724033 5.4366457e-39 322 235
0.00403442 0.76700002 0.006724033 3.1321151e-39 323 235
0.0053932532 0.76899999 0.0067415666 0 324 235
0.0067590997 0.77100003 0.0067590997 5.2569235e-39 325 235
0.0081109209 0.77100003 0.0067590997 1.2358528e-38 326 235
0.0094995592 0.77399999 0.0067853997 1.9365395e-38 327 235
0.010884693 0.77600002 0.0068029333 1.8260512e-38 328 235
0.01221372 0.77399999 0.0067853997 1.7615143e-38 329 235
0.013570799 0.77399999 0.0067853997 1.7339282e-38 330 235
0.014966453 0.77600002 0.0068029333 1.7062694e-38 331 235
0.01632704 0.77600002 0.0068029333 1.7432552e-38 332 235
0.017687626 0.77600002 0.0068029333 1.7432552e-38 333 235
0.019097306 0.778 0.0068204664 1.4937856e-38 334 235
0.020461399 0.778 0.0068204664 8.1157392e-39 335 235
0.021825492 0.778 0.0068204664 6.4782028e-42 336 235
0.023249198 0.77999997 0.0068379994 4.6789356e-42 337 235
0.024616797 0.77999997 0.0068379994 6.8607573e-42 338 235
-0.019048214 0.77600002 0.0054423464 1.1246069e-38 306 236
-0.017687626 0.77600002 0.0054423464 1.6593416e-38 307 236
-0.01632704 0.77600002 0.0054423464 2.129756e-38 308 236
-0.014966453 0.77600002 0.0054423464 2.1574146e-38 309 236
-0.013605867 0.77600002 0.0054423464 2.0654359e-38 310 236
-0.01224528 0.77600002 0.0054423464 2.0008989e-38 311 236
-0.010884693 0.77600002 0.0054423464 1.9181395e-38 312 236
-0.0094995592 0.77399999 0.0054283198 1.8536026e-38 313 236
-0.0081424797 0.77399999 0.0054283198 1.8079015e-38 314 236
-0.0067853997 0.77399999 0.0054283198 1.9462308e-38 315 236
-0.0054213065 0.773 0.0054213065 2.1485559e-38 316 236
-0.0040659797 0.773 0.0054213065 1.9273225e-38 317 236
-0.0027106532 0.773 0.0054213065 8.387982e-39 318 236
-0.00135182 0.77100003 0.0054072798 1.9346467e-39 319 236
0 0.76700002 0.0053792265 6.5454946e-39 320 236
0.0013448066 0.76700002 0.0053792265 6.5454946e-39 321 236
0.0026896133 0.76700002 0.0053792265 4.2424255e-39 322 236
0.00403442 0.76700002 0.0053792265 1.0155785e-39 323 236
0.0053932532 0.76899999 0.0053932532 0 324 236
0.0067590997 0.77100003 0.0054072798 7.2866918e-39 325 236
0.0081109209 0.77100003 0.0054072798 1.3371979e-38 326 236
0.0094627403 0.77100003 0.0054072798 1.8903717e-38 327 236
0.01085664 0.77399999 0.0054283198 1.7800256e-38 328 236
0.01221372 0.77399999 0.0054283198 1.7154886e-38 329 236
0.013570799 0.77399999 0.0054283198 1.6603517e-38 330 236
0.014927879 0.77399999 0.0054283198 1.6603517e-38 331 236
0.01632704 0.77600002 0.0054423464 1.6328375e-38 332 236
0.017687626 0.77600002 0.0054423464 1.6512767e-38 333 236
0.019097306 0.778 0.0054563731 1.7336388e-38 334 236
0.020461399 0.778 0.0054563731 1.1435868e-38 335 236
0.021825492 0.778 0.0054563731 1.0206189e-39 336 236
0.023249198 0.77999997 0.0054703997 1.4349296e-42 337 236
0.024648361 0.78100002 0.0054774131 1.8692481e-40 338 236
0.026017714 0.78100002 0.0054774131 1.2357108e-38 339 236
-0.019048214 0.77600002 0.0040817601 1.5765105e-38 306 237
-0.017687626 0.77600002 0.0040817601 1.9452572e-38 307 237
-0.01632704 0.77600002 0.0040817601 2.0469613e-38 308 237
-0.014966453 0.77600002 0.0040817601 2.0561809e-38 309 237
-0.013605867 0.77600002 0.0040817601 1.9093518e-38 310 237
-0.01224528 0.77600002 0.0040817601 1.9185714e-38 311 237
-0.010884693 0.77600002 0.0040817601 2.0561458e-38 312 237
-0.0094995592 0.77399999 0.0040712398 1.9270721e-38 313 237
-0.0081424797 0.77399999 0.0040712398 1.7618758e-38 314 237
-0.0067853997 0.77399999 0.0040712398 1.8171932e-38 315 237
-0.0054213065 0.773 0.0040659797 1.9550904e-38 316 237
-0.0040659797 0.773 0.0040659797 1.8721143e-38 317 237
-0.0027106532 0.773 0.0040659797 1.0517504e-38 318 237
-0.00135182 0.77100003 0.0040554604 2.3124536e-39 319 237
0 0.76899999 0.0040449398 5.1554121e-39 320 237
0.0013483133 0.76899999 0.0040449398 8.5670091e-39 321 237
0.0026966266 0.76899999 0.0040449398 9.0395059e-39 322 237
0.0040449398 0.76899999 0.0040449398 7.8409628e-39 323 237
0.0054072798 0.77100003 0.0040554604 5.6343801e-39 324 237
0.0067590997 0.77100003 0.0040554604 9.5987922e-39 325 237
0.0081109209 0.77100003 0.0040554604 1.4201033e-38 326 237
0.0094627403 0.77100003 0.0040554604 1.8626424e-38 327 237
0.010842613 0.773 0.0040659797 1.7891735e-38 328 237
0.01221372 0.77399999 0.0040712398 1.715417e-38 329 237
0.013570799 0.77399999 0.0040712398 1.660352e-38 330 237
0.014927879 0.77399999 0.0040712398 1.6510966e-38 331 237
0.01632704 0.77600002 0.0040817601 1.595996e-38 332 237
0.017687626 0.77600002 0.0040817601 1.595996e-38 333 237
0.019048214 0.77600002 0.0040817601 1.6970495e-38 334 237
0.020461399 0.778 0.0040922803 1.3467421e-38 335 237
0.021825492 0.778 0.0040922803 4.6220036e-39 336 237
0.023249198 0.77999997 0.0041027996 1.0780189e-41 337 237
0.024616797 0.77999997 0.0041027996 1.0206343e-39 338 237
0.025984399 0.77999997 0.0041027996 1.2268503e-38 339 237
-0.021909652 0.78100002 0.0027387065 4.7088295e-39 304 238
-0.020513998 0.77999997 0.0027351999 5.7233415e-39 305 238
-0.019048214 0.77600002 0.0027211732 1.6600643e-38 306 238
-0.017687626 0.77600002 0.0027211732 1.9366512e-38 307 238
-0.01632704 0.77600002 0.0027211732 1.8905181e-38 308 238
-0.014966453 0.77600002 0.0027211732 1.8905181e-38 309 238
-0.013605867 0.77600002 0.0027211732 1.7896793e-38 310 238
-0.01224528 0.77600002 0.0027211732 1.8265577e-38 311 238
-0.010884693 0.77600002 0.0027211732 2.0287392e-38 312 238
-0.0094995592 0.77399999 0.0027141599 1.9180689e-38 313 238
-0.0081424797 0.77399999 0.0027141599 1.7709875e-38 314 238
-0.0067853997 0.77399999 0.0027141599 1.7433648e-38 315 238
-0.0054213065 0.773 0.0027106532 1.7709162e-38 316 238
-0.0040659797 0.773 0.0027106532 1.7801357e-38 317 238
-0.0027106532 0.773 0.0027106532 1.3101172e-38 318 238
-0.0013553266 0.773 0.0027106532 7.4772375e-39 319 238
0 0.77100003 0.0027036399 7.4765327e-39 320 238
0.00135182 0.77100003 0.0027036399 1.0795575e-38 321 238
0.0027036399 0.77100003 0.0027036399 1.4388317e-38 322 238
0.0040554604 0.77100003 0.0027036399 1.4757101e-38 323 238
0.0054072798 0.77100003 0.0027036399 1.319443e-38 324 238
0.0067590997 0.77100003 0.0027036399 1.300968e-38 325 238
0.0081109209 0.77100003 0.0027036399 1.4938248e-38 326 238
0.0094627403 0.77100003 0.0027036399 1.7151303e-38 327 238
0.010842613 0.773 0.0027106532 1.7063068e-38 328 238
0.012197939 0.773 0.0027106532 1.6878675e-38 329 238
0.013553266 0.773 0.0027106532 1.6419492e-38 330 238
0.014927879 0.77399999 0.0027141599 1.6235461e-38 331 238
0.016284959 0.77399999 0.0027141599 1.577557e-38 332 238
0.01764204 0.77399999 0.0027141599 1.5683374e-38 333 238
0.019048214 0.77600002 0.0027211732 1.6234378e-38 334 238
0.0204088 0.77600002 0.0027211732 1.4574858e-38 335 238
0.021825492 0.778 0.0027281865 9.1414098e-39 336 238
0.023249198 0.77999997 0.0027351999 5.4535846e-39 337 238
0.024616797 0.77999997 0.0027351999 4.7214313e-39 338 238
0.025984399 0.77999997 0.0027351999 1.1359517e-38 339 238
-0.0289037 0.78500003 0.0013763667 1.7979971e-38 299 239
-0.027457198 0.78299999 0.0013728599 1.6235078e-38 300 239
-0.026084339 0.78299999 0.0013728599 1.5958852e-38 301 239
-0.024711479 0.78299999 0.0013728599 1.7063031e-38 302 239
-0.023279008 0.78100002 0.0013693533 1.7708401e-38 303 239
-0.021909652 0.78100002 0.0013693533 1.6969776e-38 304 239
-0.020513998 0.77999997 0.0013675999 1.5586842e-38 305 239
-0.019048214 0.77600002 0.0013605866 1.568265e-38 306 239
-0.017687626 0.77600002 0.0013605866 1.7158139e-38 307 239
-0.01632704 0.77600002 0.0013605866 1.7525496e-38 308 239
-0.014966453 0.77600002 0.0013605866 1.7432942e-38 309 239
-0.013605867 0.77600002 0.0013605866 1.6514953e-38 310 239
-0.01224528 0.77600002 0.0013605866 1.6146171e-38 311 239
-0.010884693 0.77600002 0.0013605866 1.6147246e-38 312 239
-0.0094995592 0.77399999 0.0013570799 1.6607866e-38 313 239
-0.0081424797 0.77399999 0.0013570799 1.752406e-38 314 239
-0.0067853997 0.77399999 0.0013570799 1.7247833e-38 315 239
-0.0054283198 0.77399999 0.0013570799 1.7064158e-38 316 239
-0.0040712398 0.77399999 0.0013570799 1.7064158e-38 317 239
-0.0027141599 0.77399999 0.0013570799 1.3839463e-38 318 239
-0.0013553266 0.773 0.0013553266 1.3470681e-38 319 239
0 0.773 0.0013553266 1.5046285e-38 320 239
0.0013553266 0.773 0.0013553266 1.6152631e-38 321 239
0.0027106532 0.773 0.0013553266 1.7988269e-38 322 239
0.0040554604 0.77100003 0.00135182 1.7988269e-38 323 239
0.0054072798 0.77100003 0.00135182 1.798502e-38 324 239
0.0067590997 0.77100003 0.00135182 1.733965e-38 325 239
0.0081109209 0.77100003 0.00135182 1.6964754e-38 326 239
0.0094627403 0.77100003 0.00135182 1.51212e-38 327 239
0.01081456 0.77100003 0.00135182 1.4302234e-38 328 239
0.012197939 0.773 0.0013553266 1.5592972e-38 329 239
0.013553266 0.773 0.0013553266 1.6328019e-38 330 239
0.014927879 0.77399999 0.0013570799 1.6235824e-38 331 239
0.016284959 0.77399999 0.0013570799 1.577557e-38 332 239
0.01764204 0.77399999 0.0013570799 1.5683374e-38 333 239
0.019048214 0.77600002 0.0013605866 1.5223114e-38 334 239
0.0204088 0.77600002 0.0013605866 1.4762494e-38 335 239
0.021825492 0.778 0.0013640933 1.4207151e-38 336 239
0.023249198 0.77999997 0.0013675999 1.3561782e-38 337 239
0.024616797 0.77999997 0.0013675999 1.2828533e-38 338 239
0.025984399 0.77999997 0.0013675999 1.4488053e-38 339 239
-0.030280067 0.78500003 -0 1.8442388e-38 298 240
-0.028830061 0.78299999 -0 1.7151651e-38 299 240
-0.027457198 0.78299999 -0 1.5956703e-38 300 240
-0.026084339 0.78299999 -0 1.7339638e-38 301 240
-0.024648361 0.78100002 -0 1.8904082e-38 302 240
-0.023279008 0.78100002 -0 1.9549452e-38 303 240
-0.021881599 0.77999997 -0 1.9365423e-38 304 240
-0.020513998 0.77999997 -0 1.8350911e-38 305 240
-0.019097306 0.778 -0 1.5773767e-38 306 240
-0.017687626 0.77600002 -0 1.6235105e-38 307 240
-0.01632704 0.77600002 -0 1.6697543e-38 308 240
-0.014966453 0.77600002 -0 1.6605348e-38 309 240
-0.013605867 0.77600002 -0 1.6421329e-38 310 240
-0.01224528 0.77600002 -0 1.577596e-38 311 240
-0.01085664 0.77399999 -0 1.4765401e-38 312 240
-0.0094995592 0.77399999 -0 1.5779553e-38 313 240
-0.0081424797 0.77399999 -0 1.7247477e-38 314 240
-0.0067853997 0.77399999 -0 1.7340032e-38 315 240
-0.0054283198 0.77399999 -0 1.641987e-38 316 240
-0.0040712398 0.77399999 -0 1.5497555e-38 317 240
-0.0027141599 0.77399999 -0 1.4208965e-38 318 240
-0.0013553266 0.773 -0 1.4577747e-38 319 240
0 0.773 -0 1.7986834e-38 320 240
0.0013553266 0.773 -0 1.7802802e-38 321 240
0.0027106532 0.773 -0 1.7251796e-38 322 240
0.0040554604 0.77100003 -0 1.7435829e-38 323 240
0.0054072798 0.77100003 -0 1.816978e-38 324 240
0.0067590997 0.77100003 -0 1.7985748e-38 325 240
0.0081109209 0.77100003 -0 1.8350916e-38 326 240
0.0094627403 0.77100003 -0 1.5861634e-38 327 240
0.01081456 0.77100003 -0 1.4022756e-38 328 240
0.012197939 0.773 -0 1.5129103e-38 329 240
0.013553266 0.773 -0 1.5500057e-38 330 240
0.014927879 0.77399999 -0 1.5961035e-38 331 240
0.016284959 0.77399999 -0 1.6142559e-38 332 240
0.01764204 0.77399999 -0 1.6050362e-38 333 240
0.018999118 0.77399999 -0 1.5037652e-38 334 240
0.0204088 0.77600002 -0 1.4761066e-38 335 240
0.021825492 0.778 -0 1.4668871e-38 336 240
0.023249198 0.77999997 -0 1.4576675e-38 337 240
0.024616797 0.77999997 -0 1.4209321e-38 338 240
0.025984399 0.77999997 -0 1.5039083e-38 339 240
-0.030280067 0.78500003 -0.0013763667 1.7614427e-38 298 241
-0.028830061 0.78299999 -0.0013728599 1.6969057e-38 299 241
-0.027457198 0.78299999 -0.0013728599 1.7430034e-38 300 241
-0.026084339 0.78299999 -0.0013728599 1.7614427e-38 301 241
-0.024648361 0.78100002 -0.0013693533 1.7891738e-38 302 241
-0.023279008 0.78100002 -0.0013693533 1.8444912e-38 303 241
-0.021881599 0.77999997 -0.0013675999 1.8997727e-38 304 241
-0.020513998 0.77999997 -0.0013675999 1.872114e-38 305 241
-0.019097306 0.778 -0.0013640933 1.5681208e-38 306 241
-0.017687626 0.77600002 -0.0013605866 1.5865599e-38 307 241
-0.01632704 0.77600002 -0.0013605866 1.5962852e-38 308 241
-0.014966453 0.77600002 -0.0013605866 1.6055048e-38 309 241
-0.013605867 0.77600002 -0.0013605866 1.6237288e-38 310 241
-0.01224528 0.77600002 -0.0013605866 1.5038745e-38 311 241
-0.01085664 0.77399999 -0.0013570799 1.5131296e-38 312 241
-0.0094872871 0.773 -0.0013553266 1.6514231e-38 313 241
-0.0081319595 0.773 -0.0013553266 1.770809e-38 314 241
-0.0067853997 0.77399999 -0.0013570799 1.7892121e-38 315 241
-0.0054213065 0.773 -0.0013553266 1.5589735e-38 316 241
-0.0040659797 0.773 -0.0013553266 1.3284843e-38 317 241
-0.0027106532 0.773 -0.0013553266 1.356575e-38 318 241
-0.0013553266 0.773 -0.0013553266 1.504052e-38 319 241
0 0.773 -0.0013553266 1.6328038e-38 320 241
0.0013553266 0.773 -0.0013553266 1.6051811e-38 321 241
0.0027036399 0.77100003 -0.00135182 1.5686635e-38 322 241
0.0040554604 0.77100003 -0.00135182 1.6147612e-38 323 241
0.0054072798 0.77100003 -0.00135182 1.7065959e-38 324 241
0.0067590997 0.77100003 -0.00135182 1.7250351e-38 325 241
0.0080898795 0.76899999 -0.0013483133 1.761696e-38 326 241
0.0094381925 0.76899999 -0.0013483133 1.6879394e-38 327 241
0.01081456 0.77100003 -0.00135182 1.6324059e-38 328 241
0.01216638 0.77100003 -0.00135182 1.5217712e-38 329 241
0.013553266 0.773 -0.0013553266 1.3935245e-38 330 241
0.014908593 0.773 -0.0013553266 1.4857561e-38 331 241
0.016263919 0.773 -0.0013553266 1.6418054e-38 332 241
0.01764204 0.77399999 -0.0013570799 1.6325857e-38 333 241
0.018999118 0.77399999 -0.0013570799 1.4577744e-38 334 241
0.0204088 0.77600002 -0.0013605866 1.3932375e-38 335 241
0.021769386 0.77600002 -0.0013605866 1.3473202e-38 336 241
0.023249198 0.77999997 -0.0013675999 1.3565397e-38 337 241
0.024616797 0.77999997 -0.0013675999 1.3932731e-38 338 241
-0.031737085 0.787 -0.0027597465 1.8901922e-38 297 242
-0.030280067 0.78500003 -0.0027527334 1.7154889e-38 298 242
-0.028830061 0.78299999 -0.0027457199 1.7247086e-38 299 242
-0.027457198 0.78299999 -0.0027457199 1.7522953e-38 300 242
-0.026084339 0.78299999 -0.0027457199 1.7707344e-38 301 242
-0.024648361 0.78100002 -0.0027387065 1.8167966e-38 302 242
-0.023279008 0.78100002 -0.0027387065 1.8444912e-38 303 242
-0.021881599 0.77999997 -0.0027351999 1.8262686e-38 304 242
-0.020513998 0.77999997 -0.0027351999 1.7986099e-38 305 242
-0.019097306 0.778 -0.0027281865 1.5591173e-38 306 242
-0.017687626 0.77600002 -0.0027211732 1.586812e-38 307 242
-0.01632704 0.77600002 -0.0027211732 1.6146525e-38 308 242
-0.014966453 0.77600002 -0.0027211732 1.6054329e-38 309 242
-0.013605867 0.77600002 -0.0027211732 1.5778465e-38 310 242
-0.01224528 0.77600002 -0.0027211732 1.4118584e-38 311 242
-0.010884693 0.77600002 -0.0027211732 1.5222047e-38 312 242
-0.0094872871 0.773 -0.0027106532 1.7158156e-38 313 242
-0.0081319595 0.773 -0.0027106532 1.7708806e-38 314 242
-0.0067766332 0.773 -0.0027106532 1.7708806e-38 315 242
-0.0054213065 0.773 -0.0027106532 1.6049993e-38 316 242
-0.0040659797 0.773 -0.0027106532 1.4482309e-38 317 242
-0.0027106532 0.773 -0.0027106532 1.4765012e-38 318 242
-0.0013553266 0.773 -0.0027106532 1.5779164e-38 319 242
0 0.773 -0.0027106532 1.6510631e-38 320 242
0.0013553266 0.773 -0.0027106532 1.6418435e-38 321 242
0.0027036399 0.77100003 -0.0027036399 1.6422035e-38 322 242
0.0040554604 0.77100003 -0.0027036399 1.6790459e-38 323 242
0.0054072798 0.77100003 -0.0027036399 1.7158156e-38 324 242
0.0067590997 0.77100003 -0.0027036399 1.7250351e-38 325 242
0.0080898795 0.76899999 -0.0026966266 1.7065953e-38 326 242
0.0094381925 0.76899999 -0.0026966266 1.6236192e-38 327 242
0.01081456 0.77100003 -0.0027036399 1.6510616e-38 328 242
0.01216638 0.77100003 -0.0027036399 1.6049996e-38 329 242
0.013553266 0.773 -0.0027106532 1.4759971e-38 330 242
0.014908593 0.773 -0.0027106532 1.3838014e-38 331 242
0.016263919 0.773 -0.0027106532 1.3371998e-38 332 242
0.01764204 0.77399999 -0.0027141599 1.1896868e-38 333 242
0.018999118 0.77399999 -0.0027141599 8.397047e-39 334 242
0.0204088 0.77600002 -0.0027211732 9.6877844e-39 335 242
0.021769386 0.77600002 -0.0027211732 9.0582539e-39 336 242
0.023249198 0.77999997 -0.0027351999 1.1178753e-38 337 242
0.024616797 0.77999997 -0.0027351999 1.3841258e-38 338 242
-0.033116959 0.787 -0.0041396199 1.9548014e-38 296 243
-0.031656433 0.78500003 -0.0041291001 1.8626056e-38 297 243
-0.030280067 0.78500003 -0.0041291001 1.6602438e-38 298 243
-0.0289037 0.78500003 -0.0041291001 1.6971221e-38 299 243
-0.027457198 0.78299999 -0.0041185799 1.7431483e-38 300 243
-0.026084339 0.78299999 -0.0041185799 1.7799905e-38 301 243
-0.024648361 0.78100002 -0.0041080597 1.8168695e-38 302 243
-0.023279008 0.78100002 -0.0041080597 1.8444922e-38 303 243
-0.021909652 0.78100002 -0.0041080597 1.7433661e-38 304 243
-0.020513998 0.77999997 -0.0041027996 1.6973041e-38 305 243
-0.019097306 0.778 -0.0040922803 1.5868859e-38 306 243
-0.017687626 0.77600002 -0.0040817601 1.6237641e-38 307 243
-0.01632704 0.77600002 -0.0040817601 1.6053976e-38 308 243
-0.014966453 0.77600002 -0.0040817601 1.596178e-38 309 243
-0.013605867 0.77600002 -0.0040817601 1.5501521e-38 310 243
-0.01224528 0.77600002 -0.0040817601 1.3934195e-38 311 243
-0.010884693 0.77600002 -0.0040817601 1.5313893e-38 312 243
-0.0094872871 0.773 -0.0040659797 1.6880858e-38 313 243
-0.0081319595 0.773 -0.0040659797 1.6880855e-38 314 243
-0.0067766332 0.773 -0.0040659797 1.7157802e-38 315 243
-0.0054213065 0.773 -0.0040659797 1.7156351e-38 316 243
-0.0040659797 0.773 -0.0040659797 1.6787928e-38 317 243
-0.0027106532 0.773 -0.0040659797 1.6514934e-38 318 243
-0.0013553266 0.773 -0.0040659797 1.6330543e-38 319 243
0 0.773 -0.0040659797 1.6512063e-38 320 243
0.0013553266 0.773 -0.0040659797 1.6696096e-38 321 243
0.0027036399 0.77100003 -0.0040554604 1.6790095e-38 322 243
0.0040554604 0.77100003 -0.0040554604 1.7158519e-38 323 243
0.0054072798 0.77100003 -0.0040554604 1.725107e-38 324 243
0.0067590997 0.77100003 -0.0040554604 1.6882288e-38 325 243
0.0080898795 0.76899999 -0.0040449398 1.6237638e-38 326 243
0.0094381925 0.76899999 -0.0040449398 1.5592269e-38 327 243
0.01081456 0.77100003 -0.0040554604 1.6052524e-38 328 243
0.01216638 0.77100003 -0.0040554604 1.6513502e-38 329 243
0.013518199 0.77100003 -0.0040554604 1.4116053e-38 330 243
0.014908593 0.773 -0.0040659797 1.0335672e-38 331 243
0.016263919 0.773 -0.0040659797 4.3393477e-39 332 243
0.01764204 0.77399999 -0.0040712398 2.8273999e-40 333 243
0.018999118 0.77399999 -0.0040712398 3.9236357e-44 334 243
0.020513998 0.77999997 -0.0041027996 2.6737307e-39 335 243
0.021881599 0.77999997 -0.0041027996 3.3511324e-39 336 243
0.02333862 0.78299999 -0.0041185799 8.8828702e-39 337 243
-0.033116959 0.787 -0.005519493 1.9732398e-38 296 244
-0.031656433 0.78500003 -0.0055054668 1.8718607e-38 297 244
-0.030280067 0.78500003 -0.0055054668 1.6693912e-38 298 244
-0.0289037 0.78500003 -0.0055054668 1.7154889e-38 299 244
-0.027457198 0.78299999 -0.0054914397 1.7340006e-38 300 244
-0.026084339 0.78299999 -0.0054914397 1.7524398e-38 301 244
-0.024711479 0.78299999 -0.0054914397 1.752441e-38 302 244
-0.02333862 0.78299999 -0.0054914397 1.752441e-38 303 244
-0.021909652 0.78100002 -0.0054774131 1.6697543e-38 304 244
-0.020513998 0.77999997 -0.0054703997 1.6513152e-38 305 244
-0.019097306 0.778 -0.0054563731 1.6328768e-38 306 244
-0.017687626 0.77600002 -0.0054423464 1.6236572e-38 307 244
-0.01632704 0.77600002 -0.0054423464 1.5960707e-38 308 244
-0.014966453 0.77600002 -0.0054423464 1.5776316e-38 309 244
-0.013605867 0.77600002 -0.0054423464 1.5132743e-38 310 244
-0.01224528 0.77600002 -0.0054423464 1.3933839e-38 311 244
-0.010884693 0.77600002 -0.0054423464 1.4761804e-38 312 244
-0.0094872871 0.773 -0.0054213065 1.5776316e-38 313 244
-0.0081319595 0.773 -0.0054213065 1.5225663e-38 314 244
-0.0067766332 0.773 -0.0054213065 1.5594085e-38 315 244
-0.0054213065 0.773 -0.0054213065 1.6328765e-38 316 244
-0.0040659797 0.773 -0.0054213065 1.6236569e-38 317 244
-0.0027106532 0.773 -0.0054213065 1.6328038e-38 318 244
-0.0013553266 0.773 -0.0054213065 1.5867061e-38 319 244
0 0.77100003 -0.0054072798 1.6514581e-38 320 244
0.00135182 0.77100003 -0.0054072798 1.6883364e-38 321 244
0.0027036399 0.77100003 -0.0054072798 1.7250348e-38 322 244
0.0040554604 0.77100003 -0.0054072798 1.7065956e-38 323 244
0.0054072798 0.77100003 -0.0054072798 1.5961413e-38 324 244
0.0067415666 0.76899999 -0.0053932532 1.5592272e-38 325 244
0.0080898795 0.76899999 -0.0053932532 1.4858307e-38 326 244
0.0094381925 0.76899999 -0.0053932532 1.4858307e-38 327 244
0.01081456 0.77100003 -0.0054072798 1.5592272e-38 328 244
0.01216638 0.77100003 -0.0054072798 1.5961413e-38 329 244
0.013518199 0.77100003 -0.0054072798 1.2553053e-38 330 244
0.014908593 0.773 -0.0054213065 8.1280215e-39 331 244
0.016263919 0.773 -0.0054213065 7.5866299e-42 332 244
0.017619247 0.773 -0.0054213065 1.2611686e-44 333 244
0.018999118 0.77399999 -0.0054283198 3.3631163e-44 334 244
0.020356199 0.77399999 -0.0054283198 4.7195732e-42 335 244
0.021713279 0.77399999 -0.0054283198 2.5120139e-39 336 244
-0.032948639 0.78299999 -0.0068642995 1.9732401e-38 296 245
-0.031575777 0.78299999 -0.0068642995 1.8626054e-38 297 245
-0.030280067 0.78500003 -0.0068818335 1.6785029e-38 298 245
-0.0289037 0.78500003 -0.0068818335 1.7246366e-38 299 245
-0.027457198 0.78299999 -0.0068642995 1.7156341e-38 300 245
-0.026084339 0.78299999 -0.0068642995 1.7248537e-38 301 245
-0.024648361 0.78100002 -0.0068467669 1.6973038e-38 302 245
-0.023279008 0.78100002 -0.0068467669 1.6880843e-38 303 245
-0.021881599 0.77999997 -0.0068379994 1.6328765e-38 304 245
-0.020513998 0.77999997 -0.0068379994 1.6328765e-38 305 245
-0.019097306 0.778 -0.0068204664 1.5960707e-38 306 245
-0.017687626 0.77600002 -0.0068029333 1.5776316e-38 307 245
-0.01632704 0.77600002 -0.0068029333 1.5408619e-38 308 245
-0.014966453 0.77600002 -0.0068029333 1.5316423e-38 309 245
-0.013605867 0.77600002 -0.0068029333 1.5223861e-38 310 245
-0.01224528 0.77600002 -0.0068029333 1.420971e-38 311 245
-0.010884693 0.77600002 -0.0068029333 1.3291717e-38 312 245
-0.0094872871 0.773 -0.0067766332 1.4305867e-38 313 245
-0.0081319595 0.773 -0.0067766332 1.4765053e-38 314 245
-0.0067766332 0.773 -0.0067766332 1.5133477e-38 315 245
-0.0054213065 0.773 -0.0067766332 1.5776681e-38 316 245
-0.0040659797 0.773 -0.0067766332 1.5500455e-38 317 245
-0.0027106532 0.773 -0.0067766332 1.4948353e-38 318 245
-0.0013553266 0.773 -0.0067766332 1.4671407e-38 319 245
0 0.77100003 -0.0067590997 1.651495e-38 320 245
0.00135182 0.77100003 -0.0067590997 1.7160319e-38 321 245
0.0026966266 0.76899999 -0.0067415666 1.71578e-38 322 245
0.0040449398 0.76899999 -0.0067415666 1.6420235e-38 323 245
0.0053932532 0.76899999 -0.0067415666 1.4673561e-38 324 245
0.0067415666 0.76899999 -0.0067415666 1.4673561e-38 325 245
0.0080898795 0.76899999 -0.0067415666 1.4765401e-38 326 245
0.0094381925 0.76899999 -0.0067415666 1.4765401e-38 327 245
0.010786506 0.76899999 -0.0067415666 1.5040546e-38 328 245
0.012134819 0.76899999 -0.0067415666 1.5316774e-38 329 245
0.013518199 0.77100003 -0.0067590997 1.0896424e-38 330 245
0.01487002 0.77100003 -0.0067590997 5.9182201e-39 331 245
0.016221842 0.77100003 -0.0067590997 6.5300508e-42 332 245
0.017619247 0.773 -0.0067766332 1.8483127e-42 333 245
0.018974574 0.773 -0.0067766332 6.887382e-42 334 245
0.0203299 0.773 -0.0067766332 3.6461786e-42 335 245
-0.032948639 0.78299999 -0.0082371598 1.9548014e-38 296 246
-0.031575777 0.78299999 -0.0082371598 1.816508e-38 297 246
-0.03020292 0.78299999 -0.0082371598 1.6877227e-38 298 246
-0.028830061 0.78299999 -0.0082371598 1.7522597e-38 299 246
-0.027457198 0.78299999 -0.0082371598 1.7063787e-38 300 246
-0.026084339 0.78299999 -0.0082371598 1.6510972e-38 301 246
-0.024648361 0.78100002 -0.0082161194 1.6788294e-38 302 246
-0.023279008 0.78100002 -0.0082161194 1.6972685e-38 303 246
-0.021881599 0.77999997 -0.0082055992 1.6328765e-38 304 246
-0.020513998 0.77999997 -0.0082055992 1.6144372e-38 305 246
-0.019097306 0.778 -0.0081845606 1.5225663e-38 306 246
-0.017687626 0.77600002 -0.0081635201 1.5133108e-38 307 246
-0.01632704 0.77600002 -0.0081635201 1.4489542e-38 308 246
-0.014966453 0.77600002 -0.0081635201 1.4673574e-38 309 246
-0.013605867 0.77600002 -0.0081635201 1.5683767e-38 310 246
-0.01224528 0.77600002 -0.0081635201 1.476145e-38 311 246
-0.01085664 0.77399999 -0.0081424797 1.2005662e-38 312 246
-0.0094872871 0.773 -0.0081319595 1.311201e-38 313 246
-0.0081319595 0.773 -0.0081319595 1.4856897e-38 314 246
-0.0067766332 0.773 -0.0081319595 1.5502261e-38 315 246
-0.0054213065 0.773 -0.0081319595 1.5776684e-38 316 246
-0.0040659797 0.773 -0.0081319595 1.5131315e-38 317 246
-0.0027106532 0.773 -0.0081319595 1.3477186e-38 318 246
-0.0013553266 0.773 -0.0081319595 1.3661577e-38 319 246
0 0.77100003 -0.0081109209 1.6422398e-38 320 246
0.00135182 0.77100003 -0.0081109209 1.6053976e-38 321 246
0.0026966266 0.76899999 -0.0080898795 1.4211138e-38 322 246
0.0040449398 0.76899999 -0.0080898795 1.4026388e-38 323 246
0.0053932532 0.76899999 -0.0080898795 1.4120752e-38 324 246
0.006724033 0.76700002 -0.00806884 1.4489893e-38 325 246
0.00806884 0.76700002 -0.00806884 1.4673927e-38 326 246
0.0094381925 0.76899999 -0.0080898795 1.4858319e-38 327 246
0.010786506 0.76899999 -0.0080898795 1.4855798e-38 328 246
0.012134819 0.76899999 -0.0080898795 1.4763603e-38 329 246
0.013518199 0.77100003 -0.0081109209 8.5033075e-39 330 246
0.01487002 0.77100003 -0.0081109209 1.8652221e-39 331 246
0.016221842 0.77100003 -0.0081109209 7.2517196e-42 332 246
0.01757366 0.77100003 -0.0081109209 1.0132789e-41 333 246
0.018925481 0.77100003 -0.0081109209 1.4794811e-39 334 246
-0.032948639 0.78299999 -0.0096100196 1.9363626e-38 296 247
-0.031575777 0.78299999 -0.0096100196 1.7980691e-38 297 247
-0.03020292 0.78299999 -0.0096100196 1.6969073e-38 298 247
-0.028830061 0.78299999 -0.0096100196 1.7706638e-38 299 247
-0.027457198 0.78299999 -0.0096100196 1.6328038e-38 300 247
-0.026084339 0.78299999 -0.0096100196 1.4668876e-38 301 247
-0.024648361 0.78100002 -0.0095854728 1.4121831e-38 302 247
-0.023279008 0.78100002 -0.0095854728 1.5135981e-38 303 247
-0.021881599 0.77999997 -0.0095731998 1.5868874e-38 304 247
-0.020513998 0.77999997 -0.0095731998 1.5776679e-38 305 247
-0.019097306 0.778 -0.0095486529 1.4857969e-38 306 247
-0.017687626 0.77600002 -0.009524107 1.4857969e-38 307 247
-0.01632704 0.77600002 -0.009524107 1.439771e-38 308 247
-0.014966453 0.77600002 -0.009524107 1.439771e-38 309 247
-0.013605867 0.77600002 -0.009524107 1.5501173e-38 310 247
-0.01221372 0.77399999 -0.0094995592 1.4855804e-38 311 247
-0.01085664 0.77399999 -0.0094995592 1.1910949e-38 312 247
-0.0094872871 0.773 -0.0094872871 1.2740711e-38 313 247
-0.0081319595 0.773 -0.0094872871 1.5683416e-38 314 247
-0.0067766332 0.773 -0.0094872871 1.6236227e-38 315 247
-0.0054213065 0.773 -0.0094872871 1.5317508e-38 316 247
-0.0040659797 0.773 -0.0094872871 1.4395193e-38 317 247
-0.0027106532 0.773 -0.0094872871 1.3569025e-38 318 247
-0.00135182 0.77100003 -0.0094627403 1.3937808e-38 319 247
0 0.77100003 -0.0094627403 1.5316774e-38 320 247
0.00135182 0.77100003 -0.0094627403 1.494835e-38 321 247
0.0026966266 0.76899999 -0.0094381925 1.3471415e-38 322 247
0.0040449398 0.76899999 -0.0094381925 1.3840558e-38 323 247
0.0053932532 0.76899999 -0.0094381925 1.4948347e-38 324 247
0.006724033 0.76700002 -0.0094136465 1.5040543e-38 325 247
0.00806884 0.76700002 -0.0094136465 1.5040195e-38 326 247
0.0094381925 0.76899999 -0.0094381925 1.4948e-38 327 247
0.01081456 0.77100003 -0.0094627403 1.4028204e-38 328 247
0.01216638 0.77100003 -0.0094627403 1.3106608e-38 329 247
0.013518199 0.77100003 -0.0094627403 4.3598921e-39 330 247
0.014908593 0.773 -0.0094872871 1.5533393e-41 331 247
0.016263919 0.773 -0.0094872871 5.4342354e-42 332 247
0.017619247 0.773 -0.0094872871 4.7253606e-40 333 247
-0.032948639 0.78299999 -0.010982879 1.9363626e-38 296 248
-0.031575777 0.78299999 -0.010982879 1.8072887e-38 297 248
-0.030280067 0.78500003 -0.011010934 1.6786479e-38 298 248
-0.028830061 0.78299999 -0.010982879 1.761624e-38 299 248
-0.027457198 0.78299999 -0.010982879 1.5869578e-38 300 248
-0.026084339 0.78299999 -0.010982879 1.3472851e-38 301 248
-0.024648361 0.78100002 -0.010954826 1.191417e-38 302 248
-0.023279008 0.78100002 -0.010954826 1.2928681e-38 303 248
-0.021881599 0.77999997 -0.010940799 1.5040918e-38 304 248
-0.020513998 0.77999997 -0.010940799 1.522531e-38 305 248
-0.019097306 0.778 -0.010912746 1.4398796e-38 306 248
-0.017687626 0.77600002 -0.010884693 1.4398796e-38 307 248
-0.01632704 0.77600002 -0.010884693 1.4306241e-38 308 248
-0.014966453 0.77600002 -0.010884693 1.4306241e-38 309 248
-0.013605867 0.77600002 -0.010884693 1.5685212e-38 310 248
-0.01221372 0.77399999 -0.01085664 1.531607e-38 311 248
-0.01085664 0.77399999 -0.01085664 1.328775e-38 312 248
-0.0094872871 0.773 -0.010842613 1.264238e-38 313 248
-0.0081319595 0.773 -0.010842613 1.4762884e-38 314 248
-0.0067766332 0.773 -0.010842613 1.6422404e-38 315 248
-0.0054213065 0.773 -0.010842613 1.5133125e-38 316 248
-0.0040659797 0.773 -0.010842613 1.3842391e-38 317 248
-0.0027106532 0.773 -0.010842613 1.3844543e-38 318 248
-0.00135182 0.77100003 -0.01081456 1.4028934e-38 319 248
0 0.77100003 -0.01081456 1.3198804e-38 320 248
0.00135182 0.77100003 -0.01081456 1.2829662e-38 321 248
0.0027036399 0.77100003 -0.01081456 1.5679448e-38 322 248
0.0040449398 0.76899999 -0.010786506 1.6509209e-38 323 248
0.0053932532 0.76899999 -0.010786506 1.5500802e-38 324 248
0.0067415666 0.76899999 -0.010786506 1.5224214e-38 325 248
0.0080898795 0.76899999 -0.010786506 1.5222789e-38 326 248
0.0094381925 0.76899999 -0.010786506 1.5038397e-38 327 248
0.01081456 0.77100003 -0.01081456 1.3016205e-38 328 248
0.01216638 0.77100003 -0.01081456 1.0434728e-38 329 248
0.013553266 0.773 -0.010842613 2.9668263e-39 330 248
0.014908593 0.773 -0.010842613 2.8810696e-42 331 248
0.016263919 0.773 -0.010842613 1.793662e-42 332 248
0.0191464 0.77999997 -0.010940799 9.2701358e-40 334 248
0.020513998 0.77999997 -0.010940799 4.3370187e-42 335 248
-0.032948639 0.78299999 -0.012355739 1.9455821e-38 296 249
-0.031575777 0.78299999 -0.012355739 1.7888135e-38 297 249
-0.030280067 0.78500003 -0.0123873 1.559082e-38 298 249
-0.028830061 0.78299999 -0.012355739 1.6236189e-38 299 249
-0.027457198 0.78299999 -0.012355739 1.596106e-38 300 249
-0.026084339 0.78299999 -0.012355739 1.4946549e-38 301 249
-0.024648361 0.78100002 -0.01232418 1.3474662e-38 302 249
-0.023279008 0.78100002 -0.01232418 1.3382466e-38 303 249
-0.021909652 0.78100002 -0.01232418 1.3016221e-38 304 249
-0.020513998 0.77999997 -0.012308398 1.3661591e-38 305 249
-0.0191464 0.77999997 -0.012308398 1.4124011e-38 306 249
-0.017733213 0.778 -0.012276839 1.4124011e-38 307 249
-0.01632704 0.77600002 -0.01224528 1.4582471e-38 308 249
-0.014966453 0.77600002 -0.01224528 1.4675024e-38 309 249
-0.013605867 0.77600002 -0.01224528 1.5868527e-38 310 249
-0.01221372 0.77399999 -0.01221372 1.2733877e-38 311 249
-0.01085664 0.77399999 -0.01221372 7.4837241e-39 312 249
-0.0094627403 0.77100003 -0.01216638 4.9022465e-39 313 249
-0.0081109209 0.77100003 -0.01216638 7.8647456e-39 314 249
-0.0067590997 0.77100003 -0.01216638 1.2290496e-38 315 249
-0.0054072798 0.77100003 -0.01216638 1.5132049e-38 316 249
-0.0040554604 0.77100003 -0.01216638 1.4209741e-38 317 249
-0.0027106532 0.773 -0.012197939 1.3108776e-38 318 249
-0.00135182 0.77100003 -0.01216638 1.3477198e-38 319 249
0 0.77100003 -0.01216638 1.3289201e-38 320 249
0.00135182 0.77100003 -0.01216638 1.3289201e-38 321 249
0.0027036399 0.77100003 -0.01216638 1.5132758e-38 322 249
0.0040554604 0.77100003 -0.01216638 1.5593735e-38 323 249
0.0054072798 0.77100003 -0.01216638 1.5225663e-38 324 249
0.0067415666 0.76899999 -0.012134819 1.485652e-38 325 249
0.0080898795 0.76899999 -0.012134819 1.4855801e-38 326 249
0.0094381925 0.76899999 -0.012134819 1.3657258e-38 327 249
0.01081456 0.77100003 -0.01216638 1.2370109e-38 328 249
0.012197939 0.773 -0.012197939 1.0803144e-38 329 249
0.013553266 0.773 -0.012197939 7.666637e-39 330 249
0.014908593 0.773 -0.012197939 2.5955172e-39 331 249
0.016263919 0.773 -0.012197939 2.8698593e-42 332 249
0.017733213 0.778 -0.012276839 1.793662e-42 333 249
0.0191464 0.77999997 -0.012308398 1.0930128e-42 334 249
0.020513998 0.77999997 -0.012308398 1.1081608e-39 335 249
-0.032948639 0.78299999 -0.013728599 1.9546935e-38 296 250
-0.031575777 0.78299999 -0.013728599 1.7887772e-38 297 250
-0.030280067 0.78500003 -0.013763667 1.4211486e-38 298 250
-0.0289037 0.78500003 -0.013763667 1.4949051e-38 299 250
-0.027457198 0.78299999 -0.013728599 1.5316779e-38 300 250
-0.026084339 0.78299999 -0.013728599 1.5316779e-38 301 250
-0.024711479 0.78299999 -0.013728599 1.4487026e-38 302 250
-0.023279008 0.78100002 -0.013693534 1.3472514e-38 303 250
-0.021909652 0.78100002 -0.013693534 1.1451419e-38 304 250
-0.020540299 0.78100002 -0.013693534 1.1820202e-38 305 250
-0.0191464 0.77999997 -0.013675999 1.3571562e-38 306 250
-0.017733213 0.778 -0.013640933 1.4401311e-38 307 250
-0.01632704 0.77600002 -0.013605867 1.541186e-38 308 250
-0.014966453 0.77600002 -0.013605867 1.5227113e-38 309 250
-0.013605867 0.77600002 -0.013605867 1.4945496e-38 310 250
-0.01221372 0.77399999 -0.013570799 7.2932582e-39 311 250
-0.01085664 0.77399999 -0.013570799 9.0411777e-42 312 250
-0.0094627403 0.77100003 -0.013518199 2.8025969e-44 313 250
-0.0081109209 0.77100003 -0.013518199 1.1707989e-40 314 250
-0.0067590997 0.77100003 -0.013518199 8.5990778e-39 315 250
-0.0054072798 0.77100003 -0.013518199 1.3011202e-38 316 250
-0.0040554604 0.77100003 -0.013518199 1.3288148e-38 317 250
-0.0027106532 0.773 -0.013553266 1.200422e-38 318 250
-0.00135182 0.77100003 -0.013518199 1.2188612e-38 319 250
0 0.77100003 -0.013518199 1.4393747e-38 320 250
0.00135182 0.77100003 -0.013518199 1.5131312e-38 321 250
0.0027036399 0.77100003 -0.013518199 1.4122568e-38 322 250
0.0040554604 0.77100003 -0.013518199 1.4214765e-38 323 250
0.0054072798 0.77100003 -0.013518199 1.4674301e-38 324 250
0.0067415666 0.76899999 -0.013483133 1.4305517e-38 325 250
0.0080898795 0.76899999 -0.013483133 1.4120031e-38 326 250
0.0094381925 0.76899999 -0.013483133 1.1999532e-38 327 250
0.01081456 0.77100003 -0.013518199 1.0988977e-38 328 250
0.012197939 0.773 -0.013553266 1.2003129e-38 329 250
0.013553266 0.773 -0.013553266 1.4388314e-38 330 250
0.014927879 0.77399999 -0.013570799 1.2636957e-38 331 250
0.016284959 0.77399999 -0.013570799 5.9941831e-39 332 250
0.017733213 0.778 -0.013640933 9.3662789e-41 333 250
0.019097306 0.778 -0.013640933 5.7453237e-44 334 250
-0.033032801 0.78500003 -0.015140033 1.9455821e-38 296 251
-0.031656433 0.78500003 -0.015140033 1.8165082e-38 297 251
-0.030280067 0.78500003 -0.015140033 1.5223842e-38 298 251
-0.0289037 0.78500003 -0.015140033 1.5500429e-38 299 251
-0.027527334 0.78500003 -0.015140033 1.5040195e-38 300 251
-0.026084339 0.78299999 -0.01510146 1.5040195e-38 301 251
-0.024711479 0.78299999 -0.01510146 1.4488113e-38 302 251
-0.02333862 0.78299999 -0.01510146 1.4027135e-38 303 251
-0.021909652 0.78100002 -0.015062887 1.3015152e-38 304 251
-0.020540299 0.78100002 -0.015062887 1.2646368e-38 305 251
-0.019170946 0.78100002 -0.015062887 1.1912763e-38 306 251
-0.017778799 0.77999997 -0.0150436 1.2189709e-38 307 251
-0.016369121 0.778 -0.015005025 1.3660875e-38 308 251
-0.015005025 0.778 -0.015005025 1.2185743e-38 309 251
-0.013605867 0.77600002 -0.014966453 8.6797856e-39 310 251
