# .PCD v.7 - Point Cloud Data file format
FIELDS x y z rgb imX imY
SIZE 4 4 4 4 4 4
TYPE F F F F F F
COUNT 1 1 1 1 1 1
WIDTH 842
HEIGHT 1
VIEWPOINT 0 0 0 1 0 0 0
POINTS 842
DATA ascii
-0.010842613 0.773 0.0081319595 1.9090297e-38 312 234
-0.0094872871 0.773 0.0081319595 1.8997742e-38 313 234
-0.0081319595 0.773 0.0081319595 2.0012955e-38 314 234
-0.0067766332 0.773 0.0081319595 2.2591531e-38 315 234
-0.0054213065 0.773 0.0081319595 2.2496108e-38 316 234
-0.0040712398 0.77399999 0.0081424797 2.0744405e-38 317 234
-0.0027106532 0.773 0.0081319595 1.807903e-38 318 234
-0.0013553266 0.773 0.0081319595 1.7710606e-38 319 234
0 0.773 0.0081319595 1.7710253e-38 320 234
0.0013553266 0.773 0.0081319595 1.7525862e-38 321 234
0.0027106532 0.773 0.0081319595 1.7525859e-38 322 234
0.0040659797 0.773 0.0081319595 1.7525859e-38 323 234
0.0054283198 0.77399999 0.0081424797 1.7710604e-38 324 234
0.0067853997 0.77399999 0.0081424797 1.798719e-38 325 234
0.0081424797 0.77399999 0.0081424797 1.8354531e-38 326 234
0.0094995592 0.77399999 0.0081424797 1.8261977e-38 327 234
0.010940799 0.77999997 0.0082055992 1.780172e-38 328 234
0.012308398 0.77999997 0.0082055992 1.7064155e-38 329 234
0.013675999 0.77999997 0.0082055992 1.6327316e-38 330 234
0.0150436 0.77999997 0.0082055992 1.5866698e-38 331 234
0.016411198 0.77999997 0.0082055992 1.5776666e-38 332 234
0.017778799 0.77999997 0.0082055992 1.632984e-38 333 234
-0.03777732 0.79799998 0.0069957995 1.8812985e-38 293 235
-0.036286984 0.796 0.0069782664 1.7154183e-38 294 235
-0.03489133 0.796 0.0069782664 1.7707357e-38 295 235
-0.033495679 0.796 0.0069782664 1.7799555e-38 296 235
-0.031858064 0.79000002 0.0069256667 1.770736e-38 297 235
-0.03035721 0.787 0.0068993662 1.807542e-38 298 235
-0.0289037 0.78500003 0.0068818335 1.807542e-38 299 235
-0.027457198 0.78299999 0.0068642995 1.7891032e-38 300 235
-0.026017714 0.78100002 0.0068467669 1.7891032e-38 301 235
-0.024616797 0.77999997 0.0068379994 1.7525493e-38 302 235
-0.023189586 0.778 0.0068204664 1.780172e-38 303 235
-0.021713279 0.77399999 0.0067853997 1.7434389e-38 304 235
-0.020356199 0.77399999 0.0067853997 1.7249998e-38 305 235
-0.018974574 0.773 0.0067766332 1.6698992e-38 306 235
-0.017619247 0.773 0.0067766332 1.7252158e-38 307 235
-0.016263919 0.773 0.0067766332 1.8357412e-38 308 235
-0.014908593 0.773 0.0067766332 1.8910577e-38 309 235
-0.013553266 0.773 0.0067766332 1.9184649e-38 310 235
-0.012197939 0.773 0.0067766332 1.8539289e-38 311 235
-0.010842613 0.773 0.0067766332 1.8354894e-38 312 235
-0.0094872871 0.773 0.0067766332 1.8908425e-38 313 235
-0.0081319595 0.773 0.0067766332 2.0748722e-38 314 235
-0.0067766332 0.773 0.0067766332 2.3050708e-38 315 235
-0.0054213065 0.773 0.0067766332 2.1853977e-38 316 235
-0.0040659797 0.773 0.0067766332 1.97335e-38 317 235
-0.0027106532 0.773 0.0067766332 1.752766e-38 318 235
-0.00135182 0.77100003 0.0067590997 1.7343269e-38 319 235
0 0.77100003 0.0067590997 1.7342547e-38 320 235
0.0013553266 0.773 0.0067766332 1.7250351e-38 321 235
0.0027106532 0.773 0.0067766332 1.7433663e-38 322 235
0.0040659797 0.773 0.0067766332 1.7525859e-38 323 235
0.0054213065 0.773 0.0067766332 1.7803158e-38 324 235
0.0067853997 0.77399999 0.0067853997 1.8079386e-38 325 235
0.0081424797 0.77399999 0.0067853997 1.8353456e-38 326 235
0.0094995592 0.77399999 0.0067853997 1.8076868e-38 327 235
0.010884693 0.77600002 0.0068029333 1.7433663e-38 328 235
0.012276839 0.778 0.0068204664 1.6972685e-38 329 235
0.013640933 0.778 0.0068204664 1.6696098e-38 330 235
0.0150436 0.77999997 0.0068379994 1.6050729e-38 331 235
0.016411198 0.77999997 0.0068379994 1.5592272e-38 332 235
0.017778799 0.77999997 0.0068379994 1.5868859e-38 333 235
-0.03777732 0.79799998 0.0055966396 1.8536401e-38 293 236
-0.036286984 0.796 0.0055826134 1.6879041e-38 294 236
-0.03489133 0.796 0.0055826134 1.7248183e-38 295 236
-0.033495679 0.796 0.0055826134 1.7340379e-38 296 236
-0.031858064 0.79000002 0.0055405335 1.7340379e-38 297 236
-0.030280067 0.78500003 0.0055054668 1.7523694e-38 298 236
-0.028830061 0.78299999 0.0054914397 1.7523694e-38 299 236
-0.027387068 0.78100002 0.0054774131 1.7523697e-38 300 236
-0.025984399 0.77999997 0.0054703997 1.7615893e-38 301 236
-0.024616797 0.77999997 0.0054703997 1.7433666e-38 302 236
-0.023189586 0.778 0.0054563731 1.7618058e-38 303 236
-0.021713279 0.77399999 0.0054283198 1.725072e-38 304 236
-0.020356199 0.77399999 0.0054283198 1.725072e-38 305 236
-0.018974574 0.773 0.0054213065 1.6974857e-38 306 236
-0.017619247 0.773 0.0054213065 1.7159246e-38 307 236
-0.016263919 0.773 0.0054213065 1.725144e-38 308 236
-0.014908593 0.773 0.0054213065 1.7527664e-38 309 236
-0.013553266 0.773 0.0054213065 1.7895006e-38 310 236
-0.012197939 0.773 0.0054213065 1.7802812e-38 311 236
-0.010842613 0.773 0.0054213065 1.8078677e-38 312 236
-0.0094627403 0.77100003 0.0054072798 1.9093172e-38 313 236
-0.0081109209 0.77100003 0.0054072798 2.1302246e-38 314 236
-0.0067590997 0.77100003 0.0054072798 2.2683366e-38 315 236
-0.0054072798 0.77100003 0.0054072798 2.1026381e-38 316 236
-0.0040659797 0.773 0.0054213065 1.8721872e-38 317 236
-0.0027036399 0.77100003 0.0054072798 1.7342197e-38 318 236
-0.00135182 0.77100003 0.0054072798 1.7250001e-38 319 236
0 0.77100003 0.0054072798 1.7524787e-38 320 236
0.00135182 0.77100003 0.0054072798 1.7524787e-38 321 236
0.0027036399 0.77100003 0.0054072798 1.7525143e-38 322 236
0.0040554604 0.77100003 0.0054072798 1.780137e-38 323 236
0.0054213065 0.773 0.0054213065 1.8904831e-38 324 236
0.0067766332 0.773 0.0054213065 1.8904831e-38 325 236
0.0081319595 0.773 0.0054213065 1.7891035e-38 326 236
0.0094872871 0.773 0.0054213065 1.7614089e-38 327 236
0.01085664 0.77399999 0.0054283198 1.7340026e-38 328 236
0.01221372 0.77399999 0.0054283198 1.7524416e-38 329 236
0.013640933 0.778 0.0054563731 1.7247833e-38 330 236
0.015005025 0.778 0.0054563731 1.6510268e-38 331 236
0.016411198 0.77999997 0.0054703997 1.5867061e-38 332 236
0.017778799 0.77999997 0.0054703997 1.5959615e-38 333 236
-0.036286984 0.796 0.0041869599 1.6695375e-38 294 237
-0.034803666 0.79400003 0.0041764397 1.6880127e-38 295 237
-0.033411518 0.79400003 0.0041764397 1.7155637e-38 296 237
-0.031817738 0.78899997 0.0041501396 1.7247833e-38 297 237
-0.030280067 0.78500003 0.0041291001 1.7338947e-38 298 237
-0.028830061 0.78299999 0.0041185799 1.7523697e-38 299 237
-0.027387068 0.78100002 0.0041080597 1.7248552e-38 300 237
-0.025984399 0.77999997 0.0041027996 1.7248552e-38 301 237
-0.024616797 0.77999997 0.0041027996 1.697449e-38 302 237
-0.023129974 0.77600002 0.0040817601 1.7158521e-38 303 237
-0.021713279 0.77399999 0.0040712398 1.7158168e-38 304 237
-0.020356199 0.77399999 0.0040712398 1.7158168e-38 305 237
-0.018974574 0.773 0.0040659797 1.6974857e-38 306 237
-0.017619247 0.773 0.0040659797 1.6974857e-38 307 237
-0.016263919 0.773 0.0040659797 1.7341841e-38 308 237
-0.014908593 0.773 0.0040659797 1.7618065e-38 309 237
-0.013553266 0.773 0.0040659797 1.7802453e-38 310 237
-0.012197939 0.773 0.0040659797 1.77099e-38 311 237
-0.010842613 0.773 0.0040659797 1.7986124e-38 312 237
-0.0094627403 0.77100003 0.0040554604 1.9000619e-38 313 237
-0.0081109209 0.77100003 0.0040554604 2.0475368e-38 314 237
-0.0067590997 0.77100003 0.0040554604 2.1397669e-38 315 237
-0.0054072798 0.77100003 0.0040554604 1.9739249e-38 316 237
-0.0040554604 0.77100003 0.0040554604 1.7710959e-38 317 237
-0.0027036399 0.77100003 0.0040554604 1.7433666e-38 318 237
-0.0013483133 0.76899999 0.0040449398 1.7341471e-38 319 237
0 0.76899999 0.0040449398 1.706272e-38 320 237
0.00135182 0.77100003 0.0040554604 1.770809e-38 321 237
0.0027036399 0.77100003 0.0040554604 1.8444574e-38 322 237
0.0040554604 0.77100003 0.0040554604 1.7891402e-38 323 237
0.0054213065 0.773 0.0040659797 1.8991994e-38 324 237
0.0067766332 0.773 0.0040659797 1.9637364e-38 325 237
0.0081319595 0.773 0.0040659797 1.7797036e-38 326 237
0.0094872871 0.773 0.0040659797 1.6783242e-38 327 237
0.01085664 0.77399999 0.0040712398 1.8255496e-38 328 237
0.01221372 0.77399999 0.0040712398 1.8255496e-38 329 237
0.013570799 0.77399999 0.0040712398 1.7613376e-38 330 237
0.015005025 0.778 0.0040922803 1.7152038e-38 331 237
0.016369121 0.778 0.0040922803 1.5681949e-38 332 237
0.017733213 0.778 0.0040922803 1.5774145e-38 333 237
0.0191464 0.77999997 0.0041027996 1.5684833e-38 334 237
-0.037682641 0.796 0.0027913067 1.8536048e-38 293 238
-0.036195815 0.79400003 0.0027842934 1.6419514e-38 294 238
-0.034803666 0.79400003 0.0027842934 1.6419514e-38 295 238
-0.033411518 0.79400003 0.0027842934 1.6879418e-38 296 238
-0.031817738 0.78899997 0.0027667598 1.7063808e-38 297 238
-0.030280067 0.78500003 0.0027527334 1.6879421e-38 298 238
-0.028830061 0.78299999 0.0027457199 1.7063452e-38 299 238
-0.027387068 0.78100002 0.0027387065 1.6880142e-38 300 238
-0.025984399 0.77999997 0.0027351999 1.6972338e-38 301 238
-0.024553679 0.778 0.0027281865 1.6790109e-38 302 238
-0.023129974 0.77600002 0.0027211732 1.6882304e-38 303 238
-0.021713279 0.77399999 0.0027141599 1.6882304e-38 304 238
-0.020356199 0.77399999 0.0027141599 1.6882304e-38 305 238
-0.018974574 0.773 0.0027106532 1.6974499e-38 306 238
-0.017619247 0.773 0.0027106532 1.6974499e-38 307 238
-0.016263919 0.773 0.0027106532 1.7341841e-38 308 238
-0.014908593 0.773 0.0027106532 1.7434035e-38 309 238
-0.013553266 0.773 0.0027106532 1.77099e-38 310 238
-0.01216638 0.77100003 0.0027036399 1.77099e-38 311 238
-0.01081456 0.77100003 0.0027036399 1.7710618e-38 312 238
-0.0094627403 0.77100003 0.0027036399 1.8355977e-38 313 238
-0.0081109209 0.77100003 0.0027036399 1.8911295e-38 314 238
-0.0067590997 0.77100003 0.0027036399 1.9833596e-38 315 238
-0.0053932532 0.76899999 0.0026966266 1.8633277e-38 316 238
-0.0040449398 0.76899999 0.0026966266 1.6881209e-38 317 238
-0.0026966266 0.76899999 0.0026966266 1.7707734e-38 318 238
-0.0013483133 0.76899999 0.0026966266 1.7892124e-38 319 238
0 0.76899999 0.0026966266 1.6968001e-38 320 238
0.00135182 0.77100003 0.0027036399 1.761337e-38 321 238
0.0027036399 0.77100003 0.0027036399 1.8904828e-38 322 238
0.0040554604 0.77100003 0.0027036399 1.7706643e-38 323 238
0.0054072798 0.77100003 0.0027036399 1.7701255e-38 324 238
0.0067590997 0.77100003 0.0027036399 1.9176025e-38 325 238
0.0081319595 0.773 0.0027106532 1.7797404e-38 326 238
0.0094872871 0.773 0.0027106532 1.6046046e-38 327 238
0.010842613 0.773 0.0027106532 1.7979267e-38 328 238
0.012197939 0.773 0.0027106532 1.7610126e-38 329 238
0.013553266 0.773 0.0027106532 1.70584e-38 330 238
0.014927879 0.77399999 0.0027141599 1.70584e-38 331 238
0.01632704 0.77600002 0.0027211732 1.6048211e-38 332 238
0.017687626 0.77600002 0.0027211732 1.6048211e-38 333 238
0.019048214 0.77600002 0.0027211732 1.5500076e-38 334 238
0.020461399 0.778 0.0027281865 1.5961413e-38 335 238
-0.037587963 0.79400003 0.0013921467 1.8812635e-38 293 239
-0.036195815 0.79400003 0.0013921467 1.6419517e-38 294 239
-0.034803666 0.79400003 0.0013921467 1.6327322e-38 295 239
-0.033411518 0.79400003 0.0013921467 1.6695392e-38 296 239
-0.031817738 0.78899997 0.0013833799 1.6695392e-38 297 239
-0.030280067 0.78500003 0.0013763667 1.6695392e-38 298 239
-0.028830061 0.78299999 0.0013728599 1.6787947e-38 299 239
-0.027387068 0.78100002 0.0013693533 1.6787947e-38 300 239
-0.025984399 0.77999997 0.0013675999 1.6880142e-38 301 239
-0.024553679 0.778 0.0013640933 1.6880505e-38 302 239
-0.023129974 0.77600002 0.0013605866 1.6972701e-38 303 239
-0.021713279 0.77399999 0.0013570799 1.7065257e-38 304 239
-0.020356199 0.77399999 0.0013570799 1.7065257e-38 305 239
-0.018974574 0.773 0.0013553266 1.697414e-38 306 239
-0.017619247 0.773 0.0013553266 1.715817e-38 307 239
-0.016263919 0.773 0.0013553266 1.7249645e-38 308 239
-0.014908593 0.773 0.0013553266 1.7341841e-38 309 239
-0.013518199 0.77100003 0.00135182 1.7617704e-38 310 239
-0.01216638 0.77100003 0.00135182 1.77099e-38 311 239
-0.01081456 0.77100003 0.00135182 1.7618423e-38 312 239
-0.0094627403 0.77100003 0.00135182 1.7434392e-38 313 239
-0.0081109209 0.77100003 0.00135182 1.7898593e-38 314 239
-0.0067415666 0.76899999 0.0013483133 1.891273e-38 315 239
-0.0053932532 0.76899999 0.0013483133 1.7986483e-38 316 239
-0.0040449398 0.76899999 0.0013483133 1.6050376e-38 317 239
-0.0026966266 0.76899999 0.0013483133 1.7245312e-38 318 239
-0.0013483133 0.76899999 0.0013483133 1.8074714e-38 319 239
0 0.76899999 0.0013483133 1.8440609e-38 320 239
0.0013483133 0.76899999 0.0013483133 1.8164023e-38 321 239
0.0027036399 0.77100003 0.00135182 1.8717197e-38 322 239
0.0040554604 0.77100003 0.00135182 1.8071827e-38 323 239
0.0054072798 0.77100003 0.00135182 1.6690341e-38 324 239
0.0067590997 0.77100003 0.00135182 1.7611937e-38 325 239
0.0081109209 0.77100003 0.00135182 1.6969439e-38 326 239
0.0094627403 0.77100003 0.00135182 1.5494669e-38 327 239
0.010842613 0.773 0.0013553266 1.7152022e-38 328 239
0.012197939 0.773 0.0013553266 1.7152022e-38 329 239
0.013553266 0.773 0.0013553266 1.659598e-38 330 239
0.014927879 0.77399999 0.0013570799 1.659598e-38 331 239
0.016284959 0.77399999 0.0013570799 1.5676183e-38 332 239
0.01764204 0.77399999 0.0013570799 1.5768379e-38 333 239
0.019048214 0.77600002 0.0013605866 1.49451e-38 334 239
0.0204088 0.77600002 0.0013605866 1.5867417e-38 335 239
-0.037587963 0.79400003 -0 1.9365086e-38 293 240
-0.036195815 0.79400003 -0 1.7063808e-38 294 240
-0.034803666 0.79400003 -0 1.6510634e-38 295 240
-0.03332736 0.792 -0 1.6419531e-38 296 240
-0.031817738 0.78899997 -0 1.6327334e-38 297 240
-0.030280067 0.78500003 -0 1.6143666e-38 298 240
-0.028830061 0.78299999 -0 1.6236222e-38 299 240
-0.027387068 0.78100002 -0 1.6236222e-38 300 240
-0.025984399 0.77999997 -0 1.6328417e-38 301 240
-0.024553679 0.778 -0 1.6146543e-38 302 240
-0.023129974 0.77600002 -0 1.6238738e-38 303 240
-0.021713279 0.77399999 -0 1.6514245e-38 304 240
-0.020356199 0.77399999 -0 1.6606439e-38 305 240
-0.018974574 0.773 -0 1.6882304e-38 306 240
-0.017619247 0.773 -0 1.6974499e-38 307 240
-0.016263919 0.773 -0 1.715817e-38 308 240
-0.014908593 0.773 -0 1.7250364e-38 309 240
-0.013518199 0.77100003 -0 1.7342558e-38 310 240
-0.01216638 0.77100003 -0 1.7342558e-38 311 240
-0.01081456 0.77100003 -0 1.7617704e-38 312 240
-0.0094381925 0.76899999 -0 1.7433313e-38 313 240
-0.0080898795 0.76899999 -0 1.807796e-38 314 240
-0.006724033 0.76700002 -0 1.8815513e-38 315 240
-0.0053792265 0.76700002 -0 1.8996673e-38 316 240
-0.00403442 0.76700002 -0 1.7060571e-38 317 240
-0.0026896133 0.76700002 -0 1.6598148e-38 318 240
-0.0013483133 0.76899999 -0 1.7796332e-38 319 240
0 0.76899999 -0 1.835166e-38 320 240
0.0013483133 0.76899999 -0 1.7060921e-38 321 240
0.0026966266 0.76899999 -0 1.742718e-38 322 240
0.0040554604 0.77100003 -0 1.7519375e-38 323 240
0.0054072798 0.77100003 -0 1.7332466e-38 324 240
0.0067590997 0.77100003 -0 1.7885281e-38 325 240
0.0081109209 0.77100003 -0 1.6968004e-38 326 240
0.0094627403 0.77100003 -0 1.6322634e-38 327 240
0.01081456 0.77100003 -0 1.6783262e-38 328 240
0.012197939 0.773 -0 1.6598511e-38 329 240
0.013553266 0.773 -0 1.586058e-38 330 240
0.014927879 0.77399999 -0 1.6229002e-38 331 240
0.016284959 0.77399999 -0 1.5218082e-38 332 240
0.01764204 0.77399999 -0 1.4757104e-38 333 240
0.018999118 0.77399999 -0 1.4482324e-38 334 240
0.0204088 0.77600002 -0 1.5589032e-38 335 240
0.021769386 0.77600002 -0 1.6880493e-38 336 240
-0.037587963 0.79400003 -0.0013921467 1.9640948e-38 293 241
-0.036104638 0.792 -0.0013886399 1.7247833e-38 294 241
-0.034715999 0.792 -0.0013886399 1.6694659e-38 295 241
-0.03332736 0.792 -0.0013886399 1.6419887e-38 296 241
-0.031817738 0.78899997 -0.0013833799 1.6327331e-38 297 241
-0.030280067 0.78500003 -0.0013763667 1.6327337e-38 298 241
-0.028830061 0.78299999 -0.0013728599 1.6327337e-38 299 241
-0.027387068 0.78100002 -0.0013693533 1.6143666e-38 300 241
-0.025984399 0.77999997 -0.0013675999 1.6236222e-38 301 241
-0.024553679 0.778 -0.0013640933 1.6329133e-38 302 241
-0.023129974 0.77600002 -0.0013605866 1.6513883e-38 303 241
-0.021713279 0.77399999 -0.0013570799 1.6514599e-38 304 241
-0.020356199 0.77399999 -0.0013570799 1.6698992e-38 305 241
-0.018974574 0.773 -0.0013553266 1.688266e-38 306 241
-0.017619247 0.773 -0.0013553266 1.6974856e-38 307 241
-0.016221842 0.77100003 -0.00135182 1.7250364e-38 308 241
-0.01487002 0.77100003 -0.00135182 1.7250364e-38 309 241
-0.013518199 0.77100003 -0.00135182 1.7342915e-38 310 241
-0.012134819 0.76899999 -0.0013483133 1.7435111e-38 311 241
-0.010786506 0.76899999 -0.0013483133 1.798612e-38 312 241
-0.0094381925 0.76899999 -0.0013483133 1.7063805e-38 313 241
-0.0080898795 0.76899999 -0.0013483133 1.7335357e-38 314 241
-0.006724033 0.76700002 -0.0013448066 1.7704139e-38 315 241
-0.0053792265 0.76700002 -0.0013448066 1.8535702e-38 316 241
-0.00403442 0.76700002 -0.0013448066 1.8443505e-38 317 241
-0.0026896133 0.76700002 -0.0013448066 1.5769479e-38 318 241
-0.0013483133 0.76899999 -0.0013483133 1.5861674e-38 319 241
0 0.76899999 -0.0013483133 1.6787228e-38 320 241
0.0013483133 0.76899999 -0.0013483133 1.5864911e-38 321 241
0.0026966266 0.76899999 -0.0013483133 1.6137537e-38 322 241
0.0040449398 0.76899999 -0.0013483133 1.6782906e-38 323 241
0.0054072798 0.77100003 -0.00135182 1.6782906e-38 324 241
0.0067590997 0.77100003 -0.00135182 1.6967297e-38 325 241
0.0081109209 0.77100003 -0.00135182 1.7061284e-38 326 241
0.0094627403 0.77100003 -0.00135182 1.6785057e-38 327 241
0.01081456 0.77100003 -0.00135182 1.6968725e-38 328 241
0.012197939 0.773 -0.0013553266 1.6599944e-38 329 241
0.013553266 0.773 -0.0013553266 1.5955662e-38 330 241
0.014908593 0.773 -0.0013553266 1.5679435e-38 331 241
0.016284959 0.77399999 -0.0013570799 1.4850387e-38 332 241
0.01764204 0.77399999 -0.0013570799 1.4205017e-38 333 241
0.018999118 0.77399999 -0.0013570799 1.3744043e-38 334 241
0.0204088 0.77600002 -0.0013605866 1.5311369e-38 335 241
0.021769386 0.77600002 -0.0013605866 1.6511714e-38 336 241
-0.036013465 0.79000002 -0.0027702667 1.770809e-38 294 242
-0.034628332 0.79000002 -0.0027702667 1.6970523e-38 295 242
-0.033243202 0.79000002 -0.0027702667 1.6326612e-38 296 242
-0.031737085 0.787 -0.0027597465 1.6326612e-38 297 242
-0.030280067 0.78500003 -0.0027527334 1.605147e-38 298 242
-0.028830061 0.78299999 -0.0027457199 1.605147e-38 299 242
-0.027457198 0.78299999 -0.0027457199 1.5960354e-38 300 242
-0.026017714 0.78100002 -0.0027387065 1.6144386e-38 301 242
-0.024616797 0.77999997 -0.0027351999 1.6053626e-38 302 242
-0.023129974 0.77600002 -0.0027211732 1.6422048e-38 303 242
-0.021713279 0.77399999 -0.0027141599 1.6330931e-38 304 242
-0.020356199 0.77399999 -0.0027141599 1.6423127e-38 305 242
-0.018974574 0.773 -0.0027106532 1.7250364e-38 306 242
-0.017619247 0.773 -0.0027106532 1.7342558e-38 307 242
-0.016221842 0.77100003 -0.0027036399 1.7618423e-38 308 242
-0.01487002 0.77100003 -0.0027036399 1.7434392e-38 309 242
-0.013518199 0.77100003 -0.0027036399 1.7524787e-38 310 242
-0.012134819 0.76899999 -0.0026966266 1.7156003e-38 311 242
-0.010786506 0.76899999 -0.0026966266 1.7706653e-38 312 242
-0.0094381925 0.76899999 -0.0026966266 1.79836e-38 313 242
-0.0080898795 0.76899999 -0.0026966266 1.7150963e-38 314 242
-0.006724033 0.76700002 -0.0026896133 1.6321202e-38 315 242
-0.0053792265 0.76700002 -0.0026896133 1.6234773e-38 316 242
-0.00403442 0.76700002 -0.0026896133 1.6972338e-38 317 242
-0.0026896133 0.76700002 -0.0026896133 1.5586896e-38 318 242
-0.0013483133 0.76899999 -0.0026966266 1.4665299e-38 319 242
0 0.76899999 -0.0026966266 1.6324815e-38 320 242
0.0013483133 0.76899999 -0.0026966266 1.5956391e-38 321 242
0.0026966266 0.76899999 -0.0026966266 1.5221341e-38 322 242
0.0040449398 0.76899999 -0.0026966266 1.5682318e-38 323 242
0.0053932532 0.76899999 -0.0026966266 1.5956388e-38 324 242
0.0067590997 0.77100003 -0.0027036399 1.5864192e-38 325 242
0.0081109209 0.77100003 -0.0027036399 1.6508114e-38 326 242
0.0094627403 0.77100003 -0.0027036399 1.6508114e-38 327 242
0.01081456 0.77100003 -0.0027036399 1.6508114e-38 328 242
0.012197939 0.773 -0.0027106532 1.613969e-38 329 242
0.013553266 0.773 -0.0027106532 1.5956391e-38 330 242
0.014908593 0.773 -0.0027106532 1.558725e-38 331 242
0.016284959 0.77399999 -0.0027141599 1.4666002e-38 332 242
0.01764204 0.77399999 -0.0027141599 1.3928437e-38 333 242
0.018999118 0.77399999 -0.0027141599 1.4387611e-38 334 242
0.0204088 0.77600002 -0.0027211732 1.5309927e-38 335 242
0.021769386 0.77600002 -0.0027211732 1.6142209e-38 336 242
0.023129974 0.77600002 -0.0027211732 1.7248196e-38 337 242
-0.034628332 0.79000002 -0.0041554002 1.7338228e-38 295 243
-0.033201117 0.78899997 -0.0041501396 1.5958906e-38 296 243
-0.031656433 0.78500003 -0.0041291001 1.6051461e-38 297 243
-0.03020292 0.78299999 -0.0041185799 1.5959275e-38 298 243
-0.028830061 0.78299999 -0.0041185799 1.5959275e-38 299 243
-0.027387068 0.78100002 -0.0041080597 1.5868158e-38 300 243
-0.025984399 0.77999997 -0.0041027996 1.5960354e-38 301 243
-0.024616797 0.77999997 -0.0041027996 1.6145821e-38 302 243
-0.023129974 0.77600002 -0.0040817601 1.6422048e-38 303 243
-0.021713279 0.77399999 -0.0040712398 1.6514244e-38 304 243
-0.020356199 0.77399999 -0.0040712398 1.6698992e-38 305 243
-0.018974574 0.773 -0.0040659797 1.7434394e-38 306 243
-0.01757366 0.77100003 -0.0040554604 1.7802812e-38 307 243
-0.016221842 0.77100003 -0.0040554604 1.7527305e-38 308 243
-0.01487002 0.77100003 -0.0040554604 1.7342558e-38 309 243
-0.013483133 0.76899999 -0.0040449398 1.7706656e-38 310 243
-0.012134819 0.76899999 -0.0040449398 1.660031e-38 311 243
-0.010786506 0.76899999 -0.0040449398 1.6505593e-38 312 243
-0.0094381925 0.76899999 -0.0040449398 1.8349506e-38 313 243
-0.0080898795 0.76899999 -0.0040449398 1.8073292e-38 314 243
-0.006724033 0.76700002 -0.00403442 1.5584369e-38 315 243
-0.0053792265 0.76700002 -0.00403442 1.4391226e-38 316 243
-0.00403442 0.76700002 -0.00403442 1.5313542e-38 317 243
-0.0026896133 0.76700002 -0.00403442 1.5128439e-38 318 243
-0.0013483133 0.76899999 -0.0040449398 1.4575624e-38 319 243
0 0.76899999 -0.0040449398 1.5679445e-38 320 243
0.0013483133 0.76899999 -0.0040449398 1.5864195e-38 321 243
0.0026966266 0.76899999 -0.0040449398 1.4945833e-38 322 243
0.0040449398 0.76899999 -0.0040449398 1.522206e-38 323 243
0.0053932532 0.76899999 -0.0040449398 1.5404659e-38 324 243
0.0067590997 0.77100003 -0.0040554604 1.5035876e-38 325 243
0.0081109209 0.77100003 -0.0040554604 1.521847e-38 326 243
0.0094627403 0.77100003 -0.0040554604 1.521847e-38 327 243
0.01081456 0.77100003 -0.0040554604 1.4851129e-38 328 243
0.012197939 0.773 -0.0040659797 1.4943684e-38 329 243
0.013553266 0.773 -0.0040659797 1.5036246e-38 330 243
0.014908593 0.773 -0.0040659797 1.4483073e-38 331 243
0.016284959 0.77399999 -0.0040712398 1.4114996e-38 332 243
0.01764204 0.77399999 -0.0040712398 1.4114996e-38 333 243
0.019048214 0.77600002 -0.0040817601 1.4664202e-38 334 243
0.0204088 0.77600002 -0.0040817601 1.4572006e-38 335 243
0.021825492 0.778 -0.0040922803 1.5219892e-38 336 243
0.023189586 0.778 -0.0040922803 1.6879774e-38 337 243
-0.033116959 0.787 -0.005519493 1.6326966e-38 296 244
-0.031656433 0.78500003 -0.0055054668 1.623477e-38 297 244
-0.03020292 0.78299999 -0.0054914397 1.577596e-38 298 244
-0.028830061 0.78299999 -0.0054914397 1.577596e-38 299 244
-0.027387068 0.78100002 -0.0054774131 1.5868514e-38 300 244
-0.025984399 0.77999997 -0.0054703997 1.596071e-38 301 244
-0.024616797 0.77999997 -0.0054703997 1.6236935e-38 302 244
-0.023129974 0.77600002 -0.0054423464 1.6421685e-38 303 244
-0.021769386 0.77600002 -0.0054423464 1.6789389e-38 304 244
-0.020356199 0.77399999 -0.0054283198 1.6881586e-38 305 244
-0.018974574 0.773 -0.0054213065 1.7249645e-38 306 244
-0.01757366 0.77100003 -0.0054072798 1.7434394e-38 307 244
-0.016221842 0.77100003 -0.0054072798 1.7617706e-38 308 244
-0.014831445 0.76899999 -0.0053932532 1.6880142e-38 309 244
-0.013483133 0.76899999 -0.0053932532 1.7152763e-38 310 244
-0.012134819 0.76899999 -0.0053932532 1.7705937e-38 311 244
-0.010786506 0.76899999 -0.0053932532 1.7240643e-38 312 244
-0.0094381925 0.76899999 -0.0053932532 1.6410882e-38 313 244
-0.0080898795 0.76899999 -0.0053932532 1.5956391e-38 314 244
-0.006724033 0.76700002 -0.0053792265 1.5679445e-38 315 244
-0.0053792265 0.76700002 -0.0053792265 1.4942962e-38 316 244
-0.00403442 0.76700002 -0.0053792265 1.5219189e-38 317 244
-0.0026966266 0.76899999 -0.0053932532 1.5310671e-38 318 244
-0.0013483133 0.76899999 -0.0053932532 1.5218475e-38 319 244
0 0.76899999 -0.0053932532 1.4942962e-38 320 244
0.0013483133 0.76899999 -0.0053932532 1.5496136e-38 321 244
0.0026966266 0.76899999 -0.0053932532 1.5221344e-38 322 244
0.0040449398 0.76899999 -0.0053932532 1.5221344e-38 323 244
0.0054072798 0.77100003 -0.0054072798 1.5220272e-38 324 244
0.0067590997 0.77100003 -0.0054072798 1.5128075e-38 325 244
0.0081109209 0.77100003 -0.0054072798 1.4760734e-38 326 244
0.0094627403 0.77100003 -0.0054072798 1.4760734e-38 327 244
0.01081456 0.77100003 -0.0054072798 1.4485226e-38 328 244
0.012197939 0.773 -0.0054213065 1.4392672e-38 329 244
0.013553266 0.773 -0.0054213065 1.4025334e-38 330 244
0.014927879 0.77399999 -0.0054283198 1.3379965e-38 331 244
0.016284959 0.77399999 -0.0054283198 1.3287755e-38 332 244
0.01764204 0.77399999 -0.0054283198 1.3748375e-38 333 244
0.019048214 0.77600002 -0.0054423464 1.4848596e-38 334 244
0.0204088 0.77600002 -0.0054423464 1.4018835e-38 335 244
0.021825492 0.778 -0.0054563731 1.4204664e-38 336 244
-0.033116959 0.787 -0.0068993662 1.6511361e-38 296 245
-0.031656433 0.78500003 -0.0068818335 1.6326968e-38 297 245
-0.03020292 0.78299999 -0.0068642995 1.5684486e-38 298 245
-0.028830061 0.78299999 -0.0068642995 1.5684486e-38 299 245
-0.027387068 0.78100002 -0.0068467669 1.5684486e-38 300 245
-0.025984399 0.77999997 -0.0068379994 1.5868877e-38 301 245
-0.024553679 0.778 -0.0068204664 1.605327e-38 302 245
-0.02307036 0.77399999 -0.0067853997 1.6329855e-38 303 245
-0.021713279 0.77399999 -0.0067853997 1.6513527e-38 304 245
-0.0203299 0.773 -0.0067766332 1.6513527e-38 305 245
-0.018974574 0.773 -0.0067766332 1.7340047e-38 306 245
-0.01757366 0.77100003 -0.0067590997 1.7708465e-38 307 245
-0.016221842 0.77100003 -0.0067590997 1.7891052e-38 308 245
-0.014831445 0.76899999 -0.0067415666 1.6784704e-38 309 245
-0.013483133 0.76899999 -0.0067415666 1.6505599e-38 310 245
-0.012134819 0.76899999 -0.0067415666 1.7427555e-38 311 245
-0.010786506 0.76899999 -0.0067415666 1.7427922e-38 312 245
-0.0094381925 0.76899999 -0.0067415666 1.5307421e-38 313 245
-0.0080898795 0.76899999 -0.0067415666 1.4113199e-38 314 245
-0.006724033 0.76700002 -0.006724033 1.5772718e-38 315 245
-0.0053792265 0.76700002 -0.006724033 1.5954606e-38 316 245
-0.00403442 0.76700002 -0.006724033 1.4848617e-38 317 245
-0.0026966266 0.76899999 -0.0067415666 1.4848978e-38 318 245
-0.0013483133 0.76899999 -0.0067415666 1.5125924e-38 319 245
0 0.76899999 -0.0067415666 1.4760013e-38 320 245
0.0013483133 0.76899999 -0.0067415666 1.5036598e-38 321 245
0.0026966266 0.76899999 -0.0067415666 1.4946202e-38 322 245
0.0040449398 0.76899999 -0.0067415666 1.4853647e-38 323 245
0.0054072798 0.77100003 -0.0067590997 1.448487e-38 324 245
0.0067590997 0.77100003 -0.0067590997 1.4577066e-38 325 245
0.0081109209 0.77100003 -0.0067590997 1.448667e-38 326 245
0.0094627403 0.77100003 -0.0067590997 1.4210081e-38 327 245
0.010842613 0.773 -0.0067766332 1.393422e-38 328 245
0.012197939 0.773 -0.0067766332 1.374947e-38 329 245
0.013553266 0.773 -0.0067766332 1.3198453e-38 330 245
0.014927879 0.77399999 -0.0067853997 1.2829312e-38 331 245
0.016284959 0.77399999 -0.0067853997 1.3011891e-38 332 245
0.017687626 0.77600002 -0.0068029333 1.3380315e-38 333 245
0.019048214 0.77600002 -0.0068029333 1.402352e-38 334 245
0.0204088 0.77600002 -0.0068029333 1.3285955e-38 335 245
0.021825492 0.778 -0.0068204664 1.3468545e-38 336 245
-0.033032801 0.78500003 -0.0082582003 1.6418082e-38 296 246
-0.031575777 0.78299999 -0.0082371598 1.6234051e-38 297 246
-0.03020292 0.78299999 -0.0082371598 1.5959631e-38 298 246
-0.028830061 0.78299999 -0.0082371598 1.5959631e-38 299 246
-0.027387068 0.78100002 -0.0082161194 1.577596e-38 300 246
-0.025984399 0.77999997 -0.0082055992 1.596071e-38 301 246
-0.024553679 0.778 -0.0081845606 1.6236219e-38 302 246
-0.02307036 0.77399999 -0.0081424797 1.6328415e-38 303 246
-0.021713279 0.77399999 -0.0081424797 1.6879789e-38 304 246
-0.0203299 0.773 -0.0081319595 1.6879789e-38 305 246
-0.018974574 0.773 -0.0081319595 1.6234054e-38 306 246
-0.01757366 0.77100003 -0.0081109209 1.6694673e-38 307 246
-0.016221842 0.77100003 -0.0081109209 1.770594e-38 308 246
-0.014831445 0.76899999 -0.0080898795 1.8074364e-38 309 246
-0.013483133 0.76899999 -0.0080898795 1.7610517e-38 310 246
-0.012134819 0.76899999 -0.0080898795 1.585916e-38 311 246
-0.010786506 0.76899999 -0.0080898795 1.5403584e-38 312 246
-0.0094381925 0.76899999 -0.0080898795 1.6141149e-38 313 246
-0.0080898795 0.76899999 -0.0080898795 1.5677296e-38 314 246
-0.0067415666 0.76899999 -0.0080898795 1.5308873e-38 315 246
-0.0053932532 0.76899999 -0.0080898795 1.530852e-38 316 246
-0.0040449398 0.76899999 -0.0080898795 1.512377e-38 317 246
-0.0026966266 0.76899999 -0.0080898795 1.5032653e-38 318 246
-0.0013483133 0.76899999 -0.0080898795 1.5401435e-38 319 246
0 0.76899999 -0.0080898795 1.5130243e-38 320 246
0.0013483133 0.76899999 -0.0080898795 1.4945493e-38 321 246
0.0026966266 0.76899999 -0.0080898795 1.448811e-38 322 246
0.0040449398 0.76899999 -0.0080898795 1.4304079e-38 323 246
0.0054072798 0.77100003 -0.0081109209 1.4303e-38 324 246
0.0067590997 0.77100003 -0.0081109209 1.4303e-38 325 246
0.0081109209 0.77100003 -0.0081109209 1.4027135e-38 326 246
0.0094872871 0.773 -0.0081319595 1.3842744e-38 327 246
0.010842613 0.773 -0.0081319595 1.3656922e-38 328 246
0.012197939 0.773 -0.0081319595 1.3564725e-38 329 246
0.013570799 0.77399999 -0.0081424797 1.3197021e-38 330 246
0.014927879 0.77399999 -0.0081424797 1.301299e-38 331 246
0.016284959 0.77399999 -0.0081424797 1.2829312e-38 332 246
0.017687626 0.77600002 -0.0081635201 1.2921508e-38 333 246
0.019048214 0.77600002 -0.0081635201 1.365511e-38 334 246
0.0204088 0.77600002 -0.0081635201 1.300974e-38 335 246
0.021825492 0.778 -0.0081845606 1.2182128e-38 336 246
-0.033032801 0.78500003 -0.0096345674 1.6692158e-38 296 247
-0.031575777 0.78299999 -0.0096100196 1.6692158e-38 297 247
-0.03020292 0.78299999 -0.0096100196 1.5959275e-38 298 247
-0.028830061 0.78299999 -0.0096100196 1.5867079e-38 299 247
-0.027387068 0.78100002 -0.0095854728 1.568413e-38 300 247
-0.025984399 0.77999997 -0.0095731998 1.5776684e-38 301 247
-0.024490559 0.77600002 -0.009524107 1.5776328e-38 302 247
-0.02307036 0.77399999 -0.0094995592 1.5960721e-38 303 247
-0.021713279 0.77399999 -0.0094995592 1.6512448e-38 304 247
-0.0203299 0.773 -0.0094872871 1.669684e-38 305 247
-0.018974574 0.773 -0.0094872871 1.6878342e-38 306 247
-0.01757366 0.77100003 -0.0094627403 1.6325168e-38 307 247
-0.016179759 0.76899999 -0.0094381925 1.6415567e-38 308 247
-0.014831445 0.76899999 -0.0094381925 1.659996e-38 309 247
-0.013483133 0.76899999 -0.0094381925 1.6507058e-38 310 247
-0.012134819 0.76899999 -0.0094381925 1.5308873e-38 311 247
-0.010786506 0.76899999 -0.0094381925 1.4758936e-38 312 247
-0.0094136465 0.76700002 -0.0094136465 1.5865644e-38 313 247
-0.00806884 0.76700002 -0.0094136465 1.5495429e-38 314 247
-0.0067415666 0.76899999 -0.0094381925 1.485006e-38 315 247
-0.0053932532 0.76899999 -0.0094381925 1.4757864e-38 316 247
-0.0040449398 0.76899999 -0.0094381925 1.4757864e-38 317 247
-0.0026966266 0.76899999 -0.0094381925 1.4209012e-38 318 247
-0.0013483133 0.76899999 -0.0094381925 1.4485239e-38 319 247
0 0.76899999 -0.0094381925 1.4211893e-38 320 247
0.0013483133 0.76899999 -0.0094381925 1.4211893e-38 321 247
0.0026966266 0.76899999 -0.0094381925 1.3936383e-38 322 247
0.0040449398 0.76899999 -0.0094381925 1.3844187e-38 323 247
0.0054072798 0.77100003 -0.0094627403 1.3659797e-38 324 247
0.0067590997 0.77100003 -0.0094627403 1.3383212e-38 325 247
0.0081109209 0.77100003 -0.0094627403 1.3290663e-38 326 247
0.0094872871 0.773 -0.0094872871 1.3198467e-38 327 247
0.010842613 0.773 -0.0094872871 1.310627e-38 328 247
0.012197939 0.773 -0.0094872871 1.3014075e-38 329 247
0.013570799 0.77399999 -0.0094995592 1.24627e-38 330 247
0.014927879 0.77399999 -0.0094995592 1.2554896e-38 331 247
0.01632704 0.77600002 -0.009524107 1.2921155e-38 332 247
0.017687626 0.77600002 -0.009524107 1.2921155e-38 333 247
0.019097306 0.778 -0.0095486529 1.2921145e-38 334 247
0.020461399 0.778 -0.0095486529 1.2275775e-38 335 247
0.021825492 0.778 -0.0095486529 1.2271804e-38 336 247
0.023249198 0.77999997 -0.0095731998 1.4761085e-38 337 247
-0.033032801 0.78500003 -0.011010934 1.6323719e-38 296 248
-0.031575777 0.78299999 -0.010982879 1.6692861e-38 297 248
-0.03020292 0.78299999 -0.010982879 1.5959628e-38 298 248
-0.028756421 0.78100002 -0.010954826 1.5867432e-38 299 248
-0.027387068 0.78100002 -0.010954826 1.5683767e-38 300 248
-0.025984399 0.77999997 -0.010940799 1.5775962e-38 301 248
-0.024490559 0.77600002 -0.010884693 1.5775965e-38 302 248
-0.02307036 0.77399999 -0.01085664 1.5775965e-38 303 248
-0.021713279 0.77399999 -0.01085664 1.549902e-38 304 248
-0.0203299 0.773 -0.010842613 1.5406823e-38 305 248
-0.018925481 0.77100003 -0.01081456 1.7430445e-38 306 248
-0.01757366 0.77100003 -0.01081456 1.770703e-38 307 248
-0.016179759 0.76899999 -0.010786506 1.6509211e-38 308 248
-0.014831445 0.76899999 -0.010786506 1.5771646e-38 309 248
-0.013483133 0.76899999 -0.010786506 1.5221359e-38 310 248
-0.012134819 0.76899999 -0.010786506 1.4945133e-38 311 248
-0.010758453 0.76700002 -0.010758453 1.5311035e-38 312 248
-0.0094136465 0.76700002 -0.010758453 1.5126643e-38 313 248
-0.00806884 0.76700002 -0.010758453 1.448307e-38 314 248
-0.0067415666 0.76899999 -0.010786506 1.448307e-38 315 248
-0.0053932532 0.76899999 -0.010786506 1.4577072e-38 316 248
-0.0040449398 0.76899999 -0.010786506 1.4761104e-38 317 248
-0.0027036399 0.77100003 -0.01081456 1.3844553e-38 318 248
-0.00135182 0.77100003 -0.01081456 1.3660522e-38 319 248
0 0.77100003 -0.01081456 1.3843834e-38 320 248
0.00135182 0.77100003 -0.01081456 1.3751637e-38 321 248
0.0027036399 0.77100003 -0.01081456 1.3750921e-38 322 248
0.0040554604 0.77100003 -0.01081456 1.3658725e-38 323 248
0.0054072798 0.77100003 -0.01081456 1.3290666e-38 324 248
0.0067590997 0.77100003 -0.01081456 1.319847e-38 325 248
0.0081319595 0.773 -0.010842613 1.310627e-38 326 248
0.0094872871 0.773 -0.010842613 1.3014075e-38 327 248
0.010842613 0.773 -0.010842613 1.2738208e-38 328 248
0.012197939 0.773 -0.010842613 1.2646012e-38 329 248
0.013570799 0.77399999 -0.01085664 1.2646012e-38 330 248
0.014927879 0.77399999 -0.01085664 1.2646012e-38 331 248
0.01632704 0.77600002 -0.010884693 1.2737845e-38 332 248
0.017733213 0.778 -0.010912746 1.2737845e-38 333 248
0.019097306 0.778 -0.010912746 1.2920792e-38 334 248
0.020461399 0.778 -0.010912746 1.2275422e-38 335 248
0.021825492 0.778 -0.010912746 1.2273605e-38 336 248
0.023249198 0.77999997 -0.010940799 1.5039113e-38 337 248
-0.033032801 0.78500003 -0.0123873 1.5495753e-38 296 249
-0.031575777 0.78299999 -0.012355739 1.6233678e-38 297 249
-0.03020292 0.78299999 -0.012355739 1.5958909e-38 298 249
-0.028719598 0.77999997 -0.012308398 1.5866713e-38 299 249
-0.027351998 0.77999997 -0.012308398 1.5591571e-38 300 249
-0.025917772 0.778 -0.012276839 1.5775962e-38 301 249
-0.024490559 0.77600002 -0.01224528 1.5407906e-38 302 249
-0.02307036 0.77399999 -0.01221372 1.5407906e-38 303 249
-0.021713279 0.77399999 -0.01221372 1.5681612e-38 304 249
-0.0203299 0.773 -0.012197939 1.4944047e-38 305 249
-0.018925481 0.77100003 -0.01216638 1.6505614e-38 306 249
-0.01757366 0.77100003 -0.01216638 1.7427572e-38 307 249
-0.016179759 0.76899999 -0.012134819 1.6323745e-38 308 249
-0.014831445 0.76899999 -0.012134819 1.5954962e-38 309 249
-0.013483133 0.76899999 -0.012134819 1.5313202e-38 310 249
-0.012134819 0.76899999 -0.012134819 1.4944779e-38 311 249
-0.010758453 0.76700002 -0.01210326 1.4943696e-38 312 249
-0.0094136465 0.76700002 -0.01210326 1.4298327e-38 313 249
-0.0080898795 0.76899999 -0.012134819 1.3931697e-38 314 249
-0.0067415666 0.76899999 -0.012134819 1.4392675e-38 315 249
-0.0053932532 0.76899999 -0.012134819 1.4119335e-38 316 249
-0.0040554604 0.77100003 -0.01216638 1.4119335e-38 317 249
-0.0027036399 0.77100003 -0.01216638 1.375164e-38 318 249
-0.00135182 0.77100003 -0.01216638 1.3659444e-38 319 249
0 0.77100003 -0.01216638 1.3476132e-38 320 249
0.00135182 0.77100003 -0.01216638 1.3383577e-38 321 249
0.0027036399 0.77100003 -0.01216638 1.3108072e-38 322 249
0.0040554604 0.77100003 -0.01216638 1.2923322e-38 323 249
0.0054072798 0.77100003 -0.01216638 1.2922602e-38 324 249
0.0067766332 0.773 -0.012197939 1.2738211e-38 325 249
0.0081319595 0.773 -0.012197939 1.2462703e-38 326 249
0.0094872871 0.773 -0.012197939 1.2462703e-38 327 249
0.010842613 0.773 -0.012197939 1.2462703e-38 328 249
0.01221372 0.77399999 -0.01221372 1.2370507e-38 329 249
0.013570799 0.77399999 -0.01221372 1.24627e-38 330 249
0.014966453 0.77600002 -0.01224528 1.24627e-38 331 249
0.01632704 0.77600002 -0.01224528 1.2646368e-38 332 249
0.017733213 0.778 -0.012276839 1.2646368e-38 333 249
0.0191464 0.77999997 -0.012308398 1.2553448e-38 334 249
0.020513998 0.77999997 -0.012308398 1.2092829e-38 335 249
0.021881599 0.77999997 -0.012308398 1.3654744e-38 336 249
0.023279008 0.78100002 -0.01232418 1.605147e-38 337 249
-0.033032801 0.78500003 -0.013763667 1.4944384e-38 296 250
-0.031575777 0.78299999 -0.013728599 1.5681949e-38 297 250
-0.030125774 0.78100002 -0.013693534 1.6235139e-38 298 250
-0.028719598 0.77999997 -0.013675999 1.5958912e-38 299 250
-0.027351998 0.77999997 -0.013675999 1.5407903e-38 300 250
-0.025917772 0.778 -0.013640933 1.5407903e-38 301 250
-0.024490559 0.77600002 -0.013605867 1.5315354e-38 302 250
-0.023129974 0.77600002 -0.013605867 1.540755e-38 303 250
-0.021713279 0.77399999 -0.013570799 1.6141518e-38 304 250
-0.0203299 0.773 -0.013553266 1.6141518e-38 305 250
-0.018974574 0.773 -0.013553266 1.6319798e-38 306 250
-0.01757366 0.77100003 -0.013518199 1.5766624e-38 307 250
-0.016179759 0.76899999 -0.013483133 1.5033378e-38 308 250
-0.014831445 0.76899999 -0.013483133 1.5309965e-38 309 250
-0.013483133 0.76899999 -0.013483133 1.5127376e-38 310 250
-0.012134819 0.76899999 -0.013483133 1.4850429e-38 311 250
-0.010758453 0.76700002 -0.013448066 1.4574202e-38 312 250
-0.0094136465 0.76700002 -0.013448066 1.4482006e-38 313 250
-0.0080898795 0.76899999 -0.013483133 1.3841672e-38 314 250
-0.0067415666 0.76899999 -0.013483133 1.4394845e-38 315 250
-0.0053932532 0.76899999 -0.013483133 1.3751637e-38 316 250
-0.0040554604 0.77100003 -0.013518199 1.3659441e-38 317 250
-0.0027036399 0.77100003 -0.013518199 1.3292464e-38 318 250
-0.00135182 0.77100003 -0.013518199 1.3200268e-38 319 250
0 0.77100003 -0.013518199 1.3108072e-38 320 250
0.00135182 0.77100003 -0.013518199 1.3015518e-38 321 250
0.0027036399 0.77100003 -0.013518199 1.2647813e-38 322 250
0.0040659797 0.773 -0.013553266 1.2555617e-38 323 250
0.0054213065 0.773 -0.013553266 1.2554543e-38 324 250
0.0067766332 0.773 -0.013553266 1.2370151e-38 325 250
0.0081319595 0.773 -0.013553266 1.2186839e-38 326 250
0.0094872871 0.773 -0.013553266 1.2186839e-38 327 250
0.01085664 0.77399999 -0.013570799 1.2370151e-38 328 250
0.01221372 0.77399999 -0.013570799 1.2370151e-38 329 250
0.013605867 0.77600002 -0.013605867 1.24627e-38 330 250
0.014966453 0.77600002 -0.013605867 1.24627e-38 331 250
0.016369121 0.778 -0.013640933 1.2738564e-38 332 250
0.017778799 0.77999997 -0.013675999 1.2646368e-38 333 250
0.0191464 0.77999997 -0.013675999 1.2463053e-38 334 250
0.020513998 0.77999997 -0.013675999 1.2555249e-38 335 250
0.021881599 0.77999997 -0.013675999 1.4670338e-38 336 250
-0.031575777 0.78299999 -0.01510146 1.5496839e-38 297 251
-0.030125774 0.78100002 -0.015062887 1.5590852e-38 298 251
-0.028719598 0.77999997 -0.0150436 1.5683048e-38 299 251
-0.027351998 0.77999997 -0.0150436 1.5132042e-38 300 251
-0.025917772 0.778 -0.015005025 1.5132042e-38 301 251
-0.024490559 0.77600002 -0.014966453 1.5222438e-38 302 251
-0.023129974 0.77600002 -0.014966453 1.5130243e-38 303 251
-0.021713279 0.77399999 -0.014927879 1.5403234e-38 304 251
-0.0203299 0.773 -0.014908593 1.5864211e-38 305 251
-0.018974574 0.773 -0.014908593 1.687477e-38 306 251
-0.01757366 0.77100003 -0.01487002 1.5491835e-38 307 251
-0.016179759 0.76899999 -0.014831445 1.4757511e-38 308 251
-0.014831445 0.76899999 -0.014831445 1.5126292e-38 309 251
-0.013483133 0.76899999 -0.014831445 1.4850431e-38 310 251
-0.012134819 0.76899999 -0.014831445 1.4573846e-38 311 251
-0.010786506 0.76899999 -0.014831445 1.4482369e-38 312 251
-0.0094381925 0.76899999 -0.014831445 1.4482369e-38 313 251
-0.0080898795 0.76899999 -0.014831445 1.3659078e-38 314 251
-0.0067415666 0.76899999 -0.014831445 1.384347e-38 315 251
-0.0053932532 0.76899999 -0.014831445 1.3476132e-38 316 251
-0.0040554604 0.77100003 -0.01487002 1.3383577e-38 317 251
-0.0027036399 0.77100003 -0.01487002 1.3107716e-38 318 251
-0.00135182 0.77100003 -0.01487002 1.3015521e-38 319 251
0 0.77100003 -0.01487002 1.3014802e-38 320 251
0.0013553266 0.773 -0.014908593 1.2830409e-38 321 251
0.0027106532 0.773 -0.014908593 1.2463066e-38 322 251
0.0040659797 0.773 -0.014908593 1.237087e-38 323 251
0.0054213065 0.773 -0.014908593 1.2186839e-38 324 251
0.0067766332 0.773 -0.014908593 1.2186839e-38 325 251
0.0081319595 0.773 -0.014908593 1.2095362e-38 326 251
0.0094872871 0.773 -0.014908593 1.2095362e-38 327 251
0.01085664 0.77399999 -0.014927879 1.2187558e-38 328 251
0.01221372 0.77399999 -0.014927879 1.2187558e-38 329 251
0.013605867 0.77600002 -0.014966453 1.2462703e-38 330 251
0.014966453 0.77600002 -0.014966453 1.2554899e-38 331 251
0.016369121 0.778 -0.015005025 1.2555252e-38 332 251
0.017778799 0.77999997 -0.0150436 1.2555252e-38 333 251
0.0191464 0.77999997 -0.0150436 1.2555249e-38 334 251
0.020513998 0.77999997 -0.0150436 1.3016227e-38 335 251
0.021881599 0.77999997 -0.0150436 1.503876e-38 336 251
-0.03020292 0.78299999 -0.01647432 1.4946196e-38 298 252
-0.028719598 0.77999997 -0.016411198 1.568412e-38 299 252
-0.027351998 0.77999997 -0.016411198 1.5132039e-38 300 252
-0.025984399 0.77999997 -0.016411198 1.5039842e-38 301 252
-0.024553679 0.778 -0.016369121 1.5313552e-38 302 252
-0.023129974 0.77600002 -0.01632704 1.4852934e-38 303 252
-0.021713279 0.77399999 -0.016284959 1.4848981e-38 304 252
-0.020356199 0.77399999 -0.016284959 1.4848981e-38 305 252
-0.018974574 0.773 -0.016263919 1.5218488e-38 306 252
-0.017619247 0.773 -0.016263919 1.4849707e-38 307 252
-0.016221842 0.77100003 -0.016221842 1.466676e-38 308 252
-0.014831445 0.76899999 -0.016179759 1.4943346e-38 309 252
-0.013483133 0.76899999 -0.016179759 1.4576719e-38 310 252
-0.012134819 0.76899999 -0.016179759 1.4391969e-38 311 252
-0.010786506 0.76899999 -0.016179759 1.4024984e-38 312 252
-0.0094381925 0.76899999 -0.016179759 1.4024984e-38 313 252
-0.0080898795 0.76899999 -0.016179759 1.3383577e-38 314 252
-0.0067415666 0.76899999 -0.016179759 1.3291382e-38 315 252
-0.0054072798 0.77100003 -0.016221842 1.2832209e-38 316 252
-0.0040554604 0.77100003 -0.016221842 1.2740013e-38 317 252
-0.0027036399 0.77100003 -0.016221842 1.2739657e-38 318 252
-0.0013553266 0.773 -0.016263919 1.2555264e-38 319 252
0 0.773 -0.016263919 1.2554545e-38 320 252
0.0013553266 0.773 -0.016263919 1.246235e-38 321 252
0.0027106532 0.773 -0.016263919 1.2370873e-38 322 252
0.0040659797 0.773 -0.016263919 1.2370873e-38 323 252
0.0054213065 0.773 -0.016263919 1.2186839e-38 324 252
0.0067766332 0.773 -0.016263919 1.2186839e-38 325 252
0.0081319595 0.773 -0.016263919 1.2187558e-38 326 252
0.0094995592 0.77399999 -0.016284959 1.2187558e-38 327 252
0.01085664 0.77399999 -0.016284959 1.2370867e-38 328 252
0.01221372 0.77399999 -0.016284959 1.2370867e-38 329 252
0.013605867 0.77600002 -0.01632704 1.2554896e-38 330 252
0.014966453 0.77600002 -0.01632704 1.2554896e-38 331 252
0.016369121 0.778 -0.016369121 1.3014428e-38 332 252
0.017778799 0.77999997 -0.016411198 1.3014428e-38 333 252
0.019170946 0.78100002 -0.016432239 1.3106621e-38 334 252
0.020540299 0.78100002 -0.016432239 1.3475763e-38 335 252
-0.028719598 0.77999997 -0.017778799 1.5408256e-38 299 253
-0.027351998 0.77999997 -0.017778799 1.5500101e-38 300 253
-0.025984399 0.77999997 -0.017778799 1.5223154e-38 301 253
-0.024553679 0.778 -0.017733213 1.4854729e-38 302 253
-0.023189586 0.778 -0.017733213 1.4670338e-38 303 253
-0.021769386 0.77600002 -0.017687626 1.5771291e-38 304 253
-0.020356199 0.77399999 -0.01764204 1.5586899e-38 305 253
-0.018974574 0.773 -0.017619247 1.4665672e-38 306 253
-0.017619247 0.773 -0.017619247 1.4757867e-38 307 253
-0.016221842 0.77100003 -0.01757366 1.4854026e-38 308 253
-0.014831445 0.76899999 -0.017528072 1.476183e-38 309 253
-0.013483133 0.76899999 -0.017528072 1.4487041e-38 310 253
-0.01216638 0.77100003 -0.01757366 1.4026063e-38 311 253
-0.01081456 0.77100003 -0.01757366 1.3566527e-38 312 253
-0.0094627403 0.77100003 -0.01757366 1.3566527e-38 313 253
-0.0081109209 0.77100003 -0.01757366 1.3015518e-38 314 253
-0.0067590997 0.77100003 -0.01757366 1.2923322e-38 315 253
-0.0054072798 0.77100003 -0.01757366 1.2830774e-38 316 253
-0.0040554604 0.77100003 -0.01757366 1.2646741e-38 317 253
-0.0027106532 0.773 -0.017619247 1.2737858e-38 318 253
-0.0013553266 0.773 -0.017619247 1.2645662e-38 319 253
0 0.773 -0.017619247 1.2645659e-38 320 253
0.0013553266 0.773 -0.017619247 1.2645659e-38 321 253
0.0027106532 0.773 -0.017619247 1.2187561e-38 322 253
0.0040659797 0.773 -0.017619247 1.2187561e-38 323 253
0.0054283198 0.77399999 -0.01764204 1.2187561e-38 324 253
0.0067853997 0.77399999 -0.01764204 1.2187561e-38 325 253
0.0081424797 0.77399999 -0.01764204 1.2187558e-38 326 253
0.0094995592 0.77399999 -0.01764204 1.2187558e-38 327 253
0.010884693 0.77600002 -0.017687626 1.2370867e-38 328 253
0.01224528 0.77600002 -0.017687626 1.2370867e-38 329 253
0.013605867 0.77600002 -0.017687626 1.3014075e-38 330 253
0.015005025 0.778 -0.017733213 1.310627e-38 331 253
0.016411198 0.77999997 -0.017778799 1.3198818e-38 332 253
0.017778799 0.77999997 -0.017778799 1.3198818e-38 333 253
0.019170946 0.78100002 -0.017801592 1.347396e-38 334 253
-0.027351998 0.77999997 -0.0191464 1.5683048e-38 300 254
-0.025984399 0.77999997 -0.0191464 1.5498297e-38 301 254
-0.024553679 0.778 -0.019097306 1.4853647e-38 302 254
-0.023189586 0.778 -0.019097306 1.476145e-38 303 254
-0.021769386 0.77600002 -0.019048214 1.5678742e-38 304 254
-0.020356199 0.77399999 -0.018999118 1.5678742e-38 305 254
-0.018974574 0.773 -0.018974574 1.4574918e-38 306 254
-0.017619247 0.773 -0.018974574 1.429833e-38 307 254
-0.016221842 0.77100003 -0.018925481 1.4669281e-38 308 254
-0.01487002 0.77100003 -0.018925481 1.4669281e-38 309 254
-0.013518199 0.77100003 -0.018925481 1.4026794e-38 310 254
-0.01216638 0.77100003 -0.018925481 1.3566176e-38 311 254
-0.01081456 0.77100003 -0.018925481 1.3015521e-38 312 254
-0.0094627403 0.77100003 -0.018925481 1.2923325e-38 313 254
-0.0081109209 0.77100003 -0.018925481 1.2371596e-38 314 254
-0.0067590997 0.77100003 -0.018925481 1.22794e-38 315 254
-0.0054072798 0.77100003 -0.018925481 1.2462716e-38 316 254
-0.0040554604 0.77100003 -0.018925481 1.237052e-38 317 254
-0.0027106532 0.773 -0.018974574 1.2369798e-38 318 254
-0.0013553266 0.773 -0.018974574 1.2461994e-38 319 254
0 0.773 -0.018974574 1.2370873e-38 320 254
0.0013553266 0.773 -0.018974574 1.2370873e-38 321 254
0.0027106532 0.773 -0.018974574 1.2279756e-38 322 254
0.0040712398 0.77399999 -0.018999118 1.2187561e-38 323 254
0.0054283198 0.77399999 -0.018999118 1.2370873e-38 324 254
0.0067853997 0.77399999 -0.018999118 1.2370873e-38 325 254
0.0081424797 0.77399999 -0.018999118 1.2370873e-38 326 254
0.0094995592 0.77399999 -0.018999118 1.2463069e-38 327 254
0.010884693 0.77600002 -0.019048214 1.2554899e-38 328 254
0.01224528 0.77600002 -0.019048214 1.2462703e-38 329 254
0.013640933 0.778 -0.019097306 1.3105549e-38 330 254
0.0150436 0.77999997 -0.0191464 1.3105549e-38 331 254
