# .PCD v.7 - Point Cloud Data file format
FIELDS x y z rgb imX imY
SIZE 4 4 4 4 4 4
TYPE F F F F F F
COUNT 1 1 1 1 1 1
WIDTH 820
HEIGHT 1
VIEWPOINT 0 0 0 1 0 0 0
POINTS 820
DATA ascii
-0.0024125867 0.68800002 -0.0012062934 1.2700638e-38 318 241
-0.0012062934 0.68800002 -0.0012062934 1.3438203e-38 319 241
0 0.68800002 -0.0012062934 1.3257395e-38 320 241
0.0012062934 0.68800002 -0.0012062934 1.334959e-38 321 241
0.0024125867 0.68800002 -0.0012062934 1.3164127e-38 322 241
0.0036188802 0.68800002 -0.0012062934 1.3071931e-38 323 241
0.0048181596 0.68699998 -0.0012045399 1.2795354e-38 324 241
0.0060226996 0.68699998 -0.0012045399 1.1780842e-38 325 241
0.0072272392 0.68699998 -0.0012045399 1.1869451e-38 326 241
0.0084317802 0.68699998 -0.0012045399 1.2053482e-38 327 241
0.0096363192 0.68699998 -0.0012045399 1.1964536e-38 328 241
0.010840859 0.68699998 -0.0012045399 1.2517351e-38 329 241
0.012045399 0.68699998 -0.0012045399 1.2886847e-38 330 241
0.013230653 0.68599999 -0.0012027866 1.3255269e-38 331 241
0.01443344 0.68599999 -0.0012027866 1.3072307e-38 332 241
0.015636226 0.68599999 -0.0012027866 1.279572e-38 333 241
0.016839013 0.68599999 -0.0012027866 1.242514e-38 334 241
0.018041799 0.68599999 -0.0012027866 1.242514e-38 335 241
0.019244585 0.68599999 -0.0012027866 1.2331871e-38 336 241
0.020477179 0.68699998 -0.0012045399 1.2239675e-38 337 241
0.021681719 0.68699998 -0.0012045399 1.2148198e-38 338 241
0.022886258 0.68699998 -0.0012045399 1.2148198e-38 339 241
0.024090799 0.68699998 -0.0012045399 1.1964883e-38 340 241
0.025295338 0.68699998 -0.0012045399 1.1688296e-38 341 241
0.026499879 0.68699998 -0.0012045399 1.1686501e-38 342 241
0.027704418 0.68699998 -0.0012045399 1.150211e-38 343 241
0.028951041 0.68800002 -0.0012062934 1.1223381e-38 344 241
0.030157333 0.68800002 -0.0012062934 1.3066934e-38 345 241
0.031363625 0.68800002 -0.0012062934 1.4009425e-38 346 241
0.032569919 0.68800002 -0.0012062934 1.4746992e-38 347 241
0.033923492 0.69099998 -0.0012115532 1.3555664e-38 348 241
0.035236739 0.69300002 -0.00121506 1.3463468e-38 349 241
0.036451802 0.69300002 -0.00121506 1.3370552e-38 350 241
0.037666857 0.69300002 -0.00121506 1.3370552e-38 351 241
0.038938027 0.69400001 -0.0012168133 1.3370552e-38 352 241
0.040154841 0.69400001 -0.0012168133 1.3370552e-38 353 241
0.041371655 0.69400001 -0.0012168133 1.3370187e-38 354 241
0.042711195 0.69599998 -0.0012203199 1.3370187e-38 355 241
0.043931518 0.69599998 -0.0012203199 1.3369461e-38 356 241
0.045281585 0.69800001 -0.0012238267 1.3092875e-38 357 241
0.046505414 0.69800001 -0.0012238267 1.2908833e-38 358 241
0.047865998 0.69999999 -0.0012273333 1.2816637e-38 359 241
0.049093332 0.69999999 -0.0012273333 1.3181456e-38 360 241
-0.058312356 0.72299999 -0.0025353199 1.2079801e-38 274 242
-0.057044696 0.72299999 -0.0025353199 1.0604312e-38 275 242
-0.055777039 0.72299999 -0.0025353199 1.0132509e-38 276 242
-0.054433983 0.722 -0.0025318132 8.1964007e-39 277 242
-0.05294716 0.71899998 -0.0025212932 1.0583748e-38 278 242
-0.051542737 0.71700001 -0.0025142799 1.0583748e-38 279 242
-0.050215468 0.71600002 -0.0025107733 1.067451e-38 280 242
-0.048823316 0.71399999 -0.0025037599 1.067451e-38 281 242
-0.047504812 0.713 -0.0025002533 1.0766713e-38 282 242
-0.046254687 0.713 -0.0025002533 1.10433e-38 283 242
-0.044815198 0.70999998 -0.0024897333 1.1503556e-38 284 242
-0.043447599 0.708 -0.00248272 1.1964533e-38 285 242
-0.042146627 0.70700002 -0.0024792133 1.1875206e-38 286 242
-0.040849157 0.70599997 -0.0024757064 1.1967401e-38 287 242
-0.039499093 0.704 -0.0024686933 1.1875559e-38 288 242
-0.038264744 0.704 -0.0024686933 1.1783363e-38 289 242
-0.037030395 0.704 -0.0024686933 1.1506426e-38 290 242
-0.035796054 0.704 -0.0024686933 1.141423e-38 291 242
-0.034561705 0.704 -0.0024686933 1.1414233e-38 292 242
-0.033280019 0.70300001 -0.0024651866 1.1506429e-38 293 242
-0.032047424 0.70300001 -0.0024651866 1.177977e-38 294 242
-0.030727165 0.70099998 -0.0024581731 1.1687575e-38 295 242
-0.029498078 0.70099998 -0.0024581731 1.1963439e-38 296 242
-0.028228667 0.69999999 -0.0024546667 1.1871243e-38 297 242
-0.026924185 0.69800001 -0.0024476533 1.1502816e-38 298 242
-0.025700359 0.69800001 -0.0024476533 1.1595012e-38 299 242
-0.024441468 0.69700003 -0.0024441467 1.1226597e-38 300 242
-0.023186078 0.69599998 -0.0024406398 1.1134401e-38 301 242
-0.021965759 0.69599998 -0.0024406398 1.0859615e-38 302 242
-0.020745439 0.69599998 -0.0024406398 1.1044006e-38 303 242
-0.019553173 0.69700003 -0.0024441467 1.1133697e-38 304 242
-0.018304799 0.69599998 -0.0024406398 1.0857109e-38 305 242
-0.017084479 0.69599998 -0.0024406398 1.1130832e-38 306 242
-0.015818574 0.69400001 -0.0024336267 1.1223027e-38 307 242
-0.01460176 0.69400001 -0.0024336267 1.085819e-38 308 242
-0.013384946 0.69400001 -0.0024336267 1.1134416e-38 309 242
-0.012150601 0.69300002 -0.00243012 1.113692e-38 310 242
-0.010935539 0.69300002 -0.00243012 1.2335464e-38 311 242
-0.0097204801 0.69300002 -0.00243012 1.3071584e-38 312 242
-0.008480873 0.69099998 -0.0024231065 1.233366e-38 313 242
-0.0072693196 0.69099998 -0.0024231065 1.2422975e-38 314 242
-0.0060489997 0.69 -0.0024195998 1.2330779e-38 315 242
-0.0048391996 0.69 -0.0024195998 1.2054915e-38 316 242
-0.0036188802 0.68800002 -0.0024125867 1.2423696e-38 317 242
-0.0024125867 0.68800002 -0.0024125867 1.2335092e-38 318 242
-0.0012062934 0.68800002 -0.0024125867 1.3073016e-38 319 242
0 0.68800002 -0.0024125867 1.3441793e-38 320 242
0.0012045399 0.68699998 -0.0024090798 1.3257042e-38 321 242
0.0024090798 0.68699998 -0.0024090798 1.2793549e-38 322 242
0.0036136196 0.68699998 -0.0024090798 1.2516961e-38 323 242
0.0048181596 0.68699998 -0.0024090798 1.1689e-38 324 242
0.0060226996 0.68699998 -0.0024090798 1.1135826e-38 325 242
0.0072167199 0.68599999 -0.0024055731 1.1041488e-38 326 242
0.0084195063 0.68599999 -0.0024055731 1.1409912e-38 327 242
0.0096222926 0.68599999 -0.0024055731 1.1596476e-38 328 242
0.010825079 0.68599999 -0.0024055731 1.2057096e-38 329 242
0.012027865 0.68599999 -0.0024055731 1.2428029e-38 330 242
0.013230653 0.68599999 -0.0024055731 1.261242e-38 331 242
0.01443344 0.68599999 -0.0024055731 1.2519859e-38 332 242
0.015636226 0.68599999 -0.0024055731 1.1966685e-38 333 242
0.016839013 0.68599999 -0.0024055731 1.1963085e-38 334 242
0.018041799 0.68599999 -0.0024055731 1.187089e-38 335 242
0.019244585 0.68599999 -0.0024055731 1.1687224e-38 336 242
0.020447372 0.68599999 -0.0024055731 1.1687224e-38 337 242
0.021681719 0.68699998 -0.0024090798 1.1412435e-38 338 242
0.022886258 0.68699998 -0.0024090798 1.1504631e-38 339 242
0.024090799 0.68699998 -0.0024090798 1.1504984e-38 340 242
0.025295338 0.68699998 -0.0024090798 1.1320233e-38 341 242
0.026499879 0.68699998 -0.0024090798 1.1318442e-38 342 242
0.027704418 0.68699998 -0.0024090798 1.1041855e-38 343 242
0.028908957 0.68699998 -0.0024090798 1.13253e-38 344 242
0.030157333 0.68800002 -0.0024125867 1.3814223e-38 345 242
0.031363625 0.68800002 -0.0024125867 1.4197068e-38 346 242
0.032569919 0.68800002 -0.0024125867 1.4289263e-38 347 242
0.0338744 0.69 -0.0024195998 1.3370919e-38 348 242
0.035135046 0.69099998 -0.0024231065 1.3186888e-38 349 242
0.036346599 0.69099998 -0.0024231065 1.3370555e-38 350 242
0.03755815 0.69099998 -0.0024231065 1.3370555e-38 351 242
0.03888192 0.69300002 -0.00243012 1.3095044e-38 352 242
0.04009698 0.69300002 -0.00243012 1.3095044e-38 353 242
0.041371655 0.69400001 -0.0024336267 1.3278354e-38 354 242
0.042588469 0.69400001 -0.0024336267 1.3186158e-38 355 242
0.043805279 0.69400001 -0.0024336267 1.3185793e-38 356 242
0.045216713 0.69700003 -0.0024441467 1.3001401e-38 357 242
0.046505414 0.69800001 -0.0024476533 1.3093228e-38 358 242
0.047729239 0.69800001 -0.0024476533 1.2908836e-38 359 242
0.048953064 0.69800001 -0.0024476533 1.3643154e-38 360 242
0.050320663 0.69999999 -0.0024546667 1.2721199e-38 361 242
-0.058473669 0.72500002 -0.0038135003 1.1895773e-38 274 243
-0.057202499 0.72500002 -0.0038135003 1.005186e-38 275 243
-0.055931333 0.72500002 -0.0038135003 1.0407657e-38 276 243
-0.054433983 0.722 -0.0037977197 8.5637441e-39 277 243
-0.05294716 0.71899998 -0.0037819401 1.0674495e-38 278 243
-0.051470853 0.71600002 -0.00376616 1.0767049e-38 279 243
-0.050075196 0.71399999 -0.0037556398 1.0674498e-38 280 243
-0.048754938 0.713 -0.0037503797 1.0674498e-38 281 243
-0.047371563 0.71100003 -0.0037398601 1.0949655e-38 282 243
-0.046124939 0.71100003 -0.0037398601 1.1041852e-38 283 243
-0.044815198 0.70999998 -0.0037345996 1.1042221e-38 284 243
-0.043447599 0.708 -0.00372408 1.1042221e-38 285 243
-0.042146627 0.70700002 -0.0037188199 1.1134051e-38 286 243
-0.040849157 0.70599997 -0.0037135598 1.1041855e-38 287 243
-0.039499093 0.704 -0.0037030398 1.0675949e-38 288 243
-0.038264744 0.704 -0.0037030398 1.0952176e-38 289 243
-0.037030395 0.704 -0.0037030398 1.1135498e-38 290 243
-0.035796054 0.704 -0.0037030398 1.1319529e-38 291 243
-0.034512613 0.70300001 -0.0036977797 1.1412079e-38 292 243
-0.033280019 0.70300001 -0.0036977797 1.1781221e-38 293 243
-0.032047424 0.70300001 -0.0036977797 1.2517338e-38 294 243
-0.030727165 0.70099998 -0.0036872597 1.2609534e-38 295 243
-0.029498078 0.70099998 -0.0036872597 1.2517335e-38 296 243
-0.028148014 0.69800001 -0.0036714801 1.2517335e-38 297 243
-0.026924185 0.69800001 -0.0036714801 1.1964515e-38 298 243
-0.025700359 0.69800001 -0.0036714801 1.1780123e-38 299 243
-0.024441468 0.69700003 -0.00366622 1.1503532e-38 300 243
-0.023186078 0.69599998 -0.0036609597 1.1319501e-38 301 243
-0.021965759 0.69599998 -0.0036609597 1.1318066e-38 302 243
-0.020745439 0.69599998 -0.0036609597 1.1225871e-38 303 243
-0.019525118 0.69599998 -0.0036609597 1.1222999e-38 304 243
-0.018304799 0.69599998 -0.0036609597 1.0669826e-38 305 243
-0.017035386 0.69400001 -0.0036504399 1.094462e-38 306 243
-0.015818574 0.69400001 -0.0036504399 1.1313403e-38 307 243
-0.01460176 0.69400001 -0.0036504399 1.0949292e-38 308 243
-0.013384946 0.69400001 -0.0036504399 1.1409912e-38 309 243
-0.012150601 0.69300002 -0.0036451798 1.1321669e-38 310 243
-0.010935539 0.69300002 -0.0036451798 1.2243265e-38 311 243
-0.0097204801 0.69300002 -0.0036451798 1.2335092e-38 312 243
-0.008480873 0.69099998 -0.0036346598 1.1597527e-38 313 243
-0.0072587994 0.69 -0.0036293997 1.1870154e-38 314 243
-0.0060489997 0.69 -0.0036293997 1.2054185e-38 315 243
-0.0048251734 0.68800002 -0.0036188802 1.1871243e-38 316 243
-0.0036188802 0.68800002 -0.0036188802 1.2240025e-38 317 243
-0.0024125867 0.68800002 -0.0036188802 1.2610603e-38 318 243
-0.0012062934 0.68800002 -0.0036188802 1.3348527e-38 319 243
0 0.68699998 -0.0036136196 1.3258128e-38 320 243
0.0012045399 0.68699998 -0.0036136196 1.2520561e-38 321 243
0.0024090798 0.68699998 -0.0036136196 1.2147467e-38 322 243
0.0036136196 0.68699998 -0.0036136196 1.1778324e-38 323 243
0.0048111463 0.68599999 -0.00360836 1.1132602e-38 324 243
0.0060139326 0.68599999 -0.00360836 1.1132602e-38 325 243
0.0071956799 0.68400002 -0.00359784 1.0950011e-38 326 243
0.0083949603 0.68400002 -0.00359784 1.1318795e-38 327 243
0.0096222926 0.68599999 -0.00360836 1.1780845e-38 328 243
0.010825079 0.68599999 -0.00360836 1.2149629e-38 329 243
0.012027865 0.68599999 -0.00360836 1.2335814e-38 330 243
0.01319208 0.68400002 -0.00359784 1.2335814e-38 331 243
0.01439136 0.68400002 -0.00359784 1.2333297e-38 332 243
0.015636226 0.68599999 -0.00360836 1.1687928e-38 333 243
0.016839013 0.68599999 -0.00360836 1.1409193e-38 334 243
0.018041799 0.68599999 -0.00360836 1.1501388e-38 335 243
0.019244585 0.68599999 -0.00360836 1.1317366e-38 336 243
0.020447372 0.68599999 -0.00360836 1.1409561e-38 337 243
0.021650158 0.68599999 -0.00360836 1.1227321e-38 338 243
0.022852944 0.68599999 -0.00360836 1.1319517e-38 339 243
0.024055731 0.68599999 -0.00360836 1.1319514e-38 340 243
0.025258519 0.68599999 -0.00360836 1.1227318e-38 341 243
0.026499879 0.68699998 -0.0036136196 1.0949655e-38 342 243
0.027704418 0.68699998 -0.0036136196 1.1041852e-38 343 243
0.028908957 0.68699998 -0.0036136196 1.2438126e-38 344 243
0.030157333 0.68800002 -0.0036188802 1.5111799e-38 345 243
0.031363625 0.68800002 -0.0036188802 1.3647499e-38 346 243
0.032569919 0.68800002 -0.0036188802 1.3278357e-38 347 243
0.0338744 0.69 -0.0036293997 1.3095414e-38 348 243
0.035084199 0.69 -0.0036293997 1.3095414e-38 349 243
0.036293998 0.69 -0.0036293997 1.3094691e-38 350 243
0.037503798 0.69 -0.0036293997 1.3094691e-38 351 243
0.038713597 0.69 -0.0036293997 1.3002493e-38 352 243
0.039981257 0.69099998 -0.0036346598 1.3002493e-38 353 243
0.041312039 0.69300002 -0.0036451798 1.3185805e-38 354 243
0.042588469 0.69400001 -0.0036504399 1.3001774e-38 355 243
0.043805279 0.69400001 -0.0036504399 1.3002127e-38 356 243
0.045151837 0.69599998 -0.0036609597 1.2909932e-38 357 243
0.046438783 0.69700003 -0.00366622 1.3369458e-38 358 243
0.047729239 0.69800001 -0.0036714801 1.3369458e-38 359 243
0.048953064 0.69800001 -0.0036714801 1.4010143e-38 360 243
0.050176892 0.69800001 -0.0036714801 1.2995991e-38 361 243
0.051547997 0.69999999 -0.0036819996 1.2069349e-38 362 243
-0.058634974 0.727 -0.0050986931 1.1895051e-38 274 244
-0.057202499 0.72500002 -0.0050846669 9.8667471e-39 275 244
-0.055931333 0.72500002 -0.0050846669 1.003923e-38 276 244
-0.054433983 0.722 -0.0050636264 8.6562957e-39 277 244
-0.05294716 0.71899998 -0.0050425865 1.085781e-38 278 244
-0.051470853 0.71600002 -0.0050215465 1.085781e-38 279 244
-0.050075196 0.71399999 -0.0050075199 1.0674498e-38 280 244
-0.048754938 0.713 -0.0050005065 1.0674498e-38 281 244
-0.047371563 0.71100003 -0.0049864799 1.06745e-38 282 244
-0.046124939 0.71100003 -0.0049864799 1.0766696e-38 283 244
-0.044815198 0.70999998 -0.0049794666 1.0857459e-38 284 244
-0.043447599 0.708 -0.0049654399 1.0949655e-38 285 244
-0.042146627 0.70700002 -0.0049584266 1.0949655e-38 286 244
-0.040849157 0.70599997 -0.0049514128 1.0673428e-38 287 244
-0.039499093 0.704 -0.0049373866 1.0490835e-38 288 244
-0.038264744 0.704 -0.0049373866 1.0674866e-38 289 244
-0.037030395 0.704 -0.0049373866 1.1041858e-38 290 244
-0.035796054 0.704 -0.0049373866 1.1134053e-38 291 244
-0.034512613 0.70300001 -0.0049303733 1.1226249e-38 292 244
-0.033280019 0.70300001 -0.0049303733 1.1502476e-38 293 244
-0.031956252 0.70099998 -0.0049163462 1.1595025e-38 294 244
-0.030727165 0.70099998 -0.0049163462 1.1595025e-38 295 244
-0.029371841 0.69800001 -0.0048953067 1.1870887e-38 296 244
-0.028107686 0.69700003 -0.0048882933 1.1963083e-38 297 244
-0.026885614 0.69700003 -0.0048882933 1.1870887e-38 298 244
-0.025626717 0.69599998 -0.0048812795 1.1963083e-38 299 244
-0.0244064 0.69599998 -0.0048812795 1.1689728e-38 300 244
-0.023186078 0.69599998 -0.0048812795 1.1320586e-38 301 244
-0.021902639 0.69400001 -0.0048672534 1.1410618e-38 302 244
-0.020685827 0.69400001 -0.0048672534 1.1410618e-38 303 244
-0.019525118 0.69599998 -0.0048812795 1.1042556e-38 304 244
-0.018304799 0.69599998 -0.0048812795 1.0950359e-38 305 244
-0.017035386 0.69400001 -0.0048672534 1.085781e-38 306 244
-0.015818574 0.69400001 -0.0048672534 1.0950005e-38 307 244
-0.01460176 0.69400001 -0.0048672534 1.0860328e-38 308 244
-0.01336566 0.69300002 -0.00486024 1.0860328e-38 309 244
-0.012150601 0.69300002 -0.00486024 1.1320589e-38 310 244
-0.010935539 0.69300002 -0.00486024 1.1504981e-38 311 244
-0.0096924258 0.69099998 -0.0048462129 1.1502813e-38 312 244
-0.0084686 0.69 -0.0048391996 1.1041835e-38 313 244
-0.0072377604 0.68800002 -0.0048251734 1.1318419e-38 314 244
-0.0060314666 0.68800002 -0.0048251734 1.1502811e-38 315 244
-0.0048251734 0.68800002 -0.0048251734 1.1687928e-38 316 244
-0.0036188802 0.68800002 -0.0048251734 1.2148905e-38 317 244
-0.0024125867 0.68800002 -0.0048251734 1.2610959e-38 318 244
-0.0012045399 0.68699998 -0.0048181596 1.3256328e-38 319 244
0 0.68699998 -0.0048181596 1.3070862e-38 320 244
0.0012045399 0.68699998 -0.0048181596 1.2148905e-38 321 244
0.0024090798 0.68699998 -0.0048181596 1.1685778e-38 322 244
0.00360836 0.68599999 -0.0048111463 1.1316997e-38 323 244
0.0048111463 0.68599999 -0.0048111463 1.1040053e-38 324 244
0.0060139326 0.68599999 -0.0048111463 1.1040053e-38 325 244
0.0071956799 0.68400002 -0.0047971201 1.085889e-38 326 244
0.0083949603 0.68400002 -0.0047971201 1.1412063e-38 327 244
0.0095942402 0.68400002 -0.0047971201 1.178299e-38 328 244
0.01079352 0.68400002 -0.0047971201 1.2059938e-38 329 244
0.0119928 0.68400002 -0.0047971201 1.2242897e-38 330 244
0.01319208 0.68400002 -0.0047971201 1.1689723e-38 331 244
0.01439136 0.68400002 -0.0047971201 1.1318069e-38 332 244
0.01559064 0.68400002 -0.0047971201 1.1225873e-38 333 244
0.016789921 0.68400002 -0.0047971201 1.1132604e-38 334 244
0.0179892 0.68400002 -0.0047971201 1.12248e-38 335 244
0.01918848 0.68400002 -0.0047971201 1.1041135e-38 336 244
0.020447372 0.68599999 -0.0048111463 1.1225167e-38 337 244
0.021650158 0.68599999 -0.0048111463 1.1042927e-38 338 244
0.022852944 0.68599999 -0.0048111463 1.1135123e-38 339 244
0.024055731 0.68599999 -0.0048111463 1.1226597e-38 340 244
0.025258519 0.68599999 -0.0048111463 1.0857813e-38 341 244
0.026499879 0.68699998 -0.0048181596 1.0860706e-38 342 244
0.027704418 0.68699998 -0.0048181596 1.2796815e-38 343 244
0.028908957 0.68699998 -0.0048181596 1.3180378e-38 344 244
0.030113498 0.68699998 -0.0048181596 1.4563312e-38 345 244
0.031363625 0.68800002 -0.0048251734 1.3186884e-38 346 244
0.032569919 0.68800002 -0.0048251734 1.3002493e-38 347 244
0.033776212 0.68800002 -0.0048251734 1.3002496e-38 348 244
0.035084199 0.69 -0.0048391996 1.3002496e-38 349 244
0.036293998 0.69 -0.0048391996 1.2910297e-38 350 244
0.037503798 0.69 -0.0048391996 1.2910297e-38 351 244
0.038713597 0.69 -0.0048391996 1.2910294e-38 352 244
0.0399234 0.69 -0.0048391996 1.2910294e-38 353 244
0.041192811 0.69099998 -0.0048462129 1.2910294e-38 354 244
0.042527102 0.69300002 -0.00486024 1.2818099e-38 355 244
0.043742158 0.69300002 -0.00486024 1.291065e-38 356 244
0.045022093 0.69400001 -0.0048672534 1.291065e-38 357 244
0.046372157 0.69599998 -0.0048812795 1.2814483e-38 358 244
0.047660861 0.69700003 -0.0048882933 1.1892886e-38 359 244
0.048882935 0.69700003 -0.0048882933 1.2523487e-38 360 244
0.050176892 0.69800001 -0.0048953067 1.1693726e-38 361 244
0.051547997 0.69999999 -0.0049093333 1.150609e-38 362 244
-0.058715623 0.72799999 -0.0063821329 1.161954e-38 274 245
-0.057360299 0.727 -0.0063733663 9.4068437e-39 275 245
-0.055931333 0.72500002 -0.0063558333 1.0038499e-38 276 245
-0.054433983 0.722 -0.0063295332 9.0247054e-39 277 245
-0.05294716 0.71899998 -0.0063032326 1.0675567e-38 278 245
-0.051542737 0.71700001 -0.0062857 1.0491536e-38 279 245
-0.050215468 0.71600002 -0.0062769335 1.0858166e-38 280 245
-0.048754938 0.713 -0.0062506334 1.0858166e-38 281 245
-0.047371563 0.71100003 -0.0062330998 1.0857813e-38 282 245
-0.046060063 0.70999998 -0.0062243328 1.0857813e-38 283 245
-0.044815198 0.70999998 -0.0062243328 1.0581949e-38 284 245
-0.043447599 0.708 -0.0062067998 1.0489753e-38 285 245
-0.042146627 0.70700002 -0.0061980332 1.0489753e-38 286 245
-0.040849157 0.70599997 -0.0061892662 1.0581949e-38 287 245
-0.039499093 0.704 -0.0061717331 1.0398637e-38 288 245
-0.038264744 0.704 -0.0061717331 1.0398637e-38 289 245
-0.037030395 0.704 -0.0061717331 1.0674147e-38 290 245
-0.035796054 0.704 -0.0061717331 1.0766343e-38 291 245
-0.034512613 0.70300001 -0.0061629666 1.0949305e-38 292 245
-0.033280019 0.70300001 -0.0061629666 1.1041502e-38 293 245
-0.031956252 0.70099998 -0.0061454331 1.1042221e-38 294 245
-0.030595668 0.69800001 -0.006119133 1.1042221e-38 295 245
-0.029371841 0.69800001 -0.006119133 1.1226249e-38 296 245
-0.028107686 0.69700003 -0.0061103669 1.1226249e-38 297 245
-0.026885614 0.69700003 -0.0061103669 1.1319164e-38 298 245
-0.025626717 0.69599998 -0.0061015999 1.1503556e-38 299 245
-0.0244064 0.69599998 -0.0061015999 1.1504262e-38 300 245
-0.023186078 0.69599998 -0.0061015999 1.1412065e-38 301 245
-0.021902639 0.69400001 -0.0060840664 1.1503167e-38 302 245
-0.020685827 0.69400001 -0.0060840664 1.1595362e-38 303 245
-0.019525118 0.69599998 -0.0061015999 1.1137974e-38 304 245
-0.0182522 0.69400001 -0.0060840664 1.1137974e-38 305 245
-0.017035386 0.69400001 -0.0060840664 1.1047931e-38 306 245
-0.015818574 0.69400001 -0.0060840664 1.0955734e-38 307 245
-0.014580719 0.69300002 -0.0060753003 1.1137255e-38 308 245
-0.01336566 0.69300002 -0.0060753003 1.1137255e-38 309 245
-0.012150601 0.69300002 -0.0060753003 1.150246e-38 310 245
-0.01090398 0.69099998 -0.0060577663 1.1410265e-38 311 245
-0.0096783992 0.69 -0.0060489997 1.1224447e-38 312 245
-0.0084440531 0.68800002 -0.0060314666 1.1132251e-38 313 245
-0.0072377604 0.68800002 -0.0060314666 1.1042927e-38 314 245
-0.0060314666 0.68800002 -0.0060314666 1.1319514e-38 315 245
-0.0048251734 0.68800002 -0.0060314666 1.1137994e-38 316 245
-0.0036188802 0.68800002 -0.0060314666 1.1506776e-38 317 245
-0.0024090798 0.68699998 -0.0060226996 1.1966685e-38 318 245
-0.0012045399 0.68699998 -0.0060226996 1.2335108e-38 319 245
0 0.68599999 -0.0060139326 1.2148201e-38 320 245
0.0012027866 0.68599999 -0.0060139326 1.1595027e-38 321 245
0.0024055731 0.68599999 -0.0060139326 1.085854e-38 322 245
0.00360836 0.68599999 -0.0060139326 1.0674147e-38 323 245
0.0048111463 0.68599999 -0.0060139326 1.0581233e-38 324 245
0.0059964 0.68400002 -0.0059964 1.0949655e-38 325 245
0.0071956799 0.68400002 -0.0059964 1.1044353e-38 326 245
0.0083949603 0.68400002 -0.0059964 1.1597527e-38 327 245
0.0095942402 0.68400002 -0.0059964 1.1966306e-38 328 245
0.01077774 0.68300003 -0.0059876335 1.1782274e-38 329 245
0.011975267 0.68300003 -0.0059876335 1.2055987e-38 330 245
0.013172794 0.68300003 -0.0059876335 1.1595009e-38 331 245
0.01439136 0.68400002 -0.0059964 1.0950005e-38 332 245
0.01559064 0.68400002 -0.0059964 1.085781e-38 333 245
0.016789921 0.68400002 -0.0059964 1.0764545e-38 334 245
0.0179892 0.68400002 -0.0059964 1.0764545e-38 335 245
0.01918848 0.68400002 -0.0059964 1.0673072e-38 336 245
0.020387759 0.68400002 -0.0059964 1.0857462e-38 337 245
0.02158704 0.68400002 -0.0059964 1.0674866e-38 338 245
0.022786319 0.68400002 -0.0059964 1.0767063e-38 339 245
0.0239856 0.68400002 -0.0059964 1.0767416e-38 340 245
0.025258519 0.68599999 -0.0060139326 1.002985e-38 341 245
0.026461305 0.68599999 -0.0060139326 1.1140534e-38 342 245
0.027704418 0.68699998 -0.0060226996 1.4552131e-38 343 245
0.028908957 0.68699998 -0.0060226996 1.3644247e-38 344 245
0.030113498 0.68699998 -0.0060226996 1.3828997e-38 345 245
0.031363625 0.68800002 -0.0060314666 1.2451843e-38 346 245
0.032569919 0.68800002 -0.0060314666 1.2451843e-38 347 245
0.033776212 0.68800002 -0.0060314666 1.2451843e-38 348 245
0.03498251 0.68800002 -0.0060314666 1.2451843e-38 349 245
0.0361888 0.68800002 -0.0060314666 1.2635152e-38 350 245
0.037395094 0.68800002 -0.0060314666 1.2451121e-38 351 245
0.038601387 0.68800002 -0.0060314666 1.2634789e-38 352 245
0.039807681 0.68800002 -0.0060314666 1.2726985e-38 353 245
0.041133199 0.69 -0.0060489997 1.2818099e-38 354 245
0.042404365 0.69099998 -0.0060577663 1.2910294e-38 355 245
0.043742158 0.69300002 -0.0060753003 1.3186511e-38 356 245
0.045022093 0.69400001 -0.0060840664 1.300248e-38 357 245
0.046372157 0.69599998 -0.0061015999 1.2441725e-38 358 245
0.047592476 0.69599998 -0.0061015999 1.0136475e-38 359 245
0.048882935 0.69700003 -0.0061103669 1.058123e-38 360 245
0.050176892 0.69800001 -0.006119133 1.0212087e-38 361 245
0.051400717 0.69800001 -0.006119133 1.0674498e-38 362 245
0.052775331 0.69999999 -0.0061366665 1.1227671e-38 363 245
0.054002665 0.69999999 -0.0061366665 1.0036711e-38 364 245
-0.059992049 0.72799999 -0.0076585598 1.2723367e-38 273 246
-0.058715623 0.72799999 -0.0076585598 1.1527701e-38 274 246
-0.057202499 0.72500002 -0.0076270006 9.0384185e-39 275 246
-0.055931333 0.72500002 -0.0076270006 1.0037061e-38 276 246
-0.054433983 0.722 -0.0075954394 9.2072988e-39 277 246
-0.05294716 0.71899998 -0.0075638802 1.0674851e-38 278 246
-0.051542737 0.71700001 -0.0075428397 1.0674851e-38 279 246
-0.050215468 0.71600002 -0.00753232 1.0674495e-38 280 246
-0.048754938 0.713 -0.0075007593 1.0674495e-38 281 246
-0.047371563 0.71100003 -0.0074797203 1.0674498e-38 282 246
-0.046060063 0.70999998 -0.0074691991 1.0674498e-38 283 246
-0.044815198 0.70999998 -0.0074691991 1.0582302e-38 284 246
-0.043447599 0.708 -0.0074481601 1.0490106e-38 285 246
-0.042146627 0.70700002 -0.0074376399 1.048975e-38 286 246
-0.040849157 0.70599997 -0.0074271196 1.048975e-38 287 246
-0.039499093 0.704 -0.0074060797 1.0306794e-38 288 246
-0.038264744 0.704 -0.0074060797 1.0306794e-38 289 246
-0.037030395 0.704 -0.0074060797 1.0764893e-38 290 246
-0.035745207 0.70300001 -0.0073955595 1.0857447e-38 291 246
-0.034512613 0.70300001 -0.0073955595 1.1040759e-38 292 246
-0.03318534 0.70099998 -0.0073745195 1.1132955e-38 293 246
-0.031910665 0.69999999 -0.0073639993 1.094964e-38 294 246
-0.030595668 0.69800001 -0.0073429602 1.1041835e-38 295 246
-0.029371841 0.69800001 -0.0073429602 1.1226224e-38 296 246
-0.028107686 0.69700003 -0.00733244 1.1042191e-38 297 246
-0.026885614 0.69700003 -0.00733244 1.1317703e-38 298 246
-0.025626717 0.69599998 -0.0073219193 1.1502095e-38 299 246
-0.0244064 0.69599998 -0.0073219193 1.1317713e-38 300 246
-0.023119451 0.69400001 -0.0073008798 1.1317713e-38 301 246
-0.021902639 0.69400001 -0.0073008798 1.1134401e-38 302 246
-0.020685827 0.69400001 -0.0073008798 1.1226597e-38 303 246
-0.019469013 0.69400001 -0.0073008798 1.1135473e-38 304 246
-0.0182522 0.69400001 -0.0073008798 1.1319864e-38 305 246
-0.01701084 0.69300002 -0.0072903596 1.1137624e-38 306 246
-0.015795778 0.69300002 -0.0072903596 1.1414212e-38 307 246
-0.014580719 0.69300002 -0.0072903596 1.1321289e-38 308 246
-0.01336566 0.69300002 -0.0072903596 1.1321289e-38 309 246
-0.012097999 0.69 -0.0072587994 1.1413488e-38 310 246
-0.010856641 0.68800002 -0.0072377604 1.1321292e-38 311 246
-0.0096503468 0.68800002 -0.0072377604 1.1134754e-38 312 246
-0.0084440531 0.68800002 -0.0072377604 1.058158e-38 313 246
-0.0072377604 0.68800002 -0.0072377604 1.0764893e-38 314 246
-0.0060314666 0.68800002 -0.0072377604 1.1410262e-38 315 246
-0.0048251734 0.68800002 -0.0072377604 1.1136908e-38 316 246
-0.0036136196 0.68699998 -0.0072272392 1.1320939e-38 317 246
-0.0024090798 0.68699998 -0.0072272392 1.1687928e-38 318 246
-0.0012045399 0.68699998 -0.0072272392 1.122695e-38 319 246
0 0.68599999 -0.0072167199 1.0214964e-38 320 246
0.0012027866 0.68599999 -0.0072167199 1.0399355e-38 321 246
0.0024055731 0.68599999 -0.0072167199 1.10397e-38 322 246
0.00359784 0.68400002 -0.0071956799 1.0947504e-38 323 246
0.0047971201 0.68400002 -0.0071956799 1.0766343e-38 324 246
0.0059964 0.68400002 -0.0071956799 1.1411712e-38 325 246
0.0071851597 0.68300003 -0.0071851597 1.160112e-38 326 246
0.0083826864 0.68300003 -0.0071851597 1.1324533e-38 327 246
0.0095802136 0.68300003 -0.0071851597 1.1963422e-38 328 246
0.01077774 0.68300003 -0.0071851597 1.1686476e-38 329 246
0.011975267 0.68300003 -0.0071851597 1.1040756e-38 330 246
0.013172794 0.68300003 -0.0071851597 1.1040756e-38 331 246
0.014370319 0.68300003 -0.0071851597 1.0764176e-38 332 246
0.015567848 0.68300003 -0.0071851597 1.0671981e-38 333 246
0.016789921 0.68400002 -0.0071956799 1.0671981e-38 334 246
0.0179892 0.68400002 -0.0071956799 1.0671981e-38 335 246
0.01918848 0.68400002 -0.0071956799 1.0672702e-38 336 246
0.020387759 0.68400002 -0.0071956799 1.0764898e-38 337 246
0.02158704 0.68400002 -0.0071956799 1.0857094e-38 338 246
0.022786319 0.68400002 -0.0071956799 1.0949289e-38 339 246
0.0239856 0.68400002 -0.0071956799 1.1041852e-38 340 246
0.025258519 0.68599999 -0.0072167199 1.0489037e-38 341 246
0.026461305 0.68599999 -0.0072167199 1.2066829e-38 342 246
0.027664091 0.68599999 -0.0072167199 1.5385872e-38 343 246
0.028908957 0.68699998 -0.0072272392 1.3186161e-38 344 246
0.030113498 0.68699998 -0.0072272392 1.300213e-38 345 246
0.031318039 0.68699998 -0.0072272392 1.2451124e-38 346 246
0.032569919 0.68800002 -0.0072377604 1.2451124e-38 347 246
0.033776212 0.68800002 -0.0072377604 1.2635155e-38 348 246
0.03498251 0.68800002 -0.0072377604 1.2451124e-38 349 246
0.0361888 0.68800002 -0.0072377604 1.2634433e-38 350 246
0.037395094 0.68800002 -0.0072377604 1.2726629e-38 351 246
0.038601387 0.68800002 -0.0072377604 1.2818102e-38 352 246
0.039807681 0.68800002 -0.0072377604 1.2818102e-38 353 246
0.041013971 0.68800002 -0.0072377604 1.2910294e-38 354 246
0.042342998 0.69 -0.0072587994 1.3002849e-38 355 246
0.043615919 0.69099998 -0.0072693196 1.28116e-38 356 246
0.044957221 0.69300002 -0.0072903596 1.0691099e-38 357 246
0.046238903 0.69400001 -0.0073008798 1.0401523e-38 358 246
0.047455717 0.69400001 -0.0073008798 9.7561538e-39 359 246
0.048812799 0.69599998 -0.0073219193 1.0857447e-38 360 246
0.050105009 0.69700003 -0.00733244 1.1225871e-38 361 246
0.051400717 0.69800001 -0.0073429602 1.1043277e-38 362 246
0.052624546 0.69800001 -0.0073429602 1.1043277e-38 363 246
0.054002665 0.69999999 -0.0073639993 1.0493719e-38 364 246
0.055229999 0.69999999 -0.0073639993 1.2706415e-38 365 246
-0.058715623 0.72799999 -0.0089349858 1.1802843e-38 274 247
-0.057202499 0.72500002 -0.0088981669 8.944418e-39 275 247
-0.055931333 0.72500002 -0.0088981669 9.7586691e-39 276 247
-0.054433983 0.722 -0.0088613462 9.3902453e-39 277 247
-0.05294716 0.71899998 -0.0088245263 1.0492257e-38 278 247
-0.051542737 0.71700001 -0.0087999795 1.0399703e-38 279 247
-0.050215468 0.71600002 -0.0087877065 1.0674498e-38 280 247
-0.048754938 0.713 -0.0087508867 1.0674498e-38 281 247
-0.047371563 0.71100003 -0.0087263398 1.0675216e-38 282 247
-0.046060063 0.70999998 -0.0087140659 1.0491185e-38 283 247
-0.044815198 0.70999998 -0.0087140659 1.0398634e-38 284 247
-0.043447599 0.708 -0.008689519 1.0214242e-38 285 247
-0.042146627 0.70700002 -0.008677247 1.0306441e-38 286 247
-0.040849157 0.70599997 -0.0086649731 1.0306441e-38 287 247
-0.039611302 0.70599997 -0.0086649731 1.0306794e-38 288 247
-0.038264744 0.704 -0.0086404262 1.0306794e-38 289 247
-0.036977798 0.70300001 -0.0086281532 1.0673776e-38 290 247
-0.035745207 0.70300001 -0.0086281532 1.058158e-38 291 247
-0.034414422 0.70099998 -0.0086036054 1.0673776e-38 292 247
-0.033137999 0.69999999 -0.0085913334 1.0673776e-38 293 247
-0.031910665 0.69999999 -0.0085913334 1.0858166e-38 294 247
-0.030595668 0.69800001 -0.0085667865 1.0950361e-38 295 247
-0.029371841 0.69800001 -0.0085667865 1.1041835e-38 296 247
-0.028107686 0.69700003 -0.0085545136 1.1041835e-38 297 247
-0.026885614 0.69700003 -0.0085545136 1.1225873e-38 298 247
-0.025626717 0.69599998 -0.0085422397 1.1225873e-38 299 247
-0.0244064 0.69599998 -0.0085422397 1.1042208e-38 300 247
-0.023119451 0.69400001 -0.0085176928 1.0950011e-38 301 247
-0.021871079 0.69300002 -0.0085054198 1.1041852e-38 302 247
-0.020656019 0.69300002 -0.0085054198 1.0949655e-38 303 247
-0.019469013 0.69400001 -0.0085176928 1.0858187e-38 304 247
-0.0182522 0.69400001 -0.0085176928 1.1134772e-38 305 247
-0.01701084 0.69300002 -0.0085054198 1.1134769e-38 306 247
-0.015795778 0.69300002 -0.0085054198 1.1226965e-38 307 247
-0.014580719 0.69300002 -0.0085054198 1.0952526e-38 308 247
-0.0133078 0.69 -0.0084686 1.0952526e-38 309 247
-0.012062933 0.68800002 -0.0084440531 1.0585899e-38 310 247
-0.010856641 0.68800002 -0.0084440531 1.0585899e-38 311 247
-0.0096503468 0.68800002 -0.0084440531 1.0859965e-38 312 247
-0.0084440531 0.68800002 -0.0084440531 1.0952161e-38 313 247
-0.0072377604 0.68800002 -0.0084440531 1.0951805e-38 314 247
-0.0060226996 0.68699998 -0.0084317802 1.0675216e-38 315 247
-0.0048181596 0.68699998 -0.0084317802 1.1041135e-38 316 247
-0.0036136196 0.68699998 -0.0084317802 1.1409558e-38 317 247
-0.0024090798 0.68699998 -0.0084317802 1.1226965e-38 318 247
-0.0012045399 0.68699998 -0.0084317802 1.0858543e-38 319 247
0 0.68599999 -0.0084195063 1.0303217e-38 320 247
0.0012027866 0.68599999 -0.0084195063 1.0579445e-38 321 247
0.0024055731 0.68599999 -0.0084195063 9.7550846e-39 322 247
0.00359784 0.68400002 -0.0083949603 9.9394759e-39 323 247
0.0047971201 0.68400002 -0.0083949603 9.8501487e-39 324 247
0.0059964 0.68400002 -0.0083949603 1.0403321e-38 325 247
0.0071851597 0.68300003 -0.0083826864 1.0954691e-38 326 247
0.0083826864 0.68300003 -0.0083826864 1.0586268e-38 327 247
0.0095802136 0.68300003 -0.0083826864 1.1134407e-38 328 247
0.01077774 0.68300003 -0.0083826864 1.0949655e-38 329 247
0.011975267 0.68300003 -0.0083826864 1.0856741e-38 330 247
0.013172794 0.68300003 -0.0083826864 1.0672349e-38 331 247
0.014370319 0.68300003 -0.0083826864 1.0213526e-38 332 247
0.015567848 0.68300003 -0.0083826864 1.0213526e-38 333 247
0.016765373 0.68300003 -0.0083826864 1.0122047e-38 334 247
0.0179892 0.68400002 -0.0083949603 1.0122047e-38 335 247
0.01918848 0.68400002 -0.0083949603 1.0121691e-38 336 247
0.020387759 0.68400002 -0.0083949603 1.0306441e-38 337 247
0.02158704 0.68400002 -0.0083949603 1.0123848e-38 338 247
0.022786319 0.68400002 -0.0083949603 9.8469019e-39 339 247
0.0239856 0.68400002 -0.0083949603 9.8479963e-39 340 247
0.025184879 0.68400002 -0.0083949603 1.2061052e-38 341 247
0.02638416 0.68400002 -0.0083949603 1.2808728e-38 342 247
0.027664091 0.68599999 -0.0084195063 1.4837032e-38 343 247
0.02886688 0.68599999 -0.0084195063 1.2634436e-38 344 247
0.030069664 0.68599999 -0.0084195063 1.2542241e-38 345 247
0.031318039 0.68699998 -0.0084317802 1.2267098e-38 346 247
0.032522578 0.68699998 -0.0084317802 1.2267098e-38 347 247
0.033727121 0.68699998 -0.0084317802 1.2083783e-38 348 247
0.034931656 0.68699998 -0.0084317802 1.2083783e-38 349 247
0.0361888 0.68800002 -0.0084440531 1.2267093e-38 350 247
0.037395094 0.68800002 -0.0084440531 1.2267093e-38 351 247
0.038601387 0.68800002 -0.0084440531 1.2542235e-38 352 247
0.039807681 0.68800002 -0.0084440531 1.2634789e-38 353 247
0.041013971 0.68800002 -0.0084440531 1.3369108e-38 354 247
0.042220265 0.68800002 -0.0084440531 1.2354956e-38 355 247
0.043615919 0.69099998 -0.008480873 1.1793109e-38 356 247
0.044957221 0.69300002 -0.0085054198 8.5662622e-39 357 247
0.04617228 0.69300002 -0.0085054198 9.8458131e-39 358 247
0.047455717 0.69400001 -0.0085176928 1.0306791e-38 359 247
0.048812799 0.69599998 -0.0085422397 1.085889e-38 360 247
0.050033119 0.69599998 -0.0085422397 1.085889e-38 361 247
0.051327083 0.69700003 -0.0085545136 1.0767413e-38 362 247
0.052624546 0.69800001 -0.0085667865 1.0306794e-38 363 247
0.053848371 0.69800001 -0.0085667865 9.5703234e-39 364 247
0.0550722 0.69800001 -0.0085667865 1.3165594e-38 365 247
0.056296028 0.69800001 -0.0085667865 1.4463558e-38 366 247
-0.058715623 0.72799999 -0.010211413 1.1802487e-38 274 248
-0.057360299 0.727 -0.010197386 8.7600296e-39 275 248
-0.055931333 0.72500002 -0.010169334 9.8497956e-39 276 248
-0.054433983 0.722 -0.010127253 9.6654029e-39 277 248
-0.05294716 0.71899998 -0.010085173 1.0491904e-38 278 248
-0.051470853 0.71600002 -0.010043093 1.0399709e-38 279 248
-0.050075196 0.71399999 -0.01001504 1.0491185e-38 280 248
-0.048754938 0.713 -0.010001013 1.039899e-38 281 248
-0.047371563 0.71100003 -0.0099729598 1.0490829e-38 282 248
-0.046060063 0.70999998 -0.0099589331 1.0490829e-38 283 248
-0.044688959 0.708 -0.0099308798 1.0306441e-38 284 248
-0.043386232 0.70700002 -0.0099168532 1.0214245e-38 285 248
-0.042146627 0.70700002 -0.0099168532 1.0214245e-38 286 248
-0.040849157 0.70599997 -0.0099028256 1.0214245e-38 287 248
-0.039499093 0.704 -0.0098747732 1.0490106e-38 288 248
-0.038264744 0.704 -0.0098747732 1.0490106e-38 289 248
-0.036977798 0.70300001 -0.0098607466 1.0582655e-38 290 248
-0.035745207 0.70300001 -0.0098607466 1.0582655e-38 291 248
-0.034414422 0.70099998 -0.0098326923 1.0582652e-38 292 248
-0.033137999 0.69999999 -0.0098186666 1.0674848e-38 293 248
-0.031910665 0.69999999 -0.0098186666 1.0674132e-38 294 248
-0.030595668 0.69800001 -0.0097906133 1.0950359e-38 295 248
-0.029371841 0.69800001 -0.0097906133 1.1041835e-38 296 248
-0.028107686 0.69700003 -0.0097765867 1.094964e-38 297 248
-0.026885614 0.69700003 -0.0097765867 1.094964e-38 298 248
-0.025626717 0.69599998 -0.0097625591 1.094964e-38 299 248
-0.024336265 0.69400001 -0.0097345067 1.0950361e-38 300 248
-0.023119451 0.69400001 -0.0097345067 1.0950361e-38 301 248
-0.021871079 0.69300002 -0.0097204801 1.0857813e-38 302 248
-0.020656019 0.69300002 -0.0097204801 1.0857813e-38 303 248
-0.019469013 0.69400001 -0.0097345067 1.0950011e-38 304 248
-0.018225901 0.69300002 -0.0097204801 1.0950011e-38 305 248
-0.01701084 0.69300002 -0.0097204801 1.1041132e-38 306 248
-0.015795778 0.69300002 -0.0097204801 1.1041132e-38 307 248
-0.014538639 0.69099998 -0.0096924258 1.0766346e-38 308 248
-0.0133078 0.69 -0.0096783992 1.0766346e-38 309 248
-0.012062933 0.68800002 -0.0096503468 1.0583395e-38 310 248
-0.010856641 0.68800002 -0.0096503468 1.0491198e-38 311 248
-0.0096503468 0.68800002 -0.0096503468 1.0675944e-38 312 248
-0.0084317802 0.68699998 -0.0096363192 1.113692e-38 313 248
-0.0072272392 0.68699998 -0.0096363192 1.1319864e-38 314 248
-0.0060226996 0.68699998 -0.0096363192 1.0674495e-38 315 248
-0.0048181596 0.68699998 -0.0096363192 1.1315548e-38 316 248
-0.0036136196 0.68699998 -0.0096363192 1.1960918e-38 317 248
-0.0024055731 0.68599999 -0.0096222926 1.1322019e-38 318 248
-0.0012027866 0.68599999 -0.0096222926 1.1045072e-38 319 248
0 0.68599999 -0.0096222926 1.0397908e-38 320 248
0.0012027866 0.68599999 -0.0096222926 1.012168e-38 321 248
0.0024055731 0.68599999 -0.0096222926 9.9383815e-39 322 248
0.00359784 0.68400002 -0.0095942402 1.0214608e-38 323 248
0.0047971201 0.68400002 -0.0095942402 1.0123138e-38 324 248
0.0059964 0.68400002 -0.0095942402 1.0307888e-38 325 248
0.0071851597 0.68300003 -0.0095802136 1.0766357e-38 326 248
0.0083826864 0.68300003 -0.0095802136 1.0490129e-38 327 248
0.0095802136 0.68300003 -0.0095802136 1.0857462e-38 328 248
0.01077774 0.68300003 -0.0095802136 1.0673072e-38 329 248
0.011975267 0.68300003 -0.0095802136 1.0489387e-38 330 248
0.013172794 0.68300003 -0.0095802136 1.0397192e-38 331 248
0.014370319 0.68300003 -0.0095802136 1.0029847e-38 332 248
0.015567848 0.68300003 -0.0095802136 1.0029847e-38 333 248
0.016765373 0.68300003 -0.0095802136 1.0029847e-38 334 248
0.017962901 0.68300003 -0.0095802136 1.0029847e-38 335 248
0.019160427 0.68300003 -0.0095802136 1.0121327e-38 336 248
0.020357953 0.68300003 -0.0095802136 1.0397555e-38 337 248
0.02158704 0.68400002 -0.0095942402 1.0214959e-38 338 248
0.022786319 0.68400002 -0.0095942402 9.2011653e-39 339 248
0.0239856 0.68400002 -0.0095942402 9.9398416e-39 340 248
0.025184879 0.68400002 -0.0095942402 1.464182e-38 341 248
0.02638416 0.68400002 -0.0095942402 1.2539354e-38 342 248
0.027664091 0.68599999 -0.0096222926 1.3368754e-38 343 248
0.02886688 0.68599999 -0.0096222926 1.2267098e-38 344 248
0.030069664 0.68599999 -0.0096222926 1.2174544e-38 345 248
0.031272452 0.68599999 -0.0096222926 1.2174544e-38 346 248
0.032522578 0.68699998 -0.0096363192 1.1990512e-38 347 248
0.033727121 0.68699998 -0.0096363192 1.1990868e-38 348 248
0.034931656 0.68699998 -0.0096363192 1.1990868e-38 349 248
0.036136195 0.68699998 -0.0096363192 1.2266377e-38 350 248
0.037340738 0.68699998 -0.0096363192 1.2266377e-38 351 248
0.038545277 0.68699998 -0.0096363192 1.2541519e-38 352 248
0.039807681 0.68800002 -0.0096503468 1.3094691e-38 353 248
0.041013971 0.68800002 -0.0096503468 1.2905966e-38 354 248
0.042220265 0.68800002 -0.0096503468 9.4947262e-39 355 248
0.043552797 0.69 -0.0096783992 1.0033111e-38 356 248
0.044827472 0.69099998 -0.0096924258 9.2955456e-39 357 248
0.04617228 0.69300002 -0.0097204801 1.0675219e-38 358 248
0.047387339 0.69300002 -0.0097204801 1.0675219e-38 359 248
0.048672531 0.69400001 -0.0097345067 1.076634e-38 360 248
0.050033119 0.69599998 -0.0097625591 1.076634e-38 361 248
0.051253434 0.69599998 -0.0097625591 1.0674863e-38 362 248
0.052549154 0.69700003 -0.0097765867 1.0214245e-38 363 248
0.053848371 0.69800001 -0.0097906133 9.3852231e-39 364 248
0.0550722 0.69800001 -0.0097906133 1.261207e-38 365 248
0.056296028 0.69800001 -0.0097906133 1.4283133e-38 366 248
-0.058715623 0.72799999 -0.01148784 1.180249e-38 274 249
-0.057360299 0.727 -0.01147206 8.4834469e-39 275 249
-0.055931333 0.72500002 -0.0114405 1.0308619e-38 276 249
-0.054433983 0.722 -0.01139316 1.0032392e-38 277 249
-0.05294716 0.71899998 -0.01134582 1.0675219e-38 278 249
-0.051470853 0.71600002 -0.01129848 1.0398634e-38 279 249
-0.050075196 0.71399999 -0.011266919 1.0581946e-38 280 249
-0.048754938 0.713 -0.011251139 1.0581946e-38 281 249
-0.047304932 0.70999998 -0.011203799 1.0399353e-38 282 249
-0.046060063 0.70999998 -0.011203799 1.0214961e-38 283 249
-0.044688959 0.708 -0.01117224 1.0306441e-38 284 249
-0.043386232 0.70700002 -0.011156459 1.0214245e-38 285 249
-0.042146627 0.70700002 -0.011156459 1.0214245e-38 286 249
-0.040849157 0.70599997 -0.011140679 1.0214245e-38 287 249
-0.039499093 0.704 -0.011109119 1.021424e-38 288 249
-0.038210396 0.70300001 -0.01109334 1.0306794e-38 289 249
-0.036977798 0.70300001 -0.01109334 1.0673776e-38 290 249
-0.035643511 0.70099998 -0.011061779 1.0673776e-38 291 249
-0.034414422 0.70099998 -0.011061779 1.0398987e-38 292 249
-0.033137999 0.69999999 -0.011045999 1.0491182e-38 293 249
-0.031910665 0.69999999 -0.011045999 1.0858166e-38 294 249
-0.030595668 0.69800001 -0.01101444 1.0858166e-38 295 249
-0.029371841 0.69800001 -0.01101444 1.0949287e-38 296 249
-0.028107686 0.69700003 -0.01099866 1.0857091e-38 297 249
-0.026885614 0.69700003 -0.01099866 1.0857447e-38 298 249
-0.025626717 0.69599998 -0.010982879 1.0949643e-38 299 249
-0.024336265 0.69400001 -0.01095132 1.0949643e-38 300 249
-0.023119451 0.69400001 -0.01095132 1.0949643e-38 301 249
-0.021871079 0.69300002 -0.010935539 1.0857457e-38 302 249
-0.020656019 0.69300002 -0.010935539 1.0857457e-38 303 249
-0.019469013 0.69400001 -0.01095132 1.0857459e-38 304 249
-0.018225901 0.69300002 -0.010935539 1.0949655e-38 305 249
-0.01701084 0.69300002 -0.010935539 1.0857459e-38 306 249
-0.015750192 0.69099998 -0.01090398 1.0857459e-38 307 249
-0.014517599 0.69 -0.010888199 1.0490482e-38 308 249
-0.0133078 0.69 -0.010888199 1.0490482e-38 309 249
-0.012062933 0.68800002 -0.010856641 1.012386e-38 310 249
-0.010856641 0.68800002 -0.010856641 1.012386e-38 311 249
-0.0096503468 0.68800002 -0.010856641 1.0491904e-38 312 249
-0.0084317802 0.68699998 -0.010840859 1.0860328e-38 313 249
-0.0072272392 0.68699998 -0.010840859 1.1686479e-38 314 249
-0.0060226996 0.68699998 -0.010840859 1.1686479e-38 315 249
-0.0048181596 0.68699998 -0.010840859 1.1504962e-38 316 249
-0.00360836 0.68599999 -0.010825079 1.1781549e-38 317 249
-0.0024055731 0.68599999 -0.010825079 1.1414565e-38 318 249
-0.00119928 0.68400002 -0.01079352 1.1045781e-38 319 249
0 0.68400002 -0.01079352 1.0860315e-38 320 249
0.00119928 0.68400002 -0.01079352 1.076812e-38 321 249
0.0023985601 0.68400002 -0.01079352 1.0399706e-38 322 249
0.00359784 0.68400002 -0.01079352 1.0491901e-38 323 249
0.0047901068 0.68300003 -0.01077774 1.0584114e-38 324 249
0.0059876335 0.68300003 -0.01077774 1.0491918e-38 325 249
0.0071851597 0.68300003 -0.01077774 1.0674516e-38 326 249
0.0083826864 0.68300003 -0.01077774 1.039793e-38 327 249
0.0095802136 0.68300003 -0.01077774 1.0214611e-38 328 249
0.01077774 0.68300003 -0.01077774 1.003058e-38 329 249
0.011975267 0.68300003 -0.01077774 9.8461844e-39 330 249
0.013172794 0.68300003 -0.01077774 9.8461844e-39 331 249
0.014370319 0.68300003 -0.01077774 9.7536301e-39 332 249
0.015567848 0.68300003 -0.01077774 9.7536301e-39 333 249
0.016765373 0.68300003 -0.01077774 9.7536301e-39 334 249
0.017962901 0.68300003 -0.01077774 9.7536301e-39 335 249
0.019160427 0.68300003 -0.01077774 1.0029497e-38 336 249
0.020357953 0.68300003 -0.01077774 1.0029497e-38 337 249
0.02155548 0.68300003 -0.01077774 1.0030574e-38 338 249
0.022786319 0.68400002 -0.01079352 9.6617904e-39 339 249
0.0239856 0.68400002 -0.01079352 1.0129278e-38 340 249
0.02514806 0.68300003 -0.01077774 1.5199678e-38 341 249
0.026345588 0.68300003 -0.01077774 1.272555e-38 342 249
0.027583439 0.68400002 -0.01079352 1.272555e-38 343 249
0.02886688 0.68599999 -0.010825079 1.1898319e-38 344 249
0.030069664 0.68599999 -0.010825079 1.1898319e-38 345 249
0.031272452 0.68599999 -0.010825079 1.1898319e-38 346 249
0.032475237 0.68599999 -0.010825079 1.1898319e-38 347 249
0.033678025 0.68599999 -0.010825079 1.1898316e-38 348 249
0.034931656 0.68699998 -0.010840859 1.1898316e-38 349 249
0.036136195 0.68699998 -0.010840859 1.1898313e-38 350 249
0.037340738 0.68699998 -0.010840859 1.21749e-38 351 249
0.038545277 0.68699998 -0.010840859 1.2542238e-38 352 249
0.039807681 0.68800002 -0.010856641 1.1896868e-38 353 249
0.041013971 0.68800002 -0.010856641 1.179565e-38 354 249
0.042220265 0.68800002 -0.010856641 7.7390421e-39 355 249
0.043552797 0.69 -0.010888199 9.8451124e-39 356 249
0.0447626 0.69 -0.010888199 1.0213536e-38 357 249
0.046039023 0.69099998 -0.01090398 1.0674144e-38 358 249
0.047387339 0.69300002 -0.010935539 1.0674144e-38 359 249
0.048602402 0.69300002 -0.010935539 1.0490479e-38 360 249
0.049889345 0.69400001 -0.01095132 1.0490479e-38 361 249
0.051106159 0.69400001 -0.01095132 1.0398999e-38 362 249
0.052473757 0.69599998 -0.010982879 1.0306804e-38 363 249
0.053771228 0.69700003 -0.01099866 9.56962e-39 364 249
0.0550722 0.69800001 -0.01101444 9.38487e-39 365 249
0.056296028 0.69800001 -0.01101444 9.0409353e-39 366 249
0.057519849 0.69800001 -0.01101444 1.6693173e-38 367 249
-0.058715623 0.72799999 -0.012764266 1.1893239e-38 274 250
-0.057360299 0.727 -0.012746733 8.4820008e-39 275 250
-0.055931333 0.72500002 -0.012711667 1.0308256e-38 276 250
-0.054433983 0.722 -0.012659066 1.021606e-38 277 250
-0.05294716 0.71899998 -0.012606465 1.0674863e-38 278 250
-0.051470853 0.71600002 -0.012553867 1.0398637e-38 279 250
-0.050075196 0.71399999 -0.012518799 1.0581946e-38 280 250
-0.048754938 0.713 -0.012501267 1.0581946e-38 281 250
-0.047304932 0.70999998 -0.012448666 1.0398637e-38 282 250
-0.046060063 0.70999998 -0.012448666 1.0306441e-38 283 250
-0.044688959 0.708 -0.0124136 1.0213889e-38 284 250
-0.043447599 0.708 -0.0124136 1.0213889e-38 285 250
-0.042146627 0.70700002 -0.012396066 1.0122047e-38 286 250
-0.040849157 0.70599997 -0.012378532 1.0214242e-38 287 250
-0.039499093 0.704 -0.012343466 1.003093e-38 288 250
-0.038210396 0.70300001 -0.012325933 1.0214961e-38 289 250
-0.036977798 0.70300001 -0.012325933 1.0490106e-38 290 250
-0.035643511 0.70099998 -0.012290866 1.0490106e-38 291 250
-0.034365334 0.69999999 -0.012273333 1.0398987e-38 292 250
-0.033137999 0.69999999 -0.012273333 1.0398987e-38 293 250
-0.031819493 0.69800001 -0.012238266 1.0582299e-38 294 250
-0.030595668 0.69800001 -0.012238266 1.0582299e-38 295 250
-0.029371841 0.69800001 -0.012238266 1.0764895e-38 296 250
-0.028107686 0.69700003 -0.012220734 1.0764895e-38 297 250
-0.026885614 0.69700003 -0.012220734 1.0764893e-38 298 250
-0.025626717 0.69599998 -0.0122032 1.0857447e-38 299 250
-0.024336265 0.69400001 -0.012168133 1.0582302e-38 300 250
-0.02308614 0.69300002 -0.012150601 1.0490106e-38 301 250
-0.021871079 0.69300002 -0.012150601 1.0581952e-38 302 250
-0.020656019 0.69300002 -0.012150601 1.0581952e-38 303 250
-0.01944096 0.69300002 -0.012150601 1.0674144e-38 304 250
-0.018225901 0.69300002 -0.012150601 1.0581949e-38 305 250
-0.01701084 0.69300002 -0.012150601 1.0581949e-38 306 250
-0.015750192 0.69099998 -0.012115533 1.0581949e-38 307 250
-0.014517599 0.69 -0.012097999 1.0306088e-38 308 250
-0.0133078 0.69 -0.012097999 1.0306088e-38 309 250
-0.012062933 0.68800002 -0.012062933 1.0214255e-38 310 250
-0.010856641 0.68800002 -0.012062933 1.0306809e-38 311 250
-0.0096503468 0.68800002 -0.012062933 1.0767416e-38 312 250
-0.0084317802 0.68699998 -0.012045399 1.0859612e-38 313 250
-0.0072272392 0.68699998 -0.012045399 1.1319498e-38 314 250
-0.0060139326 0.68599999 -0.012027865 1.150353e-38 315 250
-0.0048111463 0.68599999 -0.012027865 1.1413136e-38 316 250
-0.00360836 0.68599999 -0.012027865 1.1413136e-38 317 250
-0.0023985601 0.68400002 -0.0119928 1.1136199e-38 318 250
-0.00119928 0.68400002 -0.0119928 1.0859612e-38 319 250
0 0.68400002 -0.0119928 1.0860331e-38 320 250
