# .PCD v.7 - Point Cloud Data file format
FIELDS x y z rgb imX imY
SIZE 4 4 4 4 4 4
TYPE F F F F F F
COUNT 1 1 1 1 1 1
WIDTH 838
HEIGHT 1
VIEWPOINT 0 0 0 1 0 0 0
POINTS 838
DATA ascii
0.075333714 0.68199998 -0.046635158 1.1495646e-38 383 279
0.077202775 0.68800002 -0.047045439 7.540607e-39 384 279
0.078409068 0.68800002 -0.047045439 5.9732813e-39 385 279
0.079615362 0.68800002 -0.047045439 2.3070782e-39 386 279
0.081056595 0.69 -0.047182199 6.6402714e-39 387 279
0.082266398 0.69 -0.047182199 1.345736e-38 388 279
-0.00717464 0.68199998 -0.047830928 7.4534463e-39 314 280
-0.005978866 0.68199998 -0.047830928 9.8508928e-39 315 280
-0.004783093 0.68199998 -0.047830928 1.3615774e-38 316 280
-0.0035767998 0.68000001 -0.047690667 1.3984555e-38 317 280
-0.0023845332 0.68000001 -0.047690667 1.4626309e-38 318 280
-0.0011922666 0.68000001 -0.047690667 1.4626309e-38 319 280
0 0.67900002 -0.047620531 1.4718492e-38 320 280
0.0011852533 0.676 -0.047410134 1.4718492e-38 321 280
0.0023669999 0.67500001 -0.047339998 1.4993284e-38 322 280
0.00354524 0.67400002 -0.047269866 1.5177315e-38 323 280
0.0047129598 0.67199999 -0.047129598 1.5177312e-38 324 280
0.0058824331 0.671 -0.047059465 1.5177312e-38 325 280
0.0070589199 0.671 -0.047059465 1.5177668e-38 326 280
0.0082231332 0.67000002 -0.046989333 1.5177668e-38 327 280
0.0093978662 0.67000002 -0.046989333 1.5268792e-38 328 280
0.01054104 0.66799998 -0.046849065 1.5268792e-38 329 280
0.011694733 0.667 -0.046778932 1.5269514e-38 330 280
0.01284492 0.66600001 -0.046708796 1.5361709e-38 331 280
0.014012639 0.66600001 -0.046708796 1.5361709e-38 332 280
0.01518036 0.66600001 -0.046708796 1.5361709e-38 333 280
0.016298985 0.66399997 -0.046568532 1.5452107e-38 334 280
0.0174632 0.66399997 -0.046568532 1.5359911e-38 335 280
0.018599359 0.66299999 -0.046498399 1.4625587e-38 336 280
0.019761819 0.66299999 -0.046498399 1.4072772e-38 337 280
0.020924279 0.66299999 -0.046498399 1.1591059e-38 338 280
0.02208674 0.66299999 -0.046498399 9.1943326e-39 339 280
0.0232492 0.66299999 -0.046498399 5.1460584e-39 340 280
0.024411658 0.66299999 -0.046498399 4.408492e-39 341 280
0.025574118 0.66299999 -0.046498399 3.3064828e-39 342 280
0.026696252 0.662 -0.046428263 3.767461e-39 343 280
0.027856959 0.662 -0.046428263 8.3685698e-39 344 280
0.029061496 0.66299999 -0.046498399 1.0950047e-38 345 280
0.030223956 0.66299999 -0.046498399 1.4261149e-38 346 280
0.031386416 0.66299999 -0.046498399 1.4353345e-38 347 280
0.032548878 0.66299999 -0.046498399 1.3981671e-38 348 280
0.033762183 0.66399997 -0.046568532 1.3889117e-38 349 280
0.0349264 0.66399997 -0.046568532 1.3429583e-38 350 280
0.036090612 0.66399997 -0.046568532 1.3429583e-38 351 280
0.037254825 0.66399997 -0.046568532 1.297041e-38 352 280
0.038419038 0.66399997 -0.046568532 1.2877854e-38 353 280
0.039583251 0.66399997 -0.046568532 1.2878575e-38 354 280
0.040747464 0.66399997 -0.046568532 1.2786378e-38 355 280
0.041911677 0.66399997 -0.046568532 1.2786378e-38 356 280
0.043205637 0.66600001 -0.046708796 1.2878575e-38 357 280
0.04437336 0.66600001 -0.046708796 1.2419756e-38 358 280
0.045541082 0.66600001 -0.046708796 1.2419756e-38 359 280
0.046708796 0.66600001 -0.046708796 1.2235728e-38 360 280
0.047948405 0.667 -0.046778932 1.2051696e-38 361 280
0.049117878 0.667 -0.046778932 1.2049896e-38 362 280
0.050287351 0.667 -0.046778932 1.1220134e-38 363 280
0.051456824 0.667 -0.046778932 8.2774434e-39 364 280
0.052705199 0.66799998 -0.046849065 5.7885201e-39 365 280
0.054037735 0.67000002 -0.046989333 1.196388e-39 366 280
0.055212468 0.67000002 -0.046989333 3.4094432e-39 367 280
0.056471359 0.671 -0.047059465 7.7278696e-39 368 280
0.057647847 0.671 -0.047059465 9.5717822e-39 369 280
0.058911994 0.67199999 -0.047129598 1.1589624e-38 370 280
0.060090236 0.67199999 -0.047129598 1.1589624e-38 371 280
0.061450824 0.67400002 -0.047269866 1.159034e-38 372 280
0.062632568 0.67400002 -0.047269866 1.1682536e-38 373 280
0.063909002 0.67500001 -0.047339998 1.1682541e-38 374 280
0.065188929 0.676 -0.047410134 1.1682541e-38 375 280
0.066374183 0.676 -0.047410134 1.1682185e-38 376 280
0.06775932 0.67799997 -0.047550395 1.1682185e-38 377 280
0.069049768 0.67900002 -0.047620531 1.1682907e-38 378 280
0.070240289 0.67900002 -0.047620531 1.1682907e-38 379 280
0.071535997 0.68000001 -0.047690667 1.1774751e-38 380 280
0.072728261 0.68000001 -0.047690667 1.1959142e-38 381 280
0.073920533 0.68000001 -0.047690667 1.2694912e-38 382 280
0.075333714 0.68199998 -0.047830928 1.3155889e-38 383 280
0.077090554 0.68699998 -0.048181597 1.1684356e-38 384 280
0.078409068 0.68800002 -0.048251733 9.5634977e-39 385 280
0.079615362 0.68800002 -0.048251733 5.9765281e-39 386 280
0.081056595 0.69 -0.048391998 6.9903199e-39 387 280
0.082266398 0.69 -0.048391998 1.1707435e-38 388 280
-0.00717464 0.68199998 -0.049026705 1.1776914e-38 314 281
-0.005978866 0.68199998 -0.049026705 1.3160208e-38 315 281
-0.004783093 0.68199998 -0.049026705 1.4811425e-38 316 281
-0.00358732 0.68199998 -0.049026705 1.4442644e-38 317 281
-0.0023845332 0.68000001 -0.048882935 1.4535543e-38 318 281
-0.0011922666 0.68000001 -0.048882935 1.4443347e-38 319 281
0 0.67900002 -0.048811045 1.4809609e-38 320 281
0.0011852533 0.676 -0.048595384 1.4901804e-38 321 281
0.0023669999 0.67500001 -0.048523501 1.4993281e-38 322 281
0.00354524 0.67400002 -0.048451614 1.5177312e-38 323 281
0.0047129598 0.67199999 -0.04830784 1.5177668e-38 324 281
0.0058824331 0.671 -0.048235953 1.5177668e-38 325 281
0.0070589199 0.671 -0.048235953 1.5176949e-38 326 281
0.0082231332 0.67000002 -0.048164066 1.5176949e-38 327 281
0.0093698129 0.66799998 -0.048020288 1.5176949e-38 328 281
0.010525259 0.667 -0.047948405 1.5269145e-38 329 281
0.011694733 0.667 -0.047948405 1.5268789e-38 330 281
0.01284492 0.66600001 -0.047876518 1.5268789e-38 331 281
0.014012639 0.66600001 -0.047876518 1.5268795e-38 332 281
0.01518036 0.66600001 -0.047876518 1.5176599e-38 333 281
0.016298985 0.66399997 -0.047732744 1.5176596e-38 334 281
0.0174632 0.66399997 -0.047732744 1.4899649e-38 335 281
0.018599359 0.66299999 -0.047660857 1.3152977e-38 336 281
0.019761819 0.66299999 -0.047660857 1.0663695e-38 337 281
0.020924279 0.66299999 -0.047660857 4.8701582e-39 338 281
0.02208674 0.66299999 -0.047660857 4.2247916e-39 339 281
0.0232492 0.66299999 -0.047660857 4.5936063e-39 340 281
0.024411658 0.66299999 -0.047660857 4.1329869e-39 341 281
0.025574118 0.66299999 -0.047660857 4.1387266e-39 342 281
0.026696252 0.662 -0.047588971 7.3655737e-39 343 281
0.027856959 0.662 -0.047588971 1.279178e-38 344 281
0.029061496 0.66299999 -0.047660857 1.3990323e-38 345 281
0.030223956 0.66299999 -0.047660857 1.4441577e-38 346 281
0.031386416 0.66299999 -0.047660857 1.416463e-38 347 281
0.032548878 0.66299999 -0.047660857 1.3613256e-38 348 281
0.033762183 0.66399997 -0.047732744 1.352106e-38 349 281
0.0349264 0.66399997 -0.047732744 1.3245915e-38 350 281
0.036090612 0.66399997 -0.047732744 1.3245915e-38 351 281
0.037254825 0.66399997 -0.047732744 1.2971126e-38 352 281
0.038419038 0.66399997 -0.047732744 1.2878931e-38 353 281
0.039583251 0.66399997 -0.047732744 1.2878575e-38 354 281
0.040747464 0.66399997 -0.047732744 1.2878575e-38 355 281
0.041911677 0.66399997 -0.047732744 1.2878577e-38 356 281
0.043075889 0.66399997 -0.047732744 1.2878577e-38 357 281
0.04437336 0.66600001 -0.047876518 1.24194e-38 358 281
0.045541082 0.66600001 -0.047876518 1.24194e-38 359 281
0.046708796 0.66600001 -0.047876518 1.2327926e-38 360 281
0.047876518 0.66600001 -0.047876518 1.2051341e-38 361 281
0.04904424 0.66600001 -0.047876518 1.1959148e-38 362 281
0.050287351 0.667 -0.047948405 1.1036833e-38 363 281
0.051456824 0.667 -0.047948405 8.3692887e-39 364 281
0.052705199 0.66799998 -0.048020288 5.6956154e-39 365 281
0.054037735 0.67000002 -0.048164066 1.3793373e-39 366 281
0.055212468 0.67000002 -0.048164066 3.6845882e-39 367 281
0.056471359 0.671 -0.048235953 7.7278696e-39 368 281
0.057647847 0.671 -0.048235953 9.6639778e-39 369 281
0.058911994 0.67199999 -0.04830784 1.1773305e-38 370 281
0.06026908 0.67400002 -0.048451614 1.1773305e-38 371 281
0.061450824 0.67400002 -0.048451614 1.1773658e-38 372 281
0.062725499 0.67500001 -0.048523501 1.1773658e-38 373 281
0.063909002 0.67500001 -0.048523501 1.1773658e-38 374 281
0.065188929 0.676 -0.048595384 1.1865853e-38 375 281
0.066374183 0.676 -0.048595384 1.1682185e-38 376 281
0.06775932 0.67799997 -0.048739154 1.1682185e-38 377 281
0.069049768 0.67900002 -0.048811045 1.1682904e-38 378 281
0.070240289 0.67900002 -0.048811045 1.1682904e-38 379 281
0.071535997 0.68000001 -0.048882935 1.1774384e-38 380 281
0.072728261 0.68000001 -0.048882935 1.1958416e-38 381 281
0.073920533 0.68000001 -0.048882935 1.2234287e-38 382 281
0.075333714 0.68199998 -0.049026705 1.2787461e-38 383 281
0.076753922 0.68400002 -0.049170479 1.3433899e-38 384 281
0.078295097 0.68699998 -0.049386136 1.2880726e-38 385 281
0.079615362 0.68800002 -0.049458027 9.6538996e-39 386 281
0.081056595 0.69 -0.049601797 7.164619e-39 387 281
0.082266398 0.69 -0.049601797 9.9557015e-39 388 281
-0.0083949603 0.68400002 -0.050369758 1.0220023e-38 313 282
-0.0071851597 0.68300003 -0.05029612 1.3525732e-38 314 282
-0.0059876335 0.68300003 -0.05029612 1.3709763e-38 315 282
-0.004783093 0.68199998 -0.050222475 1.453519e-38 316 282
-0.00358732 0.68199998 -0.050222475 1.453519e-38 317 282
-0.0023845332 0.68000001 -0.050075196 1.4626662e-38 318 282
-0.0011905134 0.67900002 -0.050001562 1.4626662e-38 319 282
0 0.67799997 -0.049927916 1.4901451e-38 320 282
0.0011852533 0.676 -0.049780637 1.4901451e-38 321 282
0.0023669999 0.67500001 -0.049706999 1.4993284e-38 322 282
0.00354524 0.67400002 -0.049633358 1.5177315e-38 323 282
0.0047129598 0.67199999 -0.049486078 1.5177312e-38 324 282
0.0058824331 0.671 -0.049412437 1.4993281e-38 325 282
0.0070483997 0.67000002 -0.049338799 1.4993281e-38 326 282
0.0082231332 0.67000002 -0.049338799 1.4901086e-38 327 282
0.0093698129 0.66799998 -0.04919152 1.4993281e-38 328 282
0.010525259 0.667 -0.049117878 1.4993281e-38 329 282
0.011694733 0.667 -0.049117878 1.4993284e-38 330 282
0.01284492 0.66600001 -0.04904424 1.4993284e-38 331 282
0.014012639 0.66600001 -0.04904424 1.4992934e-38 332 282
0.015134773 0.66399997 -0.048896957 1.4992934e-38 333 282
0.016298985 0.66399997 -0.048896957 1.4166053e-38 334 282
0.0174632 0.66399997 -0.048896957 1.2967511e-38 335 282
0.018599359 0.66299999 -0.048823316 8.3699795e-39 336 282
0.019761819 0.66299999 -0.048823316 6.7100981e-39 337 282
0.020924279 0.66299999 -0.048823316 3.5859214e-39 338 282
0.02208674 0.66299999 -0.048823316 3.5859214e-39 339 282
0.0232492 0.66299999 -0.048823316 2.6679321e-39 340 282
0.024411658 0.66299999 -0.048823316 3.958671e-39 341 282
0.025574118 0.66299999 -0.048823316 8.5540233e-39 342 282
0.026696252 0.662 -0.048749682 1.1688675e-38 343 282
0.027856959 0.662 -0.048749682 1.4351893e-38 344 282
0.029061496 0.66299999 -0.048823316 1.4351893e-38 345 282
0.030269546 0.66399997 -0.048896957 1.3981318e-38 346 282
0.031386416 0.66299999 -0.048823316 1.3796927e-38 347 282
0.032548878 0.66299999 -0.048823316 1.3338114e-38 348 282
0.033762183 0.66399997 -0.048896957 1.3245918e-38 349 282
0.0349264 0.66399997 -0.048896957 1.297041e-38 350 282
0.036090612 0.66399997 -0.048896957 1.3062606e-38 351 282
0.037254825 0.66399997 -0.048896957 1.2971126e-38 352 282
0.038419038 0.66399997 -0.048896957 1.2878931e-38 353 282
0.039583251 0.66399997 -0.048896957 1.2695262e-38 354 282
0.040747464 0.66399997 -0.048896957 1.2695262e-38 355 282
0.041911677 0.66399997 -0.048896957 1.2695265e-38 356 282
0.043075889 0.66399997 -0.048896957 1.2603068e-38 357 282
0.04437336 0.66600001 -0.04904424 1.2419756e-38 358 282
0.045541082 0.66600001 -0.04904424 1.2419756e-38 359 282
0.046708796 0.66600001 -0.04904424 1.2235725e-38 360 282
0.047876518 0.66600001 -0.04904424 1.1959498e-38 361 282
0.04904424 0.66600001 -0.04904424 1.1958063e-38 362 282
0.050287351 0.667 -0.049117878 1.094427e-38 363 282
0.051456824 0.667 -0.049117878 7.9104686e-39 364 282
0.052863002 0.67000002 -0.049338799 5.3289909e-39 365 282
0.054037735 0.67000002 -0.049338799 1.0112751e-39 366 282
0.055294871 0.671 -0.049412437 3.5927527e-39 367 282
0.056471359 0.671 -0.049412437 7.9115378e-39 368 282
0.057733759 0.67199999 -0.049486078 9.7554503e-39 369 282
0.058911994 0.67199999 -0.049486078 1.1589637e-38 370 282
0.06026908 0.67400002 -0.049633358 1.1589637e-38 371 282
0.061542001 0.67500001 -0.049706999 1.1589987e-38 372 282
0.062725499 0.67500001 -0.049706999 1.1589987e-38 373 282
0.063909002 0.67500001 -0.049706999 1.1865851e-38 374 282
0.065188929 0.676 -0.049780637 1.1865851e-38 375 282
0.066570558 0.67799997 -0.049927916 1.1682541e-38 376 282
0.06775932 0.67799997 -0.049927916 1.1774737e-38 377 282
0.069049768 0.67900002 -0.050001562 1.1774381e-38 378 282
0.070343733 0.68000001 -0.050075196 1.1958413e-38 379 282
0.071535997 0.68000001 -0.050075196 1.1958416e-38 380 282
0.072728261 0.68000001 -0.050075196 1.2050612e-38 381 282
0.074137948 0.68199998 -0.050222475 1.2235362e-38 382 282
0.075444184 0.68300003 -0.05029612 1.2603786e-38 383 282
0.076753922 0.68400002 -0.050369758 1.2789236e-38 384 282
0.078295097 0.68699998 -0.050590675 1.2789236e-38 385 282
0.079615362 0.68800002 -0.050664321 1.1775087e-38 386 282
0.080704175 0.68699998 -0.050590675 9.4698377e-39 387 282
0.081908718 0.68699998 -0.050590675 9.3059951e-39 388 282
0.083234236 0.68800002 -0.050664321 1.5114318e-38 389 282
-0.0083949603 0.68400002 -0.051569041 1.2153613e-38 313 283
-0.0071956799 0.68400002 -0.051569041 1.444696e-38 314 283
-0.0059876335 0.68300003 -0.051493648 1.4078176e-38 315 283
-0.004783093 0.68199998 -0.051418249 1.4627741e-38 316 283
-0.00358732 0.68199998 -0.051418249 1.4535546e-38 317 283
-0.0023845332 0.68000001 -0.051267464 1.4718142e-38 318 283
-0.0011905134 0.67900002 -0.051192071 1.4718142e-38 319 283
0 0.67799997 -0.051116679 1.4901098e-38 320 283
0.0011834999 0.67500001 -0.050890498 1.4901098e-38 321 283
0.0023634934 0.67400002 -0.050815105 1.4992934e-38 322 283
0.00353472 0.67199999 -0.050664317 1.5176965e-38 323 283
0.0047129598 0.67199999 -0.050664317 1.4992931e-38 324 283
0.0058824331 0.671 -0.050588924 1.4992931e-38 325 283
0.0070483997 0.67000002 -0.050513536 1.5176243e-38 326 283
0.0082231332 0.67000002 -0.050513536 1.5176243e-38 327 283
0.0093698129 0.66799998 -0.050362743 1.5176599e-38 328 283
0.010525259 0.667 -0.050287351 1.5084045e-38 329 283
0.011694733 0.667 -0.050287351 1.5084045e-38 330 283
0.01284492 0.66600001 -0.050211959 1.4991848e-38 331 283
0.014012639 0.66600001 -0.050211959 1.4900379e-38 332 283
0.015134773 0.66399997 -0.05006117 1.4992934e-38 333 283
0.016298985 0.66399997 -0.05006117 1.2140998e-38 334 283
0.0174632 0.66399997 -0.05006117 1.002014e-38 335 283
0.018599359 0.66299999 -0.049985778 3.4007916e-39 336 283
0.019761819 0.66299999 -0.049985778 3.308596e-39 337 283
0.020924279 0.66299999 -0.049985778 3.1289061e-39 338 283
0.02208674 0.66299999 -0.049985778 2.6682881e-39 339 283
0.0232492 0.66299999 -0.049985778 3.7692182e-39 340 283
0.024411658 0.66299999 -0.049985778 7.9180216e-39 341 283
0.025574118 0.66299999 -0.049985778 1.2605221e-38 342 283
0.026736578 0.66299999 -0.049985778 1.3803405e-38 343 283
0.027899038 0.66299999 -0.049985778 1.4441572e-38 344 283
0.029061496 0.66299999 -0.049985778 1.4072788e-38 345 283
0.030269546 0.66399997 -0.05006117 1.3796571e-38 346 283
0.031433757 0.66399997 -0.05006117 1.3704375e-38 347 283
0.03259797 0.66399997 -0.05006117 1.3245921e-38 348 283
0.033762183 0.66399997 -0.05006117 1.3153367e-38 349 283
0.0349264 0.66399997 -0.05006117 1.2970773e-38 350 283
0.036090612 0.66399997 -0.05006117 1.2970773e-38 351 283
0.037254825 0.66399997 -0.05006117 1.2971126e-38 352 283
0.038419038 0.66399997 -0.05006117 1.2971126e-38 353 283
0.039583251 0.66399997 -0.05006117 1.2695262e-38 354 283
0.040747464 0.66399997 -0.05006117 1.2695262e-38 355 283
0.041911677 0.66399997 -0.05006117 1.2878577e-38 356 283
0.043205637 0.66600001 -0.050211959 1.278638e-38 357 283
0.04437336 0.66600001 -0.050211959 1.2419756e-38 358 283
0.045609459 0.667 -0.050287351 1.2327202e-38 359 283
0.046778932 0.667 -0.050287351 1.214281e-38 360 283
0.047948405 0.667 -0.050287351 1.2050615e-38 361 283
0.049117878 0.667 -0.050287351 1.1774031e-38 362 283
0.050287351 0.667 -0.050287351 1.094427e-38 363 283
0.051533967 0.66799998 -0.050362743 7.9104714e-39 364 283
0.052863002 0.67000002 -0.050513536 5.2364394e-39 365 283
0.054037735 0.67000002 -0.050513536 1.0112779e-39 366 283
0.055294871 0.671 -0.050588924 3.6849511e-39 367 283
0.056555521 0.67199999 -0.050664317 8.1863268e-39 368 283
0.057733759 0.67199999 -0.050664317 9.9380437e-39 369 283
0.059087332 0.67400002 -0.050815105 1.1589271e-38 370 283
0.060358498 0.67500001 -0.050890498 1.1773302e-38 371 283
0.061542001 0.67500001 -0.050890498 1.1589987e-38 372 283
0.062725499 0.67500001 -0.050890498 1.1682541e-38 373 283
0.064003684 0.676 -0.050965894 1.1865851e-38 374 283
0.065188929 0.676 -0.050965894 1.1865851e-38 375 283
0.066570558 0.67799997 -0.051116679 1.1682541e-38 376 283
0.067859262 0.67900002 -0.051192071 1.1682541e-38 377 283
0.069151461 0.68000001 -0.051267464 1.1774737e-38 378 283
0.070343733 0.68000001 -0.051267464 1.1774737e-38 379 283
0.071535997 0.68000001 -0.051267464 1.2050246e-38 380 283
0.072942168 0.68199998 -0.051418249 1.2050246e-38 381 283
0.074137948 0.68199998 -0.051418249 1.2417952e-38 382 283
0.075444184 0.68300003 -0.051493648 1.2786734e-38 383 283
0.076978341 0.68599999 -0.051719822 1.2787811e-38 384 283
0.078295097 0.68699998 -0.051795214 1.3064397e-38 385 283
0.079499632 0.68699998 -0.051795214 1.2881097e-38 386 283
0.080704175 0.68699998 -0.051795214 1.1959142e-38 387 283
0.081908718 0.68699998 -0.051795214 1.0036376e-38 388 283
0.083234236 0.68800002 -0.051870614 1.5291527e-38 389 283
0.084440529 0.68800002 -0.051870614 1.7240605e-38 390 283
-0.0084317802 0.68699998 -0.052999757 1.3254553e-38 313 284
-0.0071956799 0.68400002 -0.05276832 1.4354764e-38 314 284
-0.0059876335 0.68300003 -0.052691177 1.4170371e-38 315 284
-0.004783093 0.68199998 -0.052614026 1.4627744e-38 316 284
-0.00358732 0.68199998 -0.052614026 1.4442994e-38 317 284
-0.0023845332 0.68000001 -0.052459732 1.4808903e-38 318 284
-0.0011905134 0.67900002 -0.052382588 1.4901098e-38 319 284
0 0.67799997 -0.052305438 1.4901098e-38 320 284
0.0011834999 0.67500001 -0.052074 1.4901098e-38 321 284
0.0023634934 0.67400002 -0.051996857 1.4992931e-38 322 284
0.00353472 0.67199999 -0.051842555 1.4992931e-38 323 284
0.0047059464 0.671 -0.051765412 1.4992934e-38 324 284
0.0058824331 0.671 -0.051765412 1.4992934e-38 325 284
0.0070483997 0.67000002 -0.051688269 1.4901101e-38 326 284
0.0081985854 0.66799998 -0.051533967 1.4808905e-38 327 284
0.0093698129 0.66799998 -0.051533967 1.4808538e-38 328 284
0.010525259 0.667 -0.051456824 1.4808538e-38 329 284
0.011677199 0.66600001 -0.051379681 1.4808538e-38 330 284
0.01284492 0.66600001 -0.051379681 1.4808538e-38 331 284
0.014012639 0.66600001 -0.051379681 1.3981668e-38 332 284
0.015134773 0.66399997 -0.051225383 1.3244103e-38 333 284
0.016298985 0.66399997 -0.051225383 7.5369945e-39 334 284
0.0174632 0.66399997 -0.051225383 6.0618644e-39 335 284
0.018599359 0.66299999 -0.051148236 2.6672049e-39 336 284
0.019732011 0.662 -0.051071092 2.9437932e-39 337 284
0.020892721 0.662 -0.051071092 2.6693601e-39 338 284
0.02208674 0.66299999 -0.051148236 4.0522945e-39 339 284
0.0232492 0.66299999 -0.051148236 8.5543876e-39 340 284
0.024411658 0.66299999 -0.051148236 1.1965985e-38 341 284
0.025574118 0.66299999 -0.051148236 1.4627406e-38 342 284
0.026736578 0.66299999 -0.051148236 1.4074234e-38 343 284
0.027899038 0.66299999 -0.051148236 1.3980239e-38 344 284
0.029061496 0.66299999 -0.051148236 1.3796208e-38 345 284
0.030269546 0.66399997 -0.051225383 1.3245921e-38 346 284
0.031433757 0.66399997 -0.051225383 1.3153367e-38 347 284
0.03259797 0.66399997 -0.051225383 1.2970776e-38 348 284
0.033762183 0.66399997 -0.051225383 1.287858e-38 349 284
0.0349264 0.66399997 -0.051225383 1.2878577e-38 350 284
0.036090612 0.66399997 -0.051225383 1.2878577e-38 351 284
0.037254825 0.66399997 -0.051225383 1.2695265e-38 352 284
0.038419038 0.66399997 -0.051225383 1.2695265e-38 353 284
0.039583251 0.66399997 -0.051225383 1.2694909e-38 354 284
0.040747464 0.66399997 -0.051225383 1.2602712e-38 355 284
0.042037919 0.66600001 -0.051379681 1.2327207e-38 356 284
0.043205637 0.66600001 -0.051379681 1.2327207e-38 357 284
0.04437336 0.66600001 -0.051379681 1.2235009e-38 358 284
0.045541082 0.66600001 -0.051379681 1.2050259e-38 359 284
0.046708796 0.66600001 -0.051379681 1.2049899e-38 360 284
0.047948405 0.667 -0.051456824 1.1957343e-38 361 284
0.049117878 0.667 -0.051456824 1.1681838e-38 362 284
0.050287351 0.667 -0.051456824 1.0943914e-38 363 284
0.051533967 0.66799998 -0.051533967 8.0937808e-39 364 284
0.052863002 0.67000002 -0.051688269 5.4201076e-39 365 284
0.054118387 0.671 -0.051765412 8.2724674e-40 366 284
0.055377278 0.67199999 -0.051842555 3.6849511e-39 367 284
0.056555521 0.67199999 -0.051842555 8.3692789e-39 368 284
0.057905588 0.67400002 -0.051996857 1.0305387e-38 369 284
0.059087332 0.67400002 -0.051996857 1.1773302e-38 370 284
0.060358498 0.67500001 -0.052074 1.1773302e-38 371 284
0.061542001 0.67500001 -0.052074 1.1773658e-38 372 284
0.062725499 0.67500001 -0.052074 1.1773658e-38 373 284
0.064003684 0.676 -0.052151144 1.1773655e-38 374 284
0.065381795 0.67799997 -0.052305438 1.1773655e-38 375 284
0.066570558 0.67799997 -0.052305438 1.1773658e-38 376 284
0.067859262 0.67900002 -0.052382588 1.1865853e-38 377 284
0.069151461 0.68000001 -0.052459732 1.1682185e-38 378 284
0.070343733 0.68000001 -0.052459732 1.1682185e-38 379 284
0.071535997 0.68000001 -0.052459732 1.1958052e-38 380 284
0.072942168 0.68199998 -0.052614026 1.2142445e-38 381 284
0.074137948 0.68199998 -0.052614026 1.2418674e-38 382 284
0.075554639 0.68400002 -0.05276832 1.251087e-38 383 284
0.076978341 0.68599999 -0.05292261 1.2695262e-38 384 284
0.078295097 0.68699998 -0.052999757 1.2880012e-38 385 284
0.079499632 0.68699998 -0.052999757 1.3063693e-38 386 284
0.080821648 0.68800002 -0.053076908 1.3432477e-38 387 284
0.082027942 0.68800002 -0.053076908 1.1873095e-38 388 284
0.083234236 0.68800002 -0.053076908 1.6022257e-38 389 284
0.084440529 0.68800002 -0.053076908 1.7330999e-38 390 284
-0.0084317802 0.68699998 -0.054204296 1.362261e-38 313 285
-0.0071956799 0.68400002 -0.053967599 1.4538427e-38 314 285
-0.0059876335 0.68300003 -0.053888701 1.4170003e-38 315 285
-0.004783093 0.68199998 -0.053809796 1.4627388e-38 316 285
-0.00358732 0.68199998 -0.053809796 1.4442997e-38 317 285
-0.0023845332 0.68000001 -0.053652 1.4717789e-38 318 285
-0.0011905134 0.67900002 -0.053573098 1.4717789e-38 319 285
0 0.67799997 -0.053494196 1.4717786e-38 320 285
0.0011834999 0.67500001 -0.053257499 1.4717786e-38 321 285
0.0023634934 0.67400002 -0.053178601 1.4901098e-38 322 285
0.00353472 0.67199999 -0.053020798 1.4901098e-38 323 285
0.0047059464 0.671 -0.052941896 1.4901104e-38 324 285
0.0058736666 0.67000002 -0.052863002 1.4808549e-38 325 285
0.0070483997 0.67000002 -0.052863002 1.4625237e-38 326 285
0.0081985854 0.66799998 -0.052705199 1.4625237e-38 327 285
0.0093557863 0.667 -0.052626297 1.4624867e-38 328 285
0.010525259 0.667 -0.052626297 1.4624867e-38 329 285
0.011677199 0.66600001 -0.052547399 1.4533028e-38 330 285
0.01284492 0.66600001 -0.052547399 1.4533028e-38 331 285
0.014012639 0.66600001 -0.052547399 1.2693095e-38 332 285
0.015134773 0.66399997 -0.052389596 1.131016e-38 333 285
0.016298985 0.66399997 -0.052389596 4.1340533e-39 334 285
0.0174632 0.66399997 -0.052389596 3.5815984e-39 335 285
0.018599359 0.66299999 -0.052310698 2.7612152e-39 336 285
0.019732011 0.662 -0.0522318 3.0381622e-39 337 285
0.020892721 0.662 -0.0522318 3.4973173e-39 338 285
0.022053426 0.662 -0.0522318 6.3557405e-39 339 285
0.0232492 0.66299999 -0.052310698 1.2603433e-38 340 285
0.024411658 0.66299999 -0.052310698 1.3710139e-38 341 285
0.025574118 0.66299999 -0.052310698 1.4441938e-38 342 285
0.026736578 0.66299999 -0.052310698 1.3889122e-38 343 285
0.027899038 0.66299999 -0.052310698 1.352106e-38 344 285
0.029061496 0.66299999 -0.052310698 1.352106e-38 345 285
0.030269546 0.66399997 -0.052389596 1.3063325e-38 346 285
0.031433757 0.66399997 -0.052389596 1.2971129e-38 347 285
0.03259797 0.66399997 -0.052389596 1.2970773e-38 348 285
0.033762183 0.66399997 -0.052389596 1.2970773e-38 349 285
0.0349264 0.66399997 -0.052389596 1.287858e-38 350 285
0.036090612 0.66399997 -0.052389596 1.2786383e-38 351 285
0.037254825 0.66399997 -0.052389596 1.2786027e-38 352 285
0.038419038 0.66399997 -0.052389596 1.2786027e-38 353 285
0.039583251 0.66399997 -0.052389596 1.2786032e-38 354 285
0.040747464 0.66399997 -0.052389596 1.2601999e-38 355 285
0.042037919 0.66600001 -0.052547399 1.2417968e-38 356 285
0.043205637 0.66600001 -0.052547399 1.2233937e-38 357 285
0.04437336 0.66600001 -0.052547399 1.2050262e-38 358 285
0.045541082 0.66600001 -0.052547399 1.1958066e-38 359 285
0.046708796 0.66600001 -0.052547399 1.1865503e-38 360 285
0.047948405 0.667 -0.052626297 1.1865503e-38 361 285
0.049117878 0.667 -0.052626297 1.1589274e-38 362 285
0.050287351 0.667 -0.052626297 1.085135e-38 363 285
0.051533967 0.66799998 -0.052705199 7.9097427e-39 364 285
0.052863002 0.67000002 -0.052863002 5.4204607e-39 365 285
0.054118387 0.671 -0.052941896 1.1942244e-39 366 285
0.055377278 0.67199999 -0.053020798 4.0522889e-39 367 285
0.056555521 0.67199999 -0.053020798 8.5529443e-39 368 285
0.057905588 0.67400002 -0.053178601 1.0489053e-38 369 285
0.059087332 0.67400002 -0.053178601 1.1497794e-38 370 285
0.060358498 0.67500001 -0.053257499 1.158999e-38 371 285
0.061542001 0.67500001 -0.053257499 1.1589271e-38 372 285
0.062725499 0.67500001 -0.053257499 1.1589271e-38 373 285
0.064003684 0.676 -0.053336397 1.1773658e-38 374 285
0.065381795 0.67799997 -0.053494196 1.1773658e-38 375 285
0.066570558 0.67799997 -0.053494196 1.158999e-38 376 285
0.067859262 0.67900002 -0.053573098 1.1682185e-38 377 285
0.069151461 0.68000001 -0.053652 1.1682188e-38 378 285
0.070343733 0.68000001 -0.053652 1.1774384e-38 379 285
0.071746394 0.68199998 -0.053809796 1.1682907e-38 380 285
0.072942168 0.68199998 -0.053809796 1.1775104e-38 381 285
0.074137948 0.68199998 -0.053809796 1.2051691e-38 382 285
0.075554639 0.68400002 -0.053967599 1.2236081e-38 383 285
0.076753922 0.68400002 -0.053967599 1.2419403e-38 384 285
0.078181133 0.68599999 -0.054125395 1.2695631e-38 385 285
0.079499632 0.68699998 -0.054204296 1.2696725e-38 386 285
0.080821648 0.68800002 -0.054283202 1.3157704e-38 387 285
0.082027942 0.68800002 -0.054283202 1.1687987e-38 388 285
0.083234236 0.68800002 -0.054283202 1.5559844e-38 389 285
0.084440529 0.68800002 -0.054283202 1.7238803e-38 390 285
-0.01095132 0.69400001 -0.055973411 1.2066449e-38 311 286
-0.0097204801 0.69300002 -0.055892758 1.4545289e-38 312 286
-0.0084317802 0.68699998 -0.055408835 1.4084309e-38 313 286
-0.0071956799 0.68400002 -0.055166878 1.4539155e-38 314 286
-0.0059876335 0.68300003 -0.055086225 1.4262569e-38 315 286
-0.004783093 0.68199998 -0.055005573 1.4627388e-38 316 286
-0.00358732 0.68199998 -0.055005573 1.4535193e-38 317 286
-0.0023845332 0.68000001 -0.054844268 1.4626309e-38 318 286
-0.0011905134 0.67900002 -0.054763615 1.4626309e-38 319 286
0 0.67799997 -0.054682959 1.4717786e-38 320 286
0.0011834999 0.67500001 -0.054441001 1.462559e-38 321 286
0.0023634934 0.67400002 -0.054360349 1.4992934e-38 322 286
0.00353472 0.67199999 -0.054199036 1.4992934e-38 323 286
0.0047059464 0.671 -0.054118387 1.4717786e-38 324 286
0.0058736666 0.67000002 -0.054037735 1.4717786e-38 325 286
0.0070483997 0.67000002 -0.054037735 1.462559e-38 326 286
0.0081985854 0.66799998 -0.053876422 1.4533393e-38 327 286
0.0093557863 0.667 -0.05379577 1.4532672e-38 328 286
0.010525259 0.667 -0.05379577 1.4532672e-38 329 286
0.011677199 0.66600001 -0.053715117 1.4350448e-38 330 286
0.01284492 0.66600001 -0.053715117 1.4166055e-38 331 286
0.014012639 0.66600001 -0.053715117 1.0020886e-38 332 286
0.01518036 0.66600001 -0.053715117 6.8876692e-39 333 286
0.016298985 0.66399997 -0.053553808 2.391697e-39 334 286
0.0174632 0.66399997 -0.053553808 3.0370664e-39 335 286
0.018599359 0.66299999 -0.053473156 3.4036993e-39 336 286
0.019732011 0.662 -0.053392503 3.6802848e-39 337 286
0.020892721 0.662 -0.053392503 6.8073636e-39 338 286
0.022053426 0.662 -0.053392503 1.1048004e-38 339 286
0.0232492 0.66299999 -0.053473156 1.4903644e-38 340 286
0.024411658 0.66299999 -0.053473156 1.3981687e-38 341 286
0.025574118 0.66299999 -0.053473156 1.4164633e-38 342 286
0.026736578 0.66299999 -0.053473156 1.3979883e-38 343 286
0.027899038 0.66299999 -0.053473156 1.3338117e-38 344 286
0.029061496 0.66299999 -0.053473156 1.3245921e-38 345 286
0.030269546 0.66399997 -0.053553808 1.2970776e-38 346 286
0.031433757 0.66399997 -0.053553808 1.2970776e-38 347 286
0.03259797 0.66399997 -0.053553808 1.2787464e-38 348 286
0.033762183 0.66399997 -0.053553808 1.2694909e-38 349 286
0.0349264 0.66399997 -0.053553808 1.2786027e-38 350 286
0.036090612 0.66399997 -0.053553808 1.2878224e-38 351 286
0.037254825 0.66399997 -0.053553808 1.2785308e-38 352 286
0.038419038 0.66399997 -0.053553808 1.2785308e-38 353 286
0.039583251 0.66399997 -0.053553808 1.2509445e-38 354 286
0.040870197 0.66600001 -0.053715117 1.2509445e-38 355 286
0.042037919 0.66600001 -0.053715117 1.2417249e-38 356 286
0.043205637 0.66600001 -0.053715117 1.2232858e-38 357 286
0.04437336 0.66600001 -0.053715117 1.2049899e-38 358 286
0.045609459 0.667 -0.05379577 1.1957343e-38 359 286
0.046778932 0.667 -0.05379577 1.1774387e-38 360 286
0.047948405 0.667 -0.05379577 1.1589637e-38 361 286
0.04919152 0.66799998 -0.053876422 1.1589639e-38 362 286
0.050362743 0.66799998 -0.053876422 1.0759879e-38 363 286
0.051533967 0.66799998 -0.053876422 7.5413273e-39 364 286
0.052941896 0.671 -0.054118387 5.2367953e-39 365 286
0.054118387 0.671 -0.054118387 1.4708113e-39 366 286
0.055542093 0.67400002 -0.054360349 4.4210714e-39 367 286
0.056723841 0.67400002 -0.054360349 8.7373355e-39 368 286
0.057905588 0.67400002 -0.054360349 1.0396498e-38 369 286
0.059175 0.67500001 -0.054441001 1.1497075e-38 370 286
0.060358498 0.67500001 -0.054441001 1.1589271e-38 371 286
0.061542001 0.67500001 -0.054441001 1.1772939e-38 372 286
0.062818423 0.676 -0.054521654 1.1772939e-38 373 286
0.064003684 0.676 -0.054521654 1.1589268e-38 374 286
0.065381795 0.67799997 -0.054682959 1.1589268e-38 375 286
0.066668749 0.67900002 -0.054763615 1.1589274e-38 376 286
0.067859262 0.67900002 -0.054763615 1.1773305e-38 377 286
0.069151461 0.68000001 -0.054844268 1.1865503e-38 378 286
0.070343733 0.68000001 -0.054844268 1.1957699e-38 379 286
0.071851604 0.68300003 -0.055086225 1.1957696e-38 380 286
0.073049128 0.68300003 -0.055086225 1.2049893e-38 381 286
0.074246652 0.68300003 -0.055086225 1.223464e-38 382 286
0.075554639 0.68400002 -0.055166878 1.223464e-38 383 286
0.076753922 0.68400002 -0.055166878 1.2417599e-38 384 286
0.078181133 0.68599999 -0.055328183 1.2602349e-38 385 286
0.079499632 0.68699998 -0.055408835 1.2694565e-38 386 286
0.080821648 0.68800002 -0.055489492 1.2878956e-38 387 286
0.082027942 0.68800002 -0.055489492 9.6636443e-39 388 286
0.083234236 0.68800002 -0.055489492 1.4181229e-38 389 286
0.084440529 0.68800002 -0.055489492 1.6595236e-38 390 286
0.08564683 0.68800002 -0.055489492 1.6779627e-38 391 286
-0.01095132 0.69400001 -0.057190225 1.3077717e-38 311 287
-0.0097204801 0.69300002 -0.057107817 1.4729673e-38 312 287
-0.0084440531 0.68800002 -0.056695789 1.4084304e-38 313 287
-0.0072167199 0.68599999 -0.056530971 1.4632423e-38 314 287
-0.0059876335 0.68300003 -0.056283753 1.4171805e-38 315 287
-0.004783093 0.68199998 -0.056201346 1.4537346e-38 316 287
-0.00358732 0.68199998 -0.056201346 1.4352596e-38 317 287
-0.0023845332 0.68000001 -0.056036532 1.4443716e-38 318 287
-0.0011905134 0.67900002 -0.055954125 1.4259685e-38 319 287
0 0.67799997 -0.055871718 1.4626312e-38 320 287
0.0011852533 0.676 -0.055706903 1.4441922e-38 321 287
0.0023669999 0.67500001 -0.0556245 1.4808903e-38 322 287
0.00353472 0.67199999 -0.055377278 1.4901098e-38 323 287
0.0047059464 0.671 -0.055294871 1.4626312e-38 324 287
0.0058736666 0.67000002 -0.055212468 1.4441922e-38 325 287
0.0070483997 0.67000002 -0.055212468 1.4533042e-38 326 287
0.0081985854 0.66799998 -0.05504765 1.4533042e-38 327 287
0.0093557863 0.667 -0.054965243 1.4440842e-38 328 287
0.010525259 0.667 -0.054965243 1.4348646e-38 329 287
0.011677199 0.66600001 -0.054882839 1.3521063e-38 330 287
0.01284492 0.66600001 -0.054882839 1.2598747e-38 331 287
0.014012639 0.66600001 -0.054882839 6.7104932e-39 332 287
0.01518036 0.66600001 -0.054882839 4.3162767e-39 333 287
0.016298985 0.66399997 -0.054718021 3.1289103e-39 334 287
0.0174632 0.66399997 -0.054718021 3.2211059e-39 335 287
0.018599359 0.66299999 -0.054635618 4.4142373e-39 336 287
0.019732011 0.662 -0.054553211 6.25851e-39 337 287
0.020892721 0.662 -0.054553211 1.1129031e-38 338 287
0.02208674 0.66299999 -0.054635618 1.3065139e-38 339 287
0.0232492 0.66299999 -0.054635618 1.4259715e-38 340 287
0.024411658 0.66299999 -0.054635618 1.3337761e-38 341 287
0.025574118 0.66299999 -0.054635618 1.3338117e-38 342 287
0.026736578 0.66299999 -0.054635618 1.3338117e-38 343 287
0.027899038 0.66299999 -0.054635618 1.2970776e-38 344 287
0.029061496 0.66299999 -0.054635618 1.3062972e-38 345 287
0.030269546 0.66399997 -0.054718021 1.2787108e-38 346 287
0.031433757 0.66399997 -0.054718021 1.2787108e-38 347 287
0.03259797 0.66399997 -0.054718021 1.2603435e-38 348 287
0.033762183 0.66399997 -0.054718021 1.2603435e-38 349 287
0.0349264 0.66399997 -0.054718021 1.2878224e-38 350 287
0.036090612 0.66399997 -0.054718021 1.2786027e-38 351 287
0.037254825 0.66399997 -0.054718021 1.2693116e-38 352 287
0.03853476 0.66600001 -0.054882839 1.2693116e-38 353 287
0.039702479 0.66600001 -0.054882839 1.2509445e-38 354 287
0.040870197 0.66600001 -0.054882839 1.2417249e-38 355 287
0.042037919 0.66600001 -0.054882839 1.2050264e-38 356 287
0.043205637 0.66600001 -0.054882839 1.1958069e-38 357 287
0.044506609 0.66799998 -0.05504765 1.1958063e-38 358 287
0.045677837 0.66799998 -0.05504765 1.1774031e-38 359 287
0.046849065 0.66799998 -0.05504765 1.18655e-38 360 287
0.048020288 0.66799998 -0.05504765 1.1773305e-38 361 287
0.04919152 0.66799998 -0.05504765 1.1680387e-38 362 287
0.050362743 0.66799998 -0.05504765 1.0850625e-38 363 287
0.051688269 0.67000002 -0.055212468 7.4491275e-39 364 287
0.052941896 0.671 -0.055294871 5.0524012e-39 365 287
0.054118387 0.671 -0.055294871 1.3778968e-39 366 287
0.055542093 0.67400002 -0.055542093 4.4203512e-39 367 287
0.056723841 0.67400002 -0.055542093 8.9206478e-39 368 287
0.057905588 0.67400002 -0.055542093 1.0395779e-38 369 287
0.059175 0.67500001 -0.0556245 1.1680387e-38 370 287
0.060358498 0.67500001 -0.0556245 1.1680387e-38 371 287
0.061542001 0.67500001 -0.0556245 1.1772583e-38 372 287
0.062818423 0.676 -0.055706903 1.1772583e-38 373 287
0.064003684 0.676 -0.055706903 1.1589268e-38 374 287
0.065478235 0.67900002 -0.055954125 1.1589268e-38 375 287
0.066668749 0.67900002 -0.055954125 1.1589992e-38 376 287
0.067959204 0.68000001 -0.056036532 1.1589992e-38 377 287
0.069151461 0.68000001 -0.056036532 1.1589639e-38 378 287
0.070550621 0.68199998 -0.056201346 1.1681835e-38 379 287
0.071851604 0.68300003 -0.056283753 1.1774387e-38 380 287
0.073049128 0.68300003 -0.056283753 1.1958419e-38 381 287
0.074246652 0.68300003 -0.056283753 1.1958063e-38 382 287
0.075554639 0.68400002 -0.056366164 1.2142813e-38 383 287
0.076978341 0.68599999 -0.056530971 1.1959148e-38 384 287
0.078181133 0.68599999 -0.056530971 1.2051343e-38 385 287
0.079499632 0.68699998 -0.056613375 1.1958807e-38 386 287
0.080821648 0.68800002 -0.056695789 1.1866612e-38 387 287
0.082027942 0.68800002 -0.056695789 1.0673839e-38 388 287
0.083234236 0.68800002 -0.056695789 1.5006675e-38 389 287
0.084440529 0.68800002 -0.056695789 1.6778178e-38 390 287
0.08564683 0.68800002 -0.056695789 1.6962571e-38 391 287
-0.013423519 0.69599998 -0.058575355 1.5945881e-38 309 288
-0.0122032 0.69599998 -0.058575355 1.4460299e-38 310 288
-0.01095132 0.69400001 -0.058407038 1.3722734e-38 311 288
-0.0097204801 0.69300002 -0.058322877 1.4729679e-38 312 288
-0.008480873 0.69099998 -0.058154557 1.4360898e-38 313 288
-0.0072272392 0.68699998 -0.057817914 1.4724275e-38 314 288
-0.0059876335 0.68300003 -0.057481278 1.4447328e-38 315 288
-0.004783093 0.68199998 -0.05739712 1.472067e-38 316 288
-0.00358732 0.68199998 -0.05739712 1.4352246e-38 317 288
-0.0023845332 0.68000001 -0.057228796 1.4442647e-38 318 288
-0.0011905134 0.67900002 -0.057144642 1.4350092e-38 319 288
0 0.676 -0.056892153 1.4441925e-38 320 288
0.0011834999 0.67500001 -0.056808002 1.4441925e-38 321 288
0.0023634934 0.67400002 -0.056723841 1.4533037e-38 322 288
0.00353472 0.67199999 -0.056555521 1.4533037e-38 323 288
0.0047059464 0.671 -0.056471359 1.4533044e-38 324 288
0.0058736666 0.67000002 -0.056387197 1.4440847e-38 325 288
0.0070483997 0.67000002 -0.056387197 1.4440491e-38 326 288
0.0081985854 0.66799998 -0.056218877 1.4440491e-38 327 288
0.0093698129 0.66799998 -0.056218877 1.4164628e-38 328 288
0.010525259 0.667 -0.056134716 1.4257182e-38 329 288
0.011694733 0.667 -0.056134716 1.195663e-38 330 288
0.01284492 0.66600001 -0.056050558 9.5591845e-39 331 288
0.014012639 0.66600001 -0.056050558 3.8617894e-39 332 288
0.01518036 0.66600001 -0.056050558 3.4926481e-39 333 288
0.016298985 0.66399997 -0.055882234 3.5873661e-39 334 288
0.0174632 0.66399997 -0.055882234 3.8639544e-39 335 288
0.018599359 0.66299999 -0.055798076 6.8970369e-39 336 288
0.019761819 0.66299999 -0.055798076 9.6629044e-39 337 288
0.020924279 0.66299999 -0.055798076 1.3615789e-38 338 288
0.02208674 0.66299999 -0.055798076 1.315517e-38 339 288
0.0232492 0.66299999 -0.055798076 1.3428877e-38 340 288
0.024411658 0.66299999 -0.055798076 1.3336682e-38 341 288
0.025574118 0.66299999 -0.055798076 1.287858e-38 342 288
0.026736578 0.66299999 -0.055798076 1.2970776e-38 343 288
0.027899038 0.66299999 -0.055798076 1.2694912e-38 344 288
0.029061496 0.66299999 -0.055798076 1.2694912e-38 345 288
0.030269546 0.66399997 -0.055882234 1.2787108e-38 346 288
0.031433757 0.66399997 -0.055882234 1.2787108e-38 347 288
0.03259797 0.66399997 -0.055882234 1.2602712e-38 348 288
0.033762183 0.66399997 -0.055882234 1.2602712e-38 349 288
0.0349264 0.66399997 -0.055882234 1.2601996e-38 350 288
0.036090612 0.66399997 -0.055882234 1.2509801e-38 351 288
0.037254825 0.66399997 -0.055882234 1.2600561e-38 352 288
0.03853476 0.66600001 -0.056050558 1.2508366e-38 353 288
0.039702479 0.66600001 -0.056050558 1.2325051e-38 354 288
0.040870197 0.66600001 -0.056050558 1.2232855e-38 355 288
0.042037919 0.66600001 -0.056050558 1.2049899e-38 356 288
0.043205637 0.66600001 -0.056050558 1.1957343e-38 357 288
0.044506609 0.66799998 -0.056218877 1.1865503e-38 358 288
0.045677837 0.66799998 -0.056218877 1.1865503e-38 359 288
0.046849065 0.66799998 -0.056218877 1.1773305e-38 360 288
0.048164066 0.67000002 -0.056387197 1.1773305e-38 361 288
0.049338799 0.67000002 -0.056387197 1.1772949e-38 362 288
0.050513536 0.67000002 -0.056387197 1.0759157e-38 363 288
0.051688269 0.67000002 -0.056387197 7.1736224e-39 364 288
0.052941896 0.671 -0.056471359 5.1453185e-39 365 288
0.054118387 0.671 -0.056471359 1.9310706e-39 366 288
0.055542093 0.67400002 -0.056723841 4.5125482e-39 367 288
0.056723841 0.67400002 -0.056723841 8.8295326e-39 368 288
0.057905588 0.67400002 -0.056723841 1.0396498e-38 369 288
0.059175 0.67500001 -0.056808002 1.1772939e-38 370 288
0.060358498 0.67500001 -0.056808002 1.1680385e-38 371 288
0.061633173 0.676 -0.056892153 1.1680741e-38 372 288
0.062818423 0.676 -0.056892153 1.1772936e-38 373 288
0.06419304 0.67799997 -0.057060476 1.1589268e-38 374 288
0.065478235 0.67900002 -0.057144642 1.1773658e-38 375 288
0.066668749 0.67900002 -0.057144642 1.1773302e-38 376 288
0.067959204 0.68000001 -0.057228796 1.1773302e-38 377 288
0.069151461 0.68000001 -0.057228796 1.1865503e-38 378 288
0.070550621 0.68199998 -0.05739712 1.1865503e-38 379 288
0.071851604 0.68300003 -0.057481278 1.1865503e-38 380 288
0.073156074 0.68400002 -0.057565439 1.1957699e-38 381 288
0.074572764 0.68599999 -0.057733759 1.1957699e-38 382 288
0.075775556 0.68599999 -0.057733759 1.2049896e-38 383 288
0.076978341 0.68599999 -0.057733759 1.2049899e-38 384 288
0.078295097 0.68699998 -0.057817914 1.2142094e-38 385 288
0.079499632 0.68699998 -0.057817914 1.2142457e-38 386 288
0.080821648 0.68800002 -0.057902083 1.1774035e-38 387 288
0.082027942 0.68800002 -0.057902083 1.1317394e-38 388 288
0.083234236 0.68800002 -0.057902083 1.5558034e-38 389 288
0.084440529 0.68800002 -0.057902083 1.6961139e-38 390 288
0.08564683 0.68800002 -0.057902083 1.7238084e-38 391 288
-0.013384946 0.69400001 -0.059623852 1.6869282e-38 309 289
-0.012168133 0.69400001 -0.059623852 1.5660287e-38 310 289
-0.01095132 0.69400001 -0.059623852 1.3908571e-38 311 289
-0.0097204801 0.69300002 -0.05953794 1.4638559e-38 312 289
-0.008480873 0.69099998 -0.059366114 1.399319e-38 313 289
-0.0072377604 0.68800002 -0.059108373 1.4816824e-38 314 289
-0.0059964 0.68400002 -0.058764715 1.4447681e-38 315 289
-0.004783093 0.68199998 -0.058592889 1.472067e-38 316 289
-0.00358732 0.68199998 -0.058592889 1.4352246e-38 317 289
-0.0023845332 0.68000001 -0.058421064 1.4442647e-38 318 289
-0.0011905134 0.67900002 -0.058335152 1.4350092e-38 319 289
0 0.676 -0.058077414 1.4350448e-38 320 289
0.0011834999 0.67500001 -0.057991501 1.4350448e-38 321 289
0.0023634934 0.67400002 -0.057905588 1.4349729e-38 322 289
0.00353472 0.67199999 -0.057733759 1.4349729e-38 323 289
0.0047059464 0.671 -0.057647847 1.4440491e-38 324 289
0.0058824331 0.671 -0.057647847 1.4440491e-38 325 289
0.0070483997 0.67000002 -0.057561934 1.4257179e-38 326 289
0.0082231332 0.67000002 -0.057561934 1.4164983e-38 327 289
0.0093698129 0.66799998 -0.057390101 1.3797287e-38 328 289
0.010525259 0.667 -0.057304189 1.3151918e-38 329 289
0.011694733 0.667 -0.057304189 9.6560675e-39 330 289
0.01284492 0.66600001 -0.057218276 6.7980043e-39 331 289
0.014012639 0.66600001 -0.057218276 3.6799191e-39 332 289
0.01518036 0.66600001 -0.057218276 3.6799191e-39 333 289
0.016298985 0.66399997 -0.057046451 4.7830198e-39 334 289
0.017436899 0.66299999 -0.056960538 6.25851e-39 335 289
0.018599359 0.66299999 -0.056960538 1.1221946e-38 336 289
0.019761819 0.66299999 -0.056960538 1.2051706e-38 337 289
0.020924279 0.66299999 -0.056960538 1.3431031e-38 338 289
0.02208674 0.66299999 -0.056960538 1.324664e-38 339 289
0.0232492 0.66299999 -0.056960538 1.297042e-38 340 289
0.024411658 0.66299999 -0.056960538 1.2878224e-38 341 289
0.025574118 0.66299999 -0.056960538 1.2419048e-38 342 289
0.026736578 0.66299999 -0.056960538 1.2419048e-38 343 289
0.027899038 0.66299999 -0.056960538 1.2419048e-38 344 289
0.029061496 0.66299999 -0.056960538 1.2419048e-38 345 289
0.030269546 0.66399997 -0.057046451 1.2602719e-38 346 289
0.031433757 0.66399997 -0.057046451 1.2602719e-38 347 289
0.03259797 0.66399997 -0.057046451 1.2601999e-38 348 289
0.033762183 0.66399997 -0.057046451 1.2509445e-38 349 289
0.0349264 0.66399997 -0.057046451 1.2600561e-38 350 289
0.036090612 0.66399997 -0.057046451 1.2508366e-38 351 289
0.037367038 0.66600001 -0.057218276 1.2325051e-38 352 289
0.03853476 0.66600001 -0.057218276 1.2232855e-38 353 289
0.039702479 0.66600001 -0.057218276 1.2233211e-38 354 289
0.040870197 0.66600001 -0.057218276 1.2141014e-38 355 289
0.042101037 0.667 -0.057304189 1.1957343e-38 356 289
0.043335386 0.66799998 -0.057390101 1.1865147e-38 357 289
0.044506609 0.66799998 -0.057390101 1.1772949e-38 358 289
0.0458146 0.67000002 -0.057561934 1.1772949e-38 359 289
0.046989333 0.67000002 -0.057561934 1.1772949e-38 360 289
0.048164066 0.67000002 -0.057561934 1.1588918e-38 361 289
0.049338799 0.67000002 -0.057561934 1.1772586e-38 362 289
0.050513536 0.67000002 -0.057561934 1.0666238e-38 363 289
0.051688269 0.67000002 -0.057561934 6.8977558e-39 364 289
0.052941896 0.671 -0.057647847 5.4226257e-39 365 289
0.054118387 0.671 -0.057647847 2.667558e-39 366 289
0.055377278 0.67199999 -0.057733759 4.9724501e-39 367 289
0.056723841 0.67400002 -0.057905588 9.197592e-39 368 289
0.057991501 0.67500001 -0.057991501 1.0580526e-38 369 289
0.059175 0.67500001 -0.057991501 1.1497072e-38 370 289
0.06044792 0.676 -0.058077414 1.1589268e-38 371 289
0.061633173 0.676 -0.058077414 1.1589624e-38 372 289
0.062818423 0.676 -0.058077414 1.1589624e-38 373 289
0.06419304 0.67799997 -0.058249239 1.1589268e-38 374 289
0.065478235 0.67900002 -0.058335152 1.1773658e-38 375 289
0.066766933 0.68000001 -0.058421064 1.1773305e-38 376 289
0.067959204 0.68000001 -0.058421064 1.1773305e-38 377 289
0.069354847 0.68199998 -0.058592889 1.1589637e-38 378 289
0.070550621 0.68199998 -0.058592889 1.1589637e-38 379 289
0.071956798 0.68400002 -0.058764715 1.1865503e-38 380 289
0.073156074 0.68400002 -0.058764715 1.1865503e-38 381 289
0.074572764 0.68599999 -0.058936544 1.1681835e-38 382 289
0.075775556 0.68599999 -0.058936544 1.1958063e-38 383 289
0.076978341 0.68599999 -0.058936544 1.1774754e-38 384 289
0.078295097 0.68699998 -0.059022456 1.1866949e-38 385 289
0.079499632 0.68699998 -0.059022456 1.1867312e-38 386 289
0.080821648 0.68800002 -0.059108373 1.1867312e-38 387 289
0.082027942 0.68800002 -0.059108373 1.1315959e-38 388 289
0.083234236 0.68800002 -0.059108373 1.5464762e-38 389 289
0.084440529 0.68800002 -0.059108373 1.6593437e-38 390 289
0.08564683 0.68800002 -0.059108373 1.6870025e-38 391 289
-0.012168133 0.69400001 -0.060840666 1.6399301e-38 310 290
-0.010935539 0.69300002 -0.060752999 1.4094408e-38 311 290
-0.0097204801 0.69300002 -0.060752999 1.4822599e-38 312 290
-0.008480873 0.69099998 -0.060577665 1.4085034e-38 313 290
-0.0072587994 0.69 -0.060489997 1.4724991e-38 314 290
-0.0059964 0.68400002 -0.059964001 1.4356209e-38 315 290
-0.004783093 0.68199998 -0.059788663 1.4537358e-38 316 290
-0.00358732 0.68199998 -0.059788663 1.4352965e-38 317 290
-0.0023845332 0.68000001 -0.059613332 1.4442641e-38 318 290
-0.0011905134 0.67900002 -0.059525665 1.4350445e-38 319 290
0 0.676 -0.059262663 1.4258248e-38 320 290
0.0011834999 0.67500001 -0.059175 1.4258248e-38 321 290
0.0023669999 0.67500001 -0.059175 1.4257532e-38 322 290
0.00354524 0.67400002 -0.059087332 1.4257532e-38 323 290
0.0047129598 0.67199999 -0.058911994 1.4164981e-38 324 290
0.0058824331 0.671 -0.058824331 1.4164981e-38 325 290
0.0070483997 0.67000002 -0.058736663 1.4165337e-38 326 290
0.0082231332 0.67000002 -0.058736663 1.3980587e-38 327 290
0.0093978662 0.67000002 -0.058736663 1.3153355e-38 328 290
0.01054104 0.66799998 -0.058561329 1.1493475e-38 329 290
0.011712266 0.66799998 -0.058561329 6.527897e-39 330 290
0.012883492 0.66799998 -0.058561329 4.5917888e-39 331 290
0.014012639 0.66600001 -0.058385998 3.1289103e-39 332 290
0.01518036 0.66600001 -0.058385998 3.3133016e-39 333 290
0.016298985 0.66399997 -0.05821066 7.5409742e-39 334 290
0.017436899 0.66299999 -0.058122993 9.5696368e-39 335 290
0.018599359 0.66299999 -0.058122993 1.3249884e-38 336 290
0.019761819 0.66299999 -0.058122993 1.2973295e-38 337 290
0.020924279 0.66299999 -0.058122993 1.3153369e-38 338 290
0.02208674 0.66299999 -0.058122993 1.3153369e-38 339 290
0.0232492 0.66299999 -0.058122993 1.2694915e-38 340 290
0.024411658 0.66299999 -0.058122993 1.2510164e-38 341 290
0.025574118 0.66299999 -0.058122993 1.2417968e-38 342 290
0.026736578 0.66299999 -0.058122993 1.2602719e-38 343 290
0.027941117 0.66399997 -0.05821066 1.2417971e-38 344 290
0.02910533 0.66399997 -0.05821066 1.2510166e-38 345 290
0.030269546 0.66399997 -0.05821066 1.250945e-38 346 290
0.031433757 0.66399997 -0.05821066 1.2416896e-38 347 290
0.03259797 0.66399997 -0.05821066 1.2600564e-38 348 290
0.033762183 0.66399997 -0.05821066 1.2508368e-38 349 290
0.035031598 0.66600001 -0.058385998 1.2324332e-38 350 290
0.03619932 0.66600001 -0.058385998 1.2324332e-38 351 290
0.037367038 0.66600001 -0.058385998 1.2324688e-38 352 290
