# .PCD v.7 - Point Cloud Data file format
FIELDS x y z rgb imX imY
SIZE 4 4 4 4 4 4
TYPE F F F F F F
COUNT 1 1 1 1 1 1
WIDTH 843
HEIGHT 1
VIEWPOINT 0 0 0 1 0 0 0
POINTS 843
DATA ascii
-0.0075743999 0.72000003 -0.060595199 7.1797405e-39 314 288
-0.0063032326 0.71899998 -0.060511041 6.9949905e-39 315 288
-0.0050215465 0.71600002 -0.06025856 4.329264e-39 316 288
-0.0037556398 0.71399999 -0.060090236 6.4501222e-39 317 288
-0.0025037599 0.71399999 -0.060090236 1.0239883e-38 318 288
-0.00125188 0.71399999 -0.060090236 1.2175992e-38 319 288
0 0.713 -0.060006075 1.2913191e-38 320 288
0.00124662 0.71100003 -0.059837762 1.0884887e-38 321 288
0.0024897333 0.70999998 -0.059753593 5.991665e-39 322 288
0.0037345996 0.70999998 -0.059753593 4.5161762e-39 323 288
0.0049654399 0.708 -0.059585281 6.2603205e-39 324 288
0.0062067998 0.708 -0.059585281 6.2603205e-39 325 288
0.0074481601 0.708 -0.059585281 5.7110928e-39 326 288
0.008689519 0.708 -0.059585281 5.7110928e-39 327 288
0.0099308798 0.708 -0.059585281 5.7110928e-39 328 288
0.01117224 0.708 -0.059585281 5.6185384e-39 329 288
0.0124136 0.708 -0.059585281 5.7092921e-39 330 288
0.013693533 0.70999998 -0.059753593 5.6170965e-39 331 288
0.014938398 0.70999998 -0.059753593 5.8915198e-39 332 288
0.016183265 0.70999998 -0.059753593 5.7993227e-39 333 288
0.017428132 0.70999998 -0.059753593 5.891517e-39 334 288
0.018672999 0.70999998 -0.059753593 5.891517e-39 335 288
0.01994592 0.71100003 -0.059837762 5.982635e-39 336 288
0.021192541 0.71100003 -0.059837762 5.982635e-39 337 288
0.022439159 0.71100003 -0.059837762 5.8915198e-39 338 288
0.023752406 0.713 -0.060006075 5.8915198e-39 339 288
0.025002534 0.713 -0.060006075 5.800043e-39 340 288
0.026252659 0.713 -0.060006075 5.8922386e-39 341 288
0.027502786 0.713 -0.060006075 5.6170937e-39 342 288
0.028752912 0.713 -0.060006075 5.7092893e-39 343 288
0.030003037 0.713 -0.060006075 5.4337786e-39 344 288
0.031253166 0.713 -0.060006075 5.249386e-39 345 288
0.032548878 0.71399999 -0.060090236 5.2479482e-39 346 288
0.033800758 0.71399999 -0.060090236 4.8788056e-39 347 288
0.035052639 0.71399999 -0.060090236 5.1535974e-39 348 288
0.036304519 0.71399999 -0.060090236 5.2457944e-39 349 288
0.037556399 0.71399999 -0.060090236 5.2468692e-39 350 288
0.038916986 0.71600002 -0.06025856 5.1546736e-39 351 288
0.040172372 0.71600002 -0.06025856 5.4316136e-39 352 288
0.041427758 0.71600002 -0.06025856 4.5092986e-39 353 288
0.042742759 0.71700001 -0.060342718 6.1735171e-39 354 288
0.044183999 0.72000003 -0.060595199 1.2903798e-38 355 288
0.04563576 0.72299999 -0.060847677 1.171066e-38 356 288
0.046903417 0.72299999 -0.060847677 8.2075845e-39 357 288
0.048437584 0.727 -0.061184317 4.7927308e-39 358 288
0.049780637 0.72799999 -0.061268479 8.8493385e-39 359 288
0.051197331 0.73000002 -0.061436798 1.7702283e-38 360 288
0.052477267 0.73000002 -0.061436798 1.7978871e-38 361 288
-0.012659066 0.722 -0.062029421 4.9673915e-39 310 289
-0.01139316 0.722 -0.062029421 6.6269142e-39 311 289
-0.010127253 0.722 -0.062029421 7.9158566e-39 312 289
-0.0088367993 0.72000003 -0.061857603 7.4548798e-39 313 289
-0.0075743999 0.72000003 -0.061857603 6.6276541e-39 314 289
-0.0062857 0.71700001 -0.061599858 6.1666773e-39 315 289
-0.0050215465 0.71600002 -0.061513945 4.8813517e-39 316 289
-0.0037556398 0.71399999 -0.061342116 7.1858837e-39 317 289
-0.0025037599 0.71399999 -0.061342116 1.1432296e-38 318 289
-0.0012501266 0.713 -0.061256204 1.3091819e-38 319 289
0 0.71100003 -0.061084379 1.171572e-38 320 289
0.00124662 0.71100003 -0.061084379 9.2264392e-39 321 289
0.0024897333 0.70999998 -0.060998458 3.5985387e-39 322 289
0.0037345996 0.70999998 -0.060998458 3.5985387e-39 323 289
0.0049654399 0.708 -0.060826641 5.9851784e-39 324 289
0.0062067998 0.708 -0.060826641 5.8007871e-39 325 289
0.0074481601 0.708 -0.060826641 5.434873e-39 326 289
0.008689519 0.708 -0.060826641 5.5274274e-39 327 289
0.0099308798 0.708 -0.060826641 5.7107369e-39 328 289
0.01117224 0.708 -0.060826641 5.5263456e-39 329 289
0.0124136 0.708 -0.060826641 5.708939e-39 330 289
0.013693533 0.70999998 -0.060998458 5.6167434e-39 331 289
0.014938398 0.70999998 -0.060998458 5.7996899e-39 332 289
0.016183265 0.70999998 -0.060998458 5.7996899e-39 333 289
0.017428132 0.70999998 -0.060998458 5.5241778e-39 334 289
0.018672999 0.70999998 -0.060998458 5.6163748e-39 335 289
0.019917866 0.70999998 -0.060998458 5.7996899e-39 336 289
0.021192541 0.71100003 -0.061084379 5.8918855e-39 337 289
0.022439159 0.71100003 -0.061084379 5.7085733e-39 338 289
0.023752406 0.713 -0.061256204 5.8007689e-39 339 289
0.025002534 0.713 -0.061256204 5.6188915e-39 340 289
0.026252659 0.713 -0.061256204 5.7110872e-39 341 289
0.027502786 0.713 -0.061256204 5.6188915e-39 342 289
0.028752912 0.713 -0.061256204 5.5266959e-39 343 289
0.030003037 0.713 -0.061256204 5.4330626e-39 344 289
0.031253166 0.713 -0.061256204 5.0639199e-39 345 289
0.032548878 0.71399999 -0.061342116 4.9702851e-39 346 289
0.033800758 0.71399999 -0.061342116 4.8780895e-39 347 289
0.035052639 0.71399999 -0.061342116 4.8780923e-39 348 289
0.036304519 0.71399999 -0.061342116 4.9702879e-39 349 289
0.037661601 0.71600002 -0.061513945 4.9710054e-39 350 289
0.038916986 0.71600002 -0.061513945 5.063201e-39 351 289
0.040172372 0.71600002 -0.061513945 5.2486643e-39 352 289
0.041485619 0.71700001 -0.061599858 4.5110993e-39 353 289
0.042861983 0.71899998 -0.061771683 6.449025e-39 354 289
0.044183999 0.72000003 -0.061857603 1.2902719e-38 355 289
0.04563576 0.72299999 -0.062115334 1.1345117e-38 356 289
0.046903417 0.72299999 -0.062115334 8.3030199e-39 357 289
0.048437584 0.727 -0.062458992 7.9270235e-39 358 289
0.049712259 0.727 -0.062458992 1.1338621e-38 359 289
0.051057063 0.72799999 -0.062544905 1.8162183e-38 360 289
0.052333489 0.72799999 -0.062544905 1.8254738e-38 361 289
-0.012659066 0.722 -0.063295327 6.4439453e-39 310 290
-0.01139316 0.722 -0.063295327 6.0755215e-39 311 290
-0.010099201 0.72000003 -0.06312 7.1804411e-39 312 290
-0.0088367993 0.72000003 -0.06312 7.0882455e-39 313 290
-0.0075743999 0.72000003 -0.06312 6.6265793e-39 314 290
-0.0062857 0.71700001 -0.062856995 6.442188e-39 315 290
-0.0050215465 0.71600002 -0.062769331 5.5270883e-39 316 290
-0.0037556398 0.71399999 -0.062593997 8.1085659e-39 317 290
-0.0025037599 0.71399999 -0.062593997 1.1433745e-38 318 290
-0.0012501266 0.713 -0.062506333 1.1986917e-38 319 290
0 0.71100003 -0.062331002 1.0702291e-38 320 290
0.00124662 0.71100003 -0.062331002 8.5817914e-39 321 290
0.0024897333 0.70999998 -0.062243331 3.2308281e-39 322 290
0.0037345996 0.70999998 -0.062243331 2.9546014e-39 323 290
0.0049794666 0.70999998 -0.062243331 5.8007871e-39 324 290
0.0062243328 0.70999998 -0.062243331 5.7082327e-39 325 290
0.0074691991 0.70999998 -0.062243331 5.6174692e-39 326 290
0.0087140659 0.70999998 -0.062243331 5.7096649e-39 327 290
0.0099589331 0.70999998 -0.062243331 5.434873e-39 328 290
0.011203799 0.70999998 -0.062243331 5.434873e-39 329 290
0.012448666 0.70999998 -0.062243331 5.435229e-39 330 290
0.013693533 0.70999998 -0.062243331 5.3430333e-39 331 290
0.014938398 0.70999998 -0.062243331 5.6170965e-39 332 290
0.016183265 0.70999998 -0.062243331 5.6170965e-39 333 290
0.017428132 0.70999998 -0.062243331 5.7092921e-39 334 290
0.018672999 0.70999998 -0.062243331 5.8014877e-39 335 290
0.019917866 0.70999998 -0.062243331 5.6178196e-39 336 290
0.021192541 0.71100003 -0.062331002 5.7103739e-39 337 290
0.022439159 0.71100003 -0.062331002 5.5274246e-39 338 290
0.023752406 0.713 -0.062506333 5.8036528e-39 339 290
0.025002534 0.713 -0.062506333 5.7132578e-39 340 290
0.026252659 0.713 -0.062506333 5.8054534e-39 341 290
0.027502786 0.713 -0.062506333 5.6203405e-39 342 290
0.028752912 0.713 -0.062506333 5.0671667e-39 343 290
0.030003037 0.713 -0.062506333 5.4316262e-39 344 290
0.031253166 0.713 -0.062506333 4.9710082e-39 345 290
0.032548878 0.71399999 -0.062593997 5.061399e-39 346 290
0.033800758 0.71399999 -0.062593997 4.9692033e-39 347 290
0.035052639 0.71399999 -0.062593997 5.0614018e-39 348 290
0.036304519 0.71399999 -0.062593997 5.0614018e-39 349 290
0.037661601 0.71600002 -0.062769331 4.9710054e-39 350 290
0.038916986 0.71600002 -0.062769331 5.1553967e-39 351 290
0.040172372 0.71600002 -0.062769331 5.3408655e-39 352 290
0.041485619 0.71700001 -0.062856995 4.9717243e-39 353 290
0.042861983 0.71899998 -0.063032329 6.5426681e-39 354 290
0.044183999 0.72000003 -0.06312 1.2443188e-38 355 290
0.045572639 0.722 -0.063295327 1.0794111e-38 356 290
0.046903417 0.72299999 -0.063382991 8.3051877e-39 357 290
0.048304334 0.72500002 -0.063558333 1.0142245e-38 358 290
0.049712259 0.727 -0.06373366 1.3184341e-38 359 290
0.050986931 0.727 -0.06373366 1.8254382e-38 360 290
0.052261602 0.727 -0.06373366 1.8162186e-38 361 290
-0.012659066 0.722 -0.064561233 8.5709187e-39 310 291
-0.01139316 0.722 -0.064561233 5.6202985e-39 311 291
-0.010099201 0.72000003 -0.064382397 6.9056521e-39 312 291
-0.0088367993 0.72000003 -0.064382397 6.9978477e-39 313 291
-0.0075743999 0.72000003 -0.064382397 6.4432642e-39 314 291
-0.0063032326 0.71899998 -0.064292975 6.6276541e-39 315 291
-0.0050215465 0.71600002 -0.064024724 5.5263694e-39 316 291
-0.0037556398 0.71399999 -0.063845873 7.4624762e-39 317 291
-0.0025037599 0.71399999 -0.063845873 1.0422111e-38 318 291
-0.0012501266 0.713 -0.063756458 1.106748e-38 319 291
0 0.71100003 -0.063577622 1.0793763e-38 320 291
0.00124662 0.71100003 -0.063577622 9.410829e-39 321 291
0.0024897333 0.70999998 -0.063488193 5.7175864e-39 322 291
0.0037345996 0.70999998 -0.063488193 3.597447e-39 323 291
0.0049794666 0.70999998 -0.063488193 5.7082201e-39 324 291
0.0062243328 0.70999998 -0.063488193 5.8004158e-39 325 291
0.0074691991 0.70999998 -0.063488193 5.7089362e-39 326 291
0.0087140659 0.70999998 -0.063488193 5.8014905e-39 327 291
0.0099589331 0.70999998 -0.063488193 5.4352262e-39 328 291
0.011203799 0.70999998 -0.063488193 5.4352262e-39 329 291
0.012448666 0.70999998 -0.063488193 5.435945e-39 330 291
0.013693533 0.70999998 -0.063488193 5.3437494e-39 331 291
0.014938398 0.70999998 -0.063488193 5.6178196e-39 332 291
0.016183265 0.70999998 -0.063488193 5.6178196e-39 333 291
0.017428132 0.70999998 -0.063488193 5.6185384e-39 334 291
0.018672999 0.70999998 -0.063488193 5.6185384e-39 335 291
0.019917866 0.70999998 -0.063488193 5.5281449e-39 336 291
0.021192541 0.71100003 -0.063577622 5.7125361e-39 337 291
0.022502279 0.713 -0.063756458 5.6221412e-39 338 291
0.023752406 0.713 -0.063756458 5.9905649e-39 339 291
0.025002534 0.713 -0.063756458 5.8983721e-39 340 291
0.026252659 0.713 -0.063756458 5.5295896e-39 341 291
0.027502786 0.713 -0.063756458 5.8007815e-39 342 291
0.028752912 0.713 -0.063756458 5.2479664e-39 343 291
0.030045118 0.71399999 -0.063845873 5.1539645e-39 344 291
0.031296998 0.71399999 -0.063845873 4.969932e-39 345 291
0.032548878 0.71399999 -0.063845873 4.8780867e-39 346 291
0.033800758 0.71399999 -0.063845873 4.7858911e-39 347 291
0.035052639 0.71399999 -0.063845873 5.061399e-39 348 291
0.036304519 0.71399999 -0.063845873 5.1539533e-39 349 291
0.037661601 0.71600002 -0.064024724 5.1553967e-39 350 291
0.038916986 0.71600002 -0.064024724 5.4319822e-39 351 291
0.040228479 0.71700001 -0.064114138 5.7092893e-39 352 291
0.041485619 0.71700001 -0.064114138 5.1561155e-39 353 291
0.042861983 0.71899998 -0.064292975 6.635584e-39 354 291
0.044183999 0.72000003 -0.064382397 1.2075126e-38 355 291
0.045572639 0.722 -0.064561233 1.0150542e-38 356 291
0.046903417 0.72299999 -0.064650662 7.7534573e-39 357 291
0.048304334 0.72500002 -0.064829499 1.2170196e-38 358 291
0.0495755 0.72500002 -0.064829499 1.5212652e-38 359 291
0.050986931 0.727 -0.065008335 1.8069634e-38 360 291
0.052261602 0.727 -0.065008335 1.7885602e-38 361 291
-0.012676599 0.72299999 -0.065918319 1.3639523e-38 310 292
-0.01140894 0.72299999 -0.065918319 8.5687635e-39 311 292
-0.010099201 0.72000003 -0.065644801 7.9172803e-39 312 292
-0.0088367993 0.72000003 -0.065644801 6.995324e-39 313 292
-0.0075743999 0.72000003 -0.065644801 5.8007661e-39 314 292
-0.0063032326 0.71899998 -0.065553628 6.4461355e-39 315 292
-0.0050215465 0.71600002 -0.06528011 5.4341696e-39 316 292
-0.00376616 0.71600002 -0.06528011 6.5405171e-39 317 292
-0.0025037599 0.71399999 -0.065097757 1.0052605e-38 318 292
-0.00125188 0.71399999 -0.065097757 1.1158953e-38 319 292
0 0.713 -0.065006584 1.0518619e-38 320 292
0.00124662 0.71100003 -0.064824238 9.5048253e-39 321 292
0.0024932399 0.71100003 -0.064824238 7.1923577e-39 322 292
0.0037345996 0.70999998 -0.064733058 4.4264875e-39 323 292
0.0049794666 0.70999998 -0.064733058 6.0755579e-39 324 292
0.0062243328 0.70999998 -0.064733058 6.2599478e-39 325 292
0.0074691991 0.70999998 -0.064733058 5.7089362e-39 326 292
0.0087140659 0.70999998 -0.064733058 5.6167406e-39 327 292
0.0099589331 0.70999998 -0.064733058 5.3419585e-39 328 292
0.011203799 0.70999998 -0.064733058 5.5259897e-39 329 292
0.012448666 0.70999998 -0.064733058 5.3433963e-39 330 292
0.013693533 0.70999998 -0.064733058 5.3433963e-39 331 292
0.014959441 0.71100003 -0.064824238 5.3423145e-39 332 292
0.01620606 0.71100003 -0.064824238 5.5263456e-39 333 292
0.017428132 0.70999998 -0.064733058 5.3426802e-39 334 292
0.018672999 0.70999998 -0.064733058 5.5270715e-39 335 292
0.019917866 0.70999998 -0.064733058 5.5281575e-39 336 292
0.021192541 0.71100003 -0.064824238 5.8972987e-39 337 292
0.022502279 0.713 -0.065006584 5.5321133e-39 338 292
0.023752406 0.713 -0.065006584 5.7165046e-39 339 292
0.025002534 0.713 -0.065006584 5.4388415e-39 340 292
0.026252659 0.713 -0.065006584 4.6090808e-39 341 292
0.027502786 0.713 -0.065006584 5.3398061e-39 342 292
0.028793238 0.71399999 -0.065097757 4.9710236e-39 343 292
0.030045118 0.71399999 -0.065097757 5.1535974e-39 344 292
0.031296998 0.71399999 -0.065097757 5.0614018e-39 345 292
0.032548878 0.71399999 -0.065097757 5.1539477e-39 346 292
0.033800758 0.71399999 -0.065097757 5.1539477e-39 347 292
0.035052639 0.71399999 -0.065097757 4.9706355e-39 348 292
0.036304519 0.71399999 -0.065097757 5.2472224e-39 349 292
0.037661601 0.71600002 -0.06528011 5.3408627e-39 350 292
0.038971342 0.71700001 -0.065371275 5.4330598e-39 351 292
0.040228479 0.71700001 -0.065371275 5.7103711e-39 352 292
0.041601337 0.71899998 -0.065553628 5.2490328e-39 353 292
0.042921603 0.72000003 -0.065644801 6.9110919e-39 354 292
0.044306733 0.722 -0.065827139 1.2166243e-38 355 292
0.045572639 0.722 -0.065827139 1.0149098e-38 356 292
0.046903417 0.72299999 -0.065918319 8.2129893e-39 357 292
0.048171077 0.72299999 -0.065918319 1.4011234e-38 358 292
0.0495755 0.72500002 -0.066100664 1.7422831e-38 359 292
0.050986931 0.727 -0.06628301 1.7701579e-38 360 292
-0.012676599 0.72299999 -0.067185976 1.8707409e-38 310 293
-0.01139316 0.722 -0.067093052 1.1793095e-38 311 293
-0.010127253 0.722 -0.067093052 8.0995037e-39 312 293
-0.0088367993 0.72000003 -0.066907197 7.3619387e-39 313 293
-0.0075743999 0.72000003 -0.066907197 5.7107186e-39 314 293
-0.0063032326 0.71899998 -0.066814266 6.356088e-39 315 293
-0.0050215465 0.71600002 -0.066535495 6.261038e-39 316 293
-0.00376616 0.71600002 -0.066535495 6.8142104e-39 317 293
-0.0025107733 0.71600002 -0.066535495 9.5923364e-39 318 293
-0.00125188 0.71399999 -0.066349633 1.1251499e-38 319 293
0 0.713 -0.066256717 1.0242036e-38 320 293
0.0012501266 0.713 -0.066256717 9.5044694e-39 321 293
0.0024932399 0.71100003 -0.066070862 7.8380929e-39 322 293
0.0037398601 0.71100003 -0.066070862 5.2566153e-39 323 293
0.0049794666 0.70999998 -0.065977924 6.0755607e-39 324 293
0.0062243328 0.70999998 -0.065977924 6.3517875e-39 325 293
0.0074691991 0.70999998 -0.065977924 5.6163748e-39 326 293
0.0087140659 0.70999998 -0.065977924 5.6163748e-39 327 293
0.0099589331 0.70999998 -0.065977924 5.6153014e-39 328 293
0.011203799 0.70999998 -0.065977924 5.799334e-39 329 293
0.012448666 0.70999998 -0.065977924 5.6160245e-39 330 293
0.013693533 0.70999998 -0.065977924 5.6160245e-39 331 293
0.014959441 0.71100003 -0.066070862 5.5238247e-39 332 293
0.01620606 0.71100003 -0.066070862 5.431629e-39 333 293
0.01745268 0.71100003 -0.066070862 5.6153042e-39 334 293
0.0186993 0.71100003 -0.066070862 5.8915324e-39 335 293
0.01994592 0.71100003 -0.066070862 5.7085859e-39 336 293
0.021192541 0.71100003 -0.066070862 5.8933359e-39 337 293
0.022502279 0.713 -0.066256717 5.4352416e-39 338 293
0.023752406 0.713 -0.066256717 5.4352416e-39 339 293
0.025002534 0.713 -0.066256717 5.5249233e-39 340 293
0.026252659 0.713 -0.066256717 4.9717495e-39 341 293
0.02754136 0.71399999 -0.066349633 5.2461658e-39 342 293
0.028793238 0.71399999 -0.066349633 5.1539701e-39 343 293
0.030045118 0.71399999 -0.066349633 4.9713585e-39 344 293
0.031296998 0.71399999 -0.066349633 5.1557498e-39 345 293
0.032548878 0.71399999 -0.066349633 4.7880435e-39 346 293
0.033800758 0.71399999 -0.066349633 5.0642702e-39 347 293
0.035052639 0.71399999 -0.066349633 4.9731536e-39 348 293
0.036406212 0.71600002 -0.066535495 5.065708e-39 349 293
0.037661601 0.71600002 -0.066535495 5.4341317e-39 350 293
0.038971342 0.71700001 -0.066628419 5.7107186e-39 351 293
0.040340692 0.71899998 -0.066814266 6.4454124e-39 352 293
0.041601337 0.71899998 -0.066814266 5.6156517e-39 353 293
0.042921603 0.72000003 -0.066907197 7.0958391e-39 354 293
0.044306733 0.722 -0.067093052 1.2443186e-38 355 293
0.045572639 0.722 -0.067093052 1.0976344e-38 356 293
0.046838548 0.722 -0.067093052 1.0699397e-38 357 293
0.048171077 0.72299999 -0.067185976 1.5948067e-38 358 293
0.0495755 0.72500002 -0.067371838 1.7976371e-38 359 293
-0.01139316 0.722 -0.068358958 1.3736053e-38 311 294
-0.010127253 0.722 -0.068358958 8.8403086e-39 312 294
-0.0088367993 0.72000003 -0.068169601 6.535778e-39 313 294
-0.0075743999 0.72000003 -0.068169601 6.2617302e-39 314 294
-0.0063032326 0.71899998 -0.068074919 6.9070996e-39 315 294
-0.0050285598 0.71700001 -0.067885563 6.1688465e-39 316 294
-0.0037714199 0.71700001 -0.067885563 6.1688465e-39 317 294
-0.0025107733 0.71600002 -0.067790881 9.5901826e-39 318 294
-0.00125188 0.71399999 -0.067601517 1.1895072e-38 319 294
0 0.713 -0.067506835 1.0610095e-38 320 294
0.0012501266 0.713 -0.067506835 9.8725302e-39 321 294
0.0025002533 0.713 -0.067506835 8.3923457e-39 322 294
0.0037398601 0.71100003 -0.067317478 5.533921e-39 323 294
0.0049864799 0.71100003 -0.067317478 5.7089362e-39 324 294
0.0062243328 0.70999998 -0.067222796 5.8014905e-39 325 294
0.0074691991 0.70999998 -0.067222796 5.9837126e-39 326 294
0.0087140659 0.70999998 -0.067222796 5.891517e-39 327 294
0.0099589331 0.70999998 -0.067222796 6.0748348e-39 328 294
0.01121958 0.71100003 -0.067317478 5.9822791e-39 329 294
0.0124662 0.71100003 -0.067317478 5.6153014e-39 330 294
0.01371282 0.71100003 -0.067317478 5.6153014e-39 331 294
0.014959441 0.71100003 -0.067317478 5.7064181e-39 332 294
0.01620606 0.71100003 -0.067317478 5.7064181e-39 333 294
0.01745268 0.71100003 -0.067317478 5.430913e-39 334 294
0.0186993 0.71100003 -0.067317478 5.5231086e-39 335 294
0.01994592 0.71100003 -0.067317478 5.5234771e-39 336 294
0.021192541 0.71100003 -0.067317478 5.6156742e-39 337 294
0.022502279 0.713 -0.067506835 5.432006e-39 338 294
0.023752406 0.713 -0.067506835 5.2476133e-39 339 294
0.025002534 0.713 -0.067506835 5.5231086e-39 340 294
0.026289478 0.71399999 -0.067601517 5.430913e-39 341 294
0.02754136 0.71399999 -0.067601517 5.3390621e-39 342 294
0.028793238 0.71399999 -0.067601517 5.3390621e-39 343 294
0.030045118 0.71399999 -0.067601517 5.4319667e-39 344 294
0.031296998 0.71399999 -0.067601517 5.5241624e-39 345 294
0.032548878 0.71399999 -0.067601517 5.5241596e-39 346 294
0.03389544 0.71600002 -0.067790881 5.5241596e-39 347 294
0.035150826 0.71600002 -0.067790881 5.5245253e-39 348 294
0.036406212 0.71600002 -0.067790881 5.7092767e-39 349 294
0.037714198 0.71700001 -0.067885563 5.8018409e-39 350 294
0.038971342 0.71700001 -0.067885563 5.9862321e-39 351 294
0.040340692 0.71899998 -0.068074919 5.8954826e-39 352 294
0.041659199 0.72000003 -0.068169601 5.2501132e-39 353 294
0.043040827 0.722 -0.068358958 7.0050896e-39 354 294
0.044306733 0.722 -0.068358958 1.2260241e-38 355 294
0.045572639 0.722 -0.068358958 1.2080537e-38 356 294
0.046838548 0.722 -0.068358958 1.2725906e-38 357 294
-0.010127253 0.722 -0.069624864 1.2070753e-38 312 295
-0.0088367993 0.72000003 -0.069432005 6.2624281e-39 313 295
-0.0075743999 0.72000003 -0.069432005 6.2609959e-39 314 295
-0.0063120001 0.72000003 -0.069432005 7.0911153e-39 315 295
-0.0050285598 0.71700001 -0.069142699 6.3517931e-39 316 295
-0.0037714199 0.71700001 -0.069142699 6.0752076e-39 317 295
-0.0025107733 0.71600002 -0.069046266 9.5887365e-39 318 295
-0.00125188 0.71399999 -0.068853401 1.2078018e-38 319 295
0 0.71399999 -0.068853401 1.0610095e-38 320 295
0.0012501266 0.713 -0.068756968 1.0149476e-38 321 295
0.0025002533 0.713 -0.068756968 8.6703745e-39 322 295
0.0037398601 0.71100003 -0.068564095 5.5357231e-39 323 295
0.0049864799 0.71100003 -0.068564095 5.6167406e-39 324 295
0.0062330998 0.71100003 -0.068564095 5.8936862e-39 325 295
0.0074797203 0.71100003 -0.068564095 6.0766299e-39 326 295
0.0087263398 0.71100003 -0.068564095 5.9844343e-39 327 295
0.0099729598 0.71100003 -0.068564095 5.8011192e-39 328 295
0.01121958 0.71100003 -0.068564095 5.8011192e-39 329 295
0.0124662 0.71100003 -0.068564095 5.7089236e-39 330 295
0.01371282 0.71100003 -0.068564095 5.6167279e-39 331 295
0.014959441 0.71100003 -0.068564095 5.524175e-39 332 295
0.01620606 0.71100003 -0.068564095 5.4319794e-39 333 295
0.01745268 0.71100003 -0.068564095 5.523812e-39 334 295
0.0186993 0.71100003 -0.068564095 5.523812e-39 335 295
0.01994592 0.71100003 -0.068564095 5.523812e-39 336 295
0.021192541 0.71100003 -0.068564095 5.6160077e-39 337 295
0.022502279 0.713 -0.068756968 5.616372e-39 338 295
0.023752406 0.713 -0.068756968 5.616372e-39 339 295
0.025002534 0.713 -0.068756968 5.3408599e-39 340 295
0.026252659 0.713 -0.068756968 5.4334157e-39 341 295
0.02754136 0.71399999 -0.068853401 5.5245253e-39 342 295
0.028793238 0.71399999 -0.068853401 5.5245253e-39 343 295
0.030045118 0.71399999 -0.068853401 5.5245281e-39 344 295
0.031296998 0.71399999 -0.068853401 5.6167237e-39 345 295
0.032548878 0.71399999 -0.068853401 5.4330598e-39 346 295
0.03389544 0.71600002 -0.069046266 5.4330598e-39 347 295
0.035150826 0.71600002 -0.069046266 5.6170937e-39 348 295
0.036457058 0.71700001 -0.069142699 5.6170937e-39 349 295
0.037819397 0.71899998 -0.069335558 5.8940393e-39 350 295
0.039080046 0.71899998 -0.069335558 5.8940393e-39 351 295
0.040396802 0.72000003 -0.069432005 6.3546615e-39 352 295
0.041659199 0.72000003 -0.069432005 5.7092921e-39 353 295
0.043040827 0.722 -0.069624864 6.9128926e-39 354 295
0.044368099 0.72299999 -0.069721296 1.1983652e-38 355 295
0.04563576 0.72299999 -0.069721296 1.1989064e-38 356 295
0.046903417 0.72299999 -0.069721296 1.3279803e-38 357 295
-0.010127253 0.722 -0.070890769 1.6034439e-38 312 296
-0.0088245263 0.71899998 -0.070596211 8.290006e-39 313 296
-0.0075638802 0.71899998 -0.070596211 5.9843894e-39 314 296
-0.0063120001 0.72000003 -0.070694394 7.2751282e-39 315 296
-0.0050285598 0.71700001 -0.070399836 6.078076e-39 316 296
-0.0037714199 0.71700001 -0.070399836 5.8014877e-39 317 296
-0.0025107733 0.71600002 -0.070301652 9.5880176e-39 318 296
-0.0012553866 0.71600002 -0.070301652 1.20773e-38 319 296
0 0.71399999 -0.070105277 1.0793408e-38 320 296
0.00125188 0.71399999 -0.070105277 1.0424984e-38 321 296
0.0025037599 0.71399999 -0.070105277 8.9476803e-39 322 296
0.0037503797 0.713 -0.070007093 5.536442e-39 323 296
0.0049864799 0.71100003 -0.069810718 5.1575645e-39 324 296
0.0062330998 0.71100003 -0.069810718 5.6185412e-39 325 296
0.0074797203 0.71100003 -0.069810718 6.0773488e-39 326 296
0.0087263398 0.71100003 -0.069810718 5.8933176e-39 327 296
0.0099729598 0.71100003 -0.069810718 6.0766271e-39 328 296
0.01121958 0.71100003 -0.069810718 6.0766271e-39 329 296
0.0124662 0.71100003 -0.069810718 5.8014751e-39 330 296
0.01371282 0.71100003 -0.069810718 5.7089208e-39 331 296
0.014959441 0.71100003 -0.069810718 5.7089208e-39 332 296
0.01620606 0.71100003 -0.069810718 5.6167237e-39 333 296
0.01745268 0.71100003 -0.069810718 5.800036e-39 334 296
0.0186993 0.71100003 -0.069810718 5.800036e-39 335 296
0.020002026 0.713 -0.070007093 5.6167237e-39 336 296
0.021252153 0.713 -0.070007093 5.6167237e-39 337 296
0.022502279 0.713 -0.070007093 5.7089236e-39 338 296
0.023752406 0.713 -0.070007093 5.7089236e-39 339 296
0.025002534 0.713 -0.070007093 5.8922358e-39 340 296
0.026252659 0.713 -0.070007093 5.8922358e-39 341 296
0.02754136 0.71399999 -0.070105277 5.8918715e-39 342 296
0.028793238 0.71399999 -0.070105277 5.9840685e-39 343 296
0.030045118 0.71399999 -0.070105277 5.8000402e-39 344 296
0.031296998 0.71399999 -0.070105277 5.8000402e-39 345 296
0.032640055 0.71600002 -0.070301652 5.7085704e-39 346 296
0.03389544 0.71600002 -0.070301652 5.7085704e-39 347 296
0.035150826 0.71600002 -0.070301652 5.7092893e-39 348 296
0.036457058 0.71700001 -0.070399836 5.7092893e-39 349 296
0.037819397 0.71899998 -0.070596211 5.8014877e-39 350 296
0.039134402 0.72000003 -0.070694394 5.985879e-39 351 296
0.040396802 0.72000003 -0.070694394 6.3543056e-39 352 296
0.041774917 0.722 -0.070890769 5.8014905e-39 353 296
0.043100435 0.72299999 -0.070988953 6.9128954e-39 354 296
0.044368099 0.72299999 -0.070988953 1.170707e-38 355 296
0.04563576 0.72299999 -0.070988953 1.1621005e-38 356 296
0.047033165 0.72500002 -0.071185336 1.3096493e-38 357 296
-0.0088245263 0.71899998 -0.071856856 1.0785772e-38 313 297
-0.0075638802 0.71899998 -0.071856856 7.1789767e-39 314 297
-0.0063120001 0.72000003 -0.071956798 7.6399549e-39 315 297
-0.0050285598 0.71700001 -0.07165698 6.4464914e-39 316 297
-0.0037714199 0.71700001 -0.07165698 6.0773488e-39 317 297
-0.0025107733 0.71600002 -0.071557038 9.5883679e-39 318 297
-0.0012553866 0.71600002 -0.071557038 1.2169846e-38 319 297
0 0.71600002 -0.071557038 1.0793408e-38 320 297
0.00125188 0.71399999 -0.071357153 1.0332788e-38 321 297
0.0025037599 0.71399999 -0.071357153 9.1324316e-39 322 297
0.0037503797 0.713 -0.071257219 5.6286376e-39 323 297
0.0050005065 0.713 -0.071257219 5.2486797e-39 324 297
0.0062330998 0.71100003 -0.071057342 5.8940491e-39 325 297
0.0074797203 0.71100003 -0.071057342 5.9862321e-39 326 297
0.0087508867 0.713 -0.071257219 5.8940365e-39 327 297
0.010001013 0.713 -0.071257219 5.9862293e-39 328 297
0.011251139 0.713 -0.071257219 5.9862293e-39 329 297
0.0124662 0.71100003 -0.071057342 5.8943896e-39 330 297
0.01371282 0.71100003 -0.071057342 5.802194e-39 331 297
0.014959441 0.71100003 -0.071057342 5.8936708e-39 332 297
0.01620606 0.71100003 -0.071057342 5.8014751e-39 333 297
0.017501773 0.713 -0.071257219 5.8014751e-39 334 297
0.018751899 0.713 -0.071257219 5.8014751e-39 335 297
0.020002026 0.713 -0.071257219 5.8011192e-39 336 297
0.021252153 0.713 -0.071257219 5.8011192e-39 337 297
0.022502279 0.713 -0.071257219 5.8007661e-39 338 297
0.023752406 0.713 -0.071257219 5.8007661e-39 339 297
0.025002534 0.713 -0.071257219 5.9844343e-39 340 297
0.026252659 0.713 -0.071257219 5.9844343e-39 341 297
0.02754136 0.71399999 -0.071357153 5.8925918e-39 342 297
0.028793238 0.71399999 -0.071357153 5.9847874e-39 343 297
0.030045118 0.71399999 -0.071357153 5.8922358e-39 344 297
0.031384666 0.71600002 -0.071557038 5.8922358e-39 345 297
0.032640055 0.71600002 -0.071557038 5.9844343e-39 346 297
0.033942781 0.71700001 -0.07165698 5.9844343e-39 347 297
0.035199918 0.71700001 -0.07165698 5.8933176e-39 348 297
0.036558751 0.71899998 -0.071856856 5.8933176e-39 349 297
0.037819397 0.71899998 -0.071856856 5.8940393e-39 350 297
0.039134402 0.72000003 -0.071956798 6.078432e-39 351 297
0.040396802 0.72000003 -0.071956798 6.1713493e-39 352 297
0.041774917 0.722 -0.072156675 5.9865993e-39 353 297
0.043040827 0.722 -0.072156675 7.2802374e-39 354 297
0.044306733 0.722 -0.072156675 1.1613072e-38 355 297
0.04563576 0.72299999 -0.072256617 1.1161823e-38 356 297
-0.0088245263 0.71899998 -0.073117502 1.5120436e-38 313 298
-0.0075638802 0.71899998 -0.073117502 1.1696209e-38 314 298
-0.0063032326 0.71899998 -0.073117502 6.4410586e-39 315 298
-0.0050285598 0.71700001 -0.072914116 5.707825e-39 316 298
-0.0037714199 0.71700001 -0.072914116 6.3531944e-39 317 298
-0.0025107733 0.71600002 -0.072812423 9.6805636e-39 318 298
-0.0012553866 0.71600002 -0.072812423 1.2446072e-38 319 298
0 0.71600002 -0.072812423 1.0977439e-38 320 298
0.0012553866 0.71600002 -0.072812423 1.0700493e-38 321 298
0.0025037599 0.71399999 -0.072609037 9.040599e-39 322 298
0.0037556398 0.71399999 -0.072609037 5.3531325e-39 323 298
0.0050075199 0.71399999 -0.072609037 5.2479636e-39 324 298
0.0062506334 0.713 -0.072507344 5.9855287e-39 325 298
0.0075007593 0.713 -0.072507344 6.0784292e-39 326 298
0.0087508867 0.713 -0.072507344 5.9862321e-39 327 298
0.010001013 0.713 -0.072507344 5.8947526e-39 328 298
0.011251139 0.713 -0.072507344 5.9869482e-39 329 298
0.0124662 0.71100003 -0.072303966 5.8951057e-39 330 298
0.01371282 0.71100003 -0.072303966 5.7110746e-39 331 298
0.015001519 0.713 -0.072507344 5.8943868e-39 332 298
0.016251646 0.713 -0.072507344 5.8021912e-39 333 298
0.017501773 0.713 -0.072507344 5.8936708e-39 334 298
0.018751899 0.713 -0.072507344 5.8014751e-39 335 298
0.020002026 0.713 -0.072507344 5.801122e-39 336 298
0.021252153 0.713 -0.072507344 5.801122e-39 337 298
0.022502279 0.713 -0.072507344 5.8933176e-39 338 298
0.023752406 0.713 -0.072507344 5.8933176e-39 339 298
0.025002534 0.713 -0.072507344 5.8011192e-39 340 298
0.026289478 0.71399999 -0.072609037 5.8011192e-39 341 298
0.02754136 0.71399999 -0.072609037 5.9844315e-39 342 298
0.028793238 0.71399999 -0.072609037 5.9844315e-39 343 298
0.03012928 0.71600002 -0.072812423 5.8011192e-39 344 298
0.031384666 0.71600002 -0.072812423 5.8933148e-39 345 298
0.032685637 0.71700001 -0.072914116 5.8933176e-39 346 298
0.033942781 0.71700001 -0.072914116 5.8933176e-39 347 298
0.035298105 0.71899998 -0.073117502 5.8018409e-39 348 298
0.036558751 0.71899998 -0.073117502 5.8018409e-39 349 298
0.037871998 0.72000003 -0.073219202 5.9862321e-39 350 298
0.039134402 0.72000003 -0.073219202 5.9862321e-39 351 298
0.040509012 0.722 -0.073422581 6.2635421e-39 352 298
0.041774917 0.722 -0.073422581 6.2635421e-39 353 298
0.043040827 0.722 -0.073422581 7.7408554e-39 354 298
0.044306733 0.722 -0.073422581 1.1059898e-38 355 298
-0.0075638802 0.71899998 -0.074378148 1.5573461e-38 314 299
-0.0063032326 0.71899998 -0.074378148 7.9215823e-39 315 299
-0.0050285598 0.71700001 -0.07417126 5.0627933e-39 316 299
-0.00376616 0.71600002 -0.074067809 6.0765851e-39 317 299
-0.0025107733 0.71600002 -0.074067809 9.6812824e-39 318 299
-0.0012553866 0.71600002 -0.074067809 1.2354956e-38 319 299
0 0.71600002 -0.074067809 1.1346584e-38 320 299
0.0012553866 0.71600002 -0.074067809 1.079341e-38 321 299
0.0025107733 0.71600002 -0.074067809 9.0398829e-39 322 299
0.0037556398 0.71399999 -0.073860914 5.4438932e-39 323 299
0.0050075199 0.71399999 -0.073860914 5.3401593e-39 324 299
0.0062593995 0.71399999 -0.073860914 5.9855287e-39 325 299
0.0075112795 0.71399999 -0.073860914 6.2617414e-39 326 299
0.0087631596 0.71399999 -0.073860914 6.1695444e-39 327 299
0.01001504 0.71399999 -0.073860914 6.1699003e-39 328 299
0.011266919 0.71399999 -0.073860914 6.1699003e-39 329 299
0.012518799 0.71399999 -0.073860914 5.9865853e-39 330 299
0.013751393 0.713 -0.07375747 5.8943896e-39 331 299
0.015001519 0.713 -0.07375747 5.8936708e-39 332 299
0.016251646 0.713 -0.07375747 5.8936708e-39 333 299
0.017501773 0.713 -0.07375747 5.8018381e-39 334 299
0.018778199 0.71399999 -0.073860914 5.8018381e-39 335 299
0.020030079 0.71399999 -0.073860914 5.8933148e-39 336 299
0.021281958 0.71399999 -0.073860914 5.8011192e-39 337 299
0.022502279 0.713 -0.07375747 5.8011192e-39 338 299
0.023752406 0.713 -0.07375747 5.8011192e-39 339 299
0.025037598 0.71399999 -0.073860914 5.8011192e-39 340 299
0.026289478 0.71399999 -0.073860914 5.8011192e-39 341 299
0.02754136 0.71399999 -0.073860914 5.9847874e-39 342 299
0.028793238 0.71399999 -0.073860914 5.9847874e-39 343 299
0.03012928 0.71600002 -0.074067809 5.8936708e-39 344 299
0.031428497 0.71700001 -0.07417126 5.8936708e-39 345 299
0.032776814 0.71899998 -0.074378148 5.8018381e-39 346 299
0.03403746 0.71899998 -0.074378148 5.8018381e-39 347 299
0.035347197 0.72000003 -0.074481606 5.8933176e-39 348 299
0.036609601 0.72000003 -0.074481606 5.8933176e-39 349 299
0.037871998 0.72000003 -0.074481606 5.8936834e-39 350 299
0.039243106 0.722 -0.074688487 6.078076e-39 351 299
0.040509012 0.722 -0.074688487 5.9883999e-39 352 299
0.041774917 0.722 -0.074688487 7.0021931e-39 353 299
0.042921603 0.72000003 -0.074481606 8.1114358e-39 354 299
0.044183999 0.72000003 -0.074481606 1.013974e-38 355 299
-0.0063032326 0.71899998 -0.075638793 1.2442091e-38 315 300
-0.0050215465 0.71600002 -0.075323202 8.1074519e-39 316 300
-0.00376616 0.71600002 -0.075323202 6.3560937e-39 317 300
-0.0025107733 0.71600002 -0.075323202 9.5001352e-39 318 300
-0.0012553866 0.71600002 -0.075323202 1.1897222e-38 319 300
0 0.71600002 -0.075323202 1.1162553e-38 320 300
0.0012553866 0.71600002 -0.075323202 1.079341e-38 321 300
0.0025107733 0.71600002 -0.075323202 8.6721724e-39 322 300
0.00376616 0.71600002 -0.075323202 5.3531297e-39 323 300
0.0050215465 0.71600002 -0.075323202 5.6170965e-39 324 300
0.0062593995 0.71399999 -0.075112797 6.078076e-39 325 300
0.0075112795 0.71399999 -0.075112797 6.262096e-39 326 300
0.0087631596 0.71399999 -0.075112797 6.262096e-39 327 300
0.01001504 0.71399999 -0.075112797 6.1699003e-39 328 300
0.011266919 0.71399999 -0.075112797 6.1699003e-39 329 300
0.012518799 0.71399999 -0.075112797 5.8940337e-39 330 300
0.01377068 0.71399999 -0.075112797 5.8940337e-39 331 300
0.015022559 0.71399999 -0.075112797 5.8940337e-39 332 300
0.016274439 0.71399999 -0.075112797 5.7096424e-39 333 300
0.017526319 0.71399999 -0.075112797 5.8933176e-39 334 300
0.018778199 0.71399999 -0.075112797 5.801122e-39 335 300
0.020030079 0.71399999 -0.075112797 5.8011192e-39 336 300
0.021281958 0.71399999 -0.075112797 5.8011192e-39 337 300
0.022533838 0.71399999 -0.075112797 5.8014751e-39 338 300
0.02378572 0.71399999 -0.075112797 5.8014751e-39 339 300
0.025037598 0.71399999 -0.075112797 5.8011192e-39 340 300
0.026289478 0.71399999 -0.075112797 5.8933148e-39 341 300
0.027618507 0.71600002 -0.075323202 6.0766271e-39 342 300
0.028873893 0.71600002 -0.075323202 6.0766271e-39 343 300
0.03012928 0.71600002 -0.075323202 5.8933176e-39 344 300
0.031428497 0.71700001 -0.075428396 6.0773488e-39 345 300
0.032776814 0.71899998 -0.075638793 5.8940393e-39 346 300
0.034084801 0.72000003 -0.075743996 5.8940393e-39 347 300
0.035347197 0.72000003 -0.075743996 5.8936834e-39 348 300
0.036609601 0.72000003 -0.075743996 5.8936834e-39 349 300
0.0379772 0.722 -0.0759544 5.985879e-39 350 300
0.039243106 0.722 -0.0759544 5.985879e-39 351 300
0.040396802 0.72000003 -0.075743996 6.1731443e-39 352 300
0.041659199 0.72000003 -0.075743996 7.1872963e-39 353 300
0.042921603 0.72000003 -0.075743996 8.2054307e-39 354 300
0.044183999 0.72000003 -0.075743996 9.2195812e-39 355 300
-0.0050215465 0.71600002 -0.076578587 1.1798172e-38 316 301
-0.00376616 0.71600002 -0.076578587 9.7698683e-39 317 301
-0.0025107733 0.71600002 -0.076578587 1.0054031e-38 318 301
-0.0012553866 0.71600002 -0.076578587 1.1529161e-38 319 301
0 0.71600002 -0.076578587 1.1530257e-38 320 301
0.0012553866 0.71600002 -0.076578587 1.0884887e-38 321 301
0.0025107733 0.71600002 -0.076578587 8.4870594e-39 322 301
0.00376616 0.71600002 -0.076578587 5.0758197e-39 323 301
0.0050215465 0.71600002 -0.076578587 5.7085704e-39 324 301
0.0062769335 0.71600002 -0.076578587 6.1695472e-39 325 301
0.00753232 0.71600002 -0.076578587 6.2620932e-39 326 301
0.0087877065 0.71600002 -0.076578587 6.2620932e-39 327 301
0.010043093 0.71600002 -0.076578587 6.2620932e-39 328 301
0.01129848 0.71600002 -0.076578587 6.1698975e-39 329 301
0.012553867 0.71600002 -0.076578587 6.077346e-39 330 301
0.013809253 0.71600002 -0.076578587 6.077346e-39 331 301
0.015022559 0.71399999 -0.076364681 5.8933148e-39 332 301
0.016274439 0.71399999 -0.076364681 5.8933148e-39 333 301
0.017526319 0.71399999 -0.076364681 5.9844343e-39 334 301
0.018778199 0.71399999 -0.076364681 5.9844343e-39 335 301
0.020030079 0.71399999 -0.076364681 5.9844343e-39 336 301
0.021281958 0.71399999 -0.076364681 6.0766299e-39 337 301
0.022533838 0.71399999 -0.076364681 5.8933148e-39 338 301
0.02378572 0.71399999 -0.076364681 5.8011192e-39 339 301
0.025107734 0.71600002 -0.076578587 5.8011192e-39 340 301
0.026363119 0.71600002 -0.076578587 5.8933148e-39 341 301
0.027618507 0.71600002 -0.076578587 5.8933176e-39 342 301
0.028914221 0.71700001 -0.076685533 5.8933176e-39 343 301
0.030171359 0.71700001 -0.076685533 5.8014849e-39 344 301
0.031516165 0.71899998 -0.076899439 5.8014849e-39 345 301
0.032776814 0.71899998 -0.076899439 5.8014877e-39 346 301
0.034084801 0.72000003 -0.0770064 5.8936834e-39 347 301
0.035347197 0.72000003 -0.0770064 5.8944022e-39 348 301
0.036609601 0.72000003 -0.0770064 5.7103711e-39 349 301
0.0379772 0.722 -0.077220306 5.8940491e-39 350 301
0.039243106 0.722 -0.077220306 5.9862461e-39 351 301
0.040396802 0.72000003 -0.0770064 5.43811e-39 352 301
0.041659199 0.72000003 -0.0770064 7.8355565e-39 353 301
0.042921603 0.72000003 -0.0770064 8.0242834e-39 354 301
0.044183999 0.72000003 -0.0770064 8.8540427e-39 355 301
-0.00376616 0.71600002 -0.077833973 1.2629019e-38 317 302
-0.0025037599 0.71399999 -0.07761655 1.0791596e-38 318 302
-0.00125188 0.71399999 -0.07761655 1.0883791e-38 319 302
0 0.71600002 -0.077833973 1.1621729e-38 320 302
0.0012553866 0.71600002 -0.077833973 1.097636e-38 321 302
0.0025107733 0.71600002 -0.077833973 8.1172035e-39 322 302
0.0037714199 0.71700001 -0.077942684 5.1665832e-39 323 302
0.0050285598 0.71700001 -0.077942684 6.0762824e-39 324 302
0.0062769335 0.71600002 -0.077833973 6.4447062e-39 325 302
0.00753232 0.71600002 -0.077833973 6.0787837e-39 326 302
0.0087877065 0.71600002 -0.077833973 5.9862293e-39 327 302
0.010043093 0.71600002 -0.077833973 6.1698975e-39 328 302
0.01129848 0.71600002 -0.077833973 6.1698975e-39 329 302
0.012553867 0.71600002 -0.077833973 6.077346e-39 330 302
0.013809253 0.71600002 -0.077833973 6.077346e-39 331 302
0.01506464 0.71600002 -0.077833973 6.0773488e-39 332 302
0.016320027 0.71600002 -0.077833973 5.8933176e-39 333 302
0.017575413 0.71600002 -0.077833973 5.8933176e-39 334 302
0.0188308 0.71600002 -0.077833973 5.8933176e-39 335 302
0.020086186 0.71600002 -0.077833973 5.8014751e-39 336 302
0.021341572 0.71600002 -0.077833973 5.8936708e-39 337 302
0.022596961 0.71600002 -0.077833973 5.802194e-39 338 302
0.023852346 0.71600002 -0.077833973 5.802194e-39 339 302
0.025107734 0.71600002 -0.077833973 5.8018409e-39 340 302
0.026363119 0.71600002 -0.077833973 5.8018409e-39 341 302
0.027657079 0.71700001 -0.077942684 5.8014849e-39 342 302
0.028914221 0.71700001 -0.077942684 5.8940393e-39 343 302
0.030255521 0.71899998 -0.078160092 5.8936834e-39 344 302
0.031516165 0.71899998 -0.078160092 5.8014877e-39 345 302
0.032776814 0.71899998 -0.078160092 5.8014877e-39 346 302
0.034084801 0.72000003 -0.078268804 5.985879e-39 347 302
0.035347197 0.72000003 -0.078268804 5.7103711e-39 348 302
0.036609601 0.72000003 -0.078268804 5.6181755e-39 349 302
0.0379772 0.722 -0.078486212 5.6178196e-39 350 302
0.039243106 0.722 -0.078486212 5.4334283e-39 351 302
0.040396802 0.72000003 -0.078268804 6.0780915e-39 352 302
0.041659199 0.72000003 -0.078268804 9.4896885e-39 353 302
0.042921603 0.72000003 -0.078268804 8.1186483e-39 354 302
-0.0025037599 0.71399999 -0.078868434 1.1065666e-38 318 303
-0.00125188 0.71399999 -0.078868434 1.0789079e-38 319 303
0 0.71600002 -0.079089358 1.0788006e-38 320 303
0.0012553866 0.71600002 -0.079089358 1.0142636e-38 321 303
0.0025107733 0.71600002 -0.079089358 6.6388308e-39 322 303
0.0037714199 0.71700001 -0.079199821 4.9793081e-39 323 303
0.0050285598 0.71700001 -0.079199821 6.1691941e-39 324 303
0.0062857 0.71700001 -0.079199821 6.2613911e-39 325 303
0.0075428397 0.71700001 -0.079199821 6.1699003e-39 326 303
0.0087999795 0.71700001 -0.079199821 6.077346e-39 327 303
0.01005712 0.71700001 -0.079199821 6.1699003e-39 328 303
0.01131426 0.71700001 -0.079199821 6.1699003e-39 329 303
0.0125714 0.71700001 -0.079199821 6.077346e-39 330 303
0.013828539 0.71700001 -0.079199821 6.077346e-39 331 303
0.015085679 0.71700001 -0.079199821 5.8933148e-39 332 303
0.016320027 0.71600002 -0.079089358 6.077346e-39 333 303
0.017575413 0.71600002 -0.079089358 5.8933148e-39 334 303
0.0188308 0.71600002 -0.079089358 5.8933148e-39 335 303
0.020086186 0.71600002 -0.079089358 5.9847874e-39 336 303
0.021341572 0.71600002 -0.079089358 6.076983e-39 337 303
0.022596961 0.71600002 -0.079089358 5.8011192e-39 338 303
0.023852346 0.71600002 -0.079089358 5.8011192e-39 339 303
0.025107734 0.71600002 -0.079089358 5.8933204e-39 340 303
0.02639994 0.71700001 -0.079199821 5.8933204e-39 341 303
0.027657079 0.71700001 -0.079199821 5.8933204e-39 342 303
0.028994869 0.71899998 -0.07942073 5.8933204e-39 343 303
0.030255521 0.71899998 -0.07942073 5.9840811e-39 344 303
0.031516165 0.71899998 -0.07942073 5.9840811e-39 345 303
0.0328224 0.72000003 -0.0795312 5.8929645e-39 346 303
0.034084801 0.72000003 -0.0795312 5.8929645e-39 347 303
0.035445385 0.722 -0.079752117 5.6178196e-39 348 303
0.03671129 0.722 -0.079752117 5.4334283e-39 349 303
0.0379772 0.722 -0.079752117 5.2504818e-39 350 303
0.039243106 0.722 -0.079752117 6.1727968e-39 351 303
0.040509012 0.722 -0.079752117 7.0962105e-39 352 303
0.041774917 0.722 -0.079752117 9.4932982e-39 353 303
0 0.71600002 -0.080344744 9.6794691e-39 320 304
0.0012553866 0.71600002 -0.080344744 8.480926e-39 321 304
0.0025142799 0.71700001 -0.080456957 5.7132424e-39 322 304
0.0037819401 0.71899998 -0.080681384 4.9756773e-39 323 304
0.0050425865 0.71899998 -0.080681384 6.8120327e-39 324 304
0.0063032326 0.71899998 -0.080681384 6.8120327e-39 325 304
0.0075638802 0.71899998 -0.080681384 6.2613771e-39 326 304
0.0088245263 0.71899998 -0.080681384 6.2613771e-39 327 304
0.010085173 0.71899998 -0.080681384 6.1699003e-39 328 304
0.01134582 0.71899998 -0.080681384 6.077346e-39 329 304
0.0125714 0.71700001 -0.080456957 6.077346e-39 330 304
0.013828539 0.71700001 -0.080456957 6.077346e-39 331 304
0.015085679 0.71700001 -0.080456957 6.1691815e-39 332 304
0.016342819 0.71700001 -0.080456957 6.1691815e-39 333 304
0.017599959 0.71700001 -0.080456957 5.8943896e-39 334 304
0.018857099 0.71700001 -0.080456957 5.8943896e-39 335 304
0.020114239 0.71700001 -0.080456957 5.893668e-39 336 304
0.021371379 0.71700001 -0.080456957 5.8014723e-39 337 304
0.02262852 0.71700001 -0.080456957 5.8011192e-39 338 304
0.02388566 0.71700001 -0.080456957 5.8933148e-39 339 304
0.0251428 0.71700001 -0.080456957 5.8933176e-39 340 304
0.02639994 0.71700001 -0.080456957 5.8933176e-39 341 304
0.027734226 0.71899998 -0.080681384 5.7096452e-39 342 304
0.028994869 0.71899998 -0.080681384 5.7096452e-39 343 304
0.0302976 0.72000003 -0.080793604 5.9844371e-39 344 304
0.03156 0.72000003 -0.080793604 5.9844371e-39 345 304
0.0328224 0.72000003 -0.080793604 5.7103683e-39 346 304
0.034084801 0.72000003 -0.080793604 5.7103683e-39 347 304
0.035445385 0.722 -0.081018023 5.5266959e-39 348 304
0.03671129 0.722 -0.081018023 5.2504692e-39 349 304
0.0379772 0.722 -0.081018023 4.7016296e-39 350 304
0.039243106 0.722 -0.081018023 7.0061616e-39 351 304
0.0012624001 0.72000003 -0.082056001 8.666392e-39 321 305
0.0025248001 0.72000003 -0.082056001 7.6461038e-39 322 305
0.0037872 0.72000003 -0.082056001 6.4475606e-39 323 305
0.0050496003 0.72000003 -0.082056001 7.0882581e-39 324 305
0.0063120001 0.72000003 -0.082056001 6.904227e-39 325 305
0.0075638802 0.71899998 -0.081942029 6.4446921e-39 326 305
0.0088245263 0.71899998 -0.081942029 6.5368892e-39 327 305
0.010085173 0.71899998 -0.081942029 5.9862293e-39 328 305
0.01134582 0.71899998 -0.081942029 5.9862293e-39 329 305
0.012606465 0.71899998 -0.081942029 5.8933176e-39 330 305
0.013867113 0.71899998 -0.081942029 5.8933176e-39 331 305
0.01512776 0.71899998 -0.081942029 6.1688255e-39 332 305
0.016388407 0.71899998 -0.081942029 6.0766299e-39 333 305
0.017649053 0.71899998 -0.081942029 5.8936708e-39 334 305
0.018909698 0.71899998 -0.081942029 6.0777019e-39 335 305
0.020114239 0.71700001 -0.081714094 5.893668e-39 336 305
0.021371379 0.71700001 -0.081714094 5.8014723e-39 337 305
0.02262852 0.71700001 -0.081714094 5.9844315e-39 338 305
0.02388566 0.71700001 -0.081714094 6.0766271e-39 339 305
0.0251428 0.71700001 -0.081714094 5.7096452e-39 340 305
0.02647358 0.71899998 -0.081942029 5.7096452e-39 341 305
0.027734226 0.71899998 -0.081942029 5.8007661e-39 342 305
0.029035201 0.72000003 -0.082056001 5.8007661e-39 343 305
0.0302976 0.72000003 -0.082056001 5.8007717e-39 344 305
0.03156 0.72000003 -0.082056001 6.0769984e-39 345 305
0.0328224 0.72000003 -0.082056001 5.7114571e-39 346 305
0.034179479 0.722 -0.082283929 6.0805984e-39 347 305
0.035494477 0.72299999 -0.082397893 5.3477179e-39 348 305
0.036762137 0.72299999 -0.082397893 6.0852843e-39 349 305
0.038135 0.72500002 -0.082625829 6.0888997e-39 350 305
0.0050636264 0.722 -0.083549835 6.8152697e-39 324 306
0.0063295332 0.722 -0.083549835 6.4464886e-39 325 306
0.0075743999 0.72000003 -0.083318397 6.6290876e-39 326 306
0.0088367993 0.72000003 -0.083318397 6.4443362e-39 327 306
0.010099201 0.72000003 -0.083318397 5.9862321e-39 328 306
0.011361601 0.72000003 -0.083318397 5.9862321e-39 329 306
0.012624 0.72000003 -0.083318397 6.077346e-39 330 306
0.0138864 0.72000003 -0.083318397 5.8933148e-39 331 306
0.0151488 0.72000003 -0.083318397 5.8007661e-39 332 306
0.016388407 0.71899998 -0.083202675 5.8007661e-39 333 306
0.017649053 0.71899998 -0.083202675 5.7107242e-39 334 306
0.018935999 0.72000003 -0.083318397 5.6185286e-39 335 306
0.020170346 0.71899998 -0.083202675 5.8018409e-39 336 306
0.021430992 0.71899998 -0.083202675 5.7096452e-39 337 306
0.022691639 0.71899998 -0.083202675 5.8014849e-39 338 306
0.02388566 0.71700001 -0.082971238 5.8014849e-39 339 306
0.0251428 0.71700001 -0.082971238 5.6185286e-39 340 306
0.02647358 0.71899998 -0.083202675 5.7107242e-39 341 306
0.027772799 0.72000003 -0.083318397 5.6192475e-39 342 306
0.029035201 0.72000003 -0.083318397 5.6192475e-39 343 306
0.0302976 0.72000003 -0.083318397 5.7118074e-39 344 306
0.031647664 0.722 -0.083549835 5.8965574e-39 345 306
0.032959159 0.72299999 -0.083665557 5.8086778e-39 346 306
0.03422682 0.72299999 -0.083665557 5.9930691e-39 347 306
0.035690852 0.727 -0.084128432 5.6286278e-39 348 306
0.037168913 0.73100001 -0.084591322 6.1814428e-39 349 306
0.0088736191 0.72299999 -0.084933214 5.9873279e-39 327 307
0.01014128 0.72299999 -0.084933214 6.0784474e-39 328 307
0.01139316 0.722 -0.084815748 5.9862518e-39 329 307
0.012659066 0.722 -0.084815748 5.6203405e-39 330 307
0.013924973 0.722 -0.084815748 5.5281449e-39 331 307
0.015190879 0.722 -0.084815748 5.5274218e-39 332 307
0.016456785 0.722 -0.084815748 5.5274218e-39 333 307
0.017722692 0.722 -0.084815748 5.7110928e-39 334 307
0.0189886 0.722 -0.084815748 5.6185384e-39 335 307
0.020198401 0.72000003 -0.084580801 5.8011346e-39 336 307
0.021460801 0.72000003 -0.084580801 5.8933302e-39 337 307
0.022723202 0.72000003 -0.084580801 5.5270715e-39 338 307
0.023952285 0.71899998 -0.084463328 5.5270715e-39 339 307
0.025212931 0.71899998 -0.084463328 5.3448452e-39 340 307
0.026510401 0.72000003 -0.084580801 5.5292365e-39 341 307
0.027772799 0.72000003 -0.084580801 5.2558936e-39 342 307
0.029115854 0.722 -0.084815748 5.5324791e-39 343 307
0.030381758 0.722 -0.084815748 5.2598621e-39 344 307
0.032042164 0.73100001 -0.085873008 5.7208402e-39 345 307
0.033323854 0.73100001 -0.085873008 5.9985145e-39 346 307
0.010211413 0.72799999 -0.086797006 5.8983693e-39 328 308
0.01148784 0.72799999 -0.086797006 5.8983693e-39 329 308
0.012746733 0.727 -0.086677782 5.8987196e-39 330 308
0.014021406 0.727 -0.086677782 5.8065226e-39 331 308
0.015296079 0.727 -0.086677782 5.5313678e-39 332 308
0.016525166 0.72500002 -0.086439334 5.5313678e-39 333 308
0.017796334 0.72500002 -0.086439334 5.530649e-39 334 308
