# .PCD v.7 - Point Cloud Data file format
FIELDS x y z rgb imX imY
SIZE 4 4 4 4 4 4
TYPE F F F F F F
COUNT 1 1 1 1 1 1
WIDTH 849
HEIGHT 1
VIEWPOINT 0 0 0 1 0 0 0
POINTS 849
DATA ascii
0.025423333 0.72500002 -0.045761999 7.1851439e-39 340 276
0.026694499 0.72500002 -0.045761999 7.8305133e-39 341 276
0.028042812 0.727 -0.045888241 7.4653447e-39 342 276
0.029357811 0.72799999 -0.045951359 7.4653447e-39 343 276
0.030718399 0.73000002 -0.046077598 8.8511714e-39 344 276
0.032042164 0.73100001 -0.046140719 1.0694725e-38 345 276
0.033415023 0.73299998 -0.046266954 9.8721771e-39 346 276
0.034700219 0.73299998 -0.046266954 9.4115577e-39 347 276
0.035985414 0.73299998 -0.046266954 1.3925538e-38 348 276
-0.0025353199 0.72299999 -0.046903417 7.6529632e-39 318 277
-0.0012676599 0.72299999 -0.046903417 4.3339205e-39 319 277
0 0.72299999 -0.046903417 8.1013212e-39 320 277
0.0012676599 0.72299999 -0.046903417 8.8388862e-39 321 277
0.0025318132 0.722 -0.046838548 9.0239838e-39 322 277
0.0037977197 0.722 -0.046838548 8.8395925e-39 323 277
0.0050636264 0.722 -0.046838548 9.1107844e-39 324 277
0.0063120001 0.72000003 -0.0467088 8.7420033e-39 325 277
0.0075743999 0.72000003 -0.0467088 8.6516055e-39 326 277
0.0088245263 0.71899998 -0.046643924 8.1902672e-39 327 277
0.01005712 0.71700001 -0.046514176 1.0592398e-38 328 277
0.01131426 0.71700001 -0.046514176 1.5663158e-38 329 277
0.012606465 0.71899998 -0.046643924 1.6126312e-38 330 277
0.013867113 0.71899998 -0.046643924 1.640254e-38 331 277
0.0151488 0.72000003 -0.0467088 1.3267526e-38 332 277
0.0164112 0.72000003 -0.0467088 9.5793408e-39 333 277
0.017673599 0.72000003 -0.0467088 7.2690424e-39 334 277
0.018935999 0.72000003 -0.0467088 7.6378263e-39 335 277
0.020198401 0.72000003 -0.0467088 7.8222134e-39 336 277
0.021460801 0.72000003 -0.0467088 7.6381823e-39 337 277
0.022723202 0.72000003 -0.0467088 7.3634058e-39 338 277
0.024052227 0.722 -0.046838548 7.6399927e-39 339 277
0.025353199 0.72299999 -0.046903417 7.3688177e-39 340 277
0.026620859 0.72299999 -0.046903417 7.92199e-39 341 277
0.027965667 0.72500002 -0.047033165 7.2827513e-39 342 277
0.029317487 0.727 -0.047162913 7.3749469e-39 343 277
0.030634239 0.72799999 -0.047227785 9.2192309e-39 344 277
0.031910665 0.72799999 -0.047227785 1.0970949e-38 345 277
0.033323854 0.73100001 -0.047422405 9.9622049e-39 346 277
0.034700219 0.73299998 -0.04755215 9.2246399e-39 347 277
0.035985414 0.73299998 -0.04755215 1.2636952e-38 348 277
-0.0025318132 0.722 -0.048104454 7.3742183e-39 318 278
-0.0012659066 0.722 -0.048104454 5.62286e-39 319 278
0 0.722 -0.048104454 8.4693807e-39 320 278
0.0012659066 0.722 -0.048104454 9.2069457e-39 321 278
0.0025248001 0.72000003 -0.0479712 9.3934823e-39 322 278
0.0037872 0.72000003 -0.0479712 8.8403086e-39 323 278
0.0050496003 0.72000003 -0.0479712 9.4777718e-39 324 278
0.0063032326 0.71899998 -0.04790457 9.2008262e-39 325 278
0.0075638802 0.71899998 -0.04790457 8.5594127e-39 326 278
0.0087999795 0.71700001 -0.04777132 7.8218476e-39 327 278
0.01005712 0.71700001 -0.04777132 1.0221468e-38 328 278
0.01131426 0.71700001 -0.04777132 1.5476977e-38 329 278
0.0125714 0.71700001 -0.04777132 1.5758263e-38 330 278
0.013828539 0.71700001 -0.04777132 1.6127045e-38 331 278
0.015085679 0.71700001 -0.04777132 1.1701292e-38 332 278
0.016342819 0.71700001 -0.04777132 7.4599329e-39 333 278
0.017599959 0.71700001 -0.04777132 6.8095104e-39 334 278
0.018857099 0.71700001 -0.04777132 7.4548798e-39 335 278
0.020114239 0.71700001 -0.04777132 7.5463468e-39 336 278
0.021430992 0.71899998 -0.04790457 7.5463468e-39 337 278
0.022691639 0.71899998 -0.04790457 7.1797377e-39 338 278
0.0239856 0.72000003 -0.0479712 7.5485188e-39 339 278
0.025318133 0.722 -0.048104454 7.1847907e-39 340 278
0.026620859 0.72299999 -0.048171077 8.0145528e-39 341 278
0.027965667 0.72500002 -0.048304334 7.1920074e-39 342 278
0.029236834 0.72500002 -0.048304334 7.6526254e-39 343 278
0.030592158 0.727 -0.048437584 8.9448132e-39 344 278
0.03186683 0.727 -0.048437584 1.0604333e-38 345 278
0.033187091 0.72799999 -0.048504211 9.8710813e-39 346 278
0.034463517 0.72799999 -0.048504211 8.6725381e-39 347 278
0.035739943 0.72799999 -0.048504211 1.1991571e-38 348 278
-0.0037977197 0.722 -0.04937036 1.0695432e-38 317 279
-0.0025318132 0.722 -0.04937036 7.0057959e-39 318 279
-0.0012659066 0.722 -0.04937036 6.1760338e-39 319 279
0 0.722 -0.04937036 8.5630224e-39 320 279
0.0012624001 0.72000003 -0.0492336 8.9318035e-39 321 279
0.0025212932 0.71899998 -0.049165215 9.669e-39 322 279
0.0037819401 0.71899998 -0.049165215 9.3002175e-39 323 279
0.0050285598 0.71700001 -0.04902846 9.2948225e-39 324 279
0.0062857 0.71700001 -0.04902846 8.8342045e-39 325 279
0.00753232 0.71600002 -0.048960082 8.5576134e-39 326 279
0.0087877065 0.71600002 -0.048960082 7.912244e-39 327 279
0.010043093 0.71600002 -0.048960082 9.4867766e-39 328 279
0.01129848 0.71600002 -0.048960082 1.3912165e-38 329 279
0.012553867 0.71600002 -0.048960082 1.4655156e-38 330 279
0.013809253 0.71600002 -0.048960082 1.4747711e-38 331 279
0.01506464 0.71600002 -0.048960082 8.7506717e-39 332 279
0.016320027 0.71600002 -0.048960082 5.7082173e-39 333 279
0.017575413 0.71600002 -0.048960082 6.7180308e-39 334 279
0.0188308 0.71600002 -0.048960082 7.1790076e-39 335 279
0.020114239 0.71700001 -0.04902846 7.5459824e-39 336 279
0.021371379 0.71700001 -0.04902846 7.6381795e-39 337 279
0.02262852 0.71700001 -0.04902846 7.180088e-39 338 279
0.023952285 0.71899998 -0.049165215 7.4566735e-39 339 279
0.025248 0.72000003 -0.0492336 7.3691694e-39 340 279
0.026584039 0.722 -0.04937036 8.1067358e-39 341 279
0.027849946 0.722 -0.04937036 7.3781867e-39 342 279
0.029156178 0.72299999 -0.049438741 7.7473294e-39 343 279
0.030423839 0.72299999 -0.049438741 8.5796236e-39 344 279
0.031779166 0.72500002 -0.0495755 9.8703624e-39 345 279
0.033141505 0.727 -0.049712259 1.0054031e-38 346 279
0.034463517 0.72799999 -0.049780637 9.3164656e-39 347 279
-0.0037977197 0.722 -0.050636265 8.7604023e-39 317 280
-0.0025318132 0.722 -0.050636265 7.6468451e-39 318 280
-0.0012659066 0.722 -0.050636265 7.0936727e-39 319 280
0 0.72000003 -0.050496001 8.6541419e-39 320 280
0.0012624001 0.72000003 -0.050496001 9.0232831e-39 321 280
0.0025212932 0.71899998 -0.050425861 8.8406883e-39 322 280
0.0037714199 0.71700001 -0.0502856 8.5637413e-39 323 280
0.0050285598 0.71700001 -0.0502856 9.0196832e-39 324 280
0.0062769335 0.71600002 -0.050215468 8.6509021e-39 325 280
0.00753232 0.71600002 -0.050215468 8.2835489e-39 326 280
0.0087877065 0.71600002 -0.050215468 9.5742877e-39 327 280
0.010043093 0.71600002 -0.050215468 1.1417843e-38 328 280
0.01129848 0.71600002 -0.050215468 1.4368103e-38 329 280
0.012553867 0.71600002 -0.050215468 1.3825028e-38 330 280
0.013809253 0.71600002 -0.050215468 1.3917224e-38 331 280
0.01506464 0.71600002 -0.050215468 8.1031387e-39 332 280
0.016320027 0.71600002 -0.050215468 5.6138567e-39 333 280
0.017575413 0.71600002 -0.050215468 7.4552301e-39 334 280
0.0188308 0.71600002 -0.050215468 7.2708375e-39 335 280
0.020086186 0.71600002 -0.050215468 6.9949736e-39 336 280
0.021371379 0.71700001 -0.0502856 7.1790048e-39 337 280
0.02262852 0.71700001 -0.0502856 7.0879106e-39 338 280
0.023952285 0.71899998 -0.050425861 7.2723018e-39 339 280
0.025212931 0.71899998 -0.050425861 7.0004093e-39 340 280
0.026510401 0.72000003 -0.050496001 8.6595719e-39 341 280
0.027849946 0.722 -0.050636265 7.8377398e-39 342 280
0.029115854 0.722 -0.050636265 8.5753048e-39 343 280
0.030423839 0.72299999 -0.050706398 8.7640205e-39 344 280
0.031691495 0.72299999 -0.050706398 9.685618e-39 345 280
0.033050332 0.72500002 -0.050846666 9.9636301e-39 346 280
0.034463517 0.72799999 -0.051057063 9.4104577e-39 347 280
-0.0038029798 0.72299999 -0.051974058 8.5752922e-39 317 281
-0.0025318132 0.722 -0.051902171 8.3822493e-39 318 281
-0.0012659066 0.722 -0.051902171 7.1837061e-39 319 281
0 0.72000003 -0.051758397 8.4704737e-39 320 281
0.0012606466 0.71899998 -0.05168651 8.4704737e-39 321 281
0.0025142799 0.71700001 -0.051542737 8.9296526e-39 322 281
0.0037714199 0.71700001 -0.051542737 8.6534258e-39 323 281
0.0050215465 0.71600002 -0.051470853 8.9271316e-39 324 281
0.0062769335 0.71600002 -0.051470853 8.5587092e-39 325 281
0.00753232 0.71600002 -0.051470853 8.9307287e-39 326 281
0.0087877065 0.71600002 -0.051470853 1.2157576e-38 327 281
0.010043093 0.71600002 -0.051470853 1.298986e-38 328 281
0.01129848 0.71600002 -0.051470853 1.3266087e-38 329 281
0.012553867 0.71600002 -0.051470853 1.3084943e-38 330 281
0.013809253 0.71600002 -0.051470853 1.2900551e-38 331 281
0.01506464 0.71600002 -0.051470853 8.7449152e-39 332 281
0.016320027 0.71600002 -0.051470853 6.5322187e-39 333 281
0.017575413 0.71600002 -0.051470853 7.2712046e-39 334 281
0.0188308 0.71600002 -0.051470853 6.9027808e-39 335 281
0.020086186 0.71600002 -0.051470853 7.0864462e-39 336 281
0.021341572 0.71600002 -0.051470853 7.1786418e-39 337 281
0.02262852 0.71700001 -0.051542737 7.1790076e-39 338 281
0.02388566 0.71700001 -0.051542737 7.1790076e-39 339 281
0.025212931 0.71899998 -0.05168651 7.5503335e-39 340 281
0.026510401 0.72000003 -0.051758397 1.0131811e-38 341 281
0.027849946 0.722 -0.051902171 9.0334089e-39 342 281
0.029115854 0.722 -0.051902171 9.1259633e-39 343 281
0.030423839 0.72299999 -0.051974058 9.1317282e-39 344 281
0.031691495 0.72299999 -0.051974058 9.9611287e-39 345 281
0.032959159 0.72299999 -0.051974058 1.0238789e-38 346 281
0.034321502 0.72500002 -0.052117832 1.0238789e-38 347 281
-0.0037977197 0.722 -0.053168077 9.125945e-39 317 282
-0.0025248001 0.72000003 -0.053020801 8.1978539e-39 318 282
-0.0012624001 0.72000003 -0.053020801 6.9071164e-39 319 282
0 0.72000003 -0.053020801 8.1938854e-39 320 282
0.0012606466 0.71899998 -0.05294716 8.1938854e-39 321 282
0.0025142799 0.71700001 -0.052799881 8.378278e-39 322 282
0.00376616 0.71600002 -0.052726239 8.1016897e-39 323 282
0.0050215465 0.71600002 -0.052726239 8.4672297e-39 324 282
0.0062769335 0.71600002 -0.052726239 9.9423597e-39 325 282
0.00753232 0.71600002 -0.052726239 1.0959035e-38 326 282
0.0087631596 0.71399999 -0.052578956 1.2895144e-38 327 282
0.01001504 0.71399999 -0.052578956 1.2435605e-38 328 282
0.011266919 0.71399999 -0.052578956 1.0592051e-38 329 282
0.012518799 0.71399999 -0.052578956 1.0407301e-38 330 282
0.01377068 0.71399999 -0.052578956 1.0407301e-38 331 282
0.015022559 0.71399999 -0.052578956 8.0062669e-39 332 282
0.016320027 0.71600002 -0.052726239 6.8080839e-39 333 282
0.017575413 0.71600002 -0.052726239 7.08574e-39 334 282
0.0188308 0.71600002 -0.052726239 6.9935443e-39 335 282
0.020086186 0.71600002 -0.052726239 7.0860903e-39 336 282
0.021341572 0.71600002 -0.052726239 7.1786446e-39 337 282
0.02262852 0.71700001 -0.052799881 7.0878952e-39 338 282
0.02388566 0.71700001 -0.052799881 7.0878952e-39 339 282
0.025212931 0.71899998 -0.05294716 7.7347275e-39 340 282
0.026510401 0.72000003 -0.053020801 1.0131455e-38 341 282
0.027772799 0.72000003 -0.053020801 8.2997997e-39 342 282
0.029115854 0.722 -0.053168077 8.5760265e-39 343 282
0.030381758 0.722 -0.053168077 9.4072361e-39 344 282
0.031691495 0.72299999 -0.053241719 1.0421387e-38 345 282
0.032959159 0.72299999 -0.053241719 1.0147675e-38 346 282
0.034321502 0.72500002 -0.053388998 1.005548e-38 347 282
-0.0037977197 0.722 -0.054433983 9.0337494e-39 317 283
-0.0025248001 0.72000003 -0.054283202 8.1045806e-39 318 283
-0.0012624001 0.72000003 -0.054283202 6.6294505e-39 319 283
0 0.71899998 -0.054207806 8.0080564e-39 320 283
0.00125714 0.71700001 -0.054057021 8.2842831e-39 321 283
0.0025107733 0.71600002 -0.053981625 8.1935323e-39 322 283
0.00376616 0.71600002 -0.053981625 7.9173055e-39 323 283
0.0050215465 0.71600002 -0.053981625 8.3757753e-39 324 283
0.0062593995 0.71399999 -0.053830836 1.0588831e-38 325 283
0.0075112795 0.71399999 -0.053830836 1.2527453e-38 326 283
0.0087631596 0.71399999 -0.053830836 1.2250866e-38 327 283
0.01001504 0.71399999 -0.053830836 1.0221821e-38 328 283
0.011266919 0.71399999 -0.053830836 7.4559518e-39 329 283
0.012518799 0.71399999 -0.053830836 7.1779202e-39 330 283
0.01377068 0.71399999 -0.053830836 7.0857245e-39 331 283
0.015022559 0.71399999 -0.053830836 6.9928283e-39 332 283
0.016274439 0.71399999 -0.053830836 7.0850239e-39 333 283
0.017526319 0.71399999 -0.053830836 7.08574e-39 334 283
0.0188308 0.71600002 -0.053981625 6.9935443e-39 335 283
0.020086186 0.71600002 -0.053981625 6.8105824e-39 336 283
0.021341572 0.71600002 -0.053981625 6.9949736e-39 337 283
0.02262852 0.71700001 -0.054057021 7.0878952e-39 338 283
0.02388566 0.71700001 -0.054057021 7.6410675e-39 339 283
0.025212931 0.71899998 -0.054207806 8.2875426e-39 340 283
0.026510401 0.72000003 -0.054283202 9.7630328e-39 341 283
0.027772799 0.72000003 -0.054283202 8.2979948e-39 342 283
0.029115854 0.722 -0.054433983 8.4827462e-39 343 283
0.030381758 0.722 -0.054433983 9.223198e-39 344 283
0.031691495 0.72299999 -0.054509375 1.0882719e-38 345 283
0.032959159 0.72299999 -0.054509375 1.0147322e-38 346 283
0.03422682 0.72299999 -0.054509375 9.5941483e-39 347 283
-0.0050986931 0.727 -0.056085624 1.1985084e-38 316 284
-0.0037977197 0.722 -0.055699892 8.6660417e-39 317 284
-0.0025248001 0.72000003 -0.055545598 8.0120193e-39 318 284
-0.0012624001 0.72000003 -0.055545598 6.9975072e-39 319 284
0 0.71899998 -0.055468451 7.7321884e-39 320 284
0.00125714 0.71700001 -0.055314157 7.6399927e-39 321 284
0.0025107733 0.71600002 -0.055237014 7.7318394e-39 322 284
0.00376616 0.71600002 -0.055237014 7.6396424e-39 323 284
0.0050075199 0.71399999 -0.05508272 8.2828636e-39 324 284
0.0062593995 0.71399999 -0.05508272 9.3888525e-39 325 284
0.0075007593 0.713 -0.055005573 9.9441744e-39 326 284
0.0087508867 0.713 -0.055005573 8.8381856e-39 327 284
0.01001504 0.71399999 -0.05508272 7.7314597e-39 328 284
0.011266919 0.71399999 -0.05508272 6.5332752e-39 329 284
0.012518799 0.71399999 -0.05508272 6.8984648e-39 330 284
0.01377068 0.71399999 -0.05508272 6.8059105e-39 331 284
0.015022559 0.71399999 -0.05508272 6.532569e-39 332 284
0.016274439 0.71399999 -0.05508272 6.532569e-39 333 284
0.017526319 0.71399999 -0.05508272 6.349977e-39 334 284
0.018778199 0.71399999 -0.05508272 6.5343682e-39 335 284
0.020086186 0.71600002 -0.055237014 6.9024249e-39 336 284
0.021341572 0.71600002 -0.055237014 6.9949793e-39 337 284
0.02262852 0.71700001 -0.055314157 7.0882581e-39 338 284
0.02388566 0.71700001 -0.055314157 7.5495964e-39 339 284
0.0251428 0.71700001 -0.055314157 8.3800941e-39 340 284
0.02647358 0.71899998 -0.055468451 9.3020518e-39 341 284
0.027772799 0.72000003 -0.055545598 8.1121631e-39 342 284
0.029035201 0.72000003 -0.055545598 8.2965529e-39 343 284
0.030381758 0.722 -0.055699892 8.5796264e-39 344 284
0.031647664 0.722 -0.055699892 1.0515735e-38 345 284
0.032959159 0.72299999 -0.055777039 1.0238436e-38 346 284
0.03422682 0.72299999 -0.055777039 9.3168383e-39 347 284
-0.0050986931 0.727 -0.057360299 1.161558e-38 316 285
-0.0038029798 0.72299999 -0.057044696 8.2961788e-39 317 285
-0.0025318132 0.722 -0.056965802 8.1960504e-39 318 285
-0.0012624001 0.72000003 -0.056808002 7.735431e-39 319 285
0 0.71700001 -0.056571297 7.7321884e-39 320 285
0.0012553866 0.71600002 -0.056492399 7.4556015e-39 321 285
0.0025107733 0.71600002 -0.056492399 7.0871889e-39 322 285
0.0037556398 0.71399999 -0.0563346 6.9949933e-39 323 285
0.0050075199 0.71399999 -0.0563346 6.9031704e-39 324 285
0.0062593995 0.71399999 -0.0563346 6.8109748e-39 325 285
0.0075007593 0.713 -0.056255698 6.533292e-39 326 285
0.0087508867 0.713 -0.056255698 5.7035314e-39 327 285
0.01001504 0.71399999 -0.0563346 5.3372348e-39 328 285
0.011266919 0.71399999 -0.0563346 5.9826042e-39 329 285
0.012518799 0.71399999 -0.0563346 5.7975039e-39 330 285
0.01377068 0.71399999 -0.0563346 5.5209156e-39 331 285
0.015022559 0.71399999 -0.0563346 4.4199854e-39 332 285
0.016274439 0.71399999 -0.0563346 4.2352354e-39 333 285
0.017526319 0.71399999 -0.0563346 5.1546736e-39 334 285
0.018778199 0.71399999 -0.0563346 5.3390649e-39 335 285
0.020086186 0.71600002 -0.056492399 6.074109e-39 336 285
0.021341572 0.71600002 -0.056492399 6.5350871e-39 337 285
0.022596961 0.71600002 -0.056492399 6.9967911e-39 338 285
0.023852346 0.71600002 -0.056492399 7.6421605e-39 339 285
0.0251428 0.71700001 -0.056571297 8.0124032e-39 340 285
0.02647358 0.71899998 -0.056729097 8.3815459e-39 341 285
0.027772799 0.72000003 -0.056808002 7.3738946e-39 342 285
0.029035201 0.72000003 -0.056808002 7.6504801e-39 343 285
0.0302976 0.72000003 -0.056808002 7.9317389e-39 344 285
0.031647664 0.722 -0.056965802 9.8678471e-39 345 285
0.032913569 0.722 -0.056965802 9.5919805e-39 346 285
0.034179479 0.722 -0.056965802 9.223198e-39 347 285
-0.0063733663 0.727 -0.058634974 1.4014471e-38 315 286
-0.0050986931 0.727 -0.058634974 1.097093e-38 316 286
-0.0038135003 0.72500002 -0.058473669 7.7440826e-39 317 286
-0.0025318132 0.722 -0.058231708 8.4733491e-39 318 286
-0.0012624001 0.72000003 -0.058070403 7.7354254e-39 319 286
0 0.71700001 -0.057828441 7.4577497e-39 320 286
0.0012553866 0.71600002 -0.057747785 6.8123803e-39 321 286
0.0025107733 0.71600002 -0.057747785 6.7194812e-39 322 286
0.0037556398 0.71399999 -0.057586476 6.2585044e-39 323 286
0.0050075199 0.71399999 -0.057586476 5.7057048e-39 324 286
0.0062593995 0.71399999 -0.057586476 5.3365621e-39 325 286
0.0075112795 0.71399999 -0.057586476 5.2465385e-39 326 286
0.0087631596 0.71399999 -0.057586476 6.3528861e-39 327 286
0.01001504 0.71399999 -0.057586476 6.2671701e-39 328 286
0.011266919 0.71399999 -0.057586476 7.5579089e-39 329 286
0.012518799 0.71399999 -0.057586476 7.5622291e-39 330 286
0.01377068 0.71399999 -0.057586476 7.9310102e-39 331 286
0.015022559 0.71399999 -0.057586476 8.022131e-39 332 286
0.016274439 0.71399999 -0.057586476 7.8377398e-39 333 286
0.017526319 0.71399999 -0.057586476 8.295834e-39 334 286
0.018778199 0.71399999 -0.057586476 7.1894865e-39 335 286
0.020030079 0.71399999 -0.057586476 6.8142104e-39 336 286
0.021341572 0.71600002 -0.057747785 5.8004186e-39 337 286
0.022596961 0.71600002 -0.057747785 5.8007689e-39 338 286
0.023852346 0.71600002 -0.057747785 6.9993121e-39 339 286
0.0251428 0.71700001 -0.057828441 7.0943916e-39 340 286
0.02639994 0.71700001 -0.057828441 7.0943916e-39 341 286
0.027734226 0.71899998 -0.057989739 6.4529934e-39 342 286
0.029035201 0.72000003 -0.058070403 6.9136129e-39 343 286
0.0302976 0.72000003 -0.058070403 6.727079e-39 344 286
0.03156 0.72000003 -0.058070403 7.1880572e-39 345 286
0.032913569 0.722 -0.058231708 6.4573249e-39 346 286
0.034179479 0.722 -0.058231708 7.9324563e-39 347 286
0.035445385 0.722 -0.058231708 1.1526641e-38 348 286
-0.0063733663 0.727 -0.059909642 1.4014111e-38 315 287
-0.0050846669 0.72500002 -0.059744831 1.0785094e-38 316 287
-0.0037977197 0.722 -0.059497613 7.8344747e-39 317 287
-0.0025318132 0.722 -0.059497613 8.2903816e-39 318 287
-0.0012624001 0.72000003 -0.059332799 7.9215991e-39 319 287
0 0.71700001 -0.059085581 7.6417654e-39 320 287
0.0012553866 0.71600002 -0.059003171 7.088593e-39 321 287
0.0025107733 0.71600002 -0.059003171 6.1670277e-39 322 287
0.0037556398 0.71399999 -0.058838356 6.074832e-39 323 287
0.0050075199 0.71399999 -0.058838356 3.0500368e-39 324 287
0.0062593995 0.71399999 -0.058838356 4.2482213e-39 325 287
0.0075112795 0.71399999 -0.058838356 6.4566214e-39 326 287
0.0087508867 0.713 -0.058755953 8.4849267e-39 327 287
0.010001013 0.713 -0.058755953 8.7640345e-39 328 287
0.011251139 0.713 -0.058755953 9.3172083e-39 329 287
0.012501267 0.713 -0.058755953 9.9622105e-39 330 287
0.013751393 0.713 -0.058755953 1.0238439e-38 331 287
0.015022559 0.71399999 -0.058838356 9.5941511e-39 332 287
0.016274439 0.71399999 -0.058838356 9.2250084e-39 333 287
0.017526319 0.71399999 -0.058838356 9.4104759e-39 334 287
0.018778199 0.71399999 -0.058838356 9.0416934e-39 335 287
0.020030079 0.71399999 -0.058838356 8.8540399e-39 336 287
0.021341572 0.71600002 -0.059003171 7.0101273e-39 337 287
0.022596961 0.71600002 -0.059003171 5.90017e-39 338 287
0.023852346 0.71600002 -0.059003171 5.8079744e-39 339 287
0.025107734 0.71600002 -0.059003171 6.6337722e-39 340 287
0.02639994 0.71700001 -0.059085581 5.8036528e-39 341 287
0.027657079 0.71700001 -0.059085581 5.5306644e-39 342 287
0.028994869 0.71899998 -0.059250388 6.5448177e-39 343 287
0.0302976 0.72000003 -0.059332799 6.8181774e-39 344 287
0.03156 0.72000003 -0.059332799 5.9884154e-39 345 287
0.032913569 0.722 -0.059497613 5.7154228e-39 346 287
0.034179479 0.722 -0.059497613 7.3753029e-39 347 287
0.035445385 0.722 -0.059497613 1.1710662e-38 348 287
-0.0063733663 0.727 -0.061184317 1.382936e-38 315 288
-0.0050846669 0.72500002 -0.061016005 1.0783296e-38 316 288
-0.0037977197 0.722 -0.060763516 7.74084e-39 317 288
-0.0025318132 0.722 -0.060763516 8.6566586e-39 318 288
-0.0012624001 0.72000003 -0.060595199 8.1956818e-39 319 288
0 0.71700001 -0.060342718 7.1829747e-39 320 288
0.0012553866 0.71600002 -0.06025856 5.8922358e-39 321 288
0.0025107733 0.71600002 -0.06025856 5.1597505e-39 322 288
0.0037556398 0.71399999 -0.060090236 8.3865961e-39 323 288
0.0050075199 0.71399999 -0.060090236 8.8594671e-39 324 288
0.0062593995 0.71399999 -0.060090236 1.0242402e-38 325 288
0.0075007593 0.713 -0.060006075 1.1991954e-38 326 288
0.0087508867 0.713 -0.060006075 1.226854e-38 327 288
0.0099729598 0.71100003 -0.059837762 1.199303e-38 328 288
0.01121958 0.71100003 -0.059837762 1.1900834e-38 329 288
0.0124662 0.71100003 -0.059837762 1.1991598e-38 330 288
0.01371282 0.71100003 -0.059837762 1.1530978e-38 331 288
0.014959441 0.71100003 -0.059837762 1.1070003e-38 332 288
0.016251646 0.713 -0.060006075 1.0977807e-38 333 288
0.017501773 0.713 -0.060006075 1.116507e-38 334 288
0.018751899 0.713 -0.060006075 1.1533494e-38 335 288
0.020030079 0.71399999 -0.060090236 1.171644e-38 336 288
0.021281958 0.71399999 -0.060090236 1.1255821e-38 337 288
0.022596961 0.71600002 -0.06025856 1.115858e-38 338 288
0.023852346 0.71600002 -0.06025856 9.5912546e-39 339 288
0.025107734 0.71600002 -0.06025856 8.3869283e-39 340 288
0.026363119 0.71600002 -0.06025856 5.5288637e-39 341 288
0.027657079 0.71700001 -0.060342718 5.070754e-39 342 288
0.028994869 0.71899998 -0.060511041 5.7161234e-39 343 288
0.0302976 0.72000003 -0.060595199 7.0011253e-39 344 288
0.03156 0.72000003 -0.060595199 7.5542991e-39 345 288
0.032913569 0.722 -0.060763516 7.4606756e-39 346 288
0.034179479 0.722 -0.060763516 8.7514144e-39 347 288
0.035445385 0.722 -0.060763516 1.1709586e-38 348 288
0.03671129 0.722 -0.060763516 1.4659846e-38 349 288
-0.0063733663 0.727 -0.062458992 1.3737517e-38 315 289
-0.0050846669 0.72500002 -0.062287167 1.050563e-38 316 289
-0.0038029798 0.72299999 -0.062115334 7.4635328e-39 317 289
-0.0025318132 0.722 -0.062029421 8.6555866e-39 318 289
-0.0012624001 0.72000003 -0.061857603 8.4711953e-39 319 289
0 0.71700001 -0.061599858 6.4446921e-39 320 289
0.0012553866 0.71600002 -0.061513945 7.2744542e-39 321 289
0.0025107733 0.71600002 -0.061513945 7.4721999e-39 322 289
0.0037556398 0.71399999 -0.061342116 9.7774507e-39 323 289
0.0050075199 0.71399999 -0.061342116 1.0609392e-38 324 289
0.0062593995 0.71399999 -0.061342116 1.107037e-38 325 289
0.0075007593 0.713 -0.061256204 1.1532777e-38 326 289
0.0087508867 0.713 -0.061256204 1.1624973e-38 327 289
0.0099729598 0.71100003 -0.061084379 1.1440578e-38 328 289
0.01121958 0.71100003 -0.061084379 1.1532775e-38 329 289
0.0124662 0.71100003 -0.061084379 1.1623174e-38 330 289
0.01371282 0.71100003 -0.061084379 1.1438783e-38 331 289
0.014959441 0.71100003 -0.061084379 1.0702659e-38 332 289
0.01620606 0.71100003 -0.061084379 1.0794855e-38 333 289
0.01745268 0.71100003 -0.061084379 1.125583e-38 334 289
0.018751899 0.713 -0.061256204 1.144058e-38 335 289
0.020030079 0.71399999 -0.061342116 1.1532777e-38 336 289
0.021281958 0.71399999 -0.061342116 1.144058e-38 337 289
0.022533838 0.71399999 -0.061342116 1.1899032e-38 338 289
0.02378572 0.71399999 -0.061342116 1.1346218e-38 339 289
0.025107734 0.71600002 -0.061513945 1.0880176e-38 340 289
0.026363119 0.71600002 -0.061513945 8.2986983e-39 341 289
0.027657079 0.71700001 -0.061599858 5.531365e-39 342 289
0.028994869 0.71899998 -0.061771683 4.1484306e-39 343 289
0.0302976 0.72000003 -0.061857603 5.8065254e-39 344 289
0.03156 0.72000003 -0.061857603 6.9132331e-39 345 289
0.0328224 0.72000003 -0.061857603 7.7390575e-39 346 289
0.034179479 0.722 -0.062029421 8.6613726e-39 347 289
0.035445385 0.722 -0.062029421 1.2168764e-38 348 289
0.03671129 0.722 -0.062029421 1.4842437e-38 349 289
-0.0063733663 0.727 -0.06373366 1.3553133e-38 315 290
-0.0050846669 0.72500002 -0.063558333 1.0320885e-38 316 290
-0.0038029798 0.72299999 -0.063382991 7.3709841e-39 317 290
-0.0025318132 0.722 -0.063295327 8.2882516e-39 318 290
-0.0012624001 0.72000003 -0.06312 7.9194705e-39 319 290
0 0.71700001 -0.062856995 6.2628414e-39 320 290
0.0012553866 0.71600002 -0.062769331 9.3049385e-39 321 290
0.0025107733 0.71600002 -0.062769331 1.1160748e-38 322 290
0.0037556398 0.71399999 -0.062593997 1.1621726e-38 323 290
0.0050075199 0.71399999 -0.062593997 1.0795211e-38 324 290
0.0062593995 0.71399999 -0.062593997 1.0334234e-38 325 290
0.0075007593 0.713 -0.062506333 1.1253315e-38 326 290
0.0087508867 0.713 -0.062506333 1.1806489e-38 327 290
0.0099729598 0.71100003 -0.062331002 1.1256186e-38 328 290
0.01121958 0.71100003 -0.062331002 1.1440578e-38 329 290
0.0124662 0.71100003 -0.062331002 1.180612e-38 330 290
0.01371282 0.71100003 -0.062331002 1.1529175e-38 331 290
0.014959441 0.71100003 -0.062331002 1.0885609e-38 332 290
0.01620606 0.71100003 -0.062331002 1.107e-38 333 290
0.01745268 0.71100003 -0.062331002 1.1623174e-38 334 290
0.018751899 0.713 -0.062506333 1.1715369e-38 335 290
0.020030079 0.71399999 -0.062593997 1.1255833e-38 336 290
0.021281958 0.71399999 -0.062593997 1.1163638e-38 337 290
0.022533838 0.71399999 -0.062593997 1.1164714e-38 338 290
0.02378572 0.71399999 -0.062593997 1.1441301e-38 339 290
0.025037598 0.71399999 -0.062593997 1.2450045e-38 340 290
0.026363119 0.71600002 -0.062769331 1.1343697e-38 341 290
0.027657079 0.71700001 -0.062856995 8.4827014e-39 342 290
0.028994869 0.71899998 -0.063032329 4.0573112e-39 343 290
0.030255521 0.71899998 -0.063032329 5.5288287e-39 344 290
0.03156 0.72000003 -0.06312 7.5571326e-39 345 290
0.0328224 0.72000003 -0.06312 7.8312377e-39 346 290
0.034179479 0.722 -0.063295327 8.4766072e-39 347 290
0.035445385 0.722 -0.063295327 1.2445341e-38 348 290
0.03671129 0.722 -0.063295327 1.4842068e-38 349 290
-0.0063733663 0.727 -0.065008335 1.3185427e-38 315 291
-0.0050846669 0.72500002 -0.064829499 9.9524589e-39 316 291
-0.0038029798 0.72299999 -0.064650662 7.18659e-39 317 291
-0.0025318132 0.722 -0.064561233 7.9198362e-39 318 291
-0.0012624001 0.72000003 -0.064382397 7.3670212e-39 319 291
0 0.71700001 -0.064114138 8.8490036e-39 320 291
0.0012553866 0.71600002 -0.064024724 1.0877309e-38 321 291
0.0025107733 0.71600002 -0.064024724 1.1346218e-38 322 291
0.0037556398 0.71399999 -0.063845873 1.1253663e-38 323 291
0.0050075199 0.71399999 -0.063845873 1.0795205e-38 324 291
0.0062593995 0.71399999 -0.063845873 9.8732491e-39 325 291
0.0075007593 0.713 -0.063756458 1.0147319e-38 326 291
0.0087508867 0.713 -0.063756458 1.0700493e-38 327 291
0.010001013 0.713 -0.063756458 1.0236997e-38 328 291
0.011251139 0.713 -0.063756458 9.5916273e-39 329 291
0.012501267 0.713 -0.063756458 9.5901826e-39 330 291
0.013751393 0.713 -0.063756458 8.9448132e-39 331 291
0.015001519 0.713 -0.063756458 8.206895e-39 332 291
0.016251646 0.713 -0.063756458 8.6678718e-39 333 291
0.017526319 0.71399999 -0.063845873 9.1320939e-39 334 291
0.018778199 0.71399999 -0.063845873 9.5930721e-39 335 291
0.020030079 0.71399999 -0.063845873 9.5041163e-39 336 291
0.021281958 0.71399999 -0.063845873 1.0518268e-38 337 291
0.022533838 0.71399999 -0.063845873 1.1163638e-38 338 291
0.02378572 0.71399999 -0.063845873 1.1255833e-38 339 291
0.025037598 0.71399999 -0.063845873 1.144058e-38 340 291
0.026363119 0.71600002 -0.064024724 1.1348385e-38 341 291
0.027618507 0.71600002 -0.064024724 1.0974171e-38 342 291
0.028914221 0.71700001 -0.064114138 8.5770831e-39 343 291
0.030255521 0.71899998 -0.064292975 7.4631545e-39 344 291
0.03156 0.72000003 -0.064382397 7.4631545e-39 345 291
0.0328224 0.72000003 -0.064382397 7.3716903e-39 346 291
0.034084801 0.72000003 -0.064382397 8.3854835e-39 347 291
0.035445385 0.722 -0.064561233 1.3089628e-38 348 291
0.03671129 0.722 -0.064561233 1.5117932e-38 349 291
-0.0063733663 0.727 -0.06628301 1.2908117e-38 315 292
-0.0050846669 0.72500002 -0.066100664 9.4003571e-39 316 292
-0.0038029798 0.72299999 -0.065918319 6.7266838e-39 317 292
-0.0025353199 0.72299999 -0.065918319 6.7234511e-39 318 292
-0.0012676599 0.72299999 -0.065918319 6.8156467e-39 319 292
0 0.71899998 -0.065553628 1.0787277e-38 320 292
0.00125714 0.71700001 -0.065371275 1.1801789e-38 321 292
0.0025107733 0.71600002 -0.06528011 1.116147e-38 322 292
0.00376616 0.71600002 -0.06528011 1.116147e-38 323 292
0.0050075199 0.71399999 -0.065097757 1.1529528e-38 324 292
0.0062593995 0.71399999 -0.065097757 9.7781696e-39 325 292
0.0075112795 0.71399999 -0.065097757 9.497617e-39 326 292
0.0087631596 0.71399999 -0.065097757 9.4054214e-39 327 292
0.010001013 0.713 -0.065006584 9.3096132e-39 328 292
0.011251139 0.713 -0.065006584 7.5578963e-39 329 292
0.012518799 0.71399999 -0.065097757 6.6362903e-39 330 292
0.013751393 0.713 -0.065006584 5.2533558e-39 331 292
0.015001519 0.713 -0.065006584 3.8711599e-39 332 292
0.016251646 0.713 -0.065006584 3.8711599e-39 333 292
0.017501773 0.713 -0.065006584 5.4377863e-39 334 292
0.018751899 0.713 -0.065006584 6.9125563e-39 335 292
0.020002026 0.713 -0.065006584 7.4707775e-39 336 292
0.021252153 0.713 -0.065006584 9.1299401e-39 337 292
0.022533838 0.71399999 -0.065097757 1.0147335e-38 338 292
0.02378572 0.71399999 -0.065097757 1.1161847e-38 339 292
0.025037598 0.71399999 -0.065097757 1.1348032e-38 340 292
0.026363119 0.71600002 -0.06528011 1.0979251e-38 341 292
0.027618507 0.71600002 -0.06528011 1.1897234e-38 342 292
0.028914221 0.71700001 -0.065371275 1.1713203e-38 343 292
0.030255521 0.71899998 -0.065553628 9.3114111e-39 344 292
0.03156 0.72000003 -0.065644801 6.5451835e-39 345 292
0.0328224 0.72000003 -0.065644801 7.0043469e-39 346 292
0.034084801 0.72000003 -0.065644801 8.2950858e-39 347 292
0.035445385 0.722 -0.065827139 1.3458767e-38 348 292
-0.0063558333 0.72500002 -0.067371838 1.2814119e-38 315 293
-0.0050846669 0.72500002 -0.067371838 8.6627893e-39 316 293
-0.0038029798 0.72299999 -0.067185976 6.1738674e-39 317 293
-0.0025353199 0.72299999 -0.067185976 7.0900756e-39 318 293
-0.0012676599 0.72299999 -0.067185976 9.1183794e-39 319 293
0 0.71899998 -0.066814266 1.226313e-38 320 293
0.00125714 0.71700001 -0.066628419 1.226313e-38 321 293
0.0025107733 0.71600002 -0.066535495 1.1345862e-38 322 293
0.00376616 0.71600002 -0.066535495 1.0885243e-38 323 293
0.0050075199 0.71399999 -0.066349633 9.5005009e-39 324 293
0.0062593995 0.71399999 -0.066349633 3.692535e-39 325 293
0.0075112795 0.71399999 -0.066349633 3.9565186e-39 326 293
0.0087631596 0.71399999 -0.066349633 5.4320088e-39 327 293
0.01001504 0.71399999 -0.066349633 4.3393057e-39 328 293
0.011266919 0.71399999 -0.066349633 2.77198e-39 329 293
0.012518799 0.71399999 -0.066349633 5.2439952e-39 330 293
0.013751393 0.713 -0.066256717 5.4287452e-39 331 293
0.015001519 0.713 -0.066256717 6.7126611e-39 332 293
0.016251646 0.713 -0.066256717 6.4364329e-39 333 293
0.017501773 0.713 -0.066256717 5.245091e-39 334 293
0.018751899 0.713 -0.066256717 5.3376453e-39 335 293
0.020002026 0.713 -0.066256717 4.4189485e-39 336 293
0.021252153 0.713 -0.066256717 4.4189485e-39 337 293
0.022502279 0.713 -0.066256717 4.1535327e-39 338 293
0.023752406 0.713 -0.066256717 7.3803798e-39 339 293
0.025037598 0.71399999 -0.066349633 9.227179e-39 340 293
0.026363119 0.71600002 -0.066535495 1.0794506e-38 341 293
0.027618507 0.71600002 -0.066535495 1.0980323e-38 342 293
0.028914221 0.71700001 -0.066628419 1.0980323e-38 343 293
0.030255521 0.71899998 -0.066814266 1.0054028e-38 344 293
0.03156 0.72000003 -0.066907197 8.025724e-39 345 293
0.0328224 0.72000003 -0.066907197 6.91288e-39 346 293
0.034179479 0.722 -0.067093052 8.3876499e-39 347 293
0.035445385 0.722 -0.067093052 1.4104139e-38 348 293
-0.0063558333 0.72500002 -0.068643004 1.2629006e-38 315 294
-0.0050846669 0.72500002 -0.068643004 8.5677126e-39 316 294
-0.0038135003 0.72500002 -0.068643004 5.9862349e-39 317 294
-0.0025423334 0.72500002 -0.068643004 7.646129e-39 318 294
-0.0012711667 0.72500002 -0.068643004 1.0135052e-38 319 294
0 0.71899998 -0.068074919 1.2264212e-38 320 294
0.00125714 0.71700001 -0.067885563 1.2171657e-38 321 294
0.0025107733 0.71600002 -0.067790881 1.1529178e-38 322 294
0.00376616 0.71600002 -0.067790881 9.6852649e-39 323 294
0.0050215465 0.71600002 -0.067790881 7.4700292e-39 324 294
0.0062593995 0.71399999 -0.067601517 3.3212259e-39 325 294
0.0075112795 0.71399999 -0.067601517 4.6908242e-39 326 294
0.0087631596 0.71399999 -0.067601517 5.7971717e-39 327 294
0.01001504 0.71399999 -0.067601517 5.800043e-39 328 294
0.011266919 0.71399999 -0.067601517 5.6156517e-39 329 294
0.012518799 0.71399999 -0.067601517 5.3383614e-39 330 294
0.013751393 0.713 -0.067506835 5.3383614e-39 331 294
0.015001519 0.713 -0.067506835 5.2472476e-39 332 294
0.016251646 0.713 -0.067506835 5.4312787e-39 333 294
0.017501773 0.713 -0.067506835 5.9826322e-39 334 294
0.018751899 0.713 -0.067506835 5.6142098e-39 335 294
0.020002026 0.713 -0.067506835 5.1539505e-39 336 294
0.021252153 0.713 -0.067506835 4.6007782e-39 337 294
0.022502279 0.713 -0.067506835 2.3971116e-39 338 294
0.023752406 0.713 -0.067506835 4.1484698e-39 339 294
0.025002534 0.713 -0.067506835 5.541872e-39 340 294
0.026289478 0.71399999 -0.067601517 8.6765234e-39 341 294
0.02754136 0.71399999 -0.067601517 1.1345881e-38 342 294
0.028873893 0.71600002 -0.067790881 1.1622468e-38 343 294
0.030255521 0.71899998 -0.068074919 1.060793e-38 344 294
0.03156 0.72000003 -0.068169601 9.1328002e-39 345 294
0.032913569 0.722 -0.068358958 7.0979943e-39 346 294
0.034179479 0.722 -0.068358958 8.7571555e-39 347 294
-0.0063733663 0.727 -0.070107035 1.2906319e-38 315 295
-0.0050846669 0.72500002 -0.069914162 8.3844115e-39 316 295
-0.0038135003 0.72500002 -0.069914162 5.1575645e-39 317 295
-0.0025423334 0.72500002 -0.069914162 8.5698902e-39 318 295
-0.0012711667 0.72500002 -0.069914162 1.0598194e-38 319 295
0 0.71899998 -0.069335558 1.1803953e-38 320 295
0.00125714 0.71700001 -0.069142699 1.1711757e-38 321 295
0.0025107733 0.71600002 -0.069046266 1.0884161e-38 322 295
0.00376616 0.71600002 -0.069046266 6.6431623e-39 323 295
0.0050215465 0.71600002 -0.069046266 4.0544721e-39 324 295
0.0062593995 0.71399999 -0.068853401 4.5158104e-39 325 295
0.0075112795 0.71399999 -0.068853401 6.3514245e-39 326 295
0.0087631596 0.71399999 -0.068853401 6.3514245e-39 327 295
0.01001504 0.71399999 -0.068853401 5.8933204e-39 328 295
0.011266919 0.71399999 -0.068853401 5.6163748e-39 329 295
0.012518799 0.71399999 -0.068853401 5.4319794e-39 330 295
0.013751393 0.713 -0.068756968 5.1557526e-39 331 295
0.015001519 0.713 -0.068756968 5.3390621e-39 332 295
0.016251646 0.713 -0.068756968 5.4316164e-39 333 295
0.017501773 0.713 -0.068756968 5.7986011e-39 334 295
0.018751899 0.713 -0.068756968 5.9826322e-39 335 295
0.020002026 0.713 -0.068756968 5.7993199e-39 336 295
0.021252153 0.713 -0.068756968 5.9837126e-39 337 295
0.022502279 0.713 -0.068756968 5.6156742e-39 338 295
0.023752406 0.713 -0.068756968 4.7855534e-39 339 295
0.025002534 0.713 -0.068756968 2.3139277e-39 340 295
0.026289478 0.71399999 -0.068853401 4.5269816e-39 341 295
0.02754136 0.71399999 -0.068853401 8.6743528e-39 342 295
0.028873893 0.71600002 -0.069046266 1.0979604e-38 343 295
0.030255521 0.71899998 -0.069335558 1.1068187e-38 344 295
0.03156 0.72000003 -0.069432005 9.6852523e-39 345 295
0.0328224 0.72000003 -0.069432005 7.0065147e-39 346 295
0.034179479 0.722 -0.069624864 9.5879924e-39 347 295
-0.0063733663 0.727 -0.071381703 1.3091429e-38 315 296
-0.0050986931 0.727 -0.071381703 8.9365119e-39 316 296
-0.0038135003 0.72500002 -0.071185336 5.0642955e-39 317 296
-0.0025423334 0.72500002 -0.071185336 8.9393986e-39 318 296
-0.0012711667 0.72500002 -0.071185336 1.1428681e-38 319 296
0 0.72000003 -0.070694394 1.1803955e-38 320 296
0.00125714 0.71700001 -0.070399836 1.152701e-38 321 296
0.0025107733 0.71600002 -0.070301652 9.5005009e-39 322 296
0.00376616 0.71600002 -0.070301652 5.4438932e-39 323 296
0.0050215465 0.71600002 -0.070301652 4.1427021e-39 324 296
0.0062593995 0.71399999 -0.070105277 5.3416054e-39 325 296
0.0075112795 0.71399999 -0.070105277 6.444339e-39 326 296
0.0087631596 0.71399999 -0.070105277 6.2599478e-39 327 296
0.01001504 0.71399999 -0.070105277 5.9844343e-39 328 296
0.011266919 0.71399999 -0.070105277 5.800043e-39 329 296
0.012518799 0.71399999 -0.070105277 5.4316164e-39 330 296
0.013751393 0.713 -0.070007093 5.3390621e-39 331 296
0.015001519 0.713 -0.070007093 5.5220142e-39 332 296
0.016251646 0.713 -0.070007093 5.7064054e-39 333 296
0.017501773 0.713 -0.070007093 5.7993227e-39 334 296
0.018751899 0.713 -0.070007093 5.8915198e-39 335 296
0.020002026 0.713 -0.070007093 5.800043e-39 336 296
0.021252153 0.713 -0.070007093 5.8922386e-39 337 296
0.022502279 0.713 -0.070007093 5.8911793e-39 338 296
0.023752406 0.713 -0.070007093 5.6149511e-39 339 296
0.025002534 0.713 -0.070007093 3.9611947e-39 340 296
0.026289478 0.71399999 -0.070105277 4.5140083e-39 341 296
0.02754136 0.71399999 -0.070105277 6.8289828e-39 342 296
0.028873893 0.71600002 -0.070301652 1.0793395e-38 343 296
0.030255521 0.71899998 -0.070596211 1.1253297e-38 344 296
0.031516165 0.71899998 -0.070596211 9.9625581e-39 345 296
0.0328224 0.72000003 -0.070694394 8.389452e-39 346 296
0.034084801 0.72000003 -0.070694394 1.0602147e-38 347 296
0.035347197 0.72000003 -0.070694394 1.4476166e-38 348 296
-0.0050846669 0.72500002 -0.072456501 8.9365175e-39 316 297
-0.0038135003 0.72500002 -0.072456501 4.6951598e-39 317 297
-0.0025423334 0.72500002 -0.072456501 9.0333991e-39 318 297
-0.0012711667 0.72500002 -0.072456501 1.2075495e-38 319 297
0 0.72000003 -0.071956798 1.1896515e-38 320 297
0.00125714 0.71700001 -0.07165698 1.1066753e-38 321 297
0.0025142799 0.71700001 -0.07165698 7.7491413e-39 322 297
0.00376616 0.71600002 -0.071557038 4.4300986e-39 323 297
0.0050215465 0.71600002 -0.071557038 4.971374e-39 324 297
0.0062593995 0.71399999 -0.071357153 5.8933302e-39 325 297
0.0075112795 0.71399999 -0.071357153 6.536885e-39 326 297
0.0087631596 0.71399999 -0.071357153 6.4446893e-39 327 297
0.01001504 0.71399999 -0.071357153 6.076267e-39 328 297
0.011266919 0.71399999 -0.071357153 5.891517e-39 329 297
0.012518799 0.71399999 -0.071357153 5.4316164e-39 330 297
0.01377068 0.71399999 -0.071357153 5.2468664e-39 331 297
0.015001519 0.713 -0.071257219 5.6142098e-39 332 297
0.016251646 0.713 -0.071257219 5.7986011e-39 333 297
0.017501773 0.713 -0.071257219 5.7993227e-39 334 297
0.018751899 0.713 -0.071257219 5.8915198e-39 335 297
0.020002026 0.713 -0.071257219 5.7996871e-39 336 297
0.021252153 0.713 -0.071257219 5.7996871e-39 337 297
0.022502279 0.713 -0.071257219 5.799334e-39 338 297
0.023752406 0.713 -0.071257219 5.9840839e-39 339 297
0.025002534 0.713 -0.071257219 5.5252736e-39 340 297
0.026289478 0.71399999 -0.071357153 5.0642955e-39 341 297
0.02754136 0.71399999 -0.071357153 6.7299475e-39 342 297
0.028873893 0.71600002 -0.071557038 1.1155336e-38 343 297
0.030255521 0.71899998 -0.071856856 1.1253297e-38 344 297
0.031516165 0.71899998 -0.071856856 1.0239145e-38 345 297
0.032776814 0.71899998 -0.071856856 8.9437174e-39 346 297
0.03403746 0.71899998 -0.071856856 1.1340804e-38 347 297
0.035347197 0.72000003 -0.071956798 1.3831881e-38 348 297
-0.0038135003 0.72500002 -0.073727667 3.7760776e-39 317 298
-0.0025423334 0.72500002 -0.073727667 8.9415636e-39 318 298
-0.0012711667 0.72500002 -0.073727667 1.2445356e-38 319 298
0 0.72000003 -0.073219202 1.2174177e-38 320 298
0.0012624001 0.72000003 -0.073219202 1.0791243e-38 321 298
0.0025142799 0.71700001 -0.072914116 6.9190107e-39 322 298
0.00376616 0.71600002 -0.072812423 4.0609461e-39 323 298
0.0050215465 0.71600002 -0.072812423 5.8911666e-39 324 298
0.0062593995 0.71399999 -0.072609037 6.6287317e-39 325 298
0.0075112795 0.71399999 -0.072609037 6.4464886e-39 326 298
0.0087631596 0.71399999 -0.072609037 6.262096e-39 327 298
0.01001504 0.71399999 -0.072609037 6.1688255e-39 328 298
0.011266919 0.71399999 -0.072609037 5.800043e-39 329 298
0.012518799 0.71399999 -0.072609037 5.3390621e-39 330 298
0.01377068 0.71399999 -0.072609037 5.3390621e-39 331 298
0.015001519 0.713 -0.072507344 5.4305416e-39 332 298
0.016251646 0.713 -0.072507344 5.7067684e-39 333 298
0.017501773 0.713 -0.072507344 5.6156546e-39 334 298
0.018751899 0.713 -0.072507344 5.8918827e-39 335 298
0.020002026 0.713 -0.072507344 5.6170937e-39 336 298
0.021252153 0.713 -0.072507344 5.6170937e-39 337 298
0.022502279 0.713 -0.072507344 5.7996899e-39 338 298
0.023752406 0.713 -0.072507344 5.8918855e-39 339 298
0.025002534 0.713 -0.072507344 5.985879e-39 340 298
0.026289478 0.71399999 -0.072609037 5.8936834e-39 341 298
0.02754136 0.71399999 -0.072609037 7.3713498e-39 342 298
0.028873893 0.71600002 -0.072812423 1.1059535e-38 343 298
0.030255521 0.71899998 -0.073117502 1.1252221e-38 344 298
0.031516165 0.71899998 -0.073117502 1.0606851e-38 345 298
0.032776814 0.71899998 -0.073117502 9.0380808e-39 346 298
0.03403746 0.71899998 -0.073117502 1.0513211e-38 347 298
-0.0025423334 0.72500002 -0.074998833 8.7582513e-39 318 299
-0.0012676599 0.72299999 -0.074791931 1.2446075e-38 319 299
0 0.722 -0.074688487 1.2267093e-38 320 299
0.0012624001 0.72000003 -0.074481606 1.0700126e-38 321 299
0.0025212932 0.71899998 -0.074378148 7.0079595e-39 322 299
0.0037714199 0.71700001 -0.07417126 4.5186775e-39 323 299
0.0050215465 0.71600002 -0.074067809 6.629082e-39 324 299
0.0062769335 0.71600002 -0.074067809 6.9978631e-39 325 299
0.0075112795 0.71399999 -0.073860914 6.7227028e-39 326 299
0.0087631596 0.71399999 -0.073860914 6.7227028e-39 327 299
0.01001504 0.71399999 -0.073860914 6.7201874e-39 328 299
0.011266919 0.71399999 -0.073860914 6.074818e-39 329 299
0.012518799 0.71399999 -0.073860914 5.6149287e-39 330 299
0.01377068 0.71399999 -0.073860914 5.4308976e-39 331 299
0.015001519 0.713 -0.07375747 5.4319766e-39 332 299
0.016251646 0.713 -0.07375747 5.5245309e-39 333 299
0.017501773 0.713 -0.07375747 5.4330626e-39 334 299
0.018751899 0.713 -0.07375747 5.6170937e-39 335 299
0.020002026 0.713 -0.07375747 5.5259799e-39 336 299
0.021252153 0.713 -0.07375747 5.4334255e-39 337 299
0.022502279 0.713 -0.07375747 5.4334255e-39 338 299
0.023752406 0.713 -0.07375747 5.6181755e-39 339 299
0.025037598 0.71399999 -0.073860914 5.9866021e-39 340 299
0.026289478 0.71399999 -0.073860914 6.0787977e-39 341 299
0.027618507 0.71600002 -0.074067809 7.278801e-39 342 299
0.028914221 0.71700001 -0.07417126 1.0321617e-38 343 299
0.030255521 0.71899998 -0.074378148 1.0883441e-38 344 299
0.031516165 0.71899998 -0.074378148 1.0422464e-38 345 299
0.032776814 0.71899998 -0.074378148 8.3030367e-39 346 299
0.03403746 0.71899998 -0.074378148 9.5937755e-39 347 299
-0.0012676599 0.72299999 -0.076059602 1.1802139e-38 319 300
0 0.722 -0.0759544 1.2359289e-38 320 300
0.0012659066 0.722 -0.0759544 1.0884158e-38 321 300
0.0025248001 0.72000003 -0.075743996 7.7437295e-39 322 300
0.0037819401 0.71899998 -0.075638793 5.4388387e-39 323 300
0.0050285598 0.71700001 -0.075428396 6.9967911e-39 324 300
0.0062769335 0.71600002 -0.075323202 7.2730179e-39 325 300
0.0075112795 0.71399999 -0.075112797 6.7241531e-39 326 300
0.0087631596 0.71399999 -0.075112797 6.6315987e-39 327 300
0.01001504 0.71399999 -0.075112797 6.079504e-39 328 300
0.011266919 0.71399999 -0.075112797 5.5263302e-39 329 300
0.012518799 0.71399999 -0.075112797 5.4312605e-39 330 300
0.01377068 0.71399999 -0.075112797 5.5234561e-39 331 300
0.015001519 0.713 -0.075007595 5.3408627e-39 332 300
0.016251646 0.713 -0.075007595 5.2486671e-39 333 300
0.017501773 0.713 -0.075007595 5.5241778e-39 334 300
0.018751899 0.713 -0.075007595 5.6163748e-39 335 300
0.020002026 0.713 -0.075007595 5.6163776e-39 336 300
0.021252153 0.713 -0.075007595 5.6163776e-39 337 300
0.022502279 0.713 -0.075007595 5.7096452e-39 338 300
0.023752406 0.713 -0.075007595 5.8018409e-39 339 300
0.025037598 0.71399999 -0.075112797 5.8039919e-39 340 300
0.026289478 0.71399999 -0.075112797 5.6192419e-39 341 300
0.027618507 0.71600002 -0.075323202 6.8203312e-39 342 300
0.028873893 0.71600002 -0.075323202 9.8624283e-39 343 300
0.030171359 0.71700001 -0.075428396 1.0330269e-38 344 300
0.031428497 0.71700001 -0.075428396 1.0145876e-38 345 300
0.032776814 0.71899998 -0.075638793 8.9412161e-39 346 300
0 0.722 -0.077220306 1.2267096e-38 320 301
0.0012659066 0.722 -0.077220306 1.1068552e-38 321 301
0.0025248001 0.72000003 -0.0770064 8.2036314e-39 322 301
0.0037872 0.72000003 -0.0770064 5.8991008e-39 323 301
0.0050285598 0.71700001 -0.076685533 7.1819027e-39 324 301
0.0062769335 0.71600002 -0.076578587 7.1819027e-39 325 301
0.00753232 0.71600002 -0.076578587 6.9078157e-39 326 301
0.0087877065 0.71600002 -0.076578587 6.9078157e-39 327 301
0.01001504 0.71399999 -0.076364681 7.1811628e-39 328 301
0.011266919 0.71399999 -0.076364681 6.7201846e-39 329 301
0.012518799 0.71399999 -0.076364681 6.0762614e-39 330 301
0.01377068 0.71399999 -0.076364681 5.7996731e-39 331 301
0.015001519 0.713 -0.076257721 5.2493832e-39 332 301
0.016251646 0.713 -0.076257721 5.065352e-39 333 301
0.017526319 0.71399999 -0.076364681 5.3408655e-39 334 301
0.018751899 0.713 -0.076257721 5.4330626e-39 335 301
0.020002026 0.713 -0.076257721 5.616372e-39 336 301
0.021252153 0.713 -0.076257721 5.801122e-39 337 301
0.022502279 0.713 -0.076257721 5.8940337e-39 338 301
0.023752406 0.713 -0.076257721 6.0787837e-39 339 301
0.025037598 0.71399999 -0.076364681 6.1716996e-39 340 301
0.026289478 0.71399999 -0.076364681 6.079504e-39 341 301
0.027618507 0.71600002 -0.076578587 7.2787884e-39 342 301
0.028873893 0.71600002 -0.076578587 1.0320885e-38 343 301
0.03012928 0.71600002 -0.076578587 9.4083109e-39 344 301
0.031384666 0.71600002 -0.076578587 8.9473327e-39 345 301
0.0012676599 0.72299999 -0.078594916 1.0975638e-38 321 302
0.0025353199 0.72299999 -0.078594916 8.3880241e-39 322 302
0.0037872 0.72000003 -0.078268804 6.2675232e-39 323 302
0.0050425865 0.71899998 -0.078160092 7.1819027e-39 324 302
0.0062857 0.71700001 -0.077942684 7.1819027e-39 325 302
0.00753232 0.71600002 -0.077833973 6.9074626e-39 326 302
0.0087877065 0.71600002 -0.077833973 6.9074626e-39 327 302
0.01001504 0.71399999 -0.07761655 6.7227154e-39 328 302
0.011266919 0.71399999 -0.07761655 6.262096e-39 329 302
0.012518799 0.71399999 -0.07761655 5.8933148e-39 330 302
0.01377068 0.71399999 -0.07761655 5.6167279e-39 331 302
0.015022559 0.71399999 -0.07761655 5.2497391e-39 332 302
0.016274439 0.71399999 -0.07761655 4.9731536e-39 333 302
0.017526319 0.71399999 -0.07761655 5.2486671e-39 334 302
0.018778199 0.71399999 -0.07761655 5.3408627e-39 335 302
0.020030079 0.71399999 -0.07761655 5.8922386e-39 336 302
0.021281958 0.71399999 -0.07761655 6.0766299e-39 337 302
0.022533838 0.71399999 -0.07761655 5.8947526e-39 338 302
0.02378572 0.71399999 -0.07761655 5.9869482e-39 339 302
0.025002534 0.713 -0.077507854 6.4472103e-39 340 302
0.026252659 0.713 -0.077507854 6.5394059e-39 341 302
0.02754136 0.71399999 -0.07761655 7.7386918e-39 342 302
0.028793238 0.71399999 -0.07761655 1.0135777e-38 343 302
0.03012928 0.71600002 -0.077833973 8.4849239e-39 344 302
0.031384666 0.71600002 -0.077833973 7.9317501e-39 345 302
0.0025353199 0.72299999 -0.07986258 8.481663e-39 322 303
0.0038029798 0.72299999 -0.07986258 6.1767737e-39 323 303
0.0050496003 0.72000003 -0.0795312 6.8138474e-39 324 303
0.0063032326 0.71899998 -0.07942073 6.906043e-39 325 303
0.0075428397 0.71700001 -0.079199821 6.5390528e-39 326 303
0.0087877065 0.71600002 -0.079089358 6.6312484e-39 327 303
0.010043093 0.71600002 -0.079089358 6.5386898e-39 328 303
0.01129848 0.71600002 -0.079089358 6.3539399e-39 329 303
0.012518799 0.71399999 -0.078868434 6.0773488e-39 330 303
0.01377068 0.71399999 -0.078868434 5.7089264e-39 331 303
