# .PCD v.7 - Point Cloud Data file format
FIELDS x y z rgb imX imY
SIZE 4 4 4 4 4 4
TYPE F F F F F F
COUNT 1 1 1 1 1 1
WIDTH 841
HEIGHT 1
VIEWPOINT 0 0 0 1 0 0 0
POINTS 841
DATA ascii
0.01147206 0.727 -0.030592158 1.214641e-38 329 264
0.012746733 0.727 -0.030592158 1.2420103e-38 330 264
0.014021406 0.727 -0.030592158 1.2696332e-38 331 264
0.01531712 0.72799999 -0.030634239 1.2970761e-38 332 264
0.016593546 0.72799999 -0.030634239 1.2786009e-38 333 264
0.017869972 0.72799999 -0.030634239 1.2968258e-38 334 264
0.0191464 0.72799999 -0.030634239 1.3336682e-38 335 264
0.020422826 0.72799999 -0.030634239 1.4256846e-38 336 264
0.021699252 0.72799999 -0.030634239 1.3795867e-38 337 264
0.023038799 0.73000002 -0.030718399 1.4157443e-38 338 264
0.024318734 0.73000002 -0.030718399 1.2497923e-38 339 264
0.025598666 0.73000002 -0.030718399 1.2217372e-38 340 264
0.026878599 0.73000002 -0.030718399 1.1020265e-38 341 264
0.028158534 0.73000002 -0.030718399 1.0561114e-38 342 264
0.029478792 0.73100001 -0.03076048 1.1479843e-38 343 264
0.03076048 0.73100001 -0.03076048 1.0306163e-38 344 264
-0.0077427197 0.736 -0.032261331 1.4336074e-38 314 265
-0.0064522666 0.736 -0.032261331 1.5626812e-38 315 265
-0.005140773 0.73299998 -0.032129832 1.6460163e-38 316 265
-0.0038555798 0.73299998 -0.032129832 1.7474317e-38 317 265
-0.0025633732 0.73100001 -0.032042164 1.6643836e-38 318 265
-0.0012799334 0.73000002 -0.031998333 1.6367249e-38 319 265
0 0.72799999 -0.031910665 1.6738549e-38 320 265
0.0012764266 0.72799999 -0.031910665 1.7199528e-38 321 265
0.0025528532 0.72799999 -0.031910665 1.6832187e-38 322 265
0.0038240198 0.727 -0.03186683 1.6371568e-38 323 265
0.0050986931 0.727 -0.03186683 1.6461246e-38 324 265
0.0063733663 0.727 -0.03186683 1.7475038e-38 325 265
0.0076480396 0.727 -0.03186683 1.7387887e-38 326 265
0.0089227129 0.727 -0.03186683 1.8309485e-38 327 265
0.010197386 0.727 -0.03186683 1.7393642e-38 328 265
0.01147206 0.727 -0.03186683 1.7301447e-38 329 265
0.012764266 0.72799999 -0.031910665 1.7207436e-38 330 265
0.014040692 0.72799999 -0.031910665 1.6562067e-38 331 265
0.01531712 0.72799999 -0.031910665 1.6464111e-38 332 265
0.016593546 0.72799999 -0.031910665 1.5818741e-38 333 265
0.017869972 0.72799999 -0.031910665 1.7203846e-38 334 265
0.019120099 0.727 -0.03186683 1.6650673e-38 335 265
0.020394772 0.727 -0.03186683 1.6924035e-38 336 265
0.021699252 0.72799999 -0.031910665 1.7938188e-38 337 265
0.022975679 0.72799999 -0.031910665 1.747684e-38 338 265
0.024252106 0.72799999 -0.031910665 1.6001709e-38 339 265
0.025528532 0.72799999 -0.031910665 1.6089939e-38 340 265
0.026804959 0.72799999 -0.031910665 1.5444569e-38 341 265
0.028081384 0.72799999 -0.031910665 1.5166187e-38 342 265
0.029438468 0.73000002 -0.031998333 1.4889242e-38 343 265
0.030718399 0.73000002 -0.031998333 1.3605012e-38 344 265
0.031998333 0.73000002 -0.031998333 1.4158186e-38 345 265
-0.0090577193 0.73799998 -0.033642959 9.7590629e-39 313 266
-0.0077427197 0.736 -0.033551786 1.5813359e-38 314 266
-0.0064259665 0.73299998 -0.033415023 1.6734955e-38 315 266
-0.005140773 0.73299998 -0.033415023 1.6464464e-38 316 266
-0.00384506 0.73100001 -0.033323854 1.6833246e-38 317 266
-0.0025598668 0.73000002 -0.033278264 1.7196263e-38 318 266
-0.0012799334 0.73000002 -0.033278264 1.7104065e-38 319 266
0 0.72799999 -0.033187091 1.70126e-38 320 266
0.0012764266 0.72799999 -0.033187091 1.7473577e-38 321 266
0.0025493465 0.727 -0.033141505 1.7198435e-38 322 266
0.0038240198 0.727 -0.033141505 1.6921849e-38 323 266
0.0050986931 0.727 -0.033141505 1.7198429e-38 324 266
0.0063733663 0.727 -0.033141505 1.7751603e-38 325 266
0.0076270006 0.72500002 -0.033050332 1.7938871e-38 326 266
0.0088981669 0.72500002 -0.033050332 1.858424e-38 327 266
0.010197386 0.727 -0.033141505 1.7942481e-38 328 266
0.01147206 0.727 -0.033141505 1.8495654e-38 329 266
0.012746733 0.727 -0.033141505 1.812868e-38 330 266
0.014021406 0.727 -0.033141505 1.7667341e-38 331 266
0.01531712 0.72799999 -0.033187091 1.7479342e-38 332 266
0.016570752 0.727 -0.033141505 1.6833972e-38 333 266
0.017845426 0.727 -0.033141505 1.8219425e-38 334 266
0.0190675 0.72500002 -0.033050332 1.8035032e-38 335 266
0.020338668 0.72500002 -0.033050332 1.7937814e-38 336 266
0.021669446 0.727 -0.033141505 1.7845619e-38 337 266
0.022944121 0.727 -0.033141505 1.7661585e-38 338 266
0.024218792 0.727 -0.033141505 1.6554877e-38 339 266
0.025493465 0.727 -0.033141505 1.6918602e-38 340 266
0.026804959 0.72799999 -0.033187091 1.6457983e-38 341 266
0.028081384 0.72799999 -0.033187091 1.636471e-38 342 266
0.029438468 0.73000002 -0.033278264 1.6641295e-38 343 266
0.030718399 0.73000002 -0.033278264 1.5448529e-38 344 266
0.031998333 0.73000002 -0.033278264 1.4710964e-38 345 266
0.033278264 0.73000002 -0.033278264 1.3327311e-38 346 266
0.034605537 0.73100001 -0.033323854 1.1759984e-38 347 266
0.035887226 0.73100001 -0.033323854 5.7856615e-39 348 266
-0.010365707 0.73900002 -0.034984261 1.407679e-38 312 267
-0.0090577193 0.73799998 -0.034936916 1.2878606e-38 313 267
-0.0077427197 0.736 -0.034842238 1.6091388e-38 314 267
-0.0064259665 0.73299998 -0.034700219 1.6552006e-38 315 267
-0.005140773 0.73299998 -0.034700219 1.6649228e-38 316 267
-0.00384506 0.73100001 -0.034605537 1.6741423e-38 317 267
-0.0025598668 0.73000002 -0.034558199 1.7015488e-38 318 267
-0.0012799334 0.73000002 -0.034558199 1.6277564e-38 319 267
0 0.72799999 -0.034463517 1.6918981e-38 320 267
0.0012746733 0.727 -0.03441618 1.7103013e-38 321 267
0.0025493465 0.727 -0.03441618 1.7195212e-38 322 267
0.0038240198 0.727 -0.03441618 1.7564353e-38 323 267
0.0050986931 0.727 -0.03441618 1.7475038e-38 324 267
0.0063558333 0.72500002 -0.034321502 1.8397353e-38 325 267
0.0076270006 0.72500002 -0.034321502 1.7667338e-38 326 267
0.0088981669 0.72500002 -0.034321502 1.7667338e-38 327 267
0.01014128 0.72299999 -0.03422682 1.7667336e-38 328 267
0.01140894 0.72299999 -0.03422682 1.7483304e-38 329 267
0.012676599 0.72299999 -0.03422682 1.7573705e-38 330 267
0.013982833 0.72500002 -0.034321502 1.7757736e-38 331 267
0.015296079 0.727 -0.03441618 1.739003e-38 332 267
0.016525166 0.72500002 -0.034321502 1.7482225e-38 333 267
0.017747238 0.72299999 -0.03422682 1.8313061e-38 334 267
0.019014901 0.72299999 -0.03422682 1.9050626e-38 335 267
0.020282559 0.72299999 -0.03422682 1.9326491e-38 336 267
0.021609833 0.72500002 -0.034321502 1.6837209e-38 337 267
0.022880999 0.72500002 -0.034321502 1.6734955e-38 338 267
0.024152167 0.72500002 -0.034321502 1.6919348e-38 339 267
0.025423333 0.72500002 -0.034321502 1.6642041e-38 340 267
0.026768139 0.727 -0.03441618 1.6457291e-38 341 267
0.028081384 0.72799999 -0.034463517 1.6181416e-38 342 267
0.029438468 0.73000002 -0.034558199 1.6365447e-38 343 267
0.030718399 0.73000002 -0.034558199 1.5541798e-38 344 267
0.031998333 0.73000002 -0.034558199 1.5634353e-38 345 267
0.033278264 0.73000002 -0.034558199 1.5543599e-38 346 267
0.034558199 0.73000002 -0.034558199 1.4806034e-38 347 267
0.035887226 0.73100001 -0.034605537 1.3695415e-38 348 267
0.037270606 0.73299998 -0.034700219 1.5999946e-38 349 267
-0.010351679 0.73799998 -0.036230877 1.3881243e-38 312 268
-0.0090331733 0.736 -0.036132693 1.5079785e-38 313 268
-0.0077216802 0.73400003 -0.036034506 1.600099e-38 314 268
-0.0064259665 0.73299998 -0.035985414 1.6461609e-38 315 268
-0.005140773 0.73299998 -0.035985414 1.6558474e-38 316 268
-0.00384506 0.73100001 -0.035887226 1.6743224e-38 317 268
-0.0025598668 0.73000002 -0.035838135 1.7107318e-38 318 268
-0.0012764266 0.72799999 -0.035739943 1.6738177e-38 319 268
0 0.727 -0.035690852 1.7193765e-38 320 268
0.0012746733 0.727 -0.035690852 1.7193765e-38 321 268
0.0025493465 0.727 -0.035690852 1.7103742e-38 322 268
0.0038240198 0.727 -0.035690852 1.7749111e-38 323 268
0.0050846669 0.72500002 -0.035592668 1.7572273e-38 324 268
0.0063558333 0.72500002 -0.035592668 1.7756664e-38 325 268
0.0076059597 0.72299999 -0.035494477 1.7208165e-38 326 268
0.0088736191 0.72299999 -0.035494477 1.7668785e-38 327 268
0.01014128 0.72299999 -0.035494477 1.7666985e-38 328 268
0.01140894 0.72299999 -0.035494477 1.7113813e-38 329 268
0.012676599 0.72299999 -0.035494477 1.7296764e-38 330 268
0.013982833 0.72500002 -0.035592668 1.7481156e-38 331 268
0.015254001 0.72500002 -0.035592668 1.7574421e-38 332 268
0.01647958 0.72299999 -0.035494477 1.8035399e-38 333 268
0.017722692 0.722 -0.035445385 1.803935e-38 334 268
0.0189886 0.722 -0.035445385 1.8684719e-38 335 268
0.020254506 0.722 -0.035445385 1.9054579e-38 336 268
0.021520413 0.722 -0.035445385 1.7025916e-38 337 268
0.022786319 0.722 -0.035445385 1.6827138e-38 338 268
0.024085538 0.72299999 -0.035494477 1.6457995e-38 339 268
0.025353199 0.72299999 -0.035494477 1.6824265e-38 340 268
0.026694499 0.72500002 -0.035592668 1.6732068e-38 341 268
0.028042812 0.727 -0.035690852 1.6365449e-38 342 268
0.029357811 0.72799999 -0.035739943 1.6365449e-38 343 268
0.030634239 0.72799999 -0.035739943 1.5908423e-38 344 268
0.031910665 0.72799999 -0.035739943 1.6092454e-38 345 268
0.033187091 0.72799999 -0.035739943 1.5358842e-38 346 268
0.034558199 0.73000002 -0.035838135 1.5174091e-38 347 268
0.035838135 0.73000002 -0.035838135 1.397559e-38 348 268
0.037168913 0.73100001 -0.035887226 1.4620959e-38 349 268
0.038450599 0.73100001 -0.035887226 1.3727107e-38 350 268
-0.01161408 0.736 -0.037423145 1.0139021e-38 311 269
-0.010323626 0.736 -0.037423145 1.4432252e-38 312 269
-0.0090331733 0.736 -0.037423145 1.5815186e-38 313 269
-0.0077216802 0.73400003 -0.037321456 1.6184302e-38 314 269
-0.006434733 0.73400003 -0.037321456 1.6737476e-38 315 269
-0.005140773 0.73299998 -0.037270606 1.6743221e-38 316 269
-0.00384506 0.73100001 -0.037168913 1.7112004e-38 317 269
-0.0025528532 0.72799999 -0.037016369 1.6649944e-38 318 269
-0.0012764266 0.72799999 -0.037016369 1.5820543e-38 319 269
0 0.727 -0.036965527 1.6276845e-38 320 269
0.0012746733 0.727 -0.036965527 1.618465e-38 321 269
0.0025423334 0.72500002 -0.036863834 1.6279003e-38 322 269
0.0038135003 0.72500002 -0.036863834 1.6924373e-38 323 269
0.0050846669 0.72500002 -0.036863834 1.6100736e-38 324 269
0.0063295332 0.722 -0.03671129 1.619329e-38 325 269
0.0075954394 0.722 -0.03671129 1.582668e-38 326 269
0.0088736191 0.72299999 -0.036762137 1.6195102e-38 327 269
0.010127253 0.722 -0.03671129 1.6468449e-38 328 269
0.01139316 0.722 -0.03671129 1.6468449e-38 329 269
0.012676599 0.72299999 -0.036762137 1.6285131e-38 330 269
0.01394426 0.72299999 -0.036762137 1.6653912e-38 331 269
0.015211919 0.72299999 -0.036762137 1.6840822e-38 332 269
0.016456785 0.722 -0.03671129 1.8039365e-38 333 269
0.017722692 0.722 -0.03671129 1.739976e-38 334 269
0.0189886 0.722 -0.03671129 1.7860737e-38 335 269
0.020254506 0.722 -0.03671129 1.8138044e-38 336 269
0.021520413 0.722 -0.03671129 1.6386686e-38 337 269
0.022786319 0.722 -0.03671129 1.628152e-38 338 269
0.024052227 0.722 -0.03671129 1.5082978e-38 339 269
0.025353199 0.72299999 -0.036762137 1.5906977e-38 340 269
0.026620859 0.72299999 -0.036762137 1.5999172e-38 341 269
0.027965667 0.72500002 -0.036863834 1.5541085e-38 342 269
0.029317487 0.727 -0.036965527 1.5448529e-38 343 269
0.030634239 0.72799999 -0.037016369 1.5633281e-38 344 269
0.031910665 0.72799999 -0.037016369 1.5725476e-38 345 269
0.033187091 0.72799999 -0.037016369 1.5450687e-38 346 269
0.034463517 0.72799999 -0.037016369 1.5358133e-38 347 269
0.035838135 0.73000002 -0.037118066 1.4345807e-38 348 269
0.037168913 0.73100001 -0.037168913 1.3700438e-38 349 269
0.038398001 0.73000002 -0.037118066 1.3072736e-38 350 269
0.039677933 0.73000002 -0.037118066 1.9342399e-38 351 269
-0.011582521 0.73400003 -0.038608398 1.0227254e-38 311 270
-0.010295574 0.73400003 -0.038608398 1.4985058e-38 312 270
-0.0090086265 0.73400003 -0.038608398 1.5907016e-38 313 270
-0.0077216802 0.73400003 -0.038608398 1.6092107e-38 314 270
-0.0064259665 0.73299998 -0.038555797 1.6737476e-38 315 270
-0.0051267464 0.73100001 -0.038450599 1.7204565e-38 316 270
-0.0038292799 0.72799999 -0.038292799 1.7757739e-38 317 270
-0.0025528532 0.72799999 -0.038292799 1.5916347e-38 318 270
-0.0012764266 0.72799999 -0.038292799 1.4256826e-38 319 270
0 0.727 -0.038240198 1.2501501e-38 320 270
0.0012711667 0.72500002 -0.038135 1.2224554e-38 321 270
0.0025353199 0.72299999 -0.038029801 1.176645e-38 322 270
0.0038029798 0.72299999 -0.038029801 1.1674254e-38 323 270
0.0050636264 0.722 -0.0379772 1.10325e-38 324 270
0.0063295332 0.722 -0.0379772 1.1862261e-38 325 270
0.0075954394 0.722 -0.0379772 1.1593972e-38 326 270
0.0088613462 0.722 -0.0379772 1.1963113e-38 327 270
0.010127253 0.722 -0.0379772 1.2697799e-38 328 270
0.011361601 0.72000003 -0.037871998 1.2974386e-38 329 270
0.012624 0.72000003 -0.037871998 1.2792499e-38 330 270
0.013924973 0.722 -0.0379772 1.3160922e-38 331 270
0.015190879 0.722 -0.0379772 1.343967e-38 332 270
0.016456785 0.722 -0.0379772 1.3992484e-38 333 270
0.017673599 0.72000003 -0.037871998 1.3714825e-38 334 270
0.018935999 0.72000003 -0.037871998 1.380702e-38 335 270
0.020198401 0.72000003 -0.037871998 1.417543e-38 336 270
0.021460801 0.72000003 -0.037871998 1.1962735e-38 337 270
0.022723202 0.72000003 -0.037871998 1.149346e-38 338 270
0.0239856 0.72000003 -0.037871998 1.0755893e-38 339 270
0.025318133 0.722 -0.0379772 1.2040162e-38 340 270
0.026584039 0.722 -0.0379772 1.2685532e-38 341 270
0.02788852 0.72299999 -0.038029801 1.305756e-38 342 270
0.029156178 0.72299999 -0.038029801 1.3979517e-38 343 270
0.030508002 0.72500002 -0.038135 1.4991874e-38 344 270
0.031779166 0.72500002 -0.038135 1.526846e-38 345 270
0.033141505 0.727 -0.038240198 1.5543246e-38 346 270
0.03441618 0.727 -0.038240198 1.5358855e-38 347 270
0.035690852 0.727 -0.038240198 1.4621662e-38 348 270
0.037118066 0.73000002 -0.038398001 1.3699706e-38 349 270
0.038398001 0.73000002 -0.038398001 1.2974054e-38 350 270
0.039677933 0.73000002 -0.038398001 1.9243717e-38 351 270
0.040957868 0.73000002 -0.038398001 1.7610479e-38 352 270
-0.012869466 0.73400003 -0.039895348 1.5016028e-38 310 271
-0.011582521 0.73400003 -0.039895348 1.0498443e-38 311 271
-0.010295574 0.73400003 -0.039895348 1.5079406e-38 312 271
-0.0090086265 0.73400003 -0.039895348 1.5540026e-38 313 271
-0.0077111595 0.73299998 -0.039840993 1.5082622e-38 314 271
-0.006408433 0.73100001 -0.039732285 1.5451404e-38 315 271
-0.0051197335 0.73000002 -0.039677933 1.5457171e-38 316 271
-0.0038292799 0.72799999 -0.039569225 1.6655714e-38 317 271
-0.0025528532 0.72799999 -0.039569225 1.5182029e-38 318 271
-0.0012746733 0.727 -0.039514873 1.3245921e-38 319 271
0 0.72500002 -0.039406165 1.2405351e-38 320 271
0.0012711667 0.72500002 -0.039406165 1.1852178e-38 321 271
0.0025318132 0.722 -0.039243106 1.2126973e-38 322 271
0.0037977197 0.722 -0.039243106 1.2311364e-38 323 271
0.0050496003 0.72000003 -0.039134402 1.1947289e-38 324 271
0.0063120001 0.72000003 -0.039134402 1.3053636e-38 325 271
0.0075743999 0.72000003 -0.039134402 1.2417995e-38 326 271
0.0088367993 0.72000003 -0.039134402 1.3339949e-38 327 271
0.010085173 0.71899998 -0.039080046 1.3710158e-38 328 271
0.01134582 0.71899998 -0.039080046 1.3710158e-38 329 271
0.012624 0.72000003 -0.039134402 1.3710509e-38 330 271
0.0138864 0.72000003 -0.039134402 1.3802704e-38 331 271
0.0151488 0.72000003 -0.039134402 1.4081086e-38 332 271
0.0164112 0.72000003 -0.039134402 1.4173282e-38 333 271
0.017673599 0.72000003 -0.039134402 1.3525394e-38 334 271
0.018935999 0.72000003 -0.039134402 1.3433199e-38 335 271
0.020198401 0.72000003 -0.039134402 1.3893792e-38 336 271
0.021460801 0.72000003 -0.039134402 1.2418303e-38 337 271
0.022723202 0.72000003 -0.039134402 1.1947231e-38 338 271
0.0239856 0.72000003 -0.039134402 1.1117476e-38 339 271
0.025248 0.72000003 -0.039134402 1.1847142e-38 340 271
0.026584039 0.722 -0.039243106 1.2584707e-38 341 271
0.027849946 0.722 -0.039243106 1.2404997e-38 342 271
0.029156178 0.72299999 -0.039297458 1.341951e-38 343 271
0.030423839 0.72299999 -0.039297458 1.3885167e-38 344 271
0.031691495 0.72299999 -0.039297458 1.4899679e-38 345 271
0.032959159 0.72299999 -0.039297458 1.4809649e-38 346 271
0.034321502 0.72500002 -0.039406165 1.4809649e-38 347 271
0.035592668 0.72500002 -0.039406165 1.4345801e-38 348 271
0.036965527 0.727 -0.039514873 1.3423845e-38 349 271
0.038292799 0.72799999 -0.039569225 1.2878255e-38 350 271
0.039569225 0.72799999 -0.039569225 1.8962807e-38 351 271
0.040845651 0.72799999 -0.039569225 1.7240618e-38 352 271
-0.015062887 0.78100002 -0.043819305 1.6043154e-38 309 272
-0.012851933 0.73299998 -0.041126184 1.454929e-38 310 272
-0.011566739 0.73299998 -0.041126184 1.1506834e-38 311 272
-0.010281546 0.73299998 -0.041126184 1.5263788e-38 312 272
-0.0089963535 0.73299998 -0.041126184 1.4434387e-38 313 272
-0.00769012 0.73100001 -0.041013971 1.2136674e-38 314 272
-0.0063996664 0.73000002 -0.040957868 1.2136674e-38 315 272
-0.0050986931 0.727 -0.040789545 1.1682907e-38 316 272
-0.0038135003 0.72500002 -0.040677335 1.269706e-38 317 272
-0.0025353199 0.72299999 -0.040565118 1.4163205e-38 318 272
-0.0012659066 0.722 -0.040509012 1.4531988e-38 319 272
0 0.722 -0.040509012 1.5447813e-38 320 272
0.0012624001 0.72000003 -0.040396802 1.5724042e-38 321 272
0.0025248001 0.72000003 -0.040396802 1.6459088e-38 322 272
0.0037872 0.72000003 -0.040396802 1.7012262e-38 323 272
0.0050496003 0.72000003 -0.040396802 1.6833287e-38 324 272
0.0063120001 0.72000003 -0.040396802 1.7663049e-38 325 272
0.0075638802 0.71899998 -0.040340692 1.6750093e-38 326 272
0.0088245263 0.71899998 -0.040340692 1.767205e-38 327 272
0.01005712 0.71700001 -0.040228479 1.7948267e-38 328 272
0.01131426 0.71700001 -0.040228479 1.7763517e-38 329 272
0.0125714 0.71700001 -0.040228479 1.7578402e-38 330 272
0.013828539 0.71700001 -0.040228479 1.7670958e-38 331 272
0.01512776 0.71899998 -0.040340692 1.7947545e-38 332 272
0.016388407 0.71899998 -0.040340692 1.8316327e-38 333 272
0.017649053 0.71899998 -0.040340692 1.7859665e-38 334 272
0.018909698 0.71899998 -0.040340692 1.7583078e-38 335 272
0.020170346 0.71899998 -0.040340692 1.8223759e-38 336 272
0.021430992 0.71899998 -0.040340692 1.7025216e-38 337 272
0.022691639 0.71899998 -0.040340692 1.701045e-38 338 272
0.023952285 0.71899998 -0.040340692 1.6180331e-38 339 272
0.025212931 0.71899998 -0.040340692 1.5627163e-38 340 272
0.02647358 0.71899998 -0.040340692 1.5166185e-38 341 272
0.027772799 0.72000003 -0.040396802 1.3970884e-38 342 272
0.029035201 0.72000003 -0.040396802 1.3417712e-38 343 272
0.0302976 0.72000003 -0.040396802 1.1766468e-38 344 272
0.031647664 0.722 -0.040509012 1.2504033e-38 345 272
0.032959159 0.72299999 -0.040565118 1.269311e-38 346 272
0.03422682 0.72299999 -0.040565118 1.3062253e-38 347 272
0.035494477 0.72299999 -0.040565118 1.4435119e-38 348 272
0.036762137 0.72299999 -0.040565118 1.4251088e-38 349 272
0.038292799 0.72799999 -0.040845651 1.3336354e-38 350 272
0.039569225 0.72799999 -0.040845651 1.8591863e-38 351 272
0.040845651 0.72799999 -0.040845651 1.6594883e-38 352 272
-0.015062887 0.78100002 -0.045188658 1.4845687e-38 309 273
-0.013693534 0.78100002 -0.045188658 1.3715569e-38 310 273
-0.011566739 0.73299998 -0.042411376 1.1595069e-38 311 273
-0.010281546 0.73299998 -0.042411376 1.4069577e-38 312 273
-0.0089963535 0.73299998 -0.042411376 1.314798e-38 313 273
-0.0076795998 0.73000002 -0.0422378 1.3329115e-38 314 273
-0.0063733663 0.727 -0.042064216 1.4619853e-38 315 273
-0.0050846669 0.72500002 -0.041948501 1.4349379e-38 316 273
-0.0038029798 0.72299999 -0.041832779 1.4625606e-38 317 273
-0.0025248001 0.72000003 -0.041659199 1.5452502e-38 318 273
-0.0012624001 0.72000003 -0.041659199 1.5636893e-38 319 273
0 0.72000003 -0.041659199 1.6551993e-38 320 273
0.0012624001 0.72000003 -0.041659199 1.6275048e-38 321 273
0.0025248001 0.72000003 -0.041659199 1.6733838e-38 322 273
0.0037872 0.72000003 -0.041659199 1.691859e-38 323 273
0.0050425865 0.71899998 -0.041601337 1.7196265e-38 324 273
0.0063032326 0.71899998 -0.041601337 1.811858e-38 325 273
0.0075638802 0.71899998 -0.041601337 1.7483307e-38 326 273
0.0087999795 0.71700001 -0.041485619 1.8312708e-38 327 273
0.01005712 0.71700001 -0.041485619 1.8224828e-38 328 273
0.01131426 0.71700001 -0.041485619 1.8040797e-38 329 273
0.0125714 0.71700001 -0.041485619 1.8316305e-38 330 273
0.013828539 0.71700001 -0.041485619 1.8408501e-38 331 273
0.015085679 0.71700001 -0.041485619 1.859147e-38 332 273
0.016388407 0.71899998 -0.041601337 1.8868056e-38 333 273
0.017649053 0.71899998 -0.041601337 1.9055337e-38 334 273
0.018909698 0.71899998 -0.041601337 1.9331565e-38 335 273
0.020170346 0.71899998 -0.041601337 1.9329398e-38 336 273
0.021430992 0.71899998 -0.041601337 1.8038659e-38 337 273
0.022691639 0.71899998 -0.041601337 1.7844897e-38 338 273
0.023952285 0.71899998 -0.041601337 1.5816593e-38 339 273
0.0251428 0.71700001 -0.041485619 1.6365081e-38 340 273
0.02639994 0.71700001 -0.041485619 1.5904104e-38 341 273
0.027734226 0.71899998 -0.041601337 1.5629315e-38 342 273
0.028994869 0.71899998 -0.041601337 1.5352368e-38 343 273
0.030255521 0.71899998 -0.041601337 1.4158161e-38 344 273
0.03156 0.72000003 -0.041659199 1.3697541e-38 345 273
0.0328224 0.72000003 -0.041659199 1.3240526e-38 346 273
0.034084801 0.72000003 -0.041659199 1.314833e-38 347 273
0.035347197 0.72000003 -0.041659199 1.2691312e-38 348 273
0.03671129 0.722 -0.041774917 1.2691312e-38 349 273
0.038292799 0.72799999 -0.042122077 1.2784975e-38 350 273
0.039569225 0.72799999 -0.042122077 1.7486952e-38 351 273
-0.015062887 0.78100002 -0.046558015 1.3554948e-38 309 274
-0.013693534 0.78100002 -0.046558015 1.2607404e-38 310 274
-0.012308398 0.77999997 -0.046498396 1.039471e-38 311 274
-0.010940799 0.77999997 -0.046498396 1.2040185e-38 312 274
-0.0095731998 0.77999997 -0.046498396 1.2778109e-38 313 274
-0.0076480396 0.727 -0.043338891 1.4896454e-38 314 274
-0.0063558333 0.72500002 -0.043219667 1.7477932e-38 315 274
-0.0050706398 0.72299999 -0.043100435 1.7941427e-38 316 274
-0.0037977197 0.722 -0.043040827 1.8586796e-38 317 274
-0.0025248001 0.72000003 -0.042921603 1.8227727e-38 318 274
-0.0012624001 0.72000003 -0.042921603 1.6936989e-38 319 274
0 0.72000003 -0.042921603 1.7195562e-38 320 274
0.0012624001 0.72000003 -0.042921603 1.6734584e-38 321 274
0.0025248001 0.72000003 -0.042921603 1.6736012e-38 322 274
0.0037872 0.72000003 -0.042921603 1.6367231e-38 323 274
0.0050425865 0.71899998 -0.042861983 1.682535e-38 324 274
0.0063032326 0.71899998 -0.042861983 1.7102296e-38 325 274
0.0075428397 0.71700001 -0.042742759 1.6738552e-38 326 274
0.0087999795 0.71700001 -0.042742759 1.7383922e-38 327 274
0.01005712 0.71700001 -0.042742759 1.7298563e-38 328 274
0.01131426 0.71700001 -0.042742759 1.7943932e-38 329 274
0.0125714 0.71700001 -0.042742759 1.7947898e-38 330 274
0.013828539 0.71700001 -0.042742759 1.8316322e-38 331 274
0.015085679 0.71700001 -0.042742759 1.8314878e-38 332 274
0.016342819 0.71700001 -0.042742759 1.8314878e-38 333 274
0.017599959 0.71700001 -0.042742759 1.8684384e-38 334 274
0.018857099 0.71700001 -0.042742759 1.9237558e-38 335 274
0.020114239 0.71700001 -0.042742759 1.9239e-38 336 274
0.021371379 0.71700001 -0.042742759 1.8409239e-38 337 274
0.02262852 0.71700001 -0.042742759 1.7846342e-38 338 274
0.02388566 0.71700001 -0.042742759 1.5541451e-38 339 274
0.0251428 0.71700001 -0.042742759 1.6546953e-38 340 274
0.02639994 0.71700001 -0.042742759 1.6454757e-38 341 274
0.027657079 0.71700001 -0.042742759 1.5906974e-38 342 274
0.028994869 0.71899998 -0.042861983 1.6275398e-38 343 274
0.030255521 0.71899998 -0.042861983 1.5909861e-38 344 274
0.031516165 0.71899998 -0.042861983 1.5909861e-38 345 274
0.032776814 0.71899998 -0.042861983 1.4532691e-38 346 274
0.03403746 0.71899998 -0.042861983 1.3334148e-38 347 274
0.035298105 0.71899998 -0.042861983 1.0572248e-38 348 274
0.036609601 0.72000003 -0.042921603 1.0848834e-38 349 274
0.037871998 0.72000003 -0.042921603 1.1772981e-38 350 274
0.038916986 0.71600002 -0.042683143 1.6382763e-38 351 274
-0.013675999 0.77999997 -0.047865998 1.067129e-38 310 275
-0.01148784 0.72799999 -0.044674929 1.0395063e-38 311 275
-0.010211413 0.72799999 -0.044674929 1.4159949e-38 312 275
-0.0089227129 0.727 -0.044613566 1.4712764e-38 313 275
-0.0076059597 0.72299999 -0.044368099 1.5723327e-38 314 275
-0.0063382997 0.72299999 -0.044368099 1.7106263e-38 315 275
-0.0050636264 0.722 -0.044306733 1.7295341e-38 316 275
-0.0037977197 0.722 -0.044306733 1.8216939e-38 317 275
-0.0025248001 0.72000003 -0.044183999 1.8503956e-38 318 275
-0.0012624001 0.72000003 -0.044183999 1.8596151e-38 319 275
0 0.72000003 -0.044183999 1.7854238e-38 320 275
0.0012606466 0.71899998 -0.044122629 1.573338e-38 321 275
0.0025212932 0.71899998 -0.044122629 1.664202e-38 322 275
0.0037819401 0.71899998 -0.044122629 1.6826409e-38 323 275
0.0050425865 0.71899998 -0.044122629 1.6183936e-38 324 275
0.0062857 0.71700001 -0.043999899 1.6460163e-38 325 275
0.0075428397 0.71700001 -0.043999899 1.6186101e-38 326 275
0.0087877065 0.71600002 -0.043938532 1.6739274e-38 327 275
0.010043093 0.71600002 -0.043938532 1.5639767e-38 328 275
0.01129848 0.71600002 -0.043938532 1.6100385e-38 329 275
0.012553867 0.71600002 -0.043938532 1.6196554e-38 330 275
0.013809253 0.71600002 -0.043938532 1.711815e-38 331 275
0.01506464 0.71600002 -0.043938532 1.7301822e-38 332 275
0.016320027 0.71600002 -0.043938532 1.7670605e-38 333 275
0.017575413 0.71600002 -0.043938532 1.8593633e-38 334 275
0.0188308 0.71600002 -0.043938532 1.9054611e-38 335 275
0.020086186 0.71600002 -0.043938532 1.9424117e-38 336 275
0.021341572 0.71600002 -0.043938532 1.7488009e-38 337 275
0.022596961 0.71600002 -0.043938532 1.7201693e-38 338 275
0.023852346 0.71600002 -0.043938532 1.5265584e-38 339 275
0.0251428 0.71700001 -0.043999899 1.627288e-38 340 275
0.02639994 0.71700001 -0.043999899 1.6180684e-38 341 275
0.027657079 0.71700001 -0.043999899 1.5905529e-38 342 275
0.028914221 0.71700001 -0.043999899 1.5997725e-38 343 275
0.030171359 0.71700001 -0.043999899 1.5539984e-38 344 275
0.031428497 0.71700001 -0.043999899 1.5816929e-38 345 275
0.032685637 0.71700001 -0.043999899 1.5271681e-38 346 275
0.03403746 0.71899998 -0.044122629 1.4626312e-38 347 275
0.035150826 0.71600002 -0.043938532 1.2873889e-38 348 275
0.036406212 0.71600002 -0.043938532 1.1490954e-38 349 275
0.037661601 0.71600002 -0.043938532 1.0022336e-38 350 275
0.038916986 0.71600002 -0.043938532 1.4816149e-38 351 275
-0.015062887 0.78100002 -0.049296722 1.2537549e-38 309 276
-0.013640933 0.778 -0.049107358 1.0393986e-38 310 276
-0.01148784 0.72799999 -0.045951359 1.1315943e-38 311 276
-0.010211413 0.72799999 -0.045951359 1.5265217e-38 312 276
-0.0089227129 0.727 -0.045888241 1.5265217e-38 313 276
-0.0076059597 0.72299999 -0.04563576 1.5724044e-38 314 276
-0.0063295332 0.722 -0.045572639 1.6093186e-38 315 276
-0.0050636264 0.722 -0.045572639 1.6830767e-38 316 276
-0.0037872 0.72000003 -0.045446403 1.8029309e-38 317 276
-0.0025248001 0.72000003 -0.045446403 1.7950078e-38 318 276
-0.0012624001 0.72000003 -0.045446403 1.8872393e-38 319 276
0 0.72000003 -0.045446403 1.8598319e-38 320 276
0.0012606466 0.71899998 -0.045383278 1.6201233e-38 321 276
0.0025212932 0.71899998 -0.045383278 1.6459813e-38 322 276
0.0037819401 0.71899998 -0.045383278 1.6183227e-38 323 276
0.0050285598 0.71700001 -0.045257039 1.554108e-38 324 276
0.0062857 0.71700001 -0.045257039 1.554108e-38 325 276
0.00753232 0.71600002 -0.045193922 1.4625603e-38 326 276
0.0087877065 0.71600002 -0.045193922 1.4441572e-38 327 276
0.010043093 0.71600002 -0.045193922 1.3062253e-38 328 276
0.01129848 0.71600002 -0.045193922 1.3338479e-38 329 276
0.012553867 0.71600002 -0.045193922 1.3804149e-38 330 276
0.01377068 0.71399999 -0.045067675 1.4818301e-38 331 276
0.015022559 0.71399999 -0.045067675 1.5278206e-38 332 276
0.016274439 0.71399999 -0.045067675 1.6107968e-38 333 276
0.017526319 0.71399999 -0.045067675 1.7216466e-38 334 276
0.018778199 0.71399999 -0.045067675 1.7861836e-38 335 276
0.020030079 0.71399999 -0.045067675 1.804478e-38 336 276
0.021341572 0.71600002 -0.045193922 1.5555498e-38 337 276
0.022596961 0.71600002 -0.045193922 1.6093904e-38 338 276
0.023852346 0.71600002 -0.045193922 1.5356339e-38 339 276
0.025107734 0.71600002 -0.045193922 1.5997021e-38 340 276
0.026363119 0.71600002 -0.045193922 1.5997021e-38 341 276
0.027657079 0.71700001 -0.045257039 1.5721514e-38 342 276
0.028914221 0.71700001 -0.045257039 1.5721514e-38 343 276
0.030171359 0.71700001 -0.045257039 1.5446381e-38 344 276
0.031428497 0.71700001 -0.045257039 1.590772e-38 345 276
0.032685637 0.71700001 -0.045257039 1.5457184e-38 346 276
0.03389544 0.71600002 -0.045193922 1.5549379e-38 347 276
0.035150826 0.71600002 -0.045193922 1.4348673e-38 348 276
0.036406212 0.71600002 -0.045193922 1.2043781e-38 349 276
0.037661601 0.71600002 -0.045193922 9.4623295e-39 350 276
0.038916986 0.71600002 -0.045193922 1.4348338e-38 351 276
-0.0150436 0.77999997 -0.050601196 1.2447509e-38 309 277
-0.013640933 0.778 -0.050471451 1.3062265e-38 310 277
-0.0114405 0.72500002 -0.047033165 1.3062265e-38 311 277
-0.010169334 0.72500002 -0.047033165 1.5356334e-38 312 277
-0.0088736191 0.72299999 -0.046903417 1.5080107e-38 313 277
-0.0076059597 0.72299999 -0.046903417 1.5630407e-38 314 277
-0.0063295332 0.722 -0.046838548 1.5999189e-38 315 277
-0.0050636264 0.722 -0.046838548 1.6461259e-38 316 277
-0.0037872 0.72000003 -0.0467088 1.7198824e-38 317 277
-0.0025248001 0.72000003 -0.0467088 1.7386831e-38 318 277
-0.0012624001 0.72000003 -0.0467088 1.80322e-38 319 277
0 0.72000003 -0.0467088 1.7482619e-38 320 277
0.0012606466 0.71899998 -0.046643924 1.6652859e-38 321 277
0.0025212932 0.71899998 -0.046643924 1.5818762e-38 322 277
0.0037819401 0.71899998 -0.046643924 1.5080839e-38 323 277
0.0050285598 0.71700001 -0.046514176 1.324195e-38 324 277
0.0062857 0.71700001 -0.046514176 1.2043765e-38 325 277
0.00753232 0.71600002 -0.046449307 7.5463355e-39 326 277
0.0087631596 0.71399999 -0.046319555 6.9009661e-39 327 277
0.01001504 0.71399999 -0.046319555 6.1619886e-39 328 277
0.011266919 0.71399999 -0.046319555 6.6229667e-39 329 277
0.012518799 0.71399999 -0.046319555 7.7347219e-39 330 277
0.013751393 0.713 -0.046254687 8.3800913e-39 331 277
0.015001519 0.713 -0.046254687 9.3845322e-39 332 277
0.016251646 0.713 -0.046254687 1.0214653e-38 333 277
0.017501773 0.713 -0.046254687 1.0679574e-38 334 277
0.018751899 0.713 -0.046254687 1.1417139e-38 335 277
0.020030079 0.71399999 -0.046319555 1.4081086e-38 336 277
0.021281958 0.71399999 -0.046319555 1.3988889e-38 337 277
0.022533838 0.71399999 -0.046319555 1.4992959e-38 338 277
0.02378572 0.71399999 -0.046319555 1.4532341e-38 339 277
0.025107734 0.71600002 -0.046449307 1.5815871e-38 340 277
0.026363119 0.71600002 -0.046449307 1.5539283e-38 341 277
0.027618507 0.71600002 -0.046449307 1.5721158e-38 342 277
0.028873893 0.71600002 -0.046449307 1.5628962e-38 343 277
0.03012928 0.71600002 -0.046449307 1.5262e-38 344 277
0.031428497 0.71700001 -0.046514176 1.5907369e-38 345 277
0.032685637 0.71700001 -0.046514176 1.4995858e-38 346 277
0.03389544 0.71600002 -0.046449307 1.6009651e-38 347 277
0.035150826 0.71600002 -0.046449307 1.4904729e-38 348 277
0.036406212 0.71600002 -0.046449307 1.2600198e-38 349 277
0.037661601 0.71600002 -0.046449307 1.1670346e-38 350 277
0.038916986 0.71600002 -0.046449307 1.4897193e-38 351 277
-0.015005025 0.778 -0.051835544 1.2814133e-38 309 278
-0.013605867 0.77600002 -0.051702294 1.4166098e-38 310 278
-0.0114405 0.72500002 -0.048304334 1.3981348e-38 311 278
-0.01014128 0.72299999 -0.048171077 1.5724042e-38 312 278
-0.0088736191 0.72299999 -0.048171077 1.5355618e-38 313 278
-0.0075954394 0.722 -0.048104454 1.5814794e-38 314 278
-0.0063295332 0.722 -0.048104454 1.6091382e-38 315 278
-0.0050496003 0.72000003 -0.0479712 1.6186101e-38 316 278
-0.0037872 0.72000003 -0.0479712 1.664672e-38 317 278
-0.0025248001 0.72000003 -0.0479712 1.6463763e-38 318 278
-0.0012606466 0.71899998 -0.04790457 1.6463763e-38 319 278
0 0.71899998 -0.04790457 1.4995462e-38 320 278
0.00125714 0.71700001 -0.04777132 1.4534842e-38 321 278
0.0025142799 0.71700001 -0.04777132 1.3431379e-38 322 278
0.0037714199 0.71700001 -0.04777132 1.2693813e-38 323 278
0.0050285598 0.71700001 -0.04777132 1.1587469e-38 324 278
0.0062769335 0.71600002 -0.047704693 1.0573317e-38 325 278
0.0075112795 0.71399999 -0.047571439 6.3478064e-39 326 278
0.0087631596 0.71399999 -0.047571439 6.3478064e-39 327 278
0.01001504 0.71399999 -0.047571439 7.5380903e-39 328 278
0.011266919 0.71399999 -0.047571439 9.1050559e-39 329 278
0.012518799 0.71399999 -0.047571439 1.0397227e-38 330 278
0.01371282 0.71100003 -0.047371563 1.0950401e-38 331 278
0.014959441 0.71100003 -0.047371563 1.1315946e-38 332 278
0.01620606 0.71100003 -0.047371563 1.1131195e-38 333 278
0.01745268 0.71100003 -0.047371563 1.1221577e-38 334 278
0.0186993 0.71100003 -0.047371563 1.0760958e-38 335 278
0.01994592 0.71100003 -0.047371563 1.2505835e-38 336 278
0.021192541 0.71100003 -0.047371563 1.3611824e-38 337 278
0.022502279 0.713 -0.047504812 1.3614696e-38 338 278
0.02378572 0.71399999 -0.047571439 1.333847e-38 339 278
0.025037598 0.71399999 -0.047571439 1.4072066e-38 340 278
0.026289478 0.71399999 -0.047571439 1.4072066e-38 341 278
0.027618507 0.71600002 -0.047704693 1.4805318e-38 342 278
0.028873893 0.71600002 -0.047704693 1.4620568e-38 343 278
0.03012928 0.71600002 -0.047704693 1.4987577e-38 344 278
0.031296998 0.71399999 -0.047571439 1.5632946e-38 345 278
0.032548878 0.71399999 -0.047571439 1.4720363e-38 346 278
0.033800758 0.71399999 -0.047571439 1.5457929e-38 347 278
0.035150826 0.71600002 -0.047704693 1.4816502e-38 348 278
0.036406212 0.71600002 -0.047704693 1.2696362e-38 349 278
0.037556399 0.71399999 -0.047571439 1.2504425e-38 350 278
0.038808275 0.71399999 -0.047571439 1.4809316e-38 351 278
0.040172372 0.71600002 -0.047704693 1.3359387e-38 352 278
-0.015005025 0.778 -0.053199638 1.3089281e-38 309 279
-0.012764266 0.72799999 -0.049780637 1.4165026e-38 310 279
-0.0114405 0.72500002 -0.0495755 1.4533448e-38 311 279
-0.01014128 0.72299999 -0.049438741 1.5725489e-38 312 279
-0.0088736191 0.72299999 -0.049438741 1.5818043e-38 313 279
-0.0075954394 0.722 -0.04937036 1.655523e-38 314 279
-0.0063120001 0.72000003 -0.0492336 1.72006e-38 315 279
-0.0050496003 0.72000003 -0.0492336 1.6927606e-38 316 279
-0.0037872 0.72000003 -0.0492336 1.6282236e-38 317 279
-0.0025248001 0.72000003 -0.0492336 1.4893548e-38 318 279
-0.0012606466 0.71899998 -0.049165215 1.295744e-38 319 279
0 0.71600002 -0.048960082 9.1835496e-39 320 279
0.0012553866 0.71600002 -0.048960082 7.4386752e-39 321 279
0.0025107733 0.71600002 -0.048960082 3.2142424e-39 322 279
0.00376616 0.71600002 -0.048960082 4.6893626e-39 323 279
0.0050075199 0.71399999 -0.048823316 1.0023039e-38 324 279
0.0062593995 0.71399999 -0.048823316 1.1221583e-38 325 279
0.0075007593 0.713 -0.048754938 9.7504099e-39 326 279
0.0087508867 0.713 -0.048754938 9.1050405e-39 327 279
0.0099729598 0.71100003 -0.048618179 1.2505129e-38 328 279
0.01121958 0.71100003 -0.048618179 1.5824171e-38 329 279
0.0124662 0.71100003 -0.048618179 1.6375177e-38 330 279
0.01371282 0.71100003 -0.048618179 1.5914559e-38 331 279
0.014938398 0.70999998 -0.048549797 1.7023421e-38 332 279
0.016183265 0.70999998 -0.048549797 1.6654638e-38 333 279
0.017428132 0.70999998 -0.048549797 1.7020897e-38 334 279
0.018672999 0.70999998 -0.048549797 1.5637963e-38 335 279
0.019917866 0.70999998 -0.048549797 1.4532338e-38 336 279
0.021162732 0.70999998 -0.048549797 1.2411837e-38 337 279
0.022439159 0.71100003 -0.048618179 9.9265054e-39 338 279
0.023685781 0.71100003 -0.048618179 9.281136e-39 339 279
0.025002534 0.713 -0.048754938 9.0088623e-39 340 279
0.026252659 0.713 -0.048754938 1.0668384e-38 341 279
0.02754136 0.71399999 -0.048823316 1.2967536e-38 342 279
0.028793238 0.71399999 -0.048823316 1.3612906e-38 343 279
0.030045118 0.71399999 -0.048823316 1.4987223e-38 344 279
0.031296998 0.71399999 -0.048823316 1.5540397e-38 345 279
0.032548878 0.71399999 -0.048823316 1.4810761e-38 346 279
0.033800758 0.71399999 -0.048823316 1.6009304e-38 347 279
0.035052639 0.71399999 -0.048823316 1.454244e-38 348 279
0.036406212 0.71600002 -0.048960082 1.2698527e-38 349 279
0.037556399 0.71399999 -0.048823316 1.3056877e-38 350 279
0.038808275 0.71399999 -0.048823316 1.5730909e-38 351 279
0.040060159 0.71399999 -0.048823316 1.4004753e-38 352 279
0.041312039 0.71399999 -0.048823316 1.9536132e-38 353 279
-0.012764266 0.72799999 -0.051057063 1.4074628e-38 310 280
-0.01147206 0.727 -0.050986931 1.3797682e-38 311 280
-0.01014128 0.72299999 -0.050706398 1.5540745e-38 312 280
-0.0088736191 0.72299999 -0.050706398 1.5356714e-38 313 280
-0.0075743999 0.72000003 -0.050496001 1.5634e-38 314 280
-0.0063120001 0.72000003 -0.050496001 1.6187173e-38 315 280
-0.0050496003 0.72000003 -0.050496001 1.4351896e-38 316 280
-0.0037819401 0.71899998 -0.050425861 1.2784211e-38 317 280
-0.0025212932 0.71899998 -0.050425861 9.9286733e-39 318 280
-0.00125714 0.71700001 -0.0502856 7.8081738e-39 319 280
0 0.71600002 -0.050215468 8.7261798e-39 320 280
0.00125188 0.71399999 -0.050075196 8.8183768e-39 321 280
0.0025037599 0.71399999 -0.050075196 1.0105897e-38 322 280
0.0037556398 0.71399999 -0.050075196 1.1765058e-38 323 280
0.0050075199 0.71399999 -0.050075196 1.4160707e-38 324 280
0.0062506334 0.713 -0.050005067 1.4068511e-38 325 280
0.0074797203 0.71100003 -0.049864799 1.1496387e-38 326 280
0.0087263398 0.71100003 -0.049864799 1.0205648e-38 327 280
0.0099589331 0.70999998 -0.049794663 1.2139236e-38 328 280
0.011203799 0.70999998 -0.049794663 1.3983148e-38 329 280
0.012448666 0.70999998 -0.049794663 1.5448535e-38 330 280
0.013693533 0.70999998 -0.049794663 1.5079754e-38 331 280
0.014938398 0.70999998 -0.049794663 1.535777e-38 332 280
0.016183265 0.70999998 -0.049794663 1.5818388e-38 333 280
0.017428132 0.70999998 -0.049794663 1.5818038e-38 334 280
0.018672999 0.70999998 -0.049794663 1.6002789e-38 335 280
0.019917866 0.70999998 -0.049794663 1.5360302e-38 336 280
0.021162732 0.70999998 -0.049794663 1.3885172e-38 337 280
0.022407599 0.70999998 -0.049794663 1.2683745e-38 338 280
0.023685781 0.71100003 -0.049864799 1.2314604e-38 339 280
0.024932399 0.71100003 -0.049864799 1.1851127e-38 340 280
0.026252659 0.713 -0.050005067 1.2127714e-38 341 280
0.027502786 0.713 -0.050005067 1.1122937e-38 342 280
0.028752912 0.713 -0.050005067 1.2321479e-38 343 280
0.030003037 0.713 -0.050005067 1.2693856e-38 344 280
0.031253166 0.713 -0.050005067 1.3800202e-38 345 280
0.032503292 0.713 -0.050005067 1.4354468e-38 346 280
0.033800758 0.71399999 -0.050075196 1.4999838e-38 347 280
0.035052639 0.71399999 -0.050075196 1.4543885e-38 348 280
0.036406212 0.71600002 -0.050215468 1.2791808e-38 349 280
0.037556399 0.71399999 -0.050075196 1.3057596e-38 350 280
0.038808275 0.71399999 -0.050075196 1.5731628e-38 351 280
0.040060159 0.71399999 -0.050075196 1.4374615e-38 352 280
0.041312039 0.71399999 -0.050075196 1.935282e-38 353 280
0.042563915 0.71399999 -0.050075196 1.7427164e-38 354 280
-0.012676599 0.72299999 -0.051974058 1.3985666e-38 310 281
-0.01140894 0.72299999 -0.051974058 1.2787123e-38 311 281
-0.01014128 0.72299999 -0.051974058 1.4802459e-38 312 281
-0.0088736191 0.72299999 -0.051974058 1.4341483e-38 313 281
-0.0075743999 0.72000003 -0.051758397 1.3604274e-38 314 281
-0.0063120001 0.72000003 -0.051758397 1.2681957e-38 315 281
-0.0050425865 0.71899998 -0.05168651 8.5432347e-39 316 281
-0.0037819401 0.71899998 -0.05168651 5.3264588e-39 317 281
-0.0025212932 0.71899998 -0.05168651 2.2958874e-39 318 281
-0.0012553866 0.71600002 -0.051470853 4.9688404e-39 319 281
0 0.71600002 -0.051470853 1.1309472e-38 320 281
0.00125188 0.71399999 -0.05132708 1.389095e-38 321 281
0.0025037599 0.71399999 -0.05132708 1.5824527e-38 322 281
0.0037556398 0.71399999 -0.05132708 1.5824527e-38 323 281
0.0050005065 0.713 -0.051255193 1.6646725e-38 324 281
0.0062330998 0.71100003 -0.051111419 1.4802813e-38 325 281
0.0074797203 0.71100003 -0.051111419 1.158315e-38 326 281
0.0087140659 0.70999998 -0.051039528 9.094228e-39 327 281
0.0099308798 0.708 -0.050895758 1.0572961e-38 328 281
0.01117224 0.708 -0.050895758 1.2325038e-38 329 281
0.0124136 0.708 -0.050895758 1.4155645e-38 330 281
0.013693533 0.70999998 -0.051039528 1.4340036e-38 331 281
0.014938398 0.70999998 -0.051039528 1.4156727e-38 332 281
0.016183265 0.70999998 -0.051039528 1.3971977e-38 333 281
0.017428132 0.70999998 -0.051039528 1.4062731e-38 334 281
0.018672999 0.70999998 -0.051039528 1.4339318e-38 335 281
0.019917866 0.70999998 -0.051039528 1.4342186e-38 336 281
0.021162732 0.70999998 -0.051039528 1.4342186e-38 337 281
0.022407599 0.70999998 -0.051039528 1.4618406e-38 338 281
0.023652466 0.70999998 -0.051039528 1.4986828e-38 339 281
0.024932399 0.71100003 -0.051111419 1.4523333e-38 340 281
0.026179021 0.71100003 -0.051111419 1.3601377e-38 341 281
0.027425639 0.71100003 -0.051111419 8.4546348e-39 342 281
0.028752912 0.713 -0.051255193 8.1780479e-39 343 281
0.030003037 0.713 -0.051255193 9.4763677e-39 344 281
0.031253166 0.713 -0.051255193 1.2057845e-38 345 281
0.032503292 0.713 -0.051255193 1.4355916e-38 346 281
0.033753417 0.713 -0.051255193 1.490909e-38 347 281
0.035052639 0.71399999 -0.05132708 1.435914e-38 348 281
0.036406212 0.71600002 -0.051470853 1.2791813e-38 349 281
0.037661601 0.71600002 -0.051470853 1.3242715e-38 350 281
0.038808275 0.71399999 -0.05132708 1.5731638e-38 351 281
0.040060159 0.71399999 -0.05132708 1.4558293e-38 352 281
0.041312039 0.71399999 -0.05132708 1.9352467e-38 353 281
0.042563915 0.71399999 -0.05132708 1.751936e-38 354 281
-0.012676599 0.72299999 -0.053241719 1.3435013e-38 310 282
-0.01140894 0.72299999 -0.053241719 1.2052079e-38 311 282
-0.01014128 0.72299999 -0.053241719 1.3608958e-38 312 282
-0.0088613462 0.722 -0.053168077 1.3055784e-38 313 282
-0.0075743999 0.72000003 -0.053020801 1.2135273e-38 314 282
-0.0063120001 0.72000003 -0.053020801 9.7381878e-39 315 282
-0.0050425865 0.71899998 -0.05294716 5.3315063e-39 316 282
-0.0037819401 0.71899998 -0.05294716 5.147115e-39 317 282
-0.0025142799 0.71700001 -0.052799881 9.2865661e-39 318 282
-0.0012553866 0.71600002 -0.052726239 1.1038283e-38 319 282
0 0.71600002 -0.052726239 1.3517841e-38 320 282
0.00125188 0.71399999 -0.052578956 1.4531635e-38 321 282
0.0025002533 0.713 -0.052505318 1.4989722e-38 322 282
0.0037503797 0.713 -0.052505318 1.4897526e-38 323 282
0.0050005065 0.713 -0.052505318 1.5264141e-38 324 282
0.0062330998 0.71100003 -0.052358042 1.3789371e-38 325 282
0.0074691991 0.70999998 -0.052284397 1.1855428e-38 326 282
0.008689519 0.708 -0.052137118 9.1835496e-39 327 282
0.0099308798 0.708 -0.052137118 9.8343238e-39 328 282
0.01117224 0.708 -0.052137118 1.2323604e-38 329 282
0.0124136 0.708 -0.052137118 1.4064173e-38 330 282
0.013693533 0.70999998 -0.052284397 1.4156727e-38 331 282
0.014938398 0.70999998 -0.052284397 1.3972348e-38 332 282
0.01613768 0.708 -0.052137118 1.4064544e-38 333 282
0.017379038 0.708 -0.052137118 1.4064188e-38 334 282
0.0186204 0.708 -0.052137118 1.4248939e-38 335 282
0.019917866 0.70999998 -0.052284397 1.4342911e-38 336 282
0.021162732 0.70999998 -0.052284397 1.4250356e-38 337 282
0.022407599 0.70999998 -0.052284397 1.4065585e-38 338 282
0.023652466 0.70999998 -0.052284397 1.4157781e-38 339 282
0.024897331 0.70999998 -0.052284397 1.3973034e-38 340 282
0.026142199 0.70999998 -0.052284397 1.3696087e-38 341 282
0.027425639 0.71100003 -0.052358042 1.2134176e-38 342 282
0.028672259 0.71100003 -0.052358042 1.0935632e-38 343 282
0.029918881 0.71100003 -0.052358042 9.5599286e-39 344 282
0.031165501 0.71100003 -0.052358042 1.0758472e-38 345 282
0.032503292 0.713 -0.052505318 1.2149352e-38 346 282
0.033753417 0.713 -0.052505318 1.3993264e-38 347 282
0.035052639 0.71399999 -0.052578956 1.4728293e-38 348 282
0.036406212 0.71600002 -0.052726239 1.2792185e-38 349 282
0.037661601 0.71600002 -0.052726239 1.3335275e-38 350 282
0.038916986 0.71600002 -0.052726239 1.5640524e-38 351 282
0.040172372 0.71600002 -0.052726239 1.4467179e-38 352 282
0.041427758 0.71600002 -0.052726239 1.9353189e-38 353 282
0.042683143 0.71600002 -0.052726239 1.7427883e-38 354 282
-0.012676599 0.72299999 -0.054509375 1.3065142e-38 310 283
-0.01140894 0.72299999 -0.054509375 1.1681849e-38 311 283
-0.01014128 0.72299999 -0.054509375 1.3331643e-38 312 283
-0.0088613462 0.722 -0.054433983 1.2594077e-38 313 283
-0.0075743999 0.72000003 -0.054283202 1.0296046e-38 314 283
-0.0063032326 0.71899998 -0.054207806 7.2550252e-39 315 283
-0.0050425865 0.71899998 -0.054207806 4.4142373e-39 316 283
-0.0037819401 0.71899998 -0.054207806 6.5347368e-39 317 283
-0.0025142799 0.71700001 -0.054057021 1.1955926e-38 318 283
-0.0012553866 0.71600002 -0.053981625 1.3061915e-38 319 283
0 0.71600002 -0.053981625 1.3883381e-38 320 283
0.00125188 0.71399999 -0.053830836 1.3883381e-38 321 283
0.0025002533 0.713 -0.053755447 1.424999e-38 322 283
0.0037503797 0.713 -0.053755447 1.4342186e-38 323 283
0.0050005065 0.713 -0.053755447 1.4157796e-38 324 283
0.0062243328 0.70999998 -0.053529263 1.3604624e-38 325 283
0.0074691991 0.70999998 -0.053529263 1.2408614e-38 326 283
0.008689519 0.708 -0.053378478 9.0917239e-39 327 283
0.0099308798 0.708 -0.053378478 9.2840255e-39 328 283
0.01117224 0.708 -0.053378478 1.1588918e-38 329 283
0.0124136 0.708 -0.053378478 1.3971962e-38 330 283
0.013654959 0.708 -0.053378478 1.4248547e-38 331 283
0.014938398 0.70999998 -0.053529263 1.3789734e-38 332 283
0.01613768 0.708 -0.053378478 1.4250712e-38 333 283
0.017379038 0.708 -0.053378478 1.425251e-38 334 283
0.0186204 0.708 -0.053378478 1.4713488e-38 335 283
0.019917866 0.70999998 -0.053529263 1.4255381e-38 336 283
0.021162732 0.70999998 -0.053529263 1.3794403e-38 337 283
0.022407599 0.70999998 -0.053529263 1.3883004e-38 338 283
0.023652466 0.70999998 -0.053529263 1.3514223e-38 339 283
0.024897331 0.70999998 -0.053529263 1.3421675e-38 340 283
0.026142199 0.70999998 -0.053529263 1.3606425e-38 341 283
0.027387066 0.70999998 -0.053529263 1.3604987e-38 342 283
0.028631933 0.70999998 -0.053529263 1.3236563e-38 343 283
0.029918881 0.71100003 -0.053604662 1.0383923e-38 344 283
0.031165501 0.71100003 -0.053604662 9.0931841e-39 345 283
0.032503292 0.713 -0.053755447 9.8473349e-39 346 283
0.033753417 0.713 -0.053755447 1.2613563e-38 347 283
0.035052639 0.71399999 -0.053830836 1.463862e-38 348 283
0.036406212 0.71600002 -0.053981625 1.2886904e-38 349 283
0.037661601 0.71600002 -0.053981625 1.3336354e-38 350 283
0.038916986 0.71600002 -0.053981625 1.5272462e-38 351 283
0.040172372 0.71600002 -0.053981625 1.4282066e-38 352 283
0.041427758 0.71600002 -0.053981625 1.9444663e-38 353 283
0.042683143 0.71600002 -0.053981625 1.7520076e-38 354 283
-0.012676599 0.72299999 -0.055777039 1.2972944e-38 310 284
-0.01140894 0.72299999 -0.055777039 1.1958792e-38 311 284
-0.01014128 0.72299999 -0.055777039 1.3423841e-38 312 284
-0.0088613462 0.722 -0.055699892 1.2317854e-38 313 284
-0.0075743999 0.72000003 -0.055545598 8.553317e-39 314 284
-0.0063032326 0.71899998 -0.055468451 6.0636763e-39 315 284
-0.0050425865 0.71899998 -0.055468451 5.4262228e-39 316 284
-0.0037819401 0.71899998 -0.055468451 7.362331e-39 317 284
-0.0025142799 0.71700001 -0.055314157 1.1583898e-38 318 284
-0.0012553866 0.71600002 -0.055237014 1.2229268e-38 319 284
0 0.71600002 -0.055237014 1.3055063e-38 320 284
0.00125188 0.71399999 -0.05508272 1.3055063e-38 321 284
0.0025002533 0.713 -0.055005573 1.3331996e-38 322 284
0.0037503797 0.713 -0.055005573 1.3424191e-38 323 284
0.0050005065 0.713 -0.055005573 1.3606069e-38 324 284
0.0062243328 0.70999998 -0.054774132 1.3421677e-38 325 284
0.0074691991 0.70999998 -0.054774132 1.2685923e-38 326 284
0.008689519 0.708 -0.054619838 8.9080557e-39 327 284
0.0099308798 0.708 -0.054619838 7.998323e-39 328 284
0.01117224 0.708 -0.054619838 1.0856387e-38 329 284
0.0124136 0.708 -0.054619838 1.379009e-38 330 284
0.013654959 0.708 -0.054619838 1.4158514e-38 331 284
0.01489632 0.708 -0.054619838 1.351746e-38 332 284
0.01613768 0.708 -0.054619838 1.370221e-38 333 284
0.017379038 0.708 -0.054619838 1.3979167e-38 334 284
0.0186204 0.708 -0.054619838 1.4347589e-38 335 284
0.01986176 0.708 -0.054619838 1.4348675e-38 336 284
