# .PCD v.7 - Point Cloud Data file format
FIELDS x y z rgb imX imY
SIZE 4 4 4 4 4 4
TYPE F F F F F F
COUNT 1 1 1 1 1 1
WIDTH 856
HEIGHT 1
VIEWPOINT 0 0 0 1 0 0 0
POINTS 856
DATA ascii
-0.030406307 0.75400001 0.040982414 1.8442366e-38 297 209
-0.029007144 0.75199997 0.040873703 1.8443442e-38 298 209
-0.027615 0.75 0.040764999 1.8627833e-38 299 209
-0.0263 0.75 0.040764999 1.8628912e-38 300 209
-0.024951685 0.74900001 0.040710647 1.8721108e-38 301 209
-0.02363844 0.74900001 0.040710647 1.8628556e-38 302 209
-0.022325192 0.74900001 0.040710647 1.8721111e-38 303 209
-0.020955838 0.74699998 0.040601939 1.8904067e-38 304 209
-0.019646099 0.74699998 0.040601939 1.8904067e-38 305 209
-0.018336359 0.74699998 0.040601939 1.9087735e-38 306 209
-0.017003827 0.74599999 0.040547583 1.9087735e-38 307 209
-0.015653761 0.74400002 0.040438879 1.9179931e-38 308 209
-0.014310705 0.74199998 0.040330172 1.9179931e-38 309 209
-0.0129922 0.741 0.04027582 1.9088814e-38 310 209
-0.01169298 0.741 0.04027582 1.9088814e-38 311 209
-0.010365707 0.73900002 0.040167112 1.9089537e-38 312 209
-0.0090699932 0.73900002 0.040167112 1.9089537e-38 313 209
-0.0077742799 0.73900002 0.040167112 1.8721476e-38 314 209
-0.0064785667 0.73900002 0.040167112 1.8444531e-38 315 209
-0.0051828534 0.73900002 0.040167112 1.7889192e-38 316 209
-0.00388714 0.73900002 0.040167112 1.5215519e-38 317 209
-0.0025914267 0.73900002 0.040167112 1.1990121e-38 318 209
-0.0012957134 0.73900002 0.040167112 1.0238404e-38 319 209
0 0.73900002 0.040167112 1.0148391e-38 320 209
0.0012992199 0.741 0.04027582 1.0056196e-38 321 209
0.0025984398 0.741 0.04027582 9.6874187e-39 322 209
0.0038976599 0.741 0.04027582 9.7796143e-39 323 209
0.0051968796 0.741 0.04027582 1.0605411e-38 324 209
0.0065048663 0.74199998 0.040330172 9.683453e-39 325 209
0.0077953199 0.741 0.04027582 8.6682039e-39 326 209
0.0090945391 0.741 0.04027582 7.3774651e-39 327 209
0.010393759 0.741 0.04027582 6.9132429e-39 328 209
0.01169298 0.741 0.04027582 5.8994511e-39 329 209
0.0129922 0.741 0.04027582 4.978564e-39 330 209
0.014310705 0.74199998 0.040330172 5.2551509e-39 331 209
0.015695838 0.74599999 0.040547583 1.4660897e-38 332 209
0.017026618 0.74699998 0.040601939 1.8902255e-38 333 209
0.018336359 0.74699998 0.040601939 1.8259066e-38 334 209
0.019646099 0.74699998 0.040601939 1.733747e-38 335 209
0.020955838 0.74699998 0.040601939 1.6693912e-38 336 209
0.022325192 0.74900001 0.040710647 1.6601717e-38 337 209
0.02363844 0.74900001 0.040710647 1.6234012e-38 338 209
0.024951685 0.74900001 0.040710647 1.6234012e-38 339 209
0.0263 0.75 0.040764999 1.6050341e-38 340 209
0.027688639 0.75199997 0.040873703 1.5958145e-38 341 209
0.029007144 0.75199997 0.040873703 1.6141095e-38 342 209
0.030406307 0.75400001 0.040982414 1.5956703e-38 343 209
0.03172832 0.75400001 0.040982414 1.5771589e-38 344 209
0.033050332 0.75400001 0.040982414 1.5310611e-38 345 209
0.034417931 0.755 0.041036766 1.4299347e-38 346 209
0.035741698 0.755 0.041036766 1.5405693e-38 347 209
-0.037016369 0.75400001 0.039660402 1.3647805e-38 292 210
-0.035694357 0.75400001 0.039660402 1.8257586e-38 293 210
-0.034372345 0.75400001 0.039660402 1.8994818e-38 294 210
-0.033050332 0.75400001 0.039660402 1.8626394e-38 295 210
-0.03172832 0.75400001 0.039660402 1.8351249e-38 296 210
-0.030325651 0.75199997 0.039555199 1.8351249e-38 297 210
-0.029007144 0.75199997 0.039555199 1.8627833e-38 298 210
-0.027615 0.75 0.039449997 1.8812224e-38 299 210
-0.0263 0.75 0.039449997 1.8812222e-38 300 210
-0.024951685 0.74900001 0.0393974 1.8904417e-38 301 210
-0.02363844 0.74900001 0.0393974 1.8721108e-38 302 210
-0.022265578 0.74699998 0.039292198 1.8721108e-38 303 210
-0.020955838 0.74699998 0.039292198 1.8904067e-38 304 210
-0.019619798 0.74599999 0.039239597 1.8996263e-38 305 210
-0.01826272 0.74400002 0.039134398 1.8720755e-38 306 210
-0.016958239 0.74400002 0.039134398 1.8904786e-38 307 210
-0.015611678 0.74199998 0.0390292 1.8905142e-38 308 210
-0.01429142 0.741 0.038976599 1.8905142e-38 309 210
-0.0129922 0.741 0.038976599 1.8996619e-38 310 210
-0.01169298 0.741 0.038976599 1.8996619e-38 311 210
-0.010365707 0.73900002 0.0388714 1.8996984e-38 312 210
-0.0090699932 0.73900002 0.0388714 1.8904789e-38 313 210
-0.0077742799 0.73900002 0.0388714 1.8261221e-38 314 210
-0.0064785667 0.73900002 0.0388714 1.807647e-38 315 210
-0.0051828534 0.73900002 0.0388714 1.927285e-38 316 210
-0.00388714 0.73900002 0.0388714 1.9549436e-38 317 210
-0.0025914267 0.73900002 0.0388714 1.9732386e-38 318 210
-0.0012957134 0.73900002 0.0388714 1.964019e-38 319 210
0 0.73900002 0.0388714 1.9456888e-38 320 210
0.0012957134 0.73900002 0.0388714 1.9364692e-38 321 210
0.0025984398 0.741 0.038976599 1.9548723e-38 322 210
0.0038976599 0.741 0.038976599 1.9732754e-38 323 210
0.0051968796 0.741 0.038976599 1.9731667e-38 324 210
0.0064960998 0.741 0.038976599 1.945472e-38 325 210
0.0077953199 0.741 0.038976599 1.8994455e-38 326 210
0.0090945391 0.741 0.038976599 1.8625312e-38 327 210
0.010393759 0.741 0.038976599 1.8439476e-38 328 210
0.01169298 0.741 0.038976599 1.751752e-38 329 210
0.0129922 0.741 0.038976599 1.5491017e-38 330 210
0.014310705 0.74199998 0.0390292 1.37393e-38 331 210
0.015695838 0.74599999 0.039239597 1.6327261e-38 332 210
0.017003827 0.74599999 0.039239597 1.8539598e-38 333 210
0.018311813 0.74599999 0.039239597 1.8259422e-38 334 210
0.019619798 0.74599999 0.039239597 1.7614053e-38 335 210
0.020955838 0.74699998 0.039292198 1.7061972e-38 336 210
0.022265578 0.74699998 0.039292198 1.6877581e-38 337 210
0.023575317 0.74699998 0.039292198 1.6418405e-38 338 210
0.024951685 0.74900001 0.0393974 1.6326208e-38 339 210
0.026264934 0.74900001 0.0393974 1.6326208e-38 340 210
0.027688639 0.75199997 0.039555199 1.6234012e-38 341 210
0.029007144 0.75199997 0.039555199 1.6417324e-38 342 210
0.030325651 0.75199997 0.039555199 1.6141097e-38 343 210
0.03172832 0.75400001 0.039660402 1.6140016e-38 344 210
0.033050332 0.75400001 0.039660402 1.5771233e-38 345 210
0.034372345 0.75400001 0.039660402 1.4299347e-38 346 210
0.035694357 0.75400001 0.039660402 1.4760324e-38 347 210
0.037016369 0.75400001 0.039660402 1.7431127e-38 348 210
-0.041036766 0.755 0.038389232 1.0147672e-38 289 211
-0.038338386 0.75400001 0.038338386 5.0051831e-39 291 211
-0.037016369 0.75400001 0.038338386 1.8158922e-38 292 211
-0.035694357 0.75400001 0.038338386 2.0279423e-38 293 211
-0.034372345 0.75400001 0.038338386 1.8717158e-38 294 211
-0.033050332 0.75400001 0.038338386 1.8717158e-38 295 211
-0.031644158 0.75199997 0.038236689 1.8534564e-38 296 211
-0.030244999 0.75 0.038135 1.8718957e-38 297 211
-0.028929999 0.75 0.038135 1.8536361e-38 298 211
-0.027578179 0.74900001 0.038084153 1.8628556e-38 299 211
-0.026194798 0.74699998 0.03798246 1.890442e-38 300 211
-0.024885058 0.74699998 0.03798246 1.8996616e-38 301 211
-0.023575317 0.74699998 0.03798246 1.8997337e-38 302 211
-0.022235774 0.74599999 0.03793161 1.8905142e-38 303 211
-0.020927785 0.74599999 0.03793161 1.8904789e-38 304 211
-0.019567199 0.74400002 0.037829921 1.8904789e-38 305 211
-0.01826272 0.74400002 0.037829921 1.8813672e-38 306 211
-0.016958239 0.74400002 0.037829921 1.8813672e-38 307 211
-0.01559064 0.741 0.037677377 1.8996981e-38 308 211
-0.01429142 0.741 0.037677377 1.8904786e-38 309 211
-0.0129922 0.741 0.037677377 1.8905142e-38 310 211
-0.01169298 0.741 0.037677377 1.8997337e-38 311 211
-0.010365707 0.73900002 0.037575684 1.8996987e-38 312 211
-0.0090699932 0.73900002 0.037575684 1.8351618e-38 313 211
-0.0077742799 0.73900002 0.037575684 1.7800609e-38 314 211
-0.0064785667 0.73900002 0.037575684 1.8445978e-38 315 211
-0.0051828534 0.73900002 0.037575684 1.9456172e-38 316 211
-0.0038818798 0.73799998 0.037524838 1.9271779e-38 317 211
-0.0025879198 0.73799998 0.037524838 1.8904791e-38 318 211
-0.0012939599 0.73799998 0.037524838 1.8720402e-38 319 211
0 0.73900002 0.037575684 1.8628206e-38 320 211
0.0012957134 0.73900002 0.037575684 1.8720402e-38 321 211
0.0025984398 0.741 0.037677377 1.9088461e-38 322 211
0.0038976599 0.741 0.037677377 1.890407e-38 323 211
0.0051968796 0.741 0.037677377 1.9179215e-38 324 211
0.0064960998 0.741 0.037677377 1.927141e-38 325 211
0.0077953199 0.741 0.037677377 1.8721108e-38 326 211
0.0090945391 0.741 0.037677377 1.8997335e-38 327 211
0.010365707 0.73900002 0.037575684 1.9179928e-38 328 211
0.01166142 0.73900002 0.037575684 1.8811506e-38 329 211
0.0129922 0.741 0.037677377 1.7798793e-38 330 211
0.01429142 0.741 0.037677377 1.7061226e-38 331 211
0.015653761 0.74400002 0.037829921 1.7615846e-38 332 211
0.016958239 0.74400002 0.037829921 1.8076823e-38 333 211
0.01826272 0.74400002 0.037829921 1.7891363e-38 334 211
0.019619798 0.74599999 0.03793161 1.7798808e-38 335 211
0.020927785 0.74599999 0.03793161 1.7430034e-38 336 211
0.022265578 0.74699998 0.03798246 1.7153089e-38 337 211
0.023575317 0.74699998 0.03798246 1.6602438e-38 338 211
0.024885058 0.74699998 0.03798246 1.6325852e-38 339 211
0.026264934 0.74900001 0.038084153 1.6326208e-38 340 211
0.027615 0.75 0.038135 1.6326208e-38 341 211
0.029007144 0.75199997 0.038236689 1.6234012e-38 342 211
0.030325651 0.75199997 0.038236689 1.6141816e-38 343 211
0.03172832 0.75400001 0.038338386 1.5773751e-38 344 211
0.033050332 0.75400001 0.038338386 1.5497163e-38 345 211
0.034372345 0.75400001 0.038338386 1.4668128e-38 346 211
0.035694357 0.75400001 0.038338386 1.4483737e-38 347 211
0.037016369 0.75400001 0.038338386 1.5773767e-38 348 211
0.038338386 0.75400001 0.038338386 1.715706e-38 349 211
-0.042360533 0.755 0.037065465 1.2278949e-38 288 212
-0.041036766 0.755 0.037065465 1.9533974e-39 289 212
-0.039712999 0.755 0.037065465 6.1879e-39 290 212
-0.038338386 0.75400001 0.037016369 1.3656106e-38 291 212
-0.037016369 0.75400001 0.037016369 1.9177047e-38 292 212
-0.035694357 0.75400001 0.037016369 1.9545471e-38 293 212
-0.034281172 0.75199997 0.036918186 1.8533845e-38 294 212
-0.032962665 0.75199997 0.036918186 1.8626041e-38 295 212
-0.03156 0.75 0.036819998 1.8443448e-38 296 212
-0.030244999 0.75 0.036819998 1.8719676e-38 297 212
-0.028891427 0.74900001 0.036770906 1.8811871e-38 298 212
-0.027504537 0.74699998 0.036672719 1.8904067e-38 299 212
-0.026159734 0.74599999 0.036623627 1.8720755e-38 300 212
-0.024851745 0.74599999 0.036623627 1.8996981e-38 301 212
-0.023543758 0.74599999 0.036623627 1.8904789e-38 302 212
-0.022176161 0.74400002 0.036525439 1.8996984e-38 303 212
-0.02087168 0.74400002 0.036525439 1.9088461e-38 304 212
-0.0195146 0.74199998 0.036427252 1.9088461e-38 305 212
-0.018213626 0.74199998 0.036427252 1.8996984e-38 306 212
-0.016912652 0.74199998 0.036427252 1.8996984e-38 307 212
-0.01559064 0.741 0.036378156 1.8996984e-38 308 212
-0.01429142 0.741 0.036378156 1.8996984e-38 309 212
-0.0129922 0.741 0.036378156 1.8904789e-38 310 212
-0.01166142 0.73900002 0.036279973 1.8904789e-38 311 212
-0.010365707 0.73900002 0.036279973 1.8538177e-38 312 212
-0.0090699932 0.73900002 0.036279973 1.7985004e-38 313 212
-0.0077742799 0.73900002 0.036279973 1.8260512e-38 314 212
-0.0064697997 0.73799998 0.036230877 1.8998436e-38 315 212
-0.0051758396 0.73799998 0.036230877 1.945689e-38 316 212
-0.0038818798 0.73799998 0.036230877 1.8903717e-38 317 212
-0.0025879198 0.73799998 0.036230877 1.8444531e-38 318 212
-0.0012939599 0.73799998 0.036230877 1.82605e-38 319 212
0 0.73799998 0.036230877 1.81683e-38 320 212
0.0012957134 0.73900002 0.036279973 1.81683e-38 321 212
0.0025914267 0.73900002 0.036279973 1.8168303e-38 322 212
0.00388714 0.73900002 0.036279973 1.8076107e-38 323 212
0.0051828534 0.73900002 0.036279973 1.8259419e-38 324 212
0.0064785667 0.73900002 0.036279973 1.8351615e-38 325 212
0.0077953199 0.741 0.036378156 1.8167947e-38 326 212
0.0090699932 0.73900002 0.036279973 1.8167947e-38 327 212
0.010365707 0.73900002 0.036279973 1.8076473e-38 328 212
0.01166142 0.73900002 0.036279973 1.816867e-38 329 212
0.0129922 0.741 0.036378156 1.798536e-38 330 212
0.01429142 0.741 0.036378156 1.7892805e-38 331 212
0.015611678 0.74199998 0.036427252 1.7615499e-38 332 212
0.016912652 0.74199998 0.036427252 1.7615499e-38 333 212
0.01826272 0.74400002 0.036525439 1.7615496e-38 334 212
0.019567199 0.74400002 0.036525439 1.7707692e-38 335 212
0.020927785 0.74599999 0.036623627 1.7247442e-38 336 212
0.022235774 0.74599999 0.036623627 1.6970495e-38 337 212
0.023543758 0.74599999 0.036623627 1.6786467e-38 338 212
0.024885058 0.74699998 0.036672719 1.6601717e-38 339 212
0.026194798 0.74699998 0.036672719 1.6602073e-38 340 212
0.027578179 0.74900001 0.036770906 1.6602073e-38 341 212
0.028929999 0.75 0.036819998 1.6601347e-38 342 212
0.030244999 0.75 0.036819998 1.6509151e-38 343 212
0.03172832 0.75400001 0.037016369 1.5957417e-38 344 212
0.033050332 0.75400001 0.037016369 1.5681188e-38 345 212
0.034372345 0.75400001 0.037016369 1.5312053e-38 346 212
0.035694357 0.75400001 0.037016369 1.4482294e-38 347 212
0.037016369 0.75400001 0.037016369 1.4484466e-38 348 212
0.038338386 0.75400001 0.037016369 1.58674e-38 349 212
-0.042360533 0.755 0.035741698 7.5751603e-39 288 213
-0.041036766 0.755 0.035741698 1.4758475e-41 289 213
-0.039712999 0.755 0.035741698 9.596609e-39 290 213
-0.038389232 0.755 0.035741698 1.7248845e-38 291 213
-0.037016369 0.75400001 0.035694357 1.8901905e-38 292 213
-0.035694357 0.75400001 0.035694357 1.8717155e-38 293 213
-0.034281172 0.75199997 0.035599679 1.8257982e-38 294 213
-0.032874998 0.75 0.035505001 1.8534208e-38 295 213
-0.03156 0.75 0.035505001 1.8627124e-38 296 213
-0.030204674 0.74900001 0.03545766 1.8811874e-38 297 213
-0.028814279 0.74699998 0.035362978 1.8628562e-38 298 213
-0.027467718 0.74599999 0.03531564 1.8628562e-38 299 213
-0.026089599 0.74400002 0.035220962 1.8904789e-38 300 213
-0.02478512 0.74400002 0.035220962 1.8996984e-38 301 213
-0.023480639 0.74400002 0.035220962 1.8996268e-38 302 213
-0.022116546 0.74199998 0.03512628 1.9088464e-38 303 213
-0.020815572 0.74199998 0.03512628 1.9088108e-38 304 213
-0.0195146 0.74199998 0.03512628 1.9088108e-38 305 213
-0.018213626 0.74199998 0.03512628 1.8813319e-38 306 213
-0.016912652 0.74199998 0.03512628 1.8813319e-38 307 213
-0.01554856 0.73900002 0.034984261 1.8813319e-38 308 213
-0.014252847 0.73900002 0.034984261 1.8813319e-38 309 213
-0.012957133 0.73900002 0.034984261 1.8996634e-38 310 213
-0.01166142 0.73900002 0.034984261 1.8627853e-38 311 213
-0.010351679 0.73799998 0.034936916 1.7709859e-38 312 213
-0.0090577193 0.73799998 0.034936916 1.7894609e-38 313 213
-0.0077637597 0.73799998 0.034936916 1.9088834e-38 314 213
-0.0064697997 0.73799998 0.034936916 1.9365421e-38 315 213
-0.0051758396 0.73799998 0.034936916 1.8906235e-38 316 213
-0.0038818798 0.73799998 0.034936916 1.8537811e-38 317 213
-0.0025879198 0.73799998 0.034936916 1.8353061e-38 318 213
-0.0012939599 0.73799998 0.034936916 1.816867e-38 319 213
0 0.73799998 0.034936916 1.8167949e-38 320 213
0.0012939599 0.73799998 0.034936916 1.8167949e-38 321 213
0.0025879198 0.73799998 0.034936916 1.8167949e-38 322 213
0.0038818798 0.73799998 0.034936916 1.8260147e-38 323 213
0.0051758396 0.73799998 0.034936916 1.8260147e-38 324 213
0.0064785667 0.73900002 0.034984261 1.8167949e-38 325 213
0.0077742799 0.73900002 0.034984261 1.7892086e-38 326 213
0.0090699932 0.73900002 0.034984261 1.7892086e-38 327 213
0.010365707 0.73900002 0.034984261 1.7799893e-38 328 213
0.01166142 0.73900002 0.034984261 1.7799893e-38 329 213
0.012957133 0.73900002 0.034984261 1.7431831e-38 330 213
0.01429142 0.741 0.035078939 1.7431831e-38 331 213
0.01559064 0.741 0.035078939 1.7431831e-38 332 213
0.016889861 0.741 0.035078939 1.7431831e-38 333 213
0.018213626 0.74199998 0.03512628 1.7615143e-38 334 213
0.0195146 0.74199998 0.03512628 1.7522947e-38 335 213
0.02087168 0.74400002 0.035220962 1.7247442e-38 336 213
0.022235774 0.74599999 0.03531564 1.7062691e-38 337 213
0.023543758 0.74599999 0.03531564 1.6694631e-38 338 213
0.024851745 0.74599999 0.03531564 1.6602436e-38 339 213
0.026194798 0.74699998 0.035362978 1.6601717e-38 340 213
0.027578179 0.74900001 0.03545766 1.6601717e-38 341 213
0.028891427 0.74900001 0.03545766 1.6326925e-38 342 213
0.030244999 0.75 0.035505001 1.6234728e-38 343 213
0.031644158 0.75199997 0.035599679 1.5867022e-38 344 213
0.032962665 0.75199997 0.035599679 1.5498241e-38 345 213
0.034281172 0.75199997 0.035599679 1.5403892e-38 346 213
0.035694357 0.75400001 0.035694357 1.4851077e-38 347 213
0.037016369 0.75400001 0.035694357 1.3471753e-38 348 213
0.038338386 0.75400001 0.035694357 1.4394069e-38 349 213
0.039660402 0.75400001 0.035694357 1.7522247e-38 350 213
-0.043800019 0.75700003 0.034509107 8.3055535e-39 287 214
-0.042472746 0.75700003 0.034509107 1.5960986e-39 288 214
-0.041036766 0.755 0.034417931 1.4113486e-39 289 214
-0.039712999 0.755 0.034417931 1.5293302e-38 290 214
-0.038389232 0.755 0.034417931 2.1009432e-38 291 214
-0.037016369 0.75400001 0.034372345 1.8534561e-38 292 214
-0.035694357 0.75400001 0.034372345 1.8258335e-38 293 214
-0.034372345 0.75400001 0.034372345 1.8350896e-38 294 214
-0.032874998 0.75 0.034189999 1.8443092e-38 295 214
-0.031517919 0.74900001 0.034144413 1.8260502e-38 296 214
-0.030204674 0.74900001 0.034144413 1.8444534e-38 297 214
-0.028814279 0.74699998 0.034053236 1.8536732e-38 298 214
-0.027394081 0.74400002 0.033916477 1.8628928e-38 299 214
-0.026089599 0.74400002 0.033916477 1.8628928e-38 300 214
-0.024718491 0.74199998 0.033825304 1.8721123e-38 301 214
-0.023417519 0.74199998 0.033825304 1.8904436e-38 302 214
-0.022116546 0.74199998 0.033825304 1.8996631e-38 303 214
-0.020815572 0.74199998 0.033825304 1.8996631e-38 304 214
-0.0195146 0.74199998 0.033825304 1.8996631e-38 305 214
-0.018189078 0.741 0.033779722 1.8813319e-38 306 214
-0.016889861 0.741 0.033779722 1.8905516e-38 307 214
-0.01554856 0.73900002 0.033688545 1.8813319e-38 308 214
-0.014252847 0.73900002 0.033688545 1.8813319e-38 309 214
-0.012939599 0.73799998 0.033642959 1.8628575e-38 310 214
-0.011645639 0.73799998 0.033642959 1.8536379e-38 311 214
-0.010351679 0.73799998 0.033642959 1.8168317e-38 312 214
-0.0090577193 0.73799998 0.033642959 1.8721489e-38 313 214
-0.0077637597 0.73799998 0.033642959 1.8906238e-38 314 214
-0.0064697997 0.73799998 0.033642959 1.8998433e-38 315 214
-0.0051758396 0.73799998 0.033642959 1.8905516e-38 316 214
-0.0038818798 0.73799998 0.033642959 1.8721123e-38 317 214
-0.0025879198 0.73799998 0.033642959 1.8536376e-38 318 214
-0.0012939599 0.73799998 0.033642959 1.8260149e-38 319 214
0 0.73799998 0.033642959 1.8167949e-38 320 214
0.0012939599 0.73799998 0.033642959 1.8167949e-38 321 214
0.0025809065 0.736 0.033551786 1.8076473e-38 322 214
0.0038713599 0.736 0.033551786 1.8076473e-38 323 214
0.0051758396 0.73799998 0.033642959 1.8168673e-38 324 214
0.0064697997 0.73799998 0.033642959 1.8076476e-38 325 214
0.0077637597 0.73799998 0.033642959 1.8075401e-38 326 214
0.0090699932 0.73900002 0.033688545 1.7983205e-38 327 214
0.010365707 0.73900002 0.033688545 1.770806e-38 328 214
0.01166142 0.73900002 0.033688545 1.7524029e-38 329 214
0.012957133 0.73900002 0.033688545 1.7432549e-38 330 214
0.01429142 0.741 0.033779722 1.7340354e-38 331 214
0.01559064 0.741 0.033779722 1.7340351e-38 332 214
0.016889861 0.741 0.033779722 1.7248155e-38 333 214
0.018189078 0.741 0.033779722 1.7339635e-38 334 214
0.0195146 0.74199998 0.033825304 1.7247438e-38 335 214
0.02087168 0.74400002 0.033916477 1.7430754e-38 336 214
0.022176161 0.74400002 0.033916477 1.7154168e-38 337 214
0.023480639 0.74400002 0.033916477 1.6970495e-38 338 214
0.024851745 0.74599999 0.034007654 1.6694268e-38 339 214
0.026159734 0.74599999 0.034007654 1.6602792e-38 340 214
0.027504537 0.74699998 0.034053236 1.6418402e-38 341 214
0.028814279 0.74699998 0.034053236 1.6602066e-38 342 214
0.030204674 0.74900001 0.034144413 1.650987e-38 343 214
0.03156 0.75 0.034189999 1.6325479e-38 344 214
0.032962665 0.75199997 0.034281172 1.5956698e-38 345 214
0.034281172 0.75199997 0.034281172 1.5680112e-38 346 214
0.035599679 0.75199997 0.034281172 1.5403527e-38 347 214
0.036918186 0.75199997 0.034281172 1.402348e-38 348 214
0.038338386 0.75400001 0.034372345 1.402348e-38 349 214
0.039660402 0.75400001 0.034372345 1.549754e-38 350 214
-0.045127295 0.75700003 0.033181835 1.6236122e-38 286 215
-0.043800019 0.75700003 0.033181835 1.5766584e-39 287 215
-0.042472746 0.75700003 0.033181835 1.959821e-39 288 215
-0.041036766 0.755 0.033094164 1.0441819e-38 289 215
-0.039712999 0.755 0.033094164 1.6598103e-38 290 215
-0.038338386 0.75400001 0.033050332 1.7981037e-38 291 215
-0.037016369 0.75400001 0.033050332 1.8443092e-38 292 215
-0.035599679 0.75199997 0.032962665 1.8443092e-38 293 215
-0.034144413 0.74900001 0.032831166 1.8167947e-38 294 215
-0.032831166 0.74900001 0.032831166 1.8260502e-38 295 215
-0.031433757 0.74699998 0.032743499 1.8260147e-38 296 215
-0.030124018 0.74699998 0.032743499 1.8536732e-38 297 215
-0.028775707 0.74599999 0.032699663 1.8535657e-38 298 215
-0.027394081 0.74400002 0.032612 1.8627853e-38 299 215
-0.026019465 0.74199998 0.032524332 1.8628575e-38 300 215
-0.024718491 0.74199998 0.032524332 1.8628575e-38 301 215
-0.023417519 0.74199998 0.032524332 1.8904085e-38 302 215
-0.022116546 0.74199998 0.032524332 1.8996281e-38 303 215
-0.020787518 0.741 0.032480497 1.8812966e-38 304 215
-0.019488299 0.741 0.032480497 1.8905163e-38 305 215
-0.018189078 0.741 0.032480497 1.8905163e-38 306 215
-0.016889861 0.741 0.032480497 1.8905163e-38 307 215
-0.015527519 0.73799998 0.032348998 1.8812969e-38 308 215
-0.014233559 0.73799998 0.032348998 1.8720773e-38 309 215
-0.012904533 0.736 0.032261331 1.8536026e-38 310 215
-0.01161408 0.736 0.032261331 1.8259799e-38 311 215
-0.010323626 0.736 0.032261331 1.8167599e-38 312 215
-0.0090331733 0.736 0.032261331 1.8997361e-38 313 215
-0.0077427197 0.736 0.032261331 1.8631093e-38 314 215
-0.0064522666 0.736 0.032261331 1.8631093e-38 315 215
-0.005161813 0.736 0.032261331 1.8813686e-38 316 215
-0.0038713599 0.736 0.032261331 1.8445262e-38 317 215
-0.0025809065 0.736 0.032261331 1.8260515e-38 318 215
-0.0012904532 0.736 0.032261331 1.8076122e-38 319 215
0 0.736 0.032261331 1.8167596e-38 320 215
0.0012904532 0.736 0.032261331 1.8167596e-38 321 215
0.0025809065 0.736 0.032261331 1.8076476e-38 322 215
0.0038713599 0.736 0.032261331 1.8168673e-38 323 215
0.005161813 0.736 0.032261331 1.7892807e-38 324 215
0.0064522666 0.736 0.032261331 1.7892807e-38 325 215
0.0077637597 0.73799998 0.032348998 1.7799537e-38 326 215
0.0090699932 0.73900002 0.032392833 1.7799537e-38 327 215
0.010365707 0.73900002 0.032392833 1.7707341e-38 328 215
0.01166142 0.73900002 0.032392833 1.7707341e-38 329 215
0.012957133 0.73900002 0.032392833 1.7524029e-38 330 215
0.01429142 0.741 0.032480497 1.7431833e-38 331 215
0.01559064 0.741 0.032480497 1.7431831e-38 332 215
0.016889861 0.741 0.032480497 1.7339635e-38 333 215
0.018189078 0.741 0.032480497 1.7339635e-38 334 215
0.0195146 0.74199998 0.032524332 1.7247438e-38 335 215
0.020815572 0.74199998 0.032524332 1.7247086e-38 336 215
0.022176161 0.74400002 0.032612 1.7062694e-38 337 215
0.023480639 0.74400002 0.032612 1.6786467e-38 338 215
0.02478512 0.74400002 0.032612 1.6693912e-38 339 215
0.026159734 0.74599999 0.032699663 1.6693912e-38 340 215
0.027467718 0.74599999 0.032699663 1.6693912e-38 341 215
0.028814279 0.74699998 0.032743499 1.6418402e-38 342 215
0.030124018 0.74699998 0.032743499 1.6418402e-38 343 215
0.031517919 0.74900001 0.032831166 1.6234009e-38 344 215
0.032874998 0.75 0.032874998 1.6049618e-38 345 215
0.034281172 0.75199997 0.032962665 1.5955983e-38 346 215
0.035505001 0.75 0.032874998 1.5586842e-38 347 215
0.036819998 0.75 0.032874998 1.4575214e-38 348 215
0.038135 0.75 0.032874998 1.3837649e-38 349 215
0.039449997 0.75 0.032874998 1.347175e-38 350 215
-0.046577301 0.759 0.031938717 1.6965463e-38 285 216
-0.045246519 0.759 0.031938717 1.0256707e-38 286 216
-0.043800019 0.75700003 0.031854562 5.7391216e-39 287 216
-0.042472746 0.75700003 0.031854562 9.4179532e-39 288 216
-0.041036766 0.755 0.031770397 1.5503224e-38 289 216
-0.039660402 0.75400001 0.03172832 1.751971e-38 290 216
-0.038338386 0.75400001 0.03172832 1.7703741e-38 291 216
-0.037016369 0.75400001 0.03172832 1.8075757e-38 292 216
-0.03545766 0.74900001 0.031517919 1.8260149e-38 293 216
-0.034144413 0.74900001 0.031517919 1.8260147e-38 294 216
-0.032831166 0.74900001 0.031517919 1.8260147e-38 295 216
-0.031433757 0.74699998 0.031433757 1.8260868e-38 296 216
-0.03008369 0.74599999 0.031391677 1.8260868e-38 297 216
-0.02869856 0.74400002 0.031307522 1.8444183e-38 298 216
-0.027320439 0.74199998 0.031223357 1.8536379e-38 299 216
-0.026019465 0.74199998 0.031223357 1.8444906e-38 300 216
-0.024718491 0.74199998 0.031223357 1.8444906e-38 301 216
-0.023417519 0.74199998 0.031223357 1.872077e-38 302 216
-0.022116546 0.74199998 0.031223357 1.8905163e-38 303 216
-0.020787518 0.741 0.03118128 1.8905163e-38 304 216
-0.019488299 0.741 0.03118128 1.8905163e-38 305 216
-0.018189078 0.741 0.03118128 1.8905166e-38 306 216
-0.016889861 0.741 0.03118128 1.8812969e-38 307 216
-0.015527519 0.73799998 0.031055039 1.8537105e-38 308 216
-0.014233559 0.73799998 0.031055039 1.8352714e-38 309 216
-0.012904533 0.736 0.030970879 1.7984651e-38 310 216
-0.011582521 0.73400003 0.030886721 1.8169401e-38 311 216
-0.010295574 0.73400003 0.030886721 1.8538177e-38 312 216
-0.0090086265 0.73400003 0.030886721 1.8722569e-38 313 216
-0.0077216802 0.73400003 0.030886721 1.8815121e-38 314 216
-0.006434733 0.73400003 0.030886721 1.8722925e-38 315 216
-0.0051477868 0.73400003 0.030886721 1.8721489e-38 316 216
-0.0038713599 0.736 0.030970879 1.8445262e-38 317 216
-0.0025809065 0.736 0.030970879 1.8260512e-38 318 216
-0.0012904532 0.736 0.030970879 1.8168317e-38 319 216
0 0.736 0.030970879 1.8167596e-38 320 216
0.0012904532 0.736 0.030970879 1.8259793e-38 321 216
0.0025809065 0.736 0.030970879 1.7985004e-38 322 216
0.0038713599 0.736 0.030970879 1.7985004e-38 323 216
0.005161813 0.736 0.030970879 1.7892091e-38 324 216
0.0064522666 0.736 0.030970879 1.7892091e-38 325 216
0.0077427197 0.736 0.030970879 1.770806e-38 326 216
0.0090577193 0.73799998 0.031055039 1.770806e-38 327 216
0.010351679 0.73799998 0.031055039 1.7799537e-38 328 216
0.01166142 0.73900002 0.03109712 1.7707341e-38 329 216
0.012957133 0.73900002 0.03109712 1.7707697e-38 330 216
0.014252847 0.73900002 0.03109712 1.7615143e-38 331 216
0.01559064 0.741 0.03118128 1.7798811e-38 332 216
0.016889861 0.741 0.03118128 1.761478e-38 333 216
0.018189078 0.741 0.03118128 1.7339991e-38 334 216
0.019488299 0.741 0.03118128 1.7339991e-38 335 216
0.020815572 0.74199998 0.031223357 1.7430754e-38 336 216
0.022116546 0.74199998 0.031223357 1.7154168e-38 337 216
0.023417519 0.74199998 0.031223357 1.6970498e-38 338 216
0.024718491 0.74199998 0.031223357 1.6786467e-38 339 216
0.026089599 0.74400002 0.031307522 1.6602436e-38 340 216
0.027394081 0.74400002 0.031307522 1.6602436e-38 341 216
0.028775707 0.74599999 0.031391677 1.6326925e-38 342 216
0.03008369 0.74599999 0.031391677 1.6326925e-38 343 216
0.031433757 0.74699998 0.031433757 1.6234009e-38 344 216
0.032831166 0.74900001 0.031517919 1.6049618e-38 345 216
0.034144413 0.74900001 0.031517919 1.5773032e-38 346 216
0.03545766 0.74900001 0.031517919 1.5404248e-38 347 216
0.036770906 0.74900001 0.031517919 1.5034743e-38 348 216
0.038084153 0.74900001 0.031517919 1.4573765e-38 349 216
0.0393974 0.74900001 0.031517919 1.3378108e-38 350 216
-0.048034318 0.76099998 0.030688593 1.9550885e-38 284 217
-0.046700031 0.76099998 0.030688593 1.4111342e-38 285 217
-0.045246519 0.759 0.030607941 5.3761166e-39 286 217
-0.043800019 0.75700003 0.030527288 1.0815659e-38 287 217
-0.042472746 0.75700003 0.030527288 1.7428934e-38 288 217
-0.041036766 0.755 0.030446632 1.8259054e-38 289 217
-0.039660402 0.75400001 0.030406307 1.7796293e-38 290 217
-0.038338386 0.75400001 0.030406307 1.7335315e-38 291 217
-0.036918186 0.75199997 0.030325651 1.7524026e-38 292 217
-0.03545766 0.74900001 0.030204674 1.7892807e-38 293 217
-0.034144413 0.74900001 0.030204674 1.8167949e-38 294 217
-0.032743499 0.74699998 0.030124018 1.8260147e-38 295 217
-0.031391677 0.74599999 0.03008369 1.8260868e-38 296 217
-0.03008369 0.74599999 0.03008369 1.8260868e-38 297 217
-0.02869856 0.74400002 0.030003037 1.8443827e-38 298 217
-0.027320439 0.74199998 0.029922385 1.8536023e-38 299 217
-0.026019465 0.74199998 0.029922385 1.8353067e-38 300 217
-0.024685178 0.741 0.029882059 1.8537458e-38 301 217
-0.023385961 0.741 0.029882059 1.8812966e-38 302 217
-0.02208674 0.741 0.029882059 1.8905163e-38 303 217
-0.020787518 0.741 0.029882059 1.8813689e-38 304 217
-0.019488299 0.741 0.029882059 1.8813689e-38 305 217
-0.018189078 0.741 0.029882059 1.8721136e-38 306 217
-0.016889861 0.741 0.029882059 1.8721136e-38 307 217
-0.015527519 0.73799998 0.029761078 1.8169045e-38 308 217
-0.014233559 0.73799998 0.029761078 1.7892458e-38 309 217
-0.012904533 0.736 0.029680425 1.7524395e-38 310 217
-0.011582521 0.73400003 0.029599773 1.8169764e-38 311 217
-0.010295574 0.73400003 0.029599773 1.9090995e-38 312 217
-0.0090086265 0.73400003 0.029599773 1.8630377e-38 313 217
-0.0077216802 0.73400003 0.029599773 1.853925e-38 314 217
-0.006434733 0.73400003 0.029599773 1.8355218e-38 315 217
-0.0051477868 0.73400003 0.029599773 1.8445978e-38 316 217
-0.0038608401 0.73400003 0.029599773 1.8169752e-38 317 217
-0.0025738934 0.73400003 0.029599773 1.8260512e-38 318 217
-0.0012869467 0.73400003 0.029599773 1.8168317e-38 319 217
0 0.73400003 0.029599773 1.807612e-38 320 217
0.0012869467 0.73400003 0.029599773 1.807612e-38 321 217
0.0025738934 0.73400003 0.029599773 1.789281e-38 322 217
0.0038608401 0.73400003 0.029599773 1.789281e-38 323 217
0.0051477868 0.73400003 0.029599773 1.7892091e-38 324 217
0.006434733 0.73400003 0.029599773 1.7892091e-38 325 217
0.0077427197 0.736 0.029680425 1.7708063e-38 326 217
0.0090577193 0.73799998 0.029761078 1.7524032e-38 327 217
0.010351679 0.73799998 0.029761078 1.7707344e-38 328 217
0.011645639 0.73799998 0.029761078 1.7707344e-38 329 217
0.012957133 0.73900002 0.029801406 1.7615143e-38 330 217
0.014252847 0.73900002 0.029801406 1.7615143e-38 331 217
0.01554856 0.73900002 0.029801406 1.761478e-38 332 217
0.016844273 0.73900002 0.029801406 1.761478e-38 333 217
0.018189078 0.741 0.029882059 1.7339991e-38 334 217
0.019488299 0.741 0.029882059 1.7339991e-38 335 217
0.020815572 0.74199998 0.029922385 1.7154886e-38 336 217
0.022116546 0.74199998 0.029922385 1.7062691e-38 337 217
0.023417519 0.74199998 0.029922385 1.6786467e-38 338 217
0.024718491 0.74199998 0.029922385 1.6786467e-38 339 217
0.026089599 0.74400002 0.030003037 1.6235811e-38 340 217
0.027394081 0.74400002 0.030003037 1.6143616e-38 341 217
0.028775707 0.74599999 0.03008369 1.605106e-38 342 217
0.03008369 0.74599999 0.03008369 1.605106e-38 343 217
0.031433757 0.74699998 0.030124018 1.5958864e-38 344 217
0.032743499 0.74699998 0.030124018 1.5774473e-38 345 217
0.034144413 0.74900001 0.030204674 1.5773751e-38 346 217
0.03545766 0.74900001 0.030204674 1.5313132e-38 347 217
0.036770906 0.74900001 0.030204674 1.5219134e-38 348 217
0.038084153 0.74900001 0.030204674 1.4850353e-38 349 217
0.0393974 0.74900001 0.030204674 1.3837649e-38 350 217
0.040873703 0.75199997 0.030325651 1.4943636e-38 351 217
-0.048034318 0.76099998 0.029354304 1.7987508e-38 284 218
-0.046700031 0.76099998 0.029354304 1.3746151e-38 285 218
-0.045246519 0.759 0.029277159 1.218025e-38 286 218
-0.043800019 0.75700003 0.029200014 1.5499652e-38 287 218
-0.042472746 0.75700003 0.029200014 1.7152353e-38 288 218
-0.041036766 0.755 0.029122867 1.7521135e-38 289 218
-0.039660402 0.75400001 0.029084291 1.7428231e-38 290 218
-0.038236689 0.75199997 0.029007144 1.7152003e-38 291 218
-0.036770906 0.74900001 0.028891427 1.6970495e-38 292 218
-0.03545766 0.74900001 0.028891427 1.7431833e-38 293 218
-0.034053236 0.74699998 0.028814279 1.8259793e-38 294 218
-0.032743499 0.74699998 0.028814279 1.8444183e-38 295 218
-0.031391677 0.74599999 0.028775707 1.8259793e-38 296 218
-0.03008369 0.74599999 0.028775707 1.8444183e-38 297 218
-0.02869856 0.74400002 0.02869856 1.8443827e-38 298 218
-0.027320439 0.74199998 0.028621411 1.8443827e-38 299 218
-0.026019465 0.74199998 0.028621411 1.8628577e-38 300 218
-0.024685178 0.741 0.028582839 1.8720773e-38 301 218
-0.023385961 0.741 0.028582839 1.8813689e-38 302 218
-0.02208674 0.741 0.028582839 1.8813689e-38 303 218
-0.020787518 0.741 0.028582839 1.8813692e-38 304 218
-0.019488299 0.741 0.028582839 1.8905887e-38 305 218
-0.018139986 0.73900002 0.028505694 1.8813336e-38 306 218
-0.016844273 0.73900002 0.028505694 1.8444912e-38 307 218
-0.015527519 0.73799998 0.028467119 1.7709509e-38 308 218
-0.014156413 0.73400003 0.028312827 1.7617313e-38 309 218
-0.012869466 0.73400003 0.028312827 1.7891382e-38 310 218
-0.011582521 0.73400003 0.028312827 1.8444556e-38 311 218
-0.010295574 0.73400003 0.028312827 1.8262316e-38 312 218
-0.0090086265 0.73400003 0.028312827 1.8077566e-38 313 218
-0.0077216802 0.73400003 0.028312827 1.8445981e-38 314 218
-0.006434733 0.73400003 0.028312827 1.8445981e-38 315 218
-0.0051477868 0.73400003 0.028312827 1.8354864e-38 316 218
-0.0038608401 0.73400003 0.028312827 1.8077919e-38 317 218
-0.0025738934 0.73400003 0.028312827 1.8077556e-38 318 218
-0.0012869467 0.73400003 0.028312827 1.798536e-38 319 218
0 0.73400003 0.028312827 1.7985004e-38 320 218
0.0012869467 0.73400003 0.028312827 1.7892807e-38 321 218
0.0025738934 0.73400003 0.028312827 1.7800256e-38 322 218
0.0038608401 0.73400003 0.028312827 1.7800256e-38 323 218
0.0051477868 0.73400003 0.028312827 1.7800259e-38 324 218
0.006434733 0.73400003 0.028312827 1.7800259e-38 325 218
0.0077216802 0.73400003 0.028312827 1.7800259e-38 326 218
0.0090331733 0.736 0.028389972 1.7524032e-38 327 218
0.010323626 0.736 0.028389972 1.7524032e-38 328 218
0.011645639 0.73799998 0.028467119 1.7524032e-38 329 218
0.012939599 0.73799998 0.028467119 1.7431833e-38 330 218
0.014252847 0.73900002 0.028505694 1.7431833e-38 331 218
0.01554856 0.73900002 0.028505694 1.7431831e-38 332 218
0.016844273 0.73900002 0.028505694 1.7339635e-38 333 218
0.018139986 0.73900002 0.028505694 1.7339638e-38 334 218
0.0194357 0.73900002 0.028505694 1.7247442e-38 335 218
0.020787518 0.741 0.028582839 1.6971221e-38 336 218
0.02208674 0.741 0.028582839 1.6694634e-38 337 218
0.023417519 0.74199998 0.028621411 1.6602083e-38 338 218
0.024718491 0.74199998 0.028621411 1.6602083e-38 339 218
0.026019465 0.74199998 0.028621411 1.6051786e-38 340 218
0.027394081 0.74400002 0.02869856 1.5867753e-38 341 218
0.02869856 0.74400002 0.02869856 1.595887e-38 342 218
0.03008369 0.74599999 0.028775707 1.6051065e-38 343 218
0.031391677 0.74599999 0.028775707 1.6234375e-38 344 218
0.032699663 0.74599999 0.028775707 1.5958148e-38 345 218
0.034053236 0.74699998 0.028814279 1.5774473e-38 346 218
0.03545766 0.74900001 0.028891427 1.540569e-38 347 218
0.036770906 0.74900001 0.028891427 1.5312053e-38 348 218
0.038084153 0.74900001 0.028891427 1.494327e-38 349 218
0.0393974 0.74900001 0.028891427 1.4298267e-38 350 218
0.040873703 0.75199997 0.029007144 1.3837649e-38 351 218
0.04219221 0.75199997 0.029007144 1.5406413e-38 352 218
-0.048034318 0.76099998 0.028020019 1.816543e-38 284 219
-0.046700031 0.76099998 0.028020019 1.5860538e-38 285 219
-0.045246519 0.759 0.027946379 1.6138201e-38 286 219
-0.043800019 0.75700003 0.027872739 1.6875766e-38 287 219
-0.042360533 0.755 0.027799098 1.6692463e-38 288 219
-0.041036766 0.755 0.027799098 1.6785018e-38 289 219
-0.039660402 0.75400001 0.027762281 1.6969413e-38 290 219
-0.038236689 0.75199997 0.027688639 1.7153444e-38 291 219
-0.036770906 0.74900001 0.027578179 1.7061975e-38 292 219
-0.03545766 0.74900001 0.027578179 1.715417e-38 293 219
-0.034053236 0.74699998 0.027504537 1.8168319e-38 294 219
-0.032743499 0.74699998 0.027504537 1.8260515e-38 295 219
-0.031391677 0.74599999 0.027467718 1.8168319e-38 296 219
-0.03008369 0.74599999 0.027467718 1.8168319e-38 297 219
-0.02869856 0.74400002 0.027394081 1.7984654e-38 298 219
-0.027320439 0.74199998 0.027320439 1.807685e-38 299 219
-0.026019465 0.74199998 0.027320439 1.8169048e-38 300 219
-0.024718491 0.74199998 0.027320439 1.8445275e-38 301 219
-0.023385961 0.741 0.027283618 1.8445275e-38 302 219
-0.02208674 0.741 0.027283618 1.8537472e-38 303 219
-0.020787518 0.741 0.027283618 1.8630023e-38 304 219
-0.019488299 0.741 0.027283618 1.8814415e-38 305 219
-0.018139986 0.73900002 0.027209979 1.8813336e-38 306 219
-0.016844273 0.73900002 0.027209979 1.8537108e-38 307 219
-0.015485439 0.736 0.02709952 1.7158136e-38 308 219
-0.014156413 0.73400003 0.02702588 1.6973745e-38 309 219
-0.012869466 0.73400003 0.02702588 1.7708793e-38 310 219
-0.011582521 0.73400003 0.02702588 1.798502e-38 311 219
-0.010295574 0.73400003 0.02702588 1.7342524e-38 312 219
-0.0090086265 0.73400003 0.02702588 1.743472e-38 313 219
-0.0077216802 0.73400003 0.02702588 1.798537e-38 314 219
-0.006434733 0.73400003 0.02702588 1.817012e-38 315 219
-0.0051477868 0.73400003 0.02702588 1.8170833e-38 316 219
-0.0038608401 0.73400003 0.02702588 1.7894607e-38 317 219
-0.0025738934 0.73400003 0.02702588 1.80772e-38 318 219
-0.0012869467 0.73400003 0.02702588 1.7892807e-38 319 219
0 0.73400003 0.02702588 1.7800256e-38 320 219
0.0012869467 0.73400003 0.02702588 1.7800256e-38 321 219
0.0025738934 0.73400003 0.02702588 1.7800259e-38 322 219
0.0038608401 0.73400003 0.02702588 1.7800259e-38 323 219
0.0051477868 0.73400003 0.02702588 1.7800259e-38 324 219
0.006434733 0.73400003 0.02702588 1.7708063e-38 325 219
0.0077216802 0.73400003 0.02702588 1.7800259e-38 326 219
0.0090086265 0.73400003 0.02702588 1.7708063e-38 327 219
0.010323626 0.736 0.02709952 1.7524751e-38 328 219
0.01161408 0.736 0.02709952 1.7432196e-38 329 219
0.012904533 0.736 0.02709952 1.7431833e-38 330 219
0.014233559 0.73799998 0.027173158 1.7339638e-38 331 219
0.015527519 0.73799998 0.027173158 1.7248158e-38 332 219
0.016821479 0.73799998 0.027173158 1.7248158e-38 333 219
0.018139986 0.73900002 0.027209979 1.7247442e-38 334 219
0.0194357 0.73900002 0.027209979 1.7154886e-38 335 219
0.020787518 0.741 0.027283618 1.6879378e-38 336 219
0.02208674 0.741 0.027283618 1.6602792e-38 337 219
0.023385961 0.741 0.027283618 1.6234378e-38 338 219
0.024718491 0.74199998 0.027320439 1.6050346e-38 339 219
0.026019465 0.74199998 0.027320439 1.5774848e-38 340 219
0.027320439 0.74199998 0.027320439 1.5774848e-38 341 219
0.02869856 0.74400002 0.027394081 1.5866321e-38 342 219
0.030003037 0.74400002 0.027394081 1.5958517e-38 343 219
0.031307522 0.74400002 0.027394081 1.5775199e-38 344 219
0.032699663 0.74599999 0.027467718 1.5683003e-38 345 219
0.034007654 0.74599999 0.027467718 1.5866671e-38 346 219
0.035362978 0.74699998 0.027504537 1.5590086e-38 347 219
0.036672719 0.74699998 0.027504537 1.5128387e-38 348 219
0.038084153 0.74900001 0.027578179 1.4943636e-38 349 219
0.039449997 0.75 0.027615 1.4665609e-38 350 219
0.040873703 0.75199997 0.027688639 1.3743651e-38 351 219
0.042304426 0.75400001 0.027762281 1.4846759e-38 352 219
0.043626439 0.75400001 0.027762281 1.8903366e-38 353 219
-0.047908079 0.759 0.026615599 1.8533139e-38 284 220
-0.046577301 0.759 0.026615599 1.7058009e-38 285 220
-0.045246519 0.759 0.026615599 1.6505551e-38 286 220
-0.043800019 0.75700003 0.026545467 1.6690301e-38 287 220
-0.042360533 0.755 0.026475333 1.6600268e-38 288 220
-0.041036766 0.755 0.026475333 1.6785018e-38 289 220
-0.039660402 0.75400001 0.026440267 1.6969413e-38 290 220
-0.038236689 0.75199997 0.02637013 1.7153444e-38 291 220
-0.036770906 0.74900001 0.026264934 1.6786111e-38 292 220
-0.03545766 0.74900001 0.026264934 1.6693915e-38 293 220
-0.034053236 0.74699998 0.026194798 1.7800261e-38 294 220
-0.032743499 0.74699998 0.026194798 1.7984654e-38 295 220
-0.031391677 0.74599999 0.026159734 1.8167247e-38 296 220
-0.030003037 0.74400002 0.026089599 1.8167247e-38 297 220
-0.02869856 0.74400002 0.026089599 1.8167247e-38 298 220
-0.027320439 0.74199998 0.026019465 1.8536029e-38 299 220
-0.026019465 0.74199998 0.026019465 1.8813336e-38 300 220
-0.024718491 0.74199998 0.026019465 1.8905531e-38 301 220
-0.023385961 0.741 0.025984399 1.8722219e-38 302 220
-0.02208674 0.741 0.025984399 1.8814415e-38 303 220
-0.020787518 0.741 0.025984399 1.8722219e-38 304 220
-0.019488299 0.741 0.025984399 1.8630023e-38 305 220
-0.018139986 0.73900002 0.025914267 1.8628221e-38 306 220
-0.016844273 0.73900002 0.025914267 1.8075048e-38 307 220
-0.015485439 0.736 0.025809066 1.6879391e-38 308 220
-0.014156413 0.73400003 0.025738932 1.6879391e-38 309 220
-0.012869466 0.73400003 0.025738932 1.6513855e-38 310 220
-0.011582521 0.73400003 0.025738932 1.6606051e-38 311 220
-0.010281546 0.73299998 0.025703866 1.6790795e-38 312 220
-0.0089963535 0.73299998 0.025703866 1.7343969e-38 313 220
-0.0077216802 0.73400003 0.025738932 1.826196e-38 314 220
-0.006434733 0.73400003 0.025738932 1.8169764e-38 315 220
-0.0051477868 0.73400003 0.025738932 1.817012e-38 316 220
-0.0038608401 0.73400003 0.025738932 1.798537e-38 317 220
-0.0025738934 0.73400003 0.025738932 1.7984651e-38 318 220
-0.0012869467 0.73400003 0.025738932 1.7800259e-38 319 220
0 0.73400003 0.025738932 1.7800256e-38 320 220
0.0012869467 0.73400003 0.025738932 1.770806e-38 321 220
0.0025738934 0.73400003 0.025738932 1.7800259e-38 322 220
0.0038608401 0.73400003 0.025738932 1.7800259e-38 323 220
0.005140773 0.73299998 0.025703866 1.7800261e-38 324 220
0.0064259665 0.73299998 0.025703866 1.7800261e-38 325 220
0.0077216802 0.73400003 0.025738932 1.7524395e-38 326 220
0.0090086265 0.73400003 0.025738932 1.7524395e-38 327 220
0.010295574 0.73400003 0.025738932 1.7523676e-38 328 220
0.01161408 0.736 0.025809066 1.7523676e-38 329 220
0.012904533 0.736 0.025809066 1.7431836e-38 330 220
0.014233559 0.73799998 0.025879199 1.7339282e-38 331 220
0.015527519 0.73799998 0.025879199 1.7339638e-38 332 220
0.016821479 0.73799998 0.025879199 1.7339638e-38 333 220
0.018115439 0.73799998 0.025879199 1.7247086e-38 334 220
0.019409399 0.73799998 0.025879199 1.7154889e-38 335 220
0.020731414 0.73900002 0.025914267 1.6695713e-38 336 220
0.02208674 0.741 0.025984399 1.6419126e-38 337 220
0.023385961 0.741 0.025984399 1.6233659e-38 338 220
0.024718491 0.74199998 0.026019465 1.6141463e-38 339 220
0.026019465 0.74199998 0.026019465 1.5866321e-38 340 220
0.027320439 0.74199998 0.026019465 1.5958517e-38 341 220
0.02869856 0.74400002 0.026089599 1.5866318e-38 342 220
0.030003037 0.74400002 0.026089599 1.5866318e-38 343 220
0.031307522 0.74400002 0.026089599 1.5775199e-38 344 220
0.032699663 0.74599999 0.026159734 1.5683003e-38 345 220
0.034007654 0.74599999 0.026159734 1.5683003e-38 346 220
0.03531564 0.74599999 0.026159734 1.5406416e-38 347 220
0.036672719 0.74699998 0.026194798 1.5129106e-38 348 220
0.03798246 0.74699998 0.026194798 1.4760324e-38 349 220
0.039449997 0.75 0.0263 1.4850359e-38 350 220
0.040873703 0.75199997 0.02637013 1.4112435e-38 351 220
0.042304426 0.75400001 0.026440267 1.4941475e-38 352 220
0.043626439 0.75400001 0.026440267 1.8721136e-38 353 220
0.044948451 0.75400001 0.026440267 1.8813689e-38 354 220
-0.047908079 0.759 0.025284819 1.752295e-38 284 221
-0.046577301 0.759 0.025284819 1.6232211e-38 285 221
-0.045127295 0.75700003 0.025218192 1.6321889e-38 286 221
-0.043800019 0.75700003 0.025218192 1.6690671e-38 287 221
-0.042360533 0.755 0.025151566 1.6600271e-38 288 221
-0.040982414 0.75400001 0.025118252 1.6784662e-38 289 221
-0.039449997 0.75 0.024984999 1.6969773e-38 290 221
-0.038084153 0.74900001 0.024951685 1.7154523e-38 291 221
-0.036770906 0.74900001 0.024951685 1.7062338e-38 292 221
-0.035362978 0.74699998 0.024885058 1.7062338e-38 293 221
-0.034053236 0.74699998 0.024885058 1.7064142e-38 294 221
-0.032743499 0.74699998 0.024885058 1.7617316e-38 295 221
-0.031391677 0.74599999 0.024851745 1.7892821e-38 296 221
-0.030003037 0.74400002 0.02478512 1.7985376e-38 297 221
-0.02869856 0.74400002 0.02478512 1.8536029e-38 298 221
-0.027320439 0.74199998 0.024718491 1.8628224e-38 299 221
-0.026019465 0.74199998 0.024718491 1.8993411e-38 300 221
-0.024685178 0.741 0.024685178 1.8624987e-38 301 221
-0.023385961 0.741 0.024685178 1.7613349e-38 302 221
-0.02208674 0.741 0.024685178 1.7152372e-38 303 221
-0.020787518 0.741 0.024685178 1.6690671e-38 304 221
-0.019488299 0.741 0.024685178 1.5860912e-38 305 221
-0.018139986 0.73900002 0.024618553 1.466057e-38 306 221
-0.016844273 0.73900002 0.024618553 1.3554221e-38 307 221
-0.01544336 0.73400003 0.024451986 9.9712097e-39 308 221
-0.014156413 0.73400003 0.024451986 1.2644883e-38 309 221
-0.012869466 0.73400003 0.024451986 1.5409323e-38 310 221
-0.011582521 0.73400003 0.024451986 1.6147246e-38 311 221
-0.010281546 0.73299998 0.024418673 1.7248534e-38 312 221
-0.0089963535 0.73299998 0.024418673 1.817013e-38 313 221
-0.0077216802 0.73400003 0.024451986 1.826196e-38 314 221
-0.006434733 0.73400003 0.024451986 1.8169764e-38 315 221
-0.0051477868 0.73400003 0.024451986 1.8077566e-38 316 221
-0.0038608401 0.73400003 0.024451986 1.798537e-38 317 221
-0.0025738934 0.73400003 0.024451986 1.7985007e-38 318 221
-0.0012869467 0.73400003 0.024451986 1.7800256e-38 319 221
0 0.73400003 0.024451986 1.7800256e-38 320 221
0.0012869467 0.73400003 0.024451986 1.770806e-38 321 221
0.0025738934 0.73400003 0.024451986 1.7800259e-38 322 221
0.0038555798 0.73299998 0.024418673 1.7800259e-38 323 221
0.005140773 0.73299998 0.024418673 1.7800259e-38 324 221
0.0064259665 0.73299998 0.024418673 1.7800259e-38 325 221
0.0077111595 0.73299998 0.024418673 1.7524751e-38 326 221
0.0090086265 0.73400003 0.024451986 1.7524751e-38 327 221
0.010295574 0.73400003 0.024451986 1.7524751e-38 328 221
0.011582521 0.73400003 0.024451986 1.7432196e-38 329 221
0.012869466 0.73400003 0.024451986 1.7247805e-38 330 221
0.014156413 0.73400003 0.024451986 1.7247805e-38 331 221
0.01544336 0.73400003 0.024451986 1.6972297e-38 332 221
0.016775893 0.736 0.024518613 1.6972297e-38 333 221
0.018115439 0.73799998 0.024585238 1.68801e-38 334 221
0.019409399 0.73799998 0.024585238 1.68801e-38 335 221
0.020731414 0.73900002 0.024618553 1.6879025e-38 336 221
0.022027127 0.73900002 0.024618553 1.6418407e-38 337 221
0.023385961 0.741 0.024685178 1.5590089e-38 338 221
0.024685178 0.741 0.024685178 1.512875e-38 339 221
0.026019465 0.74199998 0.024718491 1.4764291e-38 340 221
0.027394081 0.74400002 0.02478512 1.540966e-38 341 221
0.02869856 0.74400002 0.02478512 1.5867764e-38 342 221
0.030003037 0.74400002 0.02478512 1.5775567e-38 343 221
0.031307522 0.74400002 0.02478512 1.5407145e-38 344 221
0.032612 0.74400002 0.02478512 1.5314591e-38 345 221
0.034007654 0.74599999 0.024851745 1.5498259e-38 346 221
0.03531564 0.74599999 0.024851745 1.5406063e-38 347 221
0.036672719 0.74699998 0.024885058 1.512875e-38 348 221
0.03798246 0.74699998 0.024885058 1.4852524e-38 349 221
0.039555199 0.75199997 0.025051624 1.457593e-38 350 221
0.040873703 0.75199997 0.025051624 1.457593e-38 351 221
0.042304426 0.75400001 0.025118252 1.5495372e-38 352 221
0.043626439 0.75400001 0.025118252 1.8169045e-38 353 221
0.044948451 0.75400001 0.025118252 1.8995929e-38 354 221
-0.049368605 0.76099998 0.024017159 1.8443111e-38 283 222
-0.048034318 0.76099998 0.024017159 1.6693912e-38 284 222
-0.046577301 0.759 0.023954039 1.5771955e-38 285 222
-0.045127295 0.75700003 0.02389092 1.6414084e-38 286 222
-0.043684296 0.755 0.023827799 1.6690671e-38 287 222
-0.042360533 0.755 0.023827799 1.6691747e-38 288 222
-0.040982414 0.75400001 0.02379624 1.6967974e-38 289 222
-0.039449997 0.75 0.023669999 1.7153089e-38 290 222
-0.038084153 0.74900001 0.02363844 1.7245284e-38 291 222
-0.036770906 0.74900001 0.02363844 1.7246369e-38 292 222
-0.035362978 0.74699998 0.023575317 1.7246369e-38 293 222
-0.034053236 0.74699998 0.023575317 1.7063424e-38 294 222
-0.032743499 0.74699998 0.023575317 1.7431846e-38 295 222
-0.031391677 0.74599999 0.023543758 1.8260165e-38 296 222
-0.030003037 0.74400002 0.023480639 1.8167969e-38 297 222
-0.028621411 0.74199998 0.023417519 1.8257994e-38 298 222
-0.027320439 0.74199998 0.023417519 1.7428233e-38 299 222
-0.026019465 0.74199998 0.023417519 1.6227522e-38 300 222
-0.024685178 0.741 0.023385961 1.438397e-38 301 222
