# .PCD v.7 - Point Cloud Data file format
FIELDS x y z rgb imX imY
SIZE 4 4 4 4 4 4
TYPE F F F F F F
COUNT 1 1 1 1 1 1
WIDTH 861
HEIGHT 1
VIEWPOINT 0 0 0 1 0 0 0
POINTS 861
DATA ascii
0.014542146 0.75400001 0.039660402 1.4726746e-38 331 210
0.015885198 0.755 0.039712999 1.4727102e-38 332 210
0.017208965 0.755 0.039712999 1.4727102e-38 333 210
0.018532733 0.755 0.039712999 1.4726751e-38 334 210
0.0198565 0.755 0.039712999 1.4726751e-38 335 210
0.021236373 0.75700003 0.039818201 1.454273e-38 336 210
0.02262326 0.759 0.0399234 1.4266142e-38 337 210
0.023954039 0.759 0.0399234 1.3988833e-38 338 210
0.025284819 0.759 0.0399234 1.3896636e-38 339 210
0.026615599 0.759 0.0399234 1.3435304e-38 340 210
0.027946379 0.759 0.0399234 1.2974684e-38 341 210
0.029277159 0.759 0.0399234 1.2420827e-38 342 210
0.030688593 0.76099998 0.040028598 1.2697413e-38 343 210
-0.045723427 0.76700002 0.038999394 1.9733847e-38 286 211
-0.04437862 0.76700002 0.038999394 1.9733847e-38 287 211
-0.040028598 0.76099998 0.038694311 1.6944173e-38 290 211
-0.038694311 0.76099998 0.038694311 1.42705e-38 291 211
-0.037360024 0.76099998 0.038694311 1.4173575e-38 292 211
-0.035931058 0.759 0.038592618 1.3528205e-38 293 211
-0.034600276 0.759 0.038592618 1.4356877e-38 294 211
-0.033401001 0.76200002 0.038745161 1.4909691e-38 295 211
-0.032022879 0.76099998 0.038694311 1.500406e-38 296 211
-0.030688593 0.76099998 0.038694311 1.5188453e-38 297 211
-0.029354304 0.76099998 0.038694311 1.509662e-38 298 211
-0.027872739 0.75700003 0.038490929 1.4912587e-38 299 211
-0.026545467 0.75700003 0.038490929 1.5279568e-38 300 211
-0.025284819 0.759 0.038592618 1.5095537e-38 301 211
-0.023954039 0.759 0.038592618 1.5003338e-38 302 211
-0.022563647 0.75700003 0.038490929 1.5003338e-38 303 211
-0.021180267 0.755 0.038389232 1.4911145e-38 304 211
-0.0198565 0.755 0.038389232 1.5003341e-38 305 211
-0.018532733 0.755 0.038389232 1.4911508e-38 306 211
-0.017208965 0.755 0.038389232 1.4911508e-38 307 211
-0.015885198 0.755 0.038389232 1.4820392e-38 308 211
-0.014561433 0.755 0.038389232 1.4820392e-38 309 211
-0.013237666 0.755 0.038389232 1.5003704e-38 310 211
-0.01189812 0.75400001 0.038338386 1.5003704e-38 311 211
-0.010576107 0.75400001 0.038338386 1.5096256e-38 312 211
-0.0092540924 0.75400001 0.038338386 1.5096256e-38 313 211
-0.0079110395 0.75199997 0.038236689 1.518845e-38 314 211
-0.0065925326 0.75199997 0.038236689 1.518845e-38 315 211
-0.0052740262 0.75199997 0.038236689 1.5372121e-38 316 211
-0.003945 0.75 0.038135 1.5372121e-38 317 211
-0.00263 0.75 0.038135 1.5372121e-38 318 211
-0.001315 0.75 0.038135 1.5372121e-38 319 211
0 0.75 0.038135 1.5188803e-38 320 211
0.001315 0.75 0.038135 1.5096606e-38 321 211
0.00263 0.75 0.038135 1.5189159e-38 322 211
0.003945 0.75 0.038135 1.5096603e-38 323 211
0.0052740262 0.75199997 0.038236689 1.5095887e-38 324 211
0.0065925326 0.75199997 0.038236689 1.4911496e-38 325 211
0.0079110395 0.75199997 0.038236689 1.5002612e-38 326 211
0.0092295464 0.75199997 0.038236689 1.5002612e-38 327 211
0.010548052 0.75199997 0.038236689 1.4819297e-38 328 211
0.011866559 0.75199997 0.038236689 1.4819297e-38 329 211
0.013185065 0.75199997 0.038236689 1.48193e-38 330 211
0.014503572 0.75199997 0.038236689 1.48193e-38 331 211
0.01586416 0.75400001 0.038338386 1.4727102e-38 332 211
0.017186172 0.75400001 0.038338386 1.4727102e-38 333 211
0.018508185 0.75400001 0.038338386 1.4634549e-38 334 211
0.019830201 0.75400001 0.038338386 1.4634549e-38 335 211
0.021152213 0.75400001 0.038338386 1.4450883e-38 336 211
0.022563647 0.75700003 0.038490929 1.4450883e-38 337 211
0.02389092 0.75700003 0.038490929 1.417465e-38 338 211
0.025218192 0.75700003 0.038490929 1.417465e-38 339 211
0.026545467 0.75700003 0.038490929 1.399026e-38 340 211
0.027872739 0.75700003 0.038490929 1.3898064e-38 341 211
0.029277159 0.759 0.038592618 1.3712971e-38 342 211
0.030607941 0.759 0.038592618 1.3528221e-38 343 211
0.031938717 0.759 0.038592618 1.2885047e-38 344 211
0.033357166 0.76099998 0.038694311 1.3161275e-38 345 211
0.034691449 0.76099998 0.038694311 1.2519917e-38 346 211
-0.047190964 0.76899999 0.03775277 1.9551257e-38 285 212
-0.045723427 0.76700002 0.037654586 2.0745464e-38 286 212
-0.04437862 0.76700002 0.037654586 2.000754e-38 287 212
-0.043033812 0.76700002 0.037654586 1.8435867e-38 288 212
-0.041362885 0.76099998 0.037360024 1.4010476e-38 289 212
-0.040028598 0.76099998 0.037360024 1.3897376e-38 290 212
-0.038694311 0.76099998 0.037360024 1.2791387e-38 291 212
-0.037360024 0.76099998 0.037360024 1.4265776e-38 292 212
-0.035931058 0.759 0.03726184 1.4911145e-38 293 212
-0.034600276 0.759 0.03726184 1.4820748e-38 294 212
-0.033269498 0.759 0.03726184 1.4912943e-38 295 212
-0.031938717 0.759 0.03726184 1.5096256e-38 296 212
-0.030607941 0.759 0.03726184 1.5096256e-38 297 212
-0.029200014 0.75700003 0.037163652 1.5279571e-38 298 212
-0.027799098 0.755 0.037065465 1.5095181e-38 299 212
-0.026475333 0.755 0.037065465 1.5279921e-38 300 212
-0.025118252 0.75400001 0.037016369 1.509589e-38 301 212
-0.02379624 0.75400001 0.037016369 1.5279555e-38 302 212
-0.022504034 0.755 0.037065465 1.5187001e-38 303 212
-0.021180267 0.755 0.037065465 1.5370316e-38 304 212
-0.0198565 0.755 0.037065465 1.5370316e-38 305 212
-0.018532733 0.755 0.037065465 1.5187007e-38 306 212
-0.017208965 0.755 0.037065465 1.5187007e-38 307 212
-0.015885198 0.755 0.037065465 1.5279565e-38 308 212
-0.014561433 0.755 0.037065465 1.5279565e-38 309 212
-0.013220133 0.75400001 0.037016369 1.5279565e-38 310 212
-0.011866559 0.75199997 0.036918186 1.5372121e-38 311 212
-0.010548052 0.75199997 0.036918186 1.5371398e-38 312 212
-0.0092049995 0.75 0.036819998 1.5647626e-38 313 212
-0.00789 0.75 0.036819998 1.5465386e-38 314 212
-0.006575 0.75 0.036819998 1.5557581e-38 315 212
-0.00526 0.75 0.036819998 1.555686e-38 316 212
-0.0039397399 0.74900001 0.036770906 1.5649414e-38 317 212
-0.0026264933 0.74900001 0.036770906 1.5649058e-38 318 212
-0.0013132467 0.74900001 0.036770906 1.5556862e-38 319 212
0 0.74900001 0.036770906 1.555686e-38 320 212
0.0013132467 0.74900001 0.036770906 1.5464664e-38 321 212
0.0026264933 0.74900001 0.036770906 1.546502e-38 322 212
0.0039397399 0.74900001 0.036770906 1.5372824e-38 323 212
0.0052529867 0.74900001 0.036770906 1.5371748e-38 324 212
0.006575 0.75 0.036819998 1.5279552e-38 325 212
0.00789 0.75 0.036819998 1.5003689e-38 326 212
0.0092049995 0.75 0.036819998 1.5003689e-38 327 212
0.01052 0.75 0.036819998 1.5094805e-38 328 212
0.011835 0.75 0.036819998 1.5094805e-38 329 212
0.01315 0.75 0.036819998 1.500261e-38 330 212
0.014503572 0.75199997 0.036918186 1.500261e-38 331 212
0.015822079 0.75199997 0.036918186 1.4727099e-38 332 212
0.017140586 0.75199997 0.036918186 1.4634902e-38 333 212
0.018459093 0.75199997 0.036918186 1.4727099e-38 334 212
0.0197776 0.75199997 0.036918186 1.4727099e-38 335 212
0.021152213 0.75400001 0.037016369 1.4727102e-38 336 212
0.022474226 0.75400001 0.037016369 1.4634905e-38 337 212
0.023827799 0.755 0.037065465 1.4450518e-38 338 212
0.025151566 0.755 0.037065465 1.4450518e-38 339 212
0.026475333 0.755 0.037065465 1.4358325e-38 340 212
0.027872739 0.75700003 0.037163652 1.445052e-38 341 212
0.029277159 0.759 0.03726184 1.4450184e-38 342 212
0.030607941 0.759 0.03726184 1.4450184e-38 343 212
0.031938717 0.759 0.03726184 1.3806259e-38 344 212
0.033269498 0.759 0.03726184 1.2976499e-38 345 212
0.034600276 0.759 0.03726184 1.1776526e-38 346 212
0.035931058 0.759 0.03726184 1.1960918e-38 347 212
0.037360024 0.76099998 0.037360024 1.023157e-38 348 212
0.038694311 0.76099998 0.037360024 1.4749155e-38 349 212
-0.047068235 0.76700002 0.036309779 1.9363976e-38 285 213
-0.045663811 0.76599997 0.036262438 1.8803936e-38 286 213
-0.04420504 0.764 0.036167759 1.428671e-38 287 213
-0.042697169 0.76099998 0.036025736 1.4179358e-38 288 213
-0.041362885 0.76099998 0.036025736 1.2335445e-38 289 213
-0.0399234 0.759 0.035931058 1.426542e-38 290 213
-0.038592618 0.759 0.035931058 1.5002985e-38 291 213
-0.03726184 0.759 0.035931058 1.500371e-38 292 213
-0.03583638 0.75700003 0.03583638 1.5095907e-38 293 213
-0.034509107 0.75700003 0.03583638 1.4912938e-38 294 213
-0.033181835 0.75700003 0.03583638 1.4820742e-38 295 213
-0.031854562 0.75700003 0.03583638 1.500441e-38 296 213
-0.030527288 0.75700003 0.03583638 1.5096606e-38 297 213
-0.029122867 0.755 0.035741698 1.5095534e-38 298 213
-0.027762281 0.75400001 0.035694357 1.5095534e-38 299 213
-0.026440267 0.75400001 0.035694357 1.5279565e-38 300 213
-0.025051624 0.75199997 0.035599679 1.5279565e-38 301 213
-0.023733119 0.75199997 0.035599679 1.5279199e-38 302 213
-0.022414612 0.75199997 0.035599679 1.5371395e-38 303 213
-0.021096105 0.75199997 0.035599679 1.5278846e-38 304 213
-0.0197776 0.75199997 0.035599679 1.5371401e-38 305 213
-0.018459093 0.75199997 0.035599679 1.5188453e-38 306 213
-0.017140586 0.75199997 0.035599679 1.5188453e-38 307 213
-0.015822079 0.75199997 0.035599679 1.5188453e-38 308 213
-0.014465 0.75 0.035505001 1.5280648e-38 309 213
-0.01315 0.75 0.035505001 1.5465035e-38 310 213
-0.01181922 0.74900001 0.03545766 1.5557231e-38 311 213
-0.010505973 0.74900001 0.03545766 1.5466467e-38 312 213
-0.0091927266 0.74900001 0.03545766 1.5466467e-38 313 213
-0.0078794798 0.74900001 0.03545766 1.5559381e-38 314 213
-0.0065662335 0.74900001 0.03545766 1.5651576e-38 315 213
-0.0052529867 0.74900001 0.03545766 1.5742696e-38 316 213
-0.0039397399 0.74900001 0.03545766 1.5742696e-38 317 213
-0.0026194798 0.74699998 0.035362978 1.5742698e-38 318 213
-0.0013097399 0.74699998 0.035362978 1.5466112e-38 319 213
0 0.74900001 0.03545766 1.546683e-38 320 213
0.0013132467 0.74900001 0.03545766 1.5098408e-38 321 213
0.0026194798 0.74699998 0.035362978 1.5281717e-38 322 213
0.0039292197 0.74699998 0.035362978 1.5189522e-38 323 213
0.0052389596 0.74699998 0.035362978 1.5280274e-38 324 213
0.0065662335 0.74900001 0.03545766 1.5372471e-38 325 213
0.0078794798 0.74900001 0.03545766 1.4913291e-38 326 213
0.0091927266 0.74900001 0.03545766 1.4821095e-38 327 213
0.010505973 0.74900001 0.03545766 1.5003336e-38 328 213
0.01181922 0.74900001 0.03545766 1.5003336e-38 329 213
0.013132467 0.74900001 0.03545766 1.5094102e-38 330 213
0.014445714 0.74900001 0.03545766 1.5001906e-38 331 213
0.01578 0.75 0.035505001 1.5001906e-38 332 213
0.017095 0.75 0.035505001 1.4817875e-38 333 213
0.018409999 0.75 0.035505001 1.4726751e-38 334 213
0.0197776 0.75199997 0.035599679 1.4726751e-38 335 213
0.021096105 0.75199997 0.035599679 1.4634198e-38 336 213
0.022414612 0.75199997 0.035599679 1.4634198e-38 337 213
0.02379624 0.75400001 0.035694357 1.4358691e-38 338 213
0.025118252 0.75400001 0.035694357 1.4358691e-38 339 213
0.026440267 0.75400001 0.035694357 1.4357969e-38 340 213
0.027799098 0.755 0.035741698 1.4450165e-38 341 213
0.029122867 0.755 0.035741698 1.4358335e-38 342 213
0.030527288 0.75700003 0.03583638 1.4358335e-38 343 213
0.031854562 0.75700003 0.03583638 1.4083195e-38 344 213
0.033269498 0.759 0.035931058 1.380661e-38 345 213
0.034600276 0.759 0.035931058 1.3714783e-38 346 213
0.035931058 0.759 0.035931058 1.334636e-38 347 213
0.03726184 0.759 0.035931058 1.1048001e-38 348 213
0.038592618 0.759 0.035931058 1.3814229e-38 349 213
0.0399234 0.759 0.035931058 1.2916065e-38 350 213
-0.049757849 0.76700002 0.034964975 1.9273225e-38 283 214
-0.048349917 0.76599997 0.034919381 1.9727697e-38 284 214
-0.047006864 0.76599997 0.034919381 1.7607197e-38 285 214
-0.045544583 0.764 0.034828212 1.7320839e-38 286 214
-0.044089317 0.76200002 0.034737039 1.2618862e-38 287 214
-0.042697169 0.76099998 0.034691449 1.3619305e-38 288 214
-0.041254178 0.759 0.034600276 1.3896252e-38 289 214
-0.0399234 0.759 0.034600276 1.4726751e-38 290 214
-0.038490929 0.75700003 0.034509107 1.5095534e-38 291 214
-0.037163652 0.75700003 0.034509107 1.4820041e-38 292 214
-0.03583638 0.75700003 0.034509107 1.4820041e-38 293 214
-0.034417931 0.755 0.034417931 1.5004057e-38 294 214
-0.033094164 0.755 0.034417931 1.5004057e-38 295 214
-0.031770397 0.755 0.034417931 1.5004054e-38 296 214
-0.030446632 0.755 0.034417931 1.5096609e-38 297 214
-0.029084291 0.75400001 0.034372345 1.5279565e-38 298 214
-0.027615 0.75 0.034189999 1.5279565e-38 299 214
-0.0263 0.75 0.034189999 1.5279918e-38 300 214
-0.024951685 0.74900001 0.034144413 1.5279918e-38 301 214
-0.02363844 0.74900001 0.034144413 1.5555063e-38 302 214
-0.022325192 0.74900001 0.034144413 1.564726e-38 303 214
-0.021011947 0.74900001 0.034144413 1.5647979e-38 304 214
-0.0196987 0.74900001 0.034144413 1.5647979e-38 305 214
-0.018385453 0.74900001 0.034144413 1.5648335e-38 306 214
-0.017072206 0.74900001 0.034144413 1.5740531e-38 307 214
-0.01575896 0.74900001 0.034144413 1.5832723e-38 308 214
-0.014445714 0.74900001 0.034144413 1.5924919e-38 309 214
-0.013097399 0.74699998 0.034053236 1.5925638e-38 310 214
-0.011787659 0.74699998 0.034053236 1.6018194e-38 311 214
-0.010477919 0.74699998 0.034053236 1.5927074e-38 312 214
-0.0091681797 0.74699998 0.034053236 1.6203301e-38 313 214
-0.0078584393 0.74699998 0.034053236 1.5927793e-38 314 214
-0.0065486995 0.74699998 0.034053236 1.6019989e-38 315 214
-0.0052389596 0.74699998 0.034053236 1.6202948e-38 316 214
-0.0039292197 0.74699998 0.034053236 1.5926721e-38 317 214
-0.0026194798 0.74699998 0.034053236 1.5834528e-38 318 214
-0.0013097399 0.74699998 0.034053236 1.5741973e-38 319 214
0 0.74699998 0.034053236 1.5741254e-38 320 214
0.0013097399 0.74699998 0.034053236 1.5556862e-38 321 214
0.0026159731 0.74599999 0.034007654 1.5464667e-38 322 214
0.0039239596 0.74599999 0.034007654 1.5464667e-38 323 214
0.0052319462 0.74599999 0.034007654 1.5372471e-38 324 214
0.0065399334 0.74599999 0.034007654 1.5280274e-38 325 214
0.0078479191 0.74599999 0.034007654 1.5279199e-38 326 214
0.0091681797 0.74699998 0.034053236 1.5279199e-38 327 214
0.010477919 0.74699998 0.034053236 1.5186651e-38 328 214
0.011787659 0.74699998 0.034053236 1.5186651e-38 329 214
0.013097399 0.74699998 0.034053236 1.4911145e-38 330 214
0.014407139 0.74699998 0.034053236 1.4818591e-38 331 214
0.01575896 0.74900001 0.034144413 1.4817872e-38 332 214
0.017072206 0.74900001 0.034144413 1.4817872e-38 333 214
0.018409999 0.75 0.034189999 1.4634196e-38 334 214
0.019724999 0.75 0.034189999 1.4634196e-38 335 214
0.02104 0.75 0.034189999 1.4634198e-38 336 214
0.022414612 0.75199997 0.034281172 1.4634198e-38 337 214
0.023733119 0.75199997 0.034281172 1.4450167e-38 338 214
0.025051624 0.75199997 0.034281172 1.4450167e-38 339 214
0.02637013 0.75199997 0.034281172 1.4450167e-38 340 214
0.027762281 0.75400001 0.034372345 1.4357972e-38 341 214
0.029084291 0.75400001 0.034372345 1.4357619e-38 342 214
0.030446632 0.755 0.034417931 1.4357619e-38 343 214
0.031854562 0.75700003 0.034509107 1.4082476e-38 344 214
0.033181835 0.75700003 0.034509107 1.4082476e-38 345 214
0.034509107 0.75700003 0.034509107 1.3990644e-38 346 214
0.03583638 0.75700003 0.034509107 1.3714417e-38 347 214
0.037163652 0.75700003 0.034509107 1.2147479e-38 348 214
0.038490929 0.75700003 0.034509107 1.2700653e-38 349 214
0.039818201 0.75700003 0.034509107 1.1342233e-38 350 214
-0.051102653 0.76700002 0.033620168 1.9363976e-38 282 215
-0.049757849 0.76700002 0.033620168 1.6690301e-38 283 215
-0.048349917 0.76599997 0.033576332 1.5572044e-38 284 215
-0.046884131 0.764 0.033488665 1.1515078e-38 285 215
-0.045544583 0.764 0.033488665 1.3710086e-38 286 215
-0.044031456 0.76099998 0.033357166 1.4170704e-38 287 215
-0.042472746 0.75700003 0.033181835 1.463418e-38 288 215
-0.041145474 0.75700003 0.033181835 1.5187354e-38 289 215
-0.039818201 0.75700003 0.033181835 1.5095534e-38 290 215
-0.038389232 0.755 0.033094164 1.5095534e-38 291 215
-0.037065465 0.755 0.033094164 1.5003704e-38 292 215
-0.035741698 0.755 0.033094164 1.5003704e-38 293 215
-0.034417931 0.755 0.033094164 1.5095537e-38 294 215
-0.033050332 0.75400001 0.033050332 1.5095537e-38 295 215
-0.03172832 0.75400001 0.033050332 1.5004057e-38 296 215
-0.030406307 0.75400001 0.033050332 1.5096253e-38 297 215
-0.028929999 0.75 0.032874998 1.5279565e-38 298 215
-0.027615 0.75 0.032874998 1.5279565e-38 299 215
-0.026264934 0.74900001 0.032831166 1.5372118e-38 300 215
-0.024951685 0.74900001 0.032831166 1.5372118e-38 301 215
-0.02363844 0.74900001 0.032831166 1.5464314e-38 302 215
-0.022325192 0.74900001 0.032831166 1.5556509e-38 303 215
-0.021011947 0.74900001 0.032831166 1.5557584e-38 304 215
-0.0196987 0.74900001 0.032831166 1.564978e-38 305 215
-0.018385453 0.74900001 0.032831166 1.5558663e-38 306 215
-0.017072206 0.74900001 0.032831166 1.5742696e-38 307 215
-0.01575896 0.74900001 0.032831166 1.5834891e-38 308 215
-0.014407139 0.74699998 0.032743499 1.6111837e-38 309 215
-0.013079867 0.74599999 0.032699663 1.6020001e-38 310 215
-0.011771879 0.74599999 0.032699663 1.6204753e-38 311 215
-0.010463892 0.74599999 0.032699663 1.6204397e-38 312 215
-0.0091559067 0.74599999 0.032699663 1.6204397e-38 313 215
-0.0078479191 0.74599999 0.032699663 1.61122e-38 314 215
-0.0065399334 0.74599999 0.032699663 1.61122e-38 315 215
-0.0052319462 0.74599999 0.032699663 1.6020007e-38 316 215
-0.0039239596 0.74599999 0.032699663 1.5835976e-38 317 215
-0.0026159731 0.74599999 0.032699663 1.5743421e-38 318 215
-0.0013079866 0.74599999 0.032699663 1.5466833e-38 319 215
0 0.74599999 0.032699663 1.5558307e-38 320 215
0.0013079866 0.74599999 0.032699663 1.528172e-38 321 215
0.00260896 0.74400002 0.032612 1.5464314e-38 322 215
0.0039134403 0.74400002 0.032612 1.5372118e-38 323 215
0.0052179201 0.74400002 0.032612 1.5279921e-38 324 215
0.0065223998 0.74400002 0.032612 1.5279921e-38 325 215
0.0078479191 0.74599999 0.032699663 1.5279202e-38 326 215
0.0091559067 0.74599999 0.032699663 1.5187007e-38 327 215
0.010463892 0.74599999 0.032699663 1.5094458e-38 328 215
0.011771879 0.74599999 0.032699663 1.5094458e-38 329 215
0.013097399 0.74699998 0.032743499 1.491079e-38 330 215
0.014407139 0.74699998 0.032743499 1.4818594e-38 331 215
0.015716879 0.74699998 0.032743499 1.4726398e-38 332 215
0.017026618 0.74699998 0.032743499 1.4634203e-38 333 215
0.018385453 0.74900001 0.032831166 1.4634198e-38 334 215
0.0196987 0.74900001 0.032831166 1.4634198e-38 335 215
0.02104 0.75 0.032874998 1.4725675e-38 336 215
0.022355 0.75 0.032874998 1.4725675e-38 337 215
0.023669999 0.75 0.032874998 1.445017e-38 338 215
0.025051624 0.75199997 0.032962665 1.445017e-38 339 215
0.02637013 0.75199997 0.032962665 1.4358335e-38 340 215
0.027688639 0.75199997 0.032962665 1.4358335e-38 341 215
0.029084291 0.75400001 0.033050332 1.4358337e-38 342 215
0.030406307 0.75400001 0.033050332 1.4358337e-38 343 215
0.03172832 0.75400001 0.033050332 1.4082476e-38 344 215
0.033050332 0.75400001 0.033050332 1.4082476e-38 345 215
0.034417931 0.755 0.033094164 1.3990647e-38 346 215
0.035741698 0.755 0.033094164 1.3990647e-38 347 215
0.037163652 0.75700003 0.033181835 1.3621165e-38 348 215
0.038490929 0.75700003 0.033181835 1.3067991e-38 349 215
0.039818201 0.75700003 0.033181835 1.2069714e-38 350 215
0.040982414 0.75400001 0.033050332 1.6218519e-38 351 215
0.042304426 0.75400001 0.033050332 1.4117841e-38 352 215
-0.050902773 0.764 0.032149121 1.733782e-38 282 216
-0.049563225 0.764 0.032149121 1.3281213e-38 283 216
-0.048223678 0.764 0.032149121 1.3168461e-38 284 216
-0.046761397 0.76200002 0.032064959 1.196992e-38 285 216
-0.045365743 0.76099998 0.032022879 1.4171057e-38 286 216
-0.043800019 0.75700003 0.031854562 1.5185209e-38 287 216
-0.042360533 0.755 0.031770397 1.5094811e-38 288 216
-0.041036766 0.755 0.031770397 1.5187007e-38 289 216
-0.039712999 0.755 0.031770397 1.5095534e-38 290 216
-0.038389232 0.755 0.031770397 1.5095534e-38 291 216
-0.037065465 0.755 0.031770397 1.5095537e-38 292 216
-0.035694357 0.75400001 0.03172832 1.5095537e-38 293 216
-0.034281172 0.75199997 0.031644158 1.5278846e-38 294 216
-0.032874998 0.75 0.03156 1.5371401e-38 295 216
-0.03156 0.75 0.03156 1.5279565e-38 296 216
-0.030204674 0.74900001 0.031517919 1.5279565e-38 297 216
-0.028891427 0.74900001 0.031517919 1.5279921e-38 298 216
-0.027578179 0.74900001 0.031517919 1.5372118e-38 299 216
-0.026194798 0.74699998 0.031433757 1.5464314e-38 300 216
-0.024885058 0.74699998 0.031433757 1.5464314e-38 301 216
-0.02363844 0.74900001 0.031517919 1.5556865e-38 302 216
-0.022265578 0.74699998 0.031433757 1.5741256e-38 303 216
-0.020955838 0.74699998 0.031433757 1.5741975e-38 304 216
-0.019646099 0.74699998 0.031433757 1.5834172e-38 305 216
-0.018336359 0.74699998 0.031433757 1.5743775e-38 306 216
-0.017026618 0.74699998 0.031433757 1.6020001e-38 307 216
-0.015716879 0.74699998 0.031433757 1.620475e-38 308 216
-0.014387853 0.74599999 0.031391677 1.63895e-38 309 216
-0.0130448 0.74400002 0.031307522 1.6481696e-38 310 216
-0.011740319 0.74400002 0.031307522 1.6481696e-38 311 216
-0.01043584 0.74400002 0.031307522 1.6389147e-38 312 216
-0.0091313599 0.74400002 0.031307522 1.6389147e-38 313 216
-0.0078268806 0.74400002 0.031307522 1.6387712e-38 314 216
-0.0065399334 0.74599999 0.031391677 1.6387712e-38 315 216
-0.0052319462 0.74599999 0.031391677 1.6203679e-38 316 216
-0.0039239596 0.74599999 0.031391677 1.6019288e-38 317 216
-0.00260896 0.74400002 0.031307522 1.592709e-38 318 216
-0.00130448 0.74400002 0.031307522 1.5742698e-38 319 216
0 0.74400002 0.031307522 1.5558307e-38 320 216
0.00130448 0.74400002 0.031307522 1.5373916e-38 321 216
0.0026019465 0.74199998 0.031223357 1.5464316e-38 322 216
0.0039029196 0.74199998 0.031223357 1.5372121e-38 323 216
0.0052038929 0.74199998 0.031223357 1.5279565e-38 324 216
0.0065048663 0.74199998 0.031223357 1.5279565e-38 325 216
0.0078268806 0.74400002 0.031307522 1.5186651e-38 326 216
0.0091313599 0.74400002 0.031307522 1.5094455e-38 327 216
0.01043584 0.74400002 0.031307522 1.5094458e-38 328 216
0.011771879 0.74599999 0.031391677 1.5002262e-38 329 216
0.013079867 0.74599999 0.031391677 1.4726398e-38 330 216
0.014407139 0.74699998 0.031433757 1.4634203e-38 331 216
0.015716879 0.74699998 0.031433757 1.4726042e-38 332 216
0.017026618 0.74699998 0.031433757 1.4633847e-38 333 216
0.018385453 0.74900001 0.031517919 1.4725675e-38 334 216
0.0196987 0.74900001 0.031517919 1.4725675e-38 335 216
0.021011947 0.74900001 0.031517919 1.4450167e-38 336 216
0.022325192 0.74900001 0.031517919 1.4450167e-38 337 216
0.02363844 0.74900001 0.031517919 1.445017e-38 338 216
0.024951685 0.74900001 0.031517919 1.445017e-38 339 216
0.026264934 0.74900001 0.031517919 1.445017e-38 340 216
0.027615 0.75 0.03156 1.445017e-38 341 216
0.028929999 0.75 0.03156 1.4449817e-38 342 216
0.030244999 0.75 0.03156 1.4357621e-38 343 216
0.031644158 0.75199997 0.031644158 1.4174669e-38 344 216
0.033050332 0.75400001 0.03172832 1.4174669e-38 345 216
0.034372345 0.75400001 0.03172832 1.4174672e-38 346 216
0.035694357 0.75400001 0.03172832 1.4174672e-38 347 216
0.037065465 0.755 0.031770397 1.4081417e-38 348 216
0.038490929 0.75700003 0.031854562 1.3528603e-38 349 216
0.039818201 0.75700003 0.031854562 1.2801153e-38 350 216
0.040982414 0.75400001 0.03172832 1.731838e-38 351 216
0.042304426 0.75400001 0.03172832 1.4575214e-38 352 216
0.043915741 0.759 0.031938717 1.4667409e-38 353 216
0.045246519 0.759 0.031938717 1.4855053e-38 354 216
-0.053371463 0.76099998 0.030688593 1.779629e-38 280 217
-0.052037176 0.76099998 0.030688593 1.7150921e-38 281 217
-0.050702889 0.76099998 0.030688593 1.5860873e-38 282 217
-0.049368605 0.76099998 0.030688593 1.1251091e-38 283 217
-0.048034318 0.76099998 0.030688593 1.2515886e-38 284 217
-0.046700031 0.76099998 0.030688593 1.389918e-38 285 217
-0.045127295 0.75700003 0.030527288 1.500406e-38 286 217
-0.043800019 0.75700003 0.030527288 1.4911864e-38 287 217
-0.042360533 0.755 0.030446632 1.5003691e-38 288 217
-0.041036766 0.755 0.030446632 1.5003691e-38 289 217
-0.039712999 0.755 0.030446632 1.5187004e-38 290 217
-0.038338386 0.75400001 0.030406307 1.5279199e-38 291 217
-0.037016369 0.75400001 0.030406307 1.5279202e-38 292 217
-0.035599679 0.75199997 0.030325651 1.5279202e-38 293 217
-0.034144413 0.74900001 0.030204674 1.5279202e-38 294 217
-0.032831166 0.74900001 0.030204674 1.5463595e-38 295 217
-0.031517919 0.74900001 0.030204674 1.5371398e-38 296 217
-0.030204674 0.74900001 0.030204674 1.5463595e-38 297 217
-0.028891427 0.74900001 0.030204674 1.5464316e-38 298 217
-0.027504537 0.74699998 0.030124018 1.5464316e-38 299 217
-0.026194798 0.74699998 0.030124018 1.5556515e-38 300 217
-0.024885058 0.74699998 0.030124018 1.5648711e-38 301 217
-0.023575317 0.74699998 0.030124018 1.5649429e-38 302 217
-0.022265578 0.74699998 0.030124018 1.5833822e-38 303 217
-0.020955838 0.74699998 0.030124018 1.5742345e-38 304 217
-0.019646099 0.74699998 0.030124018 1.5926737e-38 305 217
-0.018311813 0.74599999 0.03008369 1.5928537e-38 306 217
-0.017003827 0.74599999 0.03008369 1.6020734e-38 307 217
-0.015695838 0.74599999 0.03008369 1.6205844e-38 308 217
-0.014310705 0.74199998 0.029922385 1.6298399e-38 309 217
-0.013009733 0.74199998 0.029922385 1.648243e-38 310 217
-0.01170876 0.74199998 0.029922385 1.648243e-38 311 217
-0.010407786 0.74199998 0.029922385 1.6481355e-38 312 217
-0.009106813 0.74199998 0.029922385 1.6389159e-38 313 217
-0.0078058392 0.74199998 0.029922385 1.6388441e-38 314 217
-0.0065048663 0.74199998 0.029922385 1.6296245e-38 315 217
-0.0052038929 0.74199998 0.029922385 1.6203682e-38 316 217
-0.0039134403 0.74400002 0.030003037 1.6018932e-38 317 217
-0.0026019465 0.74199998 0.029922385 1.5834894e-38 318 217
-0.0013009732 0.74199998 0.029922385 1.5742698e-38 319 217
0 0.74199998 0.029922385 1.5466112e-38 320 217
0.0013009732 0.74199998 0.029922385 1.5373916e-38 321 217
0.0026019465 0.74199998 0.029922385 1.5281723e-38 322 217
0.0039029196 0.74199998 0.029922385 1.5189169e-38 323 217
0.0052038929 0.74199998 0.029922385 1.5279565e-38 324 217
0.0065048663 0.74199998 0.029922385 1.5095534e-38 325 217
0.0078058392 0.74199998 0.029922385 1.5186288e-38 326 217
0.0091313599 0.74400002 0.030003037 1.5094092e-38 327 217
0.01043584 0.74400002 0.030003037 1.5002257e-38 328 217
0.011740319 0.74400002 0.030003037 1.5002257e-38 329 217
0.013079867 0.74599999 0.03008369 1.4726396e-38 330 217
0.014387853 0.74599999 0.03008369 1.4726396e-38 331 217
0.015695838 0.74599999 0.03008369 1.4726398e-38 332 217
0.017026618 0.74699998 0.030124018 1.4634203e-38 333 217
0.018336359 0.74699998 0.030124018 1.4725679e-38 334 217
0.019646099 0.74699998 0.030124018 1.4541287e-38 335 217
0.020955838 0.74699998 0.030124018 1.4448732e-38 336 217
0.022265578 0.74699998 0.030124018 1.4541287e-38 337 217
0.023575317 0.74699998 0.030124018 1.4357972e-38 338 217
0.024951685 0.74900001 0.030204674 1.4357972e-38 339 217
0.026264934 0.74900001 0.030204674 1.4357972e-38 340 217
0.027578179 0.74900001 0.030204674 1.4357972e-38 341 217
0.028891427 0.74900001 0.030204674 1.4266142e-38 342 217
0.030244999 0.75 0.030244999 1.4266142e-38 343 217
0.031644158 0.75199997 0.030325651 1.4266142e-38 344 217
0.032962665 0.75199997 0.030325651 1.4266142e-38 345 217
0.034372345 0.75400001 0.030406307 1.4082474e-38 346 217
0.035694357 0.75400001 0.030406307 1.4082474e-38 347 217
0.037016369 0.75400001 0.030406307 1.4082489e-38 348 217
0.038389232 0.755 0.030446632 1.3529317e-38 349 217
0.039712999 0.755 0.030446632 1.3071623e-38 350 217
0.041145474 0.75700003 0.030527288 1.8142381e-38 351 217
0.042472746 0.75700003 0.030527288 1.5310261e-38 352 217
0.043915741 0.759 0.030607941 1.4756727e-38 353 217
0.045246519 0.759 0.030607941 1.3472118e-38 354 217
0.046577301 0.759 0.030607941 1.4302239e-38 355 217
-0.05470575 0.76099998 0.029354304 1.7424996e-38 279 218
-0.053371463 0.76099998 0.029354304 1.6783214e-38 280 218
-0.052037176 0.76099998 0.029354304 1.6691019e-38 281 218
-0.050702889 0.76099998 0.029354304 1.6226778e-38 282 218
-0.049238857 0.759 0.029277159 1.1709193e-38 283 218
-0.047908079 0.759 0.029277159 1.3253458e-38 284 218
-0.046454567 0.75700003 0.029200014 1.4452e-38 285 218
-0.045127295 0.75700003 0.029200014 1.4820392e-38 286 218
-0.043684296 0.755 0.029122867 1.4820392e-38 287 218
-0.042360533 0.755 0.029122867 1.5095887e-38 288 218
-0.040982414 0.75400001 0.029084291 1.5095887e-38 289 218
-0.039660402 0.75400001 0.029084291 1.5279921e-38 290 218
-0.038236689 0.75199997 0.029007144 1.5372118e-38 291 218
-0.036918186 0.75199997 0.029007144 1.5372121e-38 292 218
-0.03545766 0.74900001 0.028891427 1.5372121e-38 293 218
-0.034144413 0.74900001 0.028891427 1.5372118e-38 294 218
-0.032831166 0.74900001 0.028891427 1.5372118e-38 295 218
-0.031517919 0.74900001 0.028891427 1.5463595e-38 296 218
-0.030124018 0.74699998 0.028814279 1.5647626e-38 297 218
-0.028814279 0.74699998 0.028814279 1.5463598e-38 298 218
-0.027504537 0.74699998 0.028814279 1.5463598e-38 299 218
-0.026194798 0.74699998 0.028814279 1.5556512e-38 300 218
-0.024851745 0.74599999 0.028775707 1.5556512e-38 301 218
-0.023543758 0.74599999 0.028775707 1.5557231e-38 302 218
-0.022235774 0.74599999 0.028775707 1.5741622e-38 303 218
-0.020927785 0.74599999 0.028775707 1.5833825e-38 304 218
-0.019619798 0.74599999 0.028775707 1.592602e-38 305 218
-0.01826272 0.74400002 0.02869856 1.620225e-38 306 218
-0.016958239 0.74400002 0.02869856 1.6386641e-38 307 218
-0.015611678 0.74199998 0.028621411 1.6296245e-38 308 218
-0.01429142 0.741 0.028582839 1.6480636e-38 309 218
-0.0129922 0.741 0.028582839 1.6481358e-38 310 218
-0.01169298 0.741 0.028582839 1.6481358e-38 311 218
-0.010393759 0.741 0.028582839 1.6388806e-38 312 218
-0.0090945391 0.741 0.028582839 1.6388806e-38 313 218
-0.0077953199 0.741 0.028582839 1.6296611e-38 314 218
-0.0064960998 0.741 0.028582839 1.6204415e-38 315 218
-0.0051968796 0.741 0.028582839 1.6020381e-38 316 218
-0.0039029196 0.74199998 0.028621411 1.5835988e-38 317 218
-0.0025984398 0.741 0.028582839 1.5651594e-38 318 218
-0.0012992199 0.741 0.028582839 1.5375368e-38 319 218
0 0.741 0.028582839 1.5375368e-38 320 218
0.0012992199 0.741 0.028582839 1.5282812e-38 321 218
0.0025984398 0.741 0.028582839 1.5282089e-38 322 218
0.0038976599 0.741 0.028582839 1.5098058e-38 323 218
0.0051968796 0.741 0.028582839 1.5188453e-38 324 218
0.0064960998 0.741 0.028582839 1.5096256e-38 325 218
0.0078058392 0.74199998 0.028621411 1.5186651e-38 326 218
0.009106813 0.74199998 0.028621411 1.5186651e-38 327 218
0.010407786 0.74199998 0.028621411 1.4818944e-38 328 218
0.01170876 0.74199998 0.028621411 1.4818944e-38 329 218
0.0130448 0.74400002 0.02869856 1.4726396e-38 330 218
0.01434928 0.74400002 0.02869856 1.4634198e-38 331 218
0.015653761 0.74400002 0.02869856 1.4634203e-38 332 218
0.017003827 0.74599999 0.028775707 1.4634203e-38 333 218
0.018311813 0.74599999 0.028775707 1.4633482e-38 334 218
0.019646099 0.74699998 0.028814279 1.4448732e-38 335 218
0.020955838 0.74699998 0.028814279 1.4540568e-38 336 218
0.022265578 0.74699998 0.028814279 1.4540568e-38 337 218
0.023575317 0.74699998 0.028814279 1.4265776e-38 338 218
0.024885058 0.74699998 0.028814279 1.4265776e-38 339 218
0.026194798 0.74699998 0.028814279 1.4266139e-38 340 218
0.027504537 0.74699998 0.028814279 1.4173943e-38 341 218
0.028891427 0.74900001 0.028891427 1.4173946e-38 342 218
0.030204674 0.74900001 0.028891427 1.4266142e-38 343 218
0.031517919 0.74900001 0.028891427 1.4266142e-38 344 218
0.032874998 0.75 0.028929999 1.4358337e-38 345 218
0.034189999 0.75 0.028929999 1.4083192e-38 346 218
0.035599679 0.75199997 0.029007144 1.3990997e-38 347 218
0.037016369 0.75400001 0.029084291 1.4083195e-38 348 218
0.038338386 0.75400001 0.029084291 1.3437826e-38 349 218
0.039660402 0.75400001 0.029084291 1.2976537e-38 350 218
0.041145474 0.75700003 0.029200014 1.8139492e-38 351 218
0.042472746 0.75700003 0.029200014 1.5861636e-38 352 218
0.043915741 0.759 0.029277159 1.5584689e-38 353 218
0.045246519 0.759 0.029277159 1.4390119e-38 354 218
0.046577301 0.759 0.029277159 1.4205368e-38 355 218
0.047908079 0.759 0.029277159 1.4300084e-38 356 218
0.049368605 0.76099998 0.029354304 1.5037649e-38 357 218
-0.056921966 0.755 0.027799098 1.8256552e-38 277 219
-0.055598196 0.755 0.027799098 1.6965811e-38 278 219
-0.054274432 0.755 0.027799098 1.6504832e-38 279 219
-0.052950665 0.755 0.027799098 1.6782851e-38 280 219
-0.051900417 0.759 0.027946379 1.6690296e-38 281 219
-0.050569639 0.759 0.027946379 1.6962181e-38 282 219
-0.049109112 0.75700003 0.027872739 1.23524e-38 283 219
-0.04778184 0.75700003 0.027872739 1.3438922e-38 284 219
-0.04633183 0.755 0.027799098 1.4360878e-38 285 219
-0.045008067 0.755 0.027799098 1.4912938e-38 286 219
-0.043684296 0.755 0.027799098 1.5097329e-38 287 219
-0.042304426 0.75400001 0.027762281 1.5372468e-38 288 219
-0.040982414 0.75400001 0.027762281 1.5464664e-38 289 219
-0.039555199 0.75199997 0.027688639 1.5465383e-38 290 219
-0.038236689 0.75199997 0.027688639 1.5557578e-38 291 219
-0.036819998 0.75 0.027615 1.5557934e-38 292 219
-0.03545766 0.74900001 0.027578179 1.5465739e-38 293 219
-0.034144413 0.74900001 0.027578179 1.546502e-38 294 219
-0.032831166 0.74900001 0.027578179 1.546502e-38 295 219
-0.031433757 0.74699998 0.027504537 1.546467e-38 296 219
-0.030124018 0.74699998 0.027504537 1.5372115e-38 297 219
-0.028814279 0.74699998 0.027504537 1.5372121e-38 298 219
-0.027504537 0.74699998 0.027504537 1.5372121e-38 299 219
-0.026159734 0.74599999 0.027467718 1.5281367e-38 300 219
-0.024851745 0.74599999 0.027467718 1.5189172e-38 301 219
-0.023543758 0.74599999 0.027467718 1.5281014e-38 302 219
-0.022176161 0.74400002 0.027394081 1.5465764e-38 303 219
-0.02087168 0.74400002 0.027394081 1.5466131e-38 304 219
-0.019567199 0.74400002 0.027394081 1.5650522e-38 305 219
-0.01826272 0.74400002 0.027394081 1.5742368e-38 306 219
-0.016912652 0.74199998 0.027320439 1.5834563e-38 307 219
-0.015611678 0.74199998 0.027320439 1.5836005e-38 308 219
-0.01429142 0.741 0.027283618 1.5928201e-38 309 219
-0.0129922 0.741 0.027283618 1.6112948e-38 310 219
-0.01169298 0.741 0.027283618 1.6205144e-38 311 219
-0.010393759 0.741 0.027283618 1.6022548e-38 312 219
-0.0090945391 0.741 0.027283618 1.5838156e-38 313 219
-0.0077953199 0.741 0.027283618 1.6113298e-38 314 219
-0.0064960998 0.741 0.027283618 1.6021103e-38 315 219
-0.0051968796 0.741 0.027283618 1.6111852e-38 316 219
-0.0038976599 0.741 0.027283618 1.5835267e-38 317 219
-0.0025984398 0.741 0.027283618 1.5743427e-38 318 219
-0.0012992199 0.741 0.027283618 1.5558677e-38 319 219
0 0.741 0.027283618 1.5741989e-38 320 219
0.0012992199 0.741 0.027283618 1.5557957e-38 321 219
0.0025984398 0.741 0.027283618 1.5466114e-38 322 219
0.0038976599 0.741 0.027283618 1.5373919e-38 323 219
0.0051968796 0.741 0.027283618 1.5280999e-38 324 219
0.0064960998 0.741 0.027283618 1.5188803e-38 325 219
0.0077953199 0.741 0.027283618 1.509624e-38 326 219
0.009106813 0.74199998 0.027320439 1.5004045e-38 327 219
0.010407786 0.74199998 0.027320439 1.4911496e-38 328 219
0.01170876 0.74199998 0.027320439 1.48193e-38 329 219
0.0130448 0.74400002 0.027394081 1.4543083e-38 330 219
0.01434928 0.74400002 0.027394081 1.4543083e-38 331 219
0.015653761 0.74400002 0.027394081 1.4449814e-38 332 219
0.017003827 0.74599999 0.027467718 1.4357619e-38 333 219
0.018311813 0.74599999 0.027467718 1.4449817e-38 334 219
0.019619798 0.74599999 0.027467718 1.4357621e-38 335 219
0.020927785 0.74599999 0.027467718 1.4265423e-38 336 219
0.022265578 0.74699998 0.027504537 1.4265423e-38 337 219
0.023575317 0.74699998 0.027504537 1.4265423e-38 338 219
0.024885058 0.74699998 0.027504537 1.4265423e-38 339 219
0.026194798 0.74699998 0.027504537 1.4265067e-38 340 219
0.027504537 0.74699998 0.027504537 1.4265067e-38 341 219
0.028814279 0.74699998 0.027504537 1.4173593e-38 342 219
0.030124018 0.74699998 0.027504537 1.4173593e-38 343 219
0.031433757 0.74699998 0.027504537 1.3990644e-38 344 219
0.032831166 0.74900001 0.027578179 1.4082839e-38 345 219
0.034144413 0.74900001 0.027578179 1.4082839e-38 346 219
0.035505001 0.75 0.027615 1.3990644e-38 347 219
0.036918186 0.75199997 0.027688639 1.3899527e-38 348 219
0.038236689 0.75199997 0.027688639 1.3254158e-38 349 219
0.039660402 0.75400001 0.027762281 1.2699234e-38 350 219
0.040982414 0.75400001 0.027762281 1.7677438e-38 351 219
0.042472746 0.75700003 0.027872739 1.5768362e-38 352 219
0.043915741 0.759 0.027946379 1.6044949e-38 353 219
0.045246519 0.759 0.027946379 1.4849655e-38 354 219
0.046577301 0.759 0.027946379 1.4480512e-38 355 219
0.048034318 0.76099998 0.028020019 1.3838014e-38 356 219
0.049368605 0.76099998 0.028020019 1.3469232e-38 357 219
0.050702889 0.76099998 0.028020019 1.3558188e-38 358 219
0.052037176 0.76099998 0.028020019 1.4756371e-38 359 219
0.053371463 0.76099998 0.028020019 1.7523682e-38 360 219
-0.058785759 0.76200002 0.0267208 1.641299e-38 276 220
-0.056921966 0.755 0.026475333 1.6689936e-38 277 220
-0.055598196 0.755 0.026475333 1.6229327e-38 278 220
-0.054274432 0.755 0.026475333 1.659775e-38 279 220
-0.052950665 0.755 0.026475333 1.7058362e-38 280 220
-0.051900417 0.759 0.026615599 1.7242753e-38 281 220
-0.050436385 0.75700003 0.026545467 1.7329519e-38 282 220
-0.049109112 0.75700003 0.026545467 1.2627542e-38 283 220
-0.047655597 0.755 0.026475333 1.3439994e-38 284 220
-0.04633183 0.755 0.026475333 1.4454147e-38 285 220
-0.045008067 0.755 0.026475333 1.5006222e-38 286 220
-0.043626439 0.75400001 0.026440267 1.5006222e-38 287 220
-0.042304426 0.75400001 0.026440267 1.5373916e-38 288 220
-0.040873703 0.75199997 0.02637013 1.5466112e-38 289 220
-0.039449997 0.75 0.0263 1.5374632e-38 290 220
-0.038135 0.75 0.0263 1.5467186e-38 291 220
-0.036770906 0.74900001 0.026264934 1.5283515e-38 292 220
-0.03545766 0.74900001 0.026264934 1.519132e-38 293 220
-0.034053236 0.74699998 0.026194798 1.519132e-38 294 220
-0.032743499 0.74699998 0.026194798 1.5099124e-38 295 220
-0.031433757 0.74699998 0.026194798 1.5282086e-38 296 220
-0.030124018 0.74699998 0.026194798 1.5005859e-38 297 220
-0.028775707 0.74599999 0.026159734 1.5188453e-38 298 220
-0.027467718 0.74599999 0.026159734 1.5280648e-38 299 220
-0.026159734 0.74599999 0.026159734 1.5188455e-38 300 220
-0.024851745 0.74599999 0.026159734 1.5188455e-38 301 220
-0.023480639 0.74400002 0.026089599 1.5463966e-38 302 220
-0.022176161 0.74400002 0.026089599 1.5648357e-38 303 220
-0.02087168 0.74400002 0.026089599 1.5556881e-38 304 220
-0.019567199 0.74400002 0.026089599 1.5649076e-38 305 220
-0.018213626 0.74199998 0.026019465 1.5740553e-38 306 220
-0.016912652 0.74199998 0.026019465 1.6109336e-38 307 220
-0.015611678 0.74199998 0.026019465 1.5926389e-38 308 220
-0.01429142 0.741 0.025984399 1.6018585e-38 309 220
-0.0129922 0.741 0.025984399 1.611115e-38 310 220
-0.01169298 0.741 0.025984399 1.6203346e-38 311 220
-0.010393759 0.741 0.025984399 1.6021471e-38 312 220
-0.0090945391 0.741 0.025984399 1.6021471e-38 313 220
-0.0077953199 0.741 0.025984399 1.6113664e-38 314 220
-0.0064960998 0.741 0.025984399 1.6021469e-38 315 220
-0.0051968796 0.741 0.025984399 1.6113298e-38 316 220
-0.0038976599 0.741 0.025984399 1.5928907e-38 317 220
-0.0025914267 0.73900002 0.025914267 1.5836707e-38 318 220
-0.0012957134 0.73900002 0.025914267 1.5467926e-38 319 220
0 0.741 0.025984399 1.5560125e-38 320 220
0.0012992199 0.741 0.025984399 1.5283538e-38 321 220
0.0025984398 0.741 0.025984399 1.5282463e-38 322 220
0.0038976599 0.741 0.025984399 1.5282463e-38 323 220
0.0051828534 0.73900002 0.025914267 1.5373934e-38 324 220
0.0064785667 0.73900002 0.025914267 1.5097349e-38 325 220
0.0077953199 0.741 0.025984399 1.4912955e-38 326 220
0.0090945391 0.741 0.025984399 1.4912955e-38 327 220
0.010393759 0.741 0.025984399 1.4727843e-38 328 220
0.01169298 0.741 0.025984399 1.4635647e-38 329 220
0.0129922 0.741 0.025984399 1.4543096e-38 330 220
0.014310705 0.74199998 0.026019465 1.4266869e-38 331 220
0.015611678 0.74199998 0.026019465 1.4449461e-38 332 220
0.016958239 0.74400002 0.026089599 1.4449461e-38 333 220
0.01826272 0.74400002 0.026089599 1.4357619e-38 334 220
0.019619798 0.74599999 0.026159734 1.4357619e-38 335 220
0.020927785 0.74599999 0.026159734 1.4266142e-38 336 220
0.022235774 0.74599999 0.026159734 1.3989556e-38 337 220
0.023543758 0.74599999 0.026159734 1.4172871e-38 338 220
0.024885058 0.74699998 0.026194798 1.4172871e-38 339 220
0.026194798 0.74699998 0.026194798 1.4172871e-38 340 220
0.027504537 0.74699998 0.026194798 1.4265067e-38 341 220
0.028814279 0.74699998 0.026194798 1.4173237e-38 342 220
0.030124018 0.74699998 0.026194798 1.4173237e-38 343 220
0.031433757 0.74699998 0.026194798 1.4173243e-38 344 220
0.032743499 0.74699998 0.026194798 1.4357634e-38 345 220
0.034053236 0.74699998 0.026194798 1.4082489e-38 346 220
0.03545766 0.74900001 0.026264934 1.3990293e-38 347 220
0.036819998 0.75 0.0263 1.3899177e-38 348 220
0.038236689 0.75199997 0.02637013 1.3346004e-38 349 220
0.039660402 0.75400001 0.026440267 1.2882546e-38 350 220
0.040982414 0.75400001 0.026440267 1.6939154e-38 351 220
0.042472746 0.75700003 0.026545467 1.5308463e-38 352 220
0.043915741 0.759 0.026615599 1.6046028e-38 353 220
0.045246519 0.759 0.026615599 1.4667425e-38 354 220
0.046577301 0.759 0.026615599 1.4483033e-38 355 220
0.048034318 0.76099998 0.026685731 1.475781e-38 356 220
0.049368605 0.76099998 0.026685731 1.4573058e-38 357 220
0.050702889 0.76099998 0.026685731 1.3641732e-38 358 220
0.052037176 0.76099998 0.026685731 1.2166243e-38 359 220
0.053371463 0.76099998 0.026685731 1.0889183e-38 360 220
0.054777641 0.76200002 0.0267208 1.5130182e-38 361 220
-0.061457843 0.76200002 0.02538476 1.6779602e-38 274 221
-0.060121801 0.76200002 0.02538476 1.5488863e-38 275 221
-0.058785759 0.76200002 0.02538476 1.5675052e-38 276 221
-0.057374325 0.76099998 0.025351444 1.67814e-38 277 221
-0.055892758 0.759 0.025284819 1.6689226e-38 278 221
-0.054561976 0.759 0.025284819 1.6965813e-38 279 221
-0.053231198 0.759 0.025284819 1.7334952e-38 280 221
-0.051763661 0.75700003 0.025218192 1.7518983e-38 281 221
-0.050436385 0.75700003 0.025218192 1.7513903e-38 282 221
-0.048979364 0.755 0.025151566 1.2904122e-38 283 221
-0.047655597 0.755 0.025151566 1.3899883e-38 284 221
-0.04633183 0.755 0.025151566 1.5005872e-38 285 221
-0.044948451 0.75400001 0.025118252 1.5098771e-38 286 221
-0.043626439 0.75400001 0.025118252 1.5191325e-38 287 221
-0.04219221 0.75199997 0.025051624 1.5558307e-38 288 221
-0.040764999 0.75 0.024984999 1.5558307e-38 289 221
-0.0393974 0.74900001 0.024951685 1.5834891e-38 290 221
-0.038084153 0.74900001 0.024951685 1.5742696e-38 291 221
-0.036770906 0.74900001 0.024951685 1.5651576e-38 292 221
-0.035362978 0.74699998 0.024885058 1.5559381e-38 293 221
-0.034053236 0.74699998 0.024885058 1.5559736e-38 294 221
-0.032743499 0.74699998 0.024885058 1.5467181e-38 295 221
-0.031433757 0.74699998 0.024885058 1.5466114e-38 296 221
-0.03008369 0.74599999 0.024851745 1.5281723e-38 297 221
-0.028775707 0.74599999 0.024851745 1.5280651e-38 298 221
-0.027467718 0.74599999 0.024851745 1.5280651e-38 299 221
-0.026089599 0.74400002 0.02478512 1.5463966e-38 300 221
-0.02478512 0.74400002 0.02478512 1.5463966e-38 301 221
-0.023417519 0.74199998 0.024718491 1.5280295e-38 302 221
-0.022116546 0.74199998 0.024718491 1.5464685e-38 303 221
-0.020815572 0.74199998 0.024718491 1.5373212e-38 304 221
-0.0195146 0.74199998 0.024718491 1.5373212e-38 305 221
-0.018213626 0.74199998 0.024718491 1.5465414e-38 306 221
-0.016912652 0.74199998 0.024718491 1.5741642e-38 307 221
-0.015611678 0.74199998 0.024718491 1.5650894e-38 308 221
-0.01429142 0.741 0.024685178 1.5650894e-38 309 221
-0.0129922 0.741 0.024685178 1.5834932e-38 310 221
-0.01166142 0.73900002 0.024618553 1.6203714e-38 311 221
-0.010365707 0.73900002 0.024618553 1.6113311e-38 312 221
-0.0090699932 0.73900002 0.024618553 1.6113311e-38 313 221
-0.0077953199 0.741 0.024685178 1.6206213e-38 314 221
-0.0064785667 0.73900002 0.024618553 1.6206213e-38 315 221
-0.0051828534 0.73900002 0.024618553 1.6205844e-38 316 221
-0.0038976599 0.741 0.024685178 1.6021453e-38 317 221
-0.0025914267 0.73900002 0.024618553 1.5745942e-38 318 221
-0.0012957134 0.73900002 0.024618553 1.556155e-38 319 221
0 0.73900002 0.024618553 1.5744146e-38 320 221
0.0012957134 0.73900002 0.024618553 1.5559396e-38 321 221
0.0025914267 0.73900002 0.024618553 1.5741995e-38 322 221
0.00388714 0.73900002 0.024618553 1.5741995e-38 323 221
0.0051828534 0.73900002 0.024618553 1.5466128e-38 324 221
0.0064785667 0.73900002 0.024618553 1.5281736e-38 325 221
0.0077742799 0.73900002 0.024618553 1.5189174e-38 326 221
0.0090699932 0.73900002 0.024618553 1.509662e-38 327 221
0.010365707 0.73900002 0.024618553 1.4728199e-38 328 221
0.01166142 0.73900002 0.024618553 1.4635645e-38 329 221
0.012957133 0.73900002 0.024618553 1.4542377e-38 330 221
0.01429142 0.741 0.024685178 1.4450181e-38 331 221
0.01559064 0.741 0.024685178 1.4449817e-38 332 221
0.016912652 0.74199998 0.024718491 1.4449817e-38 333 221
0.01826272 0.74400002 0.02478512 1.435834e-38 334 221
0.019567199 0.74400002 0.02478512 1.4265786e-38 335 221
0.02087168 0.74400002 0.02478512 1.4173593e-38 336 221
0.022235774 0.74599999 0.024851745 1.3989562e-38 337 221
0.023543758 0.74599999 0.024851745 1.4172871e-38 338 221
0.024851745 0.74599999 0.024851745 1.4265067e-38 339 221
0.026159734 0.74599999 0.024851745 1.4356186e-38 340 221
0.027467718 0.74599999 0.024851745 1.4356186e-38 341 221
0.028775707 0.74599999 0.024851745 1.417324e-38 342 221
0.03008369 0.74599999 0.024851745 1.4265436e-38 343 221
0.031391677 0.74599999 0.024851745 1.3899174e-38 344 221
0.032743499 0.74699998 0.024885058 1.3806978e-38 345 221
0.034053236 0.74699998 0.024885058 1.3806625e-38 346 221
0.035362978 0.74699998 0.024885058 1.3806625e-38 347 221
0.036770906 0.74900001 0.024951685 1.3807344e-38 348 221
0.038084153 0.74900001 0.024951685 1.3346726e-38 349 221
0.039449997 0.75 0.024984999 1.2974739e-38 350 221
0.040873703 0.75199997 0.025051624 1.675476e-38 351 221
0.042472746 0.75700003 0.025218192 1.5123346e-38 352 221
0.043800019 0.75700003 0.025218192 1.6506281e-38 353 221
0.045246519 0.759 0.025284819 1.531063e-38 354 221
0.046577301 0.759 0.025284819 1.5125879e-38 355 221
0.047908079 0.759 0.025284819 1.4942917e-38 356 221
0.049368605 0.76099998 0.025351444 1.4758526e-38 357 221
0.050702889 0.76099998 0.025351444 1.3925133e-38 358 221
0.052037176 0.76099998 0.025351444 1.0882679e-38 359 221
0.053441599 0.76200002 0.02538476 8.7571555e-39 360 221
0.054777641 0.76200002 0.02538476 1.2629372e-38 361 221
-0.062793881 0.76200002 0.02404872 1.2907038e-38 273 222
-0.061457843 0.76200002 0.02404872 1.2444245e-38 274 222
-0.060121801 0.76200002 0.02404872 1.5578538e-38 275 222
-0.058785759 0.76200002 0.02404872 1.6503383e-38 276 222
-0.057374325 0.76099998 0.024017159 1.7056557e-38 277 222
-0.055892758 0.759 0.023954039 1.6689232e-38 278 222
-0.054561976 0.759 0.023954039 1.7057656e-38 279 222
-0.053231198 0.759 0.023954039 1.7150924e-38 280 222
-0.051763661 0.75700003 0.02389092 1.7335315e-38 281 222
-0.050436385 0.75700003 0.02389092 1.7514986e-38 282 222
-0.048979364 0.755 0.023827799 1.2813009e-38 283 222
-0.047655597 0.755 0.023827799 1.4175039e-38 284 222
-0.046270464 0.75400001 0.02379624 1.5281385e-38 285 222
-0.044948451 0.75400001 0.02379624 1.5374287e-38 286 222
-0.04351072 0.75199997 0.023733119 1.555868e-38 287 222
-0.04208 0.75 0.023669999 1.555868e-38 288 222
-0.040710647 0.74900001 0.02363844 1.5650876e-38 289 222
-0.0393974 0.74900001 0.02363844 1.5743427e-38 290 222
-0.038084153 0.74900001 0.02363844 1.5743427e-38 291 222
-0.036672719 0.74699998 0.023575317 1.5468632e-38 292 222
-0.035362978 0.74699998 0.023575317 1.5468632e-38 293 222
-0.034053236 0.74699998 0.023575317 1.5468632e-38 294 222
-0.032743499 0.74699998 0.023575317 1.5284241e-38 295 222
-0.031433757 0.74699998 0.023575317 1.5466477e-38 296 222
-0.03008369 0.74599999 0.023543758 1.5374282e-38 297 222
-0.02869856 0.74400002 0.023480639 1.5464685e-38 298 222
-0.027394081 0.74400002 0.023480639 1.5464685e-38 299 222
-0.026089599 0.74400002 0.023480639 1.5464685e-38 300 222
-0.024718491 0.74199998 0.023417519 1.5464685e-38 301 222
-0.023417519 0.74199998 0.023417519 1.5281014e-38 302 222
-0.022116546 0.74199998 0.023417519 1.5281014e-38 303 222
-0.020815572 0.74199998 0.023417519 1.5464329e-38 304 222
-0.0195146 0.74199998 0.023417519 1.5556525e-38 305 222
