# .PCD v.7 - Point Cloud Data file format
FIELDS x y z rgb imX imY
SIZE 4 4 4 4 4 4
TYPE F F F F F F
COUNT 1 1 1 1 1 1
WIDTH 841
HEIGHT 1
VIEWPOINT 0 0 0 1 0 0 0
POINTS 841
DATA ascii
-0.0025493465 0.727 -0.015296079 8.3757627e-39 318 252
-0.0012746733 0.727 -0.015296079 8.8363821e-39 319 252
0 0.727 -0.015296079 8.6588264e-39 320 252
0.0012746733 0.727 -0.015296079 9.1201647e-39 321 252
0.0025528532 0.72799999 -0.01531712 9.2156099e-39 322 252
0.0038292799 0.72799999 -0.01531712 1.0322318e-38 323 252
0.0051057064 0.72799999 -0.01531712 1.1152454e-38 324 252
0.0063821329 0.72799999 -0.01531712 1.2811615e-38 325 252
0.0076480396 0.727 -0.015296079 1.3280878e-38 326 252
0.0089227129 0.727 -0.015296079 1.5677965e-38 327 252
-0.014040692 0.72799999 -0.016593546 7.2791233e-39 309 253
-0.012764266 0.72799999 -0.016593546 8.5496793e-39 310 253
-0.01148784 0.72799999 -0.016593546 8.7340705e-39 311 253
-0.010211413 0.72799999 -0.016593546 8.186991e-39 312 253
-0.0089349858 0.72799999 -0.016593546 7.7263786e-39 313 253
-0.0076585598 0.72799999 -0.016593546 6.0647301e-39 314 253
-0.0063821329 0.72799999 -0.016593546 4.4999393e-39 315 253
-0.0050986931 0.727 -0.016570752 7.0713374e-39 316 253
-0.0038240198 0.727 -0.016570752 9.5591845e-39 317 253
-0.0025423334 0.72500002 -0.016525166 1.0670574e-38 318 253
-0.0012711667 0.72500002 -0.016525166 1.2329735e-38 319 253
0 0.72500002 -0.016525166 9.9488435e-39 320 253
0.0012711667 0.72500002 -0.016525166 9.3034741e-39 321 253
0.0025493465 0.727 -0.016570752 7.2719333e-39 322 253
0.0038240198 0.727 -0.016570752 6.5343682e-39 323 253
0.0050986931 0.727 -0.016570752 6.7122925e-39 324 253
0.0063733663 0.727 -0.016570752 5.8825304e-39 325 253
0.0076480396 0.727 -0.016570752 4.9829024e-39 326 253
0.0089227129 0.727 -0.016570752 9.4082927e-39 327 253
0.010197386 0.727 -0.016570752 1.309973e-38 328 253
0.01147206 0.727 -0.016570752 1.5865599e-38 329 253
-0.015254001 0.72500002 -0.017796334 6.8159942e-39 308 254
-0.014021406 0.727 -0.017845426 4.9717215e-39 309 254
-0.012746733 0.727 -0.017845426 7.9115223e-39 310 254
-0.01147206 0.727 -0.017845426 7.9115223e-39 311 254
-0.010211413 0.72799999 -0.017869972 8.1848666e-39 312 254
-0.0089227129 0.727 -0.017845426 8.5536477e-39 313 254
-0.0076480396 0.727 -0.017845426 1.0571526e-38 314 254
-0.0063558333 0.72500002 -0.017796334 1.0755557e-38 315 254
-0.0050846669 0.72500002 -0.017796334 8.9235191e-39 316 254
-0.0038135003 0.72500002 -0.017796334 9.3848574e-39 317 254
-0.0025353199 0.72299999 -0.017747238 9.4795865e-39 318 254
-0.0012676599 0.72299999 -0.017747238 1.169264e-38 319 254
0 0.72299999 -0.017747238 1.0778976e-38 320 254
0.0012711667 0.72500002 -0.017796334 9.9492149e-39 321 254
0.0025423334 0.72500002 -0.017796334 9.2065926e-39 322 254
0.0038135003 0.72500002 -0.017796334 7.9158537e-39 323 254
0.0050986931 0.727 -0.017845426 8.2788531e-39 324 254
0.0063733663 0.727 -0.017845426 7.2647012e-39 325 254
0.0076480396 0.727 -0.017845426 3.6816917e-39 326 254
0.0089227129 0.727 -0.017845426 5.2490174e-39 327 254
0.010197386 0.727 -0.017845426 6.2848096e-39 328 254
0.01147206 0.727 -0.017845426 1.1816547e-38 329 254
0.012799333 0.73000002 -0.017919067 1.6414101e-38 330 254
0.014079267 0.73000002 -0.017919067 1.6783242e-38 331 254
-0.01647958 0.72299999 -0.019014901 1.171066e-38 307 255
-0.015254001 0.72500002 -0.0190675 4.0476044e-39 308 255
-0.013982833 0.72500002 -0.0190675 6.2602981e-39 309 255
-0.012711667 0.72500002 -0.0190675 9.2948225e-39 310 255
-0.0114405 0.72500002 -0.0190675 9.2026269e-39 311 255
-0.010169334 0.72500002 -0.0190675 8.8324179e-39 312 255
-0.0088981669 0.72500002 -0.0190675 1.0952919e-38 313 255
-0.0076270006 0.72500002 -0.0190675 1.4640769e-38 314 255
-0.0063558333 0.72500002 -0.0190675 1.6023704e-38 315 255
-0.0050706398 0.72299999 -0.019014901 1.4005849e-38 316 255
-0.0038029798 0.72299999 -0.019014901 1.2622915e-38 317 255
-0.0025353199 0.72299999 -0.019014901 9.8469453e-39 318 255
-0.0012676599 0.72299999 -0.019014901 9.2015759e-39 319 255
0 0.72299999 -0.019014901 1.0037427e-38 320 255
0.0012676599 0.72299999 -0.019014901 9.6690028e-39 321 255
0.0025423334 0.72500002 -0.0190675 9.8476334e-39 322 255
0.0038135003 0.72500002 -0.0190675 9.4784907e-39 323 255
0.0050846669 0.72500002 -0.0190675 9.0207398e-39 324 255
0.0063558333 0.72500002 -0.0190675 9.0207398e-39 325 255
0.0076480396 0.727 -0.019120099 7.6392669e-39 326 255
0.0089227129 0.727 -0.019120099 5.7953543e-39 327 255
0.010211413 0.72799999 -0.0191464 2.5044188e-39 328 255
0.01148784 0.72799999 -0.0191464 5.9156571e-39 329 255
0.012799333 0.73000002 -0.019199001 1.2088102e-38 330 255
0.014079267 0.73000002 -0.019199001 1.5314591e-38 331 255
0.0153592 0.73000002 -0.019199001 1.7517195e-38 332 255
-0.017747238 0.72299999 -0.020282559 1.3739319e-38 306 256
-0.01647958 0.72299999 -0.020282559 9.2217336e-39 307 256
-0.015190879 0.722 -0.020254506 4.8759259e-39 308 256
-0.013924973 0.722 -0.020254506 7.1804565e-39 309 256
-0.012676599 0.72299999 -0.020282559 9.2026269e-39 310 256
-0.01140894 0.72299999 -0.020282559 9.0182356e-39 311 256
-0.01014128 0.72299999 -0.020282559 8.833864e-39 312 256
-0.0088736191 0.72299999 -0.020282559 9.1108096e-39 313 256
-0.0075954394 0.722 -0.020254506 1.1425088e-38 314 256
-0.0063295332 0.722 -0.020254506 1.2715826e-38 315 256
-0.0050636264 0.722 -0.020254506 1.353841e-38 316 256
-0.0037977197 0.722 -0.020254506 1.2708289e-38 317 256
-0.0025318132 0.722 -0.020254506 9.1104537e-39 318 256
-0.0012659066 0.722 -0.020254506 7.7275192e-39 319 256
0 0.72299999 -0.020282559 9.4763271e-39 320 256
0.0012676599 0.72299999 -0.020282559 9.5685227e-39 321 256
0.0025353199 0.72299999 -0.020282559 9.2001074e-39 322 256
0.0038029798 0.72299999 -0.020282559 9.2001074e-39 323 256
0.0050706398 0.72299999 -0.020282559 8.9278379e-39 324 256
0.0063382997 0.72299999 -0.020282559 8.8356422e-39 325 256
0.0076270006 0.72500002 -0.020338668 8.0991688e-39 326 256
0.0088981669 0.72500002 -0.020338668 9.8512459e-39 327 256
0.010197386 0.727 -0.020394772 6.7281328e-39 328 256
0.01147206 0.727 -0.020394772 6.4515445e-39 329 256
0.012799333 0.73000002 -0.020478934 6.0996967e-39 330 256
0.014079267 0.73000002 -0.020478934 1.0986064e-38 331 256
0.01538024 0.73100001 -0.020506985 1.5954198e-38 332 256
0.016661927 0.73100001 -0.020506985 1.6599567e-38 333 256
-0.017747238 0.72299999 -0.021550218 1.0789775e-38 306 257
-0.01647958 0.72299999 -0.021550218 5.1662021e-39 307 257
-0.015190879 0.722 -0.021520413 6.625838e-39 308 257
-0.013924973 0.722 -0.021520413 8.1931637e-39 309 257
-0.012676599 0.72299999 -0.021550218 9.018586e-39 310 257
-0.01140894 0.72299999 -0.021550218 8.7423578e-39 311 257
-0.01014128 0.72299999 -0.021550218 8.8338542e-39 312 257
-0.0088367993 0.72000003 -0.021460801 8.0959304e-39 313 257
-0.0075743999 0.72000003 -0.021460801 6.9089143e-39 314 257
-0.0063120001 0.72000003 -0.021460801 8.8450225e-39 315 257
-0.0050496003 0.72000003 -0.021460801 1.0677061e-38 316 257
-0.0037872 0.72000003 -0.021460801 9.6625485e-39 317 257
-0.0025248001 0.72000003 -0.021460801 8.5565386e-39 318 257
-0.0012659066 0.722 -0.021520413 8.5565386e-39 319 257
0 0.722 -0.021520413 9.1075474e-39 320 257
0.0012659066 0.722 -0.021520413 9.1075474e-39 321 257
0.0025318132 0.722 -0.021520413 8.6476581e-39 322 257
0.0037977197 0.722 -0.021520413 8.8320493e-39 323 257
0.0050636264 0.722 -0.021520413 8.4665108e-39 324 257
0.0063382997 0.72299999 -0.021550218 8.6509021e-39 325 257
0.0076059597 0.72299999 -0.021550218 7.9158706e-39 326 257
0.0088981669 0.72500002 -0.021609833 1.1972837e-38 327 257
0.010169334 0.72500002 -0.021609833 1.0780775e-38 328 257
0.01147206 0.727 -0.021669446 8.8446666e-39 329 257
0.012764266 0.72799999 -0.021699252 4.5262389e-39 330 257
0.014079267 0.73000002 -0.021758866 5.8169777e-39 331 257
0.0153592 0.73000002 -0.021758866 1.2639474e-38 332 257
0.016661927 0.73100001 -0.021788673 1.5958517e-38 333 257
0.017992707 0.73299998 -0.021848286 1.7241324e-38 334 257
-0.018909698 0.71899998 -0.022691639 1.6412274e-38 305 258
-0.017649053 0.71899998 -0.022691639 6.4551388e-39 306 258
-0.016456785 0.722 -0.022786319 3.3204888e-39 307 258
-0.015190879 0.722 -0.022786319 8.0073235e-39 308 258
-0.013924973 0.722 -0.022786319 8.6526929e-39 309 258
-0.012659066 0.722 -0.022786319 9.0182202e-39 310 258
-0.011361601 0.72000003 -0.022723202 8.8338276e-39 311 258
-0.010099201 0.72000003 -0.022723202 8.7412788e-39 312 258
-0.0088245263 0.71899998 -0.022691639 8.4646933e-39 313 258
-0.0075638802 0.71899998 -0.022691639 7.9136873e-39 314 258
-0.0063032326 0.71899998 -0.022691639 8.2824685e-39 315 258
-0.0050425865 0.71899998 -0.022691639 8.6505293e-39 316 258
-0.0037819401 0.71899998 -0.022691639 8.6505293e-39 317 258
-0.0025212932 0.71899998 -0.022691639 8.741276e-39 318 258
-0.0012606466 0.71899998 -0.022691639 8.741276e-39 319 258
0 0.72000003 -0.022723202 8.282816e-39 320 258
0.0012624001 0.72000003 -0.022723202 8.1906204e-39 321 258
0.0025318132 0.722 -0.022786319 8.006592e-39 322 258
0.0037977197 0.722 -0.022786319 8.1906232e-39 323 258
0.0050636264 0.722 -0.022786319 8.3746613e-39 324 258
0.0063295332 0.722 -0.022786319 8.4672171e-39 325 258
0.0076059597 0.72299999 -0.02281788 7.8258259e-39 326 258
0.0088736191 0.72299999 -0.02281788 1.0591695e-38 327 258
0.01014128 0.72299999 -0.02281788 1.1058441e-38 328 258
0.0114405 0.72500002 -0.022880999 1.0966244e-38 329 258
0.012746733 0.727 -0.022944121 7.7437295e-39 330 258
0.014040692 0.72799999 -0.022975679 5.8998169e-39 331 258
0.0153592 0.73000002 -0.023038799 8.676494e-39 332 258
0.016639132 0.73000002 -0.023038799 1.3746895e-38 333 258
0.017919067 0.73000002 -0.023038799 1.7425718e-38 334 258
0.019199001 0.73000002 -0.023038799 1.7240968e-38 335 258
-0.020170346 0.71899998 -0.023952285 1.6595949e-38 304 259
-0.018909698 0.71899998 -0.023952285 1.4383614e-38 305 259
-0.017649053 0.71899998 -0.023952285 4.3324715e-39 306 259
-0.016388407 0.71899998 -0.023952285 3.6871021e-39 307 259
-0.0151488 0.72000003 -0.0239856 9.0203838e-39 308 259
-0.0138864 0.72000003 -0.0239856 8.9281882e-39 309 259
-0.012606465 0.71899998 -0.023952285 9.2933624e-39 310 259
-0.01134582 0.71899998 -0.023952285 9.0167741e-39 311 259
-0.01005712 0.71700001 -0.02388566 8.6483587e-39 312 259
-0.0087999795 0.71700001 -0.02388566 8.6483587e-39 313 259
-0.0075428397 0.71700001 -0.02388566 8.373948e-39 314 259
-0.0062857 0.71700001 -0.02388566 8.373948e-39 315 259
-0.0050285598 0.71700001 -0.02388566 8.466508e-39 316 259
-0.0037714199 0.71700001 -0.02388566 8.8352891e-39 317 259
-0.0025142799 0.71700001 -0.02388566 9.479197e-39 318 259
-0.00125714 0.71700001 -0.02388566 9.3866426e-39 319 259
0 0.71700001 -0.02388566 9.0160524e-39 320 259
0.0012606466 0.71899998 -0.023952285 8.7391054e-39 321 259
0.0025212932 0.71899998 -0.023952285 8.55544e-39 322 259
0.0037872 0.72000003 -0.0239856 8.7401914e-39 323 259
0.0050496003 0.72000003 -0.0239856 8.0073207e-39 324 259
0.0063120001 0.72000003 -0.0239856 8.468659e-39 325 259
0.0075954394 0.722 -0.024052227 7.8276266e-39 326 259
0.0088613462 0.722 -0.024052227 9.7637348e-39 327 259
0.01014128 0.72299999 -0.024085538 1.0963371e-38 328 259
0.01140894 0.72299999 -0.024085538 1.1793132e-38 329 259
0.012676599 0.72299999 -0.024085538 1.0136857e-38 330 259
0.014021406 0.727 -0.024218792 7.5553795e-39 331 259
0.0153592 0.73000002 -0.024318734 5.5400391e-39 332 259
0.016639132 0.73000002 -0.024318734 1.0702994e-38 333 259
0.017919067 0.73000002 -0.024318734 1.6597399e-38 334 259
0.019199001 0.73000002 -0.024318734 1.7150573e-38 335 259
-0.020170346 0.71899998 -0.025212931 1.5397409e-38 304 260
-0.018909698 0.71899998 -0.025212931 1.198617e-38 305 260
-0.017649053 0.71899998 -0.025212931 4.5132699e-39 306 260
-0.016388407 0.71899998 -0.025212931 5.1586393e-39 307 260
-0.01512776 0.71899998 -0.025212931 9.1143787e-39 308 260
-0.013867113 0.71899998 -0.025212931 9.0221831e-39 309 260
-0.0125714 0.71700001 -0.0251428 9.0189363e-39 310 260
-0.01131426 0.71700001 -0.0251428 8.5583169e-39 311 260
-0.010043093 0.71600002 -0.025107734 8.6483615e-39 312 260
-0.0087877065 0.71600002 -0.025107734 8.5561659e-39 313 260
-0.0075428397 0.71700001 -0.0251428 8.3724949e-39 314 260
-0.0062857 0.71700001 -0.0251428 8.4650492e-39 315 260
-0.0050215465 0.71600002 -0.025107734 8.6480056e-39 316 260
-0.00376616 0.71600002 -0.025107734 9.6625162e-39 317 260
-0.0025107733 0.71600002 -0.025107734 1.2894046e-38 318 260
-0.00125714 0.71700001 -0.0251428 1.3539416e-38 319 260
0 0.71700001 -0.0251428 1.1690447e-38 320 260
0.00125714 0.71700001 -0.0251428 9.1089697e-39 321 260
0.0025142799 0.71700001 -0.0251428 7.9089818e-39 322 260
0.0037714199 0.71700001 -0.0251428 8.5543512e-39 323 260
0.0050285598 0.71700001 -0.0251428 7.8236399e-39 324 260
0.0063032326 0.71899998 -0.025212931 8.4690093e-39 325 260
0.0075743999 0.72000003 -0.025248 8.0123696e-39 326 260
0.0088367993 0.72000003 -0.025248 9.9484778e-39 327 260
0.010099201 0.72000003 -0.025248 1.0597828e-38 328 260
0.01139316 0.722 -0.025318133 1.1243198e-38 329 260
0.012676599 0.72299999 -0.025353199 9.8645821e-39 330 260
0.01394426 0.72299999 -0.025353199 9.0348214e-39 331 260
0.015254001 0.72500002 -0.025423333 9.2559407e-40 332 260
0.016593546 0.72799999 -0.025528532 4.7974518e-39 333 260
0.017869972 0.72799999 -0.025528532 1.466239e-38 334 260
0.0191464 0.72799999 -0.025528532 1.6413748e-38 335 260
-0.020170346 0.71899998 -0.02647358 1.4013758e-38 304 261
-0.018909698 0.71899998 -0.02647358 8.8508029e-39 305 261
-0.017649053 0.71899998 -0.02647358 5.4309074e-39 306 261
-0.016388407 0.71899998 -0.02647358 6.6294505e-39 307 261
-0.01512776 0.71899998 -0.02647358 9.6700594e-39 308 261
-0.013828539 0.71700001 -0.02639994 9.3931138e-39 309 261
-0.0125714 0.71700001 -0.02639994 9.5702982e-39 310 261
-0.01129848 0.71600002 -0.026363119 9.0171244e-39 311 261
-0.010043093 0.71600002 -0.026363119 8.6487118e-39 312 261
-0.0087877065 0.71600002 -0.026363119 8.5565162e-39 313 261
-0.00753232 0.71600002 -0.026363119 8.1891826e-39 314 261
-0.0062769335 0.71600002 -0.026363119 8.1891826e-39 315 261
-0.0050215465 0.71600002 -0.026363119 8.8356366e-39 316 261
-0.00376616 0.71600002 -0.026363119 1.0311125e-38 317 261
-0.0025107733 0.71600002 -0.026363119 1.3081677e-38 318 261
-0.0012553866 0.71600002 -0.026363119 1.4741559e-38 319 261
0 0.71600002 -0.026363119 1.3446122e-38 320 261
0.0012553866 0.71600002 -0.026363119 1.1049394e-38 321 261
0.0025107733 0.71600002 -0.026363119 9.5692066e-39 322 261
0.00376616 0.71600002 -0.026363119 8.4625003e-39 323 261
0.0050215465 0.71600002 -0.026363119 8.557598e-39 324 261
0.0062857 0.71700001 -0.02639994 9.5713898e-39 325 261
0.0075428397 0.71700001 -0.02639994 7.5510369e-39 326 261
0.0088245263 0.71899998 -0.02647358 1.0409101e-38 327 261
0.010085173 0.71899998 -0.02647358 1.0690743e-38 328 261
0.011361601 0.72000003 -0.026510401 1.0598547e-38 329 261
0.012659066 0.722 -0.026584039 1.0139727e-38 330 261
0.01394426 0.72299999 -0.026620859 9.7705844e-39 331 261
0.015211919 0.72299999 -0.026620859 3.5002348e-39 332 261
0.016525166 0.72500002 -0.026694499 2.1169416e-39 333 261
0.017845426 0.727 -0.026768139 1.1161114e-38 334 261
0.019120099 0.727 -0.026768139 1.4849299e-38 335 261
-0.020114239 0.71700001 -0.027657079 1.1340079e-38 304 262
-0.018857099 0.71700001 -0.027657079 5.439559e-39 305 262
-0.017599959 0.71700001 -0.027657079 6.534734e-39 306 262
-0.016342819 0.71700001 -0.027657079 8.1024184e-39 307 262
-0.015085679 0.71700001 -0.027657079 9.8548206e-39 308 262
-0.013828539 0.71700001 -0.027657079 9.762625e-39 309 262
-0.012553867 0.71600002 -0.027618507 9.5688703e-39 310 262
-0.01129848 0.71600002 -0.027618507 9.0160552e-39 311 262
-0.01001504 0.71399999 -0.02754136 8.5561603e-39 312 262
-0.0087631596 0.71399999 -0.02754136 8.5561603e-39 313 262
-0.0075112795 0.71399999 -0.02754136 8.280651e-39 314 262
-0.0062593995 0.71399999 -0.02754136 8.0962597e-39 315 262
-0.0050075199 0.71399999 -0.02754136 9.4827941e-39 316 262
-0.0037556398 0.71399999 -0.02754136 1.1511098e-38 317 262
-0.0025037599 0.71399999 -0.02754136 1.2713971e-38 318 262
-0.00125188 0.71399999 -0.02754136 1.3820317e-38 319 262
0 0.71399999 -0.02754136 1.4649359e-38 320 262
0.00125188 0.71399999 -0.02754136 1.3635207e-38 321 262
0.0025037599 0.71399999 -0.02754136 1.2338682e-38 322 262
0.0037556398 0.71399999 -0.02754136 9.2965854e-39 323 262
0.0050075199 0.71399999 -0.02754136 8.0062123e-39 324 262
0.0062593995 0.71399999 -0.02754136 9.0207243e-39 325 262
0.00753232 0.71600002 -0.027618507 7.9162237e-39 326 262
0.0087999795 0.71700001 -0.027657079 1.1419658e-38 327 262
0.01005712 0.71700001 -0.027657079 1.1058085e-38 328 262
0.01134582 0.71899998 -0.027734226 1.0873692e-38 329 262
0.012624 0.72000003 -0.027772799 1.014009e-38 330 262
0.013924973 0.722 -0.027849946 9.6794719e-39 331 262
0.015211919 0.72299999 -0.02788852 6.5383521e-39 332 262
0.01647958 0.72299999 -0.02788852 4.6022439e-39 333 262
0.017747238 0.72299999 -0.02788852 6.645665e-39 334 262
0.019014901 0.72299999 -0.02788852 1.2269597e-38 335 262
-0.020086186 0.71600002 -0.028873893 8.7596736e-39 304 263
-0.0188308 0.71600002 -0.028873893 3.3204916e-39 305 263
-0.017599959 0.71700001 -0.028914221 7.8236609e-39 306 263
-0.016342819 0.71700001 -0.028914221 9.5750192e-39 307 263
-0.015085679 0.71700001 -0.028914221 1.1143404e-38 308 263
-0.013809253 0.71600002 -0.028873893 9.9448611e-39 309 263
-0.012518799 0.71399999 -0.028793238 9.29121e-39 310 263
-0.011266919 0.71399999 -0.028793238 8.9227876e-39 311 263
-0.010001013 0.713 -0.028752912 8.280651e-39 312 263
-0.0087508867 0.713 -0.028752912 8.1884553e-39 313 263
-0.0075007593 0.713 -0.028752912 8.4657653e-39 314 263
-0.0062506334 0.713 -0.028752912 9.8486998e-39 315 263
-0.0050075199 0.71399999 -0.028793238 1.0590951e-38 316 263
-0.0037556398 0.71399999 -0.028793238 1.2158635e-38 317 263
-0.0025037599 0.71399999 -0.028793238 1.2898365e-38 318 263
-0.00125188 0.71399999 -0.028793238 1.3451539e-38 319 263
0 0.71399999 -0.028793238 1.3729921e-38 320 263
0.00125188 0.71399999 -0.028793238 1.4006508e-38 321 263
0.0025037599 0.71399999 -0.028793238 1.4370236e-38 322 263
0.0037556398 0.71399999 -0.028793238 1.2249736e-38 323 263
0.0050075199 0.71399999 -0.028793238 1.049659e-38 324 263
0.0062593995 0.71399999 -0.028793238 9.4824382e-39 325 263
0.00753232 0.71600002 -0.028873893 7.6389165e-39 326 263
0.0087877065 0.71600002 -0.028873893 1.2064308e-38 327 263
0.010043093 0.71600002 -0.028873893 1.2161191e-38 328 263
0.01131426 0.71700001 -0.028914221 1.2068996e-38 329 263
0.012606465 0.71899998 -0.028994869 1.1151002e-38 330 263
0.0138864 0.72000003 -0.029035201 1.0321241e-38 331 263
0.015190879 0.722 -0.029115854 6.8170844e-39 332 263
0.01647958 0.72299999 -0.029156178 5.1575645e-39 333 263
0.017747238 0.72299999 -0.029156178 3.4155739e-39 334 263
0.019014901 0.72299999 -0.029156178 9.9614636e-39 335 263
-0.022596961 0.71600002 -0.03012928 1.7241674e-38 302 264
-0.021281958 0.71399999 -0.030045118 1.5397762e-38 303 264
-0.020030079 0.71399999 -0.030045118 7.0083126e-39 304 264
-0.0188308 0.71600002 -0.03012928 2.9517049e-39 305 264
-0.017599959 0.71700001 -0.030171359 8.56087e-39 306 264
-0.016342819 0.71700001 -0.030171359 1.0312587e-38 307 264
-0.01506464 0.71600002 -0.03012928 1.160583e-38 308 264
-0.013809253 0.71600002 -0.03012928 9.4849717e-39 309 264
-0.012518799 0.71399999 -0.030045118 8.3717788e-39 310 264
-0.011251139 0.713 -0.030003037 8.3717788e-39 311 264
-0.0099729598 0.71100003 -0.029918881 8.1895386e-39 312 264
-0.0087263398 0.71100003 -0.029918881 7.8203959e-39 313 264
-0.0074797203 0.71100003 -0.029918881 8.7412788e-39 314 264
-0.0062330998 0.71100003 -0.029918881 1.233691e-38 315 264
-0.0049864799 0.71100003 -0.029918881 1.2251566e-38 316 264
-0.0037398601 0.71100003 -0.029918881 1.2712903e-38 317 264
-0.0025002533 0.713 -0.030003037 1.3083851e-38 318 264
-0.0012501266 0.713 -0.030003037 1.3360438e-38 319 264
0 0.713 -0.030003037 1.2993432e-38 320 264
0.0012501266 0.713 -0.030003037 1.3270018e-38 321 264
0.0025002533 0.713 -0.030003037 1.4005059e-38 322 264
0.0037503797 0.713 -0.030003037 1.3912863e-38 323 264
0.0050005065 0.713 -0.030003037 1.2991285e-38 324 264
0.0062506334 0.713 -0.030003037 1.0132862e-38 325 264
0.0075007593 0.713 -0.030003037 7.7311122e-39 326 264
0.0087631596 0.71399999 -0.030045118 1.1972113e-38 327 264
0.01001504 0.71399999 -0.030045118 1.2069351e-38 328 264
0.01129848 0.71600002 -0.03012928 1.2622166e-38 329 264
0.0125714 0.71700001 -0.030171359 1.1429387e-38 330 264
0.013867113 0.71899998 -0.030255521 1.0415235e-38 331 264
0.0151488 0.72000003 -0.0302976 7.1872963e-39 332 264
0.0164112 0.72000003 -0.0302976 5.5277749e-39 333 264
0.017747238 0.72299999 -0.030423839 2.762999e-39 334 264
0.019014901 0.72299999 -0.030423839 8.0181499e-39 335 264
0.020282559 0.72299999 -0.030423839 1.5121901e-38 336 264
-0.02378572 0.71399999 -0.031296998 1.7794125e-38 301 265
-0.022533838 0.71399999 -0.031296998 1.6505188e-38 302 265
-0.021281958 0.71399999 -0.031296998 1.3554568e-38 303 265
-0.020030079 0.71399999 -0.031296998 6.6380854e-39 304 265
-0.018778199 0.71399999 -0.031296998 3.6878252e-39 305 265
-0.017575413 0.71600002 -0.031384666 8.4683115e-39 306 265
-0.016320027 0.71600002 -0.031384666 9.7590503e-39 307 265
-0.01506464 0.71600002 -0.031384666 1.0594919e-38 308 265
-0.01377068 0.71399999 -0.031296998 8.7510066e-39 309 265
-0.012501267 0.713 -0.031253166 8.2795818e-39 310 265
-0.01121958 0.71100003 -0.031165501 8.5558099e-39 311 265
-0.0099729598 0.71100003 -0.031165501 8.280651e-39 312 265
-0.0087263398 0.71100003 -0.031165501 7.7274786e-39 313 265
-0.0074797203 0.71100003 -0.031165501 8.7420061e-39 314 265
-0.0062330998 0.71100003 -0.031165501 1.3628014e-38 315 265
-0.0049864799 0.71100003 -0.031165501 1.391074e-38 316 265
-0.0037398601 0.71100003 -0.031165501 1.4648305e-38 317 265
-0.0024932399 0.71100003 -0.031165501 1.4282037e-38 318 265
-0.00124662 0.71100003 -0.031165501 1.4282037e-38 319 265
0 0.71100003 -0.031165501 1.29034e-38 320 265
0.00124662 0.71100003 -0.031165501 1.0506674e-38 321 265
0.0024932399 0.71100003 -0.031165501 9.3852203e-39 322 265
0.0037398601 0.71100003 -0.031165501 1.1229133e-38 323 265
0.0049864799 0.71100003 -0.031165501 1.0870077e-38 324 265
0.0062330998 0.71100003 -0.031165501 9.856285e-39 325 265
0.0074797203 0.71100003 -0.031165501 8.8367381e-39 326 265
0.0087263398 0.71100003 -0.031165501 1.1786998e-38 327 265
0.010001013 0.713 -0.031253166 1.1058435e-38 328 265
0.011266919 0.71399999 -0.031296998 1.2256977e-38 329 265
0.012553867 0.71600002 -0.031384666 1.1065641e-38 330 265
0.013828539 0.71700001 -0.031428497 1.0051847e-38 331 265
0.01512776 0.71899998 -0.031516165 7.7404672e-39 332 265
0.016388407 0.71899998 -0.031516165 5.8965546e-39 333 265
0.017649053 0.71899998 -0.031516165 4.783387e-39 334 265
0.018857099 0.71700001 -0.031428497 7.918037e-39 335 265
0.020114239 0.71700001 -0.031428497 1.3738966e-38 336 265
-0.02378572 0.71399999 -0.032548878 1.7978874e-38 301 266
-0.022533838 0.71399999 -0.032548878 1.6320074e-38 302 266
-0.021281958 0.71399999 -0.032548878 1.2263466e-38 303 266
-0.020030079 0.71399999 -0.032548878 6.5437219e-39 304 266
-0.018778199 0.71399999 -0.032548878 4.6076137e-39 305 266
-0.017575413 0.71600002 -0.032640055 8.2849866e-39 306 266
-0.016320027 0.71600002 -0.032640055 9.0225516e-39 307 266
-0.015022559 0.71399999 -0.032548878 1.1421436e-38 308 266
-0.013751393 0.713 -0.032503292 9.5775233e-39 309 266
-0.0124662 0.71100003 -0.032412119 8.0044368e-39 310 266
-0.01121958 0.71100003 -0.032412119 8.0044368e-39 311 266
-0.0099589331 0.70999998 -0.032366529 8.005506e-39 312 266
-0.0087140659 0.70999998 -0.032366529 7.3601366e-39 313 266
-0.0074797203 0.71100003 -0.032412119 8.1910015e-39 314 266
-0.0062330998 0.71100003 -0.032412119 1.2800783e-38 315 266
-0.0049864799 0.71100003 -0.032412119 1.3637044e-38 316 266
-0.0037398601 0.71100003 -0.032412119 1.4743392e-38 317 266
-0.0024932399 0.71100003 -0.032412119 1.4836291e-38 318 266
-0.00124662 0.71100003 -0.032412119 1.4928487e-38 319 266
0 0.71100003 -0.032412119 1.2902331e-38 320 266
0.0012448666 0.70999998 -0.032366529 9.8598737e-39 321 266
0.0024897333 0.70999998 -0.032366529 4.6933269e-39 322 266
0.0037345996 0.70999998 -0.032366529 5.9840657e-39 323 266
0.0049794666 0.70999998 -0.032366529 8.3811507e-39 324 266
0.0062243328 0.70999998 -0.032366529 8.2889551e-39 325 266
0.0074691991 0.70999998 -0.032366529 7.6461038e-39 326 266
0.0087263398 0.71100003 -0.032412119 1.0319777e-38 327 266
0.0099729598 0.71100003 -0.032412119 1.069073e-38 328 266
0.011251139 0.713 -0.032503292 1.2073665e-38 329 266
0.012518799 0.71399999 -0.032548878 1.1432984e-38 330 266
0.013809253 0.71600002 -0.032640055 1.0695419e-38 331 266
0.015085679 0.71700001 -0.032685637 8.1081764e-39 332 266
0.016342819 0.71700001 -0.032685637 6.1720681e-39 333 266
0.017599959 0.71700001 -0.032685637 4.968137e-39 334 266
0.018857099 0.71700001 -0.032685637 6.9042452e-39 335 266
0.020114239 0.71700001 -0.032685637 1.1710662e-38 336 266
-0.02388566 0.71700001 -0.033942781 1.8071069e-38 301 267
-0.022596961 0.71600002 -0.03389544 1.6318276e-38 302 267
-0.021281958 0.71399999 -0.033800758 1.1155321e-38 303 267
-0.020030079 0.71399999 -0.033800758 6.3575258e-39 304 267
-0.018778199 0.71399999 -0.033800758 5.066787e-39 305 267
-0.017575413 0.71600002 -0.03389544 9.6693532e-39 306 267
-0.016320027 0.71600002 -0.03389544 1.1605461e-38 307 267
-0.015001519 0.713 -0.033753417 1.3264627e-38 308 267
-0.01371282 0.71100003 -0.033658739 1.0222171e-38 309 267
-0.0124662 0.71100003 -0.033658739 8.002639e-39 310 267
-0.01121958 0.71100003 -0.033658739 8.0948346e-39 311 267
-0.0099589331 0.70999998 -0.033611398 8.0955535e-39 312 267
-0.0087140659 0.70999998 -0.033611398 7.9115223e-39 313 267
-0.0074691991 0.70999998 -0.033611398 7.6389165e-39 314 267
-0.0062243328 0.70999998 -0.033611398 1.0220394e-38 315 267
-0.0049794666 0.70999998 -0.033611398 1.050527e-38 316 267
-0.0037398601 0.71100003 -0.033658739 1.1611257e-38 317 267
-0.0024897333 0.70999998 -0.033611398 1.2347009e-38 318 267
-0.0012448666 0.70999998 -0.033611398 1.2254813e-38 319 267
0 0.70999998 -0.033611398 1.1885305e-38 320 267
0.0012448666 0.70999998 -0.033611398 1.0133947e-38 321 267
0.0024897333 0.70999998 -0.033611398 6.0755579e-39 322 267
0.0037345996 0.70999998 -0.033611398 6.5365361e-39 323 267
0.0049794666 0.70999998 -0.033611398 6.3557405e-39 324 267
0.0062243328 0.70999998 -0.033611398 4.8806104e-39 325 267
0.0074691991 0.70999998 -0.033611398 5.3444767e-39 326 267
0.0087140659 0.70999998 -0.033611398 9.9542582e-39 327 267
0.0099729598 0.71100003 -0.033658739 1.1243213e-38 328 267
0.01121958 0.71100003 -0.033658739 1.2349921e-38 329 267
0.012501267 0.713 -0.033753417 1.134223e-38 330 267
0.01377068 0.71399999 -0.033800758 1.1157839e-38 331 267
0.01506464 0.71600002 -0.03389544 8.5698776e-39 332 267
0.016320027 0.71600002 -0.03389544 6.3568237e-39 333 267
0.017599959 0.71700001 -0.033942781 5.6163874e-39 334 267
0.018857099 0.71700001 -0.033942781 5.4323563e-39 335 267
0.020114239 0.71700001 -0.033942781 8.852598e-39 336 267
-0.022596961 0.71600002 -0.035150826 1.53052e-38 302 268
-0.021281958 0.71399999 -0.035052639 9.681267e-39 303 268
-0.020030079 0.71399999 -0.035052639 6.6319547e-39 304 268
-0.018778199 0.71399999 -0.035052639 5.8943896e-39 305 268
-0.017575413 0.71600002 -0.035150826 1.1238121e-38 306 268
-0.016251646 0.713 -0.035003547 1.2436664e-38 307 268
-0.014959441 0.71100003 -0.034905359 1.1236326e-38 308 268
-0.013693533 0.70999998 -0.034856264 9.0236306e-39 309 268
-0.012448666 0.70999998 -0.034856264 7.5441818e-39 310 268
-0.011203799 0.70999998 -0.034856264 7.5441818e-39 311 268
-0.0099308798 0.708 -0.034758076 7.5445503e-39 312 268
-0.008689519 0.708 -0.034758076 7.6367459e-39 313 268
-0.0074691991 0.70999998 -0.034856264 7.7303933e-39 314 268
-0.0062243328 0.70999998 -0.034856264 8.3757627e-39 315 268
-0.0049794666 0.70999998 -0.034856264 8.5630378e-39 316 268
-0.0037345996 0.70999998 -0.034856264 9.3009616e-39 317 268
-0.0024897333 0.70999998 -0.034856264 9.7633663e-39 318 268
-0.0012448666 0.70999998 -0.034856264 1.0224344e-38 319 268
0 0.70999998 -0.034856264 1.0591326e-38 320 268
0.0012448666 0.70999998 -0.034856264 9.66937e-39 321 268
0.0024897333 0.70999998 -0.034856264 7.4530974e-39 322 268
0.0037345996 0.70999998 -0.034856264 7.1768692e-39 323 268
0.0049794666 0.70999998 -0.034856264 6.9035235e-39 324 268
0.0062243328 0.70999998 -0.034856264 6.4421852e-39 325 268
0.0074691991 0.70999998 -0.034856264 5.7093173e-39 326 268
0.0087140659 0.70999998 -0.034856264 7.9216537e-39 327 268
0.0099589331 0.70999998 -0.034856264 8.4809596e-39 328 268
0.01121958 0.71100003 -0.034905359 9.9560911e-39 329 268
0.0124662 0.71100003 -0.034905359 1.0699031e-38 330 268
0.01371282 0.71100003 -0.034905359 1.0883423e-38 331 268
0.01506464 0.71600002 -0.035150826 9.0315816e-39 332 268
0.016274439 0.71399999 -0.035052639 6.7263307e-39 333 268
0.017526319 0.71399999 -0.035052639 5.7993396e-39 334 268
0.018857099 0.71700001 -0.035199918 5.430557e-39 335 268
0.020114239 0.71700001 -0.035199918 7.5586179e-39 336 268
-0.022596961 0.71600002 -0.036406212 1.4842787e-38 302 269
-0.021281958 0.71399999 -0.036304519 9.6801908e-39 303 269
-0.020030079 0.71399999 -0.036304519 7.6443255e-39 304 269
-0.018778199 0.71399999 -0.036304519 6.7223678e-39 305 269
-0.017526319 0.71399999 -0.036304519 1.1792037e-38 306 269
-0.01620606 0.71100003 -0.036151983 1.1976787e-38 307 269
-0.014959441 0.71100003 -0.036151983 8.0080508e-39 308 269
-0.013693533 0.70999998 -0.036101133 6.717312e-39 309 269
-0.012448666 0.70999998 -0.036101133 7.2686739e-39 310 269
-0.01117224 0.708 -0.03599944 7.3608695e-39 311 269
-0.0099308798 0.708 -0.03599944 7.5434657e-39 312 269
-0.008689519 0.708 -0.03599944 7.5434657e-39 313 269
-0.0074691991 0.70999998 -0.036101133 7.2690424e-39 314 269
-0.0062243328 0.70999998 -0.036101133 7.176488e-39 315 269
-0.0049794666 0.70999998 -0.036101133 6.8087831e-39 316 269
-0.0037345996 0.70999998 -0.036101133 6.7165875e-39 317 269
-0.0024897333 0.70999998 -0.036101133 7.2715605e-39 318 269
-0.0012448666 0.70999998 -0.036101133 8.0091256e-39 319 269
0 0.708 -0.03599944 8.6523398e-39 320 269
0.00124136 0.708 -0.03599944 8.2839174e-39 321 269
0.00248272 0.708 -0.03599944 7.9129839e-39 322 269
0.00372408 0.708 -0.03599944 7.7285912e-39 323 269
0.0049654399 0.708 -0.03599944 6.7194784e-39 324 269
0.0062067998 0.708 -0.03599944 6.8120327e-39 325 269
0.0074481601 0.708 -0.03599944 6.7198511e-39 326 269
0.008689519 0.708 -0.03599944 5.5213079e-39 327 269
0.0099589331 0.70999998 -0.036101133 4.2395725e-39 328 269
0.011203799 0.70999998 -0.036101133 6.9132457e-39 329 269
0.012448666 0.70999998 -0.036101133 8.6714437e-39 330 269
0.01371282 0.71100003 -0.036151983 9.5937587e-39 331 269
0.014959441 0.71100003 -0.036151983 9.4900514e-39 332 269
0.016251646 0.713 -0.036253672 7.7386946e-39 333 269
0.017501773 0.713 -0.036253672 5.8954854e-39 334 269
0.018857099 0.71700001 -0.036457058 4.6047466e-39 335 269
0.020114239 0.71700001 -0.036457058 6.45082e-39 336 269
-0.023952285 0.71899998 -0.037819397 1.7701208e-38 301 270
-0.022596961 0.71600002 -0.037661601 1.4565477e-38 302 270
-0.021281958 0.71399999 -0.037556399 9.9556959e-39 303 270
-0.020030079 0.71399999 -0.037556399 8.8421485e-39 304 270
-0.018778199 0.71399999 -0.037556399 6.9060402e-39 305 270
-0.017501773 0.713 -0.037503798 9.2080443e-39 306 270
-0.016183265 0.70999998 -0.037345998 9.5764667e-39 307 270
-0.014938398 0.70999998 -0.037345998 7.7285884e-39 308 270
-0.013654959 0.708 -0.0372408 7.1757748e-39 309 270
-0.0124136 0.708 -0.0372408 7.451633e-39 310 270
-0.01117224 0.708 -0.0372408 7.3594374e-39 311 270
-0.0099308798 0.708 -0.0372408 7.1761251e-39 312 270
-0.008689519 0.708 -0.0372408 7.1761251e-39 313 270
-0.0074481601 0.708 -0.0372408 7.176844e-39 314 270
-0.0062067998 0.708 -0.0372408 7.2690396e-39 315 270
-0.0049654399 0.708 -0.0372408 7.1771943e-39 316 270
-0.00372408 0.708 -0.0372408 6.9931632e-39 317 270
-0.00248272 0.708 -0.0372408 7.7292919e-39 318 270
-0.00124136 0.708 -0.0372408 8.19027e-39 319 270
0 0.708 -0.0372408 8.2813993e-39 320 270
0.0012396066 0.70700002 -0.037188202 8.0966493e-39 321 270
0.0024792133 0.70700002 -0.037188202 7.6363928e-39 322 270
0.0037188199 0.70700002 -0.037188202 7.360166e-39 323 270
0.0049584266 0.70700002 -0.037188202 6.9928227e-39 324 270
0.0061980332 0.70700002 -0.037188202 6.9928227e-39 325 270
0.0074481601 0.708 -0.0372408 6.9024249e-39 326 270
0.008689519 0.708 -0.0372408 6.533641e-39 327 270
0.0099308798 0.708 -0.0372408 6.354293e-39 328 270
0.01117224 0.708 -0.0372408 9.1201619e-39 329 270
0.012448666 0.70999998 -0.037345998 9.2156155e-39 330 270
0.013693533 0.70999998 -0.037345998 8.1092694e-39 331 270
0.014938398 0.70999998 -0.037345998 6.8181774e-39 332 270
0.016183265 0.70999998 -0.037345998 6.2650036e-39 333 270
0.017428132 0.70999998 -0.037345998 5.7096452e-39 334 270
0.018857099 0.71700001 -0.037714198 5.0642758e-39 335 270
0.020114239 0.71700001 -0.037714198 6.2635421e-39 336 270
-0.023952285 0.71899998 -0.039080046 1.7423898e-38 301 271
-0.022596961 0.71600002 -0.038916986 1.4011938e-38 302 271
-0.021252153 0.713 -0.038753927 1.0047526e-38 303 271
-0.020002026 0.713 -0.038753927 9.5789848e-39 304 271
-0.018751899 0.713 -0.038753927 7.1822572e-39 305 271
-0.017501773 0.713 -0.038753927 7.3619569e-39 306 271
-0.016183265 0.70999998 -0.038590867 6.9931758e-39 307 271
-0.01489632 0.708 -0.038482159 7.5445475e-39 308 271
-0.013654959 0.708 -0.038482159 7.3605164e-39 309 271
-0.012396066 0.70700002 -0.038427804 7.1761251e-39 310 271
-0.011156459 0.70700002 -0.038427804 7.0839281e-39 311 271
-0.0099168532 0.70700002 -0.038427804 7.0839253e-39 312 271
-0.008677247 0.70700002 -0.038427804 7.0839253e-39 313 271
-0.0074376399 0.70700002 -0.038427804 6.99281e-39 314 271
-0.0062067998 0.708 -0.038482159 7.1768412e-39 315 271
-0.0049654399 0.708 -0.038482159 6.9935289e-39 316 271
-0.00372408 0.708 -0.038482159 7.0857245e-39 317 271
-0.00248272 0.708 -0.038482159 7.085377e-39 318 271
-0.0012396066 0.70700002 -0.038427804 7.1775726e-39 319 271
0 0.70700002 -0.038427804 7.084668e-39 320 271
0.0012396066 0.70700002 -0.038427804 7.084668e-39 321 271
0.0024757064 0.70599997 -0.038373452 6.9006298e-39 322 271
0.0037135598 0.70599997 -0.038373452 6.8084328e-39 323 271
0.0049584266 0.70700002 -0.038427804 6.5325662e-39 324 271
0.0061980332 0.70700002 -0.038427804 6.5325662e-39 325 271
0.0074376399 0.70700002 -0.038427804 6.6262107e-39 326 271
0.008689519 0.708 -0.038482159 7.0871889e-39 327 271
0.0099308798 0.708 -0.038482159 7.8287196e-39 328 271
0.01117224 0.708 -0.038482159 1.0502393e-38 329 271
0.012448666 0.70999998 -0.038590867 8.9350798e-39 330 271
0.013693533 0.70999998 -0.038590867 5.8007871e-39 331 271
0.014938398 0.70999998 -0.038590867 4.8802545e-39 332 271
0.016183265 0.70999998 -0.038590867 4.9724501e-39 333 271
0.017428132 0.70999998 -0.038590867 5.6163552e-39 334 271
0.0186993 0.71100003 -0.038645219 5.5241596e-39 335 271
0.020114239 0.71700001 -0.038971342 6.6319547e-39 336 271
0.021371379 0.71700001 -0.038971342 1.2993453e-38 337 271
-0.022596961 0.71600002 -0.040172372 1.3643154e-38 302 272
-0.021252153 0.713 -0.040004052 1.0232276e-38 303 272
-0.020002026 0.713 -0.040004052 9.4864263e-39 304 272
-0.018751899 0.713 -0.040004052 7.3655666e-39 305 272
-0.01745268 0.71100003 -0.039891839 6.718384e-39 306 272
-0.016183265 0.70999998 -0.039835732 6.9031339e-39 307 272
-0.01489632 0.708 -0.039723519 7.3619513e-39 308 272
-0.013654959 0.708 -0.039723519 6.9935289e-39 309 272
-0.012396066 0.70700002 -0.039667413 7.0839253e-39 310 272
-0.011156459 0.70700002 -0.039667413 7.0839253e-39 311 272
-0.0099168532 0.70700002 -0.039667413 7.0839225e-39 312 272
-0.008677247 0.70700002 -0.039667413 7.0839225e-39 313 272
-0.0074376399 0.70700002 -0.039667413 6.900613e-39 314 272
-0.0061980332 0.70700002 -0.039667413 6.900613e-39 315 272
-0.0049584266 0.70700002 -0.039667413 6.9009802e-39 316 272
-0.0037188199 0.70700002 -0.039667413 6.9009802e-39 317 272
-0.0024792133 0.70700002 -0.039667413 6.9002599e-39 318 272
-0.0012378532 0.70599997 -0.039611302 6.9002599e-39 319 272
0 0.70599997 -0.039611302 6.9002627e-39 320 272
0.0012378532 0.70599997 -0.039611302 6.8080671e-39 321 272
0.0024757064 0.70599997 -0.039611302 6.7162316e-39 322 272
0.0037135598 0.70599997 -0.039611302 6.5322004e-39 323 272
0.0049514128 0.70599997 -0.039611302 6.348528e-39 324 272
0.0061892662 0.70599997 -0.039611302 6.4407237e-39 325 272
0.0074376399 0.70700002 -0.039667413 6.5336382e-39 326 272
0.008689519 0.708 -0.039723519 6.0726614e-39 327 272
0.0099308798 0.708 -0.039723519 6.725965e-39 328 272
0.01117224 0.708 -0.039723519 9.6762251e-39 329 272
0.0124136 0.708 -0.039723519 8.0134836e-39 330 272
0.013693533 0.70999998 -0.039835732 5.6160371e-39 331 272
0.014938398 0.70999998 -0.039835732 5.4327066e-39 332 272
0.01620606 0.71100003 -0.039891839 5.8936834e-39 333 272
0.01745268 0.71100003 -0.039891839 6.2620932e-39 334 272
0.0186993 0.71100003 -0.039891839 6.7230713e-39 335 272
0.020030079 0.71399999 -0.040060159 7.4613636e-39 336 272
0.021341572 0.71600002 -0.040172372 1.29931e-38 337 272
0.02262852 0.71700001 -0.040228479 1.6595216e-38 338 272
-0.02388566 0.71700001 -0.041485619 1.6133879e-38 301 273
-0.022596961 0.71600002 -0.041427758 1.3549518e-38 302 273
-0.021252153 0.713 -0.041254178 1.0322671e-38 303 273
-0.01994592 0.71100003 -0.041138459 9.6708147e-39 304 273
-0.0186993 0.71100003 -0.041138459 7.4581196e-39 305 273
-0.01745268 0.71100003 -0.041138459 7.3633848e-39 306 273
-0.016183265 0.70999998 -0.041080594 7.4559392e-39 307 273
-0.01489632 0.708 -0.040964879 7.0867937e-39 308 273
-0.013654959 0.708 -0.040964879 6.810567e-39 309 273
-0.012396066 0.70700002 -0.040907022 6.8091362e-39 310 273
-0.011156459 0.70700002 -0.040907022 6.7165819e-39 311 273
-0.0099168532 0.70700002 -0.040907022 6.9006102e-39 312 273
-0.008677247 0.70700002 -0.040907022 6.9006102e-39 313 273
-0.0074376399 0.70700002 -0.040907022 6.7162161e-39 314 273
-0.0061980332 0.70700002 -0.040907022 6.8084118e-39 315 273
-0.0049584266 0.70700002 -0.040907022 6.4410586e-39 316 273
-0.0037135598 0.70599997 -0.040849157 6.348863e-39 317 273
-0.0024757064 0.70599997 -0.040849157 6.6232764e-39 318 273
-0.0012378532 0.70599997 -0.040849157 6.6232764e-39 319 273
0 0.70599997 -0.040849157 6.2562974e-39 320 273
0.0012378532 0.70599997 -0.040849157 6.5325255e-39 321 273
0.0024757064 0.70599997 -0.040849157 6.7162161e-39 322 273
0.0037135598 0.70599997 -0.040849157 6.7162161e-39 323 273
0.0049514128 0.70599997 -0.040849157 6.3485252e-39 324 273
0.0061892662 0.70599997 -0.040849157 6.3485252e-39 325 273
0.0074271196 0.70599997 -0.040849157 5.9819007e-39 326 273
0.0086649731 0.70599997 -0.040849157 5.7971507e-39 327 273
0.0099168532 0.70700002 -0.040907022 6.9071136e-39 328 273
0.01117224 0.708 -0.040964879 9.3041986e-39 329 273
0.0124136 0.708 -0.040964879 6.9996778e-39 330 273
0.013693533 0.70999998 -0.041080594 5.2479608e-39 331 273
0.014938398 0.70999998 -0.041080594 5.5259743e-39 332 273
0.01620606 0.71100003 -0.041138459 5.8947554e-39 333 273
0.01745268 0.71100003 -0.041138459 6.7245202e-39 334 273
0.018751899 0.713 -0.041254178 7.1851383e-39 335 273
0.020030079 0.71399999 -0.041312039 8.0152591e-39 336 273
0.021341572 0.71600002 -0.041427758 1.2901627e-38 337 273
0.02262852 0.71700001 -0.041485619 1.6410825e-38 338 273
-0.02388566 0.71700001 -0.042742759 1.5767255e-38 301 274
-0.022596961 0.71600002 -0.042683143 1.3640637e-38 302 274
-0.021252153 0.713 -0.042504307 1.0137203e-38 303 274
-0.01994592 0.71100003 -0.042385083 9.6715392e-39 304 274
-0.0186993 0.71100003 -0.042385083 7.9198236e-39 305 274
-0.01745268 0.71100003 -0.042385083 8.0073235e-39 306 274
-0.016183265 0.70999998 -0.042325463 7.5463468e-39 307 274
-0.01489632 0.708 -0.042206239 6.8105796e-39 308 274
-0.013654959 0.708 -0.042206239 6.2577645e-39 309 274
-0.012396066 0.70700002 -0.042146627 5.7038845e-39 310 274
-0.011140679 0.70599997 -0.042087011 5.4272976e-39 311 274
-0.0099028256 0.70599997 -0.042087011 4.9695817e-39 312 274
-0.0086649731 0.70599997 -0.042087011 5.6149511e-39 313 274
-0.0074271196 0.70599997 -0.042087011 5.9851924e-39 314 274
-0.0061892662 0.70599997 -0.042087011 6.5383661e-39 315 274
-0.0049514128 0.70599997 -0.042087011 6.4494005e-39 316 274
-0.0037135598 0.70599997 -0.042087011 6.818183e-39 317 274
-0.0024757064 0.70599997 -0.042087011 7.2762703e-39 318 274
-0.0012378532 0.70599997 -0.042087011 6.8152936e-39 319 274
0 0.70599997 -0.042087011 6.5383367e-39 320 274
0.0012378532 0.70599997 -0.042087011 5.8929673e-39 321 274
0.0024686933 0.704 -0.041967787 5.4305416e-39 322 274
0.0037030398 0.704 -0.041967787 5.1539533e-39 323 274
0.0049514128 0.70599997 -0.042087011 4.9684845e-39 324 274
0.0061892662 0.70599997 -0.042087011 4.6918962e-39 325 274
0.0074271196 0.70599997 -0.042087011 5.0596011e-39 326 274
0.0086649731 0.70599997 -0.042087011 7.087905e-39 327 274
0.0099028256 0.70599997 -0.042087011 6.7284677e-39 328 274
0.011156459 0.70700002 -0.042146627 6.544075e-39 329 274
0.0124136 0.708 -0.042206239 5.0660709e-39 330 274
0.013693533 0.70999998 -0.042325463 4.6050941e-39 331 274
0.014938398 0.70999998 -0.042325463 6.0744789e-39 332 274
0.01620606 0.71100003 -0.042385083 6.9045983e-39 333 274
0.01745268 0.71100003 -0.042385083 6.9993121e-39 334 274
0.018751899 0.713 -0.042504307 7.6446815e-39 335 274
0.020002026 0.713 -0.042504307 8.475161e-39 336 274
0.021341572 0.71600002 -0.042683143 1.336189e-38 337 274
0.02262852 0.71700001 -0.042742759 1.659414e-38 338 274
-0.02388566 0.71700001 -0.043999899 1.6226078e-38 301 275
-0.022596961 0.71600002 -0.043938532 1.3272576e-38 302 275
-0.021252153 0.713 -0.043754432 9.8609793e-39 303 275
-0.01994592 0.71100003 -0.043631699 9.3956726e-39 304 275
-0.0186993 0.71100003 -0.043631699 8.1049338e-39 305 275
-0.01745268 0.71100003 -0.043631699 7.733259e-39 306 275
-0.016183265 0.70999998 -0.043570329 6.9956925e-39 307 275
-0.01489632 0.708 -0.043447599 6.1677339e-39 308 275
-0.013654959 0.708 -0.043447599 6.1677339e-39 309 275
-0.012396066 0.70700002 -0.043386232 4.5172355e-39 310 275
-0.011140679 0.70599997 -0.043324865 5.0704093e-39 311 275
-0.0099028256 0.70599997 -0.043324865 4.890725e-39 312 275
-0.0086649731 0.70599997 -0.043324865 6.3658565e-39 313 275
-0.0074271196 0.70599997 -0.043324865 7.8388342e-39 314 275
-0.0061892662 0.70599997 -0.043324865 8.8529861e-39 315 275
-0.0049514128 0.70599997 -0.043324865 9.498703e-39 316 275
-0.0037030398 0.704 -0.043202132 9.7756487e-39 317 275
-0.0024686933 0.704 -0.043202132 9.9593112e-39 318 275
-0.0012343467 0.704 -0.043202132 9.6830845e-39 319 275
0 0.704 -0.043202132 9.6823516e-39 320 275
0.0012343467 0.704 -0.043202132 8.5763642e-39 321 275
0.0024686933 0.704 -0.043202132 8.2036188e-39 322 275
0.0037030398 0.704 -0.043202132 7.2813038e-39 323 275
0.0049373866 0.704 -0.043202132 5.990202e-39 324 275
0.0061892662 0.70599997 -0.043324865 4.9756899e-39 325 275
0.0074271196 0.70599997 -0.043324865 3.9669302e-39 326 275
0.0086649731 0.70599997 -0.043324865 6.8253535e-39 327 275
0.0099028256 0.70599997 -0.043324865 8.6577418e-39 328 275
0.011140679 0.70599997 -0.043324865 6.3524909e-39 329 275
0.0124136 0.708 -0.043447599 5.339418e-39 330 275
0.013693533 0.70999998 -0.043570329 5.4316136e-39 331 275
0.014938398 0.70999998 -0.043570329 5.7082173e-39 332 275
0.01620606 0.71100003 -0.043631699 6.3535867e-39 333 275
0.01745268 0.71100003 -0.043631699 7.0915077e-39 334 275
0.018751899 0.713 -0.043754432 7.7368771e-39 335 275
0.020002026 0.713 -0.043754432 8.3854835e-39 336 275
0.021341572 0.71600002 -0.043938532 1.3272211e-38 337 275
0.022596961 0.71600002 -0.043938532 1.6410472e-38 338 275
-0.0251428 0.71700001 -0.045257039 1.7608649e-38 300 276
-0.023852346 0.71600002 -0.045193922 1.631791e-38 301 276
-0.022533838 0.71399999 -0.045067675 1.3272211e-38 302 276
-0.021252153 0.713 -0.045004558 9.3999942e-39 303 276
-0.01994592 0.71100003 -0.044878319 8.9357678e-39 304 276
-0.0186993 0.71100003 -0.044878319 7.829779e-39 305 276
-0.01745268 0.71100003 -0.044878319 7.2737269e-39 306 276
-0.016183265 0.70999998 -0.044815198 6.4439677e-39 307 276
-0.01489632 0.708 -0.044688959 5.7143536e-39 308 276
-0.013654959 0.708 -0.044688959 7.6504618e-39 309 276
-0.012396066 0.70700002 -0.044625837 8.0261023e-39 310 276
-0.011140679 0.70599997 -0.044562716 9.3168411e-39 311 276
-0.0099028256 0.70599997 -0.044562716 1.0056924e-38 312 276
-0.0086649731 0.70599997 -0.044562716 1.097852e-38 313 276
-0.0074271196 0.70599997 -0.044562716 1.153061e-38 314 276
-0.0061892662 0.70599997 -0.044562716 1.153061e-38 315 276
-0.0049514128 0.70599997 -0.044562716 1.1990868e-38 316 276
-0.0037030398 0.704 -0.044436477 1.21749e-38 317 276
-0.0024686933 0.704 -0.044436477 1.2266374e-38 318 276
-0.0012343467 0.704 -0.044436477 1.2174177e-38 319 276
0 0.704 -0.044436477 1.2357842e-38 320 276
0.0012343467 0.704 -0.044436477 1.2081616e-38 321 276
0.0024686933 0.704 -0.044436477 1.2172011e-38 322 276
0.0037030398 0.704 -0.044436477 1.1618837e-38 323 276
0.0049373866 0.704 -0.044436477 1.0789076e-38 324 276
0.0061717331 0.704 -0.044436477 9.5905329e-39 325 276
0.0074060797 0.704 -0.044436477 8.0271561e-39 326 276
0.0086649731 0.70599997 -0.044562716 8.6725255e-39 327 276
0.0099028256 0.70599997 -0.044562716 9.3967418e-39 328 276
0.011140679 0.70599997 -0.044562716 5.0639073e-39 329 276
0.0124136 0.708 -0.044688959 4.786226e-39 330 276
0.013654959 0.708 -0.044688959 5.6156265e-39 331 276
0.014938398 0.70999998 -0.044815198 5.9844343e-39 332 276
0.01620606 0.71100003 -0.044878319 6.7219993e-39 333 276
0.01745268 0.71100003 -0.044878319 7.0918608e-39 334 276
0.018751899 0.713 -0.045004558 7.7372302e-39 335 276
0.020002026 0.713 -0.045004558 8.9379342e-39 336 276
0.021341572 0.71600002 -0.045193922 1.3732467e-38 337 276
-0.025107734 0.71600002 -0.046449307 1.7516451e-38 300 277
-0.023852346 0.71600002 -0.046449307 1.668633e-38 301 277
-0.022533838 0.71399999 -0.046319555 1.3455517e-38 302 277
-0.021281958 0.71399999 -0.046319555 9.1226828e-39 303 277
-0.020002026 0.713 -0.046254687 8.6602557e-39 304 277
-0.018751899 0.713 -0.046254687 7.6461038e-39 305 277
-0.01745268 0.71100003 -0.046124939 6.7220021e-39 306 277
-0.016183265 0.70999998 -0.046060063 8.1971322e-39 307 277
-0.01489632 0.708 -0.045930319 7.9378443e-39 308 277
-0.013635674 0.70700002 -0.045865446 8.9523564e-39 309 277
-0.012396066 0.70700002 -0.045865446 9.8714582e-39 310 277
-0.011140679 0.70599997 -0.04580057 1.0516828e-38 311 277
-0.0099028256 0.70599997 -0.04580057 1.0609742e-38 312 277
-0.0086404262 0.704 -0.045670826 1.0702297e-38 313 277
-0.0074060797 0.704 -0.045670826 1.0793408e-38 314 277
-0.0061717331 0.704 -0.045670826 1.0793408e-38 315 277
-0.0049373866 0.704 -0.045670826 1.1436615e-38 316 277
-0.0037030398 0.704 -0.045670826 1.1897234e-38 317 277
-0.0024686933 0.704 -0.045670826 1.2081262e-38 318 277
-0.0012343467 0.704 -0.045670826 1.1989067e-38 319 277
0 0.704 -0.045670826 1.1989786e-38 320 277
0.0012343467 0.704 -0.045670826 1.2081981e-38 321 277
0.0024686933 0.704 -0.045670826 1.189759e-38 322 277
0.0037030398 0.704 -0.045670826 1.1621005e-38 323 277
0.0049373866 0.704 -0.045670826 1.0977789e-38 324 277
0.0061717331 0.704 -0.045670826 1.0516451e-38 325 277
0.0074060797 0.704 -0.045670826 1.0423168e-38 326 277
0.0086649731 0.70599997 -0.04580057 1.1068537e-38 327 277
0.0099028256 0.70599997 -0.04580057 1.0966958e-38 328 277
0.011140679 0.70599997 -0.04580057 6.7263181e-39 329 277
0.012396066 0.70700002 -0.045865446 6.1655661e-39 330 277
0.013654959 0.708 -0.045930319 6.5339885e-39 331 277
0.014938398 0.70999998 -0.046060063 6.0795012e-39 332 277
0.01620606 0.71100003 -0.046124939 6.5404779e-39 333 277
0.01745268 0.71100003 -0.046124939 7.0003785e-39 334 277
0.018751899 0.713 -0.046254687 7.7379435e-39 335 277
0.020002026 0.713 -0.046254687 1.0136109e-38 336 277
