# .PCD v.7 - Point Cloud Data file format
FIELDS x y z rgb imX imY
SIZE 4 4 4 4 4 4
TYPE F F F F F F
COUNT 1 1 1 1 1 1
WIDTH 839
HEIGHT 1
VIEWPOINT 0 0 0 1 0 0 0
POINTS 839
DATA ascii
0.034558199 0.73000002 -0.048637468 9.6870656e-39 347 278
0.035838135 0.73000002 -0.048637468 5.363582e-39 348 278
0.037168913 0.73100001 -0.048704091 7.0227446e-39 349 278
0.038555797 0.73299998 -0.048837345 1.3280169e-38 350 278
0.039895348 0.73400003 -0.048903972 1.4663462e-38 351 278
0.041182294 0.73400003 -0.048903972 1.4843872e-38 352 278
-0.0037977197 0.722 -0.04937036 1.2447872e-38 317 279
-0.0025318132 0.722 -0.04937036 6.4529752e-39 318 279
-0.0012659066 0.722 -0.04937036 4.7930938e-39 319 279
0 0.722 -0.04937036 9.0222013e-39 320 279
0.0012624001 0.72000003 -0.0492336 8.9300057e-39 321 279
0.0025248001 0.72000003 -0.0492336 9.0186084e-39 322 279
0.0037819401 0.71899998 -0.049165215 8.8342171e-39 323 279
0.0050285598 0.71700001 -0.04902846 8.5572603e-39 324 279
0.0062857 0.71700001 -0.04902846 8.3725103e-39 325 279
0.0075428397 0.71700001 -0.04902846 8.741276e-39 326 279
0.0087999795 0.71700001 -0.04902846 9.0178643e-39 327 279
0.010043093 0.71600002 -0.048960082 1.1787707e-38 328 279
0.01129848 0.71600002 -0.048960082 1.6212739e-38 329 279
0.0125714 0.71700001 -0.04902846 1.400582e-38 330 279
0.013828539 0.71700001 -0.04902846 1.0963724e-38 331 279
0.015085679 0.71700001 -0.04902846 6.074818e-39 332 279
0.016342819 0.71700001 -0.04902846 5.7978724e-39 333 279
0.017599959 0.71700001 -0.04902846 7.6374522e-39 334 279
0.018857099 0.71700001 -0.04902846 7.3608667e-39 335 279
0.020114239 0.71700001 -0.04902846 7.0857245e-39 336 279
0.021430992 0.71899998 -0.049165215 7.0857245e-39 337 279
0.022723202 0.72000003 -0.0492336 6.9949736e-39 338 279
0.0239856 0.72000003 -0.0492336 8.3779081e-39 339 279
0.025318133 0.722 -0.04937036 8.7485081e-39 340 279
0.026584039 0.722 -0.04937036 9.76266e-39 341 279
0.02788852 0.72299999 -0.049438741 8.2933103e-39 342 279
0.029156178 0.72299999 -0.049438741 8.5698958e-39 343 279
0.030508002 0.72500002 -0.0495755 9.7734977e-39 344 279
0.03186683 0.727 -0.049712259 1.0603258e-38 345 279
0.033187091 0.72799999 -0.049780637 1.0056921e-38 346 279
0.034463517 0.72799999 -0.049780637 9.6881376e-39 347 279
0.035739943 0.72799999 -0.049780637 3.611858e-39 348 279
0.037270606 0.73299998 -0.050122537 5.0869895e-39 349 279
0.038608398 0.73400003 -0.050190922 1.2635155e-38 350 279
0.039895348 0.73400003 -0.050190922 1.484785e-38 351 279
0.041182294 0.73400003 -0.050190922 1.4570877e-38 352 279
0.042469237 0.73400003 -0.050190922 1.088305e-38 353 279
-0.0037977197 0.722 -0.050636265 9.5916077e-39 317 280
-0.0025248001 0.72000003 -0.050496001 7.0032749e-39 318 280
-0.0012624001 0.72000003 -0.050496001 6.1735143e-39 319 280
0 0.72000003 -0.050496001 8.7452655e-39 320 280
0.0012606466 0.71899998 -0.050425861 8.4686772e-39 321 280
0.0025212932 0.71899998 -0.050425861 8.6509077e-39 322 280
0.0037714199 0.71700001 -0.0502856 8.4661577e-39 323 280
0.0050285598 0.71700001 -0.0502856 8.1899197e-39 324 280
0.0062857 0.71700001 -0.0502856 8.0058886e-39 325 280
0.0075428397 0.71700001 -0.0502856 7.5477971e-39 326 280
0.0087877065 0.71600002 -0.050215468 8.5615903e-39 327 280
0.010043093 0.71600002 -0.050215468 1.0776441e-38 328 280
0.01129848 0.71600002 -0.050215468 1.3357917e-38 329 280
0.012553867 0.71600002 -0.050215468 1.2526358e-38 330 280
0.013828539 0.71700001 -0.0502856 9.4839025e-39 331 280
0.015085679 0.71700001 -0.0502856 6.4421698e-39 332 280
0.016342819 0.71700001 -0.0502856 6.3499728e-39 333 280
0.017599959 0.71700001 -0.0502856 7.177923e-39 334 280
0.018857099 0.71700001 -0.0502856 6.9935317e-39 335 280
0.020114239 0.71700001 -0.0502856 6.8109355e-39 336 280
0.021430992 0.71899998 -0.050425861 6.9031311e-39 337 280
0.022691639 0.71899998 -0.050425861 6.9956925e-39 338 280
0.0239856 0.72000003 -0.050496001 8.7474095e-39 339 280
0.025248 0.72000003 -0.050496001 8.9354175e-39 340 280
0.026510401 0.72000003 -0.050496001 9.0276131e-39 341 280
0.027849946 0.722 -0.050636265 8.11107e-39 342 280
0.029156178 0.72299999 -0.050706398 8.9408307e-39 343 280
0.030423839 0.72299999 -0.050706398 9.7756487e-39 344 280
0.031691495 0.72299999 -0.050706398 1.0513214e-38 345 280
0.033187091 0.72799999 -0.051057063 1.0699773e-38 346 280
0.034463517 0.72799999 -0.051057063 9.5930665e-39 347 280
0.035739943 0.72799999 -0.051057063 2.9567636e-39 348 280
0.037270606 0.73299998 -0.051407732 4.9850674e-39 349 280
0.038608398 0.73400003 -0.051477864 1.300213e-38 350 280
0.040004052 0.736 -0.051618133 1.5583608e-38 351 280
0.041294504 0.736 -0.051618133 1.5859463e-38 352 280
0.042584959 0.736 -0.051618133 1.3831159e-38 353 280
-0.0050496003 0.72000003 -0.051758397 1.3002124e-38 316 281
-0.0037872 0.72000003 -0.051758397 8.1157546e-39 317 281
-0.0025248001 0.72000003 -0.051758397 8.0131039e-39 318 281
-0.0012624001 0.72000003 -0.051758397 7.5524858e-39 319 281
0 0.72000003 -0.051758397 8.378264e-39 320 281
0.0012606466 0.71899998 -0.05168651 7.9169271e-39 321 281
0.0025142799 0.71700001 -0.051542737 8.2824685e-39 322 281
0.0037714199 0.71700001 -0.051542737 8.2824685e-39 323 281
0.0050215465 0.71600002 -0.051470853 7.9147621e-39 324 281
0.0062769335 0.71600002 -0.051470853 7.8225665e-39 325 281
0.00753232 0.71600002 -0.051470853 7.8211386e-39 326 281
0.0087877065 0.71600002 -0.051470853 8.1899197e-39 327 281
0.010043093 0.71600002 -0.051470853 8.1016897e-39 328 281
0.01129848 0.71600002 -0.051470853 8.378278e-39 329 281
0.012553867 0.71600002 -0.051470853 8.6491056e-39 330 281
0.013809253 0.71600002 -0.051470853 8.0037362e-39 331 281
0.01506464 0.71600002 -0.051470853 6.7183868e-39 332 281
0.016342819 0.71700001 -0.051542737 6.8105824e-39 333 281
0.017599959 0.71700001 -0.051542737 7.176844e-39 334 281
0.018857099 0.71700001 -0.051542737 7.176844e-39 335 281
0.020114239 0.71700001 -0.051542737 6.8098635e-39 336 281
0.021371379 0.71700001 -0.051542737 7.1786446e-39 337 281
0.022691639 0.71899998 -0.05168651 7.4581224e-39 338 281
0.0239856 0.72000003 -0.051758397 9.1176437e-39 339 281
0.025248 0.72000003 -0.051758397 8.1114176e-39 340 281
0.026510401 0.72000003 -0.051758397 7.8348293e-39 341 281
0.027849946 0.722 -0.051902171 8.38838e-39 342 281
0.029115854 0.722 -0.051902171 9.4021718e-39 343 281
0.030423839 0.72299999 -0.051974058 8.9494851e-39 344 281
0.031691495 0.72299999 -0.051974058 9.5948545e-39 345 281
0.032959159 0.72299999 -0.051974058 1.0515382e-38 346 281
0.034321502 0.72500002 -0.052117832 8.9476971e-39 347 281
0.035690852 0.727 -0.052261602 2.9531693e-39 348 281
0.037016369 0.72799999 -0.052333489 6.2722119e-39 349 281
0.038608398 0.73400003 -0.052764814 1.3553499e-38 350 281
0.040004052 0.736 -0.052908584 1.668815e-38 351 281
0.041182294 0.73400003 -0.052764814 1.7795571e-38 352 281
0.042469237 0.73400003 -0.052764814 1.7150202e-38 353 281
-0.0050496003 0.72000003 -0.053020801 1.1711386e-38 316 282
-0.0037872 0.72000003 -0.053020801 7.1016041e-39 317 282
-0.0025248001 0.72000003 -0.053020801 6.7234454e-39 318 282
-0.0012624001 0.72000003 -0.053020801 6.4468572e-39 319 282
0 0.71899998 -0.05294716 7.7325443e-39 320 282
0.0012606466 0.71899998 -0.05294716 7.5477943e-39 321 282
0.0025142799 0.71700001 -0.052799881 7.638548e-39 322 282
0.0037714199 0.71700001 -0.052799881 7.7307436e-39 323 282
0.0050215465 0.71600002 -0.052726239 7.6389011e-39 324 282
0.0062769335 0.71600002 -0.052726239 7.5463468e-39 325 282
0.00753232 0.71600002 -0.052726239 7.0878895e-39 326 282
0.0087877065 0.71600002 -0.052726239 7.0878895e-39 327 282
0.010043093 0.71600002 -0.052726239 7.2708375e-39 328 282
0.01129848 0.71600002 -0.052726239 6.9942506e-39 329 282
0.012553867 0.71600002 -0.052726239 7.2693927e-39 330 282
0.013809253 0.71600002 -0.052726239 7.3615884e-39 331 282
0.01506464 0.71600002 -0.052726239 6.9942506e-39 332 282
0.016320027 0.71600002 -0.052726239 6.8098607e-39 333 282
0.017575413 0.71600002 -0.052726239 6.717312e-39 334 282
0.0188308 0.71600002 -0.052726239 6.717312e-39 335 282
0.020114239 0.71700001 -0.052799881 6.7180336e-39 336 282
0.021371379 0.71700001 -0.052799881 7.2712074e-39 337 282
0.022691639 0.71899998 -0.05294716 7.5521131e-39 338 282
0.023952285 0.71899998 -0.05294716 8.9350476e-39 339 282
0.025212931 0.71899998 -0.05294716 7.5593214e-39 340 282
0.026510401 0.72000003 -0.053020801 6.8213976e-39 341 282
0.027849946 0.722 -0.053168077 7.7469735e-39 342 282
0.029115854 0.722 -0.053168077 9.6830817e-39 343 282
0.030423839 0.72299999 -0.053241719 8.491744e-39 344 282
0.031691495 0.72299999 -0.053241719 8.9527221e-39 345 282
0.032959159 0.72299999 -0.053241719 9.6874159e-39 346 282
0.034321502 0.72500002 -0.053388998 8.1200902e-39 347 282
0.035690852 0.727 -0.053536277 3.3208728e-39 348 282
0.037016369 0.72799999 -0.053609919 6.7324698e-39 349 282
0.038608398 0.73400003 -0.054051761 1.392156e-38 350 282
0.040004052 0.736 -0.05419904 1.6687429e-38 351 282
0.041182294 0.73400003 -0.054051761 1.7152003e-38 352 282
-0.0050496003 0.72000003 -0.054283202 1.0972737e-38 316 283
-0.0037872 0.72000003 -0.054283202 6.8242941e-39 317 283
-0.0025248001 0.72000003 -0.054283202 5.9862461e-39 318 283
-0.0012624001 0.72000003 -0.054283202 5.0646486e-39 319 283
0 0.71899998 -0.054207806 7.4545267e-39 320 283
0.0012606466 0.71899998 -0.054207806 7.270134e-39 321 283
0.0025142799 0.71700001 -0.054057021 7.3612352e-39 322 283
0.00376616 0.71600002 -0.053981625 7.2690396e-39 323 283
0.0050215465 0.71600002 -0.053981625 7.1771915e-39 324 283
0.0062769335 0.71600002 -0.053981625 7.1771915e-39 325 283
0.00753232 0.71600002 -0.053981625 7.0864308e-39 326 283
0.0087877065 0.71600002 -0.053981625 7.0864308e-39 327 283
0.010043093 0.71600002 -0.053981625 6.9928072e-39 328 283
0.01129848 0.71600002 -0.053981625 6.9006102e-39 329 283
0.012553867 0.71600002 -0.053981625 6.8098607e-39 330 283
0.013809253 0.71600002 -0.053981625 6.9942506e-39 331 283
0.01506464 0.71600002 -0.053981625 6.8098635e-39 332 283
0.016320027 0.71600002 -0.053981625 6.7176679e-39 333 283
0.017575413 0.71600002 -0.053981625 6.6251149e-39 334 283
0.0188308 0.71600002 -0.053981625 6.6251149e-39 335 283
0.020114239 0.71700001 -0.054057021 6.5343654e-39 336 283
0.021371379 0.71700001 -0.054057021 7.0875392e-39 337 283
0.022691639 0.71899998 -0.054207806 6.9096304e-39 338 283
0.023952285 0.71899998 -0.054207806 8.1081736e-39 339 283
0.025212931 0.71899998 -0.054207806 7.649366e-39 340 283
0.026510401 0.72000003 -0.054283202 7.1883879e-39 341 283
0.027849946 0.722 -0.054433983 8.4827462e-39 342 283
0.029115854 0.722 -0.054433983 1.0787277e-38 343 283
0.030381758 0.722 -0.054433983 8.7697756e-39 344 283
0.031691495 0.72299999 -0.054509375 8.8619712e-39 345 283
0.032959159 0.72299999 -0.054509375 9.3171915e-39 346 283
0.034321502 0.72500002 -0.054660168 7.5651143e-39 347 283
0.035690852 0.727 -0.054810952 3.9651576e-39 348 283
0.037016369 0.72799999 -0.054886345 7.4682314e-39 349 283
-0.0050496003 0.72000003 -0.055545598 1.0234807e-38 316 284
-0.0037872 0.72000003 -0.055545598 6.4547857e-39 317 284
-0.0025248001 0.72000003 -0.055545598 5.4323563e-39 318 284
-0.0012624001 0.72000003 -0.055545598 4.7869869e-39 319 284
0 0.71899998 -0.055468451 6.0752076e-39 320 284
0.00125714 0.71700001 -0.055314157 6.6283814e-39 321 284
0.0025142799 0.71700001 -0.055314157 6.5383367e-39 322 284
0.00376616 0.71600002 -0.055237014 6.4461411e-39 323 284
0.0050215465 0.71600002 -0.055237014 6.4446893e-39 324 284
0.0062769335 0.71600002 -0.055237014 6.4446893e-39 325 284
0.00753232 0.71600002 -0.055237014 6.8120299e-39 326 284
0.0087877065 0.71600002 -0.055237014 6.4428887e-39 327 284
0.010043093 0.71600002 -0.055237014 6.1655815e-39 328 284
0.01129848 0.71600002 -0.055237014 5.9815504e-39 329 284
0.012553867 0.71600002 -0.055237014 5.9815476e-39 330 284
0.013809253 0.71600002 -0.055237014 6.2577743e-39 331 284
0.01506464 0.71600002 -0.055237014 6.4425229e-39 332 284
0.016320027 0.71600002 -0.055237014 6.5347186e-39 333 284
0.017575413 0.71600002 -0.055237014 6.4425257e-39 334 284
0.0188308 0.71600002 -0.055237014 6.3503287e-39 335 284
0.020114239 0.71700001 -0.055314157 6.4421726e-39 336 284
0.021371379 0.71700001 -0.055314157 6.9031494e-39 337 284
0.022691639 0.71899998 -0.055468451 7.1826243e-39 338 284
0.023952285 0.71899998 -0.055468451 8.012385e-39 339 284
0.025248 0.72000003 -0.055545598 8.1074701e-39 340 284
0.026510401 0.72000003 -0.055545598 9.0294278e-39 341 284
0.027849946 0.722 -0.055699892 8.8536896e-39 342 284
0.029115854 0.722 -0.055699892 1.0236624e-38 343 284
0.030381758 0.722 -0.055699892 9.1367631e-39 344 284
0.031647664 0.722 -0.055699892 8.9523718e-39 345 284
0.032959159 0.72299999 -0.055777039 8.4856259e-39 346 284
0.03422682 0.72299999 -0.055777039 7.5640297e-39 347 284
0.035592668 0.72500002 -0.055931333 5.9898517e-39 348 284
0.036965527 0.727 -0.056085624 9.0319473e-39 349 284
-0.0037977197 0.722 -0.056965802 5.5324637e-39 317 285
-0.0025248001 0.72000003 -0.056808002 4.6976765e-39 318 285
-0.0012624001 0.72000003 -0.056808002 4.1445028e-39 319 285
0 0.71899998 -0.056729097 5.7154508e-39 320 285
0.00125714 0.71700001 -0.056571297 7.5593634e-39 321 285
0.0025107733 0.71600002 -0.056492399 8.2976417e-39 322 285
0.00376616 0.71600002 -0.056492399 8.5745887e-39 323 285
0.0050215465 0.71600002 -0.056492399 8.3905464e-39 324 285
0.0062593995 0.71399999 -0.0563346 8.2057964e-39 325 285
0.0075112795 0.71399999 -0.0563346 8.2958312e-39 326 285
0.0087631596 0.71399999 -0.0563346 7.3735148e-39 327 285
0.01001504 0.71399999 -0.0563346 5.9923684e-39 328 285
0.01129848 0.71600002 -0.056492399 5.0700534e-39 329 285
0.012553867 0.71600002 -0.056492399 5.2486699e-39 330 285
0.013809253 0.71600002 -0.056492399 4.6033005e-39 331 285
0.01506464 0.71600002 -0.056492399 5.4290955e-39 332 285
0.016320027 0.71600002 -0.056492399 5.8897149e-39 333 285
0.017575413 0.71600002 -0.056492399 6.8095104e-39 334 285
0.0188308 0.71600002 -0.056492399 6.7173148e-39 335 285
0.020086186 0.71600002 -0.056492399 6.6251317e-39 336 285
0.021371379 0.71700001 -0.056571297 6.9020774e-39 337 285
0.022691639 0.71899998 -0.056729097 6.5379962e-39 338 285
0.023952285 0.71899998 -0.056729097 7.368117e-39 339 285
0.025212931 0.71899998 -0.056729097 7.9223824e-39 340 285
0.026510401 0.72000003 -0.056808002 9.02873e-39 341 285
0.027772799 0.72000003 -0.056808002 8.8544182e-39 342 285
0.029115854 0.722 -0.056965802 1.0421384e-38 343 285
0.030381758 0.722 -0.056965802 9.8707338e-39 344 285
0.031647664 0.722 -0.056965802 8.8565832e-39 345 285
0.032959159 0.72299999 -0.057044696 7.9310102e-39 346 285
0.03422682 0.72299999 -0.057044696 8.0232058e-39 347 285
0.035592668 0.72500002 -0.057202499 7.2795073e-39 348 285
0.036863834 0.72500002 -0.057202499 9.9531806e-39 349 285
-0.0050706398 0.72299999 -0.058312356 6.640972e-39 316 286
-0.0037977197 0.722 -0.058231708 4.2438856e-39 317 286
-0.0025248001 0.72000003 -0.058070403 7.2845506e-39 318 286
-0.0012624001 0.72000003 -0.058070403 9.4046899e-39 319 286
0 0.71899998 -0.057989739 1.1344416e-38 320 286
0.00125714 0.71700001 -0.057828441 1.1989786e-38 321 286
0.0025107733 0.71600002 -0.057747785 1.1992304e-38 322 286
0.00376616 0.71600002 -0.057747785 1.2176695e-38 323 286
0.0050075199 0.71399999 -0.057586476 1.2359644e-38 324 286
0.0062593995 0.71399999 -0.057586476 1.2175253e-38 325 286
0.0075112795 0.71399999 -0.057586476 1.2173814e-38 326 286
0.0087631596 0.71399999 -0.057586476 1.1896868e-38 327 286
0.01001504 0.71399999 -0.057586476 1.097671e-38 328 286
0.011266919 0.71399999 -0.057586476 1.0515732e-38 329 286
0.012518799 0.71399999 -0.057586476 1.05114e-38 330 286
0.013809253 0.71600002 -0.057747785 8.9437146e-39 331 286
0.01506464 0.71600002 -0.057747785 7.737596e-39 332 286
0.016320027 0.71600002 -0.057747785 5.6170965e-39 333 286
0.017575413 0.71600002 -0.057747785 5.2443455e-39 334 286
0.0188308 0.71600002 -0.057747785 6.1666605e-39 335 286
0.020086186 0.71600002 -0.057747785 6.4439733e-39 336 286
0.021371379 0.71700001 -0.057828441 6.4439733e-39 337 286
0.02262852 0.71700001 -0.057828441 6.7209301e-39 338 286
0.023952285 0.71899998 -0.057989739 7.2741039e-39 339 286
0.025212931 0.71899998 -0.057989739 7.000775e-39 340 286
0.026510401 0.72000003 -0.058070403 5.9866245e-39 341 286
0.027772799 0.72000003 -0.058070403 7.3814504e-39 342 286
0.029115854 0.722 -0.058231708 1.05161e-38 343 286
0.030381758 0.722 -0.058231708 1.0052961e-38 344 286
0.031691495 0.72299999 -0.058312356 8.5774726e-39 345 286
0.032913569 0.722 -0.058231708 6.2736441e-39 346 286
0.034179479 0.722 -0.058231708 7.1030446e-39 347 286
0.035592668 0.72500002 -0.058473669 7.8290882e-39 348 286
0.036863834 0.72500002 -0.058473669 1.1516913e-38 349 286
-0.0050706398 0.72299999 -0.059580017 6.7331677e-39 316 287
-0.0038029798 0.72299999 -0.059580017 6.2725496e-39 317 287
-0.0025318132 0.722 -0.059497613 9.2239014e-39 318 287
-0.0012624001 0.72000003 -0.059332799 1.1436597e-38 319 287
0 0.71899998 -0.059250388 1.2081631e-38 320 287
0.00125714 0.71700001 -0.059085581 1.2450774e-38 321 287
0.0025107733 0.71600002 -0.059003171 1.245149e-38 322 287
0.00376616 0.71600002 -0.059003171 1.2543685e-38 323 287
0.0050075199 0.71399999 -0.058838356 1.2176698e-38 324 287
0.0062593995 0.71399999 -0.058838356 1.2084502e-38 325 287
0.0075112795 0.71399999 -0.058838356 1.2358938e-38 326 287
0.0087631596 0.71399999 -0.058838356 1.1898319e-38 327 287
0.01001504 0.71399999 -0.058838356 1.1530978e-38 328 287
0.011266919 0.71399999 -0.058838356 1.1991598e-38 329 287
0.012518799 0.71399999 -0.058838356 1.226673e-38 330 287
0.013809253 0.71600002 -0.059003171 1.1621361e-38 331 287
0.01506464 0.71600002 -0.059003171 1.0511751e-38 332 287
0.016320027 0.71600002 -0.059003171 7.4689348e-39 333 287
0.017575413 0.71600002 -0.059003171 6.3549992e-39 334 287
0.0188308 0.71600002 -0.059003171 5.0642604e-39 335 287
0.020086186 0.71600002 -0.059003171 5.7067586e-39 336 287
0.021371379 0.71700001 -0.059085581 6.2595736e-39 337 287
0.02262852 0.71700001 -0.059085581 5.8947792e-39 338 287
0.02388566 0.71700001 -0.059085581 6.3557559e-39 339 287
0.025212931 0.71899998 -0.059250388 6.4494005e-39 340 287
0.026510401 0.72000003 -0.059332799 5.7118355e-39 341 287
0.027772799 0.72000003 -0.059332799 5.5346441e-39 342 287
0.029115854 0.722 -0.059497613 8.5774586e-39 343 287
0.030381758 0.722 -0.059497613 9.2210301e-39 344 287
0.031691495 0.72299999 -0.059580017 8.2068782e-39 345 287
0.032913569 0.722 -0.059497613 7.1912773e-39 346 287
0.034179479 0.722 -0.059497613 7.4678656e-39 347 287
0.035494477 0.72299999 -0.059580017 7.5564613e-39 348 287
0.036863834 0.72500002 -0.059744831 1.1613428e-38 349 287
-0.0050846669 0.72500002 -0.061016005 7.5633039e-39 316 288
-0.0038029798 0.72299999 -0.060847677 9.8681946e-39 317 288
-0.0025353199 0.72299999 -0.060847677 1.1897222e-38 318 288
-0.0012624001 0.72000003 -0.060595199 1.2358198e-38 319 288
0 0.71899998 -0.060511041 1.1530612e-38 320 288
0.00125714 0.71700001 -0.060342718 1.1622808e-38 321 288
0.0025107733 0.71600002 -0.06025856 1.1898316e-38 322 288
0.00376616 0.71600002 -0.06025856 1.2174544e-38 323 288
0.0050075199 0.71399999 -0.060090236 1.1715723e-38 324 288
0.0062593995 0.71399999 -0.060090236 1.1715723e-38 325 288
0.0075112795 0.71399999 -0.060090236 1.1530978e-38 326 288
0.0087631596 0.71399999 -0.060090236 1.0977804e-38 327 288
0.01001504 0.71399999 -0.060090236 1.0427152e-38 328 288
0.011266919 0.71399999 -0.060090236 1.0611543e-38 329 288
0.012518799 0.71399999 -0.060090236 1.0429304e-38 330 288
0.013751393 0.713 -0.060006075 1.0705531e-38 331 288
0.015001519 0.713 -0.060006075 1.2358926e-38 332 288
0.016274439 0.71399999 -0.060090236 1.1713556e-38 333 288
0.017526319 0.71399999 -0.060090236 1.0970924e-38 334 288
0.018778199 0.71399999 -0.060090236 7.928827e-39 335 288
0.020030079 0.71399999 -0.060090236 5.7096396e-39 336 288
0.021341572 0.71600002 -0.06025856 5.4334115e-39 337 288
0.02262852 0.71700001 -0.060342718 5.6188944e-39 338 288
0.02388566 0.71700001 -0.060342718 5.8954826e-39 339 288
0.025212931 0.71899998 -0.060511041 5.9887657e-39 340 288
0.026510401 0.72000003 -0.060595199 6.1735171e-39 341 288
0.027772799 0.72000003 -0.060595199 5.5292393e-39 342 288
0.029115854 0.722 -0.060763516 4.7916742e-39 343 288
0.030381758 0.722 -0.060763516 5.5335609e-39 344 288
0.031691495 0.72299999 -0.060847677 6.5473541e-39 345 288
0.032959159 0.72299999 -0.060847677 7.8334098e-39 346 288
0.03422682 0.72299999 -0.060847677 7.8334098e-39 347 288
0.035494477 0.72299999 -0.060847677 8.0185185e-39 348 288
0.036863834 0.72500002 -0.061016005 1.2167681e-38 349 288
-0.0063733663 0.727 -0.062458992 5.9945362e-39 315 289
-0.0050846669 0.72500002 -0.062287167 8.4834595e-39 316 289
-0.0038029798 0.72299999 -0.062115334 1.1710307e-38 317 289
-0.0025353199 0.72299999 -0.062115334 1.2172732e-38 318 289
-0.0012624001 0.72000003 -0.061857603 1.2357123e-38 319 289
0 0.71899998 -0.061771683 1.1161104e-38 320 289
0.00125714 0.71700001 -0.061599858 1.1068908e-38 321 289
0.0025107733 0.71600002 -0.061513945 1.1251502e-38 322 289
0.00376616 0.71600002 -0.061513945 1.1159306e-38 323 289
0.0050075199 0.71399999 -0.061342116 1.0883441e-38 324 289
0.0062593995 0.71399999 -0.061342116 1.0975638e-38 325 289
0.0075112795 0.71399999 -0.061342116 1.0883091e-38 326 289
0.0087631596 0.71399999 -0.061342116 1.0329918e-38 327 289
0.01001504 0.71399999 -0.061342116 9.5999076e-39 328 289
0.011251139 0.713 -0.061256204 1.0614061e-38 329 289
0.012501267 0.713 -0.061256204 1.1348385e-38 330 289
0.013751393 0.713 -0.061256204 1.125583e-38 331 289
0.015001519 0.713 -0.061256204 1.1715723e-38 332 289
0.016274439 0.71399999 -0.061342116 1.1715723e-38 333 289
0.017526319 0.71399999 -0.061342116 1.2173085e-38 334 289
0.018778199 0.71399999 -0.061342116 1.0789792e-38 335 289
0.020030079 0.71399999 -0.061342116 8.9400894e-39 336 289
0.021281958 0.71399999 -0.061342116 5.9894691e-39 337 289
0.02262852 0.71700001 -0.061599858 5.1582679e-39 338 289
0.02388566 0.71700001 -0.061599858 5.3430179e-39 339 289
0.025212931 0.71899998 -0.061771683 5.8040087e-39 340 289
0.026510401 0.72000003 -0.061857603 6.1727912e-39 341 289
0.027772799 0.72000003 -0.061857603 5.989116e-39 342 289
0.029115854 0.722 -0.062029421 5.3437466e-39 343 289
0.030381758 0.722 -0.062029421 5.8061695e-39 344 289
0.031691495 0.72299999 -0.062115334 6.9128772e-39 345 289
0.032959159 0.72299999 -0.062115334 7.5564641e-39 346 289
0.03422682 0.72299999 -0.062115334 7.6486598e-39 347 289
0.035592668 0.72500002 -0.062287167 9.3085412e-39 348 289
0.036863834 0.72500002 -0.062287167 1.3272953e-38 349 289
-0.0063733663 0.727 -0.06373366 6.7299503e-39 315 290
-0.0050846669 0.72500002 -0.063558333 1.0324504e-38 316 290
-0.0038029798 0.72299999 -0.063382991 1.3182568e-38 317 290
-0.0025353199 0.72299999 -0.063382991 1.2449319e-38 318 290
-0.0012624001 0.72000003 -0.06312 1.2264928e-38 319 290
0 0.71899998 -0.063032329 9.8689177e-39 320 290
0.00125714 0.71700001 -0.062856995 8.6703745e-39 321 290
0.0025107733 0.71600002 -0.062769331 8.8515218e-39 322 290
0.00376616 0.71600002 -0.062769331 8.7593261e-39 323 290
0.0050075199 0.71399999 -0.062593997 8.3912667e-39 324 290
0.0062593995 0.71399999 -0.062593997 8.5756579e-39 325 290
0.0075112795 0.71399999 -0.062593997 8.5760237e-39 326 290
0.0087631596 0.71399999 -0.062593997 8.6682193e-39 327 290
0.01001504 0.71399999 -0.062593997 8.9505697e-39 328 290
0.011251139 0.713 -0.062506333 1.0702647e-38 329 290
0.012501267 0.713 -0.062506333 1.1805764e-38 330 290
0.013751393 0.713 -0.062506333 1.1898319e-38 331 290
0.015001519 0.713 -0.062506333 1.1255467e-38 332 290
0.016274439 0.71399999 -0.062593997 1.1163272e-38 333 290
0.017526319 0.71399999 -0.062593997 1.1255465e-38 334 290
0.018778199 0.71399999 -0.062593997 1.1255465e-38 335 290
0.020030079 0.71399999 -0.062593997 1.1985449e-38 336 290
0.021281958 0.71399999 -0.062593997 8.7586017e-39 337 290
0.02262852 0.71700001 -0.062856995 5.6213971e-39 338 290
0.02388566 0.71700001 -0.062856995 4.4228539e-39 339 290
0.025212931 0.71899998 -0.063032329 5.3430179e-39 340 290
0.026510401 0.72000003 -0.06312 6.1724185e-39 341 290
0.027849946 0.722 -0.063295327 6.0809641e-39 342 290
0.029115854 0.722 -0.063295327 6.3575524e-39 343 290
0.030423839 0.72299999 -0.063382991 6.4504725e-39 344 290
0.031691495 0.72299999 -0.063382991 7.0036463e-39 345 290
0.032959159 0.72299999 -0.063382991 7.0958391e-39 346 290
0.03422682 0.72299999 -0.063382991 7.3727861e-39 347 290
0.035592668 0.72500002 -0.063558333 1.0783664e-38 348 290
0.036863834 0.72500002 -0.063558333 1.4102707e-38 349 290
-0.0063733663 0.727 -0.065008335 7.4675027e-39 315 291
-0.0050846669 0.72500002 -0.064829499 1.1338286e-38 316 291
-0.0038135003 0.72500002 -0.064829499 1.3458785e-38 317 291
-0.0025353199 0.72299999 -0.064650662 1.2081616e-38 318 291
-0.0012624001 0.72000003 -0.064382397 1.1067104e-38 319 291
0 0.71899998 -0.064292975 6.7284985e-39 320 291
0.00125714 0.71700001 -0.064114138 5.0693373e-39 321 291
0.0025107733 0.71600002 -0.064024724 6.2606708e-39 322 291
0.00376616 0.71600002 -0.064024724 6.9060402e-39 323 291
0.0050075199 0.71399999 -0.063845873 6.5394213e-39 324 291
0.0062593995 0.71399999 -0.063845873 6.0784446e-39 325 291
0.0075112795 0.71399999 -0.063845873 5.8936988e-39 326 291
0.0087631596 0.71399999 -0.063845873 5.617472e-39 327 291
0.01001504 0.71399999 -0.063845873 5.4348955e-39 328 291
0.011266919 0.71399999 -0.063845873 6.8178299e-39 329 291
0.012518799 0.71399999 -0.063845873 7.7466414e-39 330 291
0.01377068 0.71399999 -0.063845873 9.4979996e-39 331 291
0.015022559 0.71399999 -0.063845873 1.005729e-38 332 291
0.016274439 0.71399999 -0.063845873 1.0794855e-38 333 291
0.017526319 0.71399999 -0.063845873 1.0979606e-38 334 291
0.018778199 0.71399999 -0.063845873 1.0979606e-38 335 291
0.020030079 0.71399999 -0.063845873 1.1438411e-38 336 291
0.021341572 0.71600002 -0.064024724 1.0239868e-38 337 291
0.022596961 0.71600002 -0.064024724 8.7571429e-39 338 291
0.02388566 0.71700001 -0.064114138 5.2533502e-39 339 291
0.025212931 0.71899998 -0.064292975 4.9763906e-39 340 291
0.026510401 0.72000003 -0.064382397 5.62176e-39 341 291
0.027849946 0.722 -0.064561233 6.4483033e-39 342 291
0.029115854 0.722 -0.064561233 6.6330533e-39 343 291
0.030423839 0.72299999 -0.064650662 6.5430213e-39 344 291
0.031691495 0.72299999 -0.064650662 7.0036407e-39 345 291
0.032959159 0.72299999 -0.064650662 7.0018428e-39 346 291
0.03422682 0.72299999 -0.064650662 8.0163535e-39 347 291
0.035592668 0.72500002 -0.064829499 1.170742e-38 348 291
-0.0063733663 0.727 -0.06628301 8.2987011e-39 315 292
-0.0050986931 0.727 -0.06628301 1.1616675e-38 316 292
-0.0038135003 0.72500002 -0.066100664 1.3368033e-38 317 292
-0.0025353199 0.72299999 -0.065918319 1.1067457e-38 318 292
-0.0012624001 0.72000003 -0.065644801 9.0391528e-39 319 292
0 0.71899998 -0.065553628 4.6051096e-39 320 292
0.00125714 0.71700001 -0.065371275 4.1444901e-39 321 292
0.0025107733 0.71600002 -0.06528011 5.4298157e-39 322 292
0.00376616 0.71600002 -0.06528011 5.9829881e-39 323 292
0.0050075199 0.71399999 -0.065097757 5.7092921e-39 324 292
0.0062593995 0.71399999 -0.065097757 5.0639227e-39 325 292
0.0075112795 0.71399999 -0.065097757 4.5103958e-39 326 292
0.0087631596 0.71399999 -0.065097757 4.4182002e-39 327 292
0.01001504 0.71399999 -0.065097757 4.4156694e-39 328 292
0.011266919 0.71399999 -0.065097757 3.8624956e-39 329 292
0.012518799 0.71399999 -0.065097757 3.869362e-39 330 292
0.01377068 0.71399999 -0.065097757 6.0824159e-39 331 292
0.015022559 0.71399999 -0.065097757 7.6576925e-39 332 292
0.016274439 0.71399999 -0.065097757 1.023917e-38 333 292
0.017526319 0.71399999 -0.065097757 1.1070014e-38 334 292
0.018778199 0.71399999 -0.065097757 1.1162568e-38 335 292
0.020030079 0.71399999 -0.065097757 1.0520066e-38 336 292
0.021281958 0.71399999 -0.065097757 1.0520066e-38 337 292
0.022596961 0.71600002 -0.06528011 1.1340801e-38 338 292
0.023852346 0.71600002 -0.06528011 8.2983452e-39 339 292
0.025212931 0.71899998 -0.065553628 5.7135955e-39 340 292
0.026510401 0.72000003 -0.065644801 5.4366485e-39 341 292
0.027849946 0.722 -0.065827139 6.5412052e-39 342 292
0.029115854 0.722 -0.065827139 6.8174319e-39 343 292
0.030423839 0.72299999 -0.065918319 6.8178131e-39 344 292
0.031691495 0.72299999 -0.065918319 7.0940412e-39 345 292
0.032959159 0.72299999 -0.065918319 7.0933224e-39 346 292
0.03422682 0.72299999 -0.065918319 8.5684525e-39 347 292
0.035592668 0.72500002 -0.066100664 1.2353508e-38 348 292
-0.0063733663 0.727 -0.067557678 9.4975946e-39 315 293
-0.0050986931 0.727 -0.067557678 1.1711739e-38 316 293
-0.0038240198 0.727 -0.067557678 1.2633335e-38 317 293
-0.0025353199 0.72299999 -0.067185976 7.1977612e-39 318 293
-0.0012624001 0.72000003 -0.066907197 4.2475024e-39 319 293
0 0.71899998 -0.066814266 5.5274246e-39 320 293
0.00125714 0.71700001 -0.066628419 5.9884027e-39 321 293
0.0025107733 0.71600002 -0.066535495 6.4454082e-39 322 293
0.00376616 0.71600002 -0.066535495 6.1691815e-39 323 293
0.0050075199 0.71399999 -0.066349633 5.8014877e-39 324 293
0.0062593995 0.71399999 -0.066349633 5.7092921e-39 325 293
0.0075112795 0.71399999 -0.066349633 5.7064181e-39 326 293
0.0087631596 0.71399999 -0.066349633 5.6142224e-39 327 293
0.01001504 0.71399999 -0.066349633 5.7060523e-39 328 293
0.011266919 0.71399999 -0.066349633 5.9822791e-39 329 293
0.012518799 0.71399999 -0.066349633 5.6131504e-39 330 293
0.01377068 0.71399999 -0.066349633 5.3365621e-39 331 293
0.015022559 0.71399999 -0.066349633 2.2131057e-39 332 293
0.016274439 0.71399999 -0.066349633 5.7165396e-39 333 293
0.017526319 0.71399999 -0.066349633 7.9378892e-39 334 293
0.018778199 0.71399999 -0.066349633 9.689246e-39 335 293
0.020030079 0.71399999 -0.066349633 1.0059458e-38 336 293
0.021281958 0.71399999 -0.066349633 1.0059458e-38 337 293
0.022596961 0.71600002 -0.066535495 1.1252947e-38 338 293
0.023852346 0.71600002 -0.066535495 1.0515382e-38 339 293
0.025212931 0.71899998 -0.066814266 8.5716754e-39 340 293
0.026510401 0.72000003 -0.066907197 4.9756871e-39 341 293
0.027849946 0.722 -0.067093052 6.3568125e-39 342 293
0.029115854 0.722 -0.067093052 6.6334008e-39 343 293
0.030423839 0.72299999 -0.067185976 7.0007596e-39 344 293
0.031691495 0.72299999 -0.067185976 7.461379e-39 345 293
0.032959159 0.72299999 -0.067185976 7.2769906e-39 346 293
0.034321502 0.72500002 -0.067371838 9.5818813e-39 347 293
0.035592668 0.72500002 -0.067371838 1.2906685e-38 348 293
-0.0063733663 0.727 -0.06883236 1.0695416e-38 315 294
-0.0050706398 0.72299999 -0.06845364 1.2263832e-38 316 294
-0.0038029798 0.72299999 -0.06845364 1.2356029e-38 317 294
-0.0025318132 0.722 -0.068358958 6.2721965e-39 318 294
-0.0012624001 0.72000003 -0.068169601 3.5063262e-39 319 294
0 0.71899998 -0.068074919 7.0907776e-39 320 294
0.00125714 0.71700001 -0.067885563 6.8145509e-39 321 294
0.0025107733 0.71600002 -0.067790881 6.5379584e-39 322 294
0.00376616 0.71600002 -0.067790881 6.1691759e-39 323 294
0.0050075199 0.71399999 -0.067601517 5.7082173e-39 324 294
0.0062593995 0.71399999 -0.067601517 5.5238247e-39 325 294
0.0075007593 0.713 -0.067506835 5.2479608e-39 326 294
0.0087508867 0.713 -0.067506835 5.1557652e-39 327 294
0.01001504 0.71399999 -0.067601517 5.7986039e-39 328 294
0.011266919 0.71399999 -0.067601517 5.982635e-39 329 294
0.012518799 0.71399999 -0.067601517 6.074832e-39 330 294
0.013751393 0.713 -0.067506835 5.7060495e-39 331 294
0.015001519 0.713 -0.067506835 3.4969725e-39 332 294
0.016251646 0.713 -0.067506835 3.4969725e-39 333 294
0.017526319 0.71399999 -0.067601517 4.0656559e-39 334 294
0.018778199 0.71399999 -0.067601517 7.1999486e-39 335 294
0.020086186 0.71600002 -0.067790881 9.3208208e-39 336 294
0.021341572 0.71600002 -0.067790881 1.0150581e-38 337 294
0.022596961 0.71600002 -0.067790881 1.1162919e-38 338 294
0.023852346 0.71600002 -0.067790881 1.0978167e-38 339 294
0.0251428 0.71700001 -0.067885563 9.4994065e-39 340 294
0.026510401 0.72000003 -0.068169601 4.889625e-39 341 294
0.027772799 0.72000003 -0.068169601 6.2642638e-39 342 294
0.029115854 0.722 -0.068358958 6.9096332e-39 343 294
0.030423839 0.72299999 -0.06845364 7.0936755e-39 344 294
0.031691495 0.72299999 -0.06845364 7.4620979e-39 345 294
0.033050332 0.72500002 -0.068643004 8.200393e-39 346 294
0.034321502 0.72500002 -0.068643004 9.8599129e-39 347 294
-0.0063733663 0.727 -0.070107035 1.1153871e-38 315 295
-0.0050706398 0.72299999 -0.069721296 1.2539701e-38 316 295
-0.0038029798 0.72299999 -0.069721296 1.2170918e-38 317 295
-0.0025318132 0.722 -0.069624864 6.0852815e-39 318 295
-0.0012606466 0.71899998 -0.069335558 4.1491733e-39 319 295
0 0.71899998 -0.069335558 7.0922111e-39 320 295
0.00125714 0.71700001 -0.069142699 6.8152641e-39 321 295
0.0025107733 0.71600002 -0.069046266 6.3542902e-39 322 295
0.00376616 0.71600002 -0.069046266 5.8936708e-39 323 295
0.0050075199 0.71399999 -0.068853401 5.4327094e-39 324 295
0.0062593995 0.71399999 -0.068853401 5.2483168e-39 325 295
0.0075007593 0.713 -0.068756968 5.2475951e-39 326 295
0.0087508867 0.713 -0.068756968 5.4316262e-39 327 295
0.01001504 0.71399999 -0.068853401 5.7996731e-39 328 295
0.011266919 0.71399999 -0.068853401 5.8918687e-39 329 295
0.012518799 0.71399999 -0.068853401 5.7996731e-39 330 295
0.013751393 0.713 -0.068756968 5.8918687e-39 331 295
0.015001519 0.713 -0.068756968 6.0744817e-39 332 295
0.016251646 0.713 -0.068756968 5.6135036e-39 333 295
0.017501773 0.713 -0.068756968 1.8482734e-39 334 295
0.018778199 0.71399999 -0.068853401 4.2449997e-39 335 295
0.020086186 0.71600002 -0.069046266 7.0152098e-39 336 295
0.021341572 0.71600002 -0.069046266 9.6888831e-39 337 295
0.022596961 0.71600002 -0.069046266 9.9665433e-39 338 295
0.023852346 0.71600002 -0.069046266 1.0334966e-38 339 295
0.0251428 0.71700001 -0.069142699 1.0147672e-38 340 295
0.02647358 0.71899998 -0.069335558 5.7222822e-39 341 295
0.027772799 0.72000003 -0.069432005 6.3568265e-39 342 295
0.029035201 0.72000003 -0.069432005 6.6337722e-39 343 295
0.030381758 0.722 -0.069624864 7.3695365e-39 344 295
0.031691495 0.72299999 -0.069721296 7.8305133e-39 345 295
0.033050332 0.72500002 -0.069914162 8.9397545e-39 346 295
-0.0038240198 0.727 -0.071381703 1.1712092e-38 317 296
-0.0025318132 0.722 -0.070890769 6.8214004e-39 318 296
-0.0012606466 0.71899998 -0.070596211 4.6090654e-39 319 296
0 0.71899998 -0.070596211 7.1851228e-39 320 296
0.00125714 0.71700001 -0.070399836 6.7245034e-39 321 296
0.0025107733 0.71600002 -0.070301652 6.6301512e-39 322 296
0.00376616 0.71600002 -0.070301652 6.0773362e-39 323 296
0.0050075199 0.71399999 -0.070105277 5.4330598e-39 324 296
0.0062593995 0.71399999 -0.070105277 5.2486671e-39 325 296
0.0075112795 0.71399999 -0.070105277 5.1564715e-39 326 296
0.0087631596 0.71399999 -0.070105277 5.3408627e-39 327 296
0.01001504 0.71399999 -0.070105277 5.8925862e-39 328 296
0.011266919 0.71399999 -0.070105277 5.8925862e-39 329 296
0.012518799 0.71399999 -0.070105277 5.9844217e-39 330 296
0.013751393 0.713 -0.070007093 5.9844217e-39 331 296
0.015001519 0.713 -0.070007093 5.7996871e-39 332 296
0.016251646 0.713 -0.070007093 5.5234589e-39 333 296
0.017501773 0.713 -0.070007093 4.2341845e-39 334 296
0.018778199 0.71399999 -0.070105277 4.2341845e-39 335 296
0.020086186 0.71600002 -0.070301652 4.0645713e-39 336 296
0.021341572 0.71600002 -0.070301652 8.2137348e-39 337 296
0.022596961 0.71600002 -0.070301652 9.9658245e-39 338 296
0.023852346 0.71600002 -0.070301652 1.0611194e-38 339 296
0.0251428 0.71700001 -0.070399836 1.0517897e-38 340 296
0.02647358 0.71899998 -0.070596211 6.8304304e-39 341 296
0.027772799 0.72000003 -0.070694394 6.3582741e-39 342 296
0.029035201 0.72000003 -0.070694394 6.2660784e-39 343 296
0.0302976 0.72000003 -0.070694394 7.461379e-39 344 296
0.03156 0.72000003 -0.070694394 8.1993028e-39 345 296
-0.0038292799 0.72799999 -0.072756313 1.1713527e-38 317 297
-0.0025423334 0.72500002 -0.072456501 7.9259543e-39 318 297
-0.0012676599 0.72299999 -0.072256617 5.6210622e-39 319 297
0 0.71899998 -0.071856856 7.645015e-39 320 297
0.00125714 0.71700001 -0.07165698 7.3680694e-39 321 297
0.0025142799 0.71700001 -0.07165698 6.8152515e-39 322 297
0.00376616 0.71600002 -0.071557038 6.2620777e-39 323 297
0.0050215465 0.71600002 -0.071557038 5.8003919e-39 324 297
0.0062593995 0.71399999 -0.071357153 5.6163608e-39 325 297
0.0075112795 0.71399999 -0.071357153 5.5245309e-39 326 297
0.0087631596 0.71399999 -0.071357153 5.6167279e-39 327 297
0.01001504 0.71399999 -0.071357153 5.9847846e-39 328 297
0.011266919 0.71399999 -0.071357153 5.9847846e-39 329 297
0.012518799 0.71399999 -0.071357153 5.8014723e-39 330 297
0.01377068 0.71399999 -0.071357153 5.7092767e-39 331 297
0.015001519 0.713 -0.071257219 5.4330598e-39 332 297
0.016251646 0.713 -0.071257219 5.3408627e-39 333 297
0.017526319 0.71399999 -0.071357153 5.5238247e-39 334 297
0.0188308 0.71600002 -0.071557038 4.8784553e-39 335 297
0.020086186 0.71600002 -0.071557038 3.4098314e-39 336 297
0.021341572 0.71600002 -0.071557038 7.9274173e-39 337 297
0.022596961 0.71600002 -0.071557038 9.5963161e-39 338 297
0.023852346 0.71600002 -0.071557038 1.0794858e-38 339 297
0.025212931 0.71899998 -0.071856856 1.0701212e-38 340 297
0.026510401 0.72000003 -0.071956798 7.6591149e-39 341 297
0.027772799 0.72000003 -0.071956798 7.096558e-39 342 297
0.029035201 0.72000003 -0.071956798 6.1749618e-39 343 297
0.0302976 0.72000003 -0.071956798 7.6468479e-39 344 297
0.03156 0.72000003 -0.071956798 8.2922173e-39 345 297
-0.0038397999 0.73000002 -0.074236132 1.1897922e-38 317 298
-0.0025493465 0.727 -0.073931053 8.8479092e-39 318 298
-0.0012676599 0.72299999 -0.073524274 6.4508228e-39 319 298
0 0.72000003 -0.073219202 8.1031191e-39 320 298
0.0012606466 0.71899998 -0.073117502 8.0109234e-39 321 298
0.0025142799 0.71700001 -0.072914116 6.9078129e-39 322 298
0.00376616 0.71600002 -0.072812423 6.3549992e-39 323 298
0.0050215465 0.71600002 -0.072812423 5.7092767e-39 324 298
0.0062593995 0.71399999 -0.072609037 5.5245253e-39 325 298
0.0075112795 0.71399999 -0.072609037 5.6160049e-39 326 298
0.0087631596 0.71399999 -0.072609037 5.800036e-39 327 298
0.01001504 0.71399999 -0.072609037 5.8925918e-39 328 298
0.011266919 0.71399999 -0.072609037 5.9847874e-39 329 298
0.012518799 0.71399999 -0.072609037 5.7096424e-39 330 298
0.01377068 0.71399999 -0.072609037 5.6174468e-39 331 298
0.015022559 0.71399999 -0.072609037 5.524175e-39 332 298
0.016274439 0.71399999 -0.072609037 5.616372e-39 333 298
0.017526319 0.71399999 -0.072609037 5.4330626e-39 334 298
0.0188308 0.71600002 -0.072812423 5.2486699e-39 335 298
0.020086186 0.71600002 -0.072812423 4.7862834e-39 336 298
0.021341572 0.71600002 -0.072812423 8.289716e-39 337 298
0.022596961 0.71600002 -0.072812423 8.7658324e-39 338 298
0.02388566 0.71700001 -0.072914116 1.1070723e-38 339 298
0.025212931 0.71899998 -0.073117502 1.0610098e-38 340 298
0.026510401 0.72000003 -0.073219202 7.9364248e-39 341 298
0.027772799 0.72000003 -0.073219202 7.7419302e-39 342 298
0.029035201 0.72000003 -0.073219202 6.4511914e-39 343 298
0.0302976 0.72000003 -0.073219202 7.8312405e-39 344 298
-0.0025493465 0.727 -0.075205728 9.3106824e-39 318 299
-0.0012676599 0.72299999 -0.074791931 7.0057931e-39 319 299
0 0.72000003 -0.074481606 8.1971042e-39 320 299
0.0012606466 0.71899998 -0.074378148 8.013073e-39 321 299
0.0025212932 0.71899998 -0.074378148 7.0929146e-39 322 299
0.0037714199 0.71700001 -0.07417126 6.3553496e-39 323 299
0.0050215465 0.71600002 -0.074067809 6.5354374e-39 324 299
0.0062593995 0.71399999 -0.073860914 6.2592107e-39 325 299
0.0075112795 0.71399999 -0.073860914 5.7993171e-39 326 299
0.0087631596 0.71399999 -0.073860914 5.8918715e-39 327 299
0.01001504 0.71399999 -0.073860914 5.6170937e-39 328 299
0.011266919 0.71399999 -0.073860914 5.7092893e-39 329 299
0.012518799 0.71399999 -0.073860914 5.4330626e-39 330 299
0.01377068 0.71399999 -0.073860914 5.4330626e-39 331 299
0.015022559 0.71399999 -0.073860914 5.524175e-39 332 299
0.016274439 0.71399999 -0.073860914 5.616372e-39 333 299
0.017575413 0.71600002 -0.074067809 5.8007661e-39 334 299
0.0188308 0.71600002 -0.074067809 5.8007661e-39 335 299
0.020086186 0.71600002 -0.074067809 5.6153182e-39 336 299
0.021341572 0.71600002 -0.074067809 7.7361765e-39 337 299
0.022596961 0.71600002 -0.074067809 7.6587589e-39 338 299
0.02388566 0.71700001 -0.07417126 1.0977802e-38 339 299
0.025212931 0.71899998 -0.074378148 1.0794489e-38 340 299
0.026510401 0.72000003 -0.074481606 8.3048472e-39 341 299
0.027772799 0.72000003 -0.074481606 7.4682188e-39 342 299
0.029035201 0.72000003 -0.074481606 6.0852843e-39 343 299
0.0302976 0.72000003 -0.074481606 7.5582494e-39 344 299
-0.0012676599 0.72299999 -0.076059602 6.913952e-39 319 300
0 0.72000003 -0.075743996 7.8279769e-39 320 300
0.0012624001 0.72000003 -0.075743996 8.2889551e-39 321 300
0.0025248001 0.72000003 -0.075743996 7.9208956e-39 322 300
0.0037714199 0.71700001 -0.075428396 6.8145481e-39 323 300
0.0050215465 0.71600002 -0.075323202 6.3514189e-39 324 300
0.0062593995 0.71399999 -0.075112797 6.2592233e-39 325 300
0.0075112795 0.71399999 -0.075112797 5.6156517e-39 326 300
0.0087631596 0.71399999 -0.075112797 5.6156517e-39 327 300
0.01001504 0.71399999 -0.075112797 5.6167279e-39 328 300
0.011266919 0.71399999 -0.075112797 5.6167279e-39 329 300
0.012518799 0.71399999 -0.075112797 5.6160077e-39 330 300
0.01377068 0.71399999 -0.075112797 5.8000402e-39 331 300
0.015022559 0.71399999 -0.075112797 5.4330598e-39 332 300
0.016320027 0.71600002 -0.075323202 5.6170909e-39 333 300
0.017575413 0.71600002 -0.075323202 5.8007661e-39 334 300
0.0188308 0.71600002 -0.075323202 5.8933204e-39 335 300
0.020086186 0.71600002 -0.075323202 5.8000654e-39 336 300
0.021371379 0.71700001 -0.075428396 7.1829999e-39 337 300
0.02262852 0.71700001 -0.075428396 7.5640424e-39 338 300
0.02388566 0.71700001 -0.075428396 1.1251868e-38 339 300
0.025248 0.72000003 -0.075743996 1.0794489e-38 340 300
0.026510401 0.72000003 -0.075743996 8.3048472e-39 341 300
0.027772799 0.72000003 -0.075743996 7.4685873e-39 342 300
0.029035201 0.72000003 -0.075743996 5.7168703e-39 343 300
-0.0012957134 0.73900002 -0.079038516 7.8348293e-39 319 301
0 0.72000003 -0.0770064 8.3793528e-39 320 301
0.0012624001 0.72000003 -0.0770064 8.5637441e-39 321 301
0.0025248001 0.72000003 -0.0770064 7.6453849e-39 322 301
0.0037819401 0.71899998 -0.076899439 7.0922111e-39 323 301
0.0050285598 0.71700001 -0.076685533 6.9049486e-39 324 301
0.0062769335 0.71600002 -0.076578587 6.4439705e-39 325 301
0.0075112795 0.71399999 -0.076364681 5.7096396e-39 326 301
0.0087631596 0.71399999 -0.076364681 5.617444e-39 327 301
0.01001504 0.71399999 -0.076364681 5.7993199e-39 328 301
0.011266919 0.71399999 -0.076364681 5.9837126e-39 329 301
0.012518799 0.71399999 -0.076364681 5.7089208e-39 330 301
0.01377068 0.71399999 -0.076364681 5.8014751e-39 331 301
0.015022559 0.71399999 -0.076364681 5.7096396e-39 332 301
0.016274439 0.71399999 -0.076364681 5.7096396e-39 333 301
0.017575413 0.71600002 -0.076578587 5.8933204e-39 334 301
0.018857099 0.71700001 -0.076685533 6.1695472e-39 335 301
0.020114239 0.71700001 -0.076685533 5.8937016e-39 336 301
0.021371379 0.71700001 -0.076685533 6.3550399e-39 337 301
0.02262852 0.71700001 -0.076685533 7.5618788e-39 338 301
0.023952285 0.71899998 -0.076899439 1.1895072e-38 339 301
0.025212931 0.71899998 -0.076899439 1.1069997e-38 340 301
0.026510401 0.72000003 -0.0770064 7.6587589e-39 341 301
0.027772799 0.72000003 -0.0770064 6.7331943e-39 342 301
0.029035201 0.72000003 -0.0770064 5.7190409e-39 343 301
0 0.72299999 -0.078594916 8.2904138e-39 320 302
0.0012676599 0.72299999 -0.078594916 7.6450444e-39 321 302
0.0025353199 0.72299999 -0.078594916 7.6457535e-39 322 302
0.0037872 0.72000003 -0.078268804 7.0925797e-39 323 302
0.0050425865 0.71899998 -0.078160092 6.7227154e-39 324 302
0.0062769335 0.71600002 -0.077833973 6.262096e-39 325 302
0.00753232 0.71600002 -0.077833973 6.2602981e-39 326 302
0.0087877065 0.71600002 -0.077833973 6.076267e-39 327 302
0.010043093 0.71600002 -0.077833973 5.9840685e-39 328 302
0.01129848 0.71600002 -0.077833973 6.0762642e-39 329 302
0.012518799 0.71399999 -0.07761655 5.8021912e-39 330 302
0.01377068 0.71399999 -0.07761655 5.8021912e-39 331 302
0.015022559 0.71399999 -0.07761655 5.802194e-39 332 302
0.016274439 0.71399999 -0.07761655 5.7096396e-39 333 302
0.017599959 0.71700001 -0.077942684 5.8933176e-39 334 302
0.018857099 0.71700001 -0.077942684 6.1695444e-39 335 302
0.020114239 0.71700001 -0.077942684 5.7103865e-39 336 302
0.021371379 0.71700001 -0.077942684 6.3557559e-39 337 302
0.02262852 0.71700001 -0.077942684 7.5618816e-39 338 302
0.023952285 0.71899998 -0.078160092 1.1710685e-38 339 302
0.025212931 0.71899998 -0.078160092 1.0241683e-38 340 302
0.026510401 0.72000003 -0.078268804 6.092878e-39 341 302
0.027772799 0.72000003 -0.078268804 5.4449778e-39 342 302
0.0012904532 0.736 -0.08129856 7.9252298e-39 321 303
0.0025353199 0.72299999 -0.07986258 7.9223404e-39 322 303
0.0037872 0.72000003 -0.0795312 7.4613636e-39 323 303
0.0050496003 0.72000003 -0.0795312 7.092214e-39 324 303
0.0063032326 0.71899998 -0.07942073 6.7230713e-39 325 303
0.00753232 0.71600002 -0.079089358 6.4454082e-39 326 303
0.0087877065 0.71600002 -0.079089358 6.1691815e-39 327 303
0.010043093 0.71600002 -0.079089358 6.0766271e-39 328 303
0.01129848 0.71600002 -0.079089358 6.0766271e-39 329 303
0.012553867 0.71600002 -0.079089358 6.0777019e-39 330 303
0.013809253 0.71600002 -0.079089358 5.8936708e-39 331 303
0.01506464 0.71600002 -0.079089358 5.8933148e-39 332 303
0.016320027 0.71600002 -0.079089358 5.8933148e-39 333 303
0.017599959 0.71700001 -0.079199821 6.0769956e-39 334 303
0.018857099 0.71700001 -0.079199821 6.1691913e-39 335 303
0.020170346 0.71899998 -0.07942073 5.7103893e-39 336 303
0.021430992 0.71899998 -0.07942073 6.9085738e-39 337 303
0.022691639 0.71899998 -0.07942073 7.9303067e-39 338 303
0.0239856 0.72000003 -0.0795312 1.0696176e-38 339 303
0.025248 0.72000003 -0.0795312 7.8489109e-39 340 303
0.0025598668 0.73000002 -0.081915736 8.1096183e-39 322 304
0.0038135003 0.72500002 -0.08135467 7.4642503e-39 323 304
0.0050496003 0.72000003 -0.080793604 7.37024e-39 324 304
0.0063120001 0.72000003 -0.080793604 6.9092618e-39 325 304
0.0075428397 0.71700001 -0.080456957 6.6319519e-39 326 304
0.0087877065 0.71600002 -0.080344744 6.1713339e-39 327 304
0.010043093 0.71600002 -0.080344744 6.4446921e-39 328 304
0.01129848 0.71600002 -0.080344744 6.3521378e-39 329 304
0.012553867 0.71600002 -0.080344744 6.0773516e-39 330 304
0.013809253 0.71600002 -0.080344744 6.1695472e-39 331 304
0.01506464 0.71600002 -0.080344744 6.0773488e-39 332 304
0.016320027 0.71600002 -0.080344744 6.0773488e-39 333 304
0.017599959 0.71700001 -0.080456957 6.1691913e-39 334 304
0.018857099 0.71700001 -0.080456957 6.261747e-39 335 304
0.020170346 0.71899998 -0.080681384 5.8033024e-39 336 304
0.021430992 0.71899998 -0.080681384 7.2784325e-39 337 304
0.022691639 0.71899998 -0.080681384 7.9313829e-39 338 304
0.0239856 0.72000003 -0.080793604 8.5767523e-39 339 304
0.025353199 0.72299999 -0.081130236 6.2779923e-39 340 304
0.0050636264 0.722 -0.082283929 7.0979887e-39 324 305
0.0063295332 0.722 -0.082283929 6.7292048e-39 325 305
0.0075743999 0.72000003 -0.082056001 6.7266866e-39 326 305
0.0087999795 0.71700001 -0.081714094 6.0813172e-39 327 305
0.01005712 0.71700001 -0.081714094 6.1702745e-39 328 305
0.01131426 0.71700001 -0.081714094 6.0780788e-39 329 305
0.0125714 0.71700001 -0.081714094 6.1695472e-39 330 305
0.013828539 0.71700001 -0.081714094 6.1695472e-39 331 305
0.015085679 0.71700001 -0.081714094 6.078432e-39 332 305
0.016388407 0.71899998 -0.081942029 6.078432e-39 333 305
0.017649053 0.71899998 -0.081942029 6.078432e-39 334 305
0.018935999 0.72000003 -0.082056001 6.078432e-39 335 305
0.020198401 0.72000003 -0.082056001 6.0784446e-39 336 305
0.021460801 0.72000003 -0.082056001 8.1067484e-39 337 305
0.022786319 0.722 -0.082283929 7.4725502e-39 338 305
0.024085538 0.72299999 -0.082397893 7.1041278e-39 339 305
0.025353199 0.72299999 -0.082397893 6.732844e-39 340 305
0.0088367993 0.72000003 -0.083318397 6.8185137e-39 327 306
0.010099201 0.72000003 -0.083318397 6.9078185e-39 328 306
