# .PCD v.7 - Point Cloud Data file format
FIELDS x y z rgb imX imY
SIZE 4 4 4 4 4 4
TYPE F F F F F F
COUNT 1 1 1 1 1 1
WIDTH 845
HEIGHT 1
VIEWPOINT 0 0 0 1 0 0 0
POINTS 845
DATA ascii
0.0012553866 0.71600002 -0.043938532 1.6599905e-38 321 275
0.0025037599 0.71399999 -0.043815799 1.6414437e-38 322 275
0.0037556398 0.71399999 -0.043815799 1.6322242e-38 323 275
0.0050075199 0.71399999 -0.043815799 1.5953829e-38 324 275
0.0062593995 0.71399999 -0.043815799 1.6230056e-38 325 275
0.0075007593 0.713 -0.043754432 1.5313851e-38 326 275
0.0087508867 0.713 -0.043754432 1.5129101e-38 327 275
0.0099729598 0.71100003 -0.043631699 1.7244568e-38 328 275
0.01121958 0.71100003 -0.043631699 1.7982133e-38 329 275
0.0124662 0.71100003 -0.043631699 1.8350565e-38 330 275
0.01371282 0.71100003 -0.043631699 1.825801e-38 331 275
0.014959441 0.71100003 -0.043631699 1.8258713e-38 332 275
0.01620606 0.71100003 -0.043631699 1.8258713e-38 333 275
0.01745268 0.71100003 -0.043631699 1.7979242e-38 334 275
0.0186993 0.71100003 -0.043631699 1.8624612e-38 335 275
0.01994592 0.71100003 -0.043631699 1.9546215e-38 336 275
0.021252153 0.713 -0.043754432 1.9361824e-38 337 275
0.022502279 0.713 -0.043754432 1.9175993e-38 338 275
0.023752406 0.713 -0.043754432 1.8253678e-38 339 275
0.025002534 0.713 -0.043754432 1.6967611e-38 340 275
0.026252659 0.713 -0.043754432 1.6137492e-38 341 275
0.027502786 0.713 -0.043754432 1.5954536e-38 342 275
0.028793238 0.71399999 -0.043815799 1.6230762e-38 343 275
0.030045118 0.71399999 -0.043815799 1.5861621e-38 344 275
0.031296998 0.71399999 -0.043815799 1.5216252e-38 345 275
0.032548878 0.71399999 -0.043815799 1.539991e-38 346 275
0.033800758 0.71399999 -0.043815799 1.3832584e-38 347 275
0.035052639 0.71399999 -0.043815799 8.574897e-39 348 275
0.036304519 0.71399999 -0.043815799 2.0290073e-39 349 275
0.037556399 0.71399999 -0.043815799 1.821688e-44 350 275
0.038808275 0.71399999 -0.043815799 3.6882134e-39 351 275
-0.0063120001 0.72000003 -0.045446403 1.135049e-38 315 276
-0.0050425865 0.71899998 -0.045383278 1.3920837e-38 316 276
-0.0037819401 0.71899998 -0.045383278 1.3920837e-38 317 276
-0.0025142799 0.71700001 -0.045257039 1.2452544e-38 318 276
-0.0012553866 0.71600002 -0.045193922 1.3190109e-38 319 276
0 0.71600002 -0.045193922 1.6322958e-38 320 276
0.00125188 0.71399999 -0.045067675 1.6692101e-38 321 276
0.0025037599 0.71399999 -0.045067675 1.6414437e-38 322 276
0.0037556398 0.71399999 -0.045067675 1.6045296e-38 323 276
0.0050005065 0.713 -0.045004558 1.5676516e-38 324 276
0.0062506334 0.713 -0.045004558 1.4846756e-38 325 276
0.0074797203 0.71100003 -0.044878319 1.2366109e-38 326 276
0.0087263398 0.71100003 -0.044878319 1.4117826e-38 327 276
0.0099729598 0.71100003 -0.044878319 1.6873988e-38 328 276
0.01121958 0.71100003 -0.044878319 1.6873988e-38 329 276
0.012448666 0.70999998 -0.044815198 1.6507725e-38 330 276
0.013693533 0.70999998 -0.044815198 1.659992e-38 331 276
0.014938398 0.70999998 -0.044815198 1.6875062e-38 332 276
0.01620606 0.71100003 -0.044878319 1.6414084e-38 333 276
0.017428132 0.70999998 -0.044815198 1.5031872e-38 334 276
0.018672999 0.70999998 -0.044815198 1.632261e-38 335 276
0.019917866 0.70999998 -0.044815198 1.8995565e-38 336 276
0.021162732 0.70999998 -0.044815198 1.9640934e-38 337 276
0.022439159 0.71100003 -0.044878319 1.9729164e-38 338 276
0.023685781 0.71100003 -0.044878319 1.7885252e-38 339 276
0.024932399 0.71100003 -0.044878319 1.6230765e-38 340 276
0.026179021 0.71100003 -0.044878319 1.595418e-38 341 276
0.027425639 0.71100003 -0.044878319 1.6046378e-38 342 276
0.028752912 0.713 -0.045004558 1.6230409e-38 343 276
0.030045118 0.71399999 -0.045067675 1.5769791e-38 344 276
0.031296998 0.71399999 -0.045067675 1.5308813e-38 345 276
0.032548878 0.71399999 -0.045067675 1.539993e-38 346 276
0.033800758 0.71399999 -0.045067675 1.5123701e-38 347 276
0.035052639 0.71399999 -0.045067675 1.4197407e-38 348 276
0.036304519 0.71399999 -0.045067675 8.3890835e-39 349 276
0.037556399 0.71399999 -0.045067675 1.1056273e-39 350 276
0.038808275 0.71399999 -0.045067675 1.8367099e-40 351 276
-0.0075743999 0.72000003 -0.0467088 1.2452881e-38 314 277
-0.0063120001 0.72000003 -0.0467088 1.374362e-38 315 277
-0.0050425865 0.71899998 -0.046643924 1.4201023e-38 316 277
-0.0037714199 0.71700001 -0.046514176 1.4293219e-38 317 277
-0.0025107733 0.71600002 -0.046449307 1.4479047e-38 318 277
-0.0012553866 0.71600002 -0.046449307 1.521697e-38 319 277
0 0.71399999 -0.046319555 1.6782861e-38 320 277
0.00125188 0.71399999 -0.046319555 1.6506634e-38 321 277
0.0025002533 0.713 -0.046254687 1.5493923e-38 322 277
0.0037503797 0.713 -0.046254687 1.5217336e-38 323 277
0.0050005065 0.713 -0.046254687 1.4757077e-38 324 277
0.0062506334 0.713 -0.046254687 1.2913166e-38 325 277
0.0074797203 0.71100003 -0.046124939 1.1624946e-38 326 277
0.0087263398 0.71100003 -0.046124939 1.4022393e-38 327 277
0.0099729598 0.71100003 -0.046124939 1.5216983e-38 328 277
0.01121958 0.71100003 -0.046124939 1.4940756e-38 329 277
0.012448666 0.70999998 -0.046060063 1.4757804e-38 330 277
0.013693533 0.70999998 -0.046060063 1.4850359e-38 331 277
0.014938398 0.70999998 -0.046060063 1.5034387e-38 332 277
0.016183265 0.70999998 -0.046060063 1.4850356e-38 333 277
0.017428132 0.70999998 -0.046060063 1.3560702e-38 334 277
0.0186204 0.708 -0.045930319 1.3007528e-38 335 277
0.01986176 0.708 -0.045930319 1.5397787e-38 336 277
0.021103119 0.708 -0.045930319 1.6872558e-38 337 277
0.022407599 0.70999998 -0.046060063 1.6507003e-38 338 277
0.023652466 0.70999998 -0.046060063 1.5677241e-38 339 277
0.024897331 0.70999998 -0.046060063 1.521698e-38 340 277
0.026142199 0.70999998 -0.046060063 1.521698e-38 341 277
0.027387066 0.70999998 -0.046060063 1.4850359e-38 342 277
0.028672259 0.71100003 -0.046124939 1.5126585e-38 343 277
0.030003037 0.713 -0.046254687 1.549429e-38 344 277
0.031296998 0.71399999 -0.046319555 1.5310258e-38 345 277
0.032548878 0.71399999 -0.046319555 1.4939317e-38 346 277
0.033800758 0.71399999 -0.046319555 1.4478699e-38 347 277
0.035052639 0.71399999 -0.046319555 1.3832231e-38 348 277
0.036304519 0.71399999 -0.046319555 1.0144406e-38 349 277
0.037556399 0.71399999 -0.046319555 3.8754366e-39 350 277
0.038808275 0.71399999 -0.046319555 3.2285917e-42 351 277
0.039835732 0.70999998 -0.046060063 6.4880119e-42 352 277
0.041080594 0.70999998 -0.046060063 6.3744675e-39 353 277
-0.0075743999 0.72000003 -0.0479712 1.4662701e-38 314 278
-0.0063032326 0.71899998 -0.04790457 1.5215516e-38 315 278
-0.0050285598 0.71700001 -0.04777132 1.5122973e-38 316 278
-0.0037714199 0.71700001 -0.04777132 1.5399561e-38 317 278
-0.0025107733 0.71600002 -0.047704693 1.6137129e-38 318 278
-0.00125188 0.71399999 -0.047571439 1.7150921e-38 319 278
0 0.71399999 -0.047571439 1.6782861e-38 320 278
0.0012501266 0.713 -0.047504812 1.6137492e-38 321 278
0.0025002533 0.713 -0.047504812 1.521698e-38 322 278
0.0037503797 0.713 -0.047504812 1.4940754e-38 323 278
0.0050005065 0.713 -0.047504812 1.4113156e-38 324 278
0.0062330998 0.71100003 -0.047371563 1.171607e-38 325 278
0.0074797203 0.71100003 -0.047371563 1.2082332e-38 326 278
0.0087263398 0.71100003 -0.047371563 1.4387583e-38 327 278
0.0099729598 0.71100003 -0.047371563 1.4388299e-38 328 278
0.01121958 0.71100003 -0.047371563 1.4480494e-38 329 278
0.0124662 0.71100003 -0.047371563 1.4204989e-38 330 278
0.013693533 0.70999998 -0.047304932 1.4204989e-38 331 278
0.014938398 0.70999998 -0.047304932 1.438902e-38 332 278
0.016183265 0.70999998 -0.047304932 1.438902e-38 333 278
0.017428132 0.70999998 -0.047304932 1.3928042e-38 334 278
0.0186204 0.708 -0.047171678 1.2452912e-38 335 278
0.01986176 0.708 -0.047171678 1.1162901e-38 336 278
0.021103119 0.708 -0.047171678 1.328304e-38 337 278
0.022344479 0.708 -0.047171678 1.4387951e-38 338 278
0.023585839 0.708 -0.047171678 1.4387951e-38 339 278
0.024827199 0.708 -0.047171678 1.4571616e-38 340 278
0.026068559 0.708 -0.047171678 1.4387227e-38 341 278
0.027387066 0.70999998 -0.047304932 1.4020958e-38 342 278
0.028631933 0.70999998 -0.047304932 1.4482296e-38 343 278
0.029876797 0.70999998 -0.047304932 1.5679759e-38 344 278
0.031165501 0.71100003 -0.047371563 1.5771955e-38 345 278
0.032503292 0.713 -0.047504812 1.3650734e-38 346 278
0.033753417 0.713 -0.047504812 1.2359995e-38 347 278
0.035052639 0.71399999 -0.047571439 1.2912796e-38 348 278
0.036253672 0.713 -0.047504812 1.1898644e-38 349 278
0.037398599 0.71100003 -0.047371563 1.0326597e-38 350 278
0.038590867 0.70999998 -0.047304932 5.5320657e-39 351 278
0.039835732 0.70999998 -0.047304932 5.0222537e-42 352 278
0.041080594 0.70999998 -0.047304932 3.787557e-39 353 278
-0.0088245263 0.71899998 -0.049165215 1.5488513e-38 313 279
-0.0075638802 0.71899998 -0.049165215 1.484674e-38 314 279
-0.0063032326 0.71899998 -0.049165215 1.5307717e-38 315 279
-0.0050285598 0.71700001 -0.04902846 1.5583955e-38 316 279
-0.00376616 0.71600002 -0.048960082 1.5952736e-38 317 279
-0.0025107733 0.71600002 -0.048960082 1.6505554e-38 318 279
-0.00125188 0.71399999 -0.048823316 1.6505554e-38 319 279
0 0.713 -0.048754938 1.5401011e-38 320 279
0.0012501266 0.713 -0.048754938 1.5031869e-38 321 279
0.0025002533 0.713 -0.048754938 1.4387227e-38 322 279
0.0037503797 0.713 -0.048754938 1.4387227e-38 323 279
0.0049864799 0.71100003 -0.048618179 1.365038e-38 324 279
0.0062330998 0.71100003 -0.048618179 1.1714272e-38 325 279
0.0074797203 0.71100003 -0.048618179 1.2359995e-38 326 279
0.0087263398 0.71100003 -0.048618179 1.4388299e-38 327 279
0.0099729598 0.71100003 -0.048618179 1.4388299e-38 328 279
0.01121958 0.71100003 -0.048618179 1.4296103e-38 329 279
0.012448666 0.70999998 -0.048549797 1.4388301e-38 330 279
0.013693533 0.70999998 -0.048549797 1.4296106e-38 331 279
0.014938398 0.70999998 -0.048549797 1.4387945e-38 332 279
0.016183265 0.70999998 -0.048549797 1.429575e-38 333 279
0.017379038 0.708 -0.048413038 1.4388301e-38 334 279
0.0186204 0.708 -0.048413038 1.3189758e-38 335 279
0.01986176 0.708 -0.048413038 1.0520767e-38 336 279
0.021073313 0.70700002 -0.048344657 1.2364679e-38 337 279
0.022312919 0.70700002 -0.048344657 1.4388314e-38 338 279
0.023585839 0.708 -0.048413038 1.4204283e-38 339 279
0.024792133 0.70700002 -0.048344657 1.4294678e-38 340 279
0.02603174 0.70700002 -0.048344657 1.4110285e-38 341 279
0.027309919 0.708 -0.048413038 1.4020605e-38 342 279
0.02855128 0.708 -0.048413038 1.4850724e-38 343 279
0.02979264 0.708 -0.048413038 1.6507725e-38 344 279
0.031121666 0.70999998 -0.048549797 1.6138942e-38 345 279
0.032366529 0.70999998 -0.048549797 1.1901538e-38 346 279
0.033611398 0.70999998 -0.048549797 1.1993733e-38 347 279
0.035003547 0.713 -0.048754938 1.4021311e-38 348 279
0.036253672 0.713 -0.048754938 1.4482649e-38 349 279
0.037398599 0.71100003 -0.048618179 1.5854404e-38 350 279
0.038590867 0.70999998 -0.048549797 1.281195e-38 351 279
0.039835732 0.70999998 -0.048549797 7.7483565e-39 352 279
0.041080594 0.70999998 -0.048549797 2.2166202e-39 353 279
0.042325463 0.70999998 -0.048549797 5.6415505e-39 354 279
-0.010043093 0.71600002 -0.050215468 1.5122973e-38 312 280
-0.0087877065 0.71600002 -0.050215468 1.4754192e-38 313 280
-0.00753232 0.71600002 -0.050215468 1.484639e-38 314 280
-0.0062769335 0.71600002 -0.050215468 1.5214812e-38 315 280
-0.0050215465 0.71600002 -0.050215468 1.5491406e-38 316 280
-0.00376616 0.71600002 -0.050215468 1.5860187e-38 317 280
-0.0025037599 0.71399999 -0.050075196 1.5860185e-38 318 280
-0.0012501266 0.713 -0.050005067 1.5767989e-38 319 280
0 0.713 -0.050005067 1.5031866e-38 320 280
0.00124662 0.71100003 -0.049864799 1.4663444e-38 321 280
0.0024932399 0.71100003 -0.049864799 1.4478699e-38 322 280
0.0037398601 0.71100003 -0.049864799 1.4017721e-38 323 280
0.0049864799 0.71100003 -0.049864799 1.1628546e-38 324 280
0.0062330998 0.71100003 -0.049864799 1.1259405e-38 325 280
0.0074797203 0.71100003 -0.049864799 1.2913894e-38 326 280
0.0087263398 0.71100003 -0.049864799 1.4020242e-38 327 280
0.0099589331 0.70999998 -0.049794663 1.4020242e-38 328 280
0.011203799 0.70999998 -0.049794663 1.4020242e-38 329 280
0.012448666 0.70999998 -0.049794663 1.3745097e-38 330 280
0.013693533 0.70999998 -0.049794663 1.3745097e-38 331 280
0.014938398 0.70999998 -0.049794663 1.3836574e-38 332 280
0.016183265 0.70999998 -0.049794663 1.3744377e-38 333 280
0.017379038 0.708 -0.049654398 1.4387948e-38 334 280
0.0186204 0.708 -0.049654398 1.3465991e-38 335 280
0.019833706 0.70700002 -0.049584266 1.0887758e-38 336 280
0.021073313 0.70700002 -0.049584266 1.1348735e-38 337 280
0.022312919 0.70700002 -0.049584266 1.3097578e-38 338 280
0.023552528 0.70700002 -0.049584266 1.3558916e-38 339 280
0.024757065 0.70599997 -0.04951413 1.355963e-38 340 280
0.025994917 0.70599997 -0.04951413 1.3652184e-38 341 280
0.027271347 0.70700002 -0.049584266 1.4112438e-38 342 280
0.028510952 0.70700002 -0.049584266 1.5126588e-38 343 280
0.02979264 0.708 -0.049654398 1.5586126e-38 344 280
0.031034 0.708 -0.049654398 1.4940756e-38 345 280
0.032366529 0.70999998 -0.049794663 1.2640177e-38 346 280
0.033611398 0.70999998 -0.049794663 1.3377742e-38 347 280
0.034856264 0.70999998 -0.049794663 1.5034024e-38 348 280
0.036151983 0.71100003 -0.049864799 1.5218415e-38 349 280
0.037398599 0.71100003 -0.049864799 1.6227525e-38 350 280
0.038590867 0.70999998 -0.049794663 1.4844591e-38 351 280
0.039835732 0.70999998 -0.049794663 1.3000625e-38 352 280
0.040964879 0.708 -0.049654398 7.8376697e-39 353 280
0.042206239 0.708 -0.049654398 1.0038133e-38 354 280
0.043447599 0.708 -0.049654398 1.6676218e-38 355 280
-0.01131426 0.71700001 -0.051542737 1.6044213e-38 311 281
-0.01005712 0.71700001 -0.051542737 1.4478326e-38 312 281
-0.0087877065 0.71600002 -0.051470853 1.4109544e-38 313 281
-0.00753232 0.71600002 -0.051470853 1.4936786e-38 314 281
-0.0062769335 0.71600002 -0.051470853 1.5028983e-38 315 281
-0.0050215465 0.71600002 -0.051470853 1.4846393e-38 316 281
-0.0037556398 0.71399999 -0.05132708 1.512262e-38 317 281
-0.0025037599 0.71399999 -0.05132708 1.4663446e-38 318 281
-0.0012501266 0.713 -0.051255193 1.4478696e-38 319 281
0 0.71100003 -0.051111419 1.4478332e-38 320 281
0.00124662 0.71100003 -0.051111419 1.4478332e-38 321 281
0.0024932399 0.71100003 -0.051111419 1.4108825e-38 322 281
0.0037398601 0.71100003 -0.051111419 1.2357108e-38 323 281
0.0049864799 0.71100003 -0.051111419 6.5700257e-39 324 281
0.0062330998 0.71100003 -0.051111419 8.2299072e-39 325 281
0.0074797203 0.71100003 -0.051111419 1.3466368e-38 326 281
0.0087263398 0.71100003 -0.051111419 1.3742594e-38 327 281
0.0099589331 0.70999998 -0.051039528 1.3835849e-38 328 281
0.011203799 0.70999998 -0.051039528 1.3743295e-38 329 281
0.012448666 0.70999998 -0.051039528 1.3835849e-38 330 281
0.013693533 0.70999998 -0.051039528 1.3835849e-38 331 281
0.014938398 0.70999998 -0.051039528 1.3835849e-38 332 281
0.016183265 0.70999998 -0.051039528 1.3743295e-38 333 281
0.017379038 0.708 -0.050895758 1.4019886e-38 334 281
0.0186204 0.708 -0.050895758 1.2636952e-38 335 281
0.019833706 0.70700002 -0.050823875 7.7545293e-39 336 281
0.021073313 0.70700002 -0.050823875 4.5276822e-39 337 281
0.022312919 0.70700002 -0.050823875 4.3440224e-39 338 281
0.023552528 0.70700002 -0.050823875 7.4783151e-39 339 281
0.024757065 0.70599997 -0.050751984 9.9672496e-39 340 281
0.025994917 0.70599997 -0.050751984 1.2087749e-38 341 281
0.027271347 0.70700002 -0.050823875 1.3836577e-38 342 281
0.028510952 0.70700002 -0.050823875 1.4112803e-38 343 281
0.029750559 0.70700002 -0.050823875 1.3186884e-38 344 281
0.030990168 0.70700002 -0.050823875 1.180395e-38 345 281
0.03227536 0.708 -0.050895758 1.3007881e-38 346 281
0.033516716 0.708 -0.050895758 1.4206424e-38 347 281
0.034856264 0.70999998 -0.051039528 1.4573409e-38 348 281
0.036101133 0.70999998 -0.051039528 1.4573409e-38 349 281
0.037345998 0.70999998 -0.051039528 1.4848556e-38 350 281
0.038590867 0.70999998 -0.051039528 1.4571611e-38 351 281
0.039835732 0.70999998 -0.051039528 1.4659112e-38 352 281
0.040964879 0.708 -0.050895758 1.2907035e-38 353 281
0.042206239 0.708 -0.050895758 1.22613e-38 354 281
0.043447599 0.708 -0.050895758 1.5027169e-38 355 281
-0.0125714 0.71700001 -0.052799881 1.7152358e-38 310 282
-0.01131426 0.71700001 -0.052799881 1.5492478e-38 311 282
-0.010043093 0.71600002 -0.052726239 1.447725e-38 312 282
-0.0087877065 0.71600002 -0.052726239 1.447725e-38 313 282
-0.00753232 0.71600002 -0.052726239 1.4569446e-38 314 282
-0.0062593995 0.71399999 -0.052578956 1.4569446e-38 315 282
-0.0050075199 0.71399999 -0.052578956 1.4018427e-38 316 282
-0.0037503797 0.713 -0.052505318 1.3926232e-38 317 282
-0.0024932399 0.71100003 -0.052358042 1.4386131e-38 318 282
-0.00124662 0.71100003 -0.052358042 1.3925513e-38 319 282
0 0.71100003 -0.052358042 1.355313e-38 320 282
0.0012448666 0.70999998 -0.052284397 1.2538977e-38 321 282
0.0024897333 0.70999998 -0.052284397 1.078581e-38 322 282
0.0037345996 0.70999998 -0.052284397 7.651517e-39 323 282
0.0049794666 0.70999998 -0.052284397 4.8583999e-40 324 282
0.0062330998 0.71100003 -0.052358042 4.8190332e-39 325 282
0.0074691991 0.70999998 -0.052284397 1.1810106e-38 326 282
0.0087140659 0.70999998 -0.052284397 1.2824258e-38 327 282
0.0099589331 0.70999998 -0.052284397 1.3558916e-38 328 282
0.011203799 0.70999998 -0.052284397 1.3466362e-38 329 282
0.012448666 0.70999998 -0.052284397 1.3375238e-38 330 282
0.013693533 0.70999998 -0.052284397 1.3467434e-38 331 282
0.014938398 0.70999998 -0.052284397 1.346779e-38 332 282
0.016183265 0.70999998 -0.052284397 1.3559985e-38 333 282
0.017379038 0.708 -0.052137118 1.3467437e-38 334 282
0.0186204 0.708 -0.052137118 1.0332785e-38 335 282
0.01986176 0.708 -0.052137118 2.3164192e-39 336 282
0.021103119 0.708 -0.052137118 8.2872791e-42 337 282
0.022344479 0.708 -0.052137118 3.6209552e-42 338 282
0.023552528 0.70700002 -0.05206348 1.3008408e-39 339 282
0.024792133 0.70700002 -0.05206348 4.1546215e-39 340 282
0.02603174 0.70700002 -0.05206348 5.8141429e-39 341 282
0.027271347 0.70700002 -0.05206348 7.0209481e-39 342 282
0.028510952 0.70700002 -0.05206348 9.049252e-39 343 282
0.029750559 0.70700002 -0.05206348 1.0431089e-38 344 282
0.030990168 0.70700002 -0.05206348 1.0154862e-38 345 282
0.032229774 0.70700002 -0.05206348 1.3559614e-38 346 282
0.033516716 0.708 -0.052137118 1.4481569e-38 347 282
0.034856264 0.70999998 -0.052284397 1.4205352e-38 348 282
0.036101133 0.70999998 -0.052284397 1.4113156e-38 349 282
0.037345998 0.70999998 -0.052284397 1.411244e-38 350 282
0.038590867 0.70999998 -0.052284397 1.3743298e-38 351 282
0.039835732 0.70999998 -0.052284397 1.3926244e-38 352 282
0.041080594 0.70999998 -0.052284397 1.3280875e-38 353 282
0.042325463 0.70999998 -0.052284397 1.2729851e-38 354 282
0.043570329 0.70999998 -0.052284397 1.3836197e-38 355 282
-0.0125714 0.71700001 -0.054057021 1.6875413e-38 310 283
-0.01129848 0.71600002 -0.053981625 1.50315e-38 311 283
-0.010043093 0.71600002 -0.053981625 1.4201023e-38 312 283
-0.0087877065 0.71600002 -0.053981625 1.4201023e-38 313 283
-0.0075112795 0.71399999 -0.053830836 1.4292863e-38 314 283
-0.0062593995 0.71399999 -0.053830836 1.4292863e-38 315 283
-0.0050005065 0.713 -0.053755447 1.2913522e-38 316 283
-0.0037503797 0.713 -0.053755447 1.189937e-38 317 283
-0.0024932399 0.71100003 -0.053604662 1.1899726e-38 318 283
-0.00124662 0.71100003 -0.053604662 1.1069606e-38 319 283
0 0.70999998 -0.053529263 9.5876252e-39 320 283
0.0012448666 0.70999998 -0.053529263 6.2685826e-39 321 283
0.0024897333 0.70999998 -0.053529263 2.6715083e-39 322 283
0.0037345996 0.70999998 -0.053529263 0 323 283
0.0049794666 0.70999998 -0.053529263 2.5545671e-42 324 283
0.0062243328 0.70999998 -0.053529263 3.0518515e-39 325 283
0.0074691991 0.70999998 -0.053529263 7.0252879e-39 326 283
0.0087140659 0.70999998 -0.053529263 1.0805309e-38 327 283
0.0099589331 0.70999998 -0.053529263 1.3281618e-38 328 283
0.011203799 0.70999998 -0.053529263 1.3097225e-38 329 283
0.012448666 0.70999998 -0.053529263 1.3099012e-38 330 283
0.013693533 0.70999998 -0.053529263 1.3099012e-38 331 283
0.014938398 0.70999998 -0.053529263 1.3374519e-38 332 283
0.016183265 0.70999998 -0.053529263 1.3466715e-38 333 283
0.017379038 0.708 -0.053378478 1.1625679e-38 334 283
0.0186204 0.708 -0.053378478 6.6467552e-39 335 283
0.01986176 0.708 -0.053378478 1.9618179e-44 336 283
0.021103119 0.708 -0.053378478 1.821688e-44 337 283
0.022344479 0.708 -0.053378478 2.9427268e-44 338 283
0.023585839 0.708 -0.053378478 2.6624671e-44 339 283
0.024792133 0.70700002 -0.053303085 1.821688e-44 340 283
0.02603174 0.70700002 -0.053303085 1.821688e-44 341 283
0.027271347 0.70700002 -0.053303085 9.7460308e-42 342 283
0.028510952 0.70700002 -0.053303085 3.3352725e-39 343 283
0.029750559 0.70700002 -0.053303085 9.8775651e-39 344 283
0.030990168 0.70700002 -0.053303085 1.2275012e-38 345 283
0.032229774 0.70700002 -0.053303085 1.4203554e-38 346 283
0.033516716 0.708 -0.053378478 1.429575e-38 347 283
0.034758076 0.708 -0.053378478 1.3744377e-38 348 283
0.036101133 0.70999998 -0.053529263 1.3744377e-38 349 283
0.037345998 0.70999998 -0.053529263 1.3284122e-38 350 283
0.038590867 0.70999998 -0.053529263 1.3191926e-38 351 283
0.039835732 0.70999998 -0.053529263 1.2915335e-38 352 283
0.041080594 0.70999998 -0.053529263 1.3007531e-38 353 283
0.042325463 0.70999998 -0.053529263 1.355962e-38 354 283
0.043570329 0.70999998 -0.053529263 1.3743651e-38 355 283
0.044815198 0.70999998 -0.053529263 1.5492122e-38 356 283
-0.0125714 0.71700001 -0.055314157 1.6414437e-38 310 284
-0.01129848 0.71600002 -0.055237014 1.4847112e-38 311 284
-0.010043093 0.71600002 -0.055237014 1.3925876e-38 312 284
-0.0087877065 0.71600002 -0.055237014 1.4018071e-38 313 284
-0.0075112795 0.71399999 -0.05508272 1.3924804e-38 314 284
-0.0062593995 0.71399999 -0.05508272 1.3832607e-38 315 284
-0.0050005065 0.713 -0.055005573 1.3373426e-38 316 284
-0.0037503797 0.713 -0.055005573 1.2359276e-38 317 284
-0.0024932399 0.71100003 -0.054851279 5.2710052e-39 318 284
-0.00124662 0.71100003 -0.054851279 1.5835387e-39 319 284
0 0.70999998 -0.054774132 2.6754879e-39 320 284
0.0012448666 0.70999998 -0.054774132 1.9379229e-39 321 284
0.0024897333 0.70999998 -0.054774132 1.2911046e-39 322 284
0.0037345996 0.70999998 -0.054774132 1.1070734e-39 323 284
0.0049794666 0.70999998 -0.054774132 4.6353692e-40 324 284
0.0062243328 0.70999998 -0.054774132 3.7134129e-40 325 284
0.0074691991 0.70999998 -0.054774132 9.4827829e-40 326 284
0.0087140659 0.70999998 -0.054774132 7.771115e-39 327 284
0.0099589331 0.70999998 -0.054774132 1.2821364e-38 328 284
0.011203799 0.70999998 -0.054774132 1.2913559e-38 329 284
0.012448666 0.70999998 -0.054774132 1.291426e-38 330 284
0.013693533 0.70999998 -0.054774132 1.291426e-38 331 284
0.014938398 0.70999998 -0.054774132 1.3559267e-38 332 284
0.016183265 0.70999998 -0.054774132 1.3190124e-38 333 284
0.017354494 0.70700002 -0.054542694 7.1109745e-39 334 284
0.018594101 0.70700002 -0.054542694 2.0405736e-39 335 284
0.01986176 0.708 -0.054619838 3.2229865e-44 336 284
0.021103119 0.708 -0.054619838 1.0134737e-39 337 284
0.022344479 0.708 -0.054619838 1.6599067e-39 338 284
0.023585839 0.708 -0.054619838 1.1992873e-39 339 284
0.024792133 0.70700002 -0.054542694 4.6278863e-40 340 284
0.02603174 0.70700002 -0.054542694 9.8090893e-45 341 284
0.027271347 0.70700002 -0.054542694 6.8551521e-42 342 284
0.028510952 0.70700002 -0.054542694 5.2630851e-39 343 284
0.029708479 0.70599997 -0.054465543 1.1254019e-38 344 284
0.030946331 0.70599997 -0.054465543 1.3466715e-38 345 284
0.032184184 0.70599997 -0.054465543 1.3098656e-38 346 284
0.033516716 0.708 -0.054619838 1.3098656e-38 347 284
0.034758076 0.708 -0.054619838 1.2914982e-38 348 284
0.036101133 0.70999998 -0.054774132 1.2730951e-38 349 284
0.037345998 0.70999998 -0.054774132 1.2271412e-38 350 284
0.038590867 0.70999998 -0.054774132 1.208702e-38 351 284
0.039835732 0.70999998 -0.054774132 1.2270693e-38 352 284
0.041080594 0.70999998 -0.054774132 1.273167e-38 353 284
0.042325463 0.70999998 -0.054774132 1.3559267e-38 354 284
0.043570329 0.70999998 -0.054774132 1.3743298e-38 355 284
0.044815198 0.70999998 -0.054774132 1.5583958e-38 356 284
-0.0125714 0.71700001 -0.056571297 1.6413003e-38 310 285
-0.01129848 0.71600002 -0.056492399 1.4753841e-38 311 285
-0.010043093 0.71600002 -0.056492399 1.3925523e-38 312 285
-0.0087877065 0.71600002 -0.056492399 1.374113e-38 313 285
-0.0075112795 0.71399999 -0.0563346 1.3281957e-38 314 285
-0.0062593995 0.71399999 -0.0563346 1.3189761e-38 315 285
-0.0050005065 0.713 -0.056255698 1.3465636e-38 316 285
-0.0037503797 0.713 -0.056255698 1.3189408e-38 317 285
-0.0024932399 0.71100003 -0.056097899 3.8888148e-39 318 285
-0.00124662 0.71100003 -0.056097899 4.3538343e-42 319 285
0 0.70999998 -0.056018997 3.2790384e-42 320 285
0.0012448666 0.70999998 -0.056018997 7.4516568e-40 321 285
0.00248272 0.708 -0.055861197 1.9390173e-39 322 285
0.00372408 0.708 -0.055861197 1.9390173e-39 323 285
0.0049794666 0.70999998 -0.056018997 1.6624304e-39 324 285
0.0062243328 0.70999998 -0.056018997 3.8815967e-43 325 285
0.0074691991 0.70999998 -0.056018997 5.4454458e-42 326 285
0.0087140659 0.70999998 -0.056018997 7.1102711e-39 327 285
0.0099589331 0.70999998 -0.056018997 1.0797026e-38 328 285
0.011203799 0.70999998 -0.056018997 1.217996e-38 329 285
0.012448666 0.70999998 -0.056018997 1.2914982e-38 330 285
0.013693533 0.70999998 -0.056018997 1.3099374e-38 331 285
0.014938398 0.70999998 -0.056018997 1.3467437e-38 332 285
0.016183265 0.70999998 -0.056018997 1.2084502e-38 333 285
0.017354494 0.70700002 -0.055782299 8.470625e-40 334 285
0.018594101 0.70700002 -0.055782299 8.6586232e-42 335 285
0.01986176 0.708 -0.055861197 8.3158096e-40 336 285
0.021103119 0.708 -0.055861197 2.0297654e-39 337 285
0.022344479 0.708 -0.055861197 2.2130651e-39 338 285
0.023585839 0.708 -0.055861197 2.2130651e-39 339 285
0.024827199 0.708 -0.055861197 1.937204e-39 340 285
0.026068559 0.708 -0.055861197 1.107442e-39 341 285
0.027271347 0.70700002 -0.055782299 1.2954472e-39 342 285
0.028510952 0.70700002 -0.055782299 6.3662054e-39 343 285
0.029708479 0.70599997 -0.055703394 1.1346218e-38 344 285
0.030946331 0.70599997 -0.055703394 1.3097575e-38 345 285
0.032184184 0.70599997 -0.055703394 1.2178147e-38 346 285
0.033516716 0.708 -0.055861197 1.208595e-38 347 285
0.034758076 0.708 -0.055861197 1.1902279e-38 348 285
0.03599944 0.708 -0.055861197 1.1810083e-38 349 285
0.037345998 0.70999998 -0.056018997 1.1350534e-38 350 285
0.038590867 0.70999998 -0.056018997 1.1258339e-38 351 285
0.039835732 0.70999998 -0.056018997 1.1718241e-38 352 285
0.041080594 0.70999998 -0.056018997 1.2179219e-38 353 285
0.042325463 0.70999998 -0.056018997 1.3006815e-38 354 285
0.043570329 0.70999998 -0.056018997 1.3467434e-38 355 285
0.044815198 0.70999998 -0.056018997 1.5491762e-38 356 285
-0.0125714 0.71700001 -0.057828441 1.6137132e-38 310 286
-0.01129848 0.71600002 -0.057747785 1.4661641e-38 311 286
-0.010043093 0.71600002 -0.057747785 1.3465266e-38 312 286
-0.0087877065 0.71600002 -0.057747785 1.3280875e-38 313 286
-0.00753232 0.71600002 -0.057747785 1.3371998e-38 314 286
-0.0062593995 0.71399999 -0.057586476 1.3371998e-38 315 286
-0.0050075199 0.71399999 -0.057586476 1.3097931e-38 316 286
-0.0037503797 0.713 -0.057505824 1.3190127e-38 317 286
-0.0024932399 0.71100003 -0.057344519 7.1102613e-39 318 286
-0.00124662 0.71100003 -0.057344519 1.1197776e-41 319 286
0 0.70999998 -0.057263866 1.9054296e-40 320 286
0.0012448666 0.70999998 -0.057263866 1.5734788e-39 321 286
0.00248272 0.708 -0.057102561 1.9393676e-39 322 286
0.00372408 0.708 -0.057102561 1.7549764e-39 323 286
0.0049794666 0.70999998 -0.057263866 2.0308402e-39 324 286
0.0062243328 0.70999998 -0.057263866 1.3854708e-39 325 286
0.0074691991 0.70999998 -0.057263866 3.2804397e-42 326 286
0.0087140659 0.70999998 -0.057263866 1.1128692e-39 327 286
0.0099589331 0.70999998 -0.057263866 2.7968628e-39 328 286
0.011203799 0.70999998 -0.057263866 7.9598181e-39 329 286
0.012448666 0.70999998 -0.057263866 1.2914982e-38 330 286
0.013693533 0.70999998 -0.057263866 1.3191929e-38 331 286
0.014938398 0.70999998 -0.057263866 1.2177051e-38 332 286
0.01613768 0.708 -0.057102561 9.5033778e-39 333 286
0.017354494 0.70700002 -0.057021905 2.8025969e-45 334 286
0.018594101 0.70700002 -0.057021905 7.3708299e-43 335 286
0.019833706 0.70700002 -0.057021905 2.1226673e-39 336 286
0.021073313 0.70700002 -0.057021905 2.2148629e-39 337 286
0.022312919 0.70700002 -0.057021905 2.2155846e-39 338 286
0.023585839 0.708 -0.057102561 2.2155846e-39 339 286
0.024827199 0.708 -0.057102561 2.0322695e-39 340 286
0.026068559 0.708 -0.057102561 1.4790958e-39 341 286
0.027271347 0.70700002 -0.057021905 1.9400921e-39 342 286
0.028510952 0.70700002 -0.057021905 6.2732881e-39 343 286
0.029750559 0.70700002 -0.057021905 1.097852e-38 344 286
0.031034 0.708 -0.057102561 1.2269259e-38 345 286
0.03227536 0.708 -0.057102561 1.1900481e-38 346 286
0.033516716 0.708 -0.057102561 1.171609e-38 347 286
0.034758076 0.708 -0.057102561 1.19916e-38 348 286
0.03599944 0.708 -0.057102561 1.19916e-38 349 286
0.037345998 0.70999998 -0.057263866 1.1808641e-38 350 286
0.038590867 0.70999998 -0.057263866 1.1808641e-38 351 286
0.039835732 0.70999998 -0.057263866 1.1900837e-38 352 286
0.041080594 0.70999998 -0.057263866 1.1900837e-38 353 286
0.042325463 0.70999998 -0.057263866 1.2270693e-38 354 286
0.043570329 0.70999998 -0.057263866 1.3192289e-38 355 286
0.044815198 0.70999998 -0.057263866 1.5676516e-38 356 286
-0.0125714 0.71700001 -0.059085581 1.6595949e-38 310 287
-0.01129848 0.71600002 -0.059003171 1.4844591e-38 311 287
-0.010043093 0.71600002 -0.059003171 1.3280875e-38 312 287
-0.0087877065 0.71600002 -0.059003171 1.3280875e-38 313 287
-0.00753232 0.71600002 -0.059003171 1.3096491e-38 314 287
-0.0062769335 0.71600002 -0.059003171 1.3096491e-38 315 287
-0.0050075199 0.71399999 -0.058838356 1.3004658e-38 316 287
-0.0037556398 0.71399999 -0.058838356 1.3004658e-38 317 287
-0.0025002533 0.713 -0.058755953 7.7548978e-39 318 287
-0.00124662 0.71100003 -0.058591139 9.3278133e-40 319 287
0 0.70999998 -0.058508728 2.8164137e-40 320 287
0.0012448666 0.70999998 -0.058508728 1.8493272e-39 321 287
0.00248272 0.708 -0.058343921 1.8468035e-39 322 287
0.00372408 0.708 -0.058343921 1.8468035e-39 323 287
0.0049794666 0.70999998 -0.058508728 1.8471748e-39 324 287
0.0062243328 0.70999998 -0.058508728 2.0315661e-39 325 287
0.0074481601 0.708 -0.058343921 7.3901118e-40 326 287
0.008689519 0.708 -0.058343921 9.4000502e-41 327 287
0.0099589331 0.70999998 -0.058508728 5.8047374e-39 328 287
0.011203799 0.70999998 -0.058508728 1.400979e-38 329 287
0.012448666 0.70999998 -0.058508728 1.2179569e-38 330 287
0.013693533 0.70999998 -0.058508728 1.2456156e-38 331 287
0.014938398 0.70999998 -0.058508728 1.1716774e-38 332 287
0.01613768 0.708 -0.058343921 8.121144e-39 333 287
0.017354494 0.70700002 -0.05826151 3.5873241e-42 334 287
0.018594101 0.70700002 -0.05826151 6.1012535e-42 335 287
0.019833706 0.70700002 -0.05826151 2.7665878e-39 336 287
0.021073313 0.70700002 -0.05826151 2.8587848e-39 337 287
0.022312919 0.70700002 -0.05826151 2.4003332e-39 338 287
0.023585839 0.708 -0.058343921 2.4925288e-39 339 287
0.024827199 0.708 -0.058343921 2.3999773e-39 340 287
0.026068559 0.708 -0.058343921 2.0311933e-39 341 287
0.027309919 0.708 -0.058343921 1.6660276e-39 342 287
0.02855128 0.708 -0.058343921 5.9066664e-39 343 287
0.02979264 0.708 -0.058343921 1.0885606e-38 344 287
0.031034 0.708 -0.058343921 1.226854e-38 345 287
0.03227536 0.708 -0.058343921 1.1164719e-38 346 287
0.033516716 0.708 -0.058343921 1.1072165e-38 347 287
0.034758076 0.708 -0.058343921 1.1072887e-38 348 287
0.03599944 0.708 -0.058343921 1.1165082e-38 349 287
0.037345998 0.70999998 -0.058508728 1.1441301e-38 350 287
0.038590867 0.70999998 -0.058508728 1.1533496e-38 351 287
0.039835732 0.70999998 -0.058508728 1.1533496e-38 352 287
0.041080594 0.70999998 -0.058508728 1.1625692e-38 353 287
0.042325463 0.70999998 -0.058508728 1.1627843e-38 354 287
0.043570329 0.70999998 -0.058508728 1.2826386e-38 355 287
0.044815198 0.70999998 -0.058508728 1.5768718e-38 356 287
-0.0125714 0.71700001 -0.060342718 1.6780699e-38 310 288
-0.01129848 0.71600002 -0.06025856 1.4659841e-38 311 288
-0.010043093 0.71600002 -0.06025856 1.3096488e-38 312 288
-0.0087877065 0.71600002 -0.06025856 1.3373073e-38 313 288
-0.00753232 0.71600002 -0.06025856 1.2821346e-38 314 288
-0.0062769335 0.71600002 -0.06025856 1.272915e-38 315 288
-0.0050215465 0.71600002 -0.06025856 1.2729872e-38 316 288
-0.0037556398 0.71399999 -0.060090236 1.2729872e-38 317 288
-0.0025002533 0.713 -0.060006075 8.3069968e-39 318 288
-0.0012501266 0.713 -0.060006075 3.0518459e-39 319 288
0 0.71100003 -0.059837762 6.4862883e-40 320 288
0.0012448666 0.70999998 -0.059753593 1.6627808e-39 321 288
0.00248272 0.708 -0.059585281 2.0304745e-39 322 288
0.00372408 0.708 -0.059585281 2.1226701e-39 323 288
0.0049654399 0.708 -0.059585281 1.9397236e-39 324 288
0.0062243328 0.70999998 -0.059753593 1.7549736e-39 325 288
0.0074481601 0.708 -0.059585281 4.6603824e-40 326 288
0.008689519 0.708 -0.059585281 2.9553202e-39 327 288
0.0099308798 0.708 -0.059585281 7.660184e-39 328 288
0.01117224 0.708 -0.059585281 1.2269966e-38 329 288
0.0124136 0.708 -0.059585281 1.1718962e-38 330 288
0.013654959 0.708 -0.059585281 1.1442377e-38 331 288
0.01489632 0.708 -0.059585281 1.208485e-38 332 288
0.01613768 0.708 -0.059585281 1.0333492e-38 333 288
0.017354494 0.70700002 -0.059501119 2.6812109e-39 334 288
0.018594101 0.70700002 -0.059501119 4.6851433e-40 335 288
0.019833706 0.70700002 -0.059501119 1.6634674e-39 336 288
0.021073313 0.70700002 -0.059501119 2.3088368e-39 337 288
0.022312919 0.70700002 -0.059501119 2.3999829e-39 338 288
0.023585839 0.708 -0.059585281 2.4921785e-39 339 288
0.024827199 0.708 -0.059585281 2.1248379e-39 340 288
0.026068559 0.708 -0.059585281 7.4190346e-40 341 288
0.027309919 0.708 -0.059585281 1.4798342e-39 342 288
0.02855128 0.708 -0.059585281 6.3662026e-39 343 288
0.02979264 0.708 -0.059585281 1.0334587e-38 344 288
0.031034 0.708 -0.059585281 1.1809357e-38 345 288
0.03227536 0.708 -0.059585281 1.0979969e-38 346 288
0.033516716 0.708 -0.059585281 1.0979969e-38 347 288
0.034758076 0.708 -0.059585281 1.1164714e-38 348 288
0.03599944 0.708 -0.059585281 1.1256909e-38 349 288
0.037345998 0.70999998 -0.059753593 1.1533494e-38 350 288
0.038590867 0.70999998 -0.059753593 1.1533494e-38 351 288
0.039835732 0.70999998 -0.059753593 1.1626045e-38 352 288
0.041080594 0.70999998 -0.059753593 1.1718241e-38 353 288
0.042325463 0.70999998 -0.059753593 1.1994102e-38 354 288
0.043570329 0.70999998 -0.059753593 1.3192645e-38 355 288
0.044815198 0.70999998 -0.059753593 1.5768715e-38 356 288
-0.0125714 0.71700001 -0.061599858 1.7148403e-38 310 289
-0.01129848 0.71600002 -0.061513945 1.5120099e-38 311 289
-0.010043093 0.71600002 -0.061513945 1.3280159e-38 312 289
-0.0087877065 0.71600002 -0.061513945 1.3003212e-38 313 289
-0.00753232 0.71600002 -0.061513945 1.2361809e-38 314 289
-0.0062769335 0.71600002 -0.061513945 1.2361809e-38 315 289
-0.0050215465 0.71600002 -0.061513945 1.2729872e-38 316 289
-0.0037556398 0.71399999 -0.061342116 1.2729872e-38 317 289
-0.0025037599 0.71399999 -0.061342116 8.8598034e-39 318 289
-0.0012501266 0.713 -0.061256204 4.1578263e-39 319 289
0 0.71100003 -0.061084379 2.89228e-42 320 289
0.0012448666 0.70999998 -0.060998458 4.645907e-40 321 289
0.00248272 0.708 -0.060826641 1.3869029e-39 322 289
0.00372408 0.708 -0.060826641 1.6631311e-39 323 289
0.0049654399 0.708 -0.060826641 1.8471748e-39 324 289
0.0062243328 0.70999998 -0.060998458 5.56436e-40 325 289
0.0074481601 0.708 -0.060826641 9.0243621e-42 326 289
0.008689519 0.708 -0.060826641 6.9262161e-39 327 289
0.0099308798 0.708 -0.060826641 1.05179e-38 328 289
0.01117224 0.708 -0.060826641 1.2546204e-38 329 289
0.0124136 0.708 -0.060826641 1.1810805e-38 330 289
0.013654959 0.708 -0.060826641 1.1534578e-38 331 289
0.01489632 0.708 -0.060826641 1.2637673e-38 332 289
0.01613768 0.708 -0.060826641 1.2176695e-38 333 289
0.017354494 0.70700002 -0.060740728 1.0142949e-38 334 289
0.018594101 0.70700002 -0.060740728 4.6108507e-39 335 289
0.019833706 0.70700002 -0.060740728 7.425901e-40 336 289
0.021073313 0.70700002 -0.060740728 1.4801551e-39 337 289
0.022312919 0.70700002 -0.060740728 2.1237659e-39 338 289
0.023552528 0.70700002 -0.060740728 1.7546233e-39 339 289
0.024827199 0.708 -0.060826641 7.4588175e-40 340 289
0.026068559 0.708 -0.060826641 1.9270797e-40 341 289
0.027309919 0.708 -0.060826641 2.9571349e-39 342 289
0.02855128 0.708 -0.060826641 7.1981339e-39 343 289
0.02979264 0.708 -0.060826641 8.9538137e-39 344 289
0.031034 0.708 -0.060826641 1.0152357e-38 345 289
0.03227536 0.708 -0.060826641 9.8768616e-39 346 289
0.033516716 0.708 -0.060826641 1.0153809e-38 347 289
0.034758076 0.708 -0.060826641 1.107324e-38 348 289
0.03599944 0.708 -0.060826641 1.1257632e-38 349 289
0.037345998 0.70999998 -0.060998458 1.1442377e-38 350 289
0.038590867 0.70999998 -0.060998458 1.1442377e-38 351 289
0.039891839 0.71100003 -0.061084379 1.1718244e-38 352 289
0.041138459 0.71100003 -0.061084379 1.1810439e-38 353 289
0.042325463 0.70999998 -0.060998458 1.2178494e-38 354 289
0.043570329 0.70999998 -0.060998458 1.3284841e-38 355 289
0.044815198 0.70999998 -0.060998458 1.5309535e-38 356 289
-0.0125714 0.71700001 -0.062856995 1.7426068e-38 310 290
-0.01129848 0.71600002 -0.062769331 1.4844591e-38 311 290
-0.010043093 0.71600002 -0.062769331 1.2451118e-38 312 290
-0.0087877065 0.71600002 -0.062769331 1.1990139e-38 313 290
-0.00753232 0.71600002 -0.062769331 1.1165423e-38 314 290
-0.0062769335 0.71600002 -0.062769331 1.1810434e-38 315 290
-0.0050215465 0.71600002 -0.062769331 1.2637673e-38 316 290
-0.0037556398 0.71399999 -0.062593997 1.2637673e-38 317 290
-0.0025037599 0.71399999 -0.062593997 9.5962712e-39 318 290
-0.0012501266 0.713 -0.062506333 4.8020985e-39 319 290
0 0.71100003 -0.062331002 4.3230058e-42 320 290
0.00124662 0.71100003 -0.062331002 2.1622035e-42 321 290
0.0024897333 0.70999998 -0.062243331 9.2449545e-40 322 290
0.00372408 0.708 -0.062068 9.2449545e-40 323 290
0.0049654399 0.708 -0.062068 7.5740182e-42 324 290
0.0062243328 0.70999998 -0.062243331 3.9740824e-42 325 290
0.0074691991 0.70999998 -0.062243331 2.4914722e-39 326 290
0.0087140659 0.70999998 -0.062243331 1.2264209e-38 327 290
0.0099589331 0.70999998 -0.062243331 1.2453289e-38 328 290
0.011203799 0.70999998 -0.062243331 1.2453289e-38 329 290
0.0124136 0.708 -0.062068 1.125943e-38 330 290
0.013654959 0.708 -0.062068 1.125943e-38 331 290
0.01489632 0.708 -0.062068 1.2086314e-38 332 290
0.01613768 0.708 -0.062068 1.2455455e-38 333 290
0.017354494 0.70700002 -0.061980337 1.3647497e-38 334 290
0.018594101 0.70700002 -0.061980337 9.3139418e-39 335 290
0.019833706 0.70700002 -0.061980337 1.9429606e-39 336 290
0.021073313 0.70700002 -0.061980337 3.75995e-40 337 290
0.022312919 0.70700002 -0.061980337 1.1918043e-41 338 290
0.023552528 0.70700002 -0.061980337 1.0477509e-41 339 290
0.024827199 0.708 -0.062068 1.5537597e-41 340 290
0.026068559 0.708 -0.062068 1.5864646e-39 341 290
0.027309919 0.708 -0.062068 4.534564e-39 342 290
0.02855128 0.708 -0.062068 6.6547033e-39 343 290
0.02979264 0.708 -0.062068 8.21662e-39 344 290
0.031034 0.708 -0.062068 8.3088171e-39 345 290
0.03227536 0.708 -0.062068 9.4144416e-39 346 290
0.033516716 0.708 -0.062068 9.9676153e-39 347 290
0.034758076 0.708 -0.062068 1.079701e-38 348 290
0.03599944 0.708 -0.062068 1.1350184e-38 349 290
0.037345998 0.70999998 -0.062243331 1.1718962e-38 350 290
0.038645219 0.71100003 -0.062331002 1.1718962e-38 351 290
0.039891839 0.71100003 -0.062331002 1.1717888e-38 352 290
0.041138459 0.71100003 -0.062331002 1.1810083e-38 353 290
0.042325463 0.70999998 -0.062243331 1.2546559e-38 354 290
0.043570329 0.70999998 -0.062243331 1.337632e-38 355 290
0.044815198 0.70999998 -0.062243331 1.5399932e-38 356 290
-0.01129848 0.71600002 -0.064024724 1.438397e-38 311 291
-0.010043093 0.71600002 -0.064024724 1.061152e-38 312 291
-0.0087877065 0.71600002 -0.064024724 1.0519325e-38 313 291
-0.00753232 0.71600002 -0.064024724 1.1623524e-38 314 291
-0.0062769335 0.71600002 -0.064024724 1.2084502e-38 315 291
-0.0050215465 0.71600002 -0.064024724 1.1990862e-38 316 291
-0.00376616 0.71600002 -0.064024724 1.1253297e-38 317 291
-0.0025107733 0.71600002 -0.064024724 1.0424959e-38 318 291
-0.00125188 0.71399999 -0.063845873 8.6732416e-39 319 291
0 0.71399999 -0.063845873 6.8296863e-39 320 291
0.0012501266 0.713 -0.063756458 5.9999242e-39 321 291
0.0024932399 0.71100003 -0.063577622 6.3633117e-39 322 291
0.0037345996 0.70999998 -0.063488193 3.413053e-39 323 291
0.0049794666 0.70999998 -0.063488193 1.2243145e-41 324 291
0.0062243328 0.70999998 -0.063488193 1.1218319e-39 325 291
0.0074691991 0.70999998 -0.063488193 7.3749666e-39 326 291
0.0087140659 0.70999998 -0.063488193 1.3736464e-38 327 291
0.0099589331 0.70999998 -0.063488193 1.1993749e-38 328 291
0.011203799 0.70999998 -0.063488193 1.1533131e-38 329 291
0.012448666 0.70999998 -0.063488193 1.1350184e-38 330 291
0.013693533 0.70999998 -0.063488193 1.1350184e-38 331 291
0.014938398 0.70999998 -0.063488193 1.162462e-38 332 291
0.016183265 0.70999998 -0.063488193 1.1993401e-38 333 291
0.017354494 0.70700002 -0.063219935 1.3189055e-38 334 291
0.018594101 0.70700002 -0.063219935 1.1529175e-38 335 291
0.019833706 0.70700002 -0.063219935 6.7364299e-39 336 291
0.021073313 0.70700002 -0.063219935 4.0627566e-39 337 291
0.022312919 0.70700002 -0.063219935 2.6931457e-39 338 291
0.023552528 0.70700002 -0.063219935 4.1682758e-39 339 291
0.024827199 0.708 -0.063309364 6.285911e-39 340 291
0.026068559 0.708 -0.063309364 8.1294649e-39 341 291
0.027309919 0.708 -0.063309364 9.6917515e-39 342 291
0.02855128 0.708 -0.063309364 9.8761428e-39 343 291
0.02979264 0.708 -0.063309364 1.0518265e-38 344 291
0.031121666 0.70999998 -0.063488193 9.872896e-39 345 291
0.032366529 0.70999998 -0.063488193 9.4122766e-39 346 291
0.033611398 0.70999998 -0.063488193 9.5044722e-39 347 291
0.034856264 0.70999998 -0.063488193 8.8630671e-39 348 291
0.036101133 0.70999998 -0.063488193 9.2318482e-39 349 291
0.037345998 0.70999998 -0.063488193 9.6921047e-39 350 291
0.038645219 0.71100003 -0.063577622 1.042967e-38 351 291
0.039891839 0.71100003 -0.063577622 1.1256912e-38 352 291
0.041138459 0.71100003 -0.063577622 1.1625695e-38 353 291
0.042325463 0.70999998 -0.063488193 1.2453642e-38 354 291
0.043570329 0.70999998 -0.063488193 1.3375238e-38 355 291
0.044815198 0.70999998 -0.063488193 1.5307014e-38 356 291
-0.01131426 0.71700001 -0.065371275 1.484566e-38 311 292
-0.01005712 0.71700001 -0.065371275 1.1346202e-38 312 292
-0.0087999795 0.71700001 -0.065371275 1.1530233e-38 313 292
-0.0075428397 0.71700001 -0.065371275 1.1990868e-38 314 292
-0.0062857 0.71700001 -0.065371275 1.1990868e-38 315 292
-0.0050285598 0.71700001 -0.065371275 1.1162547e-38 316 292
-0.00376616 0.71600002 -0.06528011 1.0148394e-38 317 292
-0.0025107733 0.71600002 -0.06528011 1.0518253e-38 318 292
-0.0012553866 0.71600002 -0.06528011 1.1716796e-38 319 292
0 0.71600002 -0.06528011 1.2359998e-38 320 292
0.0012501266 0.713 -0.065006584 1.1899019e-38 321 292
0.0024932399 0.71100003 -0.064824238 1.1342955e-38 322 292
0.0037345996 0.70999998 -0.064733058 8.5767271e-39 323 292
0.0049794666 0.70999998 -0.064733058 2.1385076e-39 324 292
0.0062243328 0.70999998 -0.064733058 4.2590085e-39 325 292
0.0074691991 0.70999998 -0.064733058 1.0237e-38 326 292
0.0087140659 0.70999998 -0.064733058 1.3094705e-38 327 292
0.0099589331 0.70999998 -0.064733058 1.1441298e-38 328 292
0.011203799 0.70999998 -0.064733058 1.116507e-38 329 292
0.012448666 0.70999998 -0.064733058 1.1164719e-38 330 292
0.013693533 0.70999998 -0.064733058 1.1164719e-38 331 292
0.014938398 0.70999998 -0.064733058 1.1164363e-38 332 292
0.016183265 0.70999998 -0.064733058 1.1256559e-38 333 292
0.017354494 0.70700002 -0.064459547 1.1900487e-38 334 292
0.018594101 0.70700002 -0.064459547 1.1439508e-38 335 292
0.019833706 0.70700002 -0.064459547 8.859823e-39 336 292
0.021073313 0.70700002 -0.064459547 7.7534755e-39 337 292
0.022312919 0.70700002 -0.064459547 6.930549e-39 338 292
0.023552528 0.70700002 -0.064459547 9.1436028e-39 339 292
0.024827199 0.708 -0.06455072 1.1718606e-38 340 292
0.026068559 0.708 -0.06455072 1.1534575e-38 341 292
0.027309919 0.708 -0.06455072 1.1257263e-38 342 292
0.02855128 0.708 -0.06455072 1.0980676e-38 343 292
0.029876797 0.70999998 -0.064733058 1.1163988e-38 344 292
0.031121666 0.70999998 -0.064733058 1.1256184e-38 345 292
0.032366529 0.70999998 -0.064733058 1.0610814e-38 346 292
0.033611398 0.70999998 -0.064733058 9.9654447e-39 347 292
0.034856264 0.70999998 -0.064733058 8.6783058e-39 348 292
0.036101133 0.70999998 -0.064733058 8.401719e-39 349 292
0.037398599 0.71100003 -0.064824238 8.6772297e-39 350 292
0.038645219 0.71100003 -0.064824238 9.6913816e-39 351 292
0.039891839 0.71100003 -0.064824238 1.0979604e-38 352 292
0.041138459 0.71100003 -0.064824238 1.1348385e-38 353 292
0.042325463 0.70999998 -0.064733058 1.1441284e-38 354 292
0.043570329 0.70999998 -0.064733058 1.3008611e-38 355 292
-0.01005712 0.71700001 -0.066628419 1.3737161e-38 312 293
-0.0087999795 0.71700001 -0.066628419 1.1617022e-38 313 293
-0.0075428397 0.71700001 -0.066628419 1.1803953e-38 314 293
-0.0062857 0.71700001 -0.066628419 1.2264931e-38 315 293
-0.0050285598 0.71700001 -0.066628419 1.1442733e-38 316 293
-0.0037714199 0.71700001 -0.066628419 1.171896e-38 317 293
-0.0025142799 0.71700001 -0.066628419 1.2361445e-38 318 293
-0.00125714 0.71700001 -0.066628419 1.2361445e-38 319 293
0 0.71600002 -0.066535495 1.2269247e-38 320 293
0.00125188 0.71399999 -0.066349633 1.2084855e-38 321 293
0.0024932399 0.71100003 -0.066070862 1.2452912e-38 322 293
0.0037345996 0.70999998 -0.065977924 1.2545108e-38 323 293
0.0049794666 0.70999998 -0.065977924 1.1071773e-38 324 293
0.0062243328 0.70999998 -0.065977924 9.7810353e-39 325 293
0.0074691991 0.70999998 -0.065977924 1.0882719e-38 326 293
0.0087140659 0.70999998 -0.065977924 1.2542241e-38 327 293
0.0099589331 0.70999998 -0.065977924 1.0889206e-38 328 293
0.011203799 0.70999998 -0.065977924 1.1073237e-38 329 293
0.012448666 0.70999998 -0.065977924 1.1072518e-38 330 293
0.013693533 0.70999998 -0.065977924 1.1164714e-38 331 293
0.014938398 0.70999998 -0.065977924 1.1348382e-38 332 293
0.016183265 0.70999998 -0.065977924 1.1348382e-38 333 293
0.017379038 0.708 -0.065792084 1.1532777e-38 334 293
0.018594101 0.70700002 -0.065699153 1.0703015e-38 335 293
0.019833706 0.70700002 -0.065699153 8.4935587e-39 336 293
0.021073313 0.70700002 -0.065699153 9.6921018e-39 337 293
0.022312919 0.70700002 -0.065699153 1.0797729e-38 338 293
0.023552528 0.70700002 -0.065699153 1.1074317e-38 339 293
0.024827199 0.708 -0.065792084 1.1073237e-38 340 293
0.026068559 0.708 -0.065792084 1.0704815e-38 341 293
0.027309919 0.708 -0.065792084 1.0705531e-38 342 293
0.02855128 0.708 -0.065792084 1.0613335e-38 343 293
0.029876797 0.70999998 -0.065977924 1.0430023e-38 344 293
0.031121666 0.70999998 -0.065977924 1.0430023e-38 345 293
0.032366529 0.70999998 -0.065977924 1.0062315e-38 346 293
0.033611398 0.70999998 -0.065977924 1.0246708e-38 347 293
0.034856264 0.70999998 -0.065977924 1.0889559e-38 348 293
0.036101133 0.70999998 -0.065977924 1.1165786e-38 349 293
0.037398599 0.71100003 -0.066070862 1.1622802e-38 350 293
0.038645219 0.71100003 -0.066070862 1.1254019e-38 351 293
0.039891839 0.71100003 -0.066070862 1.0517547e-38 352 293
0.041138459 0.71100003 -0.066070862 9.6877844e-39 353 293
0.042385083 0.71100003 -0.066070862 9.233995e-39 354 293
-0.0088245263 0.71899998 -0.068074919 9.8631373e-39 313 294
-0.0075638802 0.71899998 -0.068074919 1.0786205e-38 314 294
-0.0063032326 0.71899998 -0.068074919 1.2261694e-38 315 294
-0.0050425865 0.71899998 -0.068074919 1.1993045e-38 316 294
-0.0037819401 0.71899998 -0.068074919 1.2177797e-38 317 294
-0.0025142799 0.71700001 -0.067885563 1.2544401e-38 318 294
-0.00125714 0.71700001 -0.067885563 1.2452206e-38 319 294
0 0.71700001 -0.067885563 1.1899388e-38 320 294
0.0012553866 0.71600002 -0.067790881 1.1899388e-38 321 294
0.0025037599 0.71399999 -0.067601517 1.2359289e-38 322 294
