# .PCD v.7 - Point Cloud Data file format
FIELDS x y z rgb imX imY
SIZE 4 4 4 4 4 4
TYPE F F F F F F
COUNT 1 1 1 1 1 1
WIDTH 838
HEIGHT 1
VIEWPOINT 0 0 0 1 0 0 0
POINTS 838
DATA ascii
-0.017983939 0.78899997 0.013833799 9.8451124e-39 307 230
-0.016600559 0.78899997 0.013833799 9.7550846e-39 308 230
-0.015217179 0.78899997 0.013833799 9.7550846e-39 309 230
-0.013833799 0.78899997 0.013833799 9.8469299e-39 310 230
-0.012450419 0.78899997 0.013833799 9.7543756e-39 311 230
-0.011038986 0.787 0.013798732 9.8469299e-39 312 230
-0.0096591124 0.787 0.013798732 9.6621799e-39 313 230
-0.0082582003 0.78500003 0.013763667 9.6668519e-39 314 230
-0.0068818335 0.78500003 0.013763667 1.1695156e-38 315 230
-0.0055054668 0.78500003 0.013763667 1.1971001e-38 316 230
-0.0041291001 0.78500003 0.013763667 1.0864294e-38 317 230
-0.0027527334 0.78500003 0.013763667 9.9398262e-39 318 230
-0.0013728599 0.78299999 0.013728599 9.1100655e-39 319 230
0 0.78299999 0.013728599 7.3652429e-39 320 230
0.0013693533 0.78100002 0.013693534 7.5492741e-39 321 230
-0.02360688 0.792 0.012497759 7.7217151e-39 303 231
-0.022162134 0.79000002 0.0124662 8.7405571e-39 304 231
-0.0207507 0.78899997 0.012450419 9.8469047e-39 305 231
-0.019318225 0.787 0.01241886 1.0030227e-38 306 231
-0.017938353 0.787 0.01241886 1.0030227e-38 307 231
-0.01655848 0.787 0.01241886 9.7532797e-39 308 231
-0.015178605 0.787 0.01241886 9.8454768e-39 309 231
-0.013798732 0.787 0.01241886 9.661817e-39 310 231
-0.01241886 0.787 0.01241886 9.661817e-39 311 231
-0.011010934 0.78500003 0.0123873 9.663605e-39 312 231
-0.0096345674 0.78500003 0.0123873 1.0032748e-38 313 231
-0.0082371598 0.78299999 0.012355739 1.1230212e-38 314 231
-0.0068642995 0.78299999 0.012355739 1.2981929e-38 315 231
-0.0054914397 0.78299999 0.012355739 1.2432348e-38 316 231
-0.0041185799 0.78299999 0.012355739 1.1694424e-38 317 231
-0.0027457199 0.78299999 0.012355739 1.0126013e-38 318 231
-0.0013728599 0.78299999 0.012355739 8.9274693e-39 319 231
0 0.78299999 0.012355739 9.1122487e-39 320 231
0.0013693533 0.78100002 0.01232418 8.9282176e-39 321 231
0.0027387065 0.78100002 0.01232418 4.6152087e-39 322 231
-0.02638416 0.792 0.011109119 6.8080615e-39 301 232
-0.024932399 0.79000002 0.011081067 8.2777685e-39 302 232
-0.023547266 0.79000002 0.011081067 9.1993647e-39 303 232
-0.022162134 0.79000002 0.011081067 8.9256743e-39 304 232
-0.0206981 0.787 0.011038986 9.4784879e-39 305 232
-0.019318225 0.787 0.011038986 9.2065772e-39 306 232
-0.017938353 0.787 0.011038986 9.1143815e-39 307 232
-0.01655848 0.787 0.011038986 9.6607156e-39 308 232
-0.015140033 0.78500003 0.011010934 9.7532699e-39 309 232
-0.013763667 0.78500003 0.011010934 9.66144e-39 310 232
-0.0123873 0.78500003 0.011010934 9.66144e-39 311 232
-0.010982879 0.78299999 0.010982879 9.5706835e-39 312 232
-0.0096100196 0.78299999 0.010982879 1.1691543e-38 313 232
-0.0082371598 0.78299999 0.010982879 1.3993933e-38 314 232
-0.0068642995 0.78299999 0.010982879 1.5561257e-38 315 232
-0.0054914397 0.78299999 0.010982879 1.3083128e-38 316 232
-0.0041185799 0.78299999 0.010982879 1.1884586e-38 317 232
-0.0027457199 0.78299999 0.010982879 1.0127813e-38 318 232
-0.0013728599 0.78299999 0.010982879 9.2054982e-39 319 232
0 0.78299999 0.010982879 8.9321539e-39 320 232
0.0013728599 0.78299999 0.010982879 8.7477626e-39 321 232
0.0027457199 0.78299999 0.010982879 8.6545328e-39 322 232
-0.027842935 0.79400003 0.0097450269 6.0658147e-39 300 233
-0.02638416 0.792 0.0097204801 9.0157147e-39 301 233
-0.024932399 0.79000002 0.0096959332 9.3852105e-39 302 233
-0.023547266 0.79000002 0.0096959332 9.7536329e-39 303 233
-0.022162134 0.79000002 0.0096959332 1.0953258e-38 304 233
-0.0206981 0.787 0.0096591124 1.1874855e-38 305 233
-0.019318225 0.787 0.0096591124 1.1965605e-38 306 233
-0.017938353 0.787 0.0096591124 1.1412433e-38 307 233
-0.016516401 0.78500003 0.0096345674 1.0119526e-38 308 233
-0.015140033 0.78500003 0.0096345674 1.002733e-38 309 233
-0.013728599 0.78299999 0.0096100196 9.6617904e-39 310 233
-0.012355739 0.78299999 0.0096100196 9.5695947e-39 311 233
-0.010954826 0.78100002 0.0095854728 9.1129494e-39 312 233
-0.0095854728 0.78100002 0.0095854728 1.0680634e-38 313 233
-0.0082161194 0.78100002 0.0095854728 1.3261423e-38 314 233
-0.0068467669 0.78100002 0.0095854728 1.4183381e-38 315 233
-0.0054774131 0.78100002 0.0095854728 1.4093702e-38 316 233
-0.0041185799 0.78299999 0.0096100196 1.3172106e-38 317 233
-0.0027387065 0.78100002 0.0095854728 1.2154682e-38 318 233
-0.0013693533 0.78100002 0.0095854728 1.0495521e-38 319 233
0 0.78100002 0.0095854728 9.1107844e-39 320 233
0.0013728599 0.78299999 0.0096100196 9.2951757e-39 321 233
0.0027457199 0.78299999 0.0096100196 9.1151452e-39 322 233
0.0041185799 0.78299999 0.0096100196 9.2073409e-39 323 233
-0.029308718 0.796 0.0083739199 5.2472448e-39 299 234
-0.027842935 0.79400003 0.0083528794 9.6603835e-39 300 234
-0.02638416 0.792 0.0083318399 9.8447761e-39 301 234
-0.024932399 0.79000002 0.0083108004 9.9402116e-39 302 234
-0.023547266 0.79000002 0.0083108004 1.1600092e-38 303 234
-0.022134079 0.78899997 0.0083002793 1.4458874e-38 304 234
-0.0206981 0.787 0.0082792398 1.556522e-38 305 234
-0.019318225 0.787 0.0082792398 1.51028e-38 306 234
-0.017892767 0.78500003 0.0082582003 1.3258887e-38 307 234
-0.01647432 0.78299999 0.0082371598 1.0948589e-38 308 234
-0.01510146 0.78299999 0.0082371598 1.0211024e-38 309 234
-0.013693534 0.78100002 0.0082161194 9.7536329e-39 310 234
-0.01232418 0.78100002 0.0082161194 9.6614372e-39 311 234
-0.010954826 0.78100002 0.0082161194 9.660731e-39 312 234
-0.0095854728 0.78100002 0.0082161194 9.8454824e-39 313 234
-0.0082161194 0.78100002 0.0082161194 9.3013119e-39 314 234
-0.0068467669 0.78100002 0.0082161194 1.1421813e-38 315 234
-0.0054774131 0.78100002 0.0082161194 1.3721659e-38 316 234
-0.0041080597 0.78100002 0.0082161194 1.4182636e-38 317 234
-0.0027351999 0.77999997 0.0082055992 1.3631617e-38 318 234
-0.0013675999 0.77999997 0.0082055992 1.2340878e-38 319 234
0 0.78100002 0.0082161194 9.4774187e-39 320 234
0.0013693533 0.78100002 0.0082161194 9.5696143e-39 321 234
0.0027387065 0.78100002 0.0082161194 8.8385387e-39 322 234
0.0041080597 0.78100002 0.0082161194 8.0084193e-39 323 234
0.0054774131 0.78100002 0.0082161194 5.9009155e-39 324 234
-0.030781519 0.79799998 0.0069957995 3.5833976e-39 298 235
-0.029308718 0.796 0.0069782664 7.7325611e-39 299 235
-0.027842935 0.79400003 0.0069607338 9.754028e-39 300 235
-0.02638416 0.792 0.0069431998 9.5696368e-39 301 235
-0.024932399 0.79000002 0.0069256667 9.5735968e-39 302 235
-0.023517458 0.78899997 0.0069168997 1.1509705e-38 303 235
-0.022134079 0.78899997 0.0069168997 1.4094055e-38 304 235
-0.020645501 0.78500003 0.0068818335 1.483162e-38 305 235
-0.019269135 0.78500003 0.0068818335 1.4643987e-38 306 235
-0.017847179 0.78299999 0.0068642995 1.3168856e-38 307 235
-0.01647432 0.78299999 0.0068642995 9.9373249e-39 308 235
-0.015062887 0.78100002 0.0068467669 9.5681822e-39 309 235
-0.013693534 0.78100002 0.0068467669 9.8458313e-39 310 235
-0.01232418 0.78100002 0.0068467669 9.66144e-39 311 235
-0.010954826 0.78100002 0.0068467669 9.660731e-39 312 235
-0.0095854728 0.78100002 0.0068467669 9.3845042e-39 313 235
-0.0082161194 0.78100002 0.0068467669 8.4661409e-39 314 235
-0.0068467669 0.78100002 0.0068467669 1.0955423e-38 315 235
-0.0054774131 0.78100002 0.0068467669 1.3263178e-38 316 235
-0.0041080597 0.78100002 0.0068467669 1.4646112e-38 317 235
-0.0027351999 0.77999997 0.0068379994 1.4280949e-38 318 235
-0.0013675999 0.77999997 0.0068379994 1.363558e-38 319 235
0 0.77999997 0.0068379994 1.1320262e-38 320 235
0.0013675999 0.77999997 0.0068379994 1.0029523e-38 321 235
0.0027351999 0.77999997 0.0068379994 9.0222013e-39 322 235
0.0041027996 0.77999997 0.0068379994 8.4690275e-39 323 235
0.0054703997 0.77999997 0.0068379994 6.6323498e-39 324 235
0.0068379994 0.77999997 0.0068379994 9.4900542e-39 325 235
-0.032180678 0.79799998 0.0055966396 7.0119252e-39 297 236
-0.030781519 0.79799998 0.0055966396 6.0694398e-39 298 236
-0.029308718 0.796 0.0055826134 9.1118956e-39 299 236
-0.027842935 0.79400003 0.0055685868 9.661817e-39 300 236
-0.02638416 0.792 0.0055545596 9.661817e-39 301 236
-0.024932399 0.79000002 0.0055405335 9.2959211e-39 302 236
-0.023517458 0.78899997 0.0055335197 1.0310072e-38 303 236
-0.022077972 0.787 0.005519493 1.2618206e-38 304 236
-0.0205929 0.78299999 0.0054914397 1.446176e-38 305 236
-0.019220039 0.78299999 0.0054914397 1.2984443e-38 306 236
-0.017801592 0.78100002 0.0054774131 1.0679912e-38 307 236
-0.016432239 0.78100002 0.0054774131 9.7532643e-39 308 236
-0.015062887 0.78100002 0.0054774131 1.002985e-38 309 236
-0.013693534 0.78100002 0.0054774131 9.8465488e-39 310 236
-0.01232418 0.78100002 0.0054774131 9.5703206e-39 311 236
-0.010940799 0.77999997 0.0054703997 9.6610869e-39 312 236
-0.0095731998 0.77999997 0.0054703997 9.6610869e-39 313 236
-0.0082055992 0.77999997 0.0054703997 9.2044318e-39 314 236
-0.0068379994 0.77999997 0.0054703997 1.1140181e-38 315 236
-0.0054703997 0.77999997 0.0054703997 1.2898028e-38 316 236
-0.0041027996 0.77999997 0.0054703997 1.4465713e-38 317 236
-0.0027281865 0.778 0.0054563731 1.4833785e-38 318 236
-0.0013640933 0.778 0.0054563731 1.409622e-38 319 236
0 0.778 0.0054563731 1.1688334e-38 320 236
0.0013675999 0.77999997 0.0054703997 1.0213204e-38 321 236
0.0027351999 0.77999997 0.0054703997 9.3913538e-39 322 236
0.0041027996 0.77999997 0.0054703997 9.2991581e-39 323 236
0.0054703997 0.77999997 0.0054703997 8.0116843e-39 324 236
0.0068379994 0.77999997 0.0054703997 7.2741193e-39 325 236
0.0082055992 0.77999997 0.0054703997 5.9171187e-39 326 236
-0.032100026 0.796 0.0041869599 7.5625822e-39 297 237
-0.030704373 0.796 0.0041869599 5.7946536e-39 298 237
-0.029235078 0.79400003 0.0041764397 8.6527195e-39 299 237
-0.027772799 0.792 0.00416592 9.5703402e-39 300 237
-0.026317533 0.79000002 0.0041554002 9.4777845e-39 301 237
-0.024900839 0.78899997 0.0041501396 9.2022766e-39 302 237
-0.023517458 0.78899997 0.0041501396 9.2022766e-39 303 237
-0.022077972 0.787 0.0041396199 9.575022e-39 304 237
-0.0205929 0.78299999 0.0041185799 1.0865761e-38 305 237
-0.019220039 0.78299999 0.0041185799 1.0220376e-38 306 237
-0.017801592 0.78100002 0.0041080597 1.0957941e-38 307 237
-0.016432239 0.78100002 0.0041080597 1.2337266e-38 308 237
-0.015062887 0.78100002 0.0041080597 1.1230918e-38 309 237
-0.013693534 0.78100002 0.0041080597 1.0305735e-38 310 237
-0.01232418 0.78100002 0.0041080597 1.0029148e-38 311 237
-0.010940799 0.77999997 0.0041027996 9.6621701e-39 312 237
-0.0095731998 0.77999997 0.0041027996 9.9383969e-39 313 237
-0.0082055992 0.77999997 0.0041027996 1.0034555e-38 314 237
-0.0068379994 0.77999997 0.0041027996 1.1970664e-38 315 237
-0.0054703997 0.77999997 0.0041027996 1.2251942e-38 316 237
-0.0041027996 0.77999997 0.0041027996 1.2067551e-38 317 237
-0.0027281865 0.778 0.0040922803 1.224296e-38 318 237
-0.0013640933 0.778 0.0040922803 1.2519547e-38 319 237
0 0.778 0.0040922803 9.2916206e-39 320 237
0.0013640933 0.778 0.0040922803 9.3838162e-39 321 237
0.0027281865 0.778 0.0040922803 9.2980918e-39 322 237
0.0040922803 0.778 0.0040922803 9.6665141e-39 323 237
0.0054703997 0.77999997 0.0041027996 8.3790249e-39 324 237
0.0068379994 0.77999997 0.0041027996 6.2585254e-39 325 237
0.0082055992 0.77999997 0.0041027996 4.0667237e-39 326 237
0.0095731998 0.77999997 0.0041027996 1.1995548e-38 327 237
-0.032100026 0.796 0.0027913067 7.9310074e-39 297 238
-0.030627226 0.79400003 0.0027842934 6.0719636e-39 298 238
-0.029235078 0.79400003 0.0027842934 8.5608868e-39 299 238
-0.027772799 0.792 0.0027772798 9.3870252e-39 300 238
-0.026317533 0.79000002 0.0027702667 9.2022738e-39 301 238
-0.024900839 0.78899997 0.0027667598 9.4784935e-39 302 238
-0.023457846 0.787 0.0027597465 9.0175168e-39 303 238
-0.022077972 0.787 0.0027597465 8.3728914e-39 304 238
-0.0205929 0.78299999 0.0027457199 8.9260652e-39 305 238
-0.019170946 0.78100002 0.0027387065 1.0773588e-38 306 238
-0.017801592 0.78100002 0.0027387065 1.3170674e-38 307 238
-0.016432239 0.78100002 0.0027387065 1.3266094e-38 308 238
-0.015062887 0.78100002 0.0027387065 1.123743e-38 309 238
-0.013675999 0.77999997 0.0027351999 9.7543784e-39 310 238
-0.012308398 0.77999997 0.0027351999 9.4777901e-39 311 238
-0.010940799 0.77999997 0.0027351999 9.3873783e-39 312 238
-0.0095731998 0.77999997 0.0027351999 1.0032748e-38 313 238
-0.0082055992 0.77999997 0.0027351999 1.0038852e-38 314 238
-0.0068379994 0.77999997 0.0027351999 1.1421786e-38 315 238
-0.0054703997 0.77999997 0.0027351999 1.1791648e-38 316 238
-0.0040922803 0.778 0.0027281865 1.06853e-38 317 238
-0.0027281865 0.778 0.0027281865 1.0215337e-38 318 238
-0.0013605866 0.77600002 0.0027211732 9.6621645e-39 319 238
0 0.77600002 0.0027211732 8.832415e-39 320 238
0.0013640933 0.778 0.0027281865 9.4777845e-39 321 238
0.0027281865 0.778 0.0027281865 9.1140494e-39 322 238
0.0040922803 0.778 0.0027281865 9.6668645e-39 323 238
0.0054563731 0.778 0.0027281865 9.4831991e-39 324 238
0.0068204664 0.778 0.0027281865 7.270504e-39 325 238
0.0082055992 0.77999997 0.0027351999 4.3328639e-39 326 238
0.0095731998 0.77999997 0.0027351999 1.0233384e-38 327 238
-0.032100026 0.796 0.0013956534 8.1136036e-39 297 239
-0.030550079 0.792 0.0013886399 6.0708944e-39 298 239
-0.029161438 0.792 0.0013886399 8.7445676e-39 299 239
-0.027702667 0.79000002 0.0013851334 9.4774341e-39 300 239
-0.026317533 0.79000002 0.0013851334 9.3852385e-39 301 239
-0.024900839 0.78899997 0.0013833799 9.3852259e-39 302 239
-0.023457846 0.787 0.0013798733 9.4774215e-39 303 239
-0.022021867 0.78500003 0.0013763667 8.9242505e-39 304 239
-0.020540299 0.78100002 0.0013693533 1.0030239e-38 305 239
-0.019170946 0.78100002 0.0013693533 1.4096208e-38 306 239
-0.017801592 0.78100002 0.0013693533 1.4004012e-38 307 239
-0.016432239 0.78100002 0.0013693533 1.1697689e-38 308 239
-0.0150436 0.77999997 0.0013675999 9.946331e-39 309 239
-0.013675999 0.77999997 0.0013675999 9.3845224e-39 310 239
-0.012308398 0.77999997 0.0013675999 9.4767181e-39 311 239
-0.010940799 0.77999997 0.0013675999 9.7565434e-39 312 239
-0.0095731998 0.77999997 0.0013675999 1.1969597e-38 313 239
-0.0082055992 0.77999997 0.0013675999 1.0779682e-38 314 239
-0.0068379994 0.77999997 0.0013675999 1.105627e-38 315 239
-0.0054563731 0.778 0.0013640933 1.2806538e-38 316 239
-0.0040922803 0.778 0.0013640933 1.3544103e-38 317 239
-0.0027211732 0.77600002 0.0013605866 1.2896216e-38 318 239
-0.0013605866 0.77600002 0.0013605866 1.2343043e-38 319 239
0 0.77600002 0.0013605866 1.2344488e-38 320 239
0.0013605866 0.77600002 0.0013605866 1.1975705e-38 321 239
0.0027211732 0.77600002 0.0013605866 1.0135761e-38 322 239
0.0040922803 0.778 0.0013640933 9.3981963e-39 323 239
0.0054563731 0.778 0.0013640933 1.0129287e-38 324 239
0.0068204664 0.778 0.0013640933 8.9311029e-39 325 239
0.0081845606 0.778 0.0013640933 5.9844735e-39 326 239
0.0095486529 0.778 0.0013640933 6.998624e-39 327 239
0.010912746 0.778 0.0013640933 9.7864681e-39 328 239
-0.032019373 0.79400003 -0 8.2057964e-39 297 240
-0.030550079 0.792 -0 6.254557e-39 298 240
-0.029161438 0.792 -0 8.6516419e-39 299 240
-0.027702667 0.79000002 -0 9.2951953e-39 300 240
-0.026317533 0.79000002 -0 9.0186084e-39 301 240
-0.024900839 0.78899997 -0 9.3859448e-39 302 240
-0.023398234 0.78500003 -0 9.5703374e-39 303 240
-0.022021867 0.78500003 -0 9.2015549e-39 304 240
-0.020540299 0.78100002 -0 1.0768879e-38 305 240
-0.019170946 0.78100002 -0 1.474229e-38 306 240
-0.017778799 0.77999997 -0 1.4189475e-38 307 240
-0.016411198 0.77999997 -0 1.0034924e-38 308 240
-0.0150436 0.77999997 -0 8.7441851e-39 309 240
-0.013675999 0.77999997 -0 9.2941191e-39 310 240
-0.012308398 0.77999997 -0 9.9394885e-39 311 240
-0.010940799 0.77999997 -0 1.0954732e-38 312 240
-0.0095731998 0.77999997 -0 1.3259983e-38 313 240
-0.0081845606 0.778 -0 1.2163709e-38 314 240
-0.0068204664 0.778 -0 1.1794925e-38 315 240
-0.0054563731 0.778 -0 1.4004009e-38 316 240
-0.0040817601 0.77600002 -0 1.5755725e-38 317 240
-0.0027211732 0.77600002 -0 1.5112155e-38 318 240
-0.0013605866 0.77600002 -0 1.4651177e-38 319 240
0 0.77600002 -0 1.3451204e-38 320 240
0.0013605866 0.77600002 -0 1.289803e-38 321 240
0.0027211732 0.77600002 -0 1.1051604e-38 322 240
0.0040922803 0.778 -0 1.0221483e-38 323 240
0.0054563731 0.778 -0 1.0126773e-38 324 240
0.0068204664 0.778 -0 9.0204259e-39 325 240
0.0081845606 0.778 -0 7.1808517e-39 326 240
0.0095486529 0.778 -0 6.0745041e-39 327 240
0.010912746 0.778 -0 8.5746042e-39 328 240
-0.032019373 0.79400003 -0.0013921467 8.2072313e-39 297 241
-0.030550079 0.792 -0.0013886399 6.5318627e-39 298 241
-0.029161438 0.792 -0.0013886399 8.9289491e-39 299 241
-0.027702667 0.79000002 -0.0013851334 9.2948421e-39 300 241
-0.026317533 0.79000002 -0.0013851334 9.2948421e-39 301 241
-0.024900839 0.78899997 -0.0013833799 9.3859448e-39 302 241
-0.023398234 0.78500003 -0.0013763667 9.7547287e-39 303 241
-0.022021867 0.78500003 -0.0013763667 9.7547315e-39 304 241
-0.020540299 0.78100002 -0.0013693533 1.1229862e-38 305 241
-0.019170946 0.78100002 -0.0013693533 1.4559344e-38 306 241
-0.017778799 0.77999997 -0.0013675999 1.3637748e-38 307 241
-0.016411198 0.77999997 -0.0013675999 8.7445382e-39 308 241
-0.0150436 0.77999997 -0.0013675999 8.0991688e-39 309 241
-0.013675999 0.77999997 -0.0013675999 9.385942e-39 310 241
-0.012308398 0.77999997 -0.0013675999 9.8472802e-39 311 241
-0.010912746 0.778 -0.0013640933 1.1138032e-38 312 241
-0.0095486529 0.778 -0.0013640933 1.2705718e-38 313 241
-0.0081845606 0.778 -0.0013640933 1.0963721e-38 314 241
-0.0067853997 0.77399999 -0.0013570799 1.1516895e-38 315 241
-0.0054283198 0.77399999 -0.0013570799 1.4278801e-38 316 241
-0.0040712398 0.77399999 -0.0013570799 1.6214909e-38 317 241
-0.0027211732 0.77600002 -0.0013605866 1.5849001e-38 318 241
-0.0013605866 0.77600002 -0.0013605866 1.5203632e-38 319 241
0 0.77600002 -0.0013605866 1.3263926e-38 320 241
0.0013605866 0.77600002 -0.0013605866 1.1880992e-38 321 241
0.0027211732 0.77600002 -0.0013605866 1.0955441e-38 322 241
0.0040817601 0.77600002 -0.0013605866 1.0310072e-38 323 241
0.0054563731 0.778 -0.0013640933 9.6643491e-39 324 241
0.0068204664 0.778 -0.0013640933 9.2033724e-39 325 241
0.0081845606 0.778 -0.0013640933 8.4694199e-39 326 241
0.0095486529 0.778 -0.0013640933 7.0864854e-39 327 241
0.010912746 0.778 -0.0013640933 7.0094238e-39 328 241
-0.03332736 0.792 -0.0027772798 1.6503389e-38 296 242
-0.031938717 0.792 -0.0027772798 8.8511532e-39 297 242
-0.030550079 0.792 -0.0027772798 7.3598157e-39 298 242
-0.029161438 0.792 -0.0027772798 9.111174e-39 299 242
-0.027702667 0.79000002 -0.0027702667 9.3873937e-39 300 242
-0.026317533 0.79000002 -0.0027702667 9.2948393e-39 301 242
-0.024900839 0.78899997 -0.0027667598 9.1118802e-39 302 242
-0.023398234 0.78500003 -0.0027527334 9.4803026e-39 303 242
-0.022021867 0.78500003 -0.0027527334 9.572501e-39 304 242
-0.020540299 0.78100002 -0.0027387065 1.086324e-38 305 242
-0.019170946 0.78100002 -0.0027387065 1.4007253e-38 306 242
-0.017778799 0.77999997 -0.0027351999 1.3177491e-38 307 242
-0.016411198 0.77999997 -0.0027351999 8.9271344e-39 308 242
-0.0150436 0.77999997 -0.0027351999 8.4661577e-39 309 242
-0.013675999 0.77999997 -0.0027351999 9.2944722e-39 310 242
-0.012276839 0.778 -0.0027281865 9.4792236e-39 311 242
-0.010912746 0.778 -0.0027281865 1.0307184e-38 312 242
-0.0095486529 0.778 -0.0027281865 1.0122791e-38 313 242
-0.0081635201 0.77600002 -0.0027211732 8.6577418e-39 314 242
-0.0067853997 0.77399999 -0.0027141599 1.0224707e-38 315 242
-0.0054283198 0.77399999 -0.0027141599 1.4003659e-38 316 242
-0.0040712398 0.77399999 -0.0027141599 1.6216354e-38 317 242
-0.0027211732 0.77600002 -0.0027211732 1.5848645e-38 318 242
-0.0013570799 0.77399999 -0.0027141599 1.5387665e-38 319 242
0 0.77399999 -0.0027141599 1.3907847e-38 320 242
0.0013570799 0.77399999 -0.0027141599 1.1695153e-38 321 242
0.0027141599 0.77399999 -0.0027141599 1.1137666e-38 322 242
0.0040817601 0.77600002 -0.0027211732 1.0400101e-38 323 242
0.0054563731 0.778 -0.0027281865 8.7438362e-39 324 242
0.0068204664 0.778 -0.0027281865 8.8360318e-39 325 242
0.0081845606 0.778 -0.0027281865 8.2871796e-39 326 242
0.0095486529 0.778 -0.0027281865 7.0886364e-39 327 242
0.010912746 0.778 -0.0027281865 7.1894893e-39 328 242
-0.033243202 0.79000002 -0.0041554002 1.6872176e-38 296 243
-0.031858064 0.79000002 -0.0041554002 9.5887211e-39 297 243
-0.030472934 0.79000002 -0.0041554002 7.9115546e-39 298 243
-0.029087799 0.79000002 -0.0041554002 9.1104565e-39 299 243
-0.027702667 0.79000002 -0.0041554002 9.7543784e-39 300 243
-0.026284218 0.78899997 -0.0041501396 9.4777901e-39 301 243
-0.024837719 0.787 -0.0041396199 9.1115271e-39 302 243
-0.023398234 0.78500003 -0.0041291001 9.4803082e-39 303 243
-0.022021867 0.78500003 -0.0041291001 9.4795837e-39 304 243
-0.020540299 0.78100002 -0.0041080597 9.7565293e-39 305 243
-0.019170946 0.78100002 -0.0041080597 1.3636299e-38 306 243
-0.017778799 0.77999997 -0.0041027996 1.3083125e-38 307 243
-0.016411198 0.77999997 -0.0041027996 9.5721381e-39 308 243
-0.0150436 0.77999997 -0.0041027996 9.0189643e-39 309 243
-0.013640933 0.778 -0.0040922803 9.5696143e-39 310 243
-0.012276839 0.778 -0.0040922803 9.4774187e-39 311 243
-0.010884693 0.77600002 -0.0040817601 9.5681668e-39 312 243
-0.009524107 0.77600002 -0.0040817601 8.8306018e-39 313 243
-0.0081635201 0.77600002 -0.0040817601 7.9180216e-39 314 243
-0.0067853997 0.77399999 -0.0040712398 9.9463254e-39 315 243
-0.0054283198 0.77399999 -0.0040712398 1.3174993e-38 316 243
-0.0040712398 0.77399999 -0.0040712398 1.5663916e-38 317 243
-0.0027211732 0.77600002 -0.0040817601 1.5203994e-38 318 243
-0.0013570799 0.77399999 -0.0040712398 1.4374234e-38 319 243
0 0.77399999 -0.0040712398 1.3815282e-38 320 243
0.0013570799 0.77399999 -0.0040712398 1.1879174e-38 321 243
0.0027141599 0.77399999 -0.0040712398 1.0953991e-38 322 243
0.0040817601 0.77600002 -0.0040817601 1.0032395e-38 323 243
0.0054423464 0.77600002 -0.0040817601 8.6527195e-39 324 243
0.0068029333 0.77600002 -0.0040817601 8.6527195e-39 325 243
0.0081635201 0.77600002 -0.0040817601 8.0113158e-39 326 243
0.009524107 0.77600002 -0.0040817601 7.6421732e-39 327 243
0.010912746 0.778 -0.0040922803 7.1884075e-39 328 243
0.012276839 0.778 -0.0040922803 1.0599646e-38 329 243
-0.033243202 0.79000002 -0.0055405335 1.7518261e-38 296 244
-0.031858064 0.79000002 -0.0055405335 1.0142611e-38 297 244
-0.030472934 0.79000002 -0.0055405335 8.0980996e-39 298 244
-0.029087799 0.79000002 -0.0055405335 8.9278617e-39 299 244
-0.027667599 0.78899997 -0.0055335197 9.4788705e-39 300 244
-0.026284218 0.78899997 -0.0055335197 9.3866748e-39 301 244
-0.024837719 0.787 -0.005519493 9.01933e-39 302 244
-0.023398234 0.78500003 -0.0055054668 9.2037227e-39 303 244
-0.021965759 0.78299999 -0.0054914397 9.3855916e-39 304 244
-0.020540299 0.78100002 -0.0054774131 9.5699843e-39 305 244
-0.0191464 0.77999997 -0.0054703997 1.354375e-38 306 244
-0.017778799 0.77999997 -0.0054703997 1.354375e-38 307 244
-0.016369121 0.778 -0.0054563731 1.0585214e-38 308 244
-0.015005025 0.778 -0.0054563731 9.109725e-39 309 244
-0.013640933 0.778 -0.0054563731 9.3845014e-39 310 244
-0.012276839 0.778 -0.0054563731 9.3845014e-39 311 244
-0.010884693 0.77600002 -0.0054423464 9.293375e-39 312 244
-0.009524107 0.77600002 -0.0054423464 9.0171468e-39 313 244
-0.0081424797 0.77399999 -0.0054283198 8.9296497e-39 314 244
-0.0067853997 0.77399999 -0.0054283198 9.9441618e-39 315 244
-0.0054283198 0.77399999 -0.0054283198 1.0586678e-38 316 244
-0.0040712398 0.77399999 -0.0054283198 1.0401928e-38 317 244
-0.0027141599 0.77399999 -0.0054283198 9.759416e-39 318 244
-0.0013570799 0.77399999 -0.0054283198 9.2984393e-39 319 244
0 0.77399999 -0.0054283198 9.4802928e-39 320 244
0.0013570799 0.77399999 -0.0054283198 9.664684e-39 321 244
0.0027141599 0.77399999 -0.0054283198 9.1136809e-39 322 244
0.0040817601 0.77600002 -0.0054423464 8.9289309e-39 323 244
0.0054423464 0.77600002 -0.0054423464 8.2846587e-39 324 244
0.0068029333 0.77600002 -0.0054423464 8.3768557e-39 325 244
0.0081635201 0.77600002 -0.0054423464 8.0102368e-39 326 244
0.009524107 0.77600002 -0.0054423464 7.9180398e-39 327 244
0.010884693 0.77600002 -0.0054423464 7.4631965e-39 328 244
0.01224528 0.77600002 -0.0054423464 9.6762504e-39 329 244
-0.033243202 0.79000002 -0.0069256667 1.7888123e-38 296 245
-0.031817738 0.78899997 -0.0069168997 1.1065287e-38 297 245
-0.030434359 0.78899997 -0.0069168997 8.1949658e-39 298 245
-0.029087799 0.79000002 -0.0069256667 8.3789969e-39 299 245
-0.027597465 0.787 -0.0068993662 9.6628988e-39 300 245
-0.026217593 0.787 -0.0068993662 9.294475e-39 301 245
-0.0247746 0.78500003 -0.0068818335 9.0186112e-39 302 245
-0.023398234 0.78500003 -0.0068818335 9.1108068e-39 303 245
-0.021965759 0.78299999 -0.0068642995 9.0171791e-39 304 245
-0.020513998 0.77999997 -0.0068379994 9.6625485e-39 305 245
-0.0191464 0.77999997 -0.0068379994 1.3082075e-38 306 245
-0.017733213 0.778 -0.0068204664 1.3635248e-38 307 245
-0.016369121 0.778 -0.0068204664 1.049159e-38 308 245
-0.015005025 0.778 -0.0068204664 9.1086558e-39 309 245
-0.013640933 0.778 -0.0068204664 9.1079103e-39 310 245
-0.012276839 0.778 -0.0068204664 9.2926617e-39 311 245
-0.010884693 0.77600002 -0.0068029333 9.0185888e-39 312 245
-0.009524107 0.77600002 -0.0068029333 9.1107844e-39 313 245
-0.0081424797 0.77399999 -0.0067853997 8.9303588e-39 314 245
-0.0067853997 0.77399999 -0.0067853997 8.9303588e-39 315 245
-0.0054283198 0.77399999 -0.0067853997 8.4647115e-39 316 245
-0.0040712398 0.77399999 -0.0067853997 7.7271465e-39 317 245
-0.0027141599 0.77399999 -0.0067853997 7.360166e-39 318 245
-0.0013570799 0.77399999 -0.0067853997 7.7285884e-39 319 245
0 0.77399999 -0.0067853997 8.1884974e-39 320 245
0.0013570799 0.77399999 -0.0067853997 8.9260624e-39 321 245
0.0027141599 0.77399999 -0.0067853997 8.5601708e-39 322 245
0.0040712398 0.77399999 -0.0067853997 8.4679738e-39 323 245
0.0054283198 0.77399999 -0.0067853997 7.9162489e-39 324 245
0.0067853997 0.77399999 -0.0067853997 7.8240533e-39 325 245
0.0081424797 0.77399999 -0.0067853997 7.0915259e-39 326 245
0.0094995592 0.77399999 -0.0067853997 7.1837215e-39 327 245
0.010884693 0.77600002 -0.0068029333 7.3706464e-39 328 245
0.01224528 0.77600002 -0.0068029333 8.8457778e-39 329 245
0.013605867 0.77600002 -0.0068029333 1.226638e-38 330 245
-0.033201117 0.78899997 -0.0083002793 1.8257631e-38 296 246
-0.031817738 0.78899997 -0.0083002793 1.1987968e-38 297 246
-0.030434359 0.78899997 -0.0083002793 8.3833185e-39 298 246
-0.02905098 0.78899997 -0.0083002793 7.4613636e-39 299 246
-0.027597465 0.787 -0.0082792398 9.4795893e-39 300 246
-0.026150968 0.78500003 -0.0082582003 9.3873937e-39 301 246
-0.024711479 0.78299999 -0.0082371598 9.109725e-39 302 246
-0.02333862 0.78299999 -0.0082371598 9.109725e-39 303 246
-0.021909652 0.78100002 -0.0082161194 9.1090061e-39 304 246
-0.020513998 0.77999997 -0.0082055992 9.5699843e-39 305 246
-0.019097306 0.778 -0.0081845606 1.1326749e-38 306 246
-0.017733213 0.778 -0.0081845606 1.086541e-38 307 246
-0.01632704 0.77600002 -0.0081635201 1.0213554e-38 308 246
-0.014966453 0.77600002 -0.0081635201 9.1997626e-39 309 246
-0.013605867 0.77600002 -0.0081635201 9.2004591e-39 310 246
-0.01224528 0.77600002 -0.0081635201 9.2004591e-39 311 246
-0.010884693 0.77600002 -0.0081635201 9.0182328e-39 312 246
-0.0094995592 0.77399999 -0.0081424797 9.1104285e-39 313 246
-0.0081424797 0.77399999 -0.0081424797 9.0189615e-39 314 246
-0.0067853997 0.77399999 -0.0081424797 9.1111571e-39 315 246
-0.0054283198 0.77399999 -0.0081424797 9.1118774e-39 316 246
-0.0040712398 0.77399999 -0.0081424797 9.1118774e-39 317 246
-0.0027141599 0.77399999 -0.0081424797 8.6544922e-39 318 246
-0.0013570799 0.77399999 -0.0081424797 8.6544922e-39 319 246
0 0.77399999 -0.0081424797 8.7459746e-39 320 246
0.0013570799 0.77399999 -0.0081424797 8.5612232e-39 321 246
0.0027141599 0.77399999 -0.0081424797 8.3761256e-39 322 246
0.0040712398 0.77399999 -0.0081424797 8.28393e-39 323 246
0.0054283198 0.77399999 -0.0081424797 7.7329268e-39 324 246
0.0067853997 0.77399999 -0.0081424797 7.4567001e-39 325 246
0.0081424797 0.77399999 -0.0081424797 7.2744696e-39 326 246
0.0094995592 0.77399999 -0.0081424797 7.182274e-39 327 246
0.010884693 0.77600002 -0.0081635201 6.6352365e-39 328 246
0.01224528 0.77600002 -0.0081635201 8.018171e-39 329 246
0.013605867 0.77600002 -0.0081635201 1.162101e-38 330 246
-0.033201117 0.78899997 -0.0096836593 1.825835e-38 296 247
-0.031817738 0.78899997 -0.0096836593 1.3463819e-38 297 247
-0.030434359 0.78899997 -0.0096836593 9.4903891e-39 298 247
-0.02897734 0.787 -0.0096591124 7.3698897e-39 299 247
-0.027527334 0.78500003 -0.0096345674 8.9296526e-39 300 247
-0.026150968 0.78500003 -0.0096345674 8.6534258e-39 301 247
-0.024711479 0.78299999 -0.0096100196 9.109725e-39 302 247
-0.02333862 0.78299999 -0.0096100196 9.0175294e-39 303 247
-0.021909652 0.78100002 -0.0095854728 8.9267687e-39 304 247
-0.020513998 0.77999997 -0.0095731998 9.1111599e-39 305 247
-0.019097306 0.778 -0.0095486529 9.7550846e-39 306 247
-0.017733213 0.778 -0.0095486529 9.7550846e-39 307 247
-0.01632704 0.77600002 -0.009524107 9.2926589e-39 308 247
-0.014966453 0.77600002 -0.009524107 9.1082663e-39 309 247
-0.013605867 0.77600002 -0.009524107 9.0178671e-39 310 247
-0.01224528 0.77600002 -0.009524107 9.0178671e-39 311 247
-0.01085664 0.77399999 -0.0094995592 9.0182356e-39 312 247
-0.0094995592 0.77399999 -0.0094995592 9.1104313e-39 313 247
-0.0081424797 0.77399999 -0.0094995592 8.9274875e-39 314 247
-0.0067853997 0.77399999 -0.0094995592 9.1118802e-39 315 247
-0.0054283198 0.77399999 -0.0094995592 8.9300029e-39 316 247
-0.0040712398 0.77399999 -0.0094995592 9.0221985e-39 317 247
-0.0027141599 0.77399999 -0.0094995592 8.7477626e-39 318 247
-0.0013570799 0.77399999 -0.0094995592 8.4711771e-39 319 247
0 0.77399999 -0.0094995592 8.4672142e-39 320 247
0.0013570799 0.77399999 -0.0094995592 8.3750172e-39 321 247
0.0027141599 0.77399999 -0.0094995592 7.5463468e-39 322 247
0.0040712398 0.77399999 -0.0094995592 7.4541497e-39 323 247
0.0054283198 0.77399999 -0.0094995592 7.9158706e-39 324 247
0.0067853997 0.77399999 -0.0094995592 8.0080662e-39 325 247
0.0081424797 0.77399999 -0.0094995592 7.5503278e-39 326 247
0.0094995592 0.77399999 -0.0094995592 7.3662967e-39 327 247
0.010884693 0.77600002 -0.009524107 7.3688359e-39 328 247
0.01224528 0.77600002 -0.009524107 8.5670203e-39 329 247
0.013640933 0.778 -0.0095486529 1.1527013e-38 330 247
-0.033201117 0.78899997 -0.011067039 1.7889935e-38 296 248
-0.031817738 0.78899997 -0.011067039 1.4478696e-38 297 248
-0.030434359 0.78899997 -0.011067039 1.1243554e-38 298 248
-0.02897734 0.787 -0.011038986 7.8319566e-39 299 248
-0.027527334 0.78500003 -0.011010934 9.0232943e-39 300 248
-0.026150968 0.78500003 -0.011010934 8.8389017e-39 301 248
-0.024711479 0.78299999 -0.010982879 9.111883e-39 302 248
-0.02333862 0.78299999 -0.010982879 8.9271316e-39 303 248
-0.021909652 0.78100002 -0.010954826 8.9267659e-39 304 248
-0.020513998 0.77999997 -0.010940799 9.0189615e-39 305 248
-0.019097306 0.778 -0.010912746 9.6621701e-39 306 248
-0.017733213 0.778 -0.010912746 9.8462012e-39 307 248
-0.01632704 0.77600002 -0.010884693 9.3855762e-39 308 248
-0.014927879 0.77399999 -0.01085664 9.2933806e-39 309 248
-0.013570799 0.77399999 -0.01085664 8.8345548e-39 310 248
-0.01221372 0.77399999 -0.01085664 9.018586e-39 311 248
-0.01085664 0.77399999 -0.01085664 8.8349206e-39 312 248
-0.0094995592 0.77399999 -0.01085664 8.9271162e-39 313 248
-0.0081424797 0.77399999 -0.01085664 8.9274847e-39 314 248
-0.0067853997 0.77399999 -0.01085664 8.9274847e-39 315 248
-0.0054283198 0.77399999 -0.01085664 7.2748073e-39 316 248
-0.0040712398 0.77399999 -0.01085664 6.9056647e-39 317 248
-0.0027141599 0.77399999 -0.01085664 6.1710116e-39 318 248
-0.0013570799 0.77399999 -0.01085664 6.816381e-39 319 248
0 0.77399999 -0.01085664 7.5564922e-39 320 248
0.0013570799 0.77399999 -0.01085664 8.5702854e-39 321 248
0.0027141599 0.77399999 -0.01085664 8.7542885e-39 322 248
0.0040712398 0.77399999 -0.01085664 7.0025715e-39 323 248
0.0054283198 0.77399999 -0.01085664 6.9060402e-39 324 248
0.0067853997 0.77399999 -0.01085664 7.3670184e-39 325 248
0.0081424797 0.77399999 -0.01085664 7.3673813e-39 326 248
0.009524107 0.77600002 -0.010884693 7.5521327e-39 327 248
0.010884693 0.77600002 -0.010884693 7.8294539e-39 328 248
0.01224528 0.77600002 -0.010884693 8.5670203e-39 329 248
0.013605867 0.77600002 -0.010884693 1.1250427e-38 330 248
0.014966453 0.77600002 -0.010884693 1.5768011e-38 331 248
-0.031858064 0.79000002 -0.0124662 1.4848201e-38 297 249
-0.030434359 0.78899997 -0.012450419 1.2535739e-38 298 249
-0.02897734 0.787 -0.01241886 8.2943795e-39 299 249
-0.027597465 0.787 -0.01241886 8.9332497e-39 300 249
-0.026150968 0.78500003 -0.0123873 8.7488584e-39 301 249
-0.024711479 0.78299999 -0.012355739 9.2973435e-39 302 249
-0.02333862 0.78299999 -0.012355739 8.9289211e-39 303 249
-0.021909652 0.78100002 -0.01232418 9.0200363e-39 304 249
-0.020513998 0.77999997 -0.012308398 9.204429e-39 305 249
-0.019097306 0.778 -0.012276839 9.5732073e-39 306 249
-0.017733213 0.778 -0.012276839 9.6654029e-39 307 249
-0.01632704 0.77600002 -0.01224528 9.3873713e-39 308 249
-0.014927879 0.77399999 -0.01221372 9.1107844e-39 309 249
-0.013570799 0.77399999 -0.01221372 8.8349234e-39 310 249
-0.01221372 0.77399999 -0.01221372 8.7427277e-39 311 249
-0.01085664 0.77399999 -0.01221372 8.1906484e-39 312 249
-0.0094995592 0.77399999 -0.01221372 8.0984527e-39 313 249
-0.0081424797 0.77399999 -0.01221372 7.1797559e-39 314 249
-0.0067853997 0.77399999 -0.01221372 7.5485398e-39 315 249
-0.0054283198 0.77399999 -0.01221372 5.9037825e-39 316 249
-0.0040712398 0.77399999 -0.01221372 6.7335446e-39 317 249
-0.0027141599 0.77399999 -0.01221372 6.1875973e-39 318 249
-0.0013570799 0.77399999 -0.01221372 7.5705318e-39 319 249
0 0.77399999 -0.01221372 1.0519367e-38 320 249
0.0013570799 0.77399999 -0.01221372 1.171755e-38 321 249
0.0027141599 0.77399999 -0.01221372 1.2450039e-38 322 249
0.0040712398 0.77399999 -0.01221372 9.9611161e-39 323 249
0.0054283198 0.77399999 -0.01221372 8.6620732e-39 324 249
0.0067853997 0.77399999 -0.01221372 6.5415737e-39 325 249
0.0081424797 0.77399999 -0.01221372 6.5408521e-39 326 249
0.0094995592 0.77399999 -0.01221372 7.4628069e-39 327 249
0.01085664 0.77399999 -0.01221372 8.1064009e-39 328 249
0.01221372 0.77399999 -0.01221372 8.1985965e-39 329 249
0.013553266 0.773 -0.012197939 1.0881287e-38 330 249
0.014908593 0.773 -0.012197939 1.5122646e-38 331 249
-0.031858064 0.79000002 -0.013851333 1.4941472e-38 297 250
-0.030472934 0.79000002 -0.013851333 1.3369087e-38 298 250
-0.02897734 0.787 -0.013798732 8.7593051e-39 299 250
-0.027527334 0.78500003 -0.013763667 8.843205e-39 300 250
-0.026150968 0.78500003 -0.013763667 8.9354007e-39 301 250
-0.024711479 0.78299999 -0.013728599 9.5742877e-39 302 250
-0.02333862 0.78299999 -0.013728599 9.2973407e-39 303 250
-0.021909652 0.78100002 -0.013693534 9.205145e-39 304 250
-0.020513998 0.77999997 -0.013675999 9.389895e-39 305 250
-0.019097306 0.778 -0.013640933 9.7586719e-39 306 250
-0.017687626 0.77600002 -0.013605867 9.7586719e-39 307 250
-0.016284959 0.77399999 -0.013570799 9.6639582e-39 308 250
-0.014927879 0.77399999 -0.013570799 9.1107844e-39 309 250
-0.013570799 0.77399999 -0.013570799 8.6498231e-39 310 250
-0.01221372 0.77399999 -0.013570799 7.9122566e-39 311 250
-0.01085664 0.77399999 -0.013570799 5.432006e-39 312 250
-0.0094995592 0.77399999 -0.013570799 4.9706677e-39 313 250
-0.0081424797 0.77399999 -0.013570799 3.6907735e-39 314 250
-0.0067853997 0.77399999 -0.013570799 6.9176192e-39 315 250
-0.0054283198 0.77399999 -0.013570799 9.2297196e-39 316 250
-0.0040712398 0.77399999 -0.013570799 1.1719002e-38 317 250
-0.0027141599 0.77399999 -0.013570799 1.3009375e-38 318 250
-0.0013570799 0.77399999 -0.013570799 1.4207916e-38 319 250
0 0.77399999 -0.013570799 1.4578138e-38 320 250
0.0013570799 0.77399999 -0.013570799 1.4393747e-38 321 250
0.0027141599 0.77399999 -0.013570799 1.4113915e-38 322 250
0.0040712398 0.77399999 -0.013570799 1.2546948e-38 323 250
0.0054283198 0.77399999 -0.013570799 1.1986902e-38 324 250
0.0067853997 0.77399999 -0.013570799 8.1146854e-39 325 250
0.0081424797 0.77399999 -0.013570799 6.5433716e-39 326 250
0.0094995592 0.77399999 -0.013570799 7.0043497e-39 327 250
0.01085664 0.77399999 -0.013570799 7.8316063e-39 328 250
0.01221372 0.77399999 -0.013570799 7.3709869e-39 329 250
0.013553266 0.773 -0.013553266 1.0511779e-38 330 250
0.014908593 0.773 -0.013553266 1.4753138e-38 331 250
-0.030472934 0.79000002 -0.015236467 1.4199572e-38 298 251
-0.02897734 0.787 -0.015178605 1.0050768e-38 299 251
-0.027527334 0.78500003 -0.015140033 9.3063454e-39 300 251
-0.026084339 0.78299999 -0.01510146 8.660976e-39 301 251
-0.024711479 0.78299999 -0.01510146 9.5753723e-39 302 251
-0.02333862 0.78299999 -0.01510146 9.2069485e-39 303 251
-0.021909652 0.78100002 -0.015062887 9.3895419e-39 304 251
-0.020513998 0.77999997 -0.0150436 9.8501613e-39 305 251
-0.019097306 0.778 -0.015005025 9.9445149e-39 306 251
-0.017687626 0.77600002 -0.014966453 9.3913412e-39 307 251
-0.016284959 0.77399999 -0.014927879 9.3866692e-39 308 251
-0.014927879 0.77399999 -0.014927879 8.0959304e-39 309 251
-0.013570799 0.77399999 -0.014927879 7.0846862e-39 310 251
-0.01221372 0.77399999 -0.014927879 7.9144482e-39 311 251
-0.01085664 0.77399999 -0.014927879 6.092878e-39 312 251
-0.0094995592 0.77399999 -0.014927879 8.3059332e-39 313 251
-0.0081319595 0.773 -0.014908593 9.2333125e-39 314 251
-0.0067766332 0.773 -0.014908593 1.1446008e-38 315 251
-0.0054213065 0.773 -0.014908593 1.3101583e-38 316 251
-0.0040659797 0.773 -0.014908593 1.3654757e-38 317 251
-0.0027106532 0.773 -0.014908593 1.3931702e-38 318 251
-0.0013570799 0.77399999 -0.014927879 1.420793e-38 319 251
0 0.773 -0.014908593 1.3749826e-38 320 251
0.0013553266 0.773 -0.014908593 1.2919706e-38 321 251
0.0027141599 0.77399999 -0.014927879 1.2089579e-38 322 251
0.0040712398 0.77399999 -0.014927879 1.227397e-38 323 251
0.0054283198 0.77399999 -0.014927879 1.2912841e-38 324 251
0.0067853997 0.77399999 -0.014927879 1.1345515e-38 325 251
0.0081424797 0.77399999 -0.014927879 9.8645947e-39 326 251
0.0094995592 0.77399999 -0.014927879 7.5600641e-39 327 251
0.01085664 0.77399999 -0.014927879 7.4664195e-39 328 251
0.01221372 0.77399999 -0.014927879 6.8210501e-39 329 251
0.013553266 0.773 -0.014908593 1.0327022e-38 330 251
0.014908593 0.773 -0.014908593 1.4383629e-38 331 251
-0.027527334 0.78500003 -0.016516401 1.0504171e-38 300 252
-0.026084339 0.78299999 -0.01647432 9.2134323e-39 301 252
-0.024711479 0.78299999 -0.01647432 9.5775261e-39 302 252
-0.02333862 0.78299999 -0.01647432 9.1165493e-39 303 252
-0.021909652 0.78100002 -0.016432239 9.2987924e-39 304 252
-0.020513998 0.77999997 -0.016411198 9.6675735e-39 305 252
-0.019097306 0.778 -0.016369121 9.7612153e-39 306 252
-0.017687626 0.77600002 -0.01632704 8.9314532e-39 307 252
-0.016284959 0.77399999 -0.016284959 8.4657877e-39 308 252
-0.014927879 0.77399999 -0.016284959 6.898462e-39 309 252
-0.013570799 0.77399999 -0.016284959 3.7822111e-39 310 252
-0.01221372 0.77399999 -0.016284959 7.3774805e-39 311 252
-0.01085664 0.77399999 -0.016284959 8.7701834e-39 312 252
-0.0094995592 0.77399999 -0.016284959 1.2458369e-38 313 252
-0.0081319595 0.773 -0.016263919 1.4209363e-38 314 252
-0.0067766332 0.773 -0.016263919 1.4485589e-38 315 252
-0.0054213065 0.773 -0.016263919 1.457599e-38 316 252
-0.0040659797 0.773 -0.016263919 1.4391959e-38 317 252
-0.0027106532 0.773 -0.016263919 1.4758936e-38 318 252
-0.0013553266 0.773 -0.016263919 1.4851132e-38 319 252
0 0.773 -0.016263919 1.4483423e-38 320 252
0.0013553266 0.773 -0.016263919 1.346963e-38 321 252
0.0027141599 0.77399999 -0.016284959 1.2456917e-38 322 252
0.0040712398 0.77399999 -0.016284959 1.2549113e-38 323 252
0.0054283198 0.77399999 -0.016284959 1.3007219e-38 324 252
0.0067853997 0.77399999 -0.016284959 1.2546601e-38 325 252
0.0081635201 0.77600002 -0.01632704 1.2173829e-38 326 252
0.009524107 0.77600002 -0.01632704 9.3154062e-39 327 252
0.01085664 0.77399999 -0.016284959 7.5604172e-39 328 252
0.01221372 0.77399999 -0.016284959 6.5459051e-39 329 252
0.013553266 0.773 -0.016263919 9.9596672e-39 330 252
0.014908593 0.773 -0.016263919 1.3924079e-38 331 252
-0.026150968 0.78500003 -0.017892767 9.7680494e-39 301 253
-0.024711479 0.78299999 -0.017847179 9.3034587e-39 302 253
-0.02333862 0.78299999 -0.017847179 8.4736967e-39 303 253
-0.021909652 0.78100002 -0.017801592 9.2987924e-39 304 253
-0.020461399 0.778 -0.017733213 9.390988e-39 305 253
-0.019097306 0.778 -0.017733213 9.4810481e-39 306 253
-0.017687626 0.77600002 -0.017687626 8.3750593e-39 307 253
-0.016284959 0.77399999 -0.01764204 6.8102867e-39 308 253
-0.014927879 0.77399999 -0.01764204 1.1051644e-38 309 253
-0.013570799 0.77399999 -0.01764204 1.0430764e-38 310 253
-0.01221372 0.77399999 -0.01764204 1.2735296e-38 311 253
-0.01085664 0.77399999 -0.01764204 1.384022e-38 312 253
-0.0094872871 0.773 -0.017619247 1.3932417e-38 313 253
-0.0081319595 0.773 -0.017619247 1.384022e-38 314 253
-0.0067766332 0.773 -0.017619247 1.4024971e-38 315 253
-0.0054213065 0.773 -0.017619247 1.4391226e-38 316 253
-0.0040659797 0.773 -0.017619247 1.3930249e-38 317 253
-0.0027106532 0.773 -0.017619247 1.3651127e-38 318 253
-0.0013553266 0.773 -0.017619247 1.2175997e-38 319 253
0 0.773 -0.017619247 1.0972419e-38 320 253
0.0013553266 0.773 -0.017619247 9.4969304e-39 321 253
0.0027141599 0.77399999 -0.01764204 9.0384914e-39 322 253
0.0040712398 0.77399999 -0.01764204 1.180436e-38 323 253
0.0054283198 0.77399999 -0.01764204 1.0984327e-38 324 253
0.0068029333 0.77600002 -0.017687626 1.0707739e-38 325 253
0.0081635201 0.77600002 -0.017687626 1.1074338e-38 326 253
0.0095486529 0.778 -0.017733213 1.0428969e-38 327 253
0.010884693 0.77600002 -0.017687626 9.0355627e-39 328 253
0.01224528 0.77600002 -0.017687626 5.5321288e-39 329 253
0.013605867 0.77600002 -0.017687626 9.497973e-39 330 253
0.014966453 0.77600002 -0.017687626 1.3738613e-38 331 253
-0.026150968 0.78500003 -0.019269135 1.0598179e-38 301 254
-0.024711479 0.78299999 -0.019220039 9.7644383e-39 302 254
-0.02333862 0.78299999 -0.019220039 8.5658965e-39 303 254
-0.021909652 0.78100002 -0.019170946 8.8392576e-39 304 254
-0.020461399 0.778 -0.019097306 8.4704765e-39 305 254
-0.019097306 0.778 -0.019097306 5.9859014e-39 306 254
-0.017687626 0.77600002 -0.019048214 7.0000534e-39 307 254
-0.016284959 0.77399999 -0.018999118 7.292147e-39 308 254
-0.014927879 0.77399999 -0.018999118 1.0979972e-38 309 254
-0.013570799 0.77399999 -0.018999118 1.3561839e-38 310 254
-0.01221372 0.77399999 -0.018999118 1.4299763e-38 311 254
-0.01085664 0.77399999 -0.018999118 1.4300126e-38 312 254
-0.0094872871 0.773 -0.018974574 1.420793e-38 313 254
-0.0081319595 0.773 -0.018974574 1.4481624e-38 314 254
-0.0067766332 0.773 -0.018974574 1.4020646e-38 315 254
-0.0054213065 0.773 -0.018974574 1.4107062e-38 316 254
-0.0040659797 0.773 -0.018974574 1.2539735e-38 317 254
-0.0027106532 0.773 -0.018974574 1.1613072e-38 318 254
-0.0013553266 0.773 -0.018974574 1.0230137e-38 319 254
0 0.773 -0.018974574 7.188755e-39 320 254
0.0013553266 0.773 -0.018974574 4.7920274e-39 321 254
0.0027141599 0.77399999 -0.018999118 3.9734771e-39 322 254
0.0040712398 0.77399999 -0.018999118 7.8453334e-39 323 254
0.0054283198 0.77399999 -0.018999118 9.9691049e-39 324 254
0.0068029333 0.77600002 -0.019048214 1.0798866e-38 325 254
0.0081635201 0.77600002 -0.019048214 1.1258742e-38 326 254
0.0095486529 0.778 -0.019097306 1.1443494e-38 327 254
0.010884693 0.77600002 -0.019048214 9.2260916e-39 328 254
0.01224528 0.77600002 -0.019048214 4.2471675e-39 329 254
0.013605867 0.77600002 -0.019048214 8.7596989e-39 330 254
0.014966453 0.77600002 -0.019048214 1.336948e-38 331 254
-0.0247746 0.78500003 -0.020645501 1.059637e-38 302 255
-0.02333862 0.78299999 -0.0205929 9.0286851e-39 303 255
-0.021909652 0.78100002 -0.020540299 8.1042303e-39 304 255
-0.020513998 0.77999997 -0.020513998 7.3666653e-39 305 255
-0.019097306 0.778 -0.020461399 7.0065582e-39 306 255
-0.017687626 0.77600002 -0.0204088 1.1063167e-38 307 255
-0.016284959 0.77399999 -0.020356199 1.3836984e-38 308 255
-0.014927879 0.77399999 -0.020356199 1.4297961e-38 309 255
-0.013570799 0.77399999 -0.020356199 1.3563643e-38 310 255
-0.01221372 0.77399999 -0.020356199 1.3747674e-38 311 255
-0.01085664 0.77399999 -0.020356199 1.4114649e-38 312 255
-0.0094995592 0.77399999 -0.020356199 1.4022094e-38 313 255
-0.0081319595 0.773 -0.0203299 1.2820645e-38 314 255
-0.0067766332 0.773 -0.0203299 9.3172111e-39 315 255
-0.0054213065 0.773 -0.0203299 7.8294567e-39 316 255
-0.0040659797 0.773 -0.0203299 4.4185785e-39 317 255
-0.0027106532 0.773 -0.0203299 4.685439e-39 318 255
-0.0013553266 0.773 -0.0203299 5.423004e-39 319 255
0 0.77399999 -0.020356199 5.5206017e-39 320 255
0.0013570799 0.77399999 -0.020356199 5.1521779e-39 321 255
0.0027141599 0.77399999 -0.020356199 3.2243864e-39 322 255
0.0040712398 0.77399999 -0.020356199 5.3448859e-39 323 255
0.0054423464 0.77600002 -0.0204088 5.2699949e-39 324 255
0.0068029333 0.77600002 -0.0204088 9.2344083e-39 325 255
0.0081845606 0.778 -0.020461399 1.1075797e-38 326 255
0.0095486529 0.778 -0.020461399 1.1260547e-38 327 255
0.010912746 0.778 -0.020461399 9.6896019e-39 328 255
0.012276839 0.778 -0.020461399 4.2500612e-39 329 255
0.013640933 0.778 -0.020461399 8.2990907e-39 330 255
-0.0247746 0.78500003 -0.022021867 1.1334667e-38 302 256
-0.02333862 0.78299999 -0.021965759 9.3985592e-39 303 256
-0.021909652 0.78100002 -0.021909652 6.5387151e-39 304 256
-0.020513998 0.77999997 -0.021881599 6.3546839e-39 305 256
-0.019097306 0.778 -0.021825492 1.0329215e-38 306 256
-0.017687626 0.77600002 -0.021769386 1.2818495e-38 307 256
-0.016284959 0.77399999 -0.021713279 1.3287419e-38 308 256
-0.014927879 0.77399999 -0.021713279 1.3564006e-38 309 256
-0.013570799 0.77399999 -0.021713279 1.3747671e-38 310 256
-0.01221372 0.77399999 -0.021713279 1.3194497e-38 311 256
-0.01085664 0.77399999 -0.021713279 1.3648626e-38 312 256
-0.0094995592 0.77399999 -0.021713279 1.0421779e-38 313 256
-0.0081319595 0.773 -0.021685226 8.2094118e-39 314 256
-0.0067766332 0.773 -0.021685226 5.8126855e-39 315 256
-0.0054213065 0.773 -0.021685226 4.6090654e-39 316 256
-0.0040659797 0.773 -0.021685226 3.0413796e-39 317 256
-0.0027106532 0.773 -0.021685226 5.2439952e-39 318 256
-0.0013553266 0.773 -0.021685226 5.7971689e-39 319 256
0 0.77399999 -0.021713279 6.0748545e-39 320 256
0.0013570799 0.77399999 -0.021713279 5.9826588e-39 321 256
0.0027141599 0.77399999 -0.021713279 4.972118e-39 322 256
0.0040817601 0.77600002 -0.021769386 5.0643151e-39 323 256
0.0054423464 0.77600002 -0.021769386 3.6054106e-39 324 256
0.0068204664 0.778 -0.021825492 8.2155509e-39 325 256
0.0082055992 0.77999997 -0.021881599 1.0430428e-38 326 256
0.0095731998 0.77999997 -0.021881599 1.162897e-38 327 256
0.010912746 0.778 -0.021825492 9.6013664e-39 328 256
0.012276839 0.778 -0.021825492 4.25438e-39 329 256
0.013640933 0.778 -0.021825492 8.5764034e-39 330 256
-0.02333862 0.78299999 -0.02333862 9.2177679e-39 303 257
-0.021909652 0.78100002 -0.023279008 6.3564762e-39 304 257
-0.020513998 0.77999997 -0.023249198 7.0018456e-39 305 257
-0.0191464 0.77999997 -0.023249198 1.3002888e-38 306 257
-0.017687626 0.77600002 -0.023129974 1.4385823e-38 307 257
-0.01632704 0.77600002 -0.023129974 1.2275785e-38 308 257
-0.014927879 0.77399999 -0.02307036 1.2552731e-38 309 257
-0.013570799 0.77399999 -0.02307036 1.3930252e-38 310 257
-0.01221372 0.77399999 -0.02307036 1.1901948e-38 311 257
-0.01085664 0.77399999 -0.02307036 1.03274e-38 312 257
-0.0094995592 0.77399999 -0.02307036 3.9655415e-39 313 257
-0.0081319595 0.773 -0.023040552 3.413451e-39 314 257
-0.0067766332 0.773 -0.023040552 5.7179816e-39 315 257
-0.0054213065 0.773 -0.023040552 6.4515711e-39 316 257
-0.0040659797 0.773 -0.023040552 5.8062017e-39 317 257
-0.0027106532 0.773 -0.023040552 7.0893525e-39 318 257
-0.0013553266 0.773 -0.023040552 6.9049612e-39 319 257
