# .PCD v.7 - Point Cloud Data file format
FIELDS x y z rgb imX imY
SIZE 4 4 4 4 4 4
TYPE F F F F F F
COUNT 1 1 1 1 1 1
WIDTH 858
HEIGHT 1
VIEWPOINT 0 0 0 1 0 0 0
POINTS 858
DATA ascii
0.01377068 0.71399999 -0.040060159 1.8073956e-38 331 272
0.015022559 0.71399999 -0.040060159 2.0009693e-38 332 272
0.016274439 0.71399999 -0.040060159 2.0562865e-38 333 272
0.017501773 0.713 -0.040004052 2.1753808e-38 334 272
0.018751899 0.713 -0.040004052 1.7328778e-38 335 272
0.020002026 0.713 -0.040004052 1.1242752e-38 336 272
0.021252153 0.713 -0.040004052 6.0797968e-39 337 272
0.022502279 0.713 -0.040004052 2.8601749e-39 338 272
0.0239856 0.72000003 -0.040396802 4.3349448e-39 339 272
0.025248 0.72000003 -0.040396802 3.7825348e-39 340 272
0.02647358 0.71899998 -0.040340692 2.0311779e-39 341 272
0.027734226 0.71899998 -0.040340692 2.8950826e-42 342 272
0.028914221 0.71700001 -0.040228479 0 343 272
0.030171359 0.71700001 -0.040228479 1.9700855e-40 344 272
0.031428497 0.71700001 -0.040228479 7.8492458e-39 345 272
0.032685637 0.71700001 -0.040228479 1.549429e-38 346 272
0.033942781 0.71700001 -0.040228479 1.5863431e-38 347 272
0.035298105 0.71899998 -0.040340692 1.5585043e-38 348 272
0.036609601 0.72000003 -0.040396802 1.5769435e-38 349 272
0.037871998 0.72000003 -0.040396802 1.6135311e-38 350 272
0.039243106 0.722 -0.040509012 1.4107008e-38 351 272
0.040509012 0.722 -0.040509012 1.1515449e-38 352 272
0.0050075199 0.71399999 -0.041312039 3.2347784e-39 324 273
0.0062593995 0.71399999 -0.041312039 1.0518233e-38 325 273
0.0075112795 0.71399999 -0.041312039 1.4753096e-38 326 273
0.0087631596 0.71399999 -0.041312039 1.6228226e-38 327 273
0.010001013 0.713 -0.041254178 1.567722e-38 328 273
0.011251139 0.713 -0.041254178 1.5769774e-38 329 273
0.012501267 0.713 -0.041254178 1.6782511e-38 330 273
0.013751393 0.713 -0.041254178 1.8810815e-38 331 273
0.014959441 0.71100003 -0.041138459 2.0194105e-38 332 273
0.01620606 0.71100003 -0.041138459 2.0747279e-38 333 273
0.01745268 0.71100003 -0.041138459 2.2495011e-38 334 273
0.0186993 0.71100003 -0.041138459 2.0651098e-38 335 273
0.01994592 0.71100003 -0.041138459 1.6406446e-38 336 273
0.021162732 0.70999998 -0.041080594 1.1612273e-38 337 273
0.022407599 0.70999998 -0.041080594 4.6118736e-39 338 273
0.023652466 0.70999998 -0.041080594 3.5051743e-39 339 273
0.024827199 0.708 -0.040964879 2.0354911e-39 340 273
0.026068559 0.708 -0.040964879 1.2057304e-39 341 273
0.02754136 0.71399999 -0.041312039 6.8817768e-42 342 273
0.028793238 0.71399999 -0.041312039 4.3608408e-42 343 273
0.030045118 0.71399999 -0.041312039 1.5166253e-41 344 273
0.031296998 0.71399999 -0.041312039 6.1926322e-39 345 273
0.032548878 0.71399999 -0.041312039 1.4573058e-38 346 273
0.03389544 0.71600002 -0.041427758 1.5403179e-38 347 273
0.035150826 0.71600002 -0.041427758 1.5400658e-38 348 273
0.036457058 0.71700001 -0.041485619 1.5400658e-38 349 273
0.037714198 0.71700001 -0.041485619 1.604386e-38 350 273
0.039243106 0.722 -0.041774917 1.5766914e-38 351 273
0.040509012 0.722 -0.041774917 1.5578498e-38 352 273
0.0037503797 0.713 -0.042504307 1.9400711e-39 323 274
0.0050005065 0.713 -0.042504307 1.058695e-40 324 274
0.0062506334 0.713 -0.042504307 8.9562898e-39 325 274
0.0075007593 0.713 -0.042504307 1.5584661e-38 326 274
0.0087508867 0.713 -0.042504307 1.7151627e-38 327 274
0.010001013 0.713 -0.042504307 1.7059081e-38 328 274
0.011251139 0.713 -0.042504307 1.6874691e-38 329 274
0.012501267 0.713 -0.042504307 1.6690671e-38 330 274
0.01371282 0.71100003 -0.042385083 1.7059454e-38 331 274
0.014938398 0.70999998 -0.042325463 1.7061975e-38 332 274
0.016183265 0.70999998 -0.042325463 1.7615148e-38 333 274
0.017428132 0.70999998 -0.042325463 1.8442739e-38 334 274
0.018672999 0.70999998 -0.042325463 1.8903717e-38 335 274
0.019917866 0.70999998 -0.042325463 2.0187603e-38 336 274
0.021162732 0.70999998 -0.042325463 1.8712473e-38 337 274
0.022344479 0.708 -0.042206239 1.4846698e-38 338 274
0.023585839 0.708 -0.042206239 1.1158873e-38 339 274
0.024827199 0.708 -0.042206239 1.1715662e-38 340 274
0.026068559 0.708 -0.042206239 1.3559575e-38 341 274
0.027309919 0.708 -0.042206239 1.4386497e-38 342 274
0.028631933 0.70999998 -0.042325463 1.4571248e-38 343 274
0.029918881 0.71100003 -0.042385083 1.4296453e-38 344 274
0.031253166 0.713 -0.042504307 1.4388649e-38 345 274
0.032503292 0.713 -0.042504307 1.448085e-38 346 274
0.033800758 0.71399999 -0.042563915 1.448085e-38 347 274
0.035052639 0.71399999 -0.042563915 1.4848921e-38 348 274
0.036406212 0.71600002 -0.042683143 1.4848921e-38 349 274
0.037661601 0.71600002 -0.042683143 1.5216264e-38 350 274
0.038971342 0.71700001 -0.042742759 1.5584687e-38 351 274
0.040340692 0.71899998 -0.042861983 1.6133159e-38 352 274
0.041659199 0.72000003 -0.042921603 1.3275095e-38 353 274
0.042921603 0.72000003 -0.042921603 7.0223242e-39 354 274
0.0037398601 0.71100003 -0.043631699 4.8870943e-39 323 275
0.0049864799 0.71100003 -0.043631699 8.3779249e-39 324 275
0.0062330998 0.71100003 -0.043631699 1.6399303e-38 325 275
0.0074797203 0.71100003 -0.043631699 1.7426769e-38 326 275
0.0087263398 0.71100003 -0.043631699 1.7058347e-38 327 275
0.0099729598 0.71100003 -0.043631699 1.6782496e-38 328 275
0.01121958 0.71100003 -0.043631699 1.6690298e-38 329 275
0.012448666 0.70999998 -0.043570329 1.668995e-38 330 275
0.013693533 0.70999998 -0.043570329 1.6597753e-38 331 275
0.014938398 0.70999998 -0.043570329 1.6139293e-38 332 275
0.016183265 0.70999998 -0.043570329 1.6692466e-38 333 275
0.017428132 0.70999998 -0.043570329 1.8718251e-38 334 275
0.018672999 0.70999998 -0.043570329 1.9179227e-38 335 275
0.019917866 0.70999998 -0.043570329 2.0466726e-38 336 275
0.021103119 0.708 -0.043447599 2.0097944e-38 337 275
0.022344479 0.708 -0.043447599 1.6969387e-38 338 275
0.023552528 0.70700002 -0.043386232 1.5678648e-38 339 275
0.024792133 0.70700002 -0.043386232 1.5128721e-38 340 275
0.026068559 0.708 -0.043447599 1.6327264e-38 341 275
0.027309919 0.708 -0.043447599 1.761083e-38 342 275
0.02855128 0.708 -0.043447599 1.7149852e-38 343 275
0.029876797 0.70999998 -0.043570329 1.6507709e-38 344 275
0.031165501 0.71100003 -0.043631699 1.6230762e-38 345 275
0.032412119 0.71100003 -0.043631699 1.5584674e-38 346 275
0.033753417 0.713 -0.043754432 1.4754913e-38 347 275
0.035052639 0.71399999 -0.043815799 1.4571614e-38 348 275
0.036304519 0.71399999 -0.043815799 1.4663809e-38 349 275
0.037556399 0.71399999 -0.043815799 1.4663456e-38 350 275
0.038916986 0.71600002 -0.043938532 1.4848206e-38 351 275
0.040172372 0.71600002 -0.043938532 1.5399927e-38 352 275
0.041601337 0.71899998 -0.044122629 1.383296e-38 353 275
0.042861983 0.71899998 -0.044122629 1.1526949e-38 354 275
0.044183999 0.72000003 -0.044183999 9.0380262e-39 355 275
0.0024897333 0.70999998 -0.044815198 3.5938317e-39 322 276
0.0037345996 0.70999998 -0.044815198 8.1114176e-39 323 276
0.0049794666 0.70999998 -0.044815198 1.3918296e-38 324 276
0.0062243328 0.70999998 -0.044815198 1.8528078e-38 325 276
0.0074691991 0.70999998 -0.044815198 1.8255826e-38 326 276
0.0087140659 0.70999998 -0.044815198 1.6780696e-38 327 276
0.0099589331 0.70999998 -0.044815198 1.6505551e-38 328 276
0.011203799 0.70999998 -0.044815198 1.6598106e-38 329 276
0.012448666 0.70999998 -0.044815198 1.668995e-38 330 276
0.013693533 0.70999998 -0.044815198 1.668995e-38 331 276
0.014938398 0.70999998 -0.044815198 1.632261e-38 332 276
0.016183265 0.70999998 -0.044815198 1.696798e-38 333 276
0.017428132 0.70999998 -0.044815198 1.9546935e-38 334 276
0.018672999 0.70999998 -0.044815198 2.0100107e-38 335 276
0.01986176 0.708 -0.044688959 2.0651112e-38 336 276
0.021103119 0.708 -0.044688959 2.0282688e-38 337 276
0.022344479 0.708 -0.044688959 1.7709492e-38 338 276
0.023552528 0.70700002 -0.044625837 1.798572e-38 339 276
0.024792133 0.70700002 -0.044625837 1.8076852e-38 340 276
0.02603174 0.70700002 -0.044625837 1.8076852e-38 341 276
0.027271347 0.70700002 -0.044625837 1.8255846e-38 342 276
0.02855128 0.708 -0.044688959 1.7242053e-38 343 276
0.029876797 0.70999998 -0.044815198 1.6506637e-38 344 276
0.031121666 0.70999998 -0.044815198 1.6137495e-38 345 276
0.032366529 0.70999998 -0.044815198 1.6136776e-38 346 276
0.033658739 0.71100003 -0.044878319 1.5583602e-38 347 276
0.034905359 0.71100003 -0.044878319 1.4664165e-38 348 276
0.036151983 0.71100003 -0.044878319 1.438758e-38 349 276
0.037503798 0.713 -0.045004558 1.4202831e-38 350 276
0.038753927 0.713 -0.045004558 1.4295387e-38 351 276
0.040172372 0.71600002 -0.045193922 1.4296103e-38 352 276
0.041485619 0.71700001 -0.045257039 1.4203907e-38 353 276
0.042861983 0.71899998 -0.045383278 1.3553849e-38 354 276
0.044183999 0.72000003 -0.045446403 1.1157123e-38 355 276
0.045446403 0.72000003 -0.045446403 1.2085553e-38 356 276
0.0024897333 0.70999998 -0.046060063 7.3936711e-40 322 277
0.0037345996 0.70999998 -0.046060063 8.2990486e-39 323 277
0.0049794666 0.70999998 -0.046060063 1.7421734e-38 324 277
0.0062243328 0.70999998 -0.046060063 1.9726265e-38 325 277
0.0074691991 0.70999998 -0.046060063 1.8165433e-38 326 277
0.0087140659 0.70999998 -0.046060063 1.6782498e-38 327 277
0.0099589331 0.70999998 -0.046060063 1.6415154e-38 328 277
0.011203799 0.70999998 -0.046060063 1.6507709e-38 329 277
0.0124136 0.708 -0.045930319 1.6507353e-38 330 277
0.013654959 0.708 -0.045930319 1.6415158e-38 331 277
0.01489632 0.708 -0.045930319 1.6230056e-38 332 277
0.01613768 0.708 -0.045930319 1.6414807e-38 333 277
0.017379038 0.708 -0.045930319 1.7336764e-38 334 277
0.0186204 0.708 -0.045930319 1.7889937e-38 335 277
0.01986176 0.708 -0.045930319 1.8531338e-38 336 277
0.021103119 0.708 -0.045930319 1.7333154e-38 337 277
0.022312919 0.70700002 -0.045865446 1.567904e-38 338 277
0.023552528 0.70700002 -0.045865446 1.6877583e-38 339 277
0.024792133 0.70700002 -0.045865446 1.7428256e-38 340 277
0.02603174 0.70700002 -0.045865446 1.7151669e-38 341 277
0.027271347 0.70700002 -0.045865446 1.6966908e-38 342 277
0.028510952 0.70700002 -0.045865446 1.6505931e-38 343 277
0.02979264 0.708 -0.045930319 1.6230412e-38 344 277
0.031121666 0.70999998 -0.046060063 1.5954185e-38 345 277
0.032366529 0.70999998 -0.046060063 1.558612e-38 346 277
0.033611398 0.70999998 -0.046060063 1.5493923e-38 347 277
0.034856264 0.70999998 -0.046060063 1.5308813e-38 348 277
0.036151983 0.71100003 -0.046124939 1.493967e-38 349 277
0.037398599 0.71100003 -0.046124939 1.411171e-38 350 277
0.038645219 0.71100003 -0.046124939 1.3466341e-38 351 277
0.040060159 0.71399999 -0.046319555 1.319083e-38 352 277
0.041427758 0.71600002 -0.046449307 1.319083e-38 353 277
0.042861983 0.71899998 -0.046643924 1.3557815e-38 354 277
0.044183999 0.72000003 -0.0467088 1.282025e-38 355 277
0.045446403 0.72000003 -0.0467088 1.4291784e-38 356 277
0.00125188 0.71399999 -0.047571439 3.6265604e-42 321 278
0.0024932399 0.71100003 -0.047371563 6.1629106e-42 322 278
0.0037345996 0.70999998 -0.047304932 8.2137348e-39 323 278
0.0049794666 0.70999998 -0.047304932 1.8531694e-38 324 278
0.0062243328 0.70999998 -0.047304932 1.9361455e-38 325 278
0.0074691991 0.70999998 -0.047304932 1.8073956e-38 326 278
0.0087140659 0.70999998 -0.047304932 1.6875413e-38 327 278
0.0099589331 0.70999998 -0.047304932 1.6783943e-38 328 278
0.011203799 0.70999998 -0.047304932 1.6783943e-38 329 278
0.0124136 0.708 -0.047171678 1.6324041e-38 330 278
0.013654959 0.708 -0.047171678 1.5954898e-38 331 278
0.01489632 0.708 -0.047171678 1.5311334e-38 332 278
0.01613768 0.708 -0.047171678 1.5034387e-38 333 278
0.017379038 0.708 -0.047171678 1.4942917e-38 334 278
0.0186204 0.708 -0.047171678 1.5035113e-38 335 278
0.019833706 0.70700002 -0.047105055 1.5767283e-38 336 278
0.021073313 0.70700002 -0.047105055 1.4661294e-38 337 278
0.022312919 0.70700002 -0.047105055 1.3558911e-38 338 278
0.023552528 0.70700002 -0.047105055 1.484965e-38 339 278
0.024792133 0.70700002 -0.047105055 1.5860927e-38 340 278
0.02603174 0.70700002 -0.047105055 1.5768732e-38 341 278
0.027271347 0.70700002 -0.047105055 1.5586491e-38 342 278
0.028510952 0.70700002 -0.047105055 1.5494296e-38 343 278
0.02979264 0.708 -0.047171678 1.5586126e-38 344 278
0.031034 0.708 -0.047171678 1.5586126e-38 345 278
0.03227536 0.708 -0.047171678 1.540173e-38 346 278
0.033611398 0.70999998 -0.047304932 1.5493926e-38 347 278
0.034856264 0.70999998 -0.047304932 1.5218062e-38 348 278
0.036101133 0.70999998 -0.047304932 1.5033671e-38 349 278
0.037345998 0.70999998 -0.047304932 1.4573046e-38 350 278
0.038590867 0.70999998 -0.047304932 1.3282307e-38 351 278
0.039835732 0.70999998 -0.047304932 1.1717129e-38 352 278
0.041080594 0.70999998 -0.047304932 1.1163956e-38 353 278
0.042861983 0.71899998 -0.04790457 1.1349436e-38 354 278
0.044122629 0.71899998 -0.04790457 1.2087001e-38 355 278
0.045383278 0.71899998 -0.04790457 1.3652534e-38 356 278
0 0.71600002 -0.048960082 7.571217e-39 320 279
0.00125188 0.71399999 -0.048823316 9.8757476e-39 321 279
0.0024932399 0.71100003 -0.048618179 1.1993736e-38 322 279
0.0037345996 0.70999998 -0.048549797 1.402204e-38 323 279
0.0049794666 0.70999998 -0.048549797 1.7979242e-38 324 279
0.0062243328 0.70999998 -0.048549797 1.8993396e-38 325 279
0.0074691991 0.70999998 -0.048549797 1.7981404e-38 326 279
0.0087140659 0.70999998 -0.048549797 1.6690666e-38 327 279
0.0099308798 0.708 -0.048413038 1.6412286e-38 328 279
0.01117224 0.708 -0.048413038 1.5582526e-38 329 279
0.0124136 0.708 -0.048413038 1.38398e-38 330 279
0.013654959 0.708 -0.048413038 1.319443e-38 331 279
0.01489632 0.708 -0.048413038 1.3463468e-38 332 279
0.01613768 0.708 -0.048413038 1.318724e-38 333 279
0.017354494 0.70700002 -0.048344657 1.2733466e-38 334 279
0.018594101 0.70700002 -0.048344657 1.3747617e-38 335 279
0.019833706 0.70700002 -0.048344657 1.4480863e-38 336 279
0.021043506 0.70599997 -0.048276275 1.4388667e-38 337 279
0.022281358 0.70599997 -0.048276275 1.4663456e-38 338 279
0.023519212 0.70599997 -0.048276275 1.4940403e-38 339 279
0.024757065 0.70599997 -0.048276275 1.4848571e-38 340 279
0.025994917 0.70599997 -0.048276275 1.4572342e-38 341 279
0.027271347 0.70700002 -0.048344657 1.4114957e-38 342 279
0.028510952 0.70700002 -0.048344657 1.3930207e-38 343 279
0.02979264 0.708 -0.048413038 1.4387227e-38 344 279
0.031034 0.708 -0.048413038 1.4295031e-38 345 279
0.03227536 0.708 -0.048413038 1.4387583e-38 346 279
0.033516716 0.708 -0.048413038 1.4848201e-38 347 279
0.034758076 0.708 -0.048413038 1.4850359e-38 348 279
0.03599944 0.708 -0.048413038 1.503439e-38 349 279
0.0372408 0.708 -0.048413038 1.5217336e-38 350 279
0.038482159 0.708 -0.048413038 1.4203184e-38 351 279
0.039835732 0.70999998 -0.048549797 1.1074631e-38 352 279
0.041080594 0.70999998 -0.048549797 1.0076737e-41 353 279
0.042861983 0.71899998 -0.049165215 2.0492028e-40 354 279
0.044122629 0.71899998 -0.049165215 4.6299518e-39 355 279
0.045383278 0.71899998 -0.049165215 1.1628563e-38 356 279
-0.0025142799 0.71700001 -0.0502856 8.9465886e-39 318 280
-0.0012553866 0.71600002 -0.050215468 8.6703619e-39 319 280
0 0.71399999 -0.050075196 1.2911743e-38 320 280
0.0012501266 0.713 -0.050005067 1.5032602e-38 321 280
0.0024932399 0.71100003 -0.049864799 1.7520076e-38 322 280
0.0037345996 0.70999998 -0.049794663 1.7797023e-38 323 280
0.0049794666 0.70999998 -0.049794663 1.7333164e-38 324 280
0.0062243328 0.70999998 -0.049794663 1.6964741e-38 325 280
0.0074481601 0.708 -0.049654398 1.6231495e-38 326 280
0.008689519 0.708 -0.049654398 1.5678321e-38 327 280
0.0099308798 0.708 -0.049654398 1.5401009e-38 328 280
0.01117224 0.708 -0.049654398 1.4755639e-38 329 280
0.0124136 0.708 -0.049654398 1.4480494e-38 330 280
0.013654959 0.708 -0.049654398 1.4388299e-38 331 280
0.01487528 0.70700002 -0.049584266 1.2179202e-38 332 280
0.016114887 0.70700002 -0.049584266 1.1349083e-38 333 280
0.017354494 0.70700002 -0.049584266 1.3191923e-38 334 280
0.018594101 0.70700002 -0.049584266 1.4206074e-38 335 280
0.019805651 0.70599997 -0.04951413 1.4388667e-38 336 280
0.021043506 0.70599997 -0.04951413 1.4388667e-38 337 280
0.022281358 0.70599997 -0.04951413 1.402169e-38 338 280
0.023519212 0.70599997 -0.04951413 1.402169e-38 339 280
0.024757065 0.70599997 -0.04951413 1.4112806e-38 340 280
0.025994917 0.70599997 -0.04951413 1.4112806e-38 341 280
0.027271347 0.70700002 -0.049584266 1.402169e-38 342 280
0.028510952 0.70700002 -0.049584266 1.3929494e-38 343 280
0.029750559 0.70700002 -0.049584266 1.374438e-38 344 280
0.031034 0.708 -0.049654398 1.3467434e-38 345 280
0.03227536 0.708 -0.049654398 1.2363242e-38 346 280
0.033516716 0.708 -0.049654398 1.2732023e-38 347 280
0.034758076 0.708 -0.049654398 1.393021e-38 348 280
0.03599944 0.708 -0.049654398 1.4667775e-38 349 280
0.0372408 0.708 -0.049654398 1.5218781e-38 350 280
0.038482159 0.708 -0.049654398 1.4757804e-38 351 280
0.039723519 0.708 -0.049654398 1.3922609e-38 352 280
0.040964879 0.708 -0.049654398 1.9371774e-39 353 280
0.042325463 0.70999998 -0.049794663 1.1500456e-41 354 280
0.043570329 0.70999998 -0.049794663 1.5853086e-39 355 280
-0.0025107733 0.71600002 -0.051470853 1.4386484e-38 318 281
-0.0012553866 0.71600002 -0.051470853 1.5677223e-38 319 281
0 0.71399999 -0.05132708 1.6597387e-38 320 281
0.0012501266 0.713 -0.051255193 1.7058006e-38 321 281
0.0024932399 0.71100003 -0.051111419 1.7795577e-38 322 281
0.0037345996 0.70999998 -0.051039528 1.8348392e-38 323 281
0.0049794666 0.70999998 -0.051039528 1.7242403e-38 324 281
0.0062067998 0.708 -0.050895758 1.4476534e-38 325 281
0.0074481601 0.708 -0.050895758 1.2913894e-38 326 281
0.008689519 0.708 -0.050895758 1.4388664e-38 327 281
0.0099308798 0.708 -0.050895758 1.4848924e-38 328 281
0.01117224 0.708 -0.050895758 1.4848924e-38 329 281
0.0124136 0.708 -0.050895758 1.4481213e-38 330 281
0.013635674 0.70700002 -0.050823875 1.4481213e-38 331 281
0.01487528 0.70700002 -0.050823875 1.309936e-38 332 281
0.016114887 0.70700002 -0.050823875 1.1808622e-38 333 281
0.017354494 0.70700002 -0.050823875 1.3281601e-38 334 281
0.018594101 0.70700002 -0.050823875 1.392697e-38 335 281
0.019805651 0.70599997 -0.050751984 1.4111004e-38 336 281
0.021043506 0.70599997 -0.050751984 1.4111004e-38 337 281
0.022281358 0.70599997 -0.050751984 1.3927692e-38 338 281
0.023519212 0.70599997 -0.050751984 1.3927692e-38 339 281
0.024757065 0.70599997 -0.050751984 1.3927696e-38 340 281
0.025994917 0.70599997 -0.050751984 1.3742945e-38 341 281
0.027232772 0.70599997 -0.050751984 1.3835496e-38 342 281
0.028510952 0.70700002 -0.050823875 1.3927692e-38 343 281
0.029750559 0.70700002 -0.050823875 1.3467071e-38 344 281
0.030990168 0.70700002 -0.050823875 1.2268528e-38 345 281
0.032229774 0.70700002 -0.050823875 1.0337457e-38 346 281
0.033469379 0.70700002 -0.050823875 1.2088815e-38 347 281
0.034758076 0.708 -0.050895758 1.2733116e-38 348 281
0.035948593 0.70700002 -0.050823875 1.3286289e-38 349 281
0.037188202 0.70700002 -0.050823875 1.4022406e-38 350 281
0.038427804 0.70700002 -0.050823875 1.4852168e-38 351 281
0.039667413 0.70700002 -0.050823875 1.5216598e-38 352 281
0.040964879 0.708 -0.050895758 7.1033823e-39 353 281
0.042206239 0.708 -0.050895758 1.3665463e-41 354 281
0.043447599 0.708 -0.050895758 1.3305329e-41 355 281
-0.0050425865 0.71899998 -0.05294716 1.5214094e-38 316 282
-0.0037714199 0.71700001 -0.052799881 1.4476529e-38 317 282
-0.0025107733 0.71600002 -0.052726239 1.4663444e-38 318 282
-0.0012553866 0.71600002 -0.052726239 1.558504e-38 319 282
0 0.71399999 -0.052578956 1.6228248e-38 320 282
0.0012501266 0.713 -0.052505318 1.6597031e-38 321 282
0.0024897333 0.70999998 -0.052284397 1.6782145e-38 322 282
0.0037345996 0.70999998 -0.052284397 1.6505557e-38 323 282
0.0049654399 0.708 -0.052137118 1.5676519e-38 324 282
0.0062067998 0.708 -0.052137118 1.4293585e-38 325 282
0.0074481601 0.708 -0.052137118 1.3281601e-38 326 282
0.008689519 0.708 -0.052137118 1.4203557e-38 327 282
0.0099168532 0.70700002 -0.05206348 1.4387951e-38 328 282
0.011156459 0.70700002 -0.05206348 1.4387951e-38 329 282
0.012396066 0.70700002 -0.05206348 1.4203554e-38 330 282
0.013635674 0.70700002 -0.05206348 1.429575e-38 331 282
0.01487528 0.70700002 -0.05206348 1.3374873e-38 332 282
0.016114887 0.70700002 -0.05206348 1.2084134e-38 333 282
0.017354494 0.70700002 -0.05206348 1.1901184e-38 334 282
0.018567799 0.70599997 -0.051989835 1.3099728e-38 335 282
0.019805651 0.70599997 -0.051989835 1.383514e-38 336 282
0.021043506 0.70599997 -0.051989835 1.3742945e-38 337 282
0.022281358 0.70599997 -0.051989835 1.3559632e-38 338 282
0.023519212 0.70599997 -0.051989835 1.3559632e-38 339 282
0.024757065 0.70599997 -0.051989835 1.3467437e-38 340 282
0.025994917 0.70599997 -0.051989835 1.3559632e-38 341 282
0.027232772 0.70599997 -0.051989835 1.3284122e-38 342 282
0.028470624 0.70599997 -0.051989835 1.3284122e-38 343 282
0.029750559 0.70700002 -0.05206348 1.1808989e-38 344 282
0.030990168 0.70700002 -0.05206348 1.0795196e-38 345 282
0.032229774 0.70700002 -0.05206348 1.2087374e-38 346 282
0.033469379 0.70700002 -0.05206348 1.300933e-38 347 282
0.034708988 0.70700002 -0.05206348 1.3559632e-38 348 282
0.035948593 0.70700002 -0.05206348 1.3559632e-38 349 282
0.037188202 0.70700002 -0.05206348 1.3744028e-38 350 282
0.038373452 0.70599997 -0.051989835 1.475782e-38 351 282
0.039611302 0.70599997 -0.051989835 1.4852874e-38 352 282
0.040907022 0.70700002 -0.05206348 9.505526e-39 353 282
0.042146627 0.70700002 -0.05206348 3.8758318e-39 354 282
0.043386232 0.70700002 -0.05206348 8.3337742e-40 355 282
-0.0062857 0.71700001 -0.054057021 1.604241e-38 315 283
-0.0050285598 0.71700001 -0.054057021 1.5029702e-38 316 283
-0.00376616 0.71600002 -0.053981625 1.4384333e-38 317 283
-0.0025107733 0.71600002 -0.053981625 1.475456e-38 318 283
-0.00125188 0.71399999 -0.053830836 1.5123701e-38 319 283
0 0.71399999 -0.053830836 1.5585043e-38 320 283
0.0012501266 0.713 -0.053755447 1.6046381e-38 321 283
0.0024897333 0.70999998 -0.053529263 1.5676522e-38 322 283
0.0037345996 0.70999998 -0.053529263 1.4846403e-38 323 283
0.0049654399 0.708 -0.053378478 1.4110638e-38 324 283
0.0062067998 0.708 -0.053378478 1.4202834e-38 325 283
0.0074481601 0.708 -0.053378478 1.3834777e-38 326 283
0.008689519 0.708 -0.053378478 1.3834777e-38 327 283
0.0099168532 0.70700002 -0.053303085 1.3742945e-38 328 283
0.011156459 0.70700002 -0.053303085 1.3742945e-38 329 283
0.012396066 0.70700002 -0.053303085 1.3467434e-38 330 283
0.013635674 0.70700002 -0.053303085 1.3467434e-38 331 283
0.01487528 0.70700002 -0.053303085 1.3558185e-38 332 283
0.016114887 0.70700002 -0.053303085 1.2820618e-38 333 283
0.017354494 0.70700002 -0.053303085 1.0705162e-38 334 283
0.018567799 0.70599997 -0.053227689 1.1995901e-38 335 283
0.019805651 0.70599997 -0.053227689 1.3283769e-38 336 283
0.021043506 0.70599997 -0.053227689 1.3099377e-38 337 283
0.022281358 0.70599997 -0.053227689 1.3374522e-38 338 283
0.023519212 0.70599997 -0.053227689 1.3466718e-38 339 283
0.024757065 0.70599997 -0.053227689 1.3283045e-38 340 283
0.025994917 0.70599997 -0.053227689 1.3283045e-38 341 283
0.027232772 0.70599997 -0.053227689 1.3099012e-38 342 283
0.028470624 0.70599997 -0.053227689 1.2453642e-38 343 283
0.029750559 0.70700002 -0.053303085 1.0060149e-38 344 283
0.030990168 0.70700002 -0.053303085 1.0336375e-38 345 283
0.032229774 0.70700002 -0.053303085 1.3191926e-38 346 283
0.033469379 0.70700002 -0.053303085 1.3560348e-38 347 283
0.034708988 0.70700002 -0.053303085 1.3744025e-38 348 283
0.035948593 0.70700002 -0.053303085 1.3651828e-38 349 283
0.037135597 0.70599997 -0.053227689 1.3560351e-38 350 283
0.038373452 0.70599997 -0.053227689 1.383694e-38 351 283
0.039611302 0.70599997 -0.053227689 1.4116756e-38 352 283
0.040907022 0.70700002 -0.053303085 1.0705518e-38 353 283
0.042087011 0.70599997 -0.053227689 7.3774805e-39 354 283
0.043324865 0.70599997 -0.053227689 1.1085378e-39 355 283
0.044562716 0.70599997 -0.053227689 4.6195303e-39 356 283
-0.0075428397 0.71700001 -0.055314157 1.7334952e-38 314 284
-0.0062857 0.71700001 -0.055314157 1.5767267e-38 315 284
-0.0050285598 0.71700001 -0.055314157 1.4753839e-38 316 284
-0.00376616 0.71600002 -0.055237014 1.4293219e-38 317 284
-0.0025107733 0.71600002 -0.055237014 1.4753841e-38 318 284
-0.00125188 0.71399999 -0.05508272 1.5214818e-38 319 284
0 0.71399999 -0.05508272 1.5217336e-38 320 284
0.0012501266 0.713 -0.055005573 1.4756358e-38 321 284
0.0024897333 0.70999998 -0.054774132 1.4570176e-38 322 284
0.00372408 0.708 -0.054619838 1.4477979e-38 323 284
0.0049654399 0.708 -0.054619838 1.392697e-38 324 284
0.0062067998 0.708 -0.054619838 1.3834775e-38 325 284
0.0074481601 0.708 -0.054619838 1.3742226e-38 326 284
0.008689519 0.708 -0.054619838 1.365003e-38 327 284
0.0099308798 0.708 -0.054619838 1.3466718e-38 328 284
0.011156459 0.70700002 -0.054542694 1.3466718e-38 329 284
0.012396066 0.70700002 -0.054542694 1.3375238e-38 330 284
0.013635674 0.70700002 -0.054542694 1.3375238e-38 331 284
0.01487528 0.70700002 -0.054542694 1.3743651e-38 332 284
0.016114887 0.70700002 -0.054542694 1.2821696e-38 333 284
0.017354494 0.70700002 -0.054542694 5.7384728e-39 334 284
0.018567799 0.70599997 -0.054465543 7.4901897e-39 335 284
0.019805651 0.70599997 -0.054465543 1.1995919e-38 336 284
0.021043506 0.70599997 -0.054465543 1.2641289e-38 337 284
0.022281358 0.70599997 -0.054465543 1.3467081e-38 338 284
0.023519212 0.70599997 -0.054465543 1.328269e-38 339 284
0.024757065 0.70599997 -0.054465543 1.3098656e-38 340 284
0.025994917 0.70599997 -0.054465543 1.3283045e-38 341 284
0.027232772 0.70599997 -0.054465543 1.1901187e-38 342 284
0.028470624 0.70599997 -0.054465543 1.0426057e-38 343 284
0.029708479 0.70599997 -0.054465543 1.0522566e-38 344 284
0.030858666 0.704 -0.054311249 1.1628914e-38 345 284
0.032093015 0.704 -0.054311249 1.3375235e-38 346 284
0.033422034 0.70599997 -0.054465543 1.346779e-38 347 284
0.034659892 0.70599997 -0.054465543 1.355963e-38 348 284
0.035897743 0.70599997 -0.054465543 1.3652184e-38 349 284
0.037135597 0.70599997 -0.054465543 1.3376317e-38 350 284
0.038373452 0.70599997 -0.054465543 1.309973e-38 351 284
0.039611302 0.70599997 -0.054465543 1.2183169e-38 352 284
0.040849157 0.70599997 -0.054465543 9.8779182e-39 353 284
0.041967787 0.704 -0.054311249 7.1995604e-39 354 284
0.043202132 0.704 -0.054311249 7.9397571e-42 355 284
0.044436477 0.704 -0.054311249 3.5120912e-39 356 284
-0.0087263398 0.71100003 -0.056097899 1.7703376e-38 313 285
-0.0074797203 0.71100003 -0.056097899 1.7610463e-38 314 285
-0.0062769335 0.71600002 -0.056492399 1.5674356e-38 315 285
-0.0050215465 0.71600002 -0.056492399 1.4386134e-38 316 285
-0.00376616 0.71600002 -0.056492399 1.4478329e-38 317 285
-0.0025107733 0.71600002 -0.056492399 1.4847112e-38 318 285
-0.00125188 0.71399999 -0.0563346 1.5123699e-38 319 285
0 0.713 -0.056255698 1.4203905e-38 320 285
0.00124662 0.71100003 -0.056097899 1.3190111e-38 321 285
0.0024897333 0.70999998 -0.056018997 1.291425e-38 322 285
0.00372408 0.708 -0.055861197 1.355962e-38 323 285
0.0049654399 0.708 -0.055861197 1.3467434e-38 324 285
0.0062067998 0.708 -0.055861197 1.3375238e-38 325 285
0.0074481601 0.708 -0.055861197 1.328269e-38 326 285
0.008689519 0.708 -0.055861197 1.328269e-38 327 285
0.0099308798 0.708 -0.055861197 1.3007182e-38 328 285
0.011156459 0.70700002 -0.055782299 1.3007182e-38 329 285
0.012396066 0.70700002 -0.055782299 1.3099374e-38 330 285
0.013616386 0.70599997 -0.055703394 1.3191929e-38 331 285
0.014854239 0.70599997 -0.055703394 1.3834775e-38 332 285
0.016092092 0.70599997 -0.055703394 1.1990862e-38 333 285
0.017280852 0.704 -0.055545598 1.3141741e-39 334 285
0.018515198 0.704 -0.055545598 2.0517392e-39 335 285
0.019749546 0.704 -0.055545598 8.955634e-39 336 285
0.020983893 0.704 -0.055545598 1.0983938e-38 337 285
0.022281358 0.70599997 -0.055703394 1.282316e-38 338 285
0.023452586 0.704 -0.055545598 1.3191941e-38 339 285
0.024686933 0.704 -0.055545598 1.3925538e-38 340 285
0.02592128 0.704 -0.055545598 1.3464919e-38 341 285
0.027232772 0.70599997 -0.055703394 1.1074294e-38 342 285
0.028470624 0.70599997 -0.055703394 1.0060143e-38 343 285
0.029708479 0.70599997 -0.055703394 1.1719663e-38 344 285
0.030858666 0.704 -0.055545598 1.2826371e-38 345 285
0.032093015 0.704 -0.055545598 1.2916418e-38 346 285
0.033422034 0.70599997 -0.055703394 1.3008614e-38 347 285
0.034659892 0.70599997 -0.055703394 1.3192289e-38 348 285
0.035897743 0.70599997 -0.055703394 1.3192289e-38 349 285
0.037030395 0.704 -0.055545598 1.3467434e-38 350 285
0.038264744 0.704 -0.055545598 1.291426e-38 351 285
0.039499093 0.704 -0.055545598 1.1442001e-38 352 285
0.040733438 0.704 -0.055545598 1.0612599e-38 353 285
0.041967787 0.704 -0.055545598 9.2246007e-39 354 285
0.043202132 0.704 -0.055545598 2.1255386e-39 355 285
0.044436477 0.704 -0.055545598 3.1411156e-39 356 285
-0.0099729598 0.71100003 -0.057344519 1.761118e-38 312 286
-0.0087263398 0.71100003 -0.057344519 1.7703376e-38 313 286
-0.0074797203 0.71100003 -0.057344519 1.7611183e-38 314 286
-0.0062769335 0.71600002 -0.057747785 1.5214096e-38 315 286
-0.0050215465 0.71600002 -0.057747785 1.3651087e-38 316 286
-0.00376616 0.71600002 -0.057747785 1.4111705e-38 317 286
-0.0025037599 0.71399999 -0.057586476 1.5031147e-38 318 286
-0.00125188 0.71399999 -0.057586476 1.5215898e-38 319 286
0 0.713 -0.057505824 1.328339e-38 320 286
0.00124662 0.71100003 -0.057344519 1.2361793e-38 321 286
0.00248272 0.708 -0.057102561 9.970467e-39 322 286
0.00372408 0.708 -0.057102561 1.0247055e-38 323 286
0.0049654399 0.708 -0.057102561 1.1626042e-38 324 286
0.0062067998 0.708 -0.057102561 1.2363607e-38 325 286
0.0074481601 0.708 -0.057102561 1.3099374e-38 326 286
0.008689519 0.708 -0.057102561 1.3099374e-38 327 286
0.0099308798 0.708 -0.057102561 1.3006815e-38 328 286
0.011156459 0.70700002 -0.057021905 1.3006815e-38 329 286
0.012378532 0.70599997 -0.056941248 1.3466715e-38 330 286
0.013616386 0.70599997 -0.056941248 1.3558911e-38 331 286
0.014854239 0.70599997 -0.056941248 1.0427855e-38 332 286
0.016092092 0.70599997 -0.056941248 6.3712473e-39 333 286
0.017280852 0.704 -0.056779943 3.5032462e-44 334 286
0.018515198 0.704 -0.056779943 4.3440252e-44 335 286
0.019749546 0.704 -0.056779943 1.086707e-41 336 286
0.020983893 0.704 -0.056779943 3.1476779e-39 337 286
0.022281358 0.70599997 -0.056941248 5.6434255e-39 338 286
0.023452586 0.704 -0.056779943 8.8702725e-39 339 286
0.024686933 0.704 -0.056779943 1.2725197e-38 340 286
0.02592128 0.704 -0.056779943 1.1711404e-38 341 286
0.027155625 0.704 -0.056779943 9.6042054e-39 342 286
0.028470624 0.70599997 -0.056941248 1.0802749e-38 343 286
0.029708479 0.70599997 -0.056941248 1.3097928e-38 344 286
0.030946331 0.70599997 -0.056941248 1.3190124e-38 345 286
0.032184184 0.70599997 -0.056941248 1.3006815e-38 346 286
0.033422034 0.70599997 -0.056941248 1.3099012e-38 347 286
0.034659892 0.70599997 -0.056941248 1.309973e-38 348 286
0.035897743 0.70599997 -0.056941248 1.3007535e-38 349 286
0.037030395 0.704 -0.056779943 1.3099012e-38 350 286
0.038264744 0.704 -0.056779943 1.291426e-38 351 286
0.039499093 0.704 -0.056779943 1.2362158e-38 352 286
0.040733438 0.704 -0.056779943 1.2731301e-38 353 286
0.041967787 0.704 -0.056779943 1.2080164e-38 354 286
0.043202132 0.704 -0.056779943 5.4420785e-39 355 286
0.044436477 0.704 -0.056779943 4.3429238e-39 356 286
0.045670826 0.704 -0.056779943 9.5980747e-39 357 286
-0.0099729598 0.71100003 -0.058591139 1.761046e-38 312 287
-0.0087263398 0.71100003 -0.058591139 1.8071438e-38 313 287
-0.0074797203 0.71100003 -0.058591139 1.7335315e-38 314 287
-0.0062769335 0.71600002 -0.059003171 1.4846393e-38 315 287
-0.0050215465 0.71600002 -0.059003171 1.4018074e-38 316 287
-0.0037556398 0.71399999 -0.058838356 1.4571248e-38 317 287
-0.0025037599 0.71399999 -0.058838356 1.4663446e-38 318 287
-0.0012501266 0.713 -0.058755953 1.4663446e-38 319 287
0 0.71100003 -0.058591139 1.3375945e-38 320 287
0.00124662 0.71100003 -0.058591139 1.2914966e-38 321 287
0.00248272 0.708 -0.058343921 1.1807896e-38 322 287
0.00372408 0.708 -0.058343921 1.0885941e-38 323 287
0.0049584266 0.70700002 -0.05826151 9.9683132e-39 324 287
0.0061980332 0.70700002 -0.05826151 1.0798433e-38 325 287
0.0074376399 0.70700002 -0.05826151 1.2636604e-38 326 287
0.008677247 0.70700002 -0.05826151 1.2820995e-38 327 287
0.0099308798 0.708 -0.058343921 1.3006459e-38 328 287
0.011156459 0.70700002 -0.05826151 1.3283045e-38 329 287
0.012378532 0.70599997 -0.058179103 1.3283396e-38 330 287
0.013616386 0.70599997 -0.058179103 1.3099363e-38 331 287
0.014854239 0.70599997 -0.058179103 7.2914029e-39 332 287
0.016092092 0.70599997 -0.058179103 2.036252e-39 333 287
0.017280852 0.704 -0.058014292 3.6209552e-42 334 287
0.018515198 0.704 -0.058014292 5.0628914e-42 335 287
0.019749546 0.704 -0.058014292 2.9048917e-42 336 287
0.020983893 0.704 -0.058014292 5.7859614e-42 337 287
0.022218239 0.704 -0.058014292 1.6961317e-41 338 287
0.023452586 0.704 -0.058014292 2.9693823e-39 339 287
0.024686933 0.704 -0.058014292 6.9316308e-39 340 287
0.02592128 0.704 -0.058014292 8.2223696e-39 341 287
0.027155625 0.704 -0.058014292 1.0796279e-38 342 287
0.028389972 0.704 -0.058014292 1.2548354e-38 343 287
0.029708479 0.70599997 -0.058179103 1.3006461e-38 344 287
0.030858666 0.704 -0.058014292 1.2914266e-38 345 287
0.032093015 0.704 -0.058014292 1.2455809e-38 346 287
0.03332736 0.704 -0.058014292 1.2455809e-38 347 287
0.034561705 0.704 -0.058014292 1.2548004e-38 348 287
0.035796054 0.704 -0.058014292 1.2455809e-38 349 287
0.037030395 0.704 -0.058014292 1.2638399e-38 350 287
0.038264744 0.704 -0.058014292 1.2546204e-38 351 287
0.039499093 0.704 -0.058014292 1.2638755e-38 352 287
0.040733438 0.704 -0.058014292 1.3099374e-38 353 287
0.041967787 0.704 -0.058014292 1.1994102e-38 354 287
0.043202132 0.704 -0.058014292 6.7389508e-39 355 287
0.044625837 0.70700002 -0.05826151 8.0264526e-39 356 287
0.045865446 0.70700002 -0.05826151 1.2174897e-38 357 287
0.047105055 0.70700002 -0.05826151 1.5125866e-38 358 287
-0.0099729598 0.71100003 -0.059837762 1.7335671e-38 312 288
-0.0087263398 0.71100003 -0.059837762 1.7704094e-38 313 288
-0.0074797203 0.71100003 -0.059837762 1.7243122e-38 314 288
-0.0062769335 0.71600002 -0.06025856 1.4753841e-38 315 288
-0.0050215465 0.71600002 -0.06025856 1.3926241e-38 316 288
-0.0037556398 0.71399999 -0.060090236 1.4295384e-38 317 288
-0.0025037599 0.71399999 -0.060090236 1.4202834e-38 318 288
-0.0012501266 0.713 -0.060006075 1.4018443e-38 319 288
0 0.71100003 -0.059837762 1.3374873e-38 320 288
0.00124662 0.71100003 -0.059837762 1.3374873e-38 321 288
0.00248272 0.708 -0.059585281 1.3925528e-38 322 288
0.00372408 0.708 -0.059585281 1.3372354e-38 323 288
0.0049584266 0.70700002 -0.059501119 1.1809345e-38 324 288
0.0061980332 0.70700002 -0.059501119 1.0702997e-38 325 288
0.0074376399 0.70700002 -0.059501119 1.0332785e-38 326 288
0.008677247 0.70700002 -0.059501119 1.0517178e-38 327 288
0.0099168532 0.70700002 -0.059501119 1.1257265e-38 328 288
0.011140679 0.70599997 -0.059416957 1.2455809e-38 329 288
0.012378532 0.70599997 -0.059416957 1.1623527e-38 330 288
0.013616386 0.70599997 -0.059416957 9.4104731e-39 331 288
0.014854239 0.70599997 -0.059416957 5.6220094e-40 332 288
0.016046507 0.704 -0.059248637 5.0642927e-42 333 288
0.017280852 0.704 -0.059248637 2.3999829e-39 334 288
0.018515198 0.704 -0.059248637 2.8606009e-39 335 288
0.019749546 0.704 -0.059248637 2.8602477e-39 336 288
0.020983893 0.704 -0.059248637 2.4918254e-39 337 288
0.022218239 0.704 -0.059248637 2.8455327e-40 338 288
0.023452586 0.704 -0.059248637 1.4839751e-42 339 288
0.024686933 0.704 -0.059248637 2.5589111e-41 340 288
0.02592128 0.704 -0.059248637 8.0473292e-39 341 288
0.027155625 0.704 -0.059248637 1.3189055e-38 342 288
0.028389972 0.704 -0.059248637 1.3465283e-38 343 288
0.029624319 0.704 -0.059248637 1.2546925e-38 344 288
0.030858666 0.704 -0.059248637 1.2546925e-38 345 288
0.032093015 0.704 -0.059248637 1.2362894e-38 346 288
0.03332736 0.704 -0.059248637 1.2362894e-38 347 288
0.034561705 0.704 -0.059248637 1.2546206e-38 348 288
0.035796054 0.704 -0.059248637 1.2546206e-38 349 288
0.037030395 0.704 -0.059248637 1.2362894e-38 350 288
0.038264744 0.704 -0.059248637 1.227034e-38 351 288
0.039499093 0.704 -0.059248637 1.2178144e-38 352 288
0.040733438 0.704 -0.059248637 1.2362894e-38 353 288
0.041967787 0.704 -0.059248637 1.1901909e-38 354 288
0.043386232 0.70700002 -0.059501119 9.0438458e-39 355 288
0.044625837 0.70700002 -0.059501119 1.0057631e-38 356 288
0.045865446 0.70700002 -0.059501119 1.2362163e-38 357 288
0.047105055 0.70700002 -0.059501119 1.5585043e-38 358 288
-0.0087263398 0.71100003 -0.061084379 1.7888123e-38 313 289
-0.0062769335 0.71600002 -0.061513945 1.4199584e-38 315 289
-0.0050075199 0.71399999 -0.061342116 1.3281954e-38 316 289
-0.0037556398 0.71399999 -0.061342116 1.4111354e-38 317 289
-0.0025002533 0.713 -0.061256204 1.4293951e-38 318 289
-0.0012501266 0.713 -0.061256204 1.4017724e-38 319 289
0 0.71100003 -0.061084379 1.3467071e-38 320 289
0.00124662 0.71100003 -0.061084379 1.3467071e-38 321 289
0.00248272 0.708 -0.060826641 1.3650027e-38 322 289
0.0037188199 0.70700002 -0.060740728 1.3557832e-38 323 289
0.0049584266 0.70700002 -0.060740728 1.3097926e-38 324 289
0.0061980332 0.70700002 -0.060740728 1.2452556e-38 325 289
0.0074376399 0.70700002 -0.060740728 1.1622077e-38 326 289
0.008677247 0.70700002 -0.060740728 1.1161098e-38 327 289
0.0099168532 0.70700002 -0.060740728 1.0152357e-38 328 289
0.011140679 0.70599997 -0.060654808 1.0705531e-38 329 289
0.012378532 0.70599997 -0.060654808 6.6507209e-39 330 289
0.013616386 0.70599997 -0.060654808 2.410082e-39 331 289
0.014854239 0.70599997 -0.060654808 1.0121859e-40 332 289
0.016046507 0.704 -0.060482983 4.7000251e-40 333 289
0.017280852 0.704 -0.060482983 2.9531496e-39 334 289
0.018515198 0.704 -0.060482983 2.860954e-39 335 289
0.019749546 0.704 -0.060482983 2.5854559e-39 336 289
0.020983893 0.704 -0.060482983 2.6780117e-39 337 289
0.022218239 0.704 -0.060482983 2.2166832e-39 338 289
0.023452586 0.704 -0.060482983 7.4689208e-43 339 289
0.024686933 0.704 -0.060482983 1.298687e-39 340 289
0.02592128 0.704 -0.060482983 1.2269966e-38 341 289
0.027155625 0.704 -0.060482983 1.3006105e-38 342 289
0.028389972 0.704 -0.060482983 1.2729519e-38 343 289
0.029624319 0.704 -0.060482983 1.217851e-38 344 289
0.030858666 0.704 -0.060482983 1.217851e-38 345 289
0.032093015 0.704 -0.060482983 1.217851e-38 346 289
0.03332736 0.704 -0.060482983 1.2086314e-38 347 289
0.034561705 0.704 -0.060482983 1.217851e-38 348 289
0.035796054 0.704 -0.060482983 1.217851e-38 349 289
0.037030395 0.704 -0.060482983 1.1719687e-38 350 289
0.038264744 0.704 -0.060482983 1.1719687e-38 351 289
0.039499093 0.704 -0.060482983 1.1810802e-38 352 289
0.040733438 0.704 -0.060482983 1.1902999e-38 353 289
0.041967787 0.704 -0.060482983 1.1994105e-38 354 289
0.043324865 0.70599997 -0.060654808 1.0979954e-38 355 289
0.044562716 0.70599997 -0.060654808 1.1349085e-38 356 289
0.045930319 0.708 -0.060826641 1.2271043e-38 357 289
0.047171678 0.708 -0.060826641 1.5218062e-38 358 289
-0.0050075199 0.71399999 -0.062593997 1.2913169e-38 316 290
-0.0037556398 0.71399999 -0.062593997 1.411171e-38 317 290
-0.0025002533 0.713 -0.062506333 1.4293232e-38 318 290
-0.0012501266 0.713 -0.062506333 1.3924809e-38 319 290
0 0.71100003 -0.062331002 1.3282324e-38 320 290
0.00124662 0.71100003 -0.062331002 1.3282324e-38 321 290
0.0024897333 0.70999998 -0.062243331 1.3282324e-38 322 290
0.0037188199 0.70700002 -0.061980337 1.3190127e-38 323 290
0.0049584266 0.70700002 -0.061980337 1.291426e-38 324 290
0.0062067998 0.708 -0.062068 1.3099012e-38 325 290
0.0074481601 0.708 -0.062068 1.3281604e-38 326 290
0.008689519 0.708 -0.062068 1.2636234e-38 327 290
0.0099168532 0.70700002 -0.061980337 1.1533481e-38 328 290
0.011156459 0.70700002 -0.061980337 1.0242742e-38 329 290
0.012378532 0.70599997 -0.061892662 4.4343936e-39 330 290
0.013616386 0.70599997 -0.061892662 3.9628721e-42 331 290
0.014854239 0.70599997 -0.061892662 1.5705683e-39 332 290
0.016046507 0.704 -0.061717331 2.9535028e-39 333 290
0.017280852 0.704 -0.061717331 2.7698402e-39 334 290
0.018515198 0.704 -0.061717331 2.6772858e-39 335 290
0.019749546 0.704 -0.061717331 2.5858119e-39 336 290
0.020983893 0.704 -0.061717331 2.5858119e-39 337 290
0.022218239 0.704 -0.061717331 2.5854587e-39 338 290
0.023452586 0.704 -0.061717331 3.7312374e-40 339 290
0.024686933 0.704 -0.061717331 3.8776437e-39 340 290
0.02592128 0.704 -0.061717331 1.2820618e-38 341 290
0.027155625 0.704 -0.061717331 1.21785e-38 342 290
0.028389972 0.704 -0.061717331 1.1993749e-38 343 290
0.029624319 0.704 -0.061717331 1.1810089e-38 344 290
0.030858666 0.704 -0.061717331 1.1717534e-38 345 290
0.032093015 0.704 -0.061717331 1.1901929e-38 346 290
0.03332736 0.704 -0.061717331 1.1901929e-38 347 290
0.034561705 0.704 -0.061717331 1.1902282e-38 348 290
0.035796054 0.704 -0.061717331 1.1902282e-38 349 290
0.037030395 0.704 -0.061717331 1.1810802e-38 350 290
0.038264744 0.704 -0.061717331 1.1810802e-38 351 290
0.039499093 0.704 -0.061717331 1.1718962e-38 352 290
0.040733438 0.704 -0.061717331 1.1718962e-38 353 290
0.042087011 0.70599997 -0.061892662 1.1810434e-38 354 290
0.043324865 0.70599997 -0.061892662 1.1718238e-38 355 290
0.044562716 0.70599997 -0.061892662 1.2361445e-38 356 290
0.046643924 0.71899998 -0.063032329 1.291426e-38 357 290
0.04790457 0.71899998 -0.063032329 1.5218065e-38 358 290
0.0492336 0.72000003 -0.06312 1.595563e-38 359 290
-0.0050215465 0.71600002 -0.064024724 1.34631e-38 316 291
-0.00376616 0.71600002 -0.064024724 1.447725e-38 317 291
-0.0025002533 0.713 -0.063756458 1.4201033e-38 318 291
-0.0012501266 0.713 -0.063756458 1.383261e-38 319 291
0 0.71100003 -0.063577622 1.3282324e-38 320 291
0.00124662 0.71100003 -0.063577622 1.3190127e-38 321 291
0.0024897333 0.70999998 -0.063488193 1.3189771e-38 322 291
0.00372408 0.708 -0.063309364 1.3097575e-38 323 291
0.0049654399 0.708 -0.063309364 1.2822067e-38 324 291
0.0062067998 0.708 -0.063309364 1.2914263e-38 325 291
0.0074481601 0.708 -0.063309364 1.2914266e-38 326 291
0.008689519 0.708 -0.063309364 1.2729516e-38 327 291
0.0099308798 0.708 -0.063309364 1.2454714e-38 328 291
0.01117224 0.708 -0.063309364 1.1993736e-38 329 291
0.012378532 0.70599997 -0.063130513 9.5876224e-39 330 291
0.013616386 0.70599997 -0.063130513 3.6871021e-39 331 291
0.014854239 0.70599997 -0.063130513 1.3861742e-39 332 291
0.016046507 0.704 -0.062951677 2.4928819e-39 333 291
0.017280852 0.704 -0.062951677 2.6776558e-39 334 291
0.018515198 0.704 -0.062951677 2.6776558e-39 335 291
0.019749546 0.704 -0.062951677 2.4943463e-39 336 291
0.020983893 0.704 -0.062951677 2.3095949e-39 337 291
0.022218239 0.704 -0.062951677 2.1259323e-39 338 291
0.023452586 0.704 -0.062951677 1.1114217e-39 339 291
0.024686933 0.704 -0.062951677 5.7230038e-39 340 291
0.02592128 0.704 -0.062951677 1.3283045e-38 341 291
0.027155625 0.704 -0.062951677 1.2546204e-38 342 291
0.028389972 0.704 -0.062951677 1.199303e-38 343 291
0.029624319 0.704 -0.062951677 1.1625695e-38 344 291
0.030858666 0.704 -0.062951677 1.1625695e-38 345 291
0.032093015 0.704 -0.062951677 1.1717534e-38 346 291
0.03332736 0.704 -0.062951677 1.1717534e-38 347 291
0.034561705 0.704 -0.062951677 1.171789e-38 348 291
0.035796054 0.704 -0.062951677 1.171789e-38 349 291
0.037030395 0.704 -0.062951677 1.1717888e-38 350 291
0.038264744 0.704 -0.062951677 1.1717888e-38 351 291
0.039499093 0.704 -0.062951677 1.1810083e-38 352 291
0.040733438 0.704 -0.062951677 1.1810083e-38 353 291
0.042146627 0.70700002 -0.063219935 1.1718244e-38 354 291
0.043386232 0.70700002 -0.063219935 1.1625689e-38 355 291
0.044688959 0.708 -0.063309364 1.1994105e-38 356 291
0.046124939 0.71100003 -0.063577622 1.273167e-38 357 291
0.047704693 0.71600002 -0.064024724 1.5493573e-38 358 291
0.0492336 0.72000003 -0.064382397 1.6046747e-38 359 291
-0.0050215465 0.71600002 -0.06528011 1.3463453e-38 316 292
-0.00376616 0.71600002 -0.06528011 1.4201018e-38 317 292
-0.0025002533 0.713 -0.065006584 1.3832607e-38 318 292
-0.00124662 0.71100003 -0.064824238 1.3648215e-38 319 292
0 0.71100003 -0.064824238 1.2914266e-38 320 292
0.00124662 0.71100003 -0.064824238 1.2821711e-38 321 292
0.0024897333 0.70999998 -0.064733058 1.2821711e-38 322 292
0.00372408 0.708 -0.06455072 1.2729516e-38 323 292
0.0049654399 0.708 -0.06455072 1.2362891e-38 324 292
0.0062067998 0.708 -0.06455072 1.2362891e-38 325 292
0.0074481601 0.708 -0.06455072 1.2270696e-38 326 292
0.008689519 0.708 -0.06455072 1.21785e-38 327 292
0.0099308798 0.708 -0.06455072 1.2362163e-38 328 292
0.01117224 0.708 -0.06455072 1.2915335e-38 329 292
0.0124136 0.708 -0.06455072 1.1987602e-38 330 292
0.013635674 0.70700002 -0.064459547 7.1934297e-39 331 292
0.014854239 0.70599997 -0.064368367 1.2043109e-39 332 292
0.016046507 0.704 -0.064186029 8.3516828e-40 333 292
0.017280852 0.704 -0.064186029 3.0475131e-39 334 292
0.018515198 0.704 -0.064186029 2.8631218e-39 335 292
0.019749546 0.704 -0.064186029 2.862047e-39 336 292
0.020983893 0.704 -0.064186029 2.9546014e-39 337 292
0.022218239 0.704 -0.064186029 2.3114124e-39 338 292
0.023419274 0.70300001 -0.064094849 2.0351856e-39 339 292
0.024651866 0.70300001 -0.064094849 6.9258756e-39 340 292
0.02592128 0.704 -0.064186029 1.2918952e-38 341 292
0.027155625 0.704 -0.064186029 1.2638765e-38 342 292
0.028389972 0.704 -0.064186029 1.1809004e-38 343 292
0.029624319 0.704 -0.064186029 1.1073967e-38 344 292
0.030858666 0.704 -0.064186029 1.1257998e-38 345 292
0.032093015 0.704 -0.064186029 1.1349475e-38 346 292
0.03332736 0.704 -0.064186029 1.1442029e-38 347 292
0.034561705 0.704 -0.064186029 1.1350194e-38 348 292
0.035796054 0.704 -0.064186029 1.1257998e-38 349 292
0.037030395 0.704 -0.064186029 1.1349831e-38 350 292
0.038264744 0.704 -0.064186029 1.1442027e-38 351 292
0.039499093 0.704 -0.064186029 1.1443099e-38 352 292
0.040849157 0.70599997 -0.064368367 1.162749e-38 353 292
0.042146627 0.70700002 -0.064459547 1.1534573e-38 354 292
0.043447599 0.708 -0.06455072 1.1534573e-38 355 292
0.044815198 0.70999998 -0.064733058 1.2085944e-38 356 292
0.046124939 0.71100003 -0.064824238 1.2916065e-38 357 292
0.047571439 0.71399999 -0.065097757 1.5584689e-38 358 292
0.049165215 0.71899998 -0.065553628 1.6046028e-38 359 292
-0.0062857 0.71700001 -0.066628419 1.4476529e-38 315 293
-0.0050215465 0.71600002 -0.066535495 1.2632975e-38 316 293
-0.00376616 0.71600002 -0.066535495 1.272517e-38 317 293
-0.0025002533 0.713 -0.066256717 1.3463468e-38 318 293
-0.00124662 0.71100003 -0.066070862 1.3463468e-38 319 293
0 0.71100003 -0.066070862 1.309614e-38 320 293
0.00124662 0.71100003 -0.066070862 1.309614e-38 321 293
0.0024897333 0.70999998 -0.065977924 1.2729516e-38 322 293
0.00372408 0.708 -0.065792084 1.2729516e-38 323 293
0.0049654399 0.708 -0.065792084 1.2270696e-38 324 293
0.0062067998 0.708 -0.065792084 1.2270696e-38 325 293
0.0074481601 0.708 -0.065792084 1.21785e-38 326 293
0.008689519 0.708 -0.065792084 1.21785e-38 327 293
0.0099308798 0.708 -0.065792084 1.2085947e-38 328 293
0.01117224 0.708 -0.065792084 1.2178144e-38 329 293
0.0124136 0.708 -0.065792084 1.2637306e-38 330 293
0.013635674 0.70700002 -0.065699153 1.0701199e-38 331 293
0.01487528 0.70700002 -0.065699153 3.1400786e-39 332 293
0.016092092 0.70599997 -0.065606222 1.480916e-39 333 293
0.017280852 0.704 -0.065420374 2.7785016e-39 334 293
0.018515198 0.704 -0.065420374 2.3178836e-39 335 293
0.019749546 0.704 -0.065420374 2.2249677e-39 336 293
0.020983893 0.704 -0.065420374 1.6714338e-39 337 293
0.022218239 0.704 -0.065420374 2.902986e-40 338 293
0.023419274 0.70300001 -0.065327443 9.35668e-40 339 293
0.024651866 0.70300001 -0.065327443 8.0304225e-39 340 293
0.02592128 0.704 -0.065420374 1.3100822e-38 341 293
0.027155625 0.704 -0.065420374 1.1442029e-38 342 293
0.028389972 0.704 -0.065420374 1.061191e-38 343 293
0.029624319 0.704 -0.065420374 1.125548e-38 344 293
0.030858666 0.704 -0.065420374 1.144023e-38 345 293
0.032093015 0.704 -0.065420374 1.1440224e-38 346 293
0.033422034 0.70599997 -0.065606222 1.1532422e-38 347 293
0.034659892 0.70599997 -0.065606222 1.1532422e-38 348 293
0.035897743 0.70599997 -0.065606222 1.1440224e-38 349 293
0.037135597 0.70599997 -0.065606222 1.1256909e-38 350 293
0.038373452 0.70599997 -0.065606222 1.1441301e-38 351 293
