# .PCD v.7 - Point Cloud Data file format
FIELDS x y z rgb imX imY
SIZE 4 4 4 4 4 4
TYPE F F F F F F
COUNT 1 1 1 1 1 1
WIDTH 839
HEIGHT 1
VIEWPOINT 0 0 0 1 0 0 0
POINTS 839
DATA ascii
-0.01148784 0.72799999 0.0076585598 1.522241e-38 311 234
-0.010211413 0.72799999 0.0076585598 1.4580994e-38 312 234
-0.0089349858 0.72799999 0.0076585598 1.5226363e-38 313 234
-0.0076585598 0.72799999 0.0076585598 1.5777019e-38 314 234
-0.0063821329 0.72799999 0.0076585598 1.5869215e-38 315 234
-0.0051057064 0.72799999 0.0076585598 1.5960328e-38 316 234
-0.0038292799 0.72799999 0.0076585598 1.5868133e-38 317 234
-0.0025528532 0.72799999 0.0076585598 1.595961e-38 318 234
-0.0012764266 0.72799999 0.0076585598 1.595961e-38 319 234
0 0.72799999 0.0076585598 1.5775218e-38 320 234
0.0012764266 0.72799999 0.0076585598 1.5775218e-38 321 234
0.0025493465 0.727 0.0076480396 1.5682668e-38 322 234
0.0038240198 0.727 0.0076480396 1.5406441e-38 323 234
0.0051057064 0.72799999 0.0076585598 1.4946549e-38 324 234
0.0063733663 0.727 0.0076480396 1.4946549e-38 325 234
0.0076480396 0.727 0.0076480396 1.4671041e-38 326 234
0.0089349858 0.72799999 0.0076585598 1.4763237e-38 327 234
0.010211413 0.72799999 0.0076585598 1.4854704e-38 328 234
0.01148784 0.72799999 0.0076585598 1.513165e-38 329 234
0.012799333 0.73000002 0.0076795998 1.6694281e-38 330 234
0.014079267 0.73000002 0.0076795998 1.6325857e-38 331 234
0.0153592 0.73000002 0.0076795998 1.594985e-38 332 234
0.016639132 0.73000002 0.0076795998 1.2446057e-38 333 234
0.017943613 0.73100001 0.00769012 2.2245893e-39 334 234
0.019225299 0.73100001 0.00769012 1.6714156e-39 335 234
0.020563092 0.73299998 0.0077111595 4.0778822e-39 336 234
0.021848286 0.73299998 0.0077111595 1.1269141e-38 337 234
0.023133477 0.73299998 0.0077111595 1.6693931e-38 338 234
0.024418673 0.73299998 0.0077111595 1.6048561e-38 339 234
0.025703866 0.73299998 0.0077111595 1.4669224e-38 340 234
0.02702588 0.73400003 0.0077216802 1.4669224e-38 341 234
0.028312827 0.73400003 0.0077216802 1.4301883e-38 342 234
0.029599773 0.73400003 0.0077216802 1.4301883e-38 343 234
0.030886721 0.73400003 0.0077216802 1.4209691e-38 344 234
0.032261331 0.736 0.0077427197 1.3933104e-38 345 234
0.033688545 0.73900002 0.0077742799 1.4116416e-38 346 234
0.034984261 0.73900002 0.0077742799 1.402422e-38 347 234
0.036378156 0.741 0.0077953199 1.3931306e-38 348 234
0.037728224 0.74199998 0.0078058392 1.383911e-38 349 234
0.039134398 0.74400002 0.0078268806 1.3563965e-38 350 234
0.040438879 0.74400002 0.0078268806 1.3563965e-38 351 234
0.04174336 0.74400002 0.0078268806 1.37487e-38 352 234
0.04316356 0.74599999 0.0078479191 1.2641992e-38 353 234
0.044471547 0.74599999 0.0078479191 9.8627842e-39 354 234
0.045779534 0.74599999 0.0078479191 1.4729819e-39 355 234
-0.048590127 0.74900001 0.0065662335 1.927107e-38 283 235
-0.047276881 0.74900001 0.0065662335 1.807505e-38 284 235
-0.045963634 0.74900001 0.0065662335 1.6138942e-38 285 235
-0.044650383 0.74900001 0.0065662335 1.4944366e-38 286 235
-0.043221418 0.74699998 0.0065486995 1.5313147e-38 287 235
-0.041911677 0.74699998 0.0065486995 1.5129479e-38 288 235
-0.040601939 0.74699998 0.0065486995 1.5406066e-38 289 235
-0.039239597 0.74599999 0.0065399334 1.5588306e-38 290 235
-0.037829921 0.74400002 0.0065223998 1.420537e-38 291 235
-0.036427252 0.74199998 0.0065048663 3.1508967e-39 292 235
-0.035078939 0.741 0.0064960998 7.2419105e-42 293 235
-0.033779722 0.741 0.0064960998 3.0828566e-44 294 235
-0.032480497 0.741 0.0064960998 1.0159918e-39 295 235
-0.03109712 0.73900002 0.0064785667 1.2032544e-39 296 235
-0.029761078 0.73799998 0.0064697997 1.2032544e-39 297 235
-0.028389972 0.736 0.0064522666 9.2523814e-40 298 235
-0.02709952 0.736 0.0064522666 2.2014399e-42 299 235
-0.025809066 0.736 0.0064522666 3.643376e-44 300 235
-0.024418673 0.73299998 0.0064259665 3.3631163e-44 301 235
-0.023133477 0.73299998 0.0064259665 2.5980074e-42 302 235
-0.021848286 0.73299998 0.0064259665 1.2079837e-39 303 235
-0.020506985 0.73100001 0.006408433 3.4257459e-39 304 235
-0.019225299 0.73100001 0.006408433 6.8369843e-39 305 235
-0.017919067 0.73000002 0.0063996664 8.871381e-39 306 235
-0.016639132 0.73000002 0.0063996664 1.1084435e-38 307 235
-0.01531712 0.72799999 0.0063821329 1.3292436e-38 308 235
-0.014040692 0.72799999 0.0063821329 1.3937805e-38 309 235
-0.012764266 0.72799999 0.0063821329 1.4855798e-38 310 235
-0.01148784 0.72799999 0.0063821329 1.4855798e-38 311 235
-0.010211413 0.72799999 0.0063821329 1.5224211e-38 312 235
-0.0089349858 0.72799999 0.0063821329 1.5316408e-38 313 235
-0.0076585598 0.72799999 0.0063821329 1.5501158e-38 314 235
-0.0063821329 0.72799999 0.0063821329 1.5408604e-38 315 235
-0.0051057064 0.72799999 0.0063821329 1.5683751e-38 316 235
-0.0038292799 0.72799999 0.0063821329 1.5867783e-38 317 235
-0.0025528532 0.72799999 0.0063821329 1.5683395e-38 318 235
-0.0012764266 0.72799999 0.0063821329 1.55912e-38 319 235
0 0.72799999 0.0063821329 1.55912e-38 320 235
0.0012746733 0.727 0.0063733663 1.5499003e-38 321 235
0.0025493465 0.727 0.0063733663 1.5223495e-38 322 235
0.0038240198 0.727 0.0063733663 1.5131299e-38 323 235
0.0050986931 0.727 0.0063733663 1.5038745e-38 324 235
0.0063733663 0.727 0.0063733663 1.4854354e-38 325 235
0.0076480396 0.727 0.0063733663 1.4671041e-38 326 235
0.0089349858 0.72799999 0.0063821329 1.4671041e-38 327 235
0.010211413 0.72799999 0.0063821329 1.4578842e-38 328 235
0.01148784 0.72799999 0.0063821329 1.4763234e-38 329 235
0.012764266 0.72799999 0.0063821329 1.559047e-38 330 235
0.014079267 0.73000002 0.0063996664 1.5775221e-38 331 235
0.0153592 0.73000002 0.0063996664 1.5956713e-38 332 235
0.016639132 0.73000002 0.0063996664 1.4665974e-38 333 235
0.017943613 0.73100001 0.006408433 9.0488988e-39 334 235
0.019225299 0.73100001 0.006408433 7.2049877e-39 335 235
0.020506985 0.73100001 0.006408433 1.0800635e-38 336 235
0.021788673 0.73100001 0.006408433 1.365906e-38 337 235
0.023133477 0.73299998 0.0064259665 1.5774495e-38 338 235
0.024418673 0.73299998 0.0064259665 1.503693e-38 339 235
0.025703866 0.73299998 0.0064259665 1.4301886e-38 340 235
0.026989058 0.73299998 0.0064259665 1.4209691e-38 341 235
0.028312827 0.73400003 0.006434733 1.4026022e-38 342 235
0.029599773 0.73400003 0.006434733 1.4026022e-38 343 235
0.030886721 0.73400003 0.006434733 1.3933825e-38 344 235
0.032261331 0.736 0.0064522666 1.384163e-38 345 235
0.033688545 0.73900002 0.0064785667 1.3749431e-38 346 235
0.034984261 0.73900002 0.0064785667 1.35654e-38 347 235
0.036378156 0.741 0.0064960998 1.3747996e-38 348 235
0.037728224 0.74199998 0.0065048663 1.3655442e-38 349 235
0.0390292 0.74199998 0.0065048663 1.3471052e-38 350 235
0.040438879 0.74400002 0.0065223998 1.3471052e-38 351 235
0.04185557 0.74599999 0.0065399334 1.3471765e-38 352 235
0.04316356 0.74599999 0.0065399334 1.2918952e-38 353 235
0.044471547 0.74599999 0.0065399334 9.8685646e-39 354 235
0.045779534 0.74599999 0.0065399334 9.2558846e-40 355 235
0.047087517 0.74599999 0.0065399334 7.7476951e-39 356 235
-0.048914492 0.75400001 0.0052880533 1.9272146e-38 283 236
-0.047466237 0.75199997 0.0052740262 1.7982855e-38 284 236
-0.046024997 0.75 0.00526 1.5954551e-38 285 236
-0.044650383 0.74900001 0.0052529867 1.4484466e-38 286 236
-0.043221418 0.74699998 0.0052389596 1.5037281e-38 287 236
-0.041911677 0.74699998 0.0052389596 1.5312794e-38 288 236
-0.040601939 0.74699998 0.0052389596 1.5773772e-38 289 236
-0.039239597 0.74599999 0.0052319462 1.3010078e-38 290 236
-0.037829921 0.74400002 0.0052179201 8.9531103e-39 291 236
-0.036427252 0.74199998 0.0052038929 2.9413255e-42 292 236
-0.035078939 0.741 0.0051968796 4.2038954e-44 293 236
-0.033779722 0.741 0.0051968796 6.5008057e-40 294 236
-0.032480497 0.741 0.0051968796 1.2032544e-39 295 236
-0.03109712 0.73900002 0.0051828534 1.2947199e-39 296 236
-0.029761078 0.73799998 0.0051758396 1.2947199e-39 297 236
-0.028389972 0.736 0.005161813 1.2936479e-39 298 236
-0.02709952 0.736 0.005161813 1.3858435e-39 299 236
-0.025809066 0.736 0.005161813 1.3854932e-39 300 236
-0.024418673 0.73299998 0.005140773 1.0167107e-39 301 236
-0.023133477 0.73299998 0.005140773 3.6601916e-42 302 236
-0.021848286 0.73299998 0.005140773 5.465064e-44 303 236
-0.020506985 0.73100001 0.0051267464 7.8472714e-44 304 236
-0.019225299 0.73100001 0.0051267464 1.9001607e-42 305 236
-0.017919067 0.73000002 0.0051197335 1.9171164e-41 306 236
-0.016639132 0.73000002 0.0051197335 2.7893617e-39 307 236
-0.01531712 0.72799999 0.0051057064 1.0344346e-38 308 236
-0.014040692 0.72799999 0.0051057064 1.2833628e-38 309 236
-0.012764266 0.72799999 0.0051057064 1.4948347e-38 310 236
-0.01148784 0.72799999 0.0051057064 1.4948347e-38 311 236
-0.010211413 0.72799999 0.0051057064 1.5407523e-38 312 236
-0.0089349858 0.72799999 0.0051057064 1.5407523e-38 313 236
-0.0076585598 0.72799999 0.0051057064 1.5592275e-38 314 236
-0.0063821329 0.72799999 0.0051057064 1.549972e-38 315 236
-0.0051057064 0.72799999 0.0051057064 1.5683395e-38 316 236
-0.0038292799 0.72799999 0.0051057064 1.5683395e-38 317 236
-0.0025528532 0.72799999 0.0051057064 1.5774868e-38 318 236
-0.0012764266 0.72799999 0.0051057064 1.5682671e-38 319 236
0 0.72799999 0.0051057064 1.5406804e-38 320 236
0.0012746733 0.727 0.0050986931 1.5406804e-38 321 236
0.0025493465 0.727 0.0050986931 1.5314612e-38 322 236
0.0038240198 0.727 0.0050986931 1.5222416e-38 323 236
0.0050986931 0.727 0.0050986931 1.4946552e-38 324 236
0.0063733663 0.727 0.0050986931 1.4854356e-38 325 236
0.0076480396 0.727 0.0050986931 1.4671041e-38 326 236
0.0089349858 0.72799999 0.0051057064 1.4578844e-38 327 236
0.010211413 0.72799999 0.0051057064 1.4487729e-38 328 236
0.01148784 0.72799999 0.0051057064 1.4395532e-38 329 236
0.012764266 0.72799999 0.0051057064 1.4302978e-38 330 236
0.014079267 0.73000002 0.0051197335 1.4210782e-38 331 236
0.0153592 0.73000002 0.0051197335 1.4303331e-38 332 236
0.016639132 0.73000002 0.0051197335 1.411894e-38 333 236
0.017943613 0.73100001 0.0051267464 1.4117135e-38 334 236
0.019225299 0.73100001 0.0051267464 1.4762504e-38 335 236
0.020506985 0.73100001 0.0051267464 1.5592269e-38 336 236
0.021788673 0.73100001 0.0051267464 1.49469e-38 337 236
0.023133477 0.73299998 0.005140773 1.4668876e-38 338 236
0.024418673 0.73299998 0.005140773 1.4484126e-38 339 236
0.025703866 0.73299998 0.005140773 1.4300814e-38 340 236
0.026989058 0.73299998 0.005140773 1.4208617e-38 341 236
0.028274251 0.73299998 0.005140773 1.3932753e-38 342 236
0.029599773 0.73400003 0.0051477868 1.3932753e-38 343 236
0.030886721 0.73400003 0.0051477868 1.3840558e-38 344 236
0.032348998 0.73799998 0.0051758396 1.3840558e-38 345 236
0.033688545 0.73900002 0.0051828534 1.347357e-38 346 236
0.034984261 0.73900002 0.0051828534 1.3381375e-38 347 236
0.036378156 0.741 0.0051968796 1.3563965e-38 348 236
0.037728224 0.74199998 0.0052038929 1.3471768e-38 349 236
0.0390292 0.74199998 0.0052038929 1.3378856e-38 350 236
0.040547583 0.74599999 0.0052319462 1.3286302e-38 351 236
0.04185557 0.74599999 0.0052319462 1.2919675e-38 352 236
0.04316356 0.74599999 0.0052319462 1.2827479e-38 353 236
0.044471547 0.74599999 0.0052319462 1.0056198e-38 354 236
0.045779534 0.74599999 0.0052319462 1.3898106e-39 355 236
0.047150634 0.74699998 0.0052389596 8.2093992e-39 356 236
0.048460379 0.74699998 0.0052389596 1.6967624e-38 357 236
-0.048914492 0.75400001 0.00396604 1.9455818e-38 283 237
-0.04759248 0.75400001 0.00396604 1.8074332e-38 284 237
-0.04614773 0.75199997 0.0039555198 1.5861636e-38 285 237
-0.044709999 0.75 0.003945 1.485109e-38 286 237
-0.04333714 0.74900001 0.0039397399 1.5312428e-38 287 237
-0.042023893 0.74900001 0.0039397399 1.5404994e-38 288 237
-0.040601939 0.74699998 0.0039292197 1.5404994e-38 289 237
-0.039239597 0.74599999 0.0039239596 7.946168e-39 290 237
-0.037829921 0.74400002 0.0039134403 1.4002783e-39 291 237
-0.036427252 0.74199998 0.0039029196 1.1392557e-42 292 237
-0.035078939 0.741 0.0038976599 3.6601916e-42 293 237
-0.033779722 0.741 0.0038976599 1.4783965e-39 294 237
-0.032480497 0.741 0.0038976599 1.2940038e-39 295 237
-0.03109712 0.73900002 0.00388714 1.019212e-39 296 237
-0.029761078 0.73799998 0.0038818798 9.2701639e-40 297 237
-0.028389972 0.736 0.0038713599 1.2014523e-39 298 237
-0.02709952 0.736 0.0038713599 1.2014523e-39 299 237
-0.025809066 0.736 0.0038713599 1.202174e-39 300 237
-0.024451986 0.73400003 0.0038608401 1.202174e-39 301 237
-0.023133477 0.73299998 0.0038555798 7.4299787e-40 302 237
-0.021848286 0.73299998 0.0038555798 3.7385522e-40 303 237
-0.020506985 0.73100001 0.00384506 8.3052718e-40 304 237
-0.019225299 0.73100001 0.00384506 8.3052718e-40 305 237
-0.017919067 0.73000002 0.0038397999 7.0064923e-44 306 237
-0.016639132 0.73000002 0.0038397999 2.4943995e-39 307 237
-0.01531712 0.72799999 0.0038292799 1.254732e-38 308 237
-0.014040692 0.72799999 0.0038292799 1.5313189e-38 309 237
-0.012764266 0.72799999 0.0038292799 1.5959612e-38 310 237
-0.01148784 0.72799999 0.0038292799 1.5682665e-38 311 237
-0.010211413 0.72799999 0.0038292799 1.5407879e-38 312 237
-0.0089349858 0.72799999 0.0038292799 1.5407879e-38 313 237
-0.0076585598 0.72799999 0.0038292799 1.5316411e-38 314 237
-0.0063821329 0.72799999 0.0038292799 1.5316411e-38 315 237
-0.0051057064 0.72799999 0.0038292799 1.5499723e-38 316 237
-0.0038292799 0.72799999 0.0038292799 1.5499723e-38 317 237
-0.0025528532 0.72799999 0.0038292799 1.5499e-38 318 237
-0.0012764266 0.72799999 0.0038292799 1.5406804e-38 319 237
0 0.72799999 0.0038292799 1.5131296e-38 320 237
0.0012746733 0.727 0.0038240198 1.5131296e-38 321 237
0.0025493465 0.727 0.0038240198 1.5131299e-38 322 237
0.0038240198 0.727 0.0038240198 1.5038745e-38 323 237
0.0051057064 0.72799999 0.0038292799 1.476324e-38 324 237
0.0063821329 0.72799999 0.0038292799 1.476324e-38 325 237
0.0076585598 0.72799999 0.0038292799 1.4578844e-38 326 237
0.0089349858 0.72799999 0.0038292799 1.4671041e-38 327 237
0.010211413 0.72799999 0.0038292799 1.4395176e-38 328 237
0.01148784 0.72799999 0.0038292799 1.4302981e-38 329 237
0.012764266 0.72799999 0.0038292799 1.4210429e-38 330 237
0.014040692 0.72799999 0.0038292799 1.4118233e-38 331 237
0.01531712 0.72799999 0.0038292799 1.4118233e-38 332 237
0.016639132 0.73000002 0.0038397999 1.4026038e-38 333 237
0.017919067 0.73000002 0.0038397999 1.4393376e-38 334 237
0.019225299 0.73100001 0.00384506 1.4762157e-38 335 237
0.020506985 0.73100001 0.00384506 1.5406804e-38 336 237
0.021788673 0.73100001 0.00384506 1.4853631e-38 337 237
0.023133477 0.73299998 0.0038555798 1.4393013e-38 338 237
0.024418673 0.73299998 0.0038555798 1.4208261e-38 339 237
0.025703866 0.73299998 0.0038555798 1.3841279e-38 340 237
0.026989058 0.73299998 0.0038555798 1.3841279e-38 341 237
0.028274251 0.73299998 0.0038555798 1.384056e-38 342 237
0.029559445 0.73299998 0.0038555798 1.384056e-38 343 237
0.030886721 0.73400003 0.0038608401 1.356505e-38 344 237
0.032173667 0.73400003 0.0038608401 1.356505e-38 345 237
0.033688545 0.73900002 0.00388714 1.3381375e-38 346 237
0.034984261 0.73900002 0.00388714 1.328882e-38 347 237
0.036378156 0.741 0.0038976599 1.3287737e-38 348 237
0.037728224 0.74199998 0.0039029196 1.3195541e-38 349 237
0.039134398 0.74400002 0.0039134403 1.3286658e-38 350 237
0.040547583 0.74599999 0.0039239596 1.3286658e-38 351 237
0.04185557 0.74599999 0.0039239596 1.2827479e-38 352 237
0.043221418 0.74699998 0.0039292197 1.2827479e-38 353 237
0.044531155 0.74699998 0.0039292197 9.8746938e-39 354 237
0.045840897 0.74699998 0.0039292197 1.6696429e-39 355 237
0.047150634 0.74699998 0.0039292197 8.4870749e-39 356 237
0.048460379 0.74699998 0.0039292197 1.6876877e-38 357 237
-0.048979364 0.755 0.0026475333 1.9639136e-38 283 238
-0.04759248 0.75400001 0.0026440267 1.8258365e-38 284 238
-0.046270464 0.75400001 0.0026440267 1.5861281e-38 285 238
-0.044829223 0.75199997 0.0026370131 1.4667425e-38 286 238
-0.04351072 0.75199997 0.0026370131 1.5220598e-38 287 238
-0.04208 0.75 0.00263 1.5221329e-38 288 238
-0.040710647 0.74900001 0.0026264933 1.4299012e-38 289 238
-0.039292198 0.74699998 0.0026194798 4.5352801e-39 290 238
-0.037829921 0.74400002 0.00260896 5.089516e-42 291 238
-0.036427252 0.74199998 0.0026019465 2.5573697e-42 292 238
-0.03512628 0.74199998 0.0026019465 3.778223e-40 293 238
-0.033825304 0.74199998 0.0026019465 1.1114048e-39 294 238
-0.032480497 0.741 0.0025984398 1.0192092e-39 295 238
-0.03118128 0.741 0.0025984398 7.433454e-40 296 238
-0.029801406 0.73900002 0.0025914267 7.433454e-40 297 238
-0.028389972 0.736 0.0025809065 1.01814e-39 298 238
-0.02709952 0.736 0.0025809065 9.2594439e-40 299 238
-0.025809066 0.736 0.0025809065 1.1092595e-39 300 238
-0.024451986 0.73400003 0.0025738934 1.2936507e-39 301 238
-0.023165042 0.73400003 0.0025738934 1.0188617e-39 302 238
-0.021848286 0.73299998 0.0025703865 1.2032544e-39 303 238
-0.020506985 0.73100001 0.0025633732 1.8464714e-39 304 238
-0.019225299 0.73100001 0.0025633732 1.6620801e-39 305 238
-0.017919067 0.73000002 0.0025598668 4.0637655e-44 306 238
-0.016639132 0.73000002 0.0025598668 1.4751931e-39 307 238
-0.01531712 0.72799999 0.0025528532 1.3835886e-38 308 238
-0.014040692 0.72799999 0.0025528532 1.6325168e-38 309 238
-0.012764266 0.72799999 0.0025528532 1.595961e-38 310 238
-0.01148784 0.72799999 0.0025528532 1.5683021e-38 311 238
-0.010211413 0.72799999 0.0025528532 1.5407523e-38 312 238
-0.0089349858 0.72799999 0.0025528532 1.5407523e-38 313 238
-0.0076585598 0.72799999 0.0025528532 1.5407523e-38 314 238
-0.0063821329 0.72799999 0.0025528532 1.5407523e-38 315 238
-0.0051057064 0.72799999 0.0025528532 1.5407523e-38 316 238
-0.0038292799 0.72799999 0.0025528532 1.5407523e-38 317 238
-0.0025528532 0.72799999 0.0025528532 1.5223492e-38 318 238
-0.0012764266 0.72799999 0.0025528532 1.5223492e-38 319 238
0 0.72799999 0.0025528532 1.5131296e-38 320 238
0.0012764266 0.72799999 0.0025528532 1.5039101e-38 321 238
0.0025493465 0.727 0.0025493465 1.4855433e-38 322 238
0.0038240198 0.727 0.0025493465 1.4855433e-38 323 238
0.0051057064 0.72799999 0.0025528532 1.476324e-38 324 238
0.0063821329 0.72799999 0.0025528532 1.4670685e-38 325 238
0.0076585598 0.72799999 0.0025528532 1.4487373e-38 326 238
0.0089349858 0.72799999 0.0025528532 1.4487373e-38 327 238
0.010211413 0.72799999 0.0025528532 1.4395532e-38 328 238
0.01148784 0.72799999 0.0025528532 1.4302978e-38 329 238
0.012764266 0.72799999 0.0025528532 1.4027473e-38 330 238
0.014040692 0.72799999 0.0025528532 1.4027473e-38 331 238
0.01531712 0.72799999 0.0025528532 1.4118233e-38 332 238
0.016593546 0.72799999 0.0025528532 1.4026038e-38 333 238
0.017919067 0.73000002 0.0025598668 1.411787e-38 334 238
0.019199001 0.73000002 0.0025598668 1.411787e-38 335 238
0.020478934 0.73000002 0.0025598668 1.4578844e-38 336 238
0.021788673 0.73100001 0.0025633732 1.4210063e-38 337 238
0.02307036 0.73100001 0.0025633732 1.4300461e-38 338 238
0.024352046 0.73100001 0.0025633732 1.4116068e-38 339 238
0.025703866 0.73299998 0.0025703865 1.3748725e-38 340 238
0.026989058 0.73299998 0.0025703865 1.3564694e-38 341 238
0.028274251 0.73299998 0.0025703865 1.3564694e-38 342 238
0.029559445 0.73299998 0.0025703865 1.3564694e-38 343 238
0.030886721 0.73400003 0.0025738934 1.3381021e-38 344 238
0.032173667 0.73400003 0.0025738934 1.3381021e-38 345 238
0.033688545 0.73900002 0.0025914267 1.328882e-38 346 238
0.034984261 0.73900002 0.0025914267 1.3104788e-38 347 238
0.036279973 0.73900002 0.0025914267 1.3104065e-38 348 238
0.037728224 0.74199998 0.0026019465 1.2919675e-38 349 238
0.039134398 0.74400002 0.00260896 1.2827479e-38 350 238
0.040547583 0.74599999 0.0026159731 1.2735284e-38 351 238
0.04185557 0.74599999 0.0026159731 1.2643086e-38 352 238
0.043221418 0.74699998 0.0026194798 1.2735284e-38 353 238
0.044531155 0.74699998 0.0026194798 9.784666e-39 354 238
0.045840897 0.74699998 0.0026194798 2.2249845e-39 355 238
0.047150634 0.74699998 0.0026194798 9.2246455e-39 356 238
0.048460379 0.74699998 0.0026194798 1.6876524e-38 357 238
-0.048979364 0.755 0.0013237667 1.9823525e-38 283 239
-0.04759248 0.75400001 0.0013220133 1.8443114e-38 284 239
-0.046270464 0.75400001 0.0013220133 1.5861636e-38 285 239
-0.044829223 0.75199997 0.0013185065 1.402421e-38 286 239
-0.04351072 0.75199997 0.0013185065 1.5038002e-38 287 239
-0.04208 0.75 0.001315 1.4669239e-38 288 239
-0.040710647 0.74900001 0.0013132467 1.1995566e-38 289 239
-0.039292198 0.74699998 0.0013097399 2.5948558e-39 290 239
-0.03798246 0.74699998 0.0013097399 4.9045446e-44 291 239
-0.036672719 0.74699998 0.0013097399 9.7272534e-41 292 239
-0.035362978 0.74699998 0.0013097399 1.0192274e-39 293 239
-0.033779722 0.741 0.0012992199 1.0192092e-39 294 239
-0.032480497 0.741 0.0012992199 9.2701358e-40 295 239
-0.03118128 0.741 0.0012992199 1.0181372e-39 296 239
-0.029801406 0.73900002 0.0012957134 9.2594159e-40 297 239
-0.028505694 0.73900002 0.0012957134 1.1092539e-39 298 239
-0.027209979 0.73900002 0.0012957134 1.1092539e-39 299 239
-0.025879199 0.73799998 0.0012939599 1.2007334e-39 300 239
-0.024451986 0.73400003 0.0012869467 1.3847645e-39 301 239
-0.023165042 0.73400003 0.0012869467 1.476963e-39 302 239
-0.021848286 0.73299998 0.0012851933 1.476963e-39 303 239
-0.020563092 0.73299998 0.0012851933 1.5691614e-39 304 239
-0.019225299 0.73100001 0.0012816866 1.8457497e-39 305 239
-0.017943613 0.73100001 0.0012816866 3.9236357e-44 306 239
-0.016639132 0.73000002 0.0012799334 1.4723177e-39 307 239
-0.01531712 0.72799999 0.0012764266 1.4481258e-38 308 239
-0.014040692 0.72799999 0.0012764266 1.6509562e-38 309 239
-0.012764266 0.72799999 0.0012764266 1.5684105e-38 310 239
-0.01148784 0.72799999 0.0012764266 1.5499353e-38 311 239
-0.010211413 0.72799999 0.0012764266 1.5407523e-38 312 239
-0.0089349858 0.72799999 0.0012764266 1.5407523e-38 313 239
-0.0076585598 0.72799999 0.0012764266 1.549972e-38 314 239
-0.0063821329 0.72799999 0.0012764266 1.5407523e-38 315 239
-0.0051057064 0.72799999 0.0012764266 1.549972e-38 316 239
-0.0038292799 0.72799999 0.0012764266 1.5223492e-38 317 239
-0.0025528532 0.72799999 0.0012764266 1.5132015e-38 318 239
-0.0012764266 0.72799999 0.0012764266 1.503982e-38 319 239
0 0.72799999 0.0012764266 1.503982e-38 320 239
0.0012764266 0.72799999 0.0012764266 1.503982e-38 321 239
0.0025493465 0.727 0.0012746733 1.4856152e-38 322 239
0.0038240198 0.727 0.0012746733 1.4763956e-38 323 239
0.0051057064 0.72799999 0.0012764266 1.4671404e-38 324 239
0.0063821329 0.72799999 0.0012764266 1.4487373e-38 325 239
0.0076585598 0.72799999 0.0012764266 1.4487373e-38 326 239
0.0089349858 0.72799999 0.0012764266 1.4487373e-38 327 239
0.010211413 0.72799999 0.0012764266 1.4395176e-38 328 239
0.01148784 0.72799999 0.0012764266 1.4395176e-38 329 239
0.012764266 0.72799999 0.0012764266 1.4027117e-38 330 239
0.014040692 0.72799999 0.0012764266 1.4027117e-38 331 239
0.01531712 0.72799999 0.0012764266 1.4027473e-38 332 239
0.016593546 0.72799999 0.0012764266 1.3842723e-38 333 239
0.017919067 0.73000002 0.0012799334 1.3934195e-38 334 239
0.019199001 0.73000002 0.0012799334 1.3934195e-38 335 239
0.020478934 0.73000002 0.0012799334 1.4394094e-38 336 239
0.021758866 0.73000002 0.0012799334 1.4210063e-38 337 239
0.02307036 0.73100001 0.0012816866 1.4208264e-38 338 239
0.024352046 0.73100001 0.0012816866 1.4023873e-38 339 239
0.025703866 0.73299998 0.0012851933 1.3748725e-38 340 239
0.026989058 0.73299998 0.0012851933 1.3748725e-38 341 239
0.028274251 0.73299998 0.0012851933 1.3473217e-38 342 239
0.029599773 0.73400003 0.0012869467 1.3473217e-38 343 239
0.030886721 0.73400003 0.0012869467 1.3381021e-38 344 239
0.032261331 0.736 0.0012904532 1.3104793e-38 345 239
0.033688545 0.73900002 0.0012957134 1.3288459e-38 346 239
0.034984261 0.73900002 0.0012957134 1.3103709e-38 347 239
0.036279973 0.73900002 0.0012957134 1.3010794e-38 348 239
0.037677377 0.741 0.0012992199 1.2918599e-38 349 239
0.039134398 0.74400002 0.00130448 1.2643089e-38 350 239
0.040547583 0.74599999 0.0013079866 1.2643089e-38 351 239
0.041911677 0.74699998 0.0013097399 1.2550172e-38 352 239
0.043221418 0.74699998 0.0013097399 1.2642368e-38 353 239
0.044531155 0.74699998 0.0013097399 9.6913816e-39 354 239
0.045840897 0.74699998 0.0013097399 3.0532962e-39 355 239
0.047150634 0.74699998 0.0013097399 9.9614819e-39 356 239
-0.048979364 0.755 -0 1.9456184e-38 283 240
-0.047655597 0.755 -0 1.8535307e-38 284 240
-0.046270464 0.75400001 -0 1.6599199e-38 285 240
-0.044948451 0.75400001 -0 1.5035483e-38 286 240
-0.04351072 0.75199997 -0 1.5588655e-38 287 240
-0.04219221 0.75199997 -0 1.3748006e-38 288 240
-0.040710647 0.74900001 -0 9.046029e-39 289 240
-0.039239597 0.74599999 -0 1.3012303e-39 290 240
-0.03793161 0.74599999 -0 4.3440252e-44 291 240
-0.036623627 0.74599999 -0 6.504309e-40 292 240
-0.032480497 0.741 -0 1.0184903e-39 295 240
-0.03118128 0.741 -0 1.1092539e-39 296 240
-0.029882059 0.741 -0 1.1092539e-39 297 240
-0.028505694 0.73900002 -0 1.2007362e-39 298 240
-0.027209979 0.73900002 -0 1.2007362e-39 299 240
-0.025809066 0.736 -0 1.2007362e-39 300 240
-0.024451986 0.73400003 -0 1.2007362e-39 301 240
-0.023165042 0.73400003 -0 1.1092595e-39 302 240
-0.021848286 0.73299998 -0 1.2936507e-39 303 240
-0.020563092 0.73299998 -0 1.3854932e-39 304 240
-0.019225299 0.73100001 -0 1.6620801e-39 305 240
-0.017943613 0.73100001 -0 4.9045446e-44 306 240
-0.016639132 0.73000002 -0 1.289374e-39 307 240
-0.0153592 0.73000002 -0 1.503336e-38 308 240
-0.014040692 0.72799999 -0 1.6877271e-38 309 240
-0.012764266 0.72799999 -0 1.5592275e-38 310 240
-0.01148784 0.72799999 -0 1.5407523e-38 311 240
-0.010211413 0.72799999 -0 1.55912e-38 312 240
-0.0089349858 0.72799999 -0 1.5499003e-38 313 240
-0.0076585598 0.72799999 -0 1.5591556e-38 314 240
-0.0063821329 0.72799999 -0 1.5499e-38 315 240
-0.0051057064 0.72799999 -0 1.5407523e-38 316 240
-0.0038292799 0.72799999 -0 1.5407523e-38 317 240
-0.0025528532 0.72799999 -0 1.5223489e-38 318 240
-0.0012764266 0.72799999 -0 1.5223489e-38 319 240
0 0.72799999 -0 1.5131294e-38 320 240
0.0012764266 0.72799999 -0 1.5131294e-38 321 240
0.0025528532 0.72799999 -0 1.4855789e-38 322 240
0.0038292799 0.72799999 -0 1.4855789e-38 323 240
0.0051057064 0.72799999 -0 1.4763237e-38 324 240
0.0063821329 0.72799999 -0 1.4671041e-38 325 240
0.0076585598 0.72799999 -0 1.4854356e-38 326 240
0.0089349858 0.72799999 -0 1.4761801e-38 327 240
0.010211413 0.72799999 -0 1.4395179e-38 328 240
0.01148784 0.72799999 -0 1.4302983e-38 329 240
0.012764266 0.72799999 -0 1.4211148e-38 330 240
0.014040692 0.72799999 -0 1.4027117e-38 331 240
0.01531712 0.72799999 -0 1.3934918e-38 332 240
0.016593546 0.72799999 -0 1.3934918e-38 333 240
0.017919067 0.73000002 -0 1.3657611e-38 334 240
0.019199001 0.73000002 -0 1.3749807e-38 335 240
0.020478934 0.73000002 -0 1.3933839e-38 336 240
0.021758866 0.73000002 -0 1.3933839e-38 337 240
0.02307036 0.73100001 -0 1.4116787e-38 338 240
0.024352046 0.73100001 -0 1.384056e-38 339 240
0.025703866 0.73299998 -0 1.3565413e-38 340 240
0.026989058 0.73299998 -0 1.3473217e-38 341 240
0.028274251 0.73299998 -0 1.3289905e-38 342 240
0.029599773 0.73400003 -0 1.3197709e-38 343 240
0.030886721 0.73400003 -0 1.3288826e-38 344 240
0.032348998 0.73799998 -0 1.3104793e-38 345 240
0.033688545 0.73900002 -0 1.2920396e-38 346 240
0.034984261 0.73900002 -0 1.2828201e-38 347 240
0.036279973 0.73900002 -0 1.2735286e-38 348 240
0.037677377 0.741 -0 1.2735286e-38 349 240
0.039134398 0.74400002 -0 1.2643089e-38 350 240
0.040547583 0.74599999 -0 1.2550535e-38 351 240
0.041911677 0.74699998 -0 1.2365778e-38 352 240
0.043221418 0.74699998 -0 1.2457974e-38 353 240
0.044531155 0.74699998 -0 8.8634174e-39 354 240
0.045963634 0.74900001 -0 3.2394826e-39 355 240
0.047276881 0.74900001 -0 1.0238789e-38 356 240
-0.048979364 0.755 -0.0013237667 1.8260162e-38 283 241
-0.047655597 0.755 -0.0013237667 1.890266e-38 284 241
-0.046270464 0.75400001 -0.0013220133 1.7519726e-38 285 241
-0.044948451 0.75400001 -0.0013220133 1.6139312e-38 286 241
-0.04351072 0.75199997 -0.0013185065 1.6508095e-38 287 241
-0.04219221 0.75199997 -0.0013185065 1.2737084e-38 288 241
-0.040710647 0.74900001 -0.0013132467 6.0989988e-39 289 241
-0.039239597 0.74599999 -0.0013079866 1.1562114e-41 290 241
-0.03793161 0.74599999 -0.0013079866 3.9993058e-42 291 241
-0.036623627 0.74599999 -0.0013079866 1.0188561e-39 292 241
-0.03512628 0.74199998 -0.0013009732 1.0188561e-39 293 241
-0.032480497 0.741 -0.0012992199 9.2594159e-40 295 241
-0.03118128 0.741 -0.0012992199 1.1092539e-39 296 241
-0.029801406 0.73900002 -0.0012957134 1.1092539e-39 297 241
-0.028389972 0.736 -0.0012904532 1.2007334e-39 298 241
-0.02709952 0.736 -0.0012904532 1.2007334e-39 299 241
-0.025809066 0.736 -0.0012904532 1.2007362e-39 300 241
-0.024451986 0.73400003 -0.0012869467 1.3847673e-39 301 241
-0.023165042 0.73400003 -0.0012869467 1.3847645e-39 302 241
-0.021848286 0.73299998 -0.0012851933 1.4769602e-39 303 241
-0.020563092 0.73299998 -0.0012851933 1.202174e-39 304 241
-0.019225299 0.73100001 -0.0012816866 1.3865666e-39 305 241
-0.017943613 0.73100001 -0.0012816866 4.7644148e-44 306 241
-0.016639132 0.73000002 -0.0012799334 1.7496318e-39 307 241
-0.0153592 0.73000002 -0.0012799334 1.5309592e-38 308 241
-0.014040692 0.72799999 -0.0012764266 1.6784722e-38 309 241
-0.012764266 0.72799999 -0.0012764266 1.540896e-38 310 241
-0.01148784 0.72799999 -0.0012764266 1.5224208e-38 311 241
-0.010211413 0.72799999 -0.0012764266 1.5591556e-38 312 241
-0.0089349858 0.72799999 -0.0012764266 1.5591556e-38 313 241
-0.0076585598 0.72799999 -0.0012764266 1.5499e-38 314 241
-0.0063821329 0.72799999 -0.0012764266 1.5591556e-38 315 241
-0.0051057064 0.72799999 -0.0012764266 1.5407523e-38 316 241
-0.0038292799 0.72799999 -0.0012764266 1.5407523e-38 317 241
-0.0025528532 0.72799999 -0.0012764266 1.5223492e-38 318 241
-0.0012764266 0.72799999 -0.0012764266 1.5131296e-38 319 241
0 0.72799999 -0.0012764266 1.5131296e-38 320 241
0.0012764266 0.72799999 -0.0012764266 1.5131296e-38 321 241
0.0025528532 0.72799999 -0.0012764266 1.4855433e-38 322 241
0.0038292799 0.72799999 -0.0012764266 1.4763237e-38 323 241
0.0051057064 0.72799999 -0.0012764266 1.4854356e-38 324 241
0.0063821329 0.72799999 -0.0012764266 1.4854356e-38 325 241
0.0076585598 0.72799999 -0.0012764266 1.4761804e-38 326 241
0.0089349858 0.72799999 -0.0012764266 1.4761804e-38 327 241
0.010211413 0.72799999 -0.0012764266 1.4395179e-38 328 241
0.01148784 0.72799999 -0.0012764266 1.4395179e-38 329 241
0.012764266 0.72799999 -0.0012764266 1.4211148e-38 330 241
0.014040692 0.72799999 -0.0012764266 1.4027117e-38 331 241
0.01531712 0.72799999 -0.0012764266 1.4118589e-38 332 241
0.016593546 0.72799999 -0.0012764266 1.3933839e-38 333 241
0.017919067 0.73000002 -0.0012799334 1.3749807e-38 334 241
0.019199001 0.73000002 -0.0012799334 1.3657611e-38 335 241
0.020478934 0.73000002 -0.0012799334 1.4116787e-38 336 241
0.021758866 0.73000002 -0.0012799334 1.4116787e-38 337 241
0.02307036 0.73100001 -0.0012816866 1.3932756e-38 338 241
0.024352046 0.73100001 -0.0012816866 1.384056e-38 339 241
0.025703866 0.73299998 -0.0012851933 1.3289549e-38 340 241
0.026989058 0.73299998 -0.0012851933 1.3289549e-38 341 241
0.028274251 0.73299998 -0.0012851933 1.3197353e-38 342 241
0.029599773 0.73400003 -0.0012869467 1.3197353e-38 343 241
0.030970879 0.736 -0.0012904532 1.3104793e-38 344 241
0.032348998 0.73799998 -0.0012939599 1.3012239e-38 345 241
0.033688545 0.73900002 -0.0012957134 1.2827845e-38 346 241
0.034984261 0.73900002 -0.0012957134 1.2735649e-38 347 241
0.036378156 0.741 -0.0012992199 1.2734933e-38 348 241
0.037677377 0.741 -0.0012992199 1.2642736e-38 349 241
0.039134398 0.74400002 -0.00130448 1.2457986e-38 350 241
0.040547583 0.74599999 -0.0013079866 1.2457986e-38 351 241
0.041911677 0.74699998 -0.0013097399 1.2824608e-38 352 241
0.043221418 0.74699998 -0.0013097399 1.2455824e-38 353 241
0.044650383 0.74900001 -0.0013132467 8.2184039e-39 354 241
0.045963634 0.74900001 -0.0013132467 3.423871e-39 355 241
0.047276881 0.74900001 -0.0013132467 1.0791227e-38 356 241
-0.047655597 0.755 -0.0026475333 1.8071827e-38 284 242
-0.046270464 0.75400001 -0.0026440267 1.7242065e-38 285 242
-0.044948451 0.75400001 -0.0026440267 1.5405346e-38 286 242
-0.043626439 0.75400001 -0.0026440267 1.5865965e-38 287 242
-0.042304426 0.75400001 -0.0026440267 1.3656867e-38 288 242
-0.040710647 0.74900001 -0.0026264933 7.1109773e-39 289 242
-0.039239597 0.74599999 -0.0026159731 1.5687957e-39 290 242
-0.037728224 0.74199998 -0.0026019465 2.9427268e-44 291 242
-0.036427252 0.74199998 -0.0026019465 1.2018054e-39 292 242
-0.03512628 0.74199998 -0.0026019465 1.294001e-39 293 242
-0.032348998 0.73799998 -0.0025879198 9.2594159e-40 295 242
-0.031055039 0.73799998 -0.0025879198 9.2594159e-40 296 242
-0.029761078 0.73799998 -0.0025879198 1.0181372e-39 297 242
-0.028389972 0.736 -0.0025809065 1.01814e-39 298 242
-0.02709952 0.736 -0.0025809065 1.01814e-39 299 242
-0.025809066 0.736 -0.0025809065 1.2014523e-39 300 242
-0.024451986 0.73400003 -0.0025738934 1.1092567e-39 301 242
-0.023165042 0.73400003 -0.0025738934 1.01814e-39 302 242
-0.021848286 0.73299998 -0.0025703865 1.01814e-39 303 242
-0.020563092 0.73299998 -0.0025703865 8.351935e-40 304 242
-0.019225299 0.73100001 -0.0025633732 1.1114217e-39 305 242
-0.017943613 0.73100001 -0.0025633732 5.6051939e-44 306 242
-0.016639132 0.73000002 -0.0025598668 1.9351091e-39 307 242
-0.0153592 0.73000002 -0.0025598668 1.5219194e-38 308 242
-0.014079267 0.73000002 -0.0025598668 1.6417379e-38 309 242
-0.012764266 0.72799999 -0.0025528532 1.5224208e-38 310 242
-0.01148784 0.72799999 -0.0025528532 1.5132013e-38 311 242
-0.010211413 0.72799999 -0.0025528532 1.5591556e-38 312 242
-0.0089349858 0.72799999 -0.0025528532 1.5591556e-38 313 242
-0.0076585598 0.72799999 -0.0025528532 1.5591556e-38 314 242
-0.0063821329 0.72799999 -0.0025528532 1.5499e-38 315 242
-0.0051057064 0.72799999 -0.0025528532 1.5407523e-38 316 242
-0.0038292799 0.72799999 -0.0025528532 1.5223492e-38 317 242
-0.0025528532 0.72799999 -0.0025528532 1.5131299e-38 318 242
-0.0012764266 0.72799999 -0.0025528532 1.5131299e-38 319 242
0 0.72799999 -0.0025528532 1.5222416e-38 320 242
0.0012764266 0.72799999 -0.0025528532 1.5038026e-38 321 242
0.0025528532 0.72799999 -0.0025528532 1.476324e-38 322 242
0.0038292799 0.72799999 -0.0025528532 1.476324e-38 323 242
0.0051057064 0.72799999 -0.0025528532 1.4578491e-38 324 242
0.0063821329 0.72799999 -0.0025528532 1.4578491e-38 325 242
0.0076585598 0.72799999 -0.0025528532 1.4394823e-38 326 242
0.0089349858 0.72799999 -0.0025528532 1.4302627e-38 327 242
0.010211413 0.72799999 -0.0025528532 1.4211148e-38 328 242
0.01148784 0.72799999 -0.0025528532 1.4211148e-38 329 242
0.012764266 0.72799999 -0.0025528532 1.4027117e-38 330 242
0.014040692 0.72799999 -0.0025528532 1.3934921e-38 331 242
0.01531712 0.72799999 -0.0025528532 1.3659413e-38 332 242
0.016593546 0.72799999 -0.0025528532 1.3474662e-38 333 242
0.017919067 0.73000002 -0.0025598668 1.3565062e-38 334 242
0.019199001 0.73000002 -0.0025598668 1.3565062e-38 335 242
0.020478934 0.73000002 -0.0025598668 1.3657614e-38 336 242
0.021758866 0.73000002 -0.0025598668 1.3657614e-38 337 242
0.02307036 0.73100001 -0.0025633732 1.356506e-38 338 242
0.024352046 0.73100001 -0.0025633732 1.3380668e-38 339 242
0.025703866 0.73299998 -0.0025703865 1.3197356e-38 340 242
0.026989058 0.73299998 -0.0025703865 1.3197356e-38 341 242
0.028312827 0.73400003 -0.0025738934 1.310516e-38 342 242
0.029680425 0.736 -0.0025809065 1.310516e-38 343 242
0.031055039 0.73799998 -0.0025879198 1.2920765e-38 344 242
0.032348998 0.73799998 -0.0025879198 1.2736734e-38 345 242
0.033688545 0.73900002 -0.0025914267 1.2735649e-38 346 242
0.035078939 0.741 -0.0025984398 1.2643454e-38 347 242
0.036378156 0.741 -0.0025984398 1.2642736e-38 348 242
0.037677377 0.741 -0.0025984398 1.2550541e-38 349 242
0.039134398 0.74400002 -0.00260896 1.2273958e-38 350 242
0.040547583 0.74599999 -0.0026159731 1.2273958e-38 351 242
0.041911677 0.74699998 -0.0026194798 1.2549466e-38 352 242
0.043221418 0.74699998 -0.0026194798 1.098214e-38 353 242
0.044650383 0.74900001 -0.0026264933 7.5733974e-39 354 242
0.045963634 0.74900001 -0.0026264933 4.3465504e-39 355 242
-0.047655597 0.755 -0.0039712996 1.705694e-38 284 243
-0.046270464 0.75400001 -0.00396604 1.7240971e-38 285 243
-0.044948451 0.75400001 -0.00396604 1.5037286e-38 286 243
-0.043626439 0.75400001 -0.00396604 1.5037286e-38 287 243
-0.042304426 0.75400001 -0.00396604 1.4023855e-38 288 243
-0.040982414 0.75400001 -0.00396604 9.9672468e-39 289 243
-0.039239597 0.74599999 -0.0039239596 3.0457152e-39 290 243
-0.037728224 0.74199998 -0.0039029196 1.1210388e-44 291 243
-0.036427252 0.74199998 -0.0039029196 1.1099601e-39 292 243
-0.03512628 0.74199998 -0.0039029196 1.386547e-39 293 243
-0.032348998 0.73799998 -0.0038818798 1.0184932e-39 295 243
-0.031055039 0.73799998 -0.0038818798 1.0181372e-39 296 243
-0.029761078 0.73799998 -0.0038818798 1.0181372e-39 297 243
-0.028389972 0.736 -0.0038713599 1.2014551e-39 298 243
-0.02709952 0.736 -0.0038713599 1.2014551e-39 299 243
-0.025809066 0.736 -0.0038713599 9.2631013e-40 300 243
-0.024451986 0.73400003 -0.0038608401 9.2631013e-40 301 243
-0.023165042 0.73400003 -0.0038608401 9.2666326e-40 302 243
-0.021848286 0.73299998 -0.0038555798 9.2666326e-40 303 243
-0.020563092 0.73299998 -0.0038555798 8.3519631e-40 304 243
-0.019225299 0.73100001 -0.00384506 1.2036201e-39 305 243
-0.017943613 0.73100001 -0.00384506 5.8854536e-44 306 243
-0.016639132 0.73000002 -0.0038397999 2.5804813e-39 307 243
-0.0153592 0.73000002 -0.0038397999 1.5219922e-38 308 243
-0.014079267 0.73000002 -0.0038397999 1.6141518e-38 309 243
-0.012764266 0.72799999 -0.0038292799 1.5132015e-38 310 243
-0.01148784 0.72799999 -0.0038292799 1.5132015e-38 311 243
-0.010211413 0.72799999 -0.0038292799 1.5499003e-38 312 243
-0.0089349858 0.72799999 -0.0038292799 1.5499003e-38 313 243
-0.0076585598 0.72799999 -0.0038292799 1.5407526e-38 314 243
-0.0063821329 0.72799999 -0.0038292799 1.5223495e-38 315 243
-0.0051057064 0.72799999 -0.0038292799 1.5039464e-38 316 243
-0.0038292799 0.72799999 -0.0038292799 1.5039464e-38 317 243
-0.0025528532 0.72799999 -0.0038292799 1.4855435e-38 318 243
-0.0012764266 0.72799999 -0.0038292799 1.4855435e-38 319 243
0 0.72799999 -0.0038292799 1.4946552e-38 320 243
0.0012764266 0.72799999 -0.0038292799 1.4854356e-38 321 243
0.0025528532 0.72799999 -0.0038292799 1.4670685e-38 322 243
0.0038292799 0.72799999 -0.0038292799 1.4578488e-38 323 243
0.0051057064 0.72799999 -0.0038292799 1.4302627e-38 324 243
0.0063821329 0.72799999 -0.0038292799 1.4302627e-38 325 243
0.0076585598 0.72799999 -0.0038292799 1.4026764e-38 326 243
0.0089349858 0.72799999 -0.0038292799 1.4026764e-38 327 243
0.010211413 0.72799999 -0.0038292799 1.3935287e-38 328 243
0.01148784 0.72799999 -0.0038292799 1.3935287e-38 329 243
0.012764266 0.72799999 -0.0038292799 1.365906e-38 330 243
0.014040692 0.72799999 -0.0038292799 1.3566864e-38 331 243
0.01531712 0.72799999 -0.0038292799 1.3474667e-38 332 243
0.016639132 0.73000002 -0.0038397999 1.3289917e-38 333 243
0.017919067 0.73000002 -0.0038397999 1.3380318e-38 334 243
0.019199001 0.73000002 -0.0038397999 1.3380318e-38 335 243
0.020478934 0.73000002 -0.0038397999 1.3381394e-38 336 243
0.021788673 0.73100001 -0.00384506 1.3381394e-38 337 243
0.023133477 0.73299998 -0.0038555798 1.3380671e-38 338 243
0.024418673 0.73299998 -0.0038555798 1.3288476e-38 339 243
0.025703866 0.73299998 -0.0038555798 1.3012607e-38 340 243
0.02702588 0.73400003 -0.0038608401 1.3012607e-38 341 243
0.028312827 0.73400003 -0.0038608401 1.2829295e-38 342 243
0.029680425 0.736 -0.0038713599 1.27371e-38 343 243
0.031055039 0.73799998 -0.0038818798 1.2920409e-38 344 243
0.032348998 0.73799998 -0.0038818798 1.2644182e-38 345 243
0.033688545 0.73900002 -0.00388714 1.26431e-38 346 243
0.035078939 0.741 -0.0038976599 1.2459068e-38 347 243
0.036378156 0.741 -0.0038976599 1.2366872e-38 348 243
0.037677377 0.741 -0.0038976599 1.2274677e-38 349 243
0.039134398 0.74400002 -0.0039134403 1.2365074e-38 350 243
0.040547583 0.74599999 -0.0039239596 1.2365074e-38 351 243
0.041911677 0.74699998 -0.0039292197 1.2090285e-38 352 243
0.04333714 0.74900001 -0.0039397399 9.5088078e-39 353 243
0.044650383 0.74900001 -0.0039397399 7.1127752e-39 354 243
-0.047655597 0.755 -0.0052950666 1.7793059e-38 284 244
-0.046270464 0.75400001 -0.0052880533 1.7885256e-38 285 244
-0.044948451 0.75400001 -0.0052880533 1.5772334e-38 286 244
-0.043626439 0.75400001 -0.0052880533 1.4942214e-38 287 244
-0.042304426 0.75400001 -0.0052880533 1.4116772e-38 288 244
-0.040982414 0.75400001 -0.0052880533 1.2365056e-38 289 244
-0.039239597 0.74599999 -0.0052319462 4.7070288e-39 290 244
-0.037728224 0.74199998 -0.0052038929 0 291 244
-0.036427252 0.74199998 -0.0052038929 8.3228441e-40 292 244
-0.031055039 0.73799998 -0.0051758396 1.2014523e-39 296 244
-0.029761078 0.73799998 -0.0051758396 1.2014523e-39 297 244
-0.028389972 0.736 -0.005161813 1.0177869e-39 298 244
-0.02709952 0.736 -0.005161813 1.0177869e-39 299 244
-0.025809066 0.736 -0.005161813 6.5152111e-40 300 244
-0.024451986 0.73400003 -0.0051477868 6.5152111e-40 301 244
-0.023165042 0.73400003 -0.0051477868 7.43351e-40 302 244
-0.021848286 0.73299998 -0.005140773 8.3554663e-40 303 244
-0.020563092 0.73299998 -0.005140773 1.0185086e-39 304 244
-0.019277899 0.73299998 -0.005140773 1.479128e-39 305 244
-0.017992707 0.73299998 -0.005140773 6.4459729e-44 306 244
-0.016661927 0.73100001 -0.0051267464 2.949268e-39 307 244
-0.0153592 0.73000002 -0.0051197335 1.5403237e-38 308 244
-0.014079267 0.73000002 -0.0051197335 1.6232997e-38 309 244
-0.012764266 0.72799999 -0.0051057064 1.5224211e-38 310 244
-0.01148784 0.72799999 -0.0051057064 1.5132015e-38 311 244
-0.010211413 0.72799999 -0.0051057064 1.5406807e-38 312 244
-0.0089349858 0.72799999 -0.0051057064 1.5499003e-38 313 244
-0.0076585598 0.72799999 -0.0051057064 1.5223139e-38 314 244
-0.0063821329 0.72799999 -0.0051057064 1.5130943e-38 315 244
-0.0051057064 0.72799999 -0.0051057064 1.4855435e-38 316 244
-0.0038292799 0.72799999 -0.0051057064 1.4855435e-38 317 244
-0.0025528532 0.72799999 -0.0051057064 1.4946552e-38 318 244
-0.0012764266 0.72799999 -0.0051057064 1.4946552e-38 319 244
0 0.72799999 -0.0051057064 1.4854356e-38 320 244
0.0012764266 0.72799999 -0.0051057064 1.4854356e-38 321 244
0.0025528532 0.72799999 -0.0051057064 1.4670688e-38 322 244
0.0038292799 0.72799999 -0.0051057064 1.4486296e-38 323 244
0.0051057064 0.72799999 -0.0051057064 1.430263e-38 324 244
0.0063821329 0.72799999 -0.0051057064 1.430263e-38 325 244
0.0076585598 0.72799999 -0.0051057064 1.4026764e-38 326 244
0.0089349858 0.72799999 -0.0051057064 1.4026764e-38 327 244
0.010211413 0.72799999 -0.0051057064 1.3934924e-38 328 244
0.01148784 0.72799999 -0.0051057064 1.384237e-38 329 244
0.012764266 0.72799999 -0.0051057064 1.3750174e-38 330 244
0.014040692 0.72799999 -0.0051057064 1.3657977e-38 331 244
0.01531712 0.72799999 -0.0051057064 1.3565781e-38 332 244
0.016639132 0.73000002 -0.0051197335 1.3289555e-38 333 244
0.017919067 0.73000002 -0.0051197335 1.3380315e-38 334 244
0.019199001 0.73000002 -0.0051197335 1.3472511e-38 335 244
0.020506985 0.73100001 -0.0051267464 1.3381397e-38 336 244
0.021788673 0.73100001 -0.0051267464 1.3289201e-38 337 244
0.023133477 0.73299998 -0.005140773 1.3104807e-38 338 244
0.024418673 0.73299998 -0.005140773 1.3012612e-38 339 244
0.025738932 0.73400003 -0.0051477868 1.2920412e-38 340 244
0.02702588 0.73400003 -0.0051477868 1.2920412e-38 341 244
0.028389972 0.736 -0.005161813 1.27371e-38 342 244
0.029761078 0.73799998 -0.0051758396 1.2644904e-38 343 244
0.031055039 0.73799998 -0.0051758396 1.2644182e-38 344 244
0.032392833 0.73900002 -0.0051828534 1.2551987e-38 345 244
0.033779722 0.741 -0.0051968796 1.2366872e-38 346 244
0.035078939 0.741 -0.0051968796 1.2274677e-38 347 244
0.036378156 0.741 -0.0051968796 1.2182481e-38 348 244
0.037677377 0.741 -0.0051968796 1.2090285e-38 349 244
0.039134398 0.74400002 -0.0052179201 1.2272879e-38 350 244
0.040547583 0.74599999 -0.0052319462 1.2365074e-38 351 244
0.041911677 0.74699998 -0.0052389596 1.1905171e-38 352 244
0.04333714 0.74900001 -0.0052529867 7.8482047e-39 353 244
-0.046270464 0.75400001 -0.0066100666 1.8530272e-38 285 245
-0.044948451 0.75400001 -0.0066100666 1.6506665e-38 286 245
-0.043626439 0.75400001 -0.0066100666 1.5400676e-38 287 245
-0.042304426 0.75400001 -0.0066100666 1.4484482e-38 288 245
-0.040764999 0.75 -0.006575 1.4299731e-38 289 245
-0.039292198 0.74699998 -0.0065486995 7.6601658e-39 290 245
-0.037829921 0.74400002 -0.0065223998 3.2454072e-42 291 245
-0.036525439 0.74400002 -0.0065223998 3.9586682e-42 292 245
-0.031055039 0.73799998 -0.0064697997 1.0181372e-39 296 245
-0.029761078 0.73799998 -0.0064697997 1.0181372e-39 297 245
-0.028389972 0.736 -0.0064522666 1.0181428e-39 298 245
-0.02709952 0.736 -0.0064522666 1.0181428e-39 299 245
-0.025809066 0.736 -0.0064522666 6.5152111e-40 300 245
-0.024451986 0.73400003 -0.006434733 6.5152111e-40 301 245
-0.023165042 0.73400003 -0.006434733 7.43351e-40 302 245
-0.021848286 0.73299998 -0.0064259665 8.3554663e-40 303 245
-0.020563092 0.73299998 -0.0064259665 1.0188729e-39 304 245
-0.019277899 0.73299998 -0.0064259665 1.2036229e-39 305 245
-0.017992707 0.73299998 -0.0064259665 7.0064923e-44 306 245
-0.016661927 0.73100001 -0.006408433 3.0425483e-39 307 245
-0.0153592 0.73000002 -0.0063996664 1.5218488e-38 308 245
-0.014079267 0.73000002 -0.0063996664 1.604825e-38 309 245
-0.012799333 0.73000002 -0.0063996664 1.5039464e-38 310 245
-0.01148784 0.72799999 -0.0063821329 1.5039464e-38 311 245
-0.010211413 0.72799999 -0.0063821329 1.5130946e-38 312 245
-0.0089349858 0.72799999 -0.0063821329 1.5130946e-38 313 245
-0.0076585598 0.72799999 -0.0063821329 1.4855082e-38 314 245
-0.0063821329 0.72799999 -0.0063821329 1.4855082e-38 315 245
-0.0051057064 0.72799999 -0.0063821329 1.4487739e-38 316 245
-0.0038292799 0.72799999 -0.0063821329 1.4395543e-38 317 245
-0.0025528532 0.72799999 -0.0063821329 1.4487379e-38 318 245
-0.0012764266 0.72799999 -0.0063821329 1.4394823e-38 319 245
0 0.73000002 -0.0063996664 1.4394823e-38 320 245
0.0012799334 0.73000002 -0.0063996664 1.4302627e-38 321 245
0.0025528532 0.72799999 -0.0063821329 1.430263e-38 322 245
0.0038292799 0.72799999 -0.0063821329 1.4210435e-38 323 245
0.0051057064 0.72799999 -0.0063821329 1.393529e-38 324 245
0.0063821329 0.72799999 -0.0063821329 1.393529e-38 325 245
0.0076585598 0.72799999 -0.0063821329 1.3843094e-38 326 245
0.0089349858 0.72799999 -0.0063821329 1.3843094e-38 327 245
0.010211413 0.72799999 -0.0063821329 1.3750177e-38 328 245
0.01148784 0.72799999 -0.0063821329 1.3750177e-38 329 245
0.012764266 0.72799999 -0.0063821329 1.3474667e-38 330 245
0.014040692 0.72799999 -0.0063821329 1.3382113e-38 331 245
0.0153592 0.73000002 -0.0063996664 1.3197722e-38 332 245
0.016639132 0.73000002 -0.0063996664 1.3197722e-38 333 245
0.017919067 0.73000002 -0.0063996664 1.2921139e-38 334 245
0.019199001 0.73000002 -0.0063996664 1.3013693e-38 335 245
0.020506985 0.73100001 -0.006408433 1.3013338e-38 336 245
0.021788673 0.73100001 -0.006408433 1.2921142e-38 337 245
0.023133477 0.73299998 -0.0064259665 1.3288122e-38 338 245
0.024418673 0.73299998 -0.0064259665 1.3011535e-38 339 245
0.025738932 0.73400003 -0.006434733 1.2553431e-38 340 245
0.02702588 0.73400003 -0.006434733 1.2461236e-38 341 245
0.028389972 0.736 -0.0064522666 1.2644548e-38 342 245
0.029761078 0.73799998 -0.0064697997 1.2552352e-38 343 245
0.031055039 0.73799998 -0.0064697997 1.2460154e-38 344 245
0.032392833 0.73900002 -0.0064785667 1.2183927e-38 345 245
0.033779722 0.741 -0.0064960998 1.1999532e-38 346 245
0.035078939 0.741 -0.0064960998 1.181514e-38 347 245
0.036378156 0.741 -0.0064960998 1.1631109e-38 348 245
0.037728224 0.74199998 -0.0065048663 1.1631109e-38 349 245
0.039134398 0.74400002 -0.0065223998 1.1813699e-38 350 245
0.040547583 0.74599999 -0.0065399334 1.1997731e-38 351 245
0.041911677 0.74699998 -0.0065486995 1.1812601e-38 352 245
0.043221418 0.74699998 -0.0065486995 8.2169704e-39 353 245
-0.046270464 0.75400001 -0.00793208 1.8530988e-38 285 246
-0.044948451 0.75400001 -0.00793208 1.6967276e-38 286 246
