# .PCD v.7 - Point Cloud Data file format
FIELDS x y z rgb imX imY
SIZE 4 4 4 4 4 4
TYPE F F F F F F
COUNT 1 1 1 1 1 1
WIDTH 849
HEIGHT 1
VIEWPOINT 0 0 0 1 0 0 0
POINTS 849
DATA ascii
-0.015005025 0.778 0.013640933 1.9090276e-38 309 230
-0.013640933 0.778 0.013640933 1.9273947e-38 310 230
-0.012276839 0.778 0.013640933 1.9181392e-38 311 230
-0.010912746 0.778 0.013640933 1.9642001e-38 312 230
-0.009524107 0.77600002 0.013605867 2.0564317e-38 313 230
-0.0081635201 0.77600002 0.013605867 2.0744703e-38 314 230
-0.0068204664 0.778 0.013640933 1.6134922e-38 315 230
-0.0054423464 0.77600002 0.013605867 8.8449651e-39 316 230
-0.0040817601 0.77600002 0.013605867 3.0366698e-39 317 230
-0.0027211732 0.77600002 0.013605867 3.685642e-39 318 230
-0.0013605866 0.77600002 0.013605867 3.2246638e-39 319 230
0 0.77600002 0.013605867 9.2484578e-40 320 230
0.0013570799 0.77399999 0.013570799 5.5606466e-40 321 230
0.0027141599 0.77399999 0.013570799 0 322 230
0.0040712398 0.77399999 0.013570799 5.625025e-39 323 230
0.0054283198 0.77399999 0.013570799 1.56722e-38 324 230
0.0068029333 0.77600002 0.013605867 1.8991243e-38 325 230
0.0081845606 0.778 0.013640933 1.7433651e-38 326 230
0.0095731998 0.77999997 0.013675999 1.6880477e-38 327 230
0.010940799 0.77999997 0.013675999 1.7339653e-38 328 230
0.012308398 0.77999997 0.013675999 1.7524044e-38 329 230
0.013675999 0.77999997 0.013675999 1.7614793e-38 330 230
0.015062887 0.78100002 0.013693534 1.7614793e-38 331 230
0.016432239 0.78100002 0.013693534 1.7150555e-38 332 230
0.017847179 0.78299999 0.013728599 1.3831512e-38 333 230
0.019220039 0.78299999 0.013728599 7.9331205e-39 334 230
0.0206981 0.787 0.013798732 9.6848389e-39 335 230
0.022134079 0.78899997 0.013833799 1.5497498e-38 336 230
-0.026017714 0.78100002 0.01232418 1.4737456e-41 301 231
-0.024648361 0.78100002 0.01232418 1.5788486e-39 302 231
-0.023279008 0.78100002 0.01232418 9.9686495e-39 303 231
-0.021909652 0.78100002 0.01232418 1.5308107e-38 304 231
-0.020513998 0.77999997 0.012308398 1.6598846e-38 305 231
-0.0191464 0.77999997 0.012308398 1.715417e-38 306 231
-0.017733213 0.778 0.012276839 1.8168322e-38 307 231
-0.016369121 0.778 0.012276839 1.9273947e-38 308 231
-0.014966453 0.77600002 0.01224528 1.9458338e-38 309 231
-0.013605867 0.77600002 0.01224528 1.9090632e-38 310 231
-0.01224528 0.77600002 0.01224528 1.8537458e-38 311 231
-0.010884693 0.77600002 0.01224528 1.8537458e-38 312 231
-0.0094995592 0.77399999 0.01221372 2.019662e-38 313 231
-0.0081424797 0.77399999 0.01221372 2.2127304e-38 314 231
-0.0068029333 0.77600002 0.01224528 2.0191196e-38 315 231
-0.0054283198 0.77399999 0.01221372 1.5292565e-38 316 231
-0.0040712398 0.77399999 0.01221372 5.1506855e-39 317 231
-0.0027141599 0.77399999 0.01221372 8.3369411e-40 318 231
-0.0013553266 0.773 0.012197939 2.8052874e-40 319 231
0 0.773 0.012197939 1.4012985e-45 320 231
0.0013553266 0.773 0.012197939 1.4012985e-45 321 231
0.0027106532 0.773 0.012197939 0 322 231
0.0040712398 0.77399999 0.01221372 8.2003958e-39 323 231
0.0054283198 0.77399999 0.01221372 1.6874707e-38 324 231
0.0068029333 0.77600002 0.01224528 1.7981054e-38 325 231
0.0081845606 0.778 0.012276839 1.6236195e-38 326 231
0.0095731998 0.77999997 0.012308398 1.6051805e-38 327 231
0.010940799 0.77999997 0.012308398 1.6696452e-38 328 231
0.012308398 0.77999997 0.012308398 1.6880843e-38 329 231
0.013675999 0.77999997 0.012308398 1.6696084e-38 330 231
0.015062887 0.78100002 0.01232418 1.6511334e-38 331 231
0.016432239 0.78100002 0.01232418 1.6877934e-38 332 231
0.017801592 0.78100002 0.01232418 1.5494999e-38 333 231
0.019170946 0.78100002 0.01232418 1.475239e-38 334 231
0.0206981 0.787 0.01241886 1.5674705e-38 335 231
0.022134079 0.78899997 0.012450419 1.6694621e-38 336 231
0.02360688 0.792 0.012497759 1.7063044e-38 337 231
-0.027527334 0.78500003 0.011010934 7.8396764e-40 300 232
-0.026150968 0.78500003 0.011010934 4.1955661e-39 301 232
-0.024648361 0.78100002 0.010954826 1.4206772e-38 302 232
-0.023279008 0.78100002 0.010954826 1.7526173e-38 303 232
-0.021909652 0.78100002 0.010954826 1.8720773e-38 304 232
-0.020513998 0.77999997 0.010940799 1.8720773e-38 305 232
-0.019097306 0.778 0.010912746 1.8628575e-38 306 232
-0.017733213 0.778 0.010912746 1.8812966e-38 307 232
-0.01632704 0.77600002 0.010884693 2.0562162e-38 308 232
-0.014966453 0.77600002 0.010884693 2.0654359e-38 309 232
-0.013605867 0.77600002 0.010884693 1.9550532e-38 310 232
-0.01221372 0.77399999 0.01085664 1.8812966e-38 311 232
-0.01085664 0.77399999 0.01085664 1.8628575e-38 312 232
-0.0094995592 0.77399999 0.01085664 1.9458335e-38 313 232
-0.0081424797 0.77399999 0.01085664 2.139155e-38 314 232
-0.0067853997 0.77399999 0.01085664 2.2406062e-38 315 232
-0.0054213065 0.773 0.010842613 1.9539322e-38 316 232
-0.0040659797 0.773 0.010842613 1.2440258e-38 317 232
-0.0027106532 0.773 0.010842613 9.2242069e-39 318 232
-0.0013553266 0.773 0.010842613 9.5011525e-39 319 232
0 0.773 0.010842613 9.0366165e-39 320 232
0.0013553266 0.773 0.010842613 7.0083126e-39 321 232
0.0027106532 0.773 0.010842613 3.1429513e-39 322 232
0.0040712398 0.77399999 0.01085664 9.8732337e-39 323 232
0.0054283198 0.77399999 0.01085664 1.6142562e-38 324 232
0.0068029333 0.77600002 0.010884693 1.6050007e-38 325 232
0.0081845606 0.778 0.010912746 1.4763587e-38 326 232
0.0095731998 0.77999997 0.010940799 1.4486999e-38 327 232
0.010940799 0.77999997 0.010940799 1.4580991e-38 328 232
0.012308398 0.77999997 0.010940799 1.4949772e-38 329 232
0.013693534 0.78100002 0.010954826 1.5039085e-38 330 232
0.015062887 0.78100002 0.010954826 1.5039085e-38 331 232
0.016432239 0.78100002 0.010954826 1.5774476e-38 332 232
0.017801592 0.78100002 0.010954826 1.6051063e-38 333 232
0.019170946 0.78100002 0.010954826 1.6600271e-38 334 232
0.0206981 0.787 0.011038986 1.724564e-38 335 232
0.022134079 0.78899997 0.011067039 1.8351267e-38 336 232
0.023547266 0.79000002 0.011081067 1.7429312e-38 337 232
0.024995519 0.792 0.011109119 1.5685156e-38 338 232
-0.02905098 0.78899997 0.0096836593 1.4939642e-38 299 233
-0.027597465 0.787 0.0096591124 7.679578e-39 300 233
-0.026084339 0.78299999 0.0096100196 1.2566305e-38 301 233
-0.024648361 0.78100002 0.0095854728 1.8811171e-38 302 233
-0.023279008 0.78100002 0.0095854728 1.9364344e-38 303 233
-0.021881599 0.77999997 0.0095731998 1.9363976e-38 304 233
-0.020513998 0.77999997 0.0095731998 1.9456172e-38 305 233
-0.019097306 0.778 0.0095486529 1.9273225e-38 306 233
-0.017733213 0.778 0.0095486529 1.9641647e-38 307 233
-0.01632704 0.77600002 0.009524107 2.0471412e-38 308 233
-0.014966453 0.77600002 0.009524107 2.028702e-38 309 233
-0.013605867 0.77600002 0.009524107 1.918283e-38 310 233
-0.01221372 0.77399999 0.0094995592 1.8721492e-38 311 233
-0.01085664 0.77399999 0.0094995592 1.8445981e-38 312 233
-0.0094995592 0.77399999 0.0094995592 1.8999155e-38 313 233
-0.0081424797 0.77399999 0.0094995592 2.1206086e-38 314 233
-0.0067766332 0.773 0.0094872871 2.3509886e-38 315 233
-0.0054213065 0.773 0.0094872871 2.2034402e-38 316 233
-0.0040659797 0.773 0.0094872871 1.8162186e-38 317 233
-0.0027106532 0.773 0.0094872871 1.6322589e-38 318 233
-0.0013553266 0.773 0.0094872871 1.6230394e-38 319 233
0 0.773 0.0094872871 1.5765821e-38 320 233
0.0013553266 0.773 0.0094872871 1.4751671e-38 321 233
0.0027106532 0.773 0.0094872871 1.2820969e-38 322 233
0.0040659797 0.773 0.0094872871 1.4111708e-38 323 233
0.0054283198 0.77399999 0.0094995592 1.5956716e-38 324 233
0.0067853997 0.77399999 0.0094995592 1.6141107e-38 325 233
0.0081845606 0.778 0.0095486529 1.5039085e-38 326 233
0.0095486529 0.778 0.0095486529 1.4854334e-38 327 233
0.010940799 0.77999997 0.0095731998 1.5406066e-38 328 233
0.012308398 0.77999997 0.0095731998 1.5774848e-38 329 233
0.013675999 0.77999997 0.0095731998 1.5405343e-38 330 233
0.015062887 0.78100002 0.0095854728 1.4944366e-38 331 233
0.016432239 0.78100002 0.0095854728 1.5683725e-38 332 233
0.017801592 0.78100002 0.0095854728 1.6329094e-38 333 233
0.019170946 0.78100002 0.0095854728 1.6510966e-38 334 233
0.0206981 0.787 0.0096591124 1.6695716e-38 335 233
0.022077972 0.787 0.0096591124 1.6789351e-38 336 233
0.023517458 0.78899997 0.0096836593 1.5683003e-38 337 233
0.024932399 0.79000002 0.0096959332 1.430294e-38 338 233
-0.030434359 0.78899997 0.0083002793 1.8811152e-38 298 234
-0.02905098 0.78899997 0.0083002793 1.7796999e-38 299 234
-0.027597465 0.787 0.0082792398 1.6514176e-38 300 234
-0.026084339 0.78299999 0.0082371598 1.8081143e-38 301 234
-0.024648361 0.78100002 0.0082161194 1.9271426e-38 302 234
-0.023279008 0.78100002 0.0082161194 1.8902645e-38 303 234
-0.021881599 0.77999997 0.0082055992 1.927179e-38 304 234
-0.020513998 0.77999997 0.0082055992 1.9733127e-38 305 234
-0.019097306 0.778 0.0081845606 2.0655083e-38 306 234
-0.017733213 0.778 0.0081845606 2.0747279e-38 307 234
-0.01632704 0.77600002 0.0081635201 2.0379219e-38 308 234
-0.014927879 0.77399999 0.0081424797 1.9826046e-38 309 234
-0.013570799 0.77399999 0.0081424797 1.8354879e-38 310 234
-0.01221372 0.77399999 0.0081424797 1.8262683e-38 311 234
-0.01085664 0.77399999 0.0081424797 1.8169767e-38 312 234
-0.0094995592 0.77399999 0.0081424797 1.918356e-38 313 234
-0.0081319595 0.773 0.0081319595 2.1116063e-38 314 234
-0.0067766332 0.773 0.0081319595 2.2314589e-38 315 234
-0.0054213065 0.773 0.0081319595 2.1947965e-38 316 234
-0.0040659797 0.773 0.0081319595 2.240786e-38 317 234
-0.0027106532 0.773 0.0081319595 2.2590813e-38 318 234
-0.0013553266 0.773 0.0081319595 2.1207884e-38 319 234
0 0.773 0.0081319595 1.98246e-38 320 234
0.0013553266 0.773 0.0081319595 1.9548014e-38 321 234
0.0027106532 0.773 0.0081319595 1.9088114e-38 322 234
0.0040659797 0.773 0.0081319595 1.7428233e-38 323 234
0.0054283198 0.77399999 0.0081424797 1.5954195e-38 324 234
0.0067853997 0.77399999 0.0081424797 1.6876511e-38 325 234
0.0081635201 0.77600002 0.0081635201 1.6511688e-38 326 234
0.0095486529 0.778 0.0081845606 1.6511688e-38 327 234
0.010940799 0.77999997 0.0082055992 1.7521881e-38 328 234
0.012308398 0.77999997 0.0082055992 1.7798108e-38 329 234
0.013675999 0.77999997 0.0082055992 1.6231505e-38 330 234
0.015062887 0.78100002 0.0082161194 1.549394e-38 331 234
0.016432239 0.78100002 0.0082161194 1.595996e-38 332 234
0.017801592 0.78100002 0.0082161194 1.6513134e-38 333 234
0.019170946 0.78100002 0.0082161194 1.6234752e-38 334 234
0.020645501 0.78500003 0.0082582003 1.5958163e-38 335 234
0.022077972 0.787 0.0082792398 1.5039085e-38 336 234
0.023517458 0.78899997 0.0083002793 1.2918226e-38 337 234
0.024932399 0.79000002 0.0083108004 1.1908743e-38 338 234
-0.031817738 0.78899997 0.0069168997 1.8720404e-38 297 235
-0.030434359 0.78899997 0.0069168997 1.8258703e-38 298 235
-0.02905098 0.78899997 0.0069168997 1.7152356e-38 299 235
-0.027597465 0.787 0.0068993662 1.7887044e-38 300 235
-0.026084339 0.78299999 0.0068642995 1.945437e-38 301 235
-0.024648361 0.78100002 0.0068467669 1.8628575e-38 302 235
-0.023249198 0.77999997 0.0068379994 1.8259793e-38 303 235
-0.021881599 0.77999997 0.0068379994 1.7710584e-38 304 235
-0.020461399 0.778 0.0068204664 1.8448149e-38 305 235
-0.019048214 0.77600002 0.0068029333 1.9459784e-38 306 235
-0.017687626 0.77600002 0.0068029333 1.973637e-38 307 235
-0.01632704 0.77600002 0.0068029333 1.9550901e-38 308 235
-0.014927879 0.77399999 0.0067853997 1.9090281e-38 309 235
-0.013570799 0.77399999 0.0067853997 1.8353807e-38 310 235
-0.01221372 0.77399999 0.0067853997 1.8261609e-38 311 235
-0.01085664 0.77399999 0.0067853997 1.8169411e-38 312 235
-0.0094872871 0.773 0.0067766332 1.9275759e-38 313 235
-0.0081319595 0.773 0.0067766332 2.0931317e-38 314 235
-0.0067766332 0.773 0.0067766332 2.0839121e-38 315 235
-0.0054213065 0.773 0.0067766332 2.17625e-38 316 235
-0.0040554604 0.77100003 0.0067590997 2.2867037e-38 317 235
-0.0027036399 0.77100003 0.0067590997 2.1116063e-38 318 235
-0.00135182 0.77100003 0.0067590997 1.945654e-38 319 235
0 0.77100003 0.0067590997 1.7524761e-38 320 235
0.00135182 0.77100003 0.0067590997 1.7524761e-38 321 235
0.0027106532 0.773 0.0067766332 1.7524042e-38 322 235
0.0040659797 0.773 0.0067766332 1.6971227e-38 323 235
0.0054213065 0.773 0.0067766332 1.5220227e-38 324 235
0.0067853997 0.77399999 0.0067853997 1.5220227e-38 325 235
0.0081424797 0.77399999 0.0067853997 1.6879378e-38 326 235
0.0095486529 0.778 0.0068204664 1.7248161e-38 327 235
0.010940799 0.77999997 0.0068379994 1.7247808e-38 328 235
0.012308398 0.77999997 0.0068379994 1.6879025e-38 329 235
0.013675999 0.77999997 0.0068379994 1.4669943e-38 330 235
0.015062887 0.78100002 0.0068467669 1.3563595e-38 331 235
0.016432239 0.78100002 0.0068467669 1.4488798e-38 332 235
0.017801592 0.78100002 0.0068467669 1.5134168e-38 333 235
0.019170946 0.78100002 0.0068467669 1.5499353e-38 334 235
0.0205929 0.78299999 0.0068642995 1.5038735e-38 335 235
0.021965759 0.78299999 0.0068642995 1.4669946e-38 336 235
0.023398234 0.78500003 0.0068818335 1.3010426e-38 337 235
0.024837719 0.787 0.0068993662 1.3009696e-38 338 235
-0.033243202 0.79000002 0.0055405335 1.9088831e-38 296 236
-0.031817738 0.78899997 0.0055335197 1.8351265e-38 297 236
-0.030434359 0.78899997 0.0055335197 1.7981404e-38 298 236
-0.02905098 0.78899997 0.0055335197 1.6690666e-38 299 236
-0.027597465 0.787 0.005519493 1.7888489e-38 300 236
-0.026084339 0.78299999 0.0054914397 1.9087032e-38 301 236
-0.024648361 0.78100002 0.0054774131 1.8628577e-38 302 236
-0.023249198 0.77999997 0.0054703997 1.7983208e-38 303 236
-0.021881599 0.77999997 0.0054703997 1.642164e-38 304 236
-0.020461399 0.778 0.0054563731 1.706701e-38 305 236
-0.019048214 0.77600002 0.0054423464 1.8080089e-38 306 236
-0.017687626 0.77600002 0.0054423464 1.8080089e-38 307 236
-0.016284959 0.77399999 0.0054283198 1.8170133e-38 308 236
-0.014927879 0.77399999 0.0054283198 1.7986102e-38 309 236
-0.013570799 0.77399999 0.0054283198 1.8169417e-38 310 236
-0.01221372 0.77399999 0.0054283198 1.8077221e-38 311 236
-0.010842613 0.773 0.0054213065 1.8077218e-38 312 236
-0.0094872871 0.773 0.0054213065 1.8814783e-38 313 236
-0.0081319595 0.773 0.0054213065 1.8999532e-38 314 236
-0.0067766332 0.773 0.0054213065 1.9552704e-38 315 236
-0.0054072798 0.77100003 0.0054072798 2.1577394e-38 316 236
-0.0040554604 0.77100003 0.0054072798 2.194653e-38 317 236
-0.0027036399 0.77100003 0.0054072798 1.8905531e-38 318 236
-0.00135182 0.77100003 0.0054072798 1.7154173e-38 319 236
0 0.77100003 0.0054072798 1.6052511e-38 320 236
0.00135182 0.77100003 0.0054072798 1.6052511e-38 321 236
0.0027106532 0.773 0.0054213065 1.595996e-38 322 236
0.0040659797 0.773 0.0054213065 1.6052514e-38 323 236
0.0054213065 0.773 0.0054213065 1.5774476e-38 324 236
0.0067853997 0.77399999 0.0054283198 1.5221302e-38 325 236
0.0081424797 0.77399999 0.0054283198 1.7522597e-38 326 236
0.0095486529 0.778 0.0054563731 1.7891738e-38 327 236
0.010940799 0.77999997 0.0054703997 1.651169e-38 328 236
0.012308398 0.77999997 0.0054703997 1.5313147e-38 329 236
0.013675999 0.77999997 0.0054703997 1.3658312e-38 330 236
0.015062887 0.78100002 0.0054774131 1.2367573e-38 331 236
0.016432239 0.78100002 0.0054774131 1.319986e-38 332 236
0.017801592 0.78100002 0.0054774131 1.4029261e-38 333 236
0.019170946 0.78100002 0.0054774131 1.4486643e-38 334 236
0.0205929 0.78299999 0.0054914397 1.4210416e-38 335 236
0.021965759 0.78299999 0.0054914397 1.457775e-38 336 236
0.023398234 0.78500003 0.0055054668 1.3287011e-38 337 236
0.0247746 0.78500003 0.0055054668 1.3193724e-38 338 236
-0.034715999 0.792 0.00416592 1.9271779e-38 295 237
-0.033243202 0.79000002 0.0041554002 1.8443462e-38 296 237
-0.031817738 0.78899997 0.0041501396 1.7982483e-38 297 237
-0.030434359 0.78899997 0.0041501396 1.7796296e-38 298 237
-0.02897734 0.787 0.0041396199 1.7150926e-38 299 237
-0.027527334 0.78500003 0.0041291001 1.7982486e-38 300 237
-0.026084339 0.78299999 0.0041185799 1.8996278e-38 301 237
-0.024616797 0.77999997 0.0041027996 1.9181029e-38 302 237
-0.023249198 0.77999997 0.0041027996 1.8904082e-38 303 237
-0.021881599 0.77999997 0.0041027996 1.549789e-38 304 237
-0.020461399 0.778 0.0040922803 1.4852521e-38 305 237
-0.019048214 0.77600002 0.0040817601 1.6607483e-38 306 237
-0.017687626 0.77600002 0.0040817601 1.7252853e-38 307 237
-0.016284959 0.77399999 0.0040712398 1.7525847e-38 308 237
-0.014927879 0.77399999 0.0040712398 1.7525847e-38 309 237
-0.013570799 0.77399999 0.0040712398 1.7894272e-38 310 237
-0.012197939 0.773 0.0040659797 1.8078664e-38 311 237
-0.010842613 0.773 0.0040659797 1.8534603e-38 312 237
-0.0094872871 0.773 0.0040659797 1.6967276e-38 313 237
-0.0081319595 0.773 0.0040659797 1.458566e-38 314 237
-0.0067766332 0.773 0.0040659797 1.67058e-38 315 237
-0.0054072798 0.77100003 0.0040554604 2.0103363e-38 316 237
-0.0040554604 0.77100003 0.0040554604 2.0103363e-38 317 237
-0.0027036399 0.77100003 0.0040554604 1.8353807e-38 318 237
-0.00135182 0.77100003 0.0040554604 1.7524044e-38 319 237
0 0.77100003 0.0040554604 1.7891385e-38 320 237
0.00135182 0.77100003 0.0040554604 1.7522244e-38 321 237
0.0027106532 0.773 0.0040659797 1.6603533e-38 322 237
0.0040659797 0.773 0.0040659797 1.6511337e-38 323 237
0.0054283198 0.77399999 0.0040712398 1.669536e-38 324 237
0.0067853997 0.77399999 0.0040712398 1.669536e-38 325 237
0.0081424797 0.77399999 0.0040712398 1.6788279e-38 326 237
0.009524107 0.77600002 0.0040817601 1.6696082e-38 327 237
0.010940799 0.77999997 0.0041027996 1.5867047e-38 328 237
0.012308398 0.77999997 0.0041027996 1.5221677e-38 329 237
0.013675999 0.77999997 0.0041027996 1.448448e-38 330 237
0.015062887 0.78100002 0.0041080597 1.3009348e-38 331 237
0.016432239 0.78100002 0.0041080597 1.3382098e-38 332 237
0.017801592 0.78100002 0.0041080597 1.4304053e-38 333 237
0.019170946 0.78100002 0.0041080597 1.4210419e-38 334 237
0.0205929 0.78299999 0.0041185799 1.4117865e-38 335 237
0.021965759 0.78299999 0.0041185799 1.4301167e-38 336 237
0.02333862 0.78299999 0.0041185799 1.3286655e-38 337 237
0.024711479 0.78299999 0.0041185799 1.2918935e-38 338 237
-0.034715999 0.792 0.0027772798 1.8902998e-38 295 238
-0.033243202 0.79000002 0.0027702667 1.7982483e-38 296 238
-0.031817738 0.78899997 0.0027667598 1.7705895e-38 297 238
-0.03035721 0.787 0.0027597465 1.7703747e-38 298 238
-0.0289037 0.78500003 0.0027527334 1.6873988e-38 299 238
-0.027457198 0.78299999 0.0027457199 1.7891738e-38 300 238
-0.026084339 0.78299999 0.0027457199 1.8905531e-38 301 238
-0.024616797 0.77999997 0.0027351999 1.9273594e-38 302 238
-0.023249198 0.77999997 0.0027351999 1.9273594e-38 303 238
-0.021881599 0.77999997 0.0027351999 1.5774848e-38 304 238
-0.020461399 0.778 0.0027281865 1.3193371e-38 305 238
-0.019048214 0.77600002 0.0027211732 1.5407874e-38 306 238
-0.017687626 0.77600002 0.0027211732 1.7159951e-38 307 238
-0.016284959 0.77399999 0.0027141599 1.7985751e-38 308 238
-0.014927879 0.77399999 0.0027141599 1.7985751e-38 309 238
-0.013553266 0.773 0.0027106532 1.8720437e-38 310 238
-0.012197939 0.773 0.0027106532 1.8904828e-38 311 238
-0.010842613 0.773 0.0027106532 1.8077571e-38 312 238
-0.0094872871 0.773 0.0027106532 1.5311344e-38 313 238
-0.0081319595 0.773 0.0027106532 1.3659737e-38 314 238
-0.0067766332 0.773 0.0027106532 1.6609998e-38 315 238
-0.0054072798 0.77100003 0.0027036399 1.844709e-38 316 238
-0.0040554604 0.77100003 0.0027036399 1.8816231e-38 317 238
-0.0027036399 0.77100003 0.0027036399 1.881443e-38 318 238
-0.00135182 0.77100003 0.0027036399 1.8537843e-38 319 238
0 0.773 0.0027106532 1.7523326e-38 320 238
0.0013553266 0.773 0.0027106532 1.7338934e-38 321 238
0.0027106532 0.773 0.0027106532 1.6235827e-38 322 238
0.0040659797 0.773 0.0027106532 1.6420218e-38 323 238
0.0054283198 0.77399999 0.0027141599 1.7616613e-38 324 238
0.0067853997 0.77399999 0.0027141599 1.7155635e-38 325 238
0.0081424797 0.77399999 0.0027141599 1.5592272e-38 326 238
0.009524107 0.77600002 0.0027211732 1.5407879e-38 327 238
0.010940799 0.77999997 0.0027351999 1.5039454e-38 328 238
0.012308398 0.77999997 0.0027351999 1.4854704e-38 329 238
0.013675999 0.77999997 0.0027351999 1.4577397e-38 330 238
0.015062887 0.78100002 0.0027387065 1.3010073e-38 331 238
0.016432239 0.78100002 0.0027387065 1.3473217e-38 332 238
0.017801592 0.78100002 0.0027387065 1.4487729e-38 333 238
0.019170946 0.78100002 0.0027387065 1.4026035e-38 334 238
0.0205929 0.78299999 0.0027457199 1.3933839e-38 335 238
0.021965759 0.78299999 0.0027457199 1.4117138e-38 336 238
0.02333862 0.78299999 0.0027457199 1.3287737e-38 337 238
0.024711479 0.78299999 0.0027457199 1.356215e-38 338 238
-0.036104638 0.792 0.0013886399 1.8442741e-38 294 239
-0.034628332 0.79000002 0.0013851334 1.8350546e-38 295 239
-0.033201117 0.78899997 0.0013833799 1.7982489e-38 296 239
-0.031737085 0.787 0.0013798733 1.7797739e-38 297 239
-0.03035721 0.787 0.0013798733 1.7336764e-38 298 239
-0.0289037 0.78500003 0.0013763667 1.6230056e-38 299 239
-0.027457198 0.78299999 0.0013728599 1.7800261e-38 300 239
-0.026084339 0.78299999 0.0013728599 1.8998446e-38 301 239
-0.024616797 0.77999997 0.0013675999 1.8998451e-38 302 239
-0.023249198 0.77999997 0.0013675999 1.8721866e-38 303 239
-0.021881599 0.77999997 0.0013675999 1.7709156e-38 304 239
-0.020513998 0.77999997 0.0013675999 1.6049993e-38 305 239
-0.019097306 0.778 0.0013640933 1.4114252e-38 306 239
-0.017687626 0.77600002 0.0013605866 1.5865968e-38 307 239
-0.016284959 0.77399999 0.0013570799 1.7158503e-38 308 239
-0.014927879 0.77399999 0.0013570799 1.6697884e-38 309 239
-0.013553266 0.773 0.0013553266 1.687399e-38 310 239
-0.012197939 0.773 0.0013553266 1.5214109e-38 311 239
-0.010842613 0.773 0.0013553266 1.1632513e-38 312 239
-0.0094872871 0.773 0.0013553266 1.1816545e-38 313 239
-0.0081319595 0.773 0.0013553266 1.4760343e-38 314 239
-0.0067590997 0.77100003 0.00135182 1.7710604e-38 315 239
-0.0054072798 0.77100003 0.00135182 1.7435096e-38 316 239
-0.0040554604 0.77100003 0.00135182 1.7711322e-38 317 239
-0.0027036399 0.77100003 0.00135182 1.8630039e-38 318 239
-0.0013553266 0.773 0.0013553266 1.8169061e-38 319 239
0 0.773 0.0013553266 1.5867764e-38 320 239
0.0013553266 0.773 0.0013553266 1.4761775e-38 321 239
0.0027106532 0.773 0.0013553266 1.3199132e-38 322 239
0.0040659797 0.773 0.0013553266 1.513524e-38 323 239
0.0054213065 0.773 0.0013553266 1.7341115e-38 324 239
0.0067853997 0.77399999 0.0013570799 1.6234767e-38 325 239
0.0081424797 0.77399999 0.0013570799 1.430478e-38 326 239
0.0094995592 0.77399999 0.0013570799 1.4120387e-38 327 239
0.010884693 0.77600002 0.0013605866 1.4854356e-38 328 239
0.012276839 0.778 0.0013640933 1.4946552e-38 329 239
0.013675999 0.77999997 0.0013675999 1.4210419e-38 330 239
0.015062887 0.78100002 0.0013693533 1.33803e-38 331 239
0.016432239 0.78100002 0.0013693533 1.3288826e-38 332 239
0.017801592 0.78100002 0.0013693533 1.4210782e-38 333 239
0.019170946 0.78100002 0.0013693533 1.4118589e-38 334 239
0.0205929 0.78299999 0.0013728599 1.3933839e-38 335 239
0.021965759 0.78299999 0.0013728599 1.4300817e-38 336 239
0.02333862 0.78299999 0.0013728599 1.3747643e-38 337 239
0.024711479 0.78299999 0.0013728599 1.4206804e-38 338 239
-0.036013465 0.79000002 -0 1.8074685e-38 294 240
-0.034628332 0.79000002 -0 1.7982489e-38 295 240
-0.033201117 0.78899997 -0 1.761443e-38 296 240
-0.031737085 0.787 -0 1.7798461e-38 297 240
-0.030280067 0.78500003 -0 1.7245284e-38 298 240
-0.0289037 0.78500003 -0 1.6599915e-38 299 240
-0.027457198 0.78299999 -0 1.8258363e-38 300 240
-0.026084339 0.78299999 -0 1.936507e-38 301 240
-0.024616797 0.77999997 -0 1.8354531e-38 302 240
-0.023249198 0.77999997 -0 1.7801357e-38 303 240
-0.021881599 0.77999997 -0 1.7985746e-38 304 240
-0.020513998 0.77999997 -0 1.7616963e-38 305 240
-0.019097306 0.778 -0 1.4207523e-38 306 240
-0.017687626 0.77600002 -0 1.3101175e-38 307 240
-0.016284959 0.77399999 -0 1.3832607e-38 308 240
-0.014927879 0.77399999 -0 1.291065e-38 309 240
-0.013553266 0.773 -0 1.1618097e-38 310 240
-0.012197939 0.773 -0 9.0366193e-39 311 240
-0.010842613 0.773 -0 7.6854074e-40 312 240
-0.0094872871 0.773 -0 4.8251485e-39 313 240
-0.0081319595 0.773 -0 1.3012958e-38 314 240
-0.0067590997 0.77100003 -0 1.6885174e-38 315 240
-0.0054072798 0.77100003 -0 1.7250348e-38 316 240
-0.0040554604 0.77100003 -0 1.7065956e-38 317 240
-0.0027036399 0.77100003 -0 1.7248902e-38 318 240
-0.0013553266 0.773 -0 1.7064511e-38 319 240
0 0.773 -0 1.5684455e-38 320 240
0.0013553266 0.773 -0 1.4946888e-38 321 240
0.0027106532 0.773 -0 1.3840911e-38 322 240
0.0040659797 0.773 -0 1.430153e-38 323 240
0.0054213065 0.773 -0 1.5132018e-38 324 240
0.0067853997 0.77399999 -0 1.4763237e-38 325 240
0.0081424797 0.77399999 -0 1.4303702e-38 326 240
0.0094995592 0.77399999 -0 1.4303702e-38 327 240
0.010884693 0.77600002 -0 1.4212234e-38 328 240
0.012276839 0.778 -0 1.4488461e-38 329 240
0.013640933 0.778 -0 1.3842723e-38 330 240
0.0150436 0.77999997 -0 1.3012961e-38 331 240
0.016432239 0.78100002 -0 1.3562895e-38 332 240
0.017801592 0.78100002 -0 1.4669242e-38 333 240
0.019170946 0.78100002 -0 1.4210782e-38 334 240
0.0205929 0.78299999 -0 1.3750163e-38 335 240
0.021965759 0.78299999 -0 1.375016e-38 336 240
0.02333862 0.78299999 -0 1.3473214e-38 337 240
-0.037398599 0.79000002 -0.0013851334 1.8626777e-38 293 241
-0.036013465 0.79000002 -0.0013851334 1.7982852e-38 294 241
-0.034628332 0.79000002 -0.0013851334 1.7798461e-38 295 241
-0.033201117 0.78899997 -0.0013833799 1.7430404e-38 296 241
-0.031737085 0.787 -0.0013798733 1.75226e-38 297 241
-0.030280067 0.78500003 -0.0013763667 1.7246733e-38 298 241
-0.0289037 0.78500003 -0.0013763667 1.706234e-38 299 241
-0.027457198 0.78299999 -0.0013728599 1.8259814e-38 300 241
-0.026084339 0.78299999 -0.0013728599 1.8720434e-38 301 241
-0.024616797 0.77999997 -0.0013675999 1.7341468e-38 302 241
-0.023249198 0.77999997 -0.0013675999 1.6972685e-38 303 241
-0.021881599 0.77999997 -0.0013675999 1.7525496e-38 304 241
-0.020513998 0.77999997 -0.0013675999 1.7893919e-38 305 241
-0.019097306 0.778 -0.0013640933 1.5130201e-38 306 241
-0.017687626 0.77600002 -0.0013605866 9.6902998e-39 307 241
-0.016284959 0.77399999 -0.0013570799 3.5816026e-39 308 241
-0.014927879 0.77399999 -0.0013570799 1.9285454e-39 309 241
-0.013570799 0.77399999 -0.0013570799 0 310 241
-0.012197939 0.773 -0.0013553266 0 311 241
-0.010842613 0.773 -0.0013553266 1.821688e-44 312 241
-0.0094872871 0.773 -0.0013553266 3.7062242e-40 313 241
-0.0081319595 0.773 -0.0013553266 5.4701858e-39 314 241
-0.0067590997 0.77100003 -0.00135182 1.3306814e-38 315 241
-0.0054072798 0.77100003 -0.00135182 1.6973054e-38 316 241
-0.0040554604 0.77100003 -0.00135182 1.6419882e-38 317 241
-0.0027036399 0.77100003 -0.00135182 1.6144725e-38 318 241
-0.0013553266 0.773 -0.0013553266 1.6144725e-38 319 241
0 0.773 -0.0013553266 1.5683749e-38 320 241
0.0013553266 0.773 -0.0013553266 1.5499356e-38 321 241
0.0027106532 0.773 -0.0013553266 1.5774145e-38 322 241
0.0040659797 0.773 -0.0013553266 1.4483406e-38 323 241
0.0054283198 0.77399999 -0.0013570799 1.1448866e-38 324 241
0.0067853997 0.77399999 -0.0013570799 1.1725093e-38 325 241
0.0081424797 0.77399999 -0.0013570799 1.3197353e-38 326 241
0.0094995592 0.77399999 -0.0013570799 1.4211504e-38 327 241
0.01085664 0.77399999 -0.0013570799 1.4855435e-38 328 241
0.01224528 0.77600002 -0.0013605866 1.5223858e-38 329 241
0.013640933 0.778 -0.0013640933 1.430153e-38 330 241
0.0150436 0.77999997 -0.0013675999 1.2181029e-38 331 241
0.016432239 0.78100002 -0.0013693533 1.1898331e-38 332 241
0.017847179 0.78299999 -0.0013728599 1.3742244e-38 333 241
0.019220039 0.78299999 -0.0013728599 1.4487373e-38 334 241
0.0205929 0.78299999 -0.0013728599 1.4026035e-38 335 241
0.021965759 0.78299999 -0.0013728599 1.3840558e-38 336 241
0.02333862 0.78299999 -0.0013728599 1.3471415e-38 337 241
-0.037398599 0.79000002 -0.0027702667 1.7983208e-38 293 242
-0.035967879 0.78899997 -0.0027667598 1.7432202e-38 294 242
-0.034584496 0.78899997 -0.0027667598 1.7247452e-38 295 242
-0.033116959 0.787 -0.0027597465 1.7246739e-38 296 242
-0.031737085 0.787 -0.0027597465 1.743113e-38 297 242
-0.030280067 0.78500003 -0.0027527334 1.7155985e-38 298 242
-0.0289037 0.78500003 -0.0027527334 1.7340735e-38 299 242
-0.027457198 0.78299999 -0.0027457199 1.7708806e-38 300 242
-0.026084339 0.78299999 -0.0027457199 1.761661e-38 301 242
-0.024616797 0.77999997 -0.0027351999 1.6790095e-38 302 242
-0.023249198 0.77999997 -0.0027351999 1.6697899e-38 303 242
-0.021881599 0.77999997 -0.0027351999 1.7433666e-38 304 242
-0.020461399 0.778 -0.0027281865 1.7986481e-38 305 242
-0.019097306 0.778 -0.0027281865 1.4669227e-38 306 242
-0.017687626 0.77600002 -0.0027211732 9.0449332e-39 307 242
-0.01632704 0.77600002 -0.0027211732 1.4012985e-45 308 242
-0.014966453 0.77600002 -0.0027211732 1.1210388e-44 309 242
-0.013605867 0.77600002 -0.0027211732 2.1019477e-44 310 242
-0.012197939 0.773 -0.0027106532 2.2420775e-44 311 242
-0.010842613 0.773 -0.0027106532 2.3822074e-44 312 242
-0.0094872871 0.773 -0.0027106532 7.0064923e-45 313 242
-0.0081109209 0.77100003 -0.0027036399 1.1340961e-39 314 242
-0.0067590997 0.77100003 -0.0027036399 1.1552202e-38 315 242
-0.0053932532 0.76899999 -0.0026966266 1.6145824e-38 316 242
-0.0040449398 0.76899999 -0.0026966266 1.6329855e-38 317 242
-0.0026966266 0.76899999 -0.0026966266 1.5868508e-38 318 242
-0.0013553266 0.773 -0.0027106532 1.5684117e-38 319 242
0 0.773 -0.0027106532 1.55912e-38 320 242
0.0013553266 0.773 -0.0027106532 1.5499003e-38 321 242
0.0027106532 0.773 -0.0027106532 1.5776663e-38 322 242
0.0040659797 0.773 -0.0027106532 1.4946902e-38 323 242
0.0054283198 0.77399999 -0.0027141599 1.2920394e-38 324 242
0.0067766332 0.773 -0.0027106532 1.2459774e-38 325 242
0.0081319595 0.773 -0.0027106532 1.1909487e-38 326 242
0.0094995592 0.77399999 -0.0027141599 1.2462661e-38 327 242
0.01085664 0.77399999 -0.0027141599 1.4206816e-38 328 242
0.01221372 0.77399999 -0.0027141599 1.3469251e-38 329 242
0.013640933 0.778 -0.0027281865 1.1710688e-38 330 242
0.015005025 0.778 -0.0027281865 8.206895e-39 331 242
0.016432239 0.78100002 -0.0027387065 4.8043097e-39 332 242
0.017847179 0.78299999 -0.0027457199 9.0453101e-39 333 242
0.019220039 0.78299999 -0.0027457199 1.3843094e-38 334 242
0.0205929 0.78299999 -0.0027457199 1.3843094e-38 335 242
0.021965759 0.78299999 -0.0027457199 1.3197353e-38 336 242
-0.037351258 0.78899997 -0.0041501396 1.7524032e-38 293 243
-0.035967879 0.78899997 -0.0041501396 1.7156341e-38 294 243
-0.034584496 0.78899997 -0.0041501396 1.6971591e-38 295 243
-0.033116959 0.787 -0.0041396199 1.6971238e-38 296 243
-0.031737085 0.787 -0.0041396199 1.7155988e-38 297 243
-0.030280067 0.78500003 -0.0041291001 1.7065234e-38 298 243
-0.028830061 0.78299999 -0.0041185799 1.7065234e-38 299 243
-0.027457198 0.78299999 -0.0041185799 1.6881209e-38 300 243
-0.026084339 0.78299999 -0.0041185799 1.6697177e-38 301 243
-0.024616797 0.77999997 -0.0041027996 1.6053973e-38 302 243
-0.023249198 0.77999997 -0.0041027996 1.6053973e-38 303 243
-0.021881599 0.77999997 -0.0041027996 1.7341115e-38 304 243
-0.020461399 0.778 -0.0040922803 1.7710256e-38 305 243
-0.019097306 0.778 -0.0040922803 1.3103346e-38 306 243
-0.017733213 0.778 -0.0040922803 7.9403905e-39 307 243
-0.016369121 0.778 -0.0040922803 2.1019477e-44 308 243
-0.015005025 0.778 -0.0040922803 4.7644148e-44 309 243
-0.01216638 0.77100003 -0.0040554604 1.4787622e-39 311 243
-0.01081456 0.77100003 -0.0040554604 1.2036047e-39 312 243
-0.0094627403 0.77100003 -0.0040554604 5.6051939e-45 313 243
-0.0081109209 0.77100003 -0.0040554604 1.3009655e-41 314 243
-0.0067590997 0.77100003 -0.0040554604 9.4184044e-39 315 243
-0.0053932532 0.76899999 -0.0040449398 1.3569398e-38 316 243
-0.0040449398 0.76899999 -0.0040449398 1.4952324e-38 317 243
-0.0026966266 0.76899999 -0.0040449398 1.5683764e-38 318 243
-0.0013553266 0.773 -0.0040659797 1.5407176e-38 319 243
0 0.773 -0.0040659797 1.5223139e-38 320 243
0.0013553266 0.773 -0.0040659797 1.5499726e-38 321 243
0.0027106532 0.773 -0.0040659797 1.5409323e-38 322 243
0.0040659797 0.773 -0.0040659797 1.4948703e-38 323 243
0.0054283198 0.77399999 -0.0040712398 1.457777e-38 324 243
0.0067766332 0.773 -0.0040659797 1.4301183e-38 325 243
0.0081319595 0.773 -0.0040659797 1.2922561e-38 326 243
0.0094995592 0.77399999 -0.0040712398 1.1539627e-38 327 243
0.01085664 0.77399999 -0.0040712398 1.0337104e-38 328 243
0.01221372 0.77399999 -0.0040712398 6.1883008e-39 329 243
0.013640933 0.778 -0.0040922803 3.0410433e-39 330 243
0.015005025 0.778 -0.0040922803 1.9618179e-44 331 243
0.016432239 0.78100002 -0.0041080597 4.0637655e-44 332 243
0.017847179 0.78299999 -0.0041185799 4.7928037e-39 333 243
0.019269135 0.78500003 -0.0041291001 1.1540024e-38 334 243
0.020645501 0.78500003 -0.0041291001 1.2922958e-38 335 243
0.022021867 0.78500003 -0.0041291001 1.3380666e-38 336 243
-0.037351258 0.78899997 -0.0055335197 1.6971944e-38 293 244
-0.035967879 0.78899997 -0.0055335197 1.6603533e-38 294 244
-0.034584496 0.78899997 -0.0055335197 1.6695729e-38 295 244
-0.033116959 0.787 -0.005519493 1.6878692e-38 296 244
-0.031656433 0.78500003 -0.0055054668 1.6970887e-38 297 244
-0.030280067 0.78500003 -0.0055054668 1.6513155e-38 298 244
-0.028830061 0.78299999 -0.0054914397 1.6513155e-38 299 244
-0.027457198 0.78299999 -0.0054914397 1.6236935e-38 300 244
-0.026084339 0.78299999 -0.0054914397 1.5960707e-38 301 244
-0.024616797 0.77999997 -0.0054703997 1.5777032e-38 302 244
-0.023249198 0.77999997 -0.0054703997 1.5869227e-38 303 244
-0.021881599 0.77999997 -0.0054703997 1.6789742e-38 304 244
-0.020461399 0.778 -0.0054563731 1.7158524e-38 305 244
-0.019097306 0.778 -0.0054563731 1.0986453e-38 306 244
-0.017733213 0.778 -0.0054563731 5.1781285e-39 307 244
-0.016369121 0.778 -0.0054563731 2.6624671e-44 308 244
-0.014966453 0.77600002 -0.0054423464 9.3325076e-41 309 244
-0.0094872871 0.773 -0.0054213065 7.4268819e-43 313 244
-0.0081109209 0.77100003 -0.0054072798 5.8854536e-44 314 244
-0.0067590997 0.77100003 -0.0054072798 3.7836908e-39 315 244
-0.0053932532 0.76899999 -0.0053932532 6.9457082e-39 316 244
-0.0040449398 0.76899999 -0.0053932532 1.0172555e-38 317 244
-0.0027106532 0.773 -0.0054213065 1.328668e-38 318 244
-0.0013553266 0.773 -0.0054213065 1.3194485e-38 319 244
0 0.773 -0.0054213065 1.2003485e-38 320 244
0.0013553266 0.773 -0.0054213065 1.421582e-38 321 244
0.0027106532 0.773 -0.0054213065 1.5226013e-38 322 244
0.0040659797 0.773 -0.0054213065 1.485687e-38 323 244
0.0054283198 0.77399999 -0.0054283198 1.4670688e-38 324 244
0.0067853997 0.77399999 -0.0054283198 1.4762884e-38 325 244
0.0081424797 0.77399999 -0.0054283198 1.4578123e-38 326 244
0.0094995592 0.77399999 -0.0054283198 1.2918243e-38 327 244
0.01085664 0.77399999 -0.0054283198 7.2964378e-39 328 244
0.01221372 0.77399999 -0.0054283198 7.5810247e-42 329 244
0.013605867 0.77600002 -0.0054423464 7.3848429e-43 330 244
0.014966453 0.77600002 -0.0054423464 3.6195539e-42 331 244
0.016516401 0.78500003 -0.0055054668 1.4965868e-42 332 244
0.017892767 0.78500003 -0.0055054668 7.4374336e-40 333 244
0.019269135 0.78500003 -0.0055054668 6.1069442e-39 334 244
0.020645501 0.78500003 -0.0055054668 9.8869636e-39 335 244
-0.035876706 0.787 -0.0068993662 1.6510981e-38 294 245
-0.034496833 0.787 -0.0068993662 1.6510981e-38 295 245
-0.033116959 0.787 -0.0068993662 1.6235842e-38 296 245
-0.031656433 0.78500003 -0.0068818335 1.6328038e-38 297 245
-0.030280067 0.78500003 -0.0068818335 1.5685562e-38 298 245
-0.028830061 0.78299999 -0.0068642995 1.5685562e-38 299 245
-0.027457198 0.78299999 -0.0068642995 1.5593013e-38 300 245
-0.026084339 0.78299999 -0.0068642995 1.5500817e-38 301 245
-0.024616797 0.77999997 -0.0068379994 1.5133111e-38 302 245
-0.023249198 0.77999997 -0.0068379994 1.5317502e-38 303 245
-0.021825492 0.778 -0.0068204664 1.6421685e-38 304 245
-0.020461399 0.778 -0.0068204664 1.6790109e-38 305 245
-0.019048214 0.77600002 -0.0068029333 9.4223729e-39 306 245
-0.017687626 0.77600002 -0.0068029333 1.770137e-39 307 245
-0.01632704 0.77600002 -0.0068029333 4.0637655e-44 308 245
-0.014966453 0.77600002 -0.0068029333 5.5574796e-40 309 245
-0.013570799 0.77399999 -0.0067853997 1.5709579e-39 310 245
-0.010842613 0.773 -0.0067766332 1.29545e-39 312 245
-0.0094872871 0.773 -0.0067766332 1.1084271e-42 313 245
-0.0081319595 0.773 -0.0067766332 1.5414283e-44 314 245
-0.0067590997 0.77100003 -0.0067590997 1.9368663e-39 315 245
-0.0054072798 0.77100003 -0.0067590997 5.2850546e-39 316 245
-0.0040554604 0.77100003 -0.0067590997 1.0355813e-38 317 245
-0.0027106532 0.773 -0.0067766332 1.2460144e-38 318 245
-0.0013553266 0.773 -0.0067766332 1.255234e-38 319 245
0 0.773 -0.0067766332 1.2645254e-38 320 245
0.0013553266 0.773 -0.0067766332 1.4489167e-38 321 245
0.0027106532 0.773 -0.0067766332 1.5040546e-38 322 245
0.0040659797 0.773 -0.0067766332 1.4763959e-38 323 245
0.0054283198 0.77399999 -0.0067853997 1.4670688e-38 324 245
0.0067853997 0.77399999 -0.0067853997 1.4578491e-38 325 245
0.0081424797 0.77399999 -0.0067853997 1.5038026e-38 326 245
0.0094995592 0.77399999 -0.0067853997 1.4023873e-38 327 245
0.01085664 0.77399999 -0.0067853997 7.4740117e-39 328 245
0.01221372 0.77399999 -0.0067853997 2.3822074e-44 329 245
0.013605867 0.77600002 -0.0068029333 7.6931286e-43 330 245
0.014966453 0.77600002 -0.0068029333 2.1227093e-39 331 245
0.01632704 0.77600002 -0.0068029333 5.6219814e-40 332 245
0.017687626 0.77600002 -0.0068029333 7.582426e-42 333 245
0.019048214 0.77600002 -0.0068029333 3.708357e-39 334 245
-0.035876706 0.787 -0.0082792398 1.6236922e-38 294 246
-0.034496833 0.787 -0.0082792398 1.5591553e-38 295 246
-0.033116959 0.787 -0.0082792398 1.4027117e-38 296 246
-0.031737085 0.787 -0.0082792398 1.4672486e-38 297 246
-0.030280067 0.78500003 -0.0082582003 1.4765773e-38 298 246
-0.028830061 0.78299999 -0.0082371598 1.4765773e-38 299 246
-0.027457198 0.78299999 -0.0082371598 1.5316073e-38 300 246
-0.026084339 0.78299999 -0.0082371598 1.5039846e-38 301 246
-0.024616797 0.77999997 -0.0082055992 1.494837e-38 302 246
-0.023249198 0.77999997 -0.0082055992 1.5040565e-38 303 246
-0.021825492 0.778 -0.0081845606 1.5318577e-38 304 246
-0.0204088 0.77600002 -0.0081635201 1.5871751e-38 305 246
-0.019048214 0.77600002 -0.0081635201 7.4902023e-39 306 246
-0.017687626 0.77600002 -0.0081635201 1.5873909e-41 307 246
-0.016284959 0.77399999 -0.0081424797 1.6815582e-44 308 246
-0.014927879 0.77399999 -0.0081424797 4.0077136e-43 309 246
-0.013570799 0.77399999 -0.0081424797 6.5152111e-40 310 246
-0.012197939 0.773 -0.0081319595 7.4371674e-40 311 246
-0.010842613 0.773 -0.0081319595 7.6006429e-42 312 246
-0.0094872871 0.773 -0.0081319595 2.6624671e-44 313 246
-0.0081319595 0.773 -0.0081319595 7.4336361e-40 314 246
-0.0067590997 0.77100003 -0.0081109209 1.2083427e-38 315 246
-0.0054072798 0.77100003 -0.0081109209 1.5221329e-38 316 246
-0.0040554604 0.77100003 -0.0081109209 1.706524e-38 317 246
-0.0027106532 0.773 -0.0081319595 1.6053976e-38 318 246
-0.0013553266 0.773 -0.0081319595 1.596178e-38 319 246
0 0.773 -0.0081319595 1.5959259e-38 320 246
0.0013553266 0.773 -0.0081319595 1.5682671e-38 321 246
0.0027106532 0.773 -0.0081319595 1.5039467e-38 322 246
0.0040659797 0.773 -0.0081319595 1.4855435e-38 323 246
0.0054283198 0.77399999 -0.0081424797 1.4395176e-38 324 246
0.0067853997 0.77399999 -0.0081424797 1.4395176e-38 325 246
0.0081424797 0.77399999 -0.0081424797 1.4946902e-38 326 246
0.0094995592 0.77399999 -0.0081424797 1.4301533e-38 327 246
0.01085664 0.77399999 -0.0081424797 8.2108635e-39 328 246
0.01221372 0.77399999 -0.0081424797 3.0828566e-44 329 246
0.013570799 0.77399999 -0.0081424797 3.6503825e-42 330 246
0.014927879 0.77399999 -0.0081424797 2.3085411e-39 331 246
0.016600559 0.78899997 -0.0083002793 1.5691614e-39 332 246
-0.035876706 0.787 -0.0096591124 1.6236925e-38 294 247
-0.034496833 0.787 -0.0096591124 1.5683751e-38 295 247
-0.033116959 0.787 -0.0096591124 1.3934215e-38 296 247
-0.031656433 0.78500003 -0.0096345674 1.4395193e-38 297 247
-0.030280067 0.78500003 -0.0096345674 1.4672148e-38 298 247
-0.028830061 0.78299999 -0.0096100196 1.4672148e-38 299 247
-0.027457198 0.78299999 -0.0096100196 1.4672151e-38 300 247
-0.026084339 0.78299999 -0.0096100196 1.4579956e-38 301 247
-0.024616797 0.77999997 -0.0095731998 1.4488839e-38 302 247
-0.023249198 0.77999997 -0.0095731998 1.4488839e-38 303 247
-0.021825492 0.778 -0.0095486529 1.4949799e-38 304 247
-0.0204088 0.77600002 -0.009524107 1.4672852e-38 305 247
-0.019048214 0.77600002 -0.009524107 9.7868562e-39 306 247
-0.017687626 0.77600002 -0.009524107 4.7509763e-40 307 247
-0.016284959 0.77399999 -0.0094995592 3.7244972e-40 308 247
-0.014927879 0.77399999 -0.0094995592 1.5049946e-42 309 247
-0.013570799 0.77399999 -0.0094995592 3.2622228e-42 310 247
-0.012197939 0.773 -0.0094872871 4.3412226e-42 311 247
-0.010842613 0.773 -0.0094872871 4.4841551e-44 312 247
-0.0094872871 0.773 -0.0094872871 1.6588557e-39 313 247
-0.0081319595 0.773 -0.0094872871 4.3505189e-39 314 247
-0.0067590997 0.77100003 -0.0094627403 1.4123256e-38 315 247
-0.0054072798 0.77100003 -0.0094627403 1.6973057e-38 316 247
-0.0040554604 0.77100003 -0.0094627403 1.7065254e-38 317 247
-0.0027106532 0.773 -0.0094872871 1.6330208e-38 318 247
-0.0013553266 0.773 -0.0094872871 1.6330208e-38 319 247
0 0.773 -0.0094872871 1.5501524e-38 320 247
0.0013553266 0.773 -0.0094872871 1.5132743e-38 321 247
0.0027106532 0.773 -0.0094872871 1.4672486e-38 322 247
0.0040659797 0.773 -0.0094872871 1.4488095e-38 323 247
0.0054283198 0.77399999 -0.0094995592 1.4211504e-38 324 247
0.0067853997 0.77399999 -0.0094995592 1.3934918e-38 325 247
0.0081424797 0.77399999 -0.0094995592 1.4578479e-38 326 247
0.0094995592 0.77399999 -0.0094995592 1.4209337e-38 327 247
0.01085664 0.77399999 -0.0094995592 8.3970428e-39 328 247
0.01224528 0.77600002 -0.009524107 2.3822074e-44 329 247
0.013605867 0.77600002 -0.009524107 9.4758605e-41 330 247
0.015062887 0.78100002 -0.0095854728 2.3070936e-39 331 247
0.016600559 0.78899997 -0.0096836593 9.2776188e-40 332 247
0.017983939 0.78899997 -0.0096836593 3.3244881e-39 333 247
0.019367319 0.78899997 -0.0096836593 1.3646806e-38 334 247
-0.035876706 0.787 -0.011038986 1.614509e-38 294 248
-0.034496833 0.787 -0.011038986 1.549972e-38 295 248
-0.033116959 0.787 -0.011038986 1.4210798e-38 296 248
-0.031656433 0.78500003 -0.011010934 1.4487745e-38 297 248
-0.030280067 0.78500003 -0.011010934 1.4671783e-38 298 248
-0.028830061 0.78299999 -0.010982879 1.4671783e-38 299 248
-0.027457198 0.78299999 -0.010982879 1.4488113e-38 300 248
-0.026084339 0.78299999 -0.010982879 1.4488113e-38 301 248
-0.024616797 0.77999997 -0.010940799 1.412113e-38 302 248
-0.023249198 0.77999997 -0.010940799 1.4305161e-38 303 248
-0.021825492 0.778 -0.010912746 1.3106971e-38 304 248
-0.0204088 0.77600002 -0.010884693 1.1908429e-38 305 248
-0.019048214 0.77600002 -0.010884693 1.3010797e-38 306 248
-0.017687626 0.77600002 -0.010884693 1.3010797e-38 307 248
-0.016284959 0.77399999 -0.01085664 1.2176342e-38 308 248
-0.014927879 0.77399999 -0.01085664 7.6591149e-39 309 248
-0.013570799 0.77399999 -0.01085664 1.4870215e-39 310 248
-0.01221372 0.77399999 -0.01085664 2.8880761e-42 311 248
-0.010842613 0.773 -0.010842613 5.4244264e-42 312 248
-0.0094872871 0.773 -0.010842613 9.6006111e-39 313 248
-0.0081319595 0.773 -0.010842613 1.4666005e-38 314 248
-0.0067766332 0.773 -0.010842613 1.7247483e-38 315 248
-0.0054213065 0.773 -0.010842613 1.6053623e-38 316 248
-0.0040659797 0.773 -0.010842613 1.6145818e-38 317 248
-0.0027106532 0.773 -0.010842613 1.5595168e-38 318 248
-0.0013553266 0.773 -0.010842613 1.5502973e-38 319 248
0 0.773 -0.010842613 1.4858322e-38 320 248
0.0013553266 0.773 -0.010842613 1.448954e-38 321 248
0.0027106532 0.773 -0.010842613 1.430443e-38 322 248
0.0040659797 0.773 -0.010842613 1.4212234e-38 323 248
0.0054213065 0.773 -0.010842613 1.4210429e-38 324 248
0.0067853997 0.77399999 -0.01085664 1.4026038e-38 325 248
0.0081424797 0.77399999 -0.01085664 1.4026391e-38 326 248
0.0094995592 0.77399999 -0.01085664 1.3750163e-38 327 248
0.010884693 0.77600002 -0.010884693 8.3998987e-39 328 248
0.01224528 0.77600002 -0.010884693 9.8090893e-45 329 248
0.013693534 0.78100002 -0.010954826 3.2426046e-42 330 248
0.015062887 0.78100002 -0.010954826 7.4585092e-40 331 248
0.016600559 0.78899997 -0.011067039 9.3207507e-40 332 248
0.017983939 0.78899997 -0.011067039 6.5560071e-39 333 248
0.019367319 0.78899997 -0.011067039 1.5860577e-38 334 248
-0.03725658 0.787 -0.01241886 1.853351e-38 293 249
-0.035876706 0.787 -0.01241886 1.6418438e-38 294 249
-0.034496833 0.787 -0.01241886 1.5865264e-38 295 249
-0.033116959 0.787 -0.01241886 1.4210798e-38 296 249
-0.031737085 0.787 -0.01241886 1.3934571e-38 297 249
-0.03035721 0.787 -0.01241886 1.4210444e-38 298 249
-0.0289037 0.78500003 -0.0123873 1.4671783e-38 299 249
-0.027457198 0.78299999 -0.012355739 1.4488836e-38 300 249
-0.026084339 0.78299999 -0.012355739 1.4396641e-38 301 249
-0.024616797 0.77999997 -0.012308398 1.3568678e-38 302 249
-0.023249198 0.77999997 -0.012308398 1.2831113e-38 303 249
-0.021825492 0.778 -0.012276839 1.099152e-38 304 249
-0.020461399 0.778 -0.012276839 1.0530182e-38 305 249
-0.019048214 0.77600002 -0.01224528 1.4027485e-38 306 249
-0.017687626 0.77600002 -0.01224528 1.5226028e-38 307 249
-0.016284959 0.77399999 -0.01221372 1.4854704e-38 308 249
-0.014927879 0.77399999 -0.01221372 1.3103346e-38 309 249
-0.013570799 0.77399999 -0.01221372 1.0427852e-38 310 249
-0.01221372 0.77399999 -0.01221372 5.0805057e-39 311 249
-0.010842613 0.773 -0.012197939 3.9788497e-39 312 249
-0.0094872871 0.773 -0.012197939 1.3198413e-38 313 249
-0.0081319595 0.773 -0.012197939 1.5316423e-38 314 249
-0.0067766332 0.773 -0.012197939 1.5593369e-38 315 249
-0.0054213065 0.773 -0.012197939 1.5134912e-38 316 249
-0.0040659797 0.773 -0.012197939 1.541114e-38 317 249
-0.0027106532 0.773 -0.012197939 1.5503336e-38 318 249
-0.0013553266 0.773 -0.012197939 1.5503336e-38 319 249
0 0.773 -0.012197939 1.4949796e-38 320 249
0.0013553266 0.773 -0.012197939 1.4765403e-38 321 249
0.0027106532 0.773 -0.012197939 1.4763606e-38 322 249
0.0040659797 0.773 -0.012197939 1.4487379e-38 323 249
0.0054213065 0.773 -0.012197939 1.4210785e-38 324 249
0.0067853997 0.77399999 -0.01221372 1.3933839e-38 325 249
0.0081424797 0.77399999 -0.01221372 1.3933472e-38 326 249
0.0094995592 0.77399999 -0.01221372 1.3103711e-38 327 249
0.010884693 0.77600002 -0.01224528 9.0506589e-39 328 249
0.012308398 0.77999997 -0.012308398 1.2140303e-39 329 249
0.013693534 0.78100002 -0.01232418 1.0195595e-39 330 249
0.015140033 0.78500003 -0.0123873 1.4805377e-39 331 249
0.016600559 0.78899997 -0.012450419 4.3494272e-39 332 249
0.017983939 0.78899997 -0.012450419 9.2357956e-39 333 249
-0.03863645 0.787 -0.013798732 1.9732051e-38 292 250
-0.03725658 0.787 -0.013798732 1.9178877e-38 293 250
-0.035876706 0.787 -0.013798732 1.6416998e-38 294 250
-0.034496833 0.787 -0.013798732 1.6140409e-38 295 250
-0.033116959 0.787 -0.013798732 1.4671404e-38 296 250
-0.031737085 0.787 -0.013798732 1.2920046e-38 297 250
-0.03035721 0.787 -0.013798732 1.1999181e-38 298 250
-0.0289037 0.78500003 -0.013763667 1.3566509e-38 299 250
-0.027457198 0.78299999 -0.013728599 1.5130606e-38 300 250
-0.026017714 0.78100002 -0.013693534 1.5315357e-38 301 250
-0.024616797 0.77999997 -0.013675999 1.3199174e-38 302 250
-0.023189586 0.778 -0.013640933 1.1263065e-38 303 250
-0.021825492 0.778 -0.013640933 1.0622734e-38 304 250
-0.020461399 0.778 -0.013640933 1.2097864e-38 305 250
-0.019048214 0.77600002 -0.013605867 1.4305164e-38 306 250
-0.017687626 0.77600002 -0.013605867 1.4581752e-38 307 250
-0.016284959 0.77399999 -0.013570799 1.4857616e-38 308 250
-0.014927879 0.77399999 -0.013570799 1.5410784e-38 309 250
-0.013570799 0.77399999 -0.013570799 1.6878339e-38 310 250
-0.01221372 0.77399999 -0.013570799 1.4296861e-38 311 250
-0.010842613 0.773 -0.013553266 1.273493e-38 312 250
-0.0094872871 0.773 -0.013553266 1.586958e-38 313 250
-0.0081319595 0.773 -0.013553266 1.5135278e-38 314 250
-0.0067766332 0.773 -0.013553266 1.5043082e-38 315 250
-0.0054213065 0.773 -0.013553266 1.4859412e-38 316 250
-0.0040659797 0.773 -0.013553266 1.5043801e-38 317 250
-0.0027106532 0.773 -0.013553266 1.5319666e-38 318 250
-0.0013553266 0.773 -0.013553266 1.5319666e-38 319 250
