# .PCD v.7 - Point Cloud Data file format
FIELDS x y z rgb imX imY
SIZE 4 4 4 4 4 4
TYPE F F F F F F
COUNT 1 1 1 1 1 1
WIDTH 837
HEIGHT 1
VIEWPOINT 0 0 0 1 0 0 0
POINTS 837
DATA ascii
0 0.69300002 -0.049817458 8.2158984e-39 320 281
0.00121506 0.69300002 -0.049817458 1.0059811e-38 321 281
0.00243012 0.69300002 -0.049817458 1.1807917e-38 322 281
0.0036346598 0.69099998 -0.049673684 1.2084502e-38 323 281
0.0048462129 0.69099998 -0.049673684 1.1901184e-38 324 281
0.0060577663 0.69099998 -0.049673684 1.1808989e-38 325 281
0.0072587994 0.69 -0.049601797 1.1808989e-38 326 281
0.0084686 0.69 -0.049601797 1.1716793e-38 327 281
0.0096783992 0.69 -0.049601797 1.162424e-38 328 281
0.010888199 0.69 -0.049601797 1.162424e-38 329 281
0.012097999 0.69 -0.049601797 1.1533128e-38 330 281
0.0133078 0.69 -0.049601797 1.1625323e-38 331 281
0.014475521 0.68800002 -0.049458027 1.144273e-38 332 281
0.015681813 0.68800002 -0.049458027 1.144273e-38 333 281
0.016888106 0.68800002 -0.049458027 1.1626045e-38 334 281
0.0180944 0.68800002 -0.049458027 1.1533849e-38 335 281
0.019300694 0.68800002 -0.049458027 1.1625326e-38 336 281
0.020506985 0.68800002 -0.049458027 1.1533131e-38 337 281
0.021713281 0.68800002 -0.049458027 1.1441295e-38 338 281
0.022919573 0.68800002 -0.049458027 1.1441295e-38 339 281
0.024125867 0.68800002 -0.049458027 1.1165786e-38 340 281
0.025405798 0.69 -0.049601797 1.1165786e-38 341 281
0.026615599 0.69 -0.049601797 1.107359e-38 342 281
0.027825398 0.69 -0.049601797 1.107359e-38 343 281
0.029077278 0.69099998 -0.049673684 1.107359e-38 344 281
0.0303765 0.69300002 -0.049817458 1.107359e-38 345 281
0.031591557 0.69300002 -0.049817458 1.1165423e-38 346 281
0.03280662 0.69300002 -0.049817458 1.1165423e-38 347 281
0.034070771 0.69400001 -0.049889345 1.0889559e-38 348 281
0.035287585 0.69400001 -0.049889345 1.0889559e-38 349 281
0.036504399 0.69400001 -0.049889345 1.0980676e-38 350 281
0.037721213 0.69400001 -0.049889345 1.0980676e-38 351 281
0.038938027 0.69400001 -0.049889345 1.0980676e-38 352 281
0.040154841 0.69400001 -0.049889345 1.1072871e-38 353 281
0.041371655 0.69400001 -0.049889345 1.134766e-38 354 281
0.042588469 0.69400001 -0.049889345 1.134766e-38 355 281
0.043931518 0.69599998 -0.050033119 1.1348735e-38 356 281
0.045216713 0.69700003 -0.050105009 1.1440931e-38 357 281
0.046505414 0.69800001 -0.050176892 1.1257616e-38 358 281
0.047865998 0.69999999 -0.050320663 1.1441648e-38 359 281
0.049163464 0.70099998 -0.050392549 1.1625679e-38 360 281
0.050536323 0.70300001 -0.050536323 1.1625679e-38 361 281
0.051842559 0.704 -0.050608214 1.1993383e-38 362 281
0.053227689 0.70599997 -0.050751984 1.2085578e-38 363 281
0.054619838 0.708 -0.050895758 1.2453639e-38 364 281
0.055861197 0.708 -0.050895758 1.263767e-38 365 281
0.057102561 0.708 -0.050895758 1.3280875e-38 366 281
-0.028793238 0.71399999 -0.052578956 1.6406138e-38 297 282
-0.027309919 0.708 -0.052137118 1.4107729e-38 298 282
-0.026068559 0.708 -0.052137118 1.3831144e-38 299 282
-0.024827199 0.708 -0.052137118 1.3831162e-38 300 282
-0.023552528 0.70700002 -0.05206348 1.3646771e-38 301 282
-0.022281358 0.70599997 -0.051989835 1.3095042e-38 302 282
-0.021043506 0.70599997 -0.051989835 1.3187237e-38 303 282
-0.019749546 0.704 -0.051842559 1.28199e-38 304 282
-0.018488899 0.70300001 -0.051768921 1.1897584e-38 305 282
-0.017207211 0.70099998 -0.051621638 1.673233e-39 306 282
-0.015978126 0.70099998 -0.051621638 7.2292988e-42 307 282
-0.014727999 0.69999999 -0.051547997 1.3851205e-39 308 282
-0.013462093 0.69800001 -0.051400717 2.3070782e-39 309 282
-0.012238266 0.69800001 -0.051400717 2.1226673e-39 310 282
-0.01101444 0.69800001 -0.051400717 2.0304717e-39 311 282
-0.0097765867 0.69700003 -0.051327083 2.1223142e-39 312 282
-0.0085545136 0.69700003 -0.051327083 2.1223142e-39 313 282
-0.0073219193 0.69599998 -0.051253434 1.9379257e-39 314 282
-0.0061015999 0.69599998 -0.051253434 1.3847519e-39 315 282
-0.0048812795 0.69599998 -0.051253434 1.8909542e-40 316 282
-0.0036504399 0.69400001 -0.051106159 3.9838915e-42 317 282
-0.0024336267 0.69400001 -0.051106159 5.8041782e-42 318 282
-0.0012168133 0.69400001 -0.051106159 1.2050676e-39 319 282
0 0.69300002 -0.051032521 3.3277377e-39 320 282
0.00121506 0.69300002 -0.051032521 5.1716503e-39 321 282
0.00243012 0.69300002 -0.051032521 7.4750963e-39 322 282
0.0036451798 0.69300002 -0.051032521 9.3190089e-39 323 282
0.0048462129 0.69099998 -0.050885238 9.7846534e-39 324 282
0.0060577663 0.69099998 -0.050885238 1.0614414e-38 325 282
0.0072693196 0.69099998 -0.050885238 1.1807917e-38 326 282
0.008480873 0.69099998 -0.050885238 1.1623524e-38 327 282
0.0096924258 0.69099998 -0.050885238 1.1440575e-38 328 282
0.01090398 0.69099998 -0.050885238 1.1533131e-38 329 282
0.012097999 0.69 -0.050811596 1.1533849e-38 330 282
0.0133078 0.69 -0.050811596 1.1718241e-38 331 282
0.014475521 0.68800002 -0.050664321 1.1718238e-38 332 282
0.015681813 0.68800002 -0.050664321 1.1718238e-38 333 282
0.016888106 0.68800002 -0.050664321 1.1809355e-38 334 282
0.0180944 0.68800002 -0.050664321 1.1809355e-38 335 282
0.019300694 0.68800002 -0.050664321 1.1808638e-38 336 282
0.020506985 0.68800002 -0.050664321 1.1716443e-38 337 282
0.021713281 0.68800002 -0.050664321 1.1533131e-38 338 282
0.022986198 0.69 -0.050811596 1.1533131e-38 339 282
0.024195999 0.69 -0.050811596 1.1257265e-38 340 282
0.025405798 0.69 -0.050811596 1.1257265e-38 341 282
0.026654173 0.69099998 -0.050885238 1.1257265e-38 342 282
0.027865725 0.69099998 -0.050885238 1.116507e-38 343 282
0.029077278 0.69099998 -0.050885238 1.1165067e-38 344 282
0.0303765 0.69300002 -0.051032521 1.1165067e-38 345 282
0.031591557 0.69300002 -0.051032521 1.1165067e-38 346 282
0.032853961 0.69400001 -0.051106159 1.1165067e-38 347 282
0.034070771 0.69400001 -0.051106159 1.1256184e-38 348 282
0.035287585 0.69400001 -0.051106159 1.1256184e-38 349 282
0.036504399 0.69400001 -0.051106159 1.1256184e-38 350 282
0.037721213 0.69400001 -0.051106159 1.1256184e-38 351 282
0.038938027 0.69400001 -0.051106159 1.1072868e-38 352 282
0.040154841 0.69400001 -0.051106159 1.0980673e-38 353 282
0.041371655 0.69400001 -0.051106159 1.1256539e-38 354 282
0.042711195 0.69599998 -0.051253434 1.1348735e-38 355 282
0.043994639 0.69700003 -0.051327083 1.1348732e-38 356 282
0.045281585 0.69800001 -0.051400717 1.1533125e-38 357 282
0.046505414 0.69800001 -0.051400717 1.1533125e-38 358 282
0.047865998 0.69999999 -0.051547997 1.1625679e-38 359 282
0.049163464 0.70099998 -0.051621638 1.180971e-38 360 282
0.050608214 0.704 -0.051842559 1.1901906e-38 361 282
0.051989835 0.70599997 -0.051989835 1.2176695e-38 362 282
0.053303085 0.70700002 -0.05206348 1.2361445e-38 363 282
0.054774132 0.70999998 -0.052284397 1.2453642e-38 364 282
0.056097899 0.71100003 -0.052358042 1.2822065e-38 365 282
0.057344519 0.71100003 -0.052358042 1.383261e-38 366 282
-0.02855128 0.708 -0.053378478 1.7879836e-38 297 283
-0.027309919 0.708 -0.053378478 1.5395591e-38 298 283
-0.026068559 0.708 -0.053378478 1.4381799e-38 299 283
-0.024827199 0.708 -0.053378478 1.3647847e-38 300 283
-0.023585839 0.708 -0.053378478 1.3555651e-38 301 283
-0.022312919 0.70700002 -0.053303085 1.337127e-38 302 283
-0.021073313 0.70700002 -0.053303085 1.3463824e-38 303 283
-0.019805651 0.70599997 -0.053227689 1.0703366e-38 304 283
-0.018515198 0.704 -0.053076904 8.3062807e-39 305 283
-0.017256306 0.70300001 -0.053001512 7.9495662e-42 306 283
-0.016023712 0.70300001 -0.053001512 7.2292988e-42 307 283
-0.014727999 0.69999999 -0.052775331 2.3056292e-39 308 283
-0.013500666 0.69999999 -0.052775331 2.3978249e-39 309 283
-0.012238266 0.69800001 -0.052624546 2.1226701e-39 310 283
-0.01101444 0.69800001 -0.052624546 2.1226701e-39 311 283
-0.0097906133 0.69800001 -0.052624546 2.0311933e-39 312 283
-0.0085545136 0.69700003 -0.052549154 2.0311933e-39 313 283
-0.00733244 0.69700003 -0.052549154 2.1226701e-39 314 283
-0.0061103669 0.69700003 -0.052549154 2.1226701e-39 315 283
-0.0048882933 0.69700003 -0.052549154 2.3978277e-39 316 283
-0.0036609597 0.69599998 -0.052473757 2.4900233e-39 317 283
-0.0024406398 0.69599998 -0.052473757 2.5800707e-39 318 283
-0.0012168133 0.69400001 -0.052322973 1.9347013e-39 319 283
0 0.69300002 -0.05224758 9.5474668e-41 320 283
0.00121506 0.69300002 -0.05224758 2.9175034e-42 321 283
0.00243012 0.69300002 -0.05224758 7.6132546e-42 322 283
0.0036451798 0.69300002 -0.05224758 2.4050598e-39 323 283
0.00486024 0.69300002 -0.05224758 4.5341814e-39 324 283
0.0060577663 0.69099998 -0.052096792 8.5911479e-39 325 283
0.0072693196 0.69099998 -0.052096792 1.1807192e-38 326 283
0.008480873 0.69099998 -0.052096792 1.1622802e-38 327 283
0.0096924258 0.69099998 -0.052096792 1.1440928e-38 328 283
0.01090398 0.69099998 -0.052096792 1.1533125e-38 329 283
0.012115533 0.69099998 -0.052096792 1.1626042e-38 330 283
0.013327086 0.69099998 -0.052096792 1.1718238e-38 331 283
0.014517599 0.69 -0.052021399 1.190119e-38 332 283
0.015727401 0.69 -0.052021399 1.1993386e-38 333 283
0.0169372 0.69 -0.052021399 1.190119e-38 334 283
0.018146999 0.69 -0.052021399 1.190119e-38 335 283
0.019356798 0.69 -0.052021399 1.1625326e-38 336 283
0.020566599 0.69 -0.052021399 1.1533131e-38 337 283
0.021776399 0.69 -0.052021399 1.1532775e-38 338 283
0.023019511 0.69099998 -0.052096792 1.1440578e-38 339 283
0.024231065 0.69099998 -0.052096792 1.1257265e-38 340 283
0.025442619 0.69099998 -0.052096792 1.1257265e-38 341 283
0.026654173 0.69099998 -0.052096792 1.1257265e-38 342 283
0.027865725 0.69099998 -0.052096792 1.116507e-38 343 283
0.029161438 0.69300002 -0.05224758 1.107359e-38 344 283
0.0303765 0.69300002 -0.05224758 1.107359e-38 345 283
0.031591557 0.69300002 -0.05224758 1.107359e-38 346 283
0.032853961 0.69400001 -0.052322973 1.107359e-38 347 283
0.034070771 0.69400001 -0.052322973 1.1165067e-38 348 283
0.035287585 0.69400001 -0.052322973 1.1072871e-38 349 283
0.036504399 0.69400001 -0.052322973 1.1072871e-38 350 283
0.037829921 0.69599998 -0.052473757 1.1072871e-38 351 283
0.039050236 0.69599998 -0.052473757 1.1072868e-38 352 283
0.040270556 0.69599998 -0.052473757 1.1072868e-38 353 283
0.041490879 0.69599998 -0.052473757 1.1256539e-38 354 283
0.042711195 0.69599998 -0.052473757 1.1348735e-38 355 283
0.043994639 0.69700003 -0.052549154 1.1348735e-38 356 283
0.045281585 0.69800001 -0.052624546 1.1533128e-38 357 283
0.046638668 0.69999999 -0.052775331 1.1533125e-38 358 283
0.047934376 0.70099998 -0.052850723 1.180971e-38 359 283
0.049373865 0.704 -0.053076904 1.1809708e-38 360 283
0.050751984 0.70599997 -0.053227689 1.1901903e-38 361 283
0.05206348 0.70700002 -0.053303085 1.2268891e-38 362 283
0.053378478 0.708 -0.053378478 1.2361445e-38 363 283
0.054774132 0.70999998 -0.053529263 1.2638026e-38 364 283
0.056097899 0.71100003 -0.053604662 1.3099363e-38 365 283
0.057344519 0.71100003 -0.053604662 1.4293582e-38 366 283
-0.02855128 0.708 -0.054619838 1.8067467e-38 297 284
-0.027309919 0.708 -0.054619838 1.7327383e-38 298 284
-0.026068559 0.708 -0.054619838 1.5668222e-38 299 284
-0.024827199 0.708 -0.054619838 1.3923711e-38 300 284
-0.023585839 0.708 -0.054619838 1.3831515e-38 301 284
-0.022344479 0.708 -0.054619838 1.318796e-38 302 284
-0.021073313 0.70700002 -0.054542694 1.2726982e-38 303 284
-0.019805651 0.70599997 -0.054465543 6.3744913e-39 304 284
-0.018567799 0.70599997 -0.054465543 2.4100792e-39 305 284
-0.017280852 0.704 -0.054311249 8.3068973e-42 306 284
-0.016046507 0.704 -0.054311249 8.384277e-40 307 284
-0.014749039 0.70099998 -0.054079808 2.2148657e-39 308 284
-0.013519952 0.70099998 -0.054079808 2.1226701e-39 309 284
-0.012290866 0.70099998 -0.054079808 2.3059796e-39 310 284
-0.011045999 0.69999999 -0.054002665 2.3059796e-39 311 284
-0.0098186666 0.69999999 -0.054002665 2.1230232e-39 312 284
-0.0085667865 0.69800001 -0.053848371 2.1230232e-39 313 284
-0.0073429602 0.69800001 -0.053848371 2.3059796e-39 314 284
-0.006119133 0.69800001 -0.053848371 2.3059796e-39 315 284
-0.0048882933 0.69700003 -0.053771228 2.3059852e-39 316 284
-0.00366622 0.69700003 -0.053771228 2.3059852e-39 317 284
-0.0024406398 0.69599998 -0.053694077 2.5814931e-39 318 284
-0.0012203199 0.69599998 -0.053694077 2.3974619e-39 319 284
0 0.69400001 -0.053539783 1.4780196e-39 320 284
0.0012168133 0.69400001 -0.053539783 1.2014341e-39 321 284
0.00243012 0.69300002 -0.053462639 1.1996572e-39 322 284
0.0036451798 0.69300002 -0.053462639 8.308747e-40 323 284
0.00486024 0.69300002 -0.053462639 1.1094921e-40 324 284
0.0060577663 0.69099998 -0.053308345 7.6706307e-39 325 284
0.0072693196 0.69099998 -0.053308345 1.2359291e-38 326 284
0.008480873 0.69099998 -0.053308345 1.2359291e-38 327 284
0.0096924258 0.69099998 -0.053308345 1.1533844e-38 328 284
0.010935539 0.69300002 -0.053462639 1.1626398e-38 329 284
0.012115533 0.69099998 -0.053308345 1.1718238e-38 330 284
0.013327086 0.69099998 -0.053308345 1.1718238e-38 331 284
0.014538639 0.69099998 -0.053308345 1.1993386e-38 332 284
0.015750192 0.69099998 -0.053308345 1.190119e-38 333 284
0.016961746 0.69099998 -0.053308345 1.1809355e-38 334 284
0.0181733 0.69099998 -0.053308345 1.1809355e-38 335 284
0.019384852 0.69099998 -0.053308345 1.1808638e-38 336 284
0.020596405 0.69099998 -0.053308345 1.1716443e-38 337 284
0.021807959 0.69099998 -0.053308345 1.1533131e-38 338 284
0.023019511 0.69099998 -0.053308345 1.1533131e-38 339 284
0.024231065 0.69099998 -0.053308345 1.1624246e-38 340 284
0.02551626 0.69300002 -0.053462639 1.1624246e-38 341 284
0.02673132 0.69300002 -0.053462639 1.1257263e-38 342 284
0.027946379 0.69300002 -0.053462639 1.1257263e-38 343 284
0.029161438 0.69300002 -0.053462639 1.1257263e-38 344 284
0.0303765 0.69300002 -0.053462639 1.1257263e-38 345 284
0.031637147 0.69400001 -0.053539783 1.1257618e-38 346 284
0.032853961 0.69400001 -0.053539783 1.1165423e-38 347 284
0.034070771 0.69400001 -0.053539783 1.1165423e-38 348 284
0.035287585 0.69400001 -0.053539783 1.1165423e-38 349 284
0.036504399 0.69400001 -0.053539783 1.1165423e-38 350 284
0.037829921 0.69599998 -0.053694077 1.1165423e-38 351 284
0.039050236 0.69599998 -0.053694077 1.116542e-38 352 284
0.040270556 0.69599998 -0.053694077 1.116542e-38 353 284
0.041490879 0.69599998 -0.053694077 1.1348732e-38 354 284
0.042772565 0.69700003 -0.053771228 1.1348732e-38 355 284
0.043994639 0.69700003 -0.053771228 1.162424e-38 356 284
0.045281585 0.69800001 -0.053848371 1.1716796e-38 357 284
0.046638668 0.69999999 -0.054002665 1.1625679e-38 358 284
0.047934376 0.70099998 -0.054079808 1.1901906e-38 359 284
0.049373865 0.704 -0.054311249 1.1901184e-38 360 284
0.050751984 0.70599997 -0.054465543 1.2085934e-38 361 284
0.052137118 0.708 -0.054619838 1.2361442e-38 362 284
0.053529263 0.70999998 -0.054774132 1.263767e-38 363 284
0.054851279 0.71100003 -0.054851279 1.2821696e-38 364 284
0.056255698 0.713 -0.055005573 1.3467065e-38 365 284
-0.027309919 0.708 -0.055861197 1.7973835e-38 298 285
-0.026068559 0.708 -0.055861197 1.5945531e-38 299 285
-0.024897331 0.70999998 -0.056018997 1.4107023e-38 300 285
-0.023585839 0.708 -0.055861197 1.3830796e-38 301 285
-0.022344479 0.708 -0.055861197 1.2636231e-38 302 285
-0.021103119 0.708 -0.055861197 1.097671e-38 303 285
-0.019833706 0.70700002 -0.055782299 2.68918e-39 304 285
-0.018567799 0.70599997 -0.055703394 8.3040947e-42 305 285
-0.017329946 0.70599997 -0.055703394 2.3978249e-39 306 285
-0.016046507 0.704 -0.055545598 2.858803e-39 307 285
-0.014791119 0.70300001 -0.0554667 2.949184e-39 308 285
-0.013519952 0.70099998 -0.055308893 2.949184e-39 309 285
-0.012290866 0.70099998 -0.055308893 2.5821993e-39 310 285
-0.011061779 0.70099998 -0.055308893 2.5821993e-39 311 285
-0.0098186666 0.69999999 -0.055229999 2.3985311e-39 312 285
-0.0085913334 0.69999999 -0.055229999 2.3985311e-39 313 285
-0.0073639993 0.69999999 -0.055229999 2.3985339e-39 314 285
-0.006119133 0.69800001 -0.0550722 2.3059796e-39 315 285
-0.0048953067 0.69800001 -0.0550722 2.3059796e-39 316 285
-0.00366622 0.69700003 -0.054993302 2.3059796e-39 317 285
-0.0024441467 0.69700003 -0.054993302 2.3985339e-39 318 285
-0.0012203199 0.69599998 -0.054914396 2.3985339e-39 319 285
0 0.69599998 -0.054914396 2.398178e-39 320 285
0.0012203199 0.69599998 -0.054914396 2.4903736e-39 321 285
0.0024336267 0.69400001 -0.054756597 2.4907464e-39 322 285
0.0036504399 0.69400001 -0.054756597 9.2342066e-40 323 285
0.00486024 0.69300002 -0.054677699 8.3153051e-42 324 285
0.0060753003 0.69300002 -0.054677699 8.1233314e-39 325 285
0.0072693196 0.69099998 -0.054519895 1.2268543e-38 326 285
0.008480873 0.69099998 -0.054519895 1.2360739e-38 327 285
0.0096924258 0.69099998 -0.054519895 1.1626045e-38 328 285
0.010935539 0.69300002 -0.054677699 1.1718241e-38 329 285
0.012150601 0.69300002 -0.054677699 1.1901909e-38 330 285
0.01336566 0.69300002 -0.054677699 1.1901909e-38 331 285
0.014580719 0.69300002 -0.054677699 1.1993386e-38 332 285
0.015795778 0.69300002 -0.054677699 1.1993386e-38 333 285
0.016961746 0.69099998 -0.054519895 1.190119e-38 334 285
0.0181733 0.69099998 -0.054519895 1.190119e-38 335 285
0.019384852 0.69099998 -0.054519895 1.1625326e-38 336 285
0.020596405 0.69099998 -0.054519895 1.1625326e-38 337 285
0.021807959 0.69099998 -0.054519895 1.1533131e-38 338 285
0.023019511 0.69099998 -0.054519895 1.1533131e-38 339 285
0.024301201 0.69300002 -0.054677699 1.1716443e-38 340 285
0.02551626 0.69300002 -0.054677699 1.1716443e-38 341 285
0.02673132 0.69300002 -0.054677699 1.1533128e-38 342 285
0.027946379 0.69300002 -0.054677699 1.1533128e-38 343 285
0.029203519 0.69400001 -0.054756597 1.1440928e-38 344 285
0.030420333 0.69400001 -0.054756597 1.1440928e-38 345 285
0.031637147 0.69400001 -0.054756597 1.1257613e-38 346 285
0.032853961 0.69400001 -0.054756597 1.1257613e-38 347 285
0.034070771 0.69400001 -0.054756597 1.1257616e-38 348 285
0.035287585 0.69400001 -0.054756597 1.1257616e-38 349 285
0.036609598 0.69599998 -0.054914396 1.116542e-38 350 285
0.037829921 0.69599998 -0.054914396 1.116542e-38 351 285
0.039050236 0.69599998 -0.054914396 1.1348732e-38 352 285
0.040270556 0.69599998 -0.054914396 1.1440928e-38 353 285
0.041550495 0.69700003 -0.054993302 1.1440212e-38 354 285
0.042833932 0.69800001 -0.0550722 1.1624243e-38 355 285
0.04405776 0.69800001 -0.0550722 1.1440931e-38 356 285
0.04541133 0.69999999 -0.055229999 1.1625323e-38 357 285
0.046638668 0.69999999 -0.055229999 1.1901187e-38 358 285
0.048071139 0.70300001 -0.0554667 1.1993383e-38 359 285
0.049373865 0.704 -0.055545598 1.1993383e-38 360 285
0.050751984 0.70599997 -0.055703394 1.2085578e-38 361 285
0.052137118 0.708 -0.055861197 1.2453639e-38 362 285
0.053529263 0.70999998 -0.056018997 1.2729866e-38 363 285
0.054774132 0.70999998 -0.056018997 1.291425e-38 364 285
-0.026142199 0.70999998 -0.057263866 1.5763658e-38 299 286
-0.024897331 0.70999998 -0.057263866 1.4659478e-38 300 286
-0.023652466 0.70999998 -0.057263866 1.4106304e-38 301 286
-0.022407599 0.70999998 -0.057263866 1.1256524e-38 302 286
-0.021103119 0.708 -0.057102561 7.6605344e-39 303 286
-0.01986176 0.708 -0.057102561 3.8571161e-40 304 286
-0.018594101 0.70700002 -0.057021905 1.1887215e-41 305 286
-0.017354494 0.70700002 -0.057021905 3.135743e-39 306 286
-0.016092092 0.70599997 -0.056941248 2.9513518e-39 307 286
-0.014812159 0.704 -0.056779943 3.0417495e-39 308 286
-0.013558527 0.70300001 -0.056699295 2.7655214e-39 309 286
-0.012325933 0.70300001 -0.056699295 2.4907295e-39 310 286
-0.011061779 0.70099998 -0.056537982 2.3985339e-39 311 286
-0.0098186666 0.69999999 -0.056457333 2.3074145e-39 312 286
-0.0085913334 0.69999999 -0.056457333 2.2152189e-39 313 286
-0.0073639993 0.69999999 -0.056457333 2.3985339e-39 314 286
-0.006119133 0.69800001 -0.056296028 2.3985339e-39 315 286
-0.0048953067 0.69800001 -0.056296028 2.123389e-39 316 286
-0.0036714801 0.69800001 -0.056296028 2.123389e-39 317 286
-0.0024441467 0.69700003 -0.056215372 2.3981808e-39 318 286
-0.0012220733 0.69700003 -0.056215372 2.4903764e-39 319 286
0 0.69700003 -0.056215372 2.3067082e-39 320 286
0.0012220733 0.69700003 -0.056215372 2.3067082e-39 321 286
0.0024441467 0.69700003 -0.056215372 2.4910967e-39 322 286
0.0048462129 0.69099998 -0.055731449 9.8344528e-41 324 286
0.0060577663 0.69099998 -0.055731449 7.5665507e-39 325 286
0.0072693196 0.69099998 -0.055731449 1.2083433e-38 326 286
0.008480873 0.69099998 -0.055731449 1.2636248e-38 327 286
0.0097204801 0.69300002 -0.055892758 1.1534928e-38 328 286
0.01095132 0.69400001 -0.055973411 1.1534928e-38 329 286
0.012150601 0.69300002 -0.055892758 1.1901553e-38 330 286
0.01336566 0.69300002 -0.055892758 1.1901553e-38 331 286
0.014580719 0.69300002 -0.055892758 1.1901553e-38 332 286
0.015795778 0.69300002 -0.055892758 1.1901553e-38 333 286
0.01701084 0.69300002 -0.055892758 1.1901553e-38 334 286
0.018225901 0.69300002 -0.055892758 1.1809357e-38 335 286
0.01944096 0.69300002 -0.055892758 1.1625326e-38 336 286
0.020656019 0.69300002 -0.055892758 1.1625326e-38 337 286
0.021871079 0.69300002 -0.055892758 1.1533847e-38 338 286
0.02308614 0.69300002 -0.055892758 1.1441651e-38 339 286
0.024301201 0.69300002 -0.055892758 1.171644e-38 340 286
0.02551626 0.69300002 -0.055892758 1.171644e-38 341 286
0.02673132 0.69300002 -0.055892758 1.1533128e-38 342 286
0.027946379 0.69300002 -0.055892758 1.1533128e-38 343 286
0.029203519 0.69400001 -0.055973411 1.1258339e-38 344 286
0.030420333 0.69400001 -0.055973411 1.1258339e-38 345 286
0.031637147 0.69400001 -0.055973411 1.1257618e-38 346 286
0.032853961 0.69400001 -0.055973411 1.1257618e-38 347 286
0.034168959 0.69599998 -0.056134716 1.1165783e-38 348 286
0.035389278 0.69599998 -0.056134716 1.1165783e-38 349 286
0.036609598 0.69599998 -0.056134716 1.1257618e-38 350 286
0.037884273 0.69700003 -0.056215372 1.1257618e-38 351 286
0.039106347 0.69700003 -0.056215372 1.1257618e-38 352 286
0.040328421 0.69700003 -0.056215372 1.1257618e-38 353 286
0.041550495 0.69700003 -0.056215372 1.1624243e-38 354 286
0.042833932 0.69800001 -0.056296028 1.1624243e-38 355 286
0.04405776 0.69800001 -0.056296028 1.171572e-38 356 286
0.04541133 0.69999999 -0.056457333 1.1992307e-38 357 286
0.046705291 0.70099998 -0.056537982 1.1901187e-38 358 286
0.048071139 0.70300001 -0.056699295 1.1993383e-38 359 286
0.04951413 0.70599997 -0.056941248 1.2085932e-38 360 286
0.050823875 0.70700002 -0.057021905 1.2269963e-38 361 286
0.052284397 0.70999998 -0.057263866 1.2453991e-38 362 286
0.053604662 0.71100003 -0.057344519 1.2638024e-38 363 286
0.054851279 0.71100003 -0.057344519 1.2822771e-38 364 286
-0.024897331 0.70999998 -0.058508728 1.5761502e-38 300 287
-0.023652466 0.70999998 -0.058508728 1.5300526e-38 301 287
-0.022407599 0.70999998 -0.058508728 1.2542924e-38 302 287
-0.021162732 0.70999998 -0.058508728 8.2093711e-39 303 287
-0.01986176 0.708 -0.058343921 6.5975934e-40 304 287
-0.0186204 0.708 -0.058343921 1.3308132e-41 305 287
-0.017379038 0.708 -0.058343921 3.778946e-39 306 287
-0.016114887 0.70700002 -0.05826151 3.686749e-39 307 287
-0.014812159 0.704 -0.058014292 3.226847e-39 308 287
-0.013577812 0.704 -0.058014292 3.0424558e-39 309 287
-0.012325933 0.70300001 -0.057931885 2.8580645e-39 310 287
-0.011061779 0.70099998 -0.057767071 2.8580645e-39 311 287
-0.0098326923 0.70099998 -0.057767071 2.6743949e-39 312 287
-0.0086036054 0.70099998 -0.057767071 2.6743949e-39 313 287
-0.0073745195 0.70099998 -0.057767071 2.4907295e-39 314 287
-0.0061366665 0.69999999 -0.05768466 2.4907295e-39 315 287
-0.0049093333 0.69999999 -0.05768466 2.6740446e-39 316 287
-0.0036714801 0.69800001 -0.057519849 2.6740446e-39 317 287
-0.0024476533 0.69800001 -0.057519849 2.4903736e-39 318 287
-0.0012238267 0.69800001 -0.057519849 2.4903736e-39 319 287
0 0.69700003 -0.05743745 2.6736887e-39 320 287
0.0012220733 0.69700003 -0.05743745 2.6736887e-39 321 287
0.0073008798 0.69400001 -0.057190225 1.0427152e-38 326 287
0.0085054198 0.69300002 -0.057107817 1.2271064e-38 327 287
0.0097204801 0.69300002 -0.057107817 1.1993749e-38 328 287
0.010982879 0.69599998 -0.057355035 1.1901553e-38 329 287
0.0122032 0.69599998 -0.057355035 1.1901553e-38 330 287
0.013384946 0.69400001 -0.057190225 1.1993749e-38 331 287
0.01460176 0.69400001 -0.057190225 1.199303e-38 332 287
0.015818574 0.69400001 -0.057190225 1.199303e-38 333 287
0.017035386 0.69400001 -0.057190225 1.1993386e-38 334 287
0.018225901 0.69300002 -0.057107817 1.1993386e-38 335 287
0.01944096 0.69300002 -0.057107817 1.1809355e-38 336 287
0.020656019 0.69300002 -0.057107817 1.1625323e-38 337 287
0.021871079 0.69300002 -0.057107817 1.1533847e-38 338 287
0.02308614 0.69300002 -0.057107817 1.1533847e-38 339 287
0.024301201 0.69300002 -0.057107817 1.1808636e-38 340 287
0.025553079 0.69400001 -0.057190225 1.171644e-38 341 287
0.026769891 0.69400001 -0.057190225 1.1808636e-38 342 287
0.027986705 0.69400001 -0.057190225 1.171644e-38 343 287
0.029203519 0.69400001 -0.057190225 1.1533128e-38 344 287
0.030507999 0.69599998 -0.057355035 1.1533128e-38 345 287
0.031728316 0.69599998 -0.057355035 1.1533125e-38 346 287
0.032948639 0.69599998 -0.057355035 1.1533125e-38 347 287
0.034168959 0.69599998 -0.057355035 1.1441648e-38 348 287
0.035440128 0.69700003 -0.05743745 1.1441648e-38 349 287
0.036662199 0.69700003 -0.05743745 1.162424e-38 350 287
0.037884273 0.69700003 -0.05743745 1.162424e-38 351 287
0.039162453 0.69800001 -0.057519849 1.1899388e-38 352 287
0.040386278 0.69800001 -0.057519849 1.1899388e-38 353 287
0.041610107 0.69800001 -0.057519849 1.171572e-38 354 287
0.042956665 0.69999999 -0.05768466 1.1623524e-38 355 287
0.044183996 0.69999999 -0.05768466 1.171644e-38 356 287
0.045476202 0.70099998 -0.057767071 1.1808636e-38 357 287
0.046905171 0.704 -0.058014292 1.180971e-38 358 287
0.048276275 0.70599997 -0.058179103 1.2086297e-38 359 287
0.049584266 0.70700002 -0.05826151 1.2453639e-38 360 287
0.050823875 0.70700002 -0.05826151 1.2361442e-38 361 287
0.052284397 0.70999998 -0.058508728 1.2637306e-38 362 287
0.053755447 0.713 -0.058755953 1.2821699e-38 363 287
-0.024897331 0.70999998 -0.059753593 1.5851888e-38 300 288
-0.023652466 0.70999998 -0.059753593 1.5944083e-38 301 288
-0.022407599 0.70999998 -0.059753593 1.3831863e-38 302 288
-0.021162732 0.70999998 -0.059753593 1.1619166e-38 303 288
-0.019917866 0.70999998 -0.059753593 5.2580025e-39 304 288
-0.0186204 0.708 -0.059585281 1.9389599e-39 305 288
-0.017379038 0.708 -0.059585281 3.3233391e-39 306 288
-0.01613768 0.708 -0.059585281 3.0467522e-39 307 288
-0.014854239 0.70599997 -0.059416957 3.136099e-39 308 288
-0.013577812 0.704 -0.059248637 2.951349e-39 309 288
-0.012343466 0.704 -0.059248637 3.1342983e-39 310 288
-0.01109334 0.70300001 -0.059164476 3.0421027e-39 311 288
-0.0098607466 0.70300001 -0.059164476 2.7662374e-39 312 288
-0.0086281532 0.70300001 -0.059164476 2.6740418e-39 313 288
-0.0073745195 0.70099998 -0.058996156 2.4910925e-39 314 288
-0.0061454331 0.70099998 -0.058996156 2.3070614e-39 315 288
-0.0049093333 0.69999999 -0.058911994 2.8573625e-39 316 288
-0.0036819996 0.69999999 -0.058911994 2.7651654e-39 317 288
-0.0024476533 0.69800001 -0.058743682 2.4903736e-39 318 288
-0.0012238267 0.69800001 -0.058743682 2.5825692e-39 319 288
0 0.69800001 -0.058743682 2.4910925e-39 320 288
0.0012238267 0.69800001 -0.058743682 2.5832895e-39 321 288
0.0073008798 0.69400001 -0.058407038 7.7577943e-39 326 288
0.0085176928 0.69400001 -0.058407038 1.1445261e-38 327 288
0.0097345067 0.69400001 -0.058407038 1.2085944e-38 328 288
0.010982879 0.69599998 -0.058575355 1.1901553e-38 329 288
0.0122032 0.69599998 -0.058575355 1.1993749e-38 330 288
0.013423519 0.69599998 -0.058575355 1.1901553e-38 331 288
0.01460176 0.69400001 -0.058407038 1.199303e-38 332 288
0.015818574 0.69400001 -0.058407038 1.199303e-38 333 288
0.017035386 0.69400001 -0.058407038 1.1900834e-38 334 288
0.0182522 0.69400001 -0.058407038 1.1900834e-38 335 288
0.019469013 0.69400001 -0.058407038 1.1809357e-38 336 288
0.020685827 0.69400001 -0.058407038 1.1809357e-38 337 288
0.021902639 0.69400001 -0.058407038 1.1809357e-38 338 288
0.023119451 0.69400001 -0.058407038 1.1625326e-38 339 288
0.024336265 0.69400001 -0.058407038 1.1808636e-38 340 288
0.025553079 0.69400001 -0.058407038 1.1808636e-38 341 288
0.026769891 0.69400001 -0.058407038 1.1625323e-38 342 288
0.028067358 0.69599998 -0.058575355 1.1625323e-38 343 288
0.029287677 0.69599998 -0.058575355 1.1625326e-38 344 288
0.030507999 0.69599998 -0.058575355 1.1533131e-38 345 288
0.031728316 0.69599998 -0.058575355 1.1533128e-38 346 288
0.03299598 0.69700003 -0.05865952 1.1625323e-38 347 288
0.034218054 0.69700003 -0.05865952 1.1533128e-38 348 288
0.035440128 0.69700003 -0.05865952 1.1533128e-38 349 288
0.0367148 0.69800001 -0.058743682 1.1533128e-38 350 288
0.037938625 0.69800001 -0.058743682 1.1533128e-38 351 288
0.039162453 0.69800001 -0.058743682 1.1716796e-38 352 288
0.040386278 0.69800001 -0.058743682 1.162424e-38 353 288
0.041610107 0.69800001 -0.058743682 1.162424e-38 354 288
0.042956665 0.69999999 -0.058911994 1.162424e-38 355 288
0.044183996 0.69999999 -0.058911994 1.1808273e-38 356 288
0.045476202 0.70099998 -0.058996156 1.2084499e-38 357 288
0.047038425 0.70599997 -0.059416957 1.2361439e-38 358 288
0.048276275 0.70599997 -0.059416957 1.2730222e-38 359 288
0.049584266 0.70700002 -0.059501119 1.3096841e-38 360 288
0.050895758 0.708 -0.059585281 1.2635503e-38 361 288
0.052137118 0.708 -0.059585281 1.2634784e-38 362 288
-0.023752406 0.713 -0.061256204 1.5576743e-38 301 289
-0.022502279 0.713 -0.061256204 1.4659828e-38 302 289
-0.021192541 0.71100003 -0.061084379 1.3553481e-38 303 289
-0.01994592 0.71100003 -0.061084379 1.0231529e-38 304 289
-0.018672999 0.70999998 -0.060998458 5.5295504e-39 305 289
-0.017379038 0.708 -0.060826641 3.3179286e-39 306 289
-0.01613768 0.708 -0.060826641 3.7789068e-39 307 289
-0.014854239 0.70599997 -0.060654808 3.3211979e-39 308 289
-0.013577812 0.704 -0.060482983 3.0442508e-39 309 289
-0.012343466 0.704 -0.060482983 3.2268498e-39 310 289
-0.01109334 0.70300001 -0.06039707 3.0420999e-39 311 289
-0.0098607466 0.70300001 -0.06039707 2.8587904e-39 312 289
-0.0086281532 0.70300001 -0.06039707 2.8587904e-39 313 289
-0.0073955595 0.70300001 -0.06039707 2.7662402e-39 314 289
-0.0061454331 0.70099998 -0.060225245 2.7662402e-39 315 289
-0.0049163462 0.70099998 -0.060225245 2.7662402e-39 316 289
-0.0036872597 0.70099998 -0.060225245 2.7662402e-39 317 289
-0.0024581731 0.70099998 -0.060225245 2.7662374e-39 318 289
-0.0012273333 0.69999999 -0.060139328 2.7662374e-39 319 289
0 0.69800001 -0.059967503 2.5832895e-39 320 289
0.0012238267 0.69800001 -0.059967503 2.5832895e-39 321 289
0.0097625591 0.69599998 -0.059795678 1.2361809e-38 328 289
0.010982879 0.69599998 -0.059795678 1.190119e-38 329 289
0.0122032 0.69599998 -0.059795678 1.2085225e-38 330 289
0.013423519 0.69599998 -0.059795678 1.2085225e-38 331 289
0.014643839 0.69599998 -0.059795678 1.2268896e-38 332 289
0.015864158 0.69599998 -0.059795678 1.2176342e-38 333 289
0.017084479 0.69599998 -0.059795678 1.1901909e-38 334 289
0.018304799 0.69599998 -0.059795678 1.1901909e-38 335 289
0.019525118 0.69599998 -0.059795678 1.1809355e-38 336 289
0.020745439 0.69599998 -0.059795678 1.1809355e-38 337 289
0.021965759 0.69599998 -0.059795678 1.190119e-38 338 289
0.023186078 0.69599998 -0.059795678 1.190119e-38 339 289
0.0244064 0.69599998 -0.059795678 1.190119e-38 340 289
0.025626717 0.69599998 -0.059795678 1.190119e-38 341 289
0.026847038 0.69599998 -0.059795678 1.1900834e-38 342 289
0.028067358 0.69599998 -0.059795678 1.1808638e-38 343 289
0.02932976 0.69700003 -0.05988159 1.1808638e-38 344 289
0.030551834 0.69700003 -0.05988159 1.1808638e-38 345 289
0.03177391 0.69700003 -0.05988159 1.1808636e-38 346 289
0.03299598 0.69700003 -0.05988159 1.171644e-38 347 289
0.034267146 0.69800001 -0.059967503 1.1808636e-38 348 289
0.035490975 0.69800001 -0.059967503 1.1808636e-38 349 289
0.0367148 0.69800001 -0.059967503 1.171644e-38 350 289
0.037938625 0.69800001 -0.059967503 1.171644e-38 351 289
0.039162453 0.69800001 -0.059967503 1.1625679e-38 352 289
0.040502001 0.69999999 -0.060139328 1.1533125e-38 353 289
0.041729331 0.69999999 -0.060139328 1.2083781e-38 354 289
0.042956665 0.69999999 -0.060139328 1.1622802e-38 355 289
0.044183996 0.69999999 -0.060139328 1.1533125e-38 356 289
0.045476202 0.70099998 -0.060225245 1.180971e-38 357 289
0.047038425 0.70599997 -0.060654808 1.27259e-38 358 289
0.048276275 0.70599997 -0.060654808 1.2265281e-38 359 289
0.04951413 0.70599997 -0.060654808 1.0879826e-38 360 289
0.050751984 0.70599997 -0.060654808 1.078763e-38 361 289
0.051989835 0.70599997 -0.060654808 1.070335e-38 362 289
-0.022533838 0.71399999 -0.062593997 1.5026818e-38 302 290
-0.021252153 0.713 -0.062506333 1.4934623e-38 303 290
-0.020002026 0.713 -0.062506333 1.3642788e-38 304 290
-0.018672999 0.70999998 -0.062243331 1.0138996e-38 305 290
-0.017379038 0.708 -0.062068 5.3426354e-39 306 290
-0.01613768 0.708 -0.062068 3.5912785e-39 307 290
-0.014854239 0.70599997 -0.061892662 3.1378688e-39 308 290
-0.013616386 0.70599997 -0.061892662 3.1378688e-39 309 290
-0.012343466 0.704 -0.061717331 3.3186895e-39 310 290
-0.011109119 0.704 -0.061717331 3.2264939e-39 311 290
-0.0098607466 0.70300001 -0.061629668 3.2264967e-39 312 290
-0.0086281532 0.70300001 -0.061629668 3.1343011e-39 313 290
-0.0073955595 0.70300001 -0.061629668 2.8584345e-39 314 290
-0.0061629666 0.70300001 -0.061629668 2.7662374e-39 315 290
-0.0049303733 0.70300001 -0.061629668 2.7662374e-39 316 290
-0.0036872597 0.70099998 -0.06145433 2.7662374e-39 317 290
-0.0024581731 0.70099998 -0.06145433 2.5825692e-39 318 290
-0.0012273333 0.69999999 -0.061366666 2.5825692e-39 319 290
0 0.69999999 -0.061366666 2.6747691e-39 320 290
0.0097765867 0.69700003 -0.061103668 1.2637676e-38 328 290
0.01099866 0.69700003 -0.061103668 1.2176698e-38 329 290
0.012220734 0.69700003 -0.061103668 1.2268896e-38 330 290
0.013442807 0.69700003 -0.061103668 1.2268896e-38 331 290
0.014643839 0.69599998 -0.061015997 1.2268896e-38 332 290
0.015864158 0.69599998 -0.061015997 1.2268896e-38 333 290
0.017084479 0.69599998 -0.061015997 1.1993749e-38 334 290
0.018304799 0.69599998 -0.061015997 1.1993749e-38 335 290
0.019525118 0.69599998 -0.061015997 1.1718238e-38 336 290
0.020745439 0.69599998 -0.061015997 1.1718238e-38 337 290
0.021965759 0.69599998 -0.061015997 1.1993386e-38 338 290
0.023186078 0.69599998 -0.061015997 1.1993386e-38 339 290
0.024441468 0.69700003 -0.061103668 1.2085581e-38 340 290
0.025626717 0.69599998 -0.061015997 1.1993386e-38 341 290
0.026847038 0.69599998 -0.061015997 1.190119e-38 342 290
0.028107686 0.69700003 -0.061103668 1.1993386e-38 343 290
0.02932976 0.69700003 -0.061103668 1.190119e-38 344 290
0.030551834 0.69700003 -0.061103668 1.1808636e-38 345 290
0.031819493 0.69800001 -0.061191335 1.1808636e-38 346 290
0.033043321 0.69800001 -0.061191335 1.1808636e-38 347 290
0.034267146 0.69800001 -0.061191335 1.1808638e-38 348 290
0.035490975 0.69800001 -0.061191335 1.1808638e-38 349 290
0.0367148 0.69800001 -0.061191335 1.171644e-38 350 290
0.037938625 0.69800001 -0.061191335 1.171644e-38 351 290
0.039274666 0.69999999 -0.061366666 1.1716796e-38 352 290
0.040502001 0.69999999 -0.061366666 1.1993383e-38 353 290
0.041729331 0.69999999 -0.061366666 1.2451118e-38 354 290
0.042956665 0.69999999 -0.061366666 1.1068184e-38 355 290
0.044183996 0.69999999 -0.061366666 1.0611155e-38 356 290
0.045476202 0.70099998 -0.06145433 1.0795546e-38 357 290
0.047038425 0.70599997 -0.061892662 1.1065643e-38 358 290
0.048276275 0.70599997 -0.061892662 9.2217308e-39 359 290
0.04951413 0.70599997 -0.061892662 5.6278963e-39 360 290
0.050751984 0.70599997 -0.061892662 6.5498526e-39 361 290
-0.021281958 0.71399999 -0.063845873 1.5026818e-38 303 291
-0.020030079 0.71399999 -0.063845873 1.5026088e-38 304 291
-0.018778199 0.71399999 -0.063845873 1.3274373e-38 305 291
-0.017526319 0.71399999 -0.063845873 1.0319409e-38 306 291
-0.014812159 0.704 -0.062951677 2.674727e-39 308 291
-0.012343466 0.704 -0.062951677 3.3215636e-39 310 291
-0.011109119 0.704 -0.062951677 2.9527811e-39 311 291
-0.0098607466 0.70300001 -0.062862262 3.3186924e-39 312 291
-0.0086281532 0.70300001 -0.062862262 3.1343011e-39 313 291
-0.0073955595 0.70300001 -0.062862262 3.1339452e-39 314 291
-0.0061629666 0.70300001 -0.062862262 3.1339452e-39 315 291
-0.0049303733 0.70300001 -0.062862262 2.675125e-39 316 291
-0.0036977797 0.70300001 -0.062862262 2.5825692e-39 317 291
-0.0024651866 0.70300001 -0.062862262 2.5825692e-39 318 291
-0.0012290865 0.70099998 -0.062683418 2.5825692e-39 319 291
0 0.70099998 -0.062683418 2.6747691e-39 320 291
0.0097906133 0.69800001 -0.062415157 1.2729153e-38 328 291
0.01101444 0.69800001 -0.062415157 1.2452206e-38 329 291
0.012238266 0.69800001 -0.062415157 1.2085581e-38 330 291
0.013462093 0.69800001 -0.062415157 1.2085581e-38 331 291
0.01468592 0.69800001 -0.062415157 1.2085581e-38 332 291
0.015909746 0.69800001 -0.062415157 1.2269612e-38 333 291
0.017109027 0.69700003 -0.062325738 1.2085581e-38 334 291
0.018331099 0.69700003 -0.062325738 1.2085581e-38 335 291
0.019553173 0.69700003 -0.062325738 1.1810436e-38 336 291
0.020775247 0.69700003 -0.062325738 1.1810436e-38 337 291
0.02202888 0.69800001 -0.062415157 1.2085225e-38 338 291
0.023252707 0.69800001 -0.062415157 1.2085225e-38 339 291
0.024476532 0.69800001 -0.062415157 1.2085225e-38 340 291
0.025700359 0.69800001 -0.062415157 1.199303e-38 341 291
0.026924185 0.69800001 -0.062415157 1.1901909e-38 342 291
0.028148014 0.69800001 -0.062415157 1.1901909e-38 343 291
0.029371841 0.69800001 -0.062415157 1.1993386e-38 344 291
0.030595668 0.69800001 -0.062415157 1.190119e-38 345 291
0.031819493 0.69800001 -0.062415157 1.1808636e-38 346 291
0.033137999 0.69999999 -0.062593997 1.1808636e-38 347 291
0.034365334 0.69999999 -0.062593997 1.1808636e-38 348 291
0.035592664 0.69999999 -0.062593997 1.1808636e-38 349 291
0.036819998 0.69999999 -0.062593997 1.171644e-38 350 291
0.038047329 0.69999999 -0.062593997 1.1808636e-38 351 291
0.039274666 0.69999999 -0.062593997 1.2084855e-38 352 291
0.040502001 0.69999999 -0.062593997 1.180827e-38 353 291
0.041729331 0.69999999 -0.062593997 1.0786911e-38 354 291
0.042956665 0.69999999 -0.062593997 5.3470088e-39 355 291
0.044183996 0.69999999 -0.062593997 3.1429485e-39 356 291
0.045476202 0.70099998 -0.062683418 4.1574606e-39 357 291
0.047105055 0.70700002 -0.063219935 4.984343e-39 358 291
0.048344657 0.70700002 -0.063219935 5.4456813e-39 359 291
-0.011109119 0.704 -0.064186029 3.6881727e-39 311 292
-0.0098747732 0.704 -0.064186029 3.8700613e-39 312 292
-0.0086404262 0.704 -0.064186029 3.5938345e-39 313 292
-0.0073955595 0.70300001 -0.064094849 3.1353773e-39 314 292
-0.0061629666 0.70300001 -0.064094849 2.950986e-39 315 292
-0.0049303733 0.70300001 -0.064094849 2.8591533e-39 316 292
-0.0036977797 0.70300001 -0.064094849 2.8591533e-39 317 292
-0.0024651866 0.70300001 -0.064094849 2.9506301e-39 318 292
-0.0012325933 0.70300001 -0.064094849 2.9506301e-39 319 292
0 0.70300001 -0.064094849 3.0417495e-39 320 292
0.0098326923 0.70099998 -0.063912503 1.2452559e-38 328 292
0.011061779 0.70099998 -0.063912503 1.2452559e-38 329 292
0.012273333 0.69999999 -0.063821331 1.1994102e-38 330 292
0.013500666 0.69999999 -0.063821331 1.2086297e-38 331 292
0.014727999 0.69999999 -0.063821331 1.2361445e-38 332 292
0.015955333 0.69999999 -0.063821331 1.2361445e-38 333 292
0.017133573 0.69800001 -0.063638985 1.2269612e-38 334 292
0.0183574 0.69800001 -0.063638985 1.2085581e-38 335 292
0.019581227 0.69800001 -0.063638985 1.2085581e-38 336 292
0.020805053 0.69800001 -0.063638985 1.2085581e-38 337 292
0.022091998 0.69999999 -0.063821331 1.2085225e-38 338 292
0.023319334 0.69999999 -0.063821331 1.2085225e-38 339 292
0.024546666 0.69999999 -0.063821331 1.1901553e-38 340 292
0.025773998 0.69999999 -0.063821331 1.1901553e-38 341 292
0.027001332 0.69999999 -0.063821331 1.1993386e-38 342 292
0.028228667 0.69999999 -0.063821331 1.1993386e-38 343 292
0.029455997 0.69999999 -0.063821331 1.1993386e-38 344 292
0.030683333 0.69999999 -0.063821331 1.190119e-38 345 292
0.031910665 0.69999999 -0.063821331 1.1992304e-38 346 292
0.033137999 0.69999999 -0.063821331 1.1992304e-38 347 292
0.034365334 0.69999999 -0.063821331 1.1625679e-38 348 292
0.035592664 0.69999999 -0.063821331 1.1625679e-38 349 292
0.036819998 0.69999999 -0.063821331 1.2084499e-38 350 292
0.038047329 0.69999999 -0.063821331 1.2268891e-38 351 292
0.039442986 0.70300001 -0.064094849 1.3094689e-38 352 292
0.040675577 0.70300001 -0.064094849 1.115858e-38 353 292
0.041788943 0.70099998 -0.063912503 7.5632983e-39 354 292
0.043018032 0.70099998 -0.063912503 4.645935e-40 355 292
0.044436477 0.704 -0.064186029 6.8509482e-42 356 292
0.046905171 0.704 -0.064186029 2.314634e-39 358 292
-0.0086404262 0.704 -0.065420374 3.5034367e-39 313 293
-0.0074060797 0.704 -0.065420374 3.136099e-39 314 293
-0.0061717331 0.704 -0.065420374 3.0439033e-39 315 293
-0.0049514128 0.70599997 -0.065606222 3.0439033e-39 316 293
-0.0037135598 0.70599997 -0.065606222 2.951349e-39 317 293
-0.0024757064 0.70599997 -0.065606222 2.9513518e-39 318 293
-0.0012378532 0.70599997 -0.065606222 2.8591561e-39 319 293
0 0.70599997 -0.065606222 1.8468091e-39 320 293
0.0098747732 0.704 -0.065420374 1.1809355e-38 328 293
0.011109119 0.704 -0.065420374 1.2178497e-38 329 293
0.012325933 0.70300001 -0.065327443 1.20863e-38 330 293
0.013558527 0.70300001 -0.065327443 1.20863e-38 331 293
0.014749039 0.70099998 -0.065141588 1.2361445e-38 332 293
0.015978126 0.70099998 -0.065141588 1.2361445e-38 333 293
0.017207211 0.70099998 -0.065141588 1.2085578e-38 334 293
0.018436298 0.70099998 -0.065141588 1.2085578e-38 335 293
0.019637333 0.69999999 -0.065048665 1.2085581e-38 336 293
0.020864666 0.69999999 -0.065048665 1.2085581e-38 337 293
0.022091998 0.69999999 -0.065048665 1.2085581e-38 338 293
0.023319334 0.69999999 -0.065048665 1.2085581e-38 339 293
0.024546666 0.69999999 -0.065048665 1.1993386e-38 340 293
0.025773998 0.69999999 -0.065048665 1.1993386e-38 341 293
0.027001332 0.69999999 -0.065048665 1.1901909e-38 342 293
0.028228667 0.69999999 -0.065048665 1.1901909e-38 343 293
0.029498078 0.70099998 -0.065141588 1.190119e-38 344 293
0.030727165 0.70099998 -0.065141588 1.190119e-38 345 293
0.031956252 0.70099998 -0.065141588 1.1992307e-38 346 293
0.03318534 0.70099998 -0.065141588 1.1807917e-38 347 293
0.034414422 0.70099998 -0.065141588 1.1716793e-38 348 293
0.035643511 0.70099998 -0.065141588 1.199338e-38 349 293
0.036872596 0.70099998 -0.065141588 1.2728057e-38 350 293
0.038210396 0.70300001 -0.065327443 1.1621709e-38 351 293
0.039442986 0.70300001 -0.065327443 1.0141905e-38 352 293
0.040675577 0.70300001 -0.065327443 3.9651576e-39 353 293
0.041788943 0.70099998 -0.065141588 1.7592924e-39 354 293
0.043018032 0.70099998 -0.065141588 2.3124662e-39 355 293
0.045476202 0.70099998 -0.065141588 4.7045107e-39 357 293
-0.0049654399 0.708 -0.067033432 3.1357332e-39 316 294
-0.00372408 0.708 -0.067033432 2.9509832e-39 317 294
-0.0025037599 0.71399999 -0.067601517 3.0438851e-39 318 294
-0.00125188 0.71399999 -0.067601517 3.1360807e-39 319 294
0 0.71100003 -0.067317478 1.5117208e-41 320 294
0.0012448666 0.70999998 -0.067222796 1.5837475e-41 321 294
0.0024897333 0.70999998 -0.067222796 1.995449e-40 322 294
0.0037345996 0.70999998 -0.067222796 4.7649052e-40 323 294
0.0049794666 0.70999998 -0.067222796 5.712211e-40 324 294
0.0062067998 0.708 -0.067033432 1.4009818e-39 325 294
0.0074481601 0.708 -0.067033432 2.9697354e-39 326 294
0.008689519 0.708 -0.067033432 8.9624527e-39 327 294
0.0099168532 0.70700002 -0.066938758 1.2084499e-38 328 294
0.011156459 0.70700002 -0.066938758 1.2361445e-38 329 294
0.012378532 0.70599997 -0.066844068 1.226961e-38 330 294
0.013577812 0.704 -0.066654719 1.2362165e-38 331 294
0.014812159 0.704 -0.066654719 1.2544757e-38 332 294
0.016046507 0.704 -0.066654719 1.2544757e-38 333 294
0.017256306 0.70300001 -0.066560037 1.2361445e-38 334 294
0.018488899 0.70300001 -0.066560037 1.2268891e-38 335 294
0.019721493 0.70300001 -0.066560037 1.2085581e-38 336 294
0.020894472 0.70099998 -0.066370681 1.2085581e-38 337 294
0.022123558 0.70099998 -0.066370681 1.1994105e-38 338 294
0.023352645 0.70099998 -0.066370681 1.1901909e-38 339 294
0.024581732 0.70099998 -0.066370681 1.1993383e-38 340 294
0.025810819 0.70099998 -0.066370681 1.1993383e-38 341 294
0.027039904 0.70099998 -0.066370681 1.1993386e-38 342 294
0.028268991 0.70099998 -0.066370681 1.190119e-38 343 294
0.029498078 0.70099998 -0.066370681 1.1808638e-38 344 294
0.030727165 0.70099998 -0.066370681 1.1808638e-38 345 294
0.032047424 0.70300001 -0.066560037 1.1808636e-38 346 294
0.033280019 0.70300001 -0.066560037 1.190119e-38 347 294
0.034512613 0.70300001 -0.066560037 1.2635152e-38 348 294
0.035745207 0.70300001 -0.066560037 1.2081979e-38 349 294
0.036977798 0.70300001 -0.066560037 1.1802487e-38 350 294
0.038210396 0.70300001 -0.066560037 9.2210091e-39 351 294
0.039499093 0.704 -0.066654719 6.2707322e-39 352 294
0.040675577 0.70300001 -0.066560037 2.3063201e-39 353 294
0.041908171 0.70300001 -0.066560037 2.125191e-39 354 294
0.04437336 0.70300001 -0.066560037 3.9701952e-39 356 294
-0.0062506334 0.713 -0.068756968 8.3841229e-40 315 295
-0.0050005065 0.713 -0.068756968 2.8852035e-40 316 295
-0.0037503797 0.713 -0.068756968 9.3388976e-40 317 295
-0.0025002533 0.713 -0.068756968 2.2253502e-39 318 295
-0.00124662 0.71100003 -0.068564095 3.9774273e-39 319 295
0 0.71100003 -0.068564095 5.7298534e-39 320 295
0.00124662 0.71100003 -0.068564095 6.8365611e-39 321 295
0.0024897333 0.70999998 -0.068467662 8.4928398e-39 322 295
0.0037345996 0.70999998 -0.068467662 9.599186e-39 323 295
0.0049794666 0.70999998 -0.068467662 1.0979957e-38 324 295
0.0062067998 0.708 -0.068274796 1.1809357e-38 325 295
0.0074481601 0.708 -0.068274796 1.2453286e-38 326 295
0.008689519 0.708 -0.068274796 1.2637676e-38 327 295
0.0099308798 0.708 -0.068274796 1.2820269e-38 328 295
0.01117224 0.708 -0.068274796 1.2636237e-38 329 295
0.0124136 0.708 -0.068274796 1.2361089e-38 330 295
0.013635674 0.70700002 -0.068178371 1.2361089e-38 331 295
0.014854239 0.70599997 -0.06808193 1.2544757e-38 332 295
0.016092092 0.70599997 -0.06808193 1.2544757e-38 333 295
0.017280852 0.704 -0.067889065 1.2268891e-38 334 295
0.018515198 0.704 -0.067889065 1.2268891e-38 335 295
0.019749546 0.704 -0.067889065 1.2085581e-38 336 295
0.020954086 0.70300001 -0.067792632 1.2085581e-38 337 295
0.02218668 0.70300001 -0.067792632 1.1901909e-38 338 295
0.023419274 0.70300001 -0.067792632 1.1994105e-38 339 295
0.024651866 0.70300001 -0.067792632 1.1993386e-38 340 295
0.025884461 0.70300001 -0.067792632 1.190119e-38 341 295
0.027117053 0.70300001 -0.067792632 1.190119e-38 342 295
0.028349647 0.70300001 -0.067792632 1.190119e-38 343 295
0.029582238 0.70300001 -0.067792632 1.2084499e-38 344 295
0.030814834 0.70300001 -0.067792632 1.2084499e-38 345 295
0.032047424 0.70300001 -0.067792632 1.2636587e-38 346 295
0.033280019 0.70300001 -0.067792632 1.2359642e-38 347 295
0.034561705 0.704 -0.067889065 1.2170915e-38 348 295
0.035796054 0.704 -0.067889065 9.5894371e-39 349 295
0.037030395 0.704 -0.067889065 6.3586272e-39 350 295
0.038264744 0.704 -0.067889065 2.762999e-39 351 295
-0.0062506334 0.713 -0.070007093 4.807146e-39 315 296
-0.0050005065 0.713 -0.070007093 4.7193014e-39 316 296
-0.0037503797 0.713 -0.070007093 5.7334533e-39 317 296
-0.0025002533 0.713 -0.070007093 7.4819305e-39 318 296
-0.00124662 0.71100003 -0.069810718 8.6804737e-39 319 296
0 0.71100003 -0.069810718 1.0059442e-38 320 296
0.00124662 0.71100003 -0.069810718 1.0612616e-38 321 296
0.0024932399 0.71100003 -0.069810718 1.1439859e-38 322 296
0.0037345996 0.70999998 -0.069712527 1.1993033e-38 323 296
0.0049794666 0.70999998 -0.069712527 1.2360736e-38 324 296
0.0062243328 0.70999998 -0.069712527 1.2360736e-38 325 296
0.0074691991 0.70999998 -0.069712527 1.2453286e-38 326 296
0.0087140659 0.70999998 -0.069712527 1.2268894e-38 327 296
0.0099589331 0.70999998 -0.069712527 1.2544401e-38 328 296
0.01117224 0.708 -0.069516152 1.2452206e-38 329 296
0.0124136 0.708 -0.069516152 1.2269612e-38 330 296
0.013635674 0.70700002 -0.069417976 1.2085581e-38 331 296
0.01487528 0.70700002 -0.069417976 1.2268891e-38 332 296
0.016092092 0.70599997 -0.069319785 1.2268891e-38 333 296
