# .PCD v.7 - Point Cloud Data file format
FIELDS x y z rgb imX imY
SIZE 4 4 4 4 4 4
TYPE F F F F F F
COUNT 1 1 1 1 1 1
WIDTH 842
HEIGHT 1
VIEWPOINT 0 0 0 1 0 0 0
POINTS 842
DATA ascii
-0.03012928 0.71600002 -0.020086186 1.0203087e-38 296 256
-0.028873893 0.71600002 -0.020086186 9.8346629e-39 297 256
-0.027618507 0.71600002 -0.020086186 8.551124e-39 298 256
-0.026363119 0.71600002 -0.020086186 9.1964934e-39 299 256
-0.025037598 0.71399999 -0.020030079 1.1583135e-38 300 256
-0.023752406 0.713 -0.020002026 1.0015809e-38 301 256
-0.022502279 0.713 -0.020002026 1.0293115e-38 302 256
-0.021252153 0.713 -0.020002026 1.1307266e-38 303 256
-0.020002026 0.713 -0.020002026 1.2505087e-38 304 256
-0.018751899 0.713 -0.020002026 1.3980218e-38 305 256
-0.017526319 0.71399999 -0.020030079 1.287786e-38 306 256
-0.016251646 0.713 -0.020002026 1.2785664e-38 307 256
-0.015001519 0.713 -0.020002026 1.2983023e-38 308 256
-0.013751393 0.713 -0.020002026 1.5933283e-38 309 256
-0.012501267 0.713 -0.020002026 1.7865035e-38 310 256
-0.011251139 0.713 -0.020002026 1.7219666e-38 311 256
-0.0099729598 0.71100003 -0.01994592 1.8958062e-38 312 256
-0.0087263398 0.71100003 -0.01994592 1.5270237e-38 313 256
-0.0074797203 0.71100003 -0.01994592 1.69204e-38 314 256
-0.0062330998 0.71100003 -0.01994592 1.7012597e-38 315 256
-0.0049864799 0.71100003 -0.01994592 1.6922906e-38 316 256
-0.0037398601 0.71100003 -0.01994592 1.6553763e-38 317 256
-0.0024932399 0.71100003 -0.01994592 1.6454365e-38 318 256
-0.00124662 0.71100003 -0.01994592 1.5993387e-38 319 256
0 0.71100003 -0.01994592 1.5164348e-38 320 256
0.0012501266 0.713 -0.020002026 1.3689587e-38 321 256
0.0025037599 0.71399999 -0.020030079 1.2679038e-38 322 256
0.00376616 0.71600002 -0.020086186 1.2494291e-38 323 256
0.0050215465 0.71600002 -0.020086186 1.1581693e-38 324 256
0.0062857 0.71700001 -0.020114239 1.2780234e-38 325 256
0.0075638802 0.71899998 -0.020170346 1.4342162e-38 326 256
0.0088367993 0.72000003 -0.020198401 1.397374e-38 327 256
0.010099201 0.72000003 -0.020198401 1.4066649e-38 328 256
0.011361601 0.72000003 -0.020198401 1.3974453e-38 329 256
0.012659066 0.722 -0.020254506 1.3790437e-38 330 256
0.013924973 0.722 -0.020254506 1.3698242e-38 331 256
0.015211919 0.72299999 -0.020282559 1.3056122e-38 332 256
0.01647958 0.72299999 -0.020282559 1.1949414e-38 333 256
0.017747238 0.72299999 -0.020282559 6.3366548e-39 334 256
0.019014901 0.72299999 -0.020282559 1.2881827e-38 335 256
0.020282559 0.72299999 -0.020282559 1.779268e-38 336 256
-0.032640055 0.71600002 -0.021341572 1.1218681e-38 294 257
-0.031384666 0.71600002 -0.021341572 9.2825724e-39 295 257
-0.03012928 0.71600002 -0.021341572 9.1835622e-39 296 257
-0.028873893 0.71600002 -0.021341572 8.999887e-39 297 257
-0.027618507 0.71600002 -0.021341572 8.6354205e-39 298 257
-0.026289478 0.71399999 -0.021281958 9.8336036e-39 299 257
-0.025002534 0.713 -0.021252153 1.0848103e-38 300 257
-0.023685781 0.71100003 -0.021192541 1.0295288e-38 301 257
-0.022439159 0.71100003 -0.021192541 1.2413987e-38 302 257
-0.021192541 0.71100003 -0.021192541 1.4442291e-38 303 257
-0.01994592 0.71100003 -0.021192541 1.4808905e-38 304 257
-0.0186993 0.71100003 -0.021192541 1.4440123e-38 305 257
-0.017501773 0.713 -0.021252153 1.3517813e-38 306 257
-0.01620606 0.71100003 -0.021192541 1.2134879e-38 307 257
-0.014959441 0.71100003 -0.021192541 1.0387499e-38 308 257
-0.01371282 0.71100003 -0.021192541 1.186263e-38 309 257
-0.0124662 0.71100003 -0.021192541 1.3248422e-38 310 257
-0.01121958 0.71100003 -0.021192541 1.3156227e-38 311 257
-0.0099589331 0.70999998 -0.021162732 1.5173725e-38 312 257
-0.0087140659 0.70999998 -0.021162732 1.5726899e-38 313 257
-0.0074691991 0.70999998 -0.021162732 1.7198785e-38 314 257
-0.0062243328 0.70999998 -0.021162732 1.7383178e-38 315 257
-0.0049794666 0.70999998 -0.021162732 1.7016542e-38 316 257
-0.0037345996 0.70999998 -0.021162732 1.5910196e-38 317 257
-0.0024932399 0.71100003 -0.021192541 1.6086661e-38 318 257
-0.00124662 0.71100003 -0.021192541 1.5809714e-38 319 257
0 0.71100003 -0.021192541 1.5533482e-38 320 257
0.00124662 0.71100003 -0.021192541 1.5256893e-38 321 257
0.0025002533 0.713 -0.021252153 1.3417309e-38 322 257
0.0037556398 0.71399999 -0.021281958 1.2310979e-38 323 257
0.0050215465 0.71600002 -0.021341572 1.065507e-38 324 257
0.0062857 0.71700001 -0.021371379 1.2499333e-38 325 257
0.0075428397 0.71700001 -0.021371379 1.3055391e-38 326 257
0.0088245263 0.71899998 -0.021430992 1.3147586e-38 327 257
0.010085173 0.71899998 -0.021430992 1.3790788e-38 328 257
0.011361601 0.72000003 -0.021460801 1.3790788e-38 329 257
0.012624 0.72000003 -0.021460801 1.3515648e-38 330 257
0.013924973 0.722 -0.021520413 1.3515648e-38 331 257
0.015211919 0.72299999 -0.021550218 1.3147236e-38 332 257
0.01647958 0.72299999 -0.021550218 1.2778812e-38 333 257
0.017747238 0.72299999 -0.021550218 9.8264247e-39 334 257
0.019014901 0.72299999 -0.021550218 1.5080141e-38 335 257
0.020282559 0.72299999 -0.021550218 1.7421747e-38 336 257
0.021550218 0.72299999 -0.021550218 1.8159312e-38 337 257
-0.032640055 0.71600002 -0.022596961 1.2228172e-38 294 258
-0.031384666 0.71600002 -0.022596961 1.3703303e-38 295 258
-0.03012928 0.71600002 -0.022596961 1.4899697e-38 296 258
-0.028793238 0.71399999 -0.022533838 1.591385e-38 297 258
-0.02754136 0.71399999 -0.022533838 1.6926553e-38 298 258
-0.026252659 0.713 -0.022502279 1.6097151e-38 299 258
-0.024932399 0.71100003 -0.022439159 1.3071604e-38 300 258
-0.023685781 0.71100003 -0.022439159 1.4270147e-38 301 258
-0.022407599 0.70999998 -0.022407599 1.7025219e-38 302 258
-0.021162732 0.70999998 -0.022407599 1.7485838e-38 303 258
-0.019917866 0.70999998 -0.022407599 1.7853159e-38 304 258
-0.018672999 0.70999998 -0.022407599 1.656242e-38 305 258
-0.01745268 0.71100003 -0.022439159 1.6459782e-38 306 258
-0.01620606 0.71100003 -0.022439159 1.6182835e-38 307 258
-0.014938398 0.70999998 -0.022407599 1.618465e-38 308 258
-0.013693533 0.70999998 -0.022407599 1.5170858e-38 309 258
-0.0124136 0.708 -0.022344479 1.1681091e-38 310 258
-0.01117224 0.708 -0.022344479 1.0390352e-38 311 258
-0.0099308798 0.708 -0.022344479 1.1127917e-38 312 258
-0.008689519 0.708 -0.022344479 1.5000134e-38 313 258
-0.0074691991 0.70999998 -0.022407599 1.7757002e-38 314 258
-0.0062243328 0.70999998 -0.022407599 1.6835044e-38 315 258
-0.0049794666 0.70999998 -0.022407599 1.646013e-38 316 258
-0.0037345996 0.70999998 -0.022407599 1.5353422e-38 317 258
-0.0024897333 0.70999998 -0.022407599 1.5718247e-38 318 258
-0.0012448666 0.70999998 -0.022407599 1.5441302e-38 319 258
0 0.70999998 -0.022407599 1.5348737e-38 320 258
0.00124662 0.71100003 -0.022439159 1.5164345e-38 321 258
0.0024932399 0.71100003 -0.022439159 1.4429658e-38 322 258
0.0037503797 0.713 -0.022502279 1.415307e-38 323 258
0.0050075199 0.71399999 -0.022533838 1.2220578e-38 324 258
0.0062769335 0.71600002 -0.022596961 1.2313131e-38 325 258
0.00753232 0.71600002 -0.022596961 1.0937765e-38 326 258
0.0087999795 0.71700001 -0.02262852 1.2597286e-38 327 258
0.01005712 0.71700001 -0.02262852 1.3790803e-38 328 258
0.01134582 0.71899998 -0.022691639 1.3606772e-38 329 258
0.012624 0.72000003 -0.022723202 1.3333055e-38 330 258
0.0138864 0.72000003 -0.022723202 1.2964274e-38 331 258
0.015211919 0.72299999 -0.02281788 1.3146517e-38 332 258
0.01647958 0.72299999 -0.02281788 1.2685179e-38 333 258
0.017722692 0.722 -0.022786319 1.0744775e-38 334 258
0.0189886 0.722 -0.022786319 1.525985e-38 335 258
0.020254506 0.722 -0.022786319 1.5762937e-38 336 258
0.021609833 0.72500002 -0.022880999 1.7606491e-38 337 258
-0.032640055 0.71600002 -0.023852346 1.3337766e-38 294 259
-0.031384666 0.71600002 -0.023852346 1.4628505e-38 295 259
-0.030045118 0.71399999 -0.02378572 1.5917086e-38 296 259
-0.028793238 0.71399999 -0.02378572 1.7484772e-38 297 259
-0.027502786 0.713 -0.023752406 1.8867703e-38 298 259
-0.026179021 0.71100003 -0.023685781 1.6839399e-38 299 259
-0.024897331 0.70999998 -0.023652466 1.3353957e-38 300 259
-0.023652466 0.70999998 -0.023652466 1.5197511e-38 301 259
-0.022407599 0.70999998 -0.023652466 1.8870198e-38 302 259
-0.021103119 0.708 -0.023585839 1.8224828e-38 303 259
-0.01986176 0.708 -0.023585839 1.7853142e-38 304 259
-0.0186204 0.708 -0.023585839 1.7207774e-38 305 259
-0.017428132 0.70999998 -0.023652466 1.6827851e-38 306 259
-0.01613768 0.708 -0.023585839 1.6275036e-38 307 259
-0.01489632 0.708 -0.023585839 1.6644905e-38 308 259
-0.013654959 0.708 -0.023585839 1.7475026e-38 309 259
-0.012396066 0.70700002 -0.023552528 1.4356184e-38 310 259
-0.011140679 0.70599997 -0.023519212 1.2143849e-38 311 259
-0.0099028256 0.70599997 -0.023519212 1.2406054e-38 312 259
-0.008677247 0.70700002 -0.023552528 1.6002044e-38 313 259
-0.0074376399 0.70700002 -0.023552528 1.5643338e-38 314 259
-0.0062067998 0.708 -0.023585839 1.4444795e-38 315 259
-0.0049654399 0.708 -0.023585839 1.5630721e-38 316 259
-0.0037188199 0.70700002 -0.023552528 1.4893156e-38 317 259
-0.0024792133 0.70700002 -0.023552528 1.5258711e-38 318 259
-0.00124136 0.708 -0.023585839 1.4982125e-38 319 259
0 0.70999998 -0.023652466 1.479773e-38 320 259
0.0012448666 0.70999998 -0.023652466 1.4705534e-38 321 259
0.0024897333 0.70999998 -0.023652466 1.4430011e-38 322 259
0.0037398601 0.71100003 -0.023685781 1.4245623e-38 323 259
0.0050005065 0.713 -0.023752406 1.3417668e-38 324 259
0.0062593995 0.71399999 -0.02378572 1.2495367e-38 325 259
0.00753232 0.71600002 -0.023852346 1.0012939e-38 326 259
0.0087877065 0.71600002 -0.023852346 1.2594415e-38 327 259
0.01005712 0.71700001 -0.02388566 1.2689873e-38 328 259
0.01131426 0.71700001 -0.02388566 1.296646e-38 329 259
0.012606465 0.71899998 -0.023952285 1.3056841e-38 330 259
0.0138864 0.72000003 -0.0239856 1.2779895e-38 331 259
0.015211919 0.72299999 -0.024085538 1.268626e-38 332 259
0.01647958 0.72299999 -0.024085538 1.2409674e-38 333 259
0.017722692 0.722 -0.024052227 1.1020278e-38 334 259
0.0189886 0.722 -0.024052227 1.4983255e-38 335 259
0.020338668 0.72500002 -0.024152167 1.483881e-38 336 259
0.021609833 0.72500002 -0.024152167 1.7512484e-38 337 259
-0.035592668 0.72500002 -0.025423333 1.1028184e-38 292 260
-0.034084801 0.72000003 -0.025248 1.112038e-38 293 260
-0.032640055 0.71600002 -0.025107734 1.361398e-38 294 260
-0.031384666 0.71600002 -0.025107734 1.3982404e-38 295 260
-0.030045118 0.71399999 -0.025037598 1.52674e-38 296 260
-0.028752912 0.713 -0.025002534 1.7480456e-38 297 260
-0.027425639 0.71100003 -0.024932399 1.8227021e-38 298 260
-0.026142199 0.70999998 -0.024897331 1.5092371e-38 299 260
-0.024897331 0.70999998 -0.024897331 1.0590956e-38 300 260
-0.023652466 0.70999998 -0.024897331 1.2066086e-38 301 260
-0.022344479 0.708 -0.024827199 1.6831807e-38 302 260
-0.021103119 0.708 -0.024827199 1.57251e-38 303 260
-0.01986176 0.708 -0.024827199 1.5811146e-38 304 260
-0.0186204 0.708 -0.024827199 1.5442005e-38 305 260
-0.017379038 0.708 -0.024827199 1.5535299e-38 306 260
-0.01613768 0.708 -0.024827199 1.5535299e-38 307 260
-0.01487528 0.70700002 -0.024792133 1.5168337e-38 308 260
-0.013635674 0.70700002 -0.024792133 1.7565422e-38 309 260
-0.012378532 0.70599997 -0.024757065 1.7028788e-38 310 260
-0.011140679 0.70599997 -0.024757065 1.6936592e-38 311 260
-0.0099028256 0.70599997 -0.024757065 1.6743574e-38 312 260
-0.0086649731 0.70599997 -0.024757065 1.3332336e-38 313 260
-0.0074271196 0.70599997 -0.024757065 9.5631053e-39 314 260
-0.0061980332 0.70700002 -0.024792133 1.1407378e-38 315 260
-0.0049584266 0.70700002 -0.024792133 1.4616941e-38 316 260
-0.0037188199 0.70700002 -0.024792133 1.4432191e-38 317 260
-0.0024792133 0.70700002 -0.024792133 1.5073242e-38 318 260
-0.00124136 0.708 -0.024827199 1.4981045e-38 319 260
0 0.708 -0.024827199 1.4522222e-38 320 260
0.0012448666 0.70999998 -0.024897331 1.4337831e-38 321 260
0.0024897333 0.70999998 -0.024897331 1.4337478e-38 322 260
0.0037345996 0.70999998 -0.024897331 1.4245282e-38 323 260
0.0049864799 0.71100003 -0.024932399 1.3786472e-38 324 260
0.0062506334 0.713 -0.025002534 1.3418048e-38 325 260
0.0075112795 0.71399999 -0.025037598 1.1029979e-38 326 260
0.0087877065 0.71600002 -0.025107734 1.1122176e-38 327 260
0.010043093 0.71600002 -0.025107734 1.1129747e-38 328 260
0.01129848 0.71600002 -0.025107734 1.2052062e-38 329 260
0.0125714 0.71700001 -0.0251428 1.3057934e-38 330 260
0.013867113 0.71899998 -0.025212931 1.2228172e-38 331 260
0.015211919 0.72299999 -0.025353199 1.2685179e-38 332 260
0.01647958 0.72299999 -0.025353199 1.2132005e-38 333 260
0.017747238 0.72299999 -0.025353199 1.1756761e-38 334 260
0.019014901 0.72299999 -0.025353199 1.5167999e-38 335 260
0.020282559 0.72299999 -0.025353199 1.4007253e-38 336 260
0.021609833 0.72500002 -0.025423333 1.7602881e-38 337 260
-0.036863834 0.72500002 -0.026694499 9.9240167e-39 291 261
-0.035494477 0.72299999 -0.026620859 8.7333671e-39 292 261
-0.034084801 0.72000003 -0.026510401 8.5489758e-39 293 261
-0.032640055 0.71600002 -0.026363119 1.2416506e-38 294 261
-0.031384666 0.71600002 -0.026363119 1.2416506e-38 295 261
-0.030045118 0.71399999 -0.026289478 1.4159255e-38 296 261
-0.028752912 0.713 -0.026252659 1.6187918e-38 297 261
-0.027425639 0.71100003 -0.026179021 1.74819e-38 298 261
-0.026142199 0.70999998 -0.026142199 1.4346889e-38 299 261
-0.024897331 0.70999998 -0.026142199 9.3859139e-39 300 261
-0.023585839 0.708 -0.026068559 1.1690445e-38 301 261
-0.022344479 0.708 -0.026068559 1.581368e-38 302 261
-0.021103119 0.708 -0.026068559 1.516831e-38 303 261
-0.019833706 0.70700002 -0.02603174 1.5255821e-38 304 261
-0.018594101 0.70700002 -0.02603174 1.507143e-38 305 261
-0.017379038 0.708 -0.026068559 1.5072541e-38 306 261
-0.016114887 0.70700002 -0.02603174 1.5349487e-38 307 261
-0.01487528 0.70700002 -0.02603174 1.5072194e-38 308 261
-0.013635674 0.70700002 -0.02603174 1.5717563e-38 309 261
-0.012378532 0.70599997 -0.025994917 1.5914877e-38 310 261
-0.011140679 0.70599997 -0.025994917 1.6929389e-38 311 261
-0.0099028256 0.70599997 -0.025994917 1.6376937e-38 312 261
-0.0086649731 0.70599997 -0.025994917 1.3703264e-38 313 261
-0.0074271196 0.70599997 -0.025994917 1.1306197e-38 314 261
-0.0061980332 0.70700002 -0.02603174 1.1951567e-38 315 261
-0.0049584266 0.70700002 -0.02603174 1.268733e-38 316 261
-0.0037135598 0.70599997 -0.025994917 1.3424895e-38 317 261
-0.0024757064 0.70599997 -0.025994917 1.4523674e-38 318 261
-0.0012396066 0.70700002 -0.02603174 1.4338922e-38 319 261
0 0.708 -0.026068559 1.4247799e-38 320 261
0.00124136 0.708 -0.026068559 1.3971572e-38 321 261
0.00248272 0.708 -0.026068559 1.4062689e-38 322 261
0.0037345996 0.70999998 -0.026142199 1.3878299e-38 323 261
0.0049794666 0.70999998 -0.026142199 1.3693557e-38 324 261
0.0062330998 0.71100003 -0.026179021 1.3877949e-38 325 261
0.0074797203 0.71100003 -0.026179021 1.2501519e-38 326 261
0.0087508867 0.713 -0.026252659 1.2132736e-38 327 261
0.01001504 0.71399999 -0.026289478 9.9326586e-39 328 261
0.01129848 0.71600002 -0.026363119 1.1407789e-38 329 261
0.0125714 0.71700001 -0.02639994 1.2690948e-38 330 261
0.013867113 0.71899998 -0.02647358 1.1953383e-38 331 261
0.015190879 0.722 -0.026584039 1.2409668e-38 332 261
0.016456785 0.722 -0.026584039 1.213344e-38 333 261
0.017722692 0.722 -0.026584039 1.1395169e-38 334 261
0.019014901 0.72299999 -0.026620859 1.4068842e-38 335 261
0.020282559 0.72299999 -0.026620859 1.3821416e-38 336 261
0.021609833 0.72500002 -0.026694499 1.7601078e-38 337 261
-0.038135 0.72500002 -0.027965667 1.0935285e-38 290 262
-0.036863834 0.72500002 -0.027965667 9.2757635e-39 291 262
-0.035494477 0.72299999 -0.02788852 7.5395e-39 292 262
-0.034084801 0.72000003 -0.027772799 7.9079224e-39 293 262
-0.032685637 0.71700001 -0.027657079 1.2140289e-38 294 262
-0.031384666 0.71600002 -0.027618507 1.2232485e-38 295 262
-0.030045118 0.71399999 -0.02754136 1.3424917e-38 296 262
-0.028752912 0.713 -0.027502786 1.3701504e-38 297 262
-0.027425639 0.71100003 -0.027425639 1.4706295e-38 298 262
-0.026142199 0.70999998 -0.027387066 1.16642e-38 299 262
-0.024897331 0.70999998 -0.027387066 8.7315468e-39 300 262
-0.023585839 0.708 -0.027309919 1.2142418e-38 301 262
-0.022344479 0.708 -0.027309919 1.4981775e-38 302 262
-0.021103119 0.708 -0.027309919 1.488958e-38 303 262
-0.019833706 0.70700002 -0.027271347 1.5164371e-38 304 262
-0.018594101 0.70700002 -0.027271347 1.5164371e-38 305 262
-0.017354494 0.70700002 -0.027271347 1.4980343e-38 306 262
-0.016114887 0.70700002 -0.027271347 1.5072539e-38 307 262
-0.014854239 0.70599997 -0.027232772 1.4979995e-38 308 262
-0.013616386 0.70599997 -0.027232772 1.4979995e-38 309 262
-0.012378532 0.70599997 -0.027232772 1.461444e-38 310 262
-0.011140679 0.70599997 -0.027232772 1.5075058e-38 311 262
-0.0099028256 0.70599997 -0.027232772 1.5260507e-38 312 262
-0.0086649731 0.70599997 -0.027232772 1.5352703e-38 313 262
-0.0074271196 0.70599997 -0.027232772 1.3330884e-38 314 262
-0.0061892662 0.70599997 -0.027232772 1.1486973e-38 315 262
-0.0049514128 0.70599997 -0.027232772 1.0662623e-38 316 262
-0.0037135598 0.70599997 -0.027232772 1.2875317e-38 317 262
-0.0024757064 0.70599997 -0.027232772 1.415598e-38 318 262
-0.0012378532 0.70599997 -0.027232772 1.3879033e-38 319 262
0 0.70700002 -0.027271347 1.4154528e-38 320 262
0.0012396066 0.70700002 -0.027271347 1.4062333e-38 321 262
0.00248272 0.708 -0.027309919 1.3786472e-38 322 262
0.00372408 0.708 -0.027309919 1.3786472e-38 323 262
0.0049794666 0.70999998 -0.027387066 1.3603525e-38 324 262
0.0062243328 0.70999998 -0.027387066 1.3695721e-38 325 262
0.0074797203 0.71100003 -0.027425639 1.3329835e-38 326 262
0.0087263398 0.71100003 -0.027425639 1.2684465e-38 327 262
0.010001013 0.713 -0.027502786 8.553673e-39 328 262
0.011266919 0.71399999 -0.02754136 1.012064e-38 329 262
0.012553867 0.71600002 -0.027618507 1.204559e-38 330 262
0.013867113 0.71899998 -0.027734226 1.1492775e-38 331 262
0.015190879 0.722 -0.027849946 1.2317121e-38 332 262
0.016456785 0.722 -0.027849946 1.2317121e-38 333 262
0.017722692 0.722 -0.027849946 1.1766112e-38 334 262
0.019014901 0.72299999 -0.02788852 1.3979167e-38 335 262
0.020282559 0.72299999 -0.02788852 1.3911091e-38 336 262
-0.038135 0.72500002 -0.029236834 8.9116473e-39 290 263
-0.036863834 0.72500002 -0.029236834 9.1882342e-39 291 263
-0.035445385 0.722 -0.029115854 1.0574749e-38 292 263
-0.034084801 0.72000003 -0.029035201 1.1035368e-38 293 263
-0.032776814 0.71899998 -0.028994869 1.3149036e-38 294 263
-0.031428497 0.71700001 -0.028914221 1.3056841e-38 295 263
-0.03012928 0.71600002 -0.028873893 1.34231e-38 296 263
-0.028793238 0.71399999 -0.028793238 1.3330904e-38 297 263
-0.027425639 0.71100003 -0.028672259 1.3238333e-38 298 263
-0.026142199 0.70999998 -0.028631933 1.1025999e-38 299 263
-0.024897331 0.70999998 -0.028631933 9.6491843e-39 300 263
-0.023585839 0.708 -0.02855128 1.2691986e-38 301 263
-0.022344479 0.708 -0.02855128 1.470663e-38 302 263
-0.021103119 0.708 -0.02855128 1.4430042e-38 303 263
-0.019833706 0.70700002 -0.028510952 1.4522242e-38 304 263
-0.018594101 0.70700002 -0.028510952 1.4614437e-38 305 263
-0.017354494 0.70700002 -0.028510952 1.4522242e-38 306 263
-0.016114887 0.70700002 -0.028510952 1.4614437e-38 307 263
-0.014854239 0.70599997 -0.028470624 1.4521535e-38 308 263
-0.013616386 0.70599997 -0.028470624 1.4429338e-38 309 263
-0.012378532 0.70599997 -0.028470624 1.4246377e-38 310 263
-0.011140679 0.70599997 -0.028470624 1.4246377e-38 311 263
-0.0099028256 0.70599997 -0.028470624 1.4522944e-38 312 263
-0.0086649731 0.70599997 -0.028470624 1.4615141e-38 313 263
-0.0074271196 0.70599997 -0.028470624 1.4431475e-38 314 263
-0.0061892662 0.70599997 -0.028470624 1.2587563e-38 315 263
-0.0049514128 0.70599997 -0.028470624 1.0475358e-38 316 263
-0.0037135598 0.70599997 -0.028470624 1.1766096e-38 317 263
-0.0024757064 0.70599997 -0.028470624 1.2504017e-38 318 263
-0.0012378532 0.70599997 -0.028470624 1.2596213e-38 319 263
0 0.70599997 -0.028470624 1.3877951e-38 320 263
0.0012396066 0.70700002 -0.028510952 1.3877951e-38 321 263
0.0024792133 0.70700002 -0.028510952 1.3695002e-38 322 263
0.00372408 0.708 -0.02855128 1.3879033e-38 323 263
0.0049654399 0.708 -0.02855128 1.3420932e-38 324 263
0.0062243328 0.70999998 -0.028631933 1.3513127e-38 325 263
0.0074691991 0.70999998 -0.028631933 1.305397e-38 326 263
0.0087140659 0.70999998 -0.028631933 1.2500797e-38 327 263
0.0099729598 0.71100003 -0.028672259 1.0206001e-38 328 263
0.01121958 0.71100003 -0.028672259 1.0206001e-38 329 263
0.012553867 0.71600002 -0.028873893 9.657494e-39 330 263
0.013867113 0.71899998 -0.028994869 9.9340809e-39 331 263
0.015190879 0.722 -0.029115854 1.1950496e-38 332 263
0.016456785 0.722 -0.029115854 1.2503311e-38 333 263
0.017722692 0.722 -0.029115854 1.2233561e-38 334 263
0.019014901 0.72299999 -0.029156178 1.35243e-38 335 263
0.020282559 0.72299999 -0.029156178 1.4279151e-38 336 263
-0.0379772 0.722 -0.030381758 8.3599e-39 290 264
-0.03671129 0.722 -0.030381758 1.0572595e-38 291 264
-0.035445385 0.722 -0.030381758 1.2598002e-38 292 264
-0.034084801 0.72000003 -0.0302976 1.2413971e-38 293 264
-0.032685637 0.71700001 -0.030171359 1.3607125e-38 294 264
-0.031428497 0.71700001 -0.030171359 1.351493e-38 295 264
-0.03012928 0.71600002 -0.03012928 1.3513848e-38 296 264
-0.028793238 0.71399999 -0.030045118 1.323762e-38 297 264
-0.027425639 0.71100003 -0.029918881 1.3053226e-38 298 264
-0.026142199 0.70999998 -0.029876797 1.2039074e-38 299 264
-0.024897331 0.70999998 -0.029876797 1.1121433e-38 300 264
-0.023585839 0.708 -0.02979264 1.287315e-38 301 264
-0.022344479 0.708 -0.02979264 1.4430045e-38 302 264
-0.021073313 0.70700002 -0.029750559 1.4430045e-38 303 264
-0.019833706 0.70700002 -0.029750559 1.4247094e-38 304 264
-0.018594101 0.70700002 -0.029750559 1.4339648e-38 305 264
-0.017354494 0.70700002 -0.029750559 1.4063429e-38 306 264
-0.016092092 0.70599997 -0.029708479 1.4063429e-38 307 264
-0.014854239 0.70599997 -0.029708479 1.4062708e-38 308 264
-0.013616386 0.70599997 -0.029708479 1.4062708e-38 309 264
-0.012378532 0.70599997 -0.029708479 1.4063061e-38 310 264
-0.011140679 0.70599997 -0.029708479 1.3970866e-38 311 264
-0.0099028256 0.70599997 -0.029708479 1.4063415e-38 312 264
-0.0086649731 0.70599997 -0.029708479 1.3971219e-38 313 264
-0.0074271196 0.70599997 -0.029708479 1.4154884e-38 314 264
-0.0061892662 0.70599997 -0.029708479 1.3417319e-38 315 264
-0.0049514128 0.70599997 -0.029708479 1.1301874e-38 316 264
-0.0037135598 0.70599997 -0.029708479 1.0472116e-38 317 264
-0.0024757064 0.70599997 -0.029708479 1.130656e-38 318 264
-0.0012378532 0.70599997 -0.029708479 1.2228875e-38 319 264
0 0.70599997 -0.029708479 1.3603525e-38 320 264
0.0012378532 0.70599997 -0.029708479 1.3695721e-38 321 264
0.0024792133 0.70700002 -0.029750559 1.3512409e-38 322 264
0.0037188199 0.70700002 -0.029750559 1.3512409e-38 323 264
0.0049654399 0.708 -0.02979264 1.314579e-38 324 264
0.0062067998 0.708 -0.02979264 1.3237985e-38 325 264
0.0074691991 0.70999998 -0.029876797 1.2686979e-38 326 264
0.0087140659 0.70999998 -0.029876797 1.2318557e-38 327 264
0.0099589331 0.70999998 -0.029876797 1.1307295e-38 328 264
0.01121958 0.71100003 -0.029918881 1.0477175e-38 329 264
0.012518799 0.71399999 -0.030045118 8.6472895e-39 330 264
0.0138864 0.72000003 -0.0302976 9.5688857e-39 331 264
0.015211919 0.72299999 -0.030423839 1.2229238e-38 332 264
0.016456785 0.722 -0.030381758 1.2690576e-38 333 264
0.017722692 0.722 -0.030381758 1.2513738e-38 334 264
0.019014901 0.72299999 -0.030423839 1.3989227e-38 335 264
0.020338668 0.72500002 -0.030508002 1.4834476e-38 336 264
-0.038135 0.72500002 -0.031779166 8.4542466e-39 290 265
-0.03671129 0.722 -0.031647664 1.1957681e-38 291 265
-0.035445385 0.722 -0.031647664 1.4068807e-38 292 265
-0.033942781 0.71700001 -0.031428497 1.3607829e-38 293 265
-0.032685637 0.71700001 -0.031428497 1.3791507e-38 294 265
-0.031428497 0.71700001 -0.031428497 1.351528e-38 295 265
-0.03012928 0.71600002 -0.031384666 1.3423803e-38 296 265
-0.028793238 0.71399999 -0.031296998 1.3147216e-38 297 265
-0.027502786 0.713 -0.031253166 1.2778083e-38 298 265
-0.026142199 0.70999998 -0.031121666 1.2409301e-38 299 265
-0.024897331 0.70999998 -0.031121666 1.1859367e-38 300 265
-0.023585839 0.708 -0.031034 1.2596933e-38 301 265
-0.022344479 0.708 -0.031034 1.387867e-38 302 265
-0.021073313 0.70700002 -0.030990168 1.387867e-38 303 265
-0.019833706 0.70700002 -0.030990168 1.3879389e-38 304 265
-0.018594101 0.70700002 -0.030990168 1.3971585e-38 305 265
-0.017329946 0.70599997 -0.030946331 1.3971232e-38 306 265
-0.016092092 0.70599997 -0.030946331 1.3971232e-38 307 265
-0.014854239 0.70599997 -0.030946331 1.3878317e-38 308 265
-0.013616386 0.70599997 -0.030946331 1.3878317e-38 309 265
-0.012343466 0.704 -0.030858666 1.387867e-38 310 265
-0.011109119 0.704 -0.030858666 1.3786475e-38 311 265
-0.0098747732 0.704 -0.030858666 1.3878304e-38 312 265
-0.0086404262 0.704 -0.030858666 1.3878304e-38 313 265
-0.0074060797 0.704 -0.030858666 1.3878302e-38 314 265
-0.0061717331 0.704 -0.030858666 1.3878302e-38 315 265
-0.0049373866 0.704 -0.030858666 1.2312423e-38 316 265
-0.0037030398 0.704 -0.030858666 1.0010069e-38 317 265
-0.0024686933 0.704 -0.030858666 1.0109455e-38 318 265
-0.0012378532 0.70599997 -0.030946331 1.1860813e-38 319 265
0 0.70599997 -0.030946331 1.3694654e-38 320 265
0.0012378532 0.70599997 -0.030946331 1.4340024e-38 321 265
0.0024757064 0.70599997 -0.030946331 1.351493e-38 322 265
0.0037135598 0.70599997 -0.030946331 1.3422734e-38 323 265
0.0049584266 0.70700002 -0.030990168 1.3054673e-38 324 265
0.0062067998 0.708 -0.031034 1.2962477e-38 325 265
0.0074481601 0.708 -0.031034 1.2410753e-38 326 265
0.008689519 0.708 -0.031034 1.2226003e-38 327 265
0.0099589331 0.70999998 -0.031121666 1.1398043e-38 328 265
0.01121958 0.71100003 -0.031165501 1.0383531e-38 329 265
0.012518799 0.71399999 -0.031296998 8.7383921e-39 330 265
0.013924973 0.722 -0.031647664 9.9365766e-39 331 265
0.015211919 0.72299999 -0.031691495 1.2047002e-38 332 265
0.01647958 0.72299999 -0.031691495 1.2784567e-38 333 265
0.017747238 0.72299999 -0.031691495 1.2515539e-38 334 265
0.019014901 0.72299999 -0.031691495 1.4543844e-38 335 265
0.020338668 0.72500002 -0.031779166 1.5849351e-38 336 265
0.021699252 0.72799999 -0.031910665 1.8246436e-38 337 265
-0.038135 0.72500002 -0.033050332 9.2804102e-39 290 266
-0.036762137 0.72299999 -0.032959159 1.2507257e-38 291 266
-0.035445385 0.722 -0.032913569 1.3975888e-38 292 266
-0.033942781 0.71700001 -0.032685637 1.3975888e-38 293 266
-0.032685637 0.71700001 -0.032685637 1.3975885e-38 294 266
-0.031428497 0.71700001 -0.032685637 1.3791494e-38 295 266
-0.03012928 0.71600002 -0.032640055 1.3791494e-38 296 266
-0.028793238 0.71399999 -0.032548878 1.3607103e-38 297 266
-0.027502786 0.713 -0.032503292 1.323797e-38 298 266
-0.026179021 0.71100003 -0.032412119 1.2961024e-38 299 266
-0.024897331 0.70999998 -0.032366529 1.1953718e-38 300 266
-0.023652466 0.70999998 -0.032366529 1.2229944e-38 301 266
-0.022344479 0.708 -0.03227536 1.3145787e-38 302 266
-0.021073313 0.70700002 -0.032229774 1.3145787e-38 303 266
-0.019805651 0.70599997 -0.032184184 1.3512055e-38 304 266
-0.018567799 0.70599997 -0.032184184 1.3512055e-38 305 266
-0.017329946 0.70599997 -0.032184184 1.351278e-38 306 266
-0.016092092 0.70599997 -0.032184184 1.351278e-38 307 266
-0.014854239 0.70599997 -0.032184184 1.3512058e-38 308 266
-0.013616386 0.70599997 -0.032184184 1.3419863e-38 309 266
-0.012343466 0.704 -0.032093015 1.3602453e-38 310 266
-0.011109119 0.704 -0.032093015 1.3510258e-38 311 266
-0.0098747732 0.704 -0.032093015 1.3602809e-38 312 266
-0.0086404262 0.704 -0.032093015 1.3602809e-38 313 266
-0.0074060797 0.704 -0.032093015 1.3694982e-38 314 266
-0.0061717331 0.704 -0.032093015 1.3418395e-38 315 266
-0.0049373866 0.704 -0.032093015 1.2773026e-38 316 266
-0.0037030398 0.704 -0.032093015 1.0652918e-38 317 266
-0.0024686933 0.704 -0.032093015 9.4626532e-39 318 266
-0.0012343467 0.704 -0.032093015 1.1398761e-38 319 266
0 0.70599997 -0.032184184 1.333381e-38 320 266
0.0012378532 0.70599997 -0.032184184 1.3149779e-38 321 266
0.0024757064 0.70599997 -0.032184184 1.3513873e-38 322 266
0.0037135598 0.70599997 -0.032184184 1.3237285e-38 323 266
0.0049584266 0.70700002 -0.032229774 1.2778812e-38 324 266
0.0061980332 0.70700002 -0.032229774 1.2594062e-38 325 266
0.0074376399 0.70700002 -0.032229774 1.2318554e-38 326 266
0.008689519 0.708 -0.03227536 1.1949412e-38 327 266
0.0099589331 0.70999998 -0.032366529 1.1764299e-38 328 266
0.01121958 0.71100003 -0.032412119 1.1303679e-38 329 266
0.012553867 0.71600002 -0.032640055 9.3823112e-39 330 266
0.01394426 0.72299999 -0.032959159 1.0396822e-38 331 266
0.015211919 0.72299999 -0.032959159 1.1958397e-38 332 266
0.01647958 0.72299999 -0.032959159 1.2696322e-38 333 266
0.017747238 0.72299999 -0.032959159 1.2792849e-38 334 266
0.0190675 0.72500002 -0.033050332 1.5005545e-38 335 266
0.020394772 0.727 -0.033141505 1.6495089e-38 336 266
0.021669446 0.727 -0.033141505 1.8523393e-38 337 266
-0.039569225 0.72799999 -0.034463517 8.847521e-39 289 267
-0.038135 0.72500002 -0.034321502 1.1122155e-38 290 267
-0.03671129 0.722 -0.034179479 1.2873873e-38 291 267
-0.035347197 0.72000003 -0.034084801 1.3884409e-38 292 267
-0.033942781 0.71700001 -0.033942781 1.3884409e-38 293 267
-0.032685637 0.71700001 -0.033942781 1.3975532e-38 294 267
-0.031428497 0.71700001 -0.033942781 1.3975532e-38 295 267
-0.03012928 0.71600002 -0.03389544 1.4068454e-38 296 267
-0.028793238 0.71399999 -0.033800758 1.4160649e-38 297 267
-0.027502786 0.713 -0.033753417 1.342345e-38 298 267
-0.026179021 0.71100003 -0.033658739 1.2685885e-38 299 267
-0.024932399 0.71100003 -0.033658739 1.250222e-38 300 267
-0.023652466 0.70999998 -0.033611398 1.2686611e-38 301 267
-0.022344479 0.708 -0.033516716 1.3145068e-38 302 267
-0.021073313 0.70700002 -0.033469379 1.3145068e-38 303 267
-0.019805651 0.70599997 -0.033422034 1.3327664e-38 304 267
-0.018567799 0.70599997 -0.033422034 1.341986e-38 305 267
-0.017329946 0.70599997 -0.033422034 1.3512055e-38 306 267
-0.016092092 0.70599997 -0.033422034 1.3512055e-38 307 267
-0.014854239 0.70599997 -0.033422034 1.3603172e-38 308 267
-0.013616386 0.70599997 -0.033422034 1.3603172e-38 309 267
-0.012343466 0.704 -0.03332736 1.3602453e-38 310 267
-0.011109119 0.704 -0.03332736 1.3510258e-38 311 267
-0.0098747732 0.704 -0.03332736 1.3601374e-38 312 267
-0.0086404262 0.704 -0.03332736 1.3601374e-38 313 267
-0.0074060797 0.704 -0.03332736 1.3510608e-38 314 267
-0.0061717331 0.704 -0.03332736 1.3510608e-38 315 267
-0.0049373866 0.704 -0.03332736 1.305107e-38 316 267
-0.0037030398 0.704 -0.03332736 1.2037279e-38 317 267
-0.0024686933 0.704 -0.03332736 8.7243791e-39 318 267
-0.0012343467 0.704 -0.03332736 9.1857174e-39 319 267
0 0.70599997 -0.033422034 1.2046671e-38 320 267
0.0012378532 0.70599997 -0.033422034 1.2138867e-38 321 267
0.0024757064 0.70599997 -0.033422034 1.3419522e-38 322 267
0.0037135598 0.70599997 -0.033422034 1.3327327e-38 323 267
0.0049584266 0.70700002 -0.033469379 1.2685184e-38 324 267
0.0061980332 0.70700002 -0.033469379 1.2500794e-38 325 267
0.0074376399 0.70700002 -0.033469379 1.2040891e-38 326 267
0.008689519 0.708 -0.033516716 1.2040891e-38 327 267
0.0099308798 0.708 -0.033516716 1.1400557e-38 328 267
0.011203799 0.70999998 -0.033611398 1.1585308e-38 329 267
0.0125714 0.71700001 -0.033942781 1.021244e-38 330 267
0.01394426 0.72299999 -0.03422682 1.0673779e-38 331 267
0.015211919 0.72299999 -0.03422682 1.1960202e-38 332 267
0.01647958 0.72299999 -0.03422682 1.2881798e-38 333 267
0.017747238 0.72299999 -0.03422682 1.3163073e-38 334 267
0.0190675 0.72500002 -0.034321502 1.5376129e-38 335 267
0.020394772 0.727 -0.03441618 1.7234456e-38 336 267
-0.039569225 0.72799999 -0.035739943 1.0415573e-38 289 268
-0.0379772 0.722 -0.035445385 1.2139545e-38 290 268
-0.036609601 0.72000003 -0.035347197 1.2784915e-38 291 268
-0.035347197 0.72000003 -0.035347197 1.3703246e-38 292 268
-0.03403746 0.71899998 -0.035298105 1.361105e-38 293 268
-0.032685637 0.71700001 -0.035199918 1.4159919e-38 294 268
-0.031428497 0.71700001 -0.035199918 1.3975888e-38 295 268
-0.03012928 0.71600002 -0.035150826 1.4066654e-38 296 268
-0.028793238 0.71399999 -0.035052639 1.3974459e-38 297 268
-0.027502786 0.713 -0.035003547 1.369644e-38 298 268
-0.026252659 0.713 -0.035003547 1.3143267e-38 299 268
-0.024932399 0.71100003 -0.034905359 1.0115563e-38 300 268
-0.023652466 0.70999998 -0.034856264 1.1313747e-38 301 268
-0.022407599 0.70999998 -0.034856264 1.3329465e-38 302 268
-0.021103119 0.708 -0.034758076 1.3144715e-38 303 268
-0.019833706 0.70700002 -0.034708988 1.3144002e-38 304 268
-0.018594101 0.70700002 -0.034708988 1.3144002e-38 305 268
-0.017354494 0.70700002 -0.034708988 1.314472e-38 306 268
-0.016092092 0.70599997 -0.034659892 1.3236916e-38 307 268
-0.014854239 0.70599997 -0.034659892 1.3052522e-38 308 268
-0.013616386 0.70599997 -0.034659892 1.3144718e-38 309 268
-0.012343466 0.704 -0.034561705 1.3327311e-38 310 268
-0.011109119 0.704 -0.034561705 1.3235115e-38 311 268
-0.0098747732 0.704 -0.034561705 1.3418784e-38 312 268
-0.0086404262 0.704 -0.034561705 1.3510979e-38 313 268
-0.0074060797 0.704 -0.034561705 1.3420563e-38 314 268
-0.0061717331 0.704 -0.034561705 1.3420563e-38 315 268
-0.0049373866 0.704 -0.034561705 1.3235097e-38 316 268
-0.0037030398 0.704 -0.034561705 1.2866313e-38 317 268
-0.0024686933 0.704 -0.034561705 9.6445404e-39 318 268
-0.0012343467 0.704 -0.034561705 8.0815237e-39 319 268
0 0.70599997 -0.034659892 1.1034317e-38 320 268
0.0012378532 0.70599997 -0.034659892 1.1587491e-38 321 268
0.0024757064 0.70599997 -0.034659892 1.2868504e-38 322 268
0.0037135598 0.70599997 -0.034659892 1.2776308e-38 323 268
0.0049584266 0.70700002 -0.034708988 1.2684463e-38 324 268
0.0061980332 0.70700002 -0.034708988 1.250007e-38 325 268
0.0074376399 0.70700002 -0.034708988 1.2041963e-38 326 268
0.008689519 0.708 -0.034758076 1.2041963e-38 327 268
0.0099308798 0.708 -0.034758076 1.1768617e-38 328 268
0.011203799 0.70999998 -0.034856264 1.2321791e-38 329 268
0.012606465 0.71899998 -0.035298105 1.1040053e-38 330 268
0.01394426 0.72299999 -0.035494477 1.1317e-38 331 268
0.015211919 0.72299999 -0.035494477 1.2146758e-38 332 268
0.01647958 0.72299999 -0.035494477 1.2607736e-38 333 268
0.017747238 0.72299999 -0.035494477 1.3533654e-38 334 268
0.019014901 0.72299999 -0.035494477 1.6391718e-38 335 268
-0.037871998 0.72000003 -0.036609601 1.2512672e-38 290 269
-0.036609601 0.72000003 -0.036609601 1.2051694e-38 291 269
-0.035298105 0.71899998 -0.036558751 1.4071333e-38 292 269
-0.03403746 0.71899998 -0.036558751 1.3702911e-38 293 269
-0.032685637 0.71700001 -0.036457058 1.3885857e-38 294 269
-0.031428497 0.71700001 -0.036457058 1.360891e-38 295 269
-0.03012928 0.71600002 -0.036406212 1.3882986e-38 296 269
-0.028793238 0.71399999 -0.036304519 1.3698595e-38 297 269
-0.027502786 0.713 -0.036253672 1.3604974e-38 298 269
-0.026179021 0.71100003 -0.036151983 1.2683016e-38 299 269
-0.024932399 0.71100003 -0.036151983 8.6433196e-39 300 269
-0.023652466 0.70999998 -0.036101133 1.094821e-38 301 269
-0.022407599 0.70999998 -0.036101133 1.34231e-38 302 269
-0.021103119 0.708 -0.03599944 1.2869926e-38 303 269
-0.019833706 0.70700002 -0.035948593 1.3143996e-38 304 269
-0.018594101 0.70700002 -0.035948593 1.30518e-38 305 269
-0.017354494 0.70700002 -0.035948593 1.3051447e-38 306 269
-0.016092092 0.70599997 -0.035897743 1.3144002e-38 307 269
-0.014854239 0.70599997 -0.035897743 1.3051803e-38 308 269
-0.013616386 0.70599997 -0.035897743 1.332803e-38 309 269
-0.012343466 0.704 -0.035796054 1.3143999e-38 310 269
-0.011109119 0.704 -0.035796054 1.3051803e-38 311 269
-0.0098747732 0.704 -0.035796054 1.3235118e-38 312 269
-0.0086404262 0.704 -0.035796054 1.3327314e-38 313 269
-0.0074060797 0.704 -0.035796054 1.3329459e-38 314 269
-0.0061717331 0.704 -0.035796054 1.3698242e-38 315 269
-0.0049373866 0.704 -0.035796054 1.3422728e-38 316 269
-0.0037030398 0.704 -0.035796054 1.2777359e-38 317 269
-0.0024686933 0.704 -0.035796054 1.0014036e-38 318 269
-0.0012343467 0.704 -0.035796054 7.8978527e-39 319 269
0 0.704 -0.035796054 1.0114156e-38 320 269
0.0012343467 0.704 -0.035796054 1.048294e-38 321 269
0.0024686933 0.704 -0.035796054 1.2591915e-38 322 269
0.0037135598 0.70599997 -0.035897743 1.2684112e-38 323 269
0.0049514128 0.70599997 -0.035897743 1.250007e-38 324 269
0.0061980332 0.70700002 -0.035948593 1.250007e-38 325 269
0.0074376399 0.70700002 -0.035948593 1.213344e-38 326 269
0.008677247 0.70700002 -0.035948593 1.2501864e-38 327 269
0.0099308798 0.708 -0.03599944 1.1863331e-38 328 269
0.011203799 0.70999998 -0.036101133 1.2508701e-38 329 269
0.012624 0.72000003 -0.036609601 1.1501391e-38 330 269
0.01394426 0.72299999 -0.036762137 1.1501391e-38 331 269
0.015211919 0.72299999 -0.036762137 1.2055281e-38 332 269
0.01647958 0.72299999 -0.036762137 1.270065e-38 333 269
0.017747238 0.72299999 -0.036762137 1.4090425e-38 334 269
0.019014901 0.72299999 -0.036762137 1.713252e-38 335 269
-0.037871998 0.72000003 -0.037871998 1.2515559e-38 290 270
-0.036609601 0.72000003 -0.037871998 1.1685799e-38 291 270
-0.035298105 0.71899998 -0.037819397 1.3796555e-38 292 270
-0.03403746 0.71899998 -0.037819397 1.3519967e-38 293 270
-0.032685637 0.71700001 -0.037714198 1.3795107e-38 294 270
-0.031428497 0.71700001 -0.037714198 1.3610715e-38 295 270
-0.03012928 0.71600002 -0.037661601 1.3701109e-38 296 270
-0.028873893 0.71600002 -0.037661601 1.3424882e-38 297 270
-0.02754136 0.71399999 -0.037556399 1.379044e-38 298 270
-0.026179021 0.71100003 -0.037398599 1.2499701e-38 299 270
-0.024932399 0.71100003 -0.037398599 8.6426008e-39 300 270
-0.023652466 0.70999998 -0.037345998 1.1224078e-38 301 270
-0.022407599 0.70999998 -0.037345998 1.3424176e-38 302 270
-0.021103119 0.708 -0.0372408 1.2963196e-38 303 270
-0.019833706 0.70700002 -0.037188202 1.3145071e-38 304 270
-0.018594101 0.70700002 -0.037188202 1.3052875e-38 305 270
-0.017354494 0.70700002 -0.037188202 1.3052522e-38 306 270
-0.016092092 0.70599997 -0.037135597 1.2960326e-38 307 270
-0.014854239 0.70599997 -0.037135597 1.2960324e-38 308 270
-0.013616386 0.70599997 -0.037135597 1.3144715e-38 309 270
-0.012343466 0.704 -0.037030395 1.3052519e-38 310 270
-0.011109119 0.704 -0.037030395 1.3052519e-38 311 270
-0.0098747732 0.704 -0.037030395 1.3052166e-38 312 270
-0.0086404262 0.704 -0.037030395 1.3052166e-38 313 270
-0.0074060797 0.704 -0.037030395 1.333018e-38 314 270
-0.0061717331 0.704 -0.037030395 1.3883352e-38 315 270
-0.0049373866 0.704 -0.037030395 1.3425604e-38 316 270
-0.0037030398 0.704 -0.037030395 1.268768e-38 317 270
-0.0024686933 0.704 -0.037030395 1.0385333e-38 318 270
-0.0012343467 0.704 -0.037030395 8.0815237e-39 319 270
0 0.704 -0.037030395 9.009961e-39 320 270
0.0012343467 0.704 -0.037030395 9.6553304e-39 321 270
0.0024686933 0.704 -0.037030395 1.2040538e-38 322 270
0.0037135598 0.70599997 -0.037135597 1.2132734e-38 323 270
0.0049514128 0.70599997 -0.037135597 1.2499714e-38 324 270
0.0061892662 0.70599997 -0.037135597 1.2499714e-38 325 270
0.0074376399 0.70700002 -0.037188202 1.2134882e-38 326 270
0.008677247 0.70700002 -0.037188202 1.2503664e-38 327 270
0.0099168532 0.70700002 -0.037188202 1.1957683e-38 328 270
0.011203799 0.70999998 -0.037345998 1.2326107e-38 329 270
0.012624 0.72000003 -0.037871998 1.1501757e-38 330 270
0.01394426 0.72299999 -0.038029801 1.1317366e-38 331 270
0.015211919 0.72299999 -0.038029801 1.1501038e-38 332 270
0.01647958 0.72299999 -0.038029801 1.3160558e-38 333 270
0.017747238 0.72299999 -0.038029801 1.5385126e-38 334 270
-0.0379772 0.722 -0.039243106 1.2425158e-38 290 271
-0.036609601 0.72000003 -0.039134402 1.1687593e-38 291 271
-0.035298105 0.71899998 -0.039080046 1.3796555e-38 292 271
-0.03403746 0.71899998 -0.039080046 1.3612163e-38 293 271
-0.032685637 0.71700001 -0.038971342 1.3795107e-38 294 271
-0.031428497 0.71700001 -0.038971342 1.3702911e-38 295 271
-0.03012928 0.71600002 -0.038916986 1.3793659e-38 296 271
-0.028873893 0.71600002 -0.038916986 1.3609266e-38 297 271
-0.02754136 0.71399999 -0.038808275 1.3791509e-38 298 271
-0.026252659 0.713 -0.038753927 1.2500771e-38 299 271
-0.024932399 0.71100003 -0.038645219 8.5507583e-39 300 271
-0.023652466 0.70999998 -0.038590867 1.1132236e-38 301 271
-0.022407599 0.70999998 -0.038590867 1.3240857e-38 302 271
-0.021103119 0.708 -0.038482159 1.2872075e-38 303 271
-0.01986176 0.708 -0.038482159 1.314614e-38 304 271
-0.0186204 0.708 -0.038482159 1.2962109e-38 305 271
-0.017354494 0.70700002 -0.038427804 1.2960674e-38 306 271
-0.016114887 0.70700002 -0.038427804 1.305287e-38 307 271
-0.014854239 0.70599997 -0.038373452 1.3052872e-38 308 271
-0.013616386 0.70599997 -0.038373452 1.3052872e-38 309 271
-0.012343466 0.704 -0.038264744 1.2960324e-38 310 271
-0.011109119 0.704 -0.038264744 1.3144715e-38 311 271
-0.0098747732 0.704 -0.038264744 1.296105e-38 312 271
-0.0086404262 0.704 -0.038264744 1.296105e-38 313 271
-0.0074060797 0.704 -0.038264744 1.3056472e-38 314 271
-0.0061717331 0.704 -0.038264744 1.3332699e-38 315 271
-0.0049373866 0.704 -0.038264744 1.3333405e-38 316 271
-0.0037030398 0.704 -0.038264744 1.259584e-38 317 271
-0.0024686933 0.704 -0.038264744 1.0570074e-38 318 271
-0.0012343467 0.704 -0.038264744 8.3573889e-39 319 271
0 0.704 -0.038264744 8.3660293e-39 320 271
0.0012343467 0.704 -0.038264744 9.19579e-39 321 271
0.0024686933 0.704 -0.038264744 1.1673553e-38 322 271
0.0037030398 0.704 -0.038264744 1.1765749e-38 323 271
0.0049514128 0.70599997 -0.038373452 1.2132008e-38 324 271
0.0061892662 0.70599997 -0.038373452 1.2316399e-38 325 271
0.0074376399 0.70700002 -0.038427804 1.1861169e-38 326 271
0.008677247 0.70700002 -0.038427804 1.2506538e-38 327 271
0.0099168532 0.70700002 -0.038427804 1.2051318e-38 328 271
0.011203799 0.70999998 -0.038590867 1.2327905e-38 329 271
0.012624 0.72000003 -0.039134402 1.1777624e-38 330 271
0.01394426 0.72299999 -0.039297458 1.1501038e-38 331 271
0.015211919 0.72299999 -0.039297458 1.1685425e-38 332 271
0.016525166 0.72500002 -0.039406165 1.3252752e-38 333 271
0.017796334 0.72500002 -0.039406165 1.6678383e-38 334 271
-0.039297458 0.72299999 -0.040565118 1.3272929e-38 289 272
-0.0379772 0.722 -0.040509012 1.2519509e-38 290 272
-0.03671129 0.722 -0.040509012 1.1413161e-38 291 272
-0.035347197 0.72000003 -0.040396802 1.4072782e-38 292 272
-0.03403746 0.71899998 -0.040340692 1.3612163e-38 293 272
-0.032776814 0.71899998 -0.040340692 1.3886952e-38 294 272
-0.031428497 0.71700001 -0.040228479 1.3702561e-38 295 272
-0.030171359 0.71700001 -0.040228479 1.3977703e-38 296 272
-0.028873893 0.71600002 -0.040172372 1.3793311e-38 297 272
-0.02754136 0.71399999 -0.040060159 1.3885151e-38 298 272
-0.026252659 0.713 -0.040004052 1.2594412e-38 299 272
-0.024932399 0.71100003 -0.039891839 8.4603633e-39 300 272
-0.023685781 0.71100003 -0.039891839 1.06727e-38 301 272
-0.022407599 0.70999998 -0.039835732 1.305791e-38 302 272
-0.021162732 0.70999998 -0.039835732 1.2689129e-38 303 272
-0.01986176 0.708 -0.039723519 1.3055388e-38 304 272
-0.0186204 0.708 -0.039723519 1.2963191e-38 305 272
-0.017379038 0.708 -0.039723519 1.2963193e-38 306 272
-0.016114887 0.70700002 -0.039667413 1.2686967e-38 307 272
-0.014854239 0.70599997 -0.039611302 1.2869204e-38 308 272
-0.013616386 0.70599997 -0.039611302 1.2777009e-38 309 272
-0.012343466 0.704 -0.039499093 1.3144715e-38 310 272
-0.011109119 0.704 -0.039499093 1.3144715e-38 311 272
-0.0098747732 0.704 -0.039499093 1.3054317e-38 312 272
-0.0086404262 0.704 -0.039499093 1.3054317e-38 313 272
-0.0074060797 0.704 -0.039499093 1.3240506e-38 314 272
-0.0061717331 0.704 -0.039499093 1.3701486e-38 315 272
-0.0049373866 0.704 -0.039499093 1.3152273e-38 316 272
-0.0037030398 0.704 -0.039499093 1.2230677e-38 317 272
-0.0024686933 0.704 -0.039499093 1.1121101e-38 318 272
-0.0012343467 0.704 -0.039499093 9.27719e-39 319 272
0 0.704 -0.039499093 7.6295433e-39 320 272
0.0012343467 0.704 -0.039499093 8.7358908e-39 321 272
0.0024686933 0.704 -0.039499093 1.0939585e-38 322 272
0.0037030398 0.704 -0.039499093 1.0939585e-38 323 272
0.0049514128 0.70599997 -0.039611302 1.1949412e-38 324 272
0.0061892662 0.70599997 -0.039611302 1.2226359e-38 325 272
0.0074376399 0.70700002 -0.039667413 1.1955883e-38 326 272
0.008677247 0.70700002 -0.039667413 1.2509056e-38 327 272
0.0099308798 0.708 -0.039723519 1.2145312e-38 328 272
0.01121958 0.71100003 -0.039891839 1.242154e-38 329 272
0.012624 0.72000003 -0.040396802 1.1871616e-38 330 272
0.01394426 0.72299999 -0.040565118 1.1687224e-38 331 272
0.015211919 0.72299999 -0.040565118 1.2242196e-38 332 272
0.01647958 0.72299999 -0.040565118 1.4178304e-38 333 272
-0.039297458 0.72299999 -0.041832779 1.400977e-38 289 273
-0.0379772 0.722 -0.041774917 1.2427676e-38 290 273
-0.03671129 0.722 -0.041774917 1.1136937e-38 291 273
-0.035445385 0.722 -0.041774917 1.3980589e-38 292 273
-0.034084801 0.72000003 -0.041659199 1.3796558e-38 293 273
-0.032776814 0.71899998 -0.041601337 1.3978424e-38 294 273
-0.031516165 0.71899998 -0.041601337 1.388587e-38 295 273
-0.030171359 0.71700001 -0.041485619 1.3886223e-38 296 273
-0.028873893 0.71600002 -0.041427758 1.3702192e-38 297 273
-0.02754136 0.71399999 -0.041312039 1.3976257e-38 298 273
-0.026289478 0.71399999 -0.041312039 1.2962106e-38 299 273
-0.025002534 0.713 -0.041254178 9.0106616e-39 300 273
-0.023685781 0.71100003 -0.041138459 1.094677e-38 301 273
-0.022407599 0.70999998 -0.041080594 1.3150108e-38 302 273
-0.021162732 0.70999998 -0.041080594 1.2873523e-38 303 273
-0.01986176 0.708 -0.040964879 1.305682e-38 304 273
-0.0186204 0.708 -0.040964879 1.2872427e-38 305 273
-0.017379038 0.708 -0.040964879 1.3330887e-38 306 273
-0.016114887 0.70700002 -0.040907022 1.3238333e-38 307 273
-0.014854239 0.70599997 -0.040849157 1.3145421e-38 308 273
-0.013616386 0.70599997 -0.040849157 1.3145421e-38 309 273
-0.012343466 0.704 -0.040733438 1.3145071e-38 310 273
-0.011109119 0.704 -0.040733438 1.3145071e-38 311 273
-0.0098747732 0.704 -0.040733438 1.2961774e-38 312 273
-0.0086404262 0.704 -0.040733438 1.305397e-38 313 273
-0.0074060797 0.704 -0.040733438 1.259768e-38 314 273
-0.0061717331 0.704 -0.040733438 1.324305e-38 315 273
-0.0049373866 0.704 -0.040733438 1.2968273e-38 316 273
-0.0037030398 0.704 -0.040733438 1.2415101e-38 317 273
-0.0024686933 0.704 -0.040733438 1.1029282e-38 318 273
-0.0012343467 0.704 -0.040733438 9.6459879e-39 319 273
0 0.704 -0.040733438 8.0883662e-39 320 273
0.0012343467 0.704 -0.040733438 8.5497045e-39 321 273
0.0024686933 0.704 -0.040733438 1.0847755e-38 322 273
0.0037135598 0.70599997 -0.040849157 1.0939951e-38 323 273
0.0049514128 0.70599997 -0.040849157 1.1493463e-38 324 273
0.0061980332 0.70700002 -0.040907022 1.2138832e-38 325 273
0.0074376399 0.70700002 -0.040907022 1.1866204e-38 326 273
0.008677247 0.70700002 -0.040907022 1.2511573e-38 327 273
0.0099308798 0.708 -0.040964879 1.223823e-38 328 273
0.01117224 0.708 -0.040964879 1.2699207e-38 329 273
0.012624 0.72000003 -0.041659199 1.1964167e-38 330 273
0.01394426 0.72299999 -0.041832779 1.1871972e-38 331 273
0.015211919 0.72299999 -0.041832779 1.3167392e-38 332 273
-0.038029801 0.72299999 -0.043100435 1.2151811e-38 290 274
-0.036762137 0.72299999 -0.043100435 1.0215704e-38 291 274
-0.035445385 0.722 -0.043040827 1.3980236e-38 292 274
-0.034179479 0.722 -0.043040827 1.3796205e-38 293 274
-0.0328224 0.72000003 -0.042921603 1.3886952e-38 294 274
-0.03156 0.72000003 -0.042921603 1.3702561e-38 295 274
-0.030255521 0.71899998 -0.042861983 1.3886226e-38 296 274
-0.028914221 0.71700001 -0.042742759 1.3702195e-38 297 274
-0.027618507 0.71600002 -0.042683143 1.3792956e-38 298 274
-0.026289478 0.71399999 -0.042563915 1.2963193e-38 299 274
-0.025002534 0.713 -0.042504307 1.0021938e-38 300 274
-0.023685781 0.71100003 -0.042385083 1.1128286e-38 301 274
-0.022439159 0.71100003 -0.042385083 1.2597305e-38 302 274
-0.021162732 0.70999998 -0.042325463 1.26895e-38 303 274
-0.01986176 0.708 -0.042206239 1.3240506e-38 304 274
-0.0186204 0.708 -0.042206239 1.3056116e-38 305 274
-0.017379038 0.708 -0.042206239 1.3147589e-38 306 274
-0.016114887 0.70700002 -0.042146627 1.3055393e-38 307 274
-0.01487528 0.70700002 -0.042146627 1.314687e-38 308 274
