# .PCD v.7 - Point Cloud Data file format
FIELDS x y z rgb imX imY
SIZE 4 4 4 4 4 4
TYPE F F F F F F
COUNT 1 1 1 1 1 1
WIDTH 841
HEIGHT 1
VIEWPOINT 0 0 0 1 0 0 0
POINTS 841
DATA ascii
-0.034856264 0.70999998 -0.032366529 1.3422728e-38 292 266
-0.033611398 0.70999998 -0.032366529 1.3422728e-38 293 266
-0.032366529 0.70999998 -0.032366529 1.3696793e-38 294 266
-0.031121666 0.70999998 -0.032366529 1.3788988e-38 295 266
-0.029876797 0.70999998 -0.032366529 1.3880465e-38 296 266
-0.028631933 0.70999998 -0.032366529 1.4157052e-38 297 266
-0.027309919 0.708 -0.03227536 1.3881186e-38 298 266
-0.026068559 0.708 -0.03227536 1.3881186e-38 299 266
-0.024827199 0.708 -0.03227536 1.4156686e-38 300 266
-0.023552528 0.70700002 -0.032229774 1.4248882e-38 301 266
-0.022312919 0.70700002 -0.032229774 1.3512759e-38 302 266
-0.021073313 0.70700002 -0.032229774 1.2775194e-38 303 266
-0.019805651 0.70599997 -0.032184184 1.0662626e-38 304 266
-0.018567799 0.70599997 -0.032184184 1.038568e-38 305 266
-0.017280852 0.704 -0.032093015 1.278095e-38 306 266
-0.016046507 0.704 -0.032093015 1.3057539e-38 307 266
-0.014812159 0.704 -0.032093015 1.4248876e-38 308 266
-0.013577812 0.704 -0.032093015 1.4248876e-38 309 266
-0.012343466 0.704 -0.032093015 1.4430769e-38 310 266
-0.011109119 0.704 -0.032093015 1.4338574e-38 311 266
-0.0098607466 0.70300001 -0.032047424 1.4523689e-38 312 266
-0.0086281532 0.70300001 -0.032047424 1.5814428e-38 313 266
-0.0074060797 0.704 -0.032093015 1.6459426e-38 314 266
-0.0061717331 0.704 -0.032093015 1.5537468e-38 315 266
-0.0049373866 0.704 -0.032093015 1.3975532e-38 316 266
-0.0037030398 0.704 -0.032093015 1.2039424e-38 317 266
-0.0024686933 0.704 -0.032093015 7.533026e-39 318 266
-0.0012343467 0.704 -0.032093015 8.0861998e-39 319 266
0 0.70599997 -0.032184184 1.1769729e-38 320 266
0.0012378532 0.70599997 -0.032184184 1.213887e-38 321 266
0.0024757064 0.70599997 -0.032184184 1.2776311e-38 322 266
0.0037135598 0.70599997 -0.032184184 1.2776311e-38 323 266
0.0049514128 0.70599997 -0.032184184 1.25008e-38 324 266
0.0061892662 0.70599997 -0.032184184 1.2408244e-38 325 266
0.0074271196 0.70599997 -0.032184184 1.2408951e-38 326 266
0.0086649731 0.70599997 -0.032184184 1.2408951e-38 327 266
0.0099028256 0.70599997 -0.032184184 1.1856147e-38 328 266
0.011156459 0.70700002 -0.032229774 1.0749799e-38 329 266
0.0124136 0.708 -0.03227536 8.9156284e-39 330 266
0.013751393 0.713 -0.032503292 9.7453904e-39 331 266
0.015022559 0.71399999 -0.032548878 1.0941413e-38 332 266
0.016320027 0.71600002 -0.032640055 1.1218358e-38 333 266
0.017575413 0.71600002 -0.032640055 1.1862616e-38 334 266
0.018857099 0.71700001 -0.032685637 1.1862616e-38 335 266
0.020114239 0.71700001 -0.032685637 1.1953733e-38 336 266
0.021460801 0.72000003 -0.0328224 1.2045929e-38 337 266
0.022786319 0.722 -0.032913569 1.1955898e-38 338 266
0.024085538 0.72299999 -0.032959159 1.1310529e-38 339 266
0.025353199 0.72299999 -0.032959159 1.1867668e-38 340 266
0.026694499 0.72500002 -0.033050332 1.8782701e-38 341 266
0.028042812 0.727 -0.033141505 1.7051507e-38 342 266
0.029317487 0.727 -0.033141505 1.889542e-38 343 266
-0.040172372 0.71600002 -0.03389544 1.3548053e-38 288 267
-0.038916986 0.71600002 -0.03389544 6.8177725e-39 289 267
-0.037556399 0.71399999 -0.033800758 1.3332333e-38 290 267
-0.036253672 0.713 -0.033753417 1.360856e-38 291 267
-0.034856264 0.70999998 -0.033611398 1.3700746e-38 292 267
-0.033611398 0.70999998 -0.033611398 1.3055377e-38 293 267
-0.032366529 0.70999998 -0.033611398 1.369679e-38 294 267
-0.031121666 0.70999998 -0.033611398 1.369679e-38 295 267
-0.029876797 0.70999998 -0.033611398 1.3971938e-38 296 267
-0.028631933 0.70999998 -0.033611398 1.3971938e-38 297 267
-0.027309919 0.708 -0.033516716 1.3789342e-38 298 267
-0.026068559 0.708 -0.033516716 1.3789342e-38 299 267
-0.024827199 0.708 -0.033516716 1.3971938e-38 300 267
-0.023552528 0.70700002 -0.033469379 1.415633e-38 301 267
-0.022312919 0.70700002 -0.033469379 1.2594412e-38 302 267
-0.021073313 0.70700002 -0.033469379 1.0013298e-38 303 267
-0.019805651 0.70599997 -0.033422034 9.1003321e-39 304 267
-0.018567799 0.70599997 -0.033422034 1.0575462e-38 305 267
-0.017280852 0.704 -0.03332736 1.3791141e-38 306 267
-0.016046507 0.704 -0.03332736 1.3883337e-38 307 267
-0.014812159 0.704 -0.03332736 1.4249232e-38 308 267
-0.013577812 0.704 -0.03332736 1.4617655e-38 309 267
-0.012343466 0.704 -0.03332736 1.4619119e-38 310 267
-0.011109119 0.704 -0.03332736 1.6647423e-38 311 267
-0.0098607466 0.70300001 -0.033280019 1.6557776e-38 312 267
-0.0086281532 0.70300001 -0.033280019 1.7295341e-38 313 267
-0.0074060797 0.704 -0.03332736 1.6647075e-38 314 267
-0.0061717331 0.704 -0.03332736 1.2867055e-38 315 267
-0.0049373866 0.704 -0.03332736 1.0015812e-38 316 267
-0.0037030398 0.704 -0.03332736 7.8978527e-39 317 267
-0.0024686933 0.704 -0.03332736 8.1787514e-39 318 267
-0.0012378532 0.70599997 -0.033422034 9.6538814e-39 319 267
0 0.70599997 -0.033422034 1.2228522e-38 320 267
0.0012378532 0.70599997 -0.033422034 1.1767545e-38 321 267
0.0024757064 0.70599997 -0.033422034 1.2683014e-38 322 267
0.0037135598 0.70599997 -0.033422034 1.2775209e-38 323 267
0.0049514128 0.70599997 -0.033422034 1.2224554e-38 324 267
0.0061892662 0.70599997 -0.033422034 1.2224554e-38 325 267
0.0074271196 0.70599997 -0.033422034 1.2224554e-38 326 267
0.008677247 0.70700002 -0.033469379 1.2132358e-38 327 267
0.0099168532 0.70700002 -0.033469379 1.0939583e-38 328 267
0.01117224 0.708 -0.033516716 1.0202018e-38 329 267
0.0124662 0.71100003 -0.033658739 9.4662658e-39 330 267
0.013751393 0.713 -0.033753417 1.001944e-38 331 267
0.015022559 0.71399999 -0.033800758 1.0669125e-38 332 267
0.016320027 0.71600002 -0.03389544 1.1314494e-38 333 267
0.017575413 0.71600002 -0.03389544 1.18637e-38 334 267
0.018857099 0.71700001 -0.033942781 1.1955895e-38 335 267
0.020114239 0.71700001 -0.033942781 1.1956251e-38 336 267
0.021460801 0.72000003 -0.034084801 1.2048447e-38 337 267
0.022786319 0.722 -0.034179479 1.2142798e-38 338 267
0.024085538 0.72299999 -0.03422682 1.0852059e-38 339 267
0.025353199 0.72299999 -0.03422682 1.1775823e-38 340 267
0.026694499 0.72500002 -0.034321502 1.9243669e-38 341 267
0.028042812 0.727 -0.03441618 1.7236617e-38 342 267
0.029317487 0.727 -0.03441618 1.8803943e-38 343 267
-0.041601337 0.71899998 -0.035298105 1.8069623e-38 287 268
-0.040172372 0.71600002 -0.035150826 1.4834829e-38 288 268
-0.038916986 0.71600002 -0.035150826 8.8417547e-39 289 268
-0.037556399 0.71399999 -0.035052639 1.3702545e-38 290 268
-0.036253672 0.713 -0.035003547 1.3702545e-38 291 268
-0.035003547 0.713 -0.035003547 1.3791138e-38 292 268
-0.033658739 0.71100003 -0.034905359 1.351455e-38 293 268
-0.032366529 0.70999998 -0.034856264 1.3512406e-38 294 268
-0.031121666 0.70999998 -0.034856264 1.3512406e-38 295 268
-0.029876797 0.70999998 -0.034856264 1.3512409e-38 296 268
-0.028631933 0.70999998 -0.034856264 1.3788637e-38 297 268
-0.027309919 0.708 -0.034758076 1.3788993e-38 298 268
-0.026068559 0.708 -0.034758076 1.3696796e-38 299 268
-0.024827199 0.708 -0.034758076 1.3788272e-38 300 268
-0.023552528 0.70700002 -0.034708988 1.3511327e-38 301 268
-0.022312919 0.70700002 -0.034708988 1.1583135e-38 302 268
-0.021043506 0.70599997 -0.034659892 9.5548377e-39 303 268
-0.019805651 0.70599997 -0.034659892 9.8375286e-39 304 268
-0.018567799 0.70599997 -0.034659892 1.1681441e-38 305 268
-0.017280852 0.704 -0.034561705 1.3789344e-38 306 268
-0.016046507 0.704 -0.034561705 1.3973737e-38 307 268
-0.014812159 0.704 -0.034561705 1.4158128e-38 308 268
-0.013577812 0.704 -0.034561705 1.4619106e-38 309 268
-0.012343466 0.704 -0.034561705 1.5356337e-38 310 268
-0.011109119 0.704 -0.034561705 1.6739271e-38 311 268
-0.0098607466 0.70300001 -0.034512613 1.6645669e-38 312 268
-0.0086281532 0.70300001 -0.034512613 1.6184692e-38 313 268
-0.0074060797 0.704 -0.034561705 1.306442e-38 314 268
-0.0061717331 0.704 -0.034561705 7.9014652e-39 315 268
-0.0049373866 0.704 -0.034561705 6.526067e-39 316 268
-0.0037135598 0.70599997 -0.034659892 7.1714364e-39 317 268
-0.0024757064 0.70599997 -0.034659892 9.9261565e-39 318 268
-0.0012378532 0.70599997 -0.034659892 1.0571526e-38 319 268
0 0.70599997 -0.034659892 1.1397692e-38 320 268
0.0012378532 0.70599997 -0.034659892 1.1489888e-38 321 268
0.0024757064 0.70599997 -0.034659892 1.1856868e-38 322 268
0.0037135598 0.70599997 -0.034659892 1.1672478e-38 323 268
0.0049584266 0.70700002 -0.034708988 1.1580636e-38 324 268
0.0061980332 0.70700002 -0.034708988 1.1580636e-38 325 268
0.0074376399 0.70700002 -0.034708988 1.1489159e-38 326 268
0.008677247 0.70700002 -0.034708988 1.1489159e-38 327 268
0.0099168532 0.70700002 -0.034708988 1.1030335e-38 328 268
0.01117224 0.708 -0.034758076 1.0753389e-38 329 268
0.0124662 0.71100003 -0.034905359 9.2825976e-39 330 268
0.013751393 0.713 -0.035003547 9.2825976e-39 331 268
0.015022559 0.71399999 -0.035052639 1.048546e-38 332 268
0.016320027 0.71600002 -0.035150826 1.1407057e-38 333 268
0.017599959 0.71700001 -0.035199918 1.1864779e-38 334 268
0.018857099 0.71700001 -0.035199918 1.1957333e-38 335 268
0.020114239 0.71700001 -0.035199918 1.2141361e-38 336 268
0.021430992 0.71899998 -0.035298105 1.2141361e-38 337 268
0.022786319 0.722 -0.035445385 1.2326107e-38 338 268
0.024085538 0.72299999 -0.035494477 1.1496345e-38 339 268
0.025353199 0.72299999 -0.035494477 1.2878931e-38 340 268
0.026694499 0.72500002 -0.035592668 2.089995e-38 341 268
0.028042812 0.727 -0.035690852 1.7973459e-38 342 268
0.029357811 0.72799999 -0.035739943 1.8711024e-38 343 268
-0.041601337 0.71899998 -0.036558751 1.8437328e-38 287 269
-0.040340692 0.71899998 -0.036558751 1.5572041e-38 288 269
-0.038916986 0.71600002 -0.036406212 9.5793253e-39 289 269
-0.037556399 0.71399999 -0.036304519 1.3886226e-38 290 269
-0.036253672 0.713 -0.036253672 1.3886226e-38 291 269
-0.035003547 0.713 -0.036253672 1.3793659e-38 292 269
-0.033658739 0.71100003 -0.036151983 1.314829e-38 293 269
-0.032366529 0.70999998 -0.036101133 1.3696796e-38 294 269
-0.031121666 0.70999998 -0.036101133 1.3512406e-38 295 269
-0.029876797 0.70999998 -0.036101133 1.3420213e-38 296 269
-0.028631933 0.70999998 -0.036101133 1.3788637e-38 297 269
-0.027309919 0.708 -0.03599944 1.3513845e-38 298 269
-0.026068559 0.708 -0.03599944 1.3329812e-38 299 269
-0.024827199 0.708 -0.03599944 1.3420579e-38 300 269
-0.023552528 0.70700002 -0.035948593 1.2867405e-38 301 269
-0.022312919 0.70700002 -0.035948593 1.0388202e-38 302 269
-0.021043506 0.70599997 -0.035897743 9.3740519e-39 303 269
-0.019805651 0.70599997 -0.035897743 1.0849891e-38 304 269
-0.018567799 0.70599997 -0.035897743 1.214063e-38 305 269
-0.017280852 0.704 -0.035796054 1.3880472e-38 306 269
-0.016046507 0.704 -0.035796054 1.4156699e-38 307 269
-0.014812159 0.704 -0.035796054 1.4341093e-38 308 269
-0.013577812 0.704 -0.035796054 1.4802071e-38 309 269
-0.012343466 0.704 -0.035796054 1.5541082e-38 310 269
-0.01109334 0.70300001 -0.035745207 1.6186452e-38 311 269
-0.0098607466 0.70300001 -0.035745207 1.5631494e-38 312 269
-0.0086281532 0.70300001 -0.035745207 1.3511355e-38 313 269
-0.0074060797 0.704 -0.035796054 1.0573336e-38 314 269
-0.0061717331 0.704 -0.035796054 5.3264588e-39 315 269
-0.0049514128 0.70599997 -0.035897743 3.0334412e-39 316 269
-0.0037135598 0.70599997 -0.035897743 6.1680842e-39 317 269
-0.0024757064 0.70599997 -0.035897743 1.0752686e-38 318 269
-0.0012378532 0.70599997 -0.035897743 1.0844881e-38 319 269
0 0.70700002 -0.035948593 1.1120026e-38 320 269
0.0012378532 0.70599997 -0.035897743 1.1120026e-38 321 269
0.0024757064 0.70599997 -0.035897743 1.1395174e-38 322 269
0.0037188199 0.70700002 -0.035948593 1.1395174e-38 323 269
0.0049584266 0.70700002 -0.035948593 1.1395171e-38 324 269
0.0061980332 0.70700002 -0.035948593 1.1302976e-38 325 269
0.0074376399 0.70700002 -0.035948593 1.1212575e-38 326 269
0.0087140659 0.70999998 -0.036101133 1.1304771e-38 327 269
0.0099589331 0.70999998 -0.036101133 1.1030702e-38 328 269
0.011203799 0.70999998 -0.036101133 1.0754474e-38 329 269
0.0124662 0.71100003 -0.036151983 9.5595348e-39 330 269
0.013751393 0.713 -0.036253672 9.2833067e-39 331 269
0.015022559 0.71399999 -0.036304519 1.0486885e-38 332 269
0.016320027 0.71600002 -0.036406212 1.1316647e-38 333 269
0.017599959 0.71700001 -0.036457058 1.2140289e-38 334 269
0.018857099 0.71700001 -0.036457058 1.2325041e-38 335 269
0.020114239 0.71700001 -0.036457058 1.2233205e-38 336 269
0.021430992 0.71899998 -0.036558751 1.2233205e-38 337 269
0.022786319 0.722 -0.03671129 1.2232838e-38 338 269
0.024085538 0.72299999 -0.036762137 1.2601621e-38 339 269
0.025353199 0.72299999 -0.036762137 1.4083956e-38 340 269
0.026694499 0.72500002 -0.036863834 2.1275215e-38 341 269
0.028042812 0.727 -0.036965527 1.8252217e-38 342 269
-0.040340692 0.71899998 -0.037819397 1.6033382e-38 288 270
-0.038971342 0.71700001 -0.037714198 9.6718839e-39 289 270
-0.037661601 0.71600002 -0.037661601 1.3703277e-38 290 270
-0.036304519 0.71399999 -0.037556399 1.3795472e-38 291 270
-0.035003547 0.713 -0.037503798 1.3885855e-38 292 270
-0.033658739 0.71100003 -0.037398599 1.3425235e-38 293 270
-0.032366529 0.70999998 -0.037345998 1.351528e-38 294 270
-0.031121666 0.70999998 -0.037345998 1.3238333e-38 295 270
-0.029876797 0.70999998 -0.037345998 1.3513845e-38 296 270
-0.028631933 0.70999998 -0.037345998 1.3513845e-38 297 270
-0.027309919 0.708 -0.0372408 1.3330533e-38 298 270
-0.026068559 0.708 -0.0372408 1.3238336e-38 299 270
-0.024827199 0.708 -0.0372408 1.2962843e-38 300 270
-0.023552528 0.70700002 -0.037188202 1.1488073e-38 301 270
-0.022312919 0.70700002 -0.037188202 8.4585808e-39 302 270
-0.021073313 0.70700002 -0.037188202 9.1039503e-39 303 270
-0.019805651 0.70599997 -0.037135597 1.2226727e-38 304 270
-0.018567799 0.70599997 -0.037135597 1.2779542e-38 305 270
-0.017280852 0.704 -0.037030395 1.3880119e-38 306 270
-0.016046507 0.704 -0.037030395 1.4156346e-38 307 270
-0.014812159 0.704 -0.037030395 1.4248179e-38 308 270
-0.013558527 0.70300001 -0.036977798 1.4524405e-38 309 270
-0.012325933 0.70300001 -0.036977798 1.4984309e-38 310 270
-0.01109334 0.70300001 -0.036977798 1.5076863e-38 311 270
-0.0098607466 0.70300001 -0.036977798 1.3699689e-38 312 270
-0.0086281532 0.70300001 -0.036977798 1.2224559e-38 313 270
-0.0074060797 0.704 -0.037030395 1.0201667e-38 314 270
-0.0061717331 0.704 -0.037030395 6.7039912e-39 315 270
-0.0049373866 0.704 -0.037030395 4.1354672e-39 316 270
-0.0037135598 0.70599997 -0.037135597 6.7169378e-39 317 270
-0.0024757064 0.70599997 -0.037135597 1.0292066e-38 318 270
-0.0012378532 0.70599997 -0.037135597 1.0384263e-38 319 270
0 0.70700002 -0.037188202 1.0659055e-38 320 270
0.0012396066 0.70700002 -0.037188202 1.0843086e-38 321 270
0.0024792133 0.70700002 -0.037188202 1.0934563e-38 322 270
0.0037188199 0.70700002 -0.037188202 1.0934563e-38 323 270
0.0049584266 0.70700002 -0.037188202 1.1027112e-38 324 270
0.0061980332 0.70700002 -0.037188202 1.1027112e-38 325 270
0.0074376399 0.70700002 -0.037188202 1.139589e-38 326 270
0.0087140659 0.70999998 -0.037345998 1.1488087e-38 327 270
0.0099589331 0.70999998 -0.037345998 1.1306563e-38 328 270
0.011203799 0.70999998 -0.037345998 1.1306563e-38 329 270
0.0124662 0.71100003 -0.037398599 1.0204534e-38 330 270
0.013751393 0.713 -0.037503798 9.7439163e-39 331 270
0.015022559 0.71399999 -0.037556399 1.0761671e-38 332 270
0.016320027 0.71600002 -0.037661601 1.1591792e-38 333 270
0.017599959 0.71700001 -0.037714198 1.2140645e-38 334 270
0.018909698 0.71899998 -0.037819397 1.2325038e-38 335 270
0.020170346 0.71899998 -0.037819397 1.2325757e-38 336 270
0.021460801 0.72000003 -0.037871998 1.2141364e-38 337 270
0.02281788 0.72299999 -0.038029801 1.2047728e-38 338 270
0.024085538 0.72299999 -0.038029801 1.5090184e-38 339 270
0.025353199 0.72299999 -0.038029801 1.5564851e-38 340 270
0.026694499 0.72500002 -0.038135 2.0820002e-38 341 270
0.028081384 0.72799999 -0.038292799 1.8252935e-38 342 270
-0.040396802 0.72000003 -0.039134402 1.6588357e-38 288 271
-0.039080046 0.71899998 -0.039080046 1.022686e-38 289 271
-0.037714198 0.71700001 -0.038971342 1.3796909e-38 290 271
-0.036304519 0.71399999 -0.038808275 1.3796909e-38 291 271
-0.035003547 0.713 -0.038753927 1.4070599e-38 292 271
-0.033658739 0.71100003 -0.038645219 1.3701815e-38 293 271
-0.032366529 0.70999998 -0.038590867 1.3608545e-38 294 271
-0.031121666 0.70999998 -0.038590867 1.3331958e-38 295 271
-0.029876797 0.70999998 -0.038590867 1.3514553e-38 296 271
-0.028631933 0.70999998 -0.038590867 1.3330163e-38 297 271
-0.027309919 0.708 -0.038482159 1.3330168e-38 298 271
-0.026068559 0.708 -0.038482159 1.3237973e-38 299 271
-0.024827199 0.708 -0.038482159 1.3052519e-38 300 271
-0.023552528 0.70700002 -0.038427804 1.1024215e-38 301 271
-0.022312919 0.70700002 -0.038427804 7.7199284e-39 302 271
-0.021073313 0.70700002 -0.038427804 1.020885e-38 303 271
-0.019805651 0.70599997 -0.038373452 1.2962487e-38 304 271
-0.018567799 0.70599997 -0.038373452 1.3147239e-38 305 271
-0.017329946 0.70599997 -0.038373452 1.3604977e-38 306 271
-0.016046507 0.704 -0.038264744 1.3604977e-38 307 271
-0.014812159 0.704 -0.038264744 1.3970878e-38 308 271
-0.013558527 0.70300001 -0.038210396 1.415563e-38 309 271
-0.012325933 0.70300001 -0.038210396 1.4065598e-38 310 271
-0.01109334 0.70300001 -0.038210396 1.3789371e-38 311 271
-0.0098607466 0.70300001 -0.038210396 1.2779895e-38 312 271
-0.0086281532 0.70300001 -0.038210396 1.1581352e-38 313 271
-0.0074060797 0.704 -0.038264744 1.0750874e-38 314 271
-0.0061717331 0.704 -0.038264744 8.2651947e-39 315 271
-0.0049373866 0.704 -0.038264744 4.5953621e-39 316 271
-0.0037135598 0.70599997 -0.038373452 6.623652e-39 317 271
-0.0024757064 0.70599997 -0.038373452 1.0106951e-38 318 271
-0.0012378532 0.70599997 -0.038373452 1.0199146e-38 319 271
0 0.70700002 -0.038427804 1.0749449e-38 320 271
0.0012396066 0.70700002 -0.038427804 1.0749449e-38 321 271
0.0024792133 0.70700002 -0.038427804 1.1025313e-38 322 271
0.0037188199 0.70700002 -0.038427804 1.1209705e-38 323 271
0.0049584266 0.70700002 -0.038427804 1.1303329e-38 324 271
0.0062067998 0.708 -0.038482159 1.1395524e-38 325 271
0.0074481601 0.708 -0.038482159 1.1305127e-38 326 271
0.0087140659 0.70999998 -0.038590867 1.1489159e-38 327 271
0.0099589331 0.70999998 -0.038590867 1.1582784e-38 328 271
0.011203799 0.70999998 -0.038590867 1.1582784e-38 329 271
0.0124662 0.71100003 -0.038645219 1.0756263e-38 330 271
0.013751393 0.713 -0.038753927 1.020309e-38 331 271
0.015022559 0.71399999 -0.038808275 1.0945336e-38 332 271
0.016342819 0.71700001 -0.038971342 1.1590706e-38 333 271
0.017649053 0.71899998 -0.039080046 1.2232841e-38 334 271
0.018935999 0.72000003 -0.039134402 1.2325038e-38 335 271
0.020198401 0.72000003 -0.039134402 1.2419024e-38 336 271
0.021520413 0.722 -0.039243106 1.1589624e-38 337 271
0.02281788 0.72299999 -0.039297458 1.2135608e-38 338 271
0.024085538 0.72299999 -0.039297458 1.8312355e-38 339 271
0.025353199 0.72299999 -0.039297458 1.6770953e-38 340 271
0.026694499 0.72500002 -0.039406165 1.9721215e-38 341 271
-0.040396802 0.72000003 -0.040396802 1.7510668e-38 288 272
-0.039080046 0.71899998 -0.040340692 1.1425755e-38 289 272
-0.037714198 0.71700001 -0.040228479 1.4164615e-38 290 272
-0.036406212 0.71600002 -0.040172372 1.4072419e-38 291 272
-0.035052639 0.71399999 -0.040060159 1.407277e-38 292 272
-0.033753417 0.713 -0.040004052 1.3519596e-38 293 272
-0.032412119 0.71100003 -0.039891839 1.3517797e-38 294 272
-0.031121666 0.70999998 -0.039835732 1.3333405e-38 295 272
-0.029876797 0.70999998 -0.039835732 1.3515999e-38 296 272
-0.028631933 0.70999998 -0.039835732 1.3331607e-38 297 272
-0.027309919 0.708 -0.039723519 1.3238338e-38 298 272
-0.026068559 0.708 -0.039723519 1.3146143e-38 299 272
-0.024827199 0.708 -0.039723519 1.268626e-38 300 272
-0.023552528 0.70700002 -0.039667413 1.0104783e-38 301 272
-0.022312919 0.70700002 -0.039667413 8.0858341e-39 302 272
-0.021073313 0.70700002 -0.039667413 1.1497072e-38 303 272
-0.019805651 0.70599997 -0.039611302 1.3146517e-38 304 272
-0.018567799 0.70599997 -0.039611302 1.305432e-38 305 272
-0.017329946 0.70599997 -0.039611302 1.3512058e-38 306 272
-0.016046507 0.704 -0.039499093 1.3512058e-38 307 272
-0.014812159 0.704 -0.039499093 1.3694299e-38 308 272
-0.013558527 0.70300001 -0.039442986 1.4063081e-38 309 272
-0.012325933 0.70300001 -0.039442986 1.3055766e-38 310 272
-0.01109334 0.70300001 -0.039442986 1.2318201e-38 311 272
-0.0098607466 0.70300001 -0.039442986 1.2408248e-38 312 272
-0.0086281532 0.70300001 -0.039442986 1.2039106e-38 313 272
-0.0073955595 0.70300001 -0.039442986 1.0384982e-38 314 272
-0.0061717331 0.704 -0.039499093 8.5410697e-39 315 272
-0.0049373866 0.704 -0.039499093 5.4251116e-39 316 272
-0.0037135598 0.70599997 -0.039611302 6.8998815e-39 317 272
-0.0024757064 0.70599997 -0.039611302 1.0200221e-38 318 272
-0.0012378532 0.70599997 -0.039611302 1.0292417e-38 319 272
0 0.70700002 -0.039667413 1.0659757e-38 320 272
0.0012396066 0.70700002 -0.039667413 1.084379e-38 321 272
0.0024792133 0.70700002 -0.039667413 1.1028537e-38 322 272
0.0037188199 0.70700002 -0.039667413 1.1212928e-38 323 272
0.0049584266 0.70700002 -0.039667413 1.1305121e-38 324 272
0.0062067998 0.708 -0.039723519 1.1581708e-38 325 272
0.0074481601 0.708 -0.039723519 1.1673901e-38 326 272
0.0087140659 0.70999998 -0.039835732 1.1766096e-38 327 272
0.0099589331 0.70999998 -0.039835732 1.1675699e-38 328 272
0.01121958 0.71100003 -0.039891839 1.1952286e-38 329 272
0.0124662 0.71100003 -0.039891839 1.1123614e-38 330 272
0.013751393 0.713 -0.040004052 1.0109821e-38 331 272
0.015022559 0.71399999 -0.040060159 1.0669831e-38 332 272
0.016342819 0.71700001 -0.040228479 1.1130451e-38 333 272
0.017649053 0.71899998 -0.040340692 1.2415432e-38 334 272
0.018935999 0.72000003 -0.040396802 1.2692018e-38 335 272
0.020198401 0.72000003 -0.040396802 1.2325391e-38 336 272
0.021520413 0.722 -0.040509012 1.1864053e-38 337 272
0.02281788 0.72299999 -0.040565118 1.2420476e-38 338 272
0.024085538 0.72299999 -0.040565118 1.9703931e-38 339 272
0.025353199 0.72299999 -0.040565118 1.8157853e-38 340 272
0.026620859 0.72299999 -0.040565118 1.8711027e-38 341 272
-0.040340692 0.71899998 -0.041601337 1.7697933e-38 288 273
-0.039080046 0.71899998 -0.041601337 1.1889608e-38 289 273
-0.037714198 0.71700001 -0.041485619 1.4258599e-38 290 273
-0.036406212 0.71600002 -0.041427758 1.3890176e-38 291 273
-0.035052639 0.71399999 -0.041312039 1.4257141e-38 292 273
-0.033753417 0.713 -0.041254178 1.407239e-38 293 273
-0.032412119 0.71100003 -0.041138459 1.3886561e-38 294 273
-0.031121666 0.70999998 -0.041080594 1.3702168e-38 295 273
-0.029876797 0.70999998 -0.041080594 1.3791857e-38 296 273
-0.028631933 0.70999998 -0.041080594 1.351563e-38 297 273
-0.027309919 0.708 -0.040964879 1.3514199e-38 298 273
-0.026068559 0.708 -0.040964879 1.3145418e-38 299 273
-0.024827199 0.708 -0.040964879 1.1585302e-38 300 273
-0.023552528 0.70700002 -0.040907022 9.2804102e-39 301 273
-0.022312919 0.70700002 -0.040907022 9.3715338e-39 302 273
-0.021073313 0.70700002 -0.040907022 1.241399e-38 303 273
-0.019805651 0.70599997 -0.040849157 1.314652e-38 304 273
-0.018567799 0.70599997 -0.040849157 1.3054323e-38 305 273
-0.017329946 0.70599997 -0.040849157 1.323656e-38 306 273
-0.016046507 0.704 -0.040733438 1.3144365e-38 307 273
-0.014812159 0.704 -0.040733438 1.3236563e-38 308 273
-0.013577812 0.704 -0.040733438 1.3328759e-38 309 273
-0.012325933 0.70300001 -0.040675577 1.2961421e-38 310 273
-0.01109334 0.70300001 -0.040675577 1.2684475e-38 311 273
-0.0098607466 0.70300001 -0.040675577 1.2683742e-38 312 273
-0.0086281532 0.70300001 -0.040675577 1.2222405e-38 313 273
-0.0073955595 0.70300001 -0.040675577 1.1577389e-38 314 273
-0.0061717331 0.704 -0.040733438 1.0471042e-38 315 273
-0.0049373866 0.704 -0.040733438 6.7115372e-39 316 273
-0.0037135598 0.70599997 -0.040849157 7.9097217e-39 317 273
-0.0024757064 0.70599997 -0.040849157 1.1027112e-38 318 273
-0.0012378532 0.70599997 -0.040849157 1.1027112e-38 319 273
0 0.70700002 -0.040907022 1.1395875e-38 320 273
0.0012396066 0.70700002 -0.040907022 1.1395875e-38 321 273
0.00248272 0.708 -0.040964879 1.1671733e-38 322 273
0.00372408 0.708 -0.040964879 1.1856484e-38 323 273
0.0049654399 0.708 -0.040964879 1.1673535e-38 324 273
0.0062067998 0.708 -0.040964879 1.1949762e-38 325 273
0.0074481601 0.708 -0.040964879 1.1859001e-38 326 273
0.0087140659 0.70999998 -0.041080594 1.2227425e-38 327 273
0.0099589331 0.70999998 -0.041080594 1.2045185e-38 328 273
0.01121958 0.71100003 -0.041138459 1.1952989e-38 329 273
0.012501267 0.713 -0.041254178 1.103105e-38 330 273
0.013751393 0.713 -0.041254178 1.0293483e-38 331 273
0.015022559 0.71399999 -0.041312039 1.0669828e-38 332 273
0.016342819 0.71700001 -0.041485619 1.1130807e-38 333 273
0.017673599 0.72000003 -0.041659199 1.2416506e-38 334 273
0.018935999 0.72000003 -0.041659199 1.2508703e-38 335 273
0.020254506 0.722 -0.041774917 1.2138845e-38 336 273
0.021520413 0.722 -0.041774917 1.3613975e-38 337 273
0.022786319 0.722 -0.041774917 1.4455264e-38 338 273
0.024052227 0.722 -0.041774917 2.0263587e-38 339 273
0.025353199 0.72299999 -0.041832779 1.8620996e-38 340 273
0.026620859 0.72299999 -0.041832779 1.7791596e-38 341 273
-0.040340692 0.71899998 -0.042861983 1.7883762e-38 288 274
-0.039080046 0.71899998 -0.042861983 1.2997754e-38 289 274
-0.037819397 0.71899998 -0.042861983 1.4172518e-38 290 274
-0.036406212 0.71600002 -0.042683143 1.3619703e-38 291 274
-0.035052639 0.71399999 -0.042563915 1.4535193e-38 292 274
-0.033800758 0.71399999 -0.042563915 1.3889823e-38 293 274
-0.032503292 0.713 -0.042504307 1.3980587e-38 294 274
-0.031165501 0.71100003 -0.042385083 1.3427413e-38 295 274
-0.029918881 0.71100003 -0.042385083 1.360964e-38 296 274
-0.028672259 0.71100003 -0.042385083 1.3333052e-38 297 274
-0.027387066 0.70999998 -0.042325463 1.3515648e-38 298 274
-0.026142199 0.70999998 -0.042325463 1.305467e-38 299 274
-0.024827199 0.708 -0.042206239 1.0667298e-38 300 274
-0.023552528 0.70700002 -0.042146627 9.1918089e-39 301 274
-0.022312919 0.70700002 -0.042146627 1.0573311e-38 302 274
-0.021073313 0.70700002 -0.042146627 1.186405e-38 303 274
-0.019805651 0.70599997 -0.042087011 1.305432e-38 304 274
-0.018567799 0.70599997 -0.042087011 1.2869929e-38 305 274
-0.017329946 0.70599997 -0.042087011 1.3143996e-38 306 274
-0.016046507 0.704 -0.041967787 1.3143996e-38 307 274
-0.014812159 0.704 -0.041967787 1.3052166e-38 308 274
-0.013577812 0.704 -0.041967787 1.314472e-38 309 274
-0.012343466 0.704 -0.041967787 1.2778109e-38 310 274
-0.01109334 0.70300001 -0.041908171 1.2685554e-38 311 274
-0.0098607466 0.70300001 -0.041908171 1.2410399e-38 312 274
-0.0086281532 0.70300001 -0.041908171 1.2410399e-38 313 274
-0.0074060797 0.704 -0.041967787 1.2132008e-38 314 274
-0.0061717331 0.704 -0.041967787 1.0749073e-38 315 274
-0.0049373866 0.704 -0.041967787 8.3649447e-39 316 274
-0.0037135598 0.70599997 -0.042087011 9.2865408e-39 317 274
-0.0024757064 0.70599997 -0.042087011 1.1765749e-38 318 274
-0.0012378532 0.70599997 -0.042087011 1.1765749e-38 319 274
0 0.70700002 -0.042146627 1.1490589e-38 320 274
0.0012396066 0.70700002 -0.042146627 1.1306197e-38 321 274
0.00248272 0.708 -0.042206239 1.1857213e-38 322 274
0.00372408 0.708 -0.042206239 1.2041963e-38 323 274
0.0049654399 0.708 -0.042206239 1.1951564e-38 324 274
0.0062067998 0.708 -0.042206239 1.2135955e-38 325 274
0.0074691991 0.70999998 -0.042325463 1.2044834e-38 326 274
0.0087140659 0.70999998 -0.042325463 1.2229226e-38 327 274
0.0099589331 0.70999998 -0.042325463 1.2045557e-38 328 274
0.01121958 0.71100003 -0.042385083 1.1953362e-38 329 274
0.012501267 0.713 -0.042504307 1.0664794e-38 330 274
0.01377068 0.71399999 -0.042563915 9.9272285e-39 331 274
0.01506464 0.71600002 -0.042683143 1.0762024e-38 332 274
0.016388407 0.71899998 -0.042861983 1.1223002e-38 333 274
0.017673599 0.72000003 -0.042921603 1.2508706e-38 334 274
0.0189886 0.722 -0.043040827 1.2139924e-38 335 274
0.020254506 0.722 -0.043040827 1.1861914e-38 336 274
0.021520413 0.722 -0.043040827 1.6932314e-38 337 274
0.022786319 0.722 -0.043040827 1.6772399e-38 338 274
0.024052227 0.722 -0.043040827 1.9169125e-38 339 274
0.025353199 0.72299999 -0.043100435 1.7977069e-38 340 274
-0.041774917 0.722 -0.044306733 1.8713918e-38 287 275
-0.040509012 0.722 -0.044306733 1.8436939e-38 288 275
-0.039080046 0.71899998 -0.044122629 1.5302287e-38 289 275
-0.037819397 0.71899998 -0.044122629 1.5097351e-38 290 275
-0.036457058 0.71700001 -0.043999899 1.3714417e-38 291 275
-0.035150826 0.71600002 -0.043938532 1.4906486e-38 292 275
-0.03389544 0.71600002 -0.043938532 1.3800497e-38 293 275
-0.032548878 0.71399999 -0.043815799 1.425501e-38 294 275
-0.031253166 0.713 -0.043754432 1.4070617e-38 295 275
-0.029918881 0.71100003 -0.043631699 1.388586e-38 296 275
-0.028672259 0.71100003 -0.043631699 1.3608913e-38 297 275
-0.027387066 0.70999998 -0.043570329 1.3883705e-38 298 275
-0.026142199 0.70999998 -0.043570329 1.314614e-38 299 275
-0.024827199 0.708 -0.043447599 1.0022658e-38 300 275
-0.023552528 0.70700002 -0.043386232 1.0114854e-38 301 275
-0.022312919 0.70700002 -0.043386232 1.1494554e-38 302 275
-0.021073313 0.70700002 -0.043386232 1.2047728e-38 303 275
-0.019805651 0.70599997 -0.043324865 1.3146873e-38 304 275
-0.018567799 0.70599997 -0.043324865 1.2962121e-38 305 275
-0.017329946 0.70599997 -0.043324865 1.3238338e-38 306 275
-0.016046507 0.704 -0.043202132 1.3238338e-38 307 275
-0.014812159 0.704 -0.043202132 1.2962477e-38 308 275
-0.013577812 0.704 -0.043202132 1.2962477e-38 309 275
-0.012343466 0.704 -0.043202132 1.2778456e-38 310 275
-0.011109119 0.704 -0.043202132 1.2962487e-38 311 275
-0.0098747732 0.704 -0.043202132 1.2778809e-38 312 275
-0.0086404262 0.704 -0.043202132 1.2501864e-38 313 275
-0.0074060797 0.704 -0.043202132 1.1949046e-38 314 275
-0.0061717331 0.704 -0.043202132 1.0842698e-38 315 275
-0.0049514128 0.70599997 -0.043324865 8.823046e-39 316 275
-0.0037135598 0.70599997 -0.043324865 9.8371965e-39 317 275
-0.0024757064 0.70599997 -0.043324865 1.1305491e-38 318 275
-0.0012378532 0.70599997 -0.043324865 1.1490241e-38 319 275
0 0.70700002 -0.043386232 1.185685e-38 320 275
0.00124136 0.708 -0.043447599 1.1949046e-38 321 275
0.00248272 0.708 -0.043447599 1.19512e-38 322 275
0.00372408 0.708 -0.043447599 1.2227428e-38 323 275
0.0049654399 0.708 -0.043447599 1.2044834e-38 324 275
0.0062067998 0.708 -0.043447599 1.2044834e-38 325 275
0.0074691991 0.70999998 -0.043570329 1.2044478e-38 326 275
0.0087140659 0.70999998 -0.043570329 1.2136674e-38 327 275
0.0099589331 0.70999998 -0.043570329 1.213703e-38 328 275
0.01121958 0.71100003 -0.043631699 1.1952639e-38 329 275
0.012501267 0.713 -0.043754432 1.0755907e-38 330 275
0.01377068 0.71399999 -0.043815799 1.0202734e-38 331 275
0.015085679 0.71700001 -0.043999899 1.085494e-38 332 275
0.016388407 0.71899998 -0.044122629 1.1408112e-38 333 275
0.017722692 0.722 -0.044306733 1.2325757e-38 334 275
0.0189886 0.722 -0.044306733 1.2510148e-38 335 275
0.020254506 0.722 -0.044306733 1.3159852e-38 336 275
0.021520413 0.722 -0.044306733 1.7954385e-38 337 275
0.02281788 0.72299999 -0.044368099 1.7973106e-38 338 275
0.024085538 0.72299999 -0.044368099 1.8434444e-38 339 275
-0.041774917 0.722 -0.045572639 1.8345135e-38 287 276
-0.040396802 0.72000003 -0.045446403 1.8712823e-38 288 276
-0.039134402 0.72000003 -0.045446403 1.7606476e-38 289 276
-0.037819397 0.71899998 -0.045383278 1.6762255e-38 290 276
-0.036457058 0.71700001 -0.045257039 1.3351377e-38 291 276
-0.035199918 0.71700001 -0.045257039 1.4909691e-38 292 276
-0.03389544 0.71600002 -0.045193922 1.3803704e-38 293 276
-0.032548878 0.71399999 -0.045067675 1.4164965e-38 294 276
-0.031253166 0.713 -0.045004558 1.3980574e-38 295 276
-0.030003037 0.713 -0.045004558 1.3978775e-38 296 276
-0.028672259 0.71100003 -0.044878319 1.3702189e-38 297 276
-0.027387066 0.70999998 -0.044815198 1.3793311e-38 298 276
-0.026142199 0.70999998 -0.044815198 1.2686964e-38 299 276
-0.024827199 0.708 -0.044688959 9.1035761e-39 300 276
-0.023552528 0.70700002 -0.044625837 1.0117727e-38 301 276
-0.022312919 0.70700002 -0.044625837 1.250402e-38 302 276
-0.021073313 0.70700002 -0.044625837 1.314939e-38 303 276
-0.019805651 0.70599997 -0.044562716 1.3056825e-38 304 276
-0.018567799 0.70599997 -0.044562716 1.2964271e-38 305 276
-0.017329946 0.70599997 -0.044562716 1.3331605e-38 306 276
-0.016092092 0.70599997 -0.044562716 1.3147572e-38 307 276
-0.014812159 0.704 -0.044436477 1.3147572e-38 308 276
-0.013577812 0.704 -0.044436477 1.3055377e-38 309 276
-0.012343466 0.704 -0.044436477 1.2872081e-38 310 276
-0.011109119 0.704 -0.044436477 1.2872081e-38 311 276
-0.0098747732 0.704 -0.044436477 1.2779531e-38 312 276
-0.0086404262 0.704 -0.044436477 1.241075e-38 313 276
-0.0074060797 0.704 -0.044436477 1.2041607e-38 314 276
-0.0061717331 0.704 -0.044436477 1.1027815e-38 315 276
-0.0049373866 0.704 -0.044436477 9.282222e-39 316 276
-0.0037030398 0.704 -0.044436477 1.0019787e-38 317 276
-0.0024686933 0.704 -0.044436477 1.1213294e-38 318 276
-0.0012378532 0.70599997 -0.044562716 1.1397687e-38 319 276
0 0.70700002 -0.044625837 1.1949049e-38 320 276
0.00124136 0.708 -0.044688959 1.2317471e-38 321 276
0.00248272 0.708 -0.044688959 1.2044115e-38 322 276
0.00372408 0.708 -0.044688959 1.2228507e-38 323 276
0.0049654399 0.708 -0.044688959 1.2044478e-38 324 276
0.0062243328 0.70999998 -0.044815198 1.2044478e-38 325 276
0.0074691991 0.70999998 -0.044815198 1.2044481e-38 326 276
0.0087140659 0.70999998 -0.044815198 1.2136677e-38 327 276
0.0099589331 0.70999998 -0.044815198 1.2136674e-38 328 276
0.01121958 0.71100003 -0.044878319 1.1952283e-38 329 276
0.012501267 0.713 -0.045004558 1.0848103e-38 330 276
0.013809253 0.71600002 -0.045193922 1.0387484e-38 331 276
0.01512776 0.71899998 -0.045383278 1.1039334e-38 332 276
0.0164112 0.72000003 -0.045446403 1.1592508e-38 333 276
0.017722692 0.722 -0.045572639 1.1957696e-38 334 276
0.0189886 0.722 -0.045572639 1.3893804e-38 335 276
0.020254506 0.722 -0.045572639 1.5201832e-38 336 276
0.021550218 0.72299999 -0.04563576 1.8243929e-38 337 276
0.02281788 0.72299999 -0.04563576 1.8158946e-38 338 276
-0.040396802 0.72000003 -0.0467088 1.871247e-38 288 277
-0.039134402 0.72000003 -0.0467088 1.871247e-38 289 277
-0.037819397 0.71899998 -0.046643924 1.8796342e-38 290 277
-0.036406212 0.71600002 -0.046449307 1.5569495e-38 291 277
-0.035150826 0.71600002 -0.046449307 1.4726381e-38 292 277
-0.03389544 0.71600002 -0.046449307 1.3343447e-38 293 277
-0.032548878 0.71399999 -0.046319555 1.4258583e-38 294 277
-0.031296998 0.71399999 -0.046319555 1.4258583e-38 295 277
-0.030003037 0.713 -0.046254687 1.3980574e-38 296 277
-0.028752912 0.713 -0.046254687 1.3703627e-38 297 277
-0.027425639 0.71100003 -0.046124939 1.3701839e-38 298 277
-0.026179021 0.71100003 -0.046124939 1.24111e-38 299 277
-0.024897331 0.70999998 -0.046060063 8.4610808e-39 300 277
-0.023585839 0.708 -0.045930319 1.0028406e-38 301 277
-0.022344479 0.708 -0.045930319 1.305647e-38 302 277
-0.021073313 0.70700002 -0.045865446 1.3240501e-38 303 277
-0.019833706 0.70700002 -0.045865446 1.3240138e-38 304 277
-0.018567799 0.70599997 -0.04580057 1.3147942e-38 305 277
-0.017329946 0.70599997 -0.04580057 1.3240138e-38 306 277
-0.016092092 0.70599997 -0.04580057 1.3147942e-38 307 277
-0.014854239 0.70599997 -0.04580057 1.3147939e-38 308 277
-0.013616386 0.70599997 -0.04580057 1.3055744e-38 309 277
-0.012343466 0.704 -0.045670826 1.3055391e-38 310 277
-0.011109119 0.704 -0.045670826 1.3055391e-38 311 277
-0.0098747732 0.704 -0.045670826 1.2963196e-38 312 277
-0.0086404262 0.704 -0.045670826 1.2778806e-38 313 277
-0.0074060797 0.704 -0.045670826 1.231927e-38 314 277
-0.0061717331 0.704 -0.045670826 1.148951e-38 315 277
-0.0049373866 0.704 -0.045670826 1.0294932e-38 316 277
-0.0037030398 0.704 -0.045670826 1.0571878e-38 317 277
-0.0024686933 0.704 -0.045670826 1.1122532e-38 318 277
-0.0012378532 0.70599997 -0.04580057 1.1490954e-38 319 277
0 0.70700002 -0.045865446 1.1859367e-38 320 277
0.00124136 0.708 -0.045930319 1.204376e-38 321 277
0.00248272 0.708 -0.045930319 1.2136674e-38 322 277
0.00372408 0.708 -0.045930319 1.2229228e-38 323 277
0.0049794666 0.70999998 -0.046060063 1.2136677e-38 324 277
0.0062243328 0.70999998 -0.046060063 1.2136677e-38 325 277
0.0074691991 0.70999998 -0.046060063 1.2044481e-38 326 277
0.0087263398 0.71100003 -0.046124939 1.2136677e-38 327 277
0.0099729598 0.71100003 -0.046124939 1.2136674e-38 328 277
0.01121958 0.71100003 -0.046124939 1.1952283e-38 329 277
0.012501267 0.713 -0.046254687 1.1033216e-38 330 277
0.013809253 0.71600002 -0.046449307 1.0756989e-38 331 277
0.01512776 0.71899998 -0.046643924 1.1132254e-38 332 277
0.0164112 0.72000003 -0.0467088 1.1685069e-38 333 277
0.017722692 0.722 -0.046838548 1.2792864e-38 334 277
0.0189886 0.722 -0.046838548 1.565093e-38 335 277
0.020254506 0.722 -0.046838548 1.73245e-38 336 277
-0.040172372 0.71600002 -0.047704693 1.8436962e-38 288 278
-0.038916986 0.71600002 -0.047704693 1.8805385e-38 289 278
-0.037661601 0.71600002 -0.047704693 1.9630091e-38 290 278
-0.036406212 0.71600002 -0.047704693 1.8247155e-38 291 278
-0.035052639 0.71399999 -0.047571439 1.6299115e-38 292 278
-0.033800758 0.71399999 -0.047571439 1.2519095e-38 293 278
-0.032548878 0.71399999 -0.047571439 1.4168889e-38 294 278
-0.031296998 0.71399999 -0.047571439 1.4168889e-38 295 278
-0.030045118 0.71399999 -0.047571439 1.4073489e-38 296 278
-0.028793238 0.71399999 -0.047571439 1.361251e-38 297 278
-0.027502786 0.713 -0.047504812 1.4068817e-38 298 278
-0.026179021 0.71100003 -0.047371563 1.2778078e-38 299 278
-0.024897331 0.70999998 -0.047304932 8.1852155e-39 300 278
-0.023585839 0.708 -0.047171678 1.0397911e-38 301 278
-0.022344479 0.708 -0.047171678 1.3517811e-38 302 278
-0.021162732 0.70999998 -0.047304932 1.3241582e-38 303 278
-0.019833706 0.70700002 -0.047105055 1.3515646e-38 304 278
-0.018594101 0.70700002 -0.047105055 1.342345e-38 305 278
-0.017329946 0.70599997 -0.047038425 1.3423453e-38 306 278
-0.016092092 0.70599997 -0.047038425 1.3330898e-38 307 278
-0.014854239 0.70599997 -0.047038425 1.3239782e-38 308 278
-0.013616386 0.70599997 -0.047038425 1.3147586e-38 309 278
-0.012343466 0.704 -0.046905171 1.3147586e-38 310 278
-0.011109119 0.704 -0.046905171 1.3055391e-38 311 278
-0.0098747732 0.704 -0.046905171 1.3055026e-38 312 278
-0.0086404262 0.704 -0.046905171 1.2962472e-38 313 278
-0.0074060797 0.704 -0.046905171 1.2686961e-38 314 278
-0.0061717331 0.704 -0.046905171 1.2134146e-38 315 278
-0.0049373866 0.704 -0.046905171 1.1122885e-38 316 278
-0.0037030398 0.704 -0.046905171 1.1122885e-38 317 278
-0.0024686933 0.704 -0.046905171 1.1307998e-38 318 278
-0.0012378532 0.70599997 -0.047038425 1.1676422e-38 319 278
0 0.708 -0.047171678 1.2135955e-38 320 278
0.00124136 0.708 -0.047171678 1.2135955e-38 321 278
0.0024897333 0.70999998 -0.047304932 1.2044481e-38 322 278
0.0037345996 0.70999998 -0.047304932 1.2136677e-38 323 278
0.0049864799 0.71100003 -0.047371563 1.2136324e-38 324 278
0.0062330998 0.71100003 -0.047371563 1.2044128e-38 325 278
0.0074797203 0.71100003 -0.047371563 1.2044484e-38 326 278
0.0087263398 0.71100003 -0.047371563 1.213668e-38 327 278
0.0099729598 0.71100003 -0.047371563 1.1953362e-38 328 278
0.01121958 0.71100003 -0.047371563 1.1953362e-38 329 278
0.012501267 0.713 -0.047504812 1.121833e-38 330 278
0.013809253 0.71600002 -0.047704693 1.121833e-38 331 278
0.01512776 0.71899998 -0.04790457 1.1040782e-38 332 278
0.0164112 0.72000003 -0.0479712 1.1593955e-38 333 278
0.017673599 0.72000003 -0.0479712 1.4184082e-38 334 278
0.018935999 0.72000003 -0.0479712 1.6673364e-38 335 278
0.020254506 0.722 -0.048104454 1.8155352e-38 336 278
-0.038916986 0.71600002 -0.048960082 1.8436609e-38 289 279
-0.037556399 0.71399999 -0.048823316 1.9356396e-38 290 279
-0.036304519 0.71399999 -0.048823316 1.8987615e-38 291 279
-0.035052639 0.71399999 -0.048823316 1.8610878e-38 292 279
-0.033800758 0.71399999 -0.048823316 1.4923054e-38 293 279
-0.032548878 0.71399999 -0.048823316 1.4073839e-38 294 279
-0.031296998 0.71399999 -0.048823316 1.4166034e-38 295 279
-0.030045118 0.71399999 -0.048823316 1.4166406e-38 296 279
-0.028793238 0.71399999 -0.048823316 1.388982e-38 297 279
-0.027502786 0.713 -0.048754938 1.3887319e-38 298 279
-0.026252659 0.713 -0.048754938 1.2504383e-38 299 279
-0.024897331 0.70999998 -0.048549797 8.2777811e-39 300 279
-0.023585839 0.708 -0.048413038 1.0398281e-38 301 279
-0.022344479 0.708 -0.048413038 1.3425265e-38 302 279
-0.021162732 0.70999998 -0.048549797 1.3056841e-38 303 279
-0.01986176 0.708 -0.048413038 1.3607844e-38 304 279
-0.018594101 0.70700002 -0.048344657 1.3515648e-38 305 279
-0.017354494 0.70700002 -0.048344657 1.3332336e-38 306 279
-0.016092092 0.70599997 -0.048276275 1.3239782e-38 307 279
-0.014854239 0.70599997 -0.048276275 1.3056472e-38 308 279
-0.013616386 0.70599997 -0.048276275 1.2964277e-38 309 279
-0.012378532 0.70599997 -0.048276275 1.3147233e-38 310 279
-0.011109119 0.704 -0.048139516 1.3055037e-38 311 279
-0.0098747732 0.704 -0.048139516 1.3054317e-38 312 279
-0.0086404262 0.704 -0.048139516 1.3054317e-38 313 279
-0.0074060797 0.704 -0.048139516 1.2503664e-38 314 279
-0.0061717331 0.704 -0.048139516 1.2227077e-38 315 279
-0.0049373866 0.704 -0.048139516 1.1215449e-38 316 279
-0.0037030398 0.704 -0.048139516 1.1215449e-38 317 279
-0.0024686933 0.704 -0.048139516 1.1398761e-38 318 279
-0.0012378532 0.70599997 -0.048276275 1.1951935e-38 319 279
0 0.708 -0.048413038 1.231927e-38 320 279
0.0012448666 0.70999998 -0.048549797 1.231927e-38 321 279
0.0024897333 0.70999998 -0.048549797 1.231927e-38 322 279
0.0037345996 0.70999998 -0.048549797 1.231927e-38 323 279
0.0049864799 0.71100003 -0.048618179 1.2135961e-38 324 279
0.0062330998 0.71100003 -0.048618179 1.2135961e-38 325 279
0.0074797203 0.71100003 -0.048618179 1.2135961e-38 326 279
0.0087263398 0.71100003 -0.048618179 1.2228156e-38 327 279
0.0099729598 0.71100003 -0.048618179 1.1771137e-38 328 279
0.011251139 0.713 -0.048754938 1.1771137e-38 329 279
0.012553867 0.71600002 -0.048960082 1.1035737e-38 330 279
0.013828539 0.71700001 -0.04902846 1.1035737e-38 331 279
0.01512776 0.71899998 -0.049165215 1.1686154e-38 332 279
0.016388407 0.71899998 -0.049165215 1.4082881e-38 333 279
0.017673599 0.72000003 -0.0492336 1.649294e-38 334 279
0.018935999 0.72000003 -0.0492336 1.7230506e-38 335 279
-0.037503798 0.713 -0.050005067 1.8987981e-38 290 280
-0.036253672 0.713 -0.050005067 1.9172731e-38 291 280
-0.035003547 0.713 -0.050005067 1.9721571e-38 292 280
-0.033753417 0.713 -0.050005067 1.7600711e-38 293 280
-0.032548878 0.71399999 -0.050075196 1.5741639e-38 294 280
-0.031296998 0.71399999 -0.050075196 1.2699542e-38 295 280
-0.030045118 0.71399999 -0.050075196 1.370613e-38 296 280
-0.028793238 0.71399999 -0.050075196 1.3613933e-38 297 280
-0.02754136 0.71399999 -0.050075196 1.3977706e-38 298 280
-0.026289478 0.71399999 -0.050075196 1.2779162e-38 299 280
-0.025002534 0.713 -0.050005067 8.4614493e-39 300 280
-0.023685781 0.71100003 -0.049864799 1.0489753e-38 301 280
-0.022439159 0.71100003 -0.049864799 1.3241955e-38 302 280
-0.021192541 0.71100003 -0.049864799 1.3149399e-38 303 280
-0.019917866 0.70999998 -0.049794663 1.3424532e-38 304 280
-0.0186204 0.708 -0.049654398 1.3424532e-38 305 280
-0.017379038 0.708 -0.049654398 1.342345e-38 306 280
-0.016114887 0.70700002 -0.049584266 1.342345e-38 307 280
-0.01487528 0.70700002 -0.049584266 1.3147586e-38 308 280
-0.013616386 0.70599997 -0.04951413 1.3055391e-38 309 280
-0.012378532 0.70599997 -0.04951413 1.3147589e-38 310 280
-0.011140679 0.70599997 -0.04951413 1.3055393e-38 311 280
-0.0099028256 0.70599997 -0.04951413 1.3054673e-38 312 280
-0.0086404262 0.704 -0.049373865 1.3054673e-38 313 280
-0.0074060797 0.704 -0.049373865 1.2686967e-38 314 280
-0.0061892662 0.70599997 -0.04951413 1.2410021e-38 315 280
-0.0049514128 0.70599997 -0.04951413 1.1856853e-38 316 280
-0.0037135598 0.70599997 -0.04951413 1.1856853e-38 317 280
-0.0024757064 0.70599997 -0.04951413 1.1400203e-38 318 280
-0.0012396066 0.70700002 -0.049584266 1.1584955e-38 319 280
0 0.70999998 -0.049794663 1.2501866e-38 320 280
0.0012448666 0.70999998 -0.049794663 1.2501866e-38 321 280
0.0024897333 0.70999998 -0.049794663 1.231927e-38 322 280
0.0037398601 0.71100003 -0.049864799 1.2411466e-38 323 280
0.0049864799 0.71100003 -0.049864799 1.2044484e-38 324 280
0.0062330998 0.71100003 -0.049864799 1.213668e-38 325 280
0.0074797203 0.71100003 -0.049864799 1.213668e-38 326 280
0.0087263398 0.71100003 -0.049864799 1.2228875e-38 327 280
0.0099729598 0.71100003 -0.049864799 1.1953733e-38 328 280
0.011251139 0.713 -0.050005067 1.2045929e-38 329 280
0.0125714 0.71700001 -0.0502856 1.0026627e-38 330 280
0.013828539 0.71700001 -0.0502856 1.0579801e-38 331 280
0.015085679 0.71700001 -0.0502856 1.2705712e-38 332 280
0.016342819 0.71700001 -0.0502856 1.464182e-38 333 280
-0.036253672 0.713 -0.051255193 1.8712117e-38 291 281
-0.035003547 0.713 -0.051255193 1.9907776e-38 292 281
-0.033753417 0.713 -0.051255193 1.9354243e-38 293 281
-0.032548878 0.71399999 -0.05132708 1.7964792e-38 294 281
-0.031296998 0.71399999 -0.05132708 1.381563e-38 295 281
-0.030045118 0.71399999 -0.05132708 1.3335905e-38 296 281
-0.028793238 0.71399999 -0.05132708 1.3428101e-38 297 281
-0.02754136 0.71399999 -0.05132708 1.3796176e-38 298 281
-0.026252659 0.713 -0.051255193 1.2597633e-38 299 281
-0.025002534 0.713 -0.051255193 8.9217044e-39 300 281
-0.023685781 0.71100003 -0.051111419 1.0489031e-38 301 281
-0.022439159 0.71100003 -0.051111419 1.3057557e-38 302 281
-0.021192541 0.71100003 -0.051111419 1.2873526e-38 303 281
-0.019917866 0.70999998 -0.051039528 1.3332336e-38 304 281
-0.018672999 0.70999998 -0.051039528 1.3332336e-38 305 281
-0.017428132 0.70999998 -0.051039528 1.3515292e-38 306 281
-0.01613768 0.708 -0.050895758 1.3423097e-38 307 281
-0.01487528 0.70700002 -0.050823875 1.3239782e-38 308 281
-0.013635674 0.70700002 -0.050823875 1.3147586e-38 309 281
-0.012378532 0.70599997 -0.050751984 1.2964274e-38 310 281
-0.011140679 0.70599997 -0.050751984 1.2964274e-38 311 281
-0.0099028256 0.70599997 -0.050751984 1.2872081e-38 312 281
-0.0086649731 0.70599997 -0.050751984 1.2872081e-38 313 281
-0.0074271196 0.70599997 -0.050751984 1.2687332e-38 314 281
-0.0061892662 0.70599997 -0.050751984 1.2318551e-38 315 281
-0.0049514128 0.70599997 -0.050751984 1.1766818e-38 316 281
-0.0037135598 0.70599997 -0.050751984 1.1490591e-38 317 281
-0.0024792133 0.70700002 -0.050823875 1.1766818e-38 318 281
-0.00124136 0.708 -0.050895758 1.2043765e-38 319 281
0 0.70999998 -0.051039528 1.2502217e-38 320 281
0.0012448666 0.70999998 -0.051039528 1.2502217e-38 321 281
0.0024897333 0.70999998 -0.051039528 1.2318904e-38 322 281
0.0037398601 0.71100003 -0.051111419 1.24111e-38 323 281
0.0049864799 0.71100003 -0.051111419 1.2136674e-38 324 281
0.0062330998 0.71100003 -0.051111419 1.2136674e-38 325 281
0.0074797203 0.71100003 -0.051111419 1.2136674e-38 326 281
0.0087263398 0.71100003 -0.051111419 1.2136674e-38 327 281
0.0099729598 0.71100003 -0.051111419 1.1770421e-38 328 281
0.011251139 0.713 -0.051255193 1.140128e-38 329 281
0.0125714 0.71700001 -0.051542737 9.4748992e-39 330 281
0.013809253 0.71600002 -0.051470853 1.131881e-38 331 281
0.01506464 0.71600002 -0.051470853 1.3817823e-38 332 281
0.016342819 0.71700001 -0.051542737 1.4924171e-38 333 281
-0.035003547 0.713 -0.052505318 1.9170577e-38 292 282
-0.033753417 0.713 -0.052505318 1.9262773e-38 293 282
-0.032503292 0.713 -0.052505318 1.8797809e-38 294 282
-0.030045118 0.71399999 -0.052578956 1.4912236e-38 296 282
-0.028793238 0.71399999 -0.052578956 1.2976486e-38 297 282
-0.02754136 0.71399999 -0.052578956 1.3431343e-38 298 282
-0.026252659 0.713 -0.052505318 1.2140605e-38 299 282
-0.025002534 0.713 -0.052505318 9.4727104e-39 300 282
-0.023685781 0.71100003 -0.052358042 1.0763449e-38 301 282
-0.022439159 0.71100003 -0.052358042 1.2689853e-38 302 282
-0.021192541 0.71100003 -0.052358042 1.2874245e-38 303 282
-0.01994592 0.71100003 -0.052358042 1.3240506e-38 304 282
-0.018672999 0.70999998 -0.052284397 1.3056116e-38 305 282
