# .PCD v.7 - Point Cloud Data file format
FIELDS x y z rgb imX imY
SIZE 4 4 4 4 4 4
TYPE F F F F F F
COUNT 1 1 1 1 1 1
WIDTH 847
HEIGHT 1
VIEWPOINT 0 0 0 1 0 0 0
POINTS 847
DATA ascii
0.0011957732 0.68199998 -0.009566186 1.748508e-38 321 248
0.0023845332 0.68000001 -0.0095381327 1.6192546e-38 322 248
0.0035767998 0.68000001 -0.0095381327 1.462522e-38 323 248
0.0047690663 0.68000001 -0.0095381327 1.0762365e-38 324 248
0.0059613334 0.68000001 -0.0095381327 8.733702e-39 325 248
0.0071430802 0.67900002 -0.009524107 6.8037328e-39 326 248
0.0083335936 0.67900002 -0.009524107 7.1721552e-39 327 248
0.009524107 0.67900002 -0.009524107 5.8864779e-39 328 248
0.0107304 0.68000001 -0.0095381327 5.609891e-39 329 248
0.011922667 0.68000001 -0.0095381327 4.7862568e-39 330 248
0.013153506 0.68199998 -0.009566186 5.8007689e-39 331 248
0.01434928 0.68199998 -0.009566186 8.7438222e-39 332 248
0.015499466 0.68000001 -0.0095381327 1.0402985e-38 333 248
0.016691733 0.68000001 -0.0095381327 1.334747e-38 334 248
0.0178314 0.67799997 -0.0095100794 1.4546013e-38 335 248
0.019020159 0.67799997 -0.0095100794 1.6385955e-38 336 248
0.020208918 0.67799997 -0.0095100794 1.6755096e-38 337 248
0.021397678 0.67799997 -0.0095100794 1.7489413e-38 338 248
0.022586439 0.67799997 -0.0095100794 1.7858554e-38 339 248
0.023775198 0.67799997 -0.0095100794 1.8684719e-38 340 248
0.024890319 0.676 -0.0094820261 1.886911e-38 341 248
0.026075572 0.676 -0.0094820261 1.9237541e-38 342 248
0.027260827 0.676 -0.0094820261 1.8684369e-38 343 248
0.028446076 0.676 -0.0094820261 1.38913e-38 344 248
0.029631332 0.676 -0.0094820261 9.2815186e-39 345 248
0.030771 0.67500001 -0.0094679995 4.7898161e-39 346 248
0.031954501 0.67500001 -0.0094679995 4.7898161e-39 347 248
0.033088908 0.67400002 -0.0094539737 1.3897732e-38 348 248
0.034270655 0.67400002 -0.0094539737 1.6110427e-38 349 248
0.035505001 0.67500001 -0.0094679995 1.9331511e-38 350 248
0.036688499 0.67500001 -0.0094679995 1.8778337e-38 351 248
0.037871998 0.67500001 -0.0094679995 1.8775803e-38 352 248
0.039055496 0.67500001 -0.0094679995 1.8406661e-38 353 248
0.040238999 0.67500001 -0.0094679995 1.830943e-38 354 248
0.041483864 0.676 -0.0094820261 1.8217235e-38 355 248
0.042795356 0.67799997 -0.0095100794 1.8031764e-38 356 248
0.043984115 0.67799997 -0.0095100794 1.8031764e-38 357 248
0.045172878 0.67799997 -0.0095100794 1.7573663e-38 358 248
0.046430022 0.67900002 -0.009524107 1.7573663e-38 359 248
0.047620531 0.67900002 -0.009524107 1.7756978e-38 360 248
0.048882935 0.68000001 -0.0095381327 1.7572947e-38 361 248
0.050075196 0.68000001 -0.0095381327 1.7664061e-38 362 248
0.051267464 0.68000001 -0.0095381327 1.7756256e-38 363 248
0.052691177 0.68300003 -0.0095802136 1.7573663e-38 364 248
0.053967599 0.68400002 -0.0095942402 1.7573663e-38 365 248
0.055328183 0.68599999 -0.0096222926 1.7389995e-38 366 248
0.056530971 0.68599999 -0.0096222926 1.7297799e-38 367 248
0.057733759 0.68599999 -0.0096222926 1.7298168e-38 368 248
0.058936544 0.68599999 -0.0096222926 1.7298168e-38 369 248
0.060139328 0.68599999 -0.0096222926 1.6469148e-38 370 248
0.061431535 0.68699998 -0.0096363192 1.7206715e-38 371 248
0.062636077 0.68699998 -0.0096363192 1.6118028e-38 372 248
0.06384062 0.68699998 -0.0096363192 1.7593158e-38 373 248
0.064950474 0.68599999 -0.0096222926 1.7970588e-38 374 248
-0.012220734 0.69700003 -0.01099866 1.6774197e-38 310 249
-0.01099866 0.69700003 -0.01099866 1.2164416e-38 311 249
-0.0097204801 0.69300002 -0.010935539 1.5914177e-38 312 249
-0.0085054198 0.69300002 -0.010935539 1.711272e-38 313 249
-0.0072693196 0.69099998 -0.01090398 1.6930824e-38 314 249
-0.0060577663 0.69099998 -0.01090398 1.7023379e-38 315 249
-0.0048391996 0.69 -0.010888199 1.7574735e-38 316 249
-0.0036293997 0.69 -0.010888199 1.7574735e-38 317 249
-0.0023985601 0.68400002 -0.01079352 1.794172e-38 318 249
-0.0011975267 0.68300003 -0.01077774 1.8402698e-38 319 249
0 0.68199998 -0.010761959 1.8130081e-38 320 249
0.0011957732 0.68199998 -0.010761959 1.8406666e-38 321 249
0.0023845332 0.68000001 -0.0107304 1.7853139e-38 322 249
0.0035767998 0.68000001 -0.0107304 1.720777e-38 323 249
0.0047620535 0.67900002 -0.010714619 1.6284736e-38 324 249
0.0059437994 0.67799997 -0.010698839 1.4901802e-38 325 249
0.0071325595 0.67799997 -0.010698839 1.3240485e-38 326 249
0.0082967728 0.676 -0.01066728 1.1857551e-38 327 249
0.0094820261 0.676 -0.01066728 8.2756161e-39 328 249
0.01066728 0.676 -0.01066728 7.3533011e-39 329 249
0.011852534 0.676 -0.01066728 4.6940458e-39 330 249
0.013037786 0.676 -0.01066728 5.2472196e-39 331 249
0.014223038 0.676 -0.01066728 5.7060495e-39 332 249
0.015408293 0.676 -0.01066728 6.8123971e-39 333 249
0.016593546 0.676 -0.01066728 8.563391e-39 334 249
0.017778801 0.676 -0.01066728 9.2087604e-39 335 249
0.018964052 0.676 -0.01066728 9.7622845e-39 336 249
0.020149305 0.676 -0.01066728 1.06846e-38 337 249
0.021334561 0.676 -0.01066728 1.2246878e-38 338 249
0.022519812 0.676 -0.01066728 1.2984443e-38 339 249
0.023705067 0.676 -0.01066728 1.4822955e-38 340 249
0.0248535 0.67500001 -0.0106515 1.5836747e-38 341 249
0.026037 0.67500001 -0.0106515 1.7305047e-38 342 249
0.027260827 0.676 -0.01066728 1.6751873e-38 343 249
0.028446076 0.676 -0.01066728 1.2329372e-38 344 249
0.0295875 0.67500001 -0.0106515 9.1025251e-39 345 249
0.030725412 0.67400002 -0.01063572 5.527384e-39 346 249
0.031812478 0.67199999 -0.010604159 5.3429913e-39 347 249
0.03299072 0.67199999 -0.010604159 1.5279595e-38 348 249
0.034168959 0.67199999 -0.010604159 1.7031311e-38 349 249
0.035452399 0.67400002 -0.01063572 1.8777615e-38 350 249
0.036634147 0.67400002 -0.01063572 1.8685418e-38 351 249
0.037815895 0.67400002 -0.01063572 1.9052386e-38 352 249
0.038997639 0.67400002 -0.01063572 1.8038236e-38 353 249
0.040238999 0.67500001 -0.0106515 1.8217232e-38 354 249
0.041422497 0.67500001 -0.0106515 1.8125035e-38 355 249
0.042669121 0.676 -0.01066728 1.7848452e-38 356 249
0.043854371 0.676 -0.01066728 1.7848452e-38 357 249
0.045039624 0.676 -0.01066728 1.7389998e-38 358 249
0.046224877 0.676 -0.01066728 1.7297802e-38 359 249
0.047620531 0.67900002 -0.010714619 1.7572594e-38 360 249
0.048739154 0.67799997 -0.010698839 1.7572594e-38 361 249
0.049927916 0.67799997 -0.010698839 1.7480398e-38 362 249
0.051267464 0.68000001 -0.0107304 1.7572594e-38 363 249
0.052459732 0.68000001 -0.0107304 1.7481111e-38 364 249
0.053652 0.68000001 -0.0107304 1.7573666e-38 365 249
0.055005573 0.68199998 -0.010761959 1.7389995e-38 366 249
0.056283753 0.68300003 -0.01077774 1.7297799e-38 367 249
0.057481278 0.68300003 -0.01077774 1.739e-38 368 249
0.058764715 0.68400002 -0.01079352 1.739e-38 369 249
0.059964001 0.68400002 -0.01079352 1.7020153e-38 370 249
0.061342116 0.68599999 -0.010825079 1.6927956e-38 371 249
0.062544905 0.68599999 -0.010825079 1.6014674e-38 372 249
0.063747689 0.68599999 -0.010825079 1.7858586e-38 373 249
0.064950474 0.68599999 -0.010825079 1.6862095e-38 374 249
0.066249698 0.68699998 -0.010840859 1.8521618e-38 375 249
0.067454241 0.68699998 -0.010840859 1.8157503e-38 376 249
0.068658777 0.68699998 -0.010840859 1.760433e-38 377 249
-0.012220734 0.69700003 -0.012220734 1.5290425e-38 310 250
-0.010935539 0.69300002 -0.012150601 1.2616752e-38 311 250
-0.0096924258 0.69099998 -0.012115533 1.6376587e-38 312 250
-0.008480873 0.69099998 -0.012115533 1.6929761e-38 313 250
-0.0072587994 0.69 -0.012097999 1.7022657e-38 314 250
-0.0060489997 0.69 -0.012097999 1.7114853e-38 315 250
-0.0048251734 0.68800002 -0.012062933 1.7574385e-38 316 250
-0.0036188802 0.68800002 -0.012062933 1.7758777e-38 317 250
-0.0023985601 0.68400002 -0.0119928 1.785097e-38 318 250
-0.0011975267 0.68300003 -0.011975267 1.803572e-38 319 250
0 0.68199998 -0.011957732 1.8037152e-38 320 250
0.0011922666 0.68000001 -0.011922667 1.8221904e-38 321 250
0.0023845332 0.68000001 -0.011922667 1.8498143e-38 322 250
0.0035715401 0.67900002 -0.011905133 1.8866567e-38 323 250
0.0047550397 0.67799997 -0.011887599 1.8865495e-38 324 250
0.0059437994 0.67799997 -0.011887599 1.8220125e-38 325 250
0.0071115191 0.676 -0.011852534 1.693009e-38 326 250
0.0082967728 0.676 -0.011852534 1.4809589e-38 327 250
0.0094820261 0.676 -0.011852534 1.2507945e-38 328 250
0.0106515 0.67500001 -0.011835 1.0664038e-38 329 250
0.011817466 0.67400002 -0.011817466 8.1823457e-39 330 250
0.012999214 0.67400002 -0.011817466 7.9057574e-39 331 250
0.01418096 0.67400002 -0.011817466 6.3456568e-39 332 250
0.015362706 0.67400002 -0.011817466 6.7147994e-39 333 250
0.016544454 0.67400002 -0.011817466 5.2504664e-39 334 250
0.0177262 0.67400002 -0.011817466 4.605097e-39 335 250
0.018935999 0.67500001 -0.011835 4.055163e-39 336 250
0.020119499 0.67500001 -0.011835 5.1615091e-39 337 250
0.021303 0.67500001 -0.011835 7.0922294e-39 338 250
0.022486499 0.67500001 -0.011835 8.4751638e-39 339 250
0.023669999 0.67500001 -0.011835 1.0956884e-38 340 250
0.0248535 0.67500001 -0.011835 1.1971035e-38 341 250
0.026037 0.67500001 -0.011835 1.3989263e-38 342 250
0.027220501 0.67500001 -0.011835 1.362048e-38 343 250
0.028404001 0.67500001 -0.011835 1.0397948e-38 344 250
0.029543666 0.67400002 -0.011817466 8.5540373e-39 345 250
0.030725412 0.67400002 -0.011817466 6.0787809e-39 346 250
0.031812478 0.67199999 -0.011782399 6.7241503e-39 347 250
0.03299072 0.67199999 -0.011782399 1.6017545e-38 348 250
0.034168959 0.67199999 -0.011782399 1.7124251e-38 349 250
0.035452399 0.67400002 -0.011817466 1.8315213e-38 350 250
0.036634147 0.67400002 -0.011817466 1.8499605e-38 351 250
0.037815895 0.67400002 -0.011817466 1.8776888e-38 352 250
0.038997639 0.67400002 -0.011817466 1.7947487e-38 353 250
0.040179387 0.67400002 -0.011817466 1.7943887e-38 354 250
0.041422497 0.67500001 -0.011835 1.7575465e-38 355 250
0.042606 0.67500001 -0.011835 1.7389998e-38 356 250
0.043789499 0.67500001 -0.011835 1.7297802e-38 357 250
0.044972997 0.67500001 -0.011835 1.7297446e-38 358 250
0.0461565 0.67500001 -0.011835 1.720525e-38 359 250
0.047410134 0.676 -0.011852534 1.7204897e-38 360 250
0.048595384 0.676 -0.011852534 1.7204897e-38 361 250
0.049780637 0.676 -0.011852534 1.7204897e-38 362 250
0.050965894 0.676 -0.011852534 1.7204897e-38 363 250
0.052305438 0.67799997 -0.011887599 1.7297446e-38 364 250
0.053573098 0.67900002 -0.011905133 1.7297446e-38 365 250
0.054763615 0.67900002 -0.011905133 1.7298521e-38 366 250
0.056036532 0.68000001 -0.011922667 1.7206325e-38 367 250
0.05739712 0.68199998 -0.011957732 1.7113774e-38 368 250
0.05867881 0.68300003 -0.011975267 1.7205969e-38 369 250
0.059876334 0.68300003 -0.011975267 1.7204547e-38 370 250
0.061342116 0.68599999 -0.012027865 1.7296743e-38 371 250
0.062544905 0.68599999 -0.012027865 1.6561717e-38 372 250
0.063747689 0.68599999 -0.012027865 1.6746108e-38 373 250
0.064950474 0.68599999 -0.012027865 1.5194645e-38 374 250
0.066249698 0.68699998 -0.012045399 1.7960515e-38 375 250
0.067454241 0.68699998 -0.012045399 1.806605e-38 376 250
0.068658777 0.68699998 -0.012045399 1.8711419e-38 377 250
0.069863312 0.68699998 -0.012045399 1.8344782e-38 378 250
-0.013442807 0.69700003 -0.013442807 1.4842071e-38 309 251
-0.012220734 0.69700003 -0.013442807 1.4265115e-38 310 251
-0.01090398 0.69099998 -0.013327086 1.4265115e-38 311 251
-0.0096924258 0.69099998 -0.013327086 1.6562052e-38 312 251
-0.0084686 0.69 -0.0133078 1.6746443e-38 313 251
-0.0072377604 0.68800002 -0.013269227 1.7205969e-38 314 251
-0.0060314666 0.68800002 -0.013269227 1.7205969e-38 315 251
-0.0048181596 0.68699998 -0.013249939 1.7665861e-38 316 251
-0.0036136196 0.68699998 -0.013249939 1.7758057e-38 317 251
-0.0023985601 0.68400002 -0.01319208 1.7942087e-38 318 251
-0.0011957732 0.68199998 -0.013153506 1.8219032e-38 319 251
0 0.68199998 -0.013153506 1.8219395e-38 320 251
0.0011922666 0.68000001 -0.013114933 1.8404147e-38 321 251
0.0023845332 0.68000001 -0.013114933 1.8130084e-38 322 251
0.0035715401 0.67900002 -0.013095647 1.840631e-38 323 251
0.0047550397 0.67799997 -0.013076359 1.8405591e-38 324 251
0.0059437994 0.67799997 -0.013076359 1.82212e-38 325 251
0.0071115191 0.676 -0.013037786 1.7944243e-38 326 251
0.0082967728 0.676 -0.013037786 1.7483265e-38 327 251
0.0094820261 0.676 -0.013037786 1.7021211e-38 328 251
0.0106515 0.67500001 -0.0130185 1.6283646e-38 329 251
0.011817466 0.67400002 -0.012999214 1.4993284e-38 330 251
0.012999214 0.67400002 -0.012999214 1.3517794e-38 331 251
0.01418096 0.67400002 -0.012999214 1.0852056e-38 332 251
0.015362706 0.67400002 -0.012999214 9.7453484e-39 333 251
0.016544454 0.67400002 -0.012999214 4.9770997e-39 334 251
0.0177262 0.67400002 -0.012999214 4.4239259e-39 335 251
0.018935999 0.67500001 -0.0130185 4.8838418e-39 336 251
0.020119499 0.67500001 -0.0130185 5.1607875e-39 337 251
0.021303 0.67500001 -0.0130185 7.2726676e-39 338 251
0.022486499 0.67500001 -0.0130185 8.1027884e-39 339 251
0.023669999 0.67500001 -0.0130185 7.5542963e-39 340 251
0.024816679 0.67400002 -0.012999214 7.646492e-39 341 251
0.025998428 0.67400002 -0.012999214 8.1045834e-39 342 251
0.027220501 0.67500001 -0.0130185 8.1045834e-39 343 251
0.028404001 0.67500001 -0.0130185 7.274457e-39 344 251
0.029543666 0.67400002 -0.012999214 7.0897056e-39 345 251
0.030725412 0.67400002 -0.012999214 6.6298037e-39 346 251
0.03190716 0.67400002 -0.012999214 7.6443143e-39 347 251
0.03299072 0.67199999 -0.012960639 1.5834598e-38 348 251
0.034168959 0.67199999 -0.012960639 1.620374e-38 349 251
0.035452399 0.67400002 -0.012999214 1.7209234e-38 350 251
0.036634147 0.67400002 -0.012999214 1.7485823e-38 351 251
0.037703678 0.67199999 -0.012960639 1.7670916e-38 352 251
0.03888192 0.67199999 -0.012960639 1.7302133e-38 353 251
0.040179387 0.67400002 -0.012999214 1.7392163e-38 354 251
0.041238401 0.67199999 -0.012960639 1.720777e-38 355 251
0.042416636 0.67199999 -0.012960639 1.7391086e-38 356 251
0.043789499 0.67500001 -0.0130185 1.7391086e-38 357 251
0.044972997 0.67500001 -0.0130185 1.71145e-38 358 251
0.0461565 0.67500001 -0.0130185 1.6837913e-38 359 251
0.047339998 0.67500001 -0.0130185 1.6929392e-38 360 251
0.048523501 0.67500001 -0.0130185 1.6929392e-38 361 251
0.049706999 0.67500001 -0.0130185 1.7112702e-38 362 251
0.050965894 0.676 -0.013037786 1.7112702e-38 363 251
0.052151144 0.676 -0.013037786 1.720525e-38 364 251
0.053336397 0.676 -0.013037786 1.720525e-38 365 251
0.054682959 0.67799997 -0.013076359 1.7205969e-38 366 251
0.055954125 0.67900002 -0.013095647 1.7113774e-38 367 251
0.057228796 0.68000001 -0.013114933 1.6930105e-38 368 251
0.058421064 0.68000001 -0.013114933 1.6930105e-38 369 251
0.059788663 0.68199998 -0.013153506 1.7113421e-38 370 251
0.061342116 0.68599999 -0.013230653 1.7113421e-38 371 251
0.062544905 0.68599999 -0.013230653 1.6928686e-38 372 251
0.063747689 0.68599999 -0.013230653 1.683649e-38 373 251
0.064950474 0.68599999 -0.013230653 1.5826692e-38 374 251
0.066249698 0.68699998 -0.013249939 1.6933038e-38 375 251
0.067454241 0.68699998 -0.013249939 1.48356e-38 376 251
0.068558842 0.68599999 -0.013230653 1.7601828e-38 377 251
0.069761619 0.68599999 -0.013230653 1.8068212e-38 378 251
0.070964411 0.68599999 -0.013230653 1.8529189e-38 379 251
-0.01439136 0.68400002 -0.01439136 1.7606494e-38 308 252
-0.013230653 0.68599999 -0.01443344 1.3457691e-38 309 252
-0.012097999 0.69 -0.014517599 1.4351908e-38 310 252
-0.010888199 0.69 -0.014517599 1.536642e-38 311 252
-0.0096783992 0.69 -0.014517599 1.6654963e-38 312 252
-0.0084440531 0.68800002 -0.014475521 1.6747159e-38 313 252
-0.0072272392 0.68699998 -0.014454478 1.7205969e-38 314 252
-0.0060226996 0.68699998 -0.014454478 1.7298165e-38 315 252
-0.0048111463 0.68599999 -0.01443344 1.7666227e-38 316 252
-0.00359784 0.68400002 -0.01439136 1.7758424e-38 317 252
-0.0023950534 0.68300003 -0.014370319 1.8034288e-38 318 252
-0.0011957732 0.68199998 -0.01434928 1.8218679e-38 319 252
0 0.68000001 -0.014307199 1.8128284e-38 320 252
0.0011922666 0.68000001 -0.014307199 1.8220481e-38 321 252
0.0023810267 0.67900002 -0.01428616 1.8313399e-38 322 252
0.0035715401 0.67900002 -0.01428616 1.8405594e-38 323 252
0.0047550397 0.67799997 -0.014265119 1.8497064e-38 324 252
0.0059262668 0.676 -0.014223038 1.8128282e-38 325 252
0.0071115191 0.676 -0.014223038 1.8126471e-38 326 252
0.0082967728 0.676 -0.014223038 1.8126471e-38 327 252
0.0094679995 0.67500001 -0.014202001 1.8034636e-38 328 252
0.0106515 0.67500001 -0.014202001 1.8034636e-38 329 252
0.011835 0.67500001 -0.014202001 1.7391067e-38 330 252
0.012999214 0.67400002 -0.01418096 1.6561306e-38 331 252
0.01418096 0.67400002 -0.01418096 1.4811035e-38 332 252
0.015362706 0.67400002 -0.01418096 1.3520655e-38 333 252
0.016544454 0.67400002 -0.01418096 1.0854923e-38 334 252
0.0177262 0.67400002 -0.01418096 9.5641843e-39 335 252
0.018823786 0.671 -0.01411784 8.6454902e-39 336 252
0.020119499 0.67500001 -0.014202001 8.6454902e-39 337 252
0.021303 0.67500001 -0.014202001 6.3550147e-39 338 252
0.022453187 0.67400002 -0.01418096 7.0925797e-39 339 252
0.023634933 0.67400002 -0.01418096 6.5437415e-39 340 252
0.024816679 0.67400002 -0.01418096 6.5437415e-39 341 252
0.025998428 0.67400002 -0.01418096 6.7274167e-39 342 252
0.027180174 0.67400002 -0.01418096 6.6352211e-39 343 252
0.02836192 0.67400002 -0.01418096 7.0007568e-39 344 252
0.029543666 0.67400002 -0.01418096 6.9085612e-39 345 252
0.030634239 0.67199999 -0.01413888 6.7238014e-39 346 252
0.031812478 0.67199999 -0.01413888 6.7238014e-39 347 252
0.03299072 0.67199999 -0.01413888 1.2887228e-38 348 252
0.034168959 0.67199999 -0.01413888 1.3716988e-38 349 252
0.035452399 0.67400002 -0.01418096 1.4449493e-38 350 252
0.036634147 0.67400002 -0.01418096 1.4634243e-38 351 252
0.037703678 0.67199999 -0.01413888 1.5278516e-38 352 252
0.03888192 0.67199999 -0.01413888 1.5002287e-38 353 252
0.040060159 0.67199999 -0.01413888 1.5278501e-38 354 252
0.041238401 0.67199999 -0.01413888 1.5646925e-38 355 252
0.042416636 0.67199999 -0.01413888 1.5923162e-38 356 252
0.043594878 0.67199999 -0.01413888 1.6015359e-38 357 252
0.044906374 0.67400002 -0.01418096 1.6196877e-38 358 252
0.046088122 0.67400002 -0.01418096 1.5735899e-38 359 252
0.047269866 0.67400002 -0.01418096 1.6010325e-38 360 252
0.048523501 0.67500001 -0.014202001 1.6010325e-38 361 252
0.049706999 0.67500001 -0.014202001 1.6378386e-38 362 252
0.050890498 0.67500001 -0.014202001 1.6378386e-38 363 252
0.052151144 0.676 -0.014223038 1.6562052e-38 364 252
0.053336397 0.676 -0.014223038 1.6654247e-38 365 252
0.054521654 0.676 -0.014223038 1.6654244e-38 366 252
0.055871718 0.67799997 -0.014265119 1.6654244e-38 367 252
0.057144642 0.67900002 -0.01428616 1.6562768e-38 368 252
0.058421064 0.68000001 -0.014307199 1.6654963e-38 369 252
0.059613332 0.68000001 -0.014307199 1.665425e-38 370 252
0.061073858 0.68300003 -0.014370319 1.665425e-38 371 252
0.062362559 0.68400002 -0.01439136 1.6653547e-38 372 252
0.063747689 0.68599999 -0.01443344 1.6929773e-38 373 252
0.064950474 0.68599999 -0.01443344 1.6286203e-38 374 252
0.066153266 0.68599999 -0.01443344 1.5456441e-38 375 252
0.067454241 0.68699998 -0.014454478 1.3346764e-38 376 252
0.068558842 0.68599999 -0.01443344 1.6665808e-38 377 252
0.069761619 0.68599999 -0.01443344 1.6499097e-38 378 252
0.070964411 0.68599999 -0.01443344 1.8250812e-38 379 252
-0.01559064 0.68400002 -0.01559064 1.8347673e-38 307 253
-0.01439136 0.68400002 -0.01559064 1.5943011e-38 308 253
-0.013230653 0.68599999 -0.015636226 1.2808e-38 309 253
-0.012027865 0.68599999 -0.015636226 1.5362818e-38 310 253
-0.010840859 0.68699998 -0.015659019 1.6285134e-38 311 253
-0.0096503468 0.68800002 -0.015681813 1.7021951e-38 312 253
-0.0084317802 0.68699998 -0.015659019 1.6929755e-38 313 253
-0.0072167199 0.68599999 -0.015636226 1.7481117e-38 314 253
-0.0059964 0.68400002 -0.01559064 1.7573313e-38 315 253
-0.0047901068 0.68300003 -0.015567848 1.7665861e-38 316 253
-0.00358732 0.68199998 -0.015545053 1.7758057e-38 317 253
-0.0023915465 0.68199998 -0.015545053 1.8034285e-38 318 253
-0.0011922666 0.68000001 -0.015499466 1.8219035e-38 319 253
0 0.67900002 -0.015476674 1.8219401e-38 320 253
0.0011905134 0.67900002 -0.015476674 1.8495989e-38 321 253
0.0023775198 0.67799997 -0.015453878 1.8313762e-38 322 253
0.0035662798 0.67799997 -0.015453878 1.8405957e-38 323 253
0.0047410131 0.676 -0.015408293 1.8496358e-38 324 253
0.0059262668 0.676 -0.015408293 1.8404162e-38 325 253
0.0071115191 0.676 -0.015408293 1.8035017e-38 326 253
0.0082844999 0.67500001 -0.0153855 1.7850267e-38 327 253
0.0094679995 0.67500001 -0.0153855 1.7574029e-38 328 253
0.01063572 0.67400002 -0.015362706 1.7389998e-38 329 253
0.011817466 0.67400002 -0.015362706 1.7574382e-38 330 253
0.012960639 0.67199999 -0.01531712 1.7666578e-38 331 253
0.01413888 0.67199999 -0.01531712 1.7575109e-38 332 253
0.01531712 0.67199999 -0.01531712 1.7851695e-38 333 253
0.016470812 0.671 -0.015294326 1.6748961e-38 334 253
0.0176473 0.671 -0.015294326 1.5181634e-38 335 253
0.018823786 0.671 -0.015294326 1.3797993e-38 336 253
0.020000271 0.671 -0.015294326 1.2323223e-38 337 253
0.021271439 0.67400002 -0.015362706 7.3659044e-39 338 253
0.022453187 0.67400002 -0.015362706 7.8268825e-39 339 253
0.023634933 0.67400002 -0.015362706 6.8174319e-39 340 253
0.0248535 0.67500001 -0.0153855 6.9096276e-39 341 253
0.025921278 0.67199999 -0.01531712 7.0025491e-39 342 253
0.027099518 0.67199999 -0.01531712 6.8185165e-39 343 253
0.02827776 0.67199999 -0.01531712 7.001826e-39 344 253
0.029455997 0.67199999 -0.01531712 7.001826e-39 345 253
0.030588651 0.671 -0.015294326 7.1847907e-39 346 253
0.031765141 0.671 -0.015294326 7.0007596e-39 347 253
0.032941625 0.671 -0.015294326 7.5499775e-39 348 253
0.034118112 0.671 -0.015294326 7.1815551e-39 349 253
0.035347197 0.67199999 -0.01531712 7.8218603e-39 350 253
0.036525436 0.67199999 -0.01531712 7.9140559e-39 351 253
0.037703678 0.67199999 -0.01531712 8.5576078e-39 352 253
0.03888192 0.67199999 -0.01531712 8.7423578e-39 353 253
0.040060159 0.67199999 -0.01531712 9.2908442e-39 354 253
0.041177034 0.671 -0.015294326 9.567071e-39 355 253
0.042353518 0.671 -0.015294326 1.0947857e-38 356 253
0.043594878 0.67199999 -0.01531712 1.1962369e-38 357 253
0.044906374 0.67400002 -0.015362706 1.3250956e-38 358 253
0.046088122 0.67400002 -0.015362706 1.4265109e-38 359 253
0.047269866 0.67400002 -0.015362706 1.546184e-38 360 253
0.048523501 0.67500001 -0.0153855 1.5369645e-38 361 253
0.049706999 0.67500001 -0.0153855 1.6468427e-38 362 253
0.050890498 0.67500001 -0.0153855 1.6284035e-38 363 253
0.052074 0.67500001 -0.0153855 1.6467338e-38 364 253
0.053257499 0.67500001 -0.0153855 1.6467338e-38 365 253
0.054441001 0.67500001 -0.0153855 1.6469133e-38 366 253
0.055706903 0.676 -0.015408293 1.6561329e-38 367 253
0.057060476 0.67799997 -0.015453878 1.6654247e-38 368 253
0.058249239 0.67799997 -0.015453878 1.6562052e-38 369 253
0.059613332 0.68000001 -0.015499466 1.6561696e-38 370 253
0.0608056 0.68000001 -0.015499466 1.6469499e-38 371 253
0.06227139 0.68300003 -0.015567848 1.6560978e-38 372 253
0.063561834 0.68400002 -0.01559064 1.6837206e-38 373 253
0.064761117 0.68400002 -0.01559064 1.6378386e-38 374 253
0.066153266 0.68599999 -0.015636226 1.6378386e-38 375 253
0.067454241 0.68699998 -0.015659019 1.5549733e-38 376 253
0.068658777 0.68699998 -0.015659019 1.4443385e-38 377 253
0.069863312 0.68699998 -0.015659019 1.2989172e-38 378 253
0.071067855 0.68699998 -0.015659019 1.6861389e-38 379 253
0.07227239 0.68699998 -0.015659019 1.7423214e-38 380 253
-0.01559064 0.68400002 -0.016789921 1.797817e-38 307 254
-0.01439136 0.68400002 -0.016789921 1.4830904e-38 308 254
-0.013230653 0.68599999 -0.016839013 1.2525655e-38 309 254
-0.012027865 0.68599999 -0.016839013 1.5735183e-38 310 254
-0.010840859 0.68699998 -0.01686356 1.6195803e-38 311 254
-0.0096363192 0.68699998 -0.01686356 1.6930105e-38 312 254
-0.0084317802 0.68699998 -0.01686356 1.702266e-38 313 254
-0.0071956799 0.68400002 -0.016789921 1.7481117e-38 314 254
-0.0059964 0.68400002 -0.016789921 1.7665508e-38 315 254
-0.004783093 0.68199998 -0.016740825 1.7482909e-38 316 254
-0.00358732 0.68199998 -0.016740825 1.7759496e-38 317 254
-0.0023845332 0.68000001 -0.016691733 1.7943171e-38 318 254
-0.0011905134 0.67900002 -0.016667187 1.8035367e-38 319 254
0 0.67900002 -0.016667187 1.8128649e-38 320 254
0.0011887599 0.67799997 -0.016642639 1.8313399e-38 321 254
0.0023775198 0.67799997 -0.016642639 1.8405241e-38 322 254
0.0035557596 0.676 -0.016593546 1.8405241e-38 323 254
0.0047410131 0.676 -0.016593546 1.8404159e-38 324 254
0.0059262668 0.676 -0.016593546 1.8127931e-38 325 254
0.0071010003 0.67500001 -0.016569 1.8126486e-38 326 254
0.0082844999 0.67500001 -0.016569 1.7757704e-38 327 254
0.0094679995 0.67500001 -0.016569 1.7665861e-38 328 254
0.01063572 0.67400002 -0.016544454 1.7573666e-38 329 254
0.011817466 0.67400002 -0.016544454 1.7388916e-38 330 254
0.012960639 0.67199999 -0.01649536 1.7481111e-38 331 254
0.01413888 0.67199999 -0.01649536 1.757331e-38 332 254
0.015294326 0.671 -0.016470812 1.7665506e-38 333 254
0.016470812 0.671 -0.016470812 1.7483279e-38 334 254
0.0176473 0.671 -0.016470812 1.7483279e-38 335 254
0.018823786 0.671 -0.016470812 1.6562768e-38 336 254
0.020000271 0.671 -0.016470812 1.5364225e-38 337 254
0.021176759 0.671 -0.016470812 1.2788167e-38 338 254
0.022319933 0.67000002 -0.016446266 1.0852059e-38 339 254
0.023564799 0.67199999 -0.01649536 5.2551383e-39 340 254
0.024743039 0.67199999 -0.01649536 5.8079533e-39 341 254
0.025921278 0.67199999 -0.01649536 6.2657099e-39 342 254
0.027099518 0.67199999 -0.01649536 6.3579055e-39 343 254
0.02827776 0.67199999 -0.01649536 6.6330477e-39 344 254
0.029412165 0.671 -0.016470812 6.6330477e-39 345 254
0.030543067 0.67000002 -0.016446266 6.5412234e-39 346 254
0.0317178 0.67000002 -0.016446266 6.633419e-39 347 254
0.032892533 0.67000002 -0.016446266 6.8178131e-39 348 254
0.034067266 0.67000002 -0.016446266 6.7256175e-39 349 254
0.035241999 0.67000002 -0.016446266 7.3662967e-39 350 254
0.036471087 0.671 -0.016470812 7.1819055e-39 351 254
0.037647571 0.671 -0.016470812 6.9967883e-39 352 254
0.038824059 0.671 -0.016470812 6.6280044e-39 353 254
0.040000543 0.671 -0.016470812 6.5343682e-39 354 254
0.041177034 0.671 -0.016470812 6.1652256e-39 355 254
0.042353518 0.671 -0.016470812 6.440023e-39 356 254
0.043594878 0.67199999 -0.01649536 6.7166113e-39 357 254
0.044773117 0.67199999 -0.01649536 8.2814119e-39 358 254
0.045951359 0.67199999 -0.01649536 9.4799551e-39 359 254
0.047129598 0.67199999 -0.01649536 1.1598644e-38 360 254
0.048523501 0.67500001 -0.016569 1.2704632e-38 361 254
0.049706999 0.67500001 -0.016569 1.3898122e-38 362 254
0.050890498 0.67500001 -0.016569 1.3805925e-38 363 254
0.052074 0.67500001 -0.016569 1.4814666e-38 364 254
0.053257499 0.67500001 -0.016569 1.4999417e-38 365 254
0.054441001 0.67500001 -0.016569 1.5367121e-38 366 254
0.055706903 0.676 -0.016593546 1.5643706e-38 367 254
0.056892153 0.676 -0.016593546 1.6103607e-38 368 254
0.058249239 0.67799997 -0.016642639 1.6011411e-38 369 254
0.059437994 0.67799997 -0.016642639 1.5734827e-38 370 254
0.0608056 0.68000001 -0.016691733 1.5827382e-38 371 254
0.06227139 0.68300003 -0.016765373 1.6011058e-38 372 254
0.063561834 0.68400002 -0.016789921 1.6103254e-38 373 254
0.064761117 0.68400002 -0.016789921 1.6102888e-38 374 254
0.066153266 0.68599999 -0.016839013 1.6102888e-38 375 254
0.067454241 0.68699998 -0.01686356 1.5918849e-38 376 254
0.068658777 0.68699998 -0.01686356 1.4812502e-38 377 254
0.069863312 0.68699998 -0.01686356 1.297546e-38 378 254
0.071067855 0.68699998 -0.01686356 1.5925722e-38 379 254
-0.014454478 0.68699998 -0.018068098 1.3809544e-38 308 255
-0.013249939 0.68699998 -0.018068098 1.325637e-38 309 255
-0.012045399 0.68699998 -0.018068098 1.6286554e-38 310 255
-0.010856641 0.68800002 -0.0180944 1.6378749e-38 311 255
-0.0096363192 0.68699998 -0.018068098 1.6929387e-38 312 255
-0.0084317802 0.68699998 -0.018068098 1.6929387e-38 313 255
-0.0071956799 0.68400002 -0.0179892 1.7297802e-38 314 255
-0.0059876335 0.68300003 -0.017962901 1.7574029e-38 315 255
-0.004783093 0.68199998 -0.017936599 1.7482912e-38 316 255
-0.00358732 0.68199998 -0.017936599 1.7575109e-38 317 255
-0.0023845332 0.68000001 -0.017883999 1.7758427e-38 318 255
-0.0011905134 0.67900002 -0.017857701 1.8035014e-38 319 255
0 0.67799997 -0.0178314 1.8128296e-38 320 255
0.0011887599 0.67799997 -0.0178314 1.8313046e-38 321 255
0.0023705065 0.676 -0.017778801 1.8313764e-38 322 255
0.0035557596 0.676 -0.017778801 1.8129733e-38 323 255
0.0047410131 0.676 -0.017778801 1.8220128e-38 324 255
0.0059174998 0.67500001 -0.0177525 1.8035736e-38 325 255
0.0071010003 0.67500001 -0.0177525 1.7850623e-38 326 255
0.0082844999 0.67500001 -0.0177525 1.7665871e-38 327 255
0.0094539737 0.67400002 -0.0177262 1.7389645e-38 328 255
0.01063572 0.67400002 -0.0177262 1.7297449e-38 329 255
0.011782399 0.67199999 -0.017673599 1.7205253e-38 330 255
0.012941353 0.671 -0.0176473 1.7205253e-38 331 255
0.01411784 0.671 -0.0176473 1.720525e-38 332 255
0.015294326 0.671 -0.0176473 1.7297446e-38 333 255
0.016470812 0.671 -0.0176473 1.7297446e-38 334 255
0.017620999 0.67000002 -0.017620999 1.7574032e-38 335 255
0.018795732 0.67000002 -0.017620999 1.7943184e-38 336 255
0.019970467 0.67000002 -0.017620999 1.7850988e-38 337 255
0.0211452 0.67000002 -0.017620999 1.4629922e-38 338 255
0.022319933 0.67000002 -0.017620999 1.1034652e-38 339 255
0.024743039 0.67199999 -0.017673599 5.6231977e-39 341 255
0.025921278 0.67199999 -0.017673599 6.5390528e-39 342 255
0.027099518 0.67199999 -0.017673599 7.0922266e-39 343 255
0.028235679 0.671 -0.0176473 7.4577665e-39 344 255
0.029412165 0.671 -0.0176473 6.9045927e-39 345 255
0.030543067 0.67000002 -0.017620999 6.812753e-39 346 255
0.0317178 0.67000002 -0.017620999 6.9049486e-39 347 255
0.032745253 0.667 -0.0175421 6.9975072e-39 348 255
0.033914726 0.667 -0.0175421 7.0900616e-39 349 255
0.035084199 0.667 -0.0175421 7.2733738e-39 350 255
0.036471087 0.671 -0.0176473 7.0893427e-39 351 255
0.037647571 0.671 -0.0176473 6.4450565e-39 352 255
0.038824059 0.671 -0.0176473 5.5234589e-39 353 255
0.039940935 0.67000002 -0.017620999 4.4200008e-39 354 255
0.041115668 0.67000002 -0.017620999 3.6824358e-39 355 255
0.042290401 0.67000002 -0.017620999 2.6708188e-39 356 255
0.043530006 0.671 -0.0176473 2.2101994e-39 357 255
0.044706494 0.671 -0.0176473 2.2987979e-39 358 255
0.045882981 0.671 -0.0176473 2.5753862e-39 359 255
0.047059465 0.671 -0.0176473 4.9699348e-39 360 255
0.048235953 0.671 -0.0176473 6.8138474e-39 361 255
0.049412437 0.671 -0.0176473 1.0030239e-38 362 255
0.050890498 0.67500001 -0.0177525 1.0675609e-38 363 255
0.052074 0.67500001 -0.0177525 1.223788e-38 364 255
0.053257499 0.67500001 -0.0177525 1.2791054e-38 365 255
0.054441001 0.67500001 -0.0177525 1.3343504e-38 366 255
0.055706903 0.676 -0.017778801 1.408107e-38 367 255
0.056892153 0.676 -0.017778801 1.490903e-38 368 255
0.058077414 0.676 -0.017778801 1.490903e-38 369 255
0.059437994 0.67799997 -0.0178314 1.5000502e-38 370 255
0.0608056 0.68000001 -0.017883999 1.5184893e-38 371 255
0.061997864 0.68000001 -0.017883999 1.5552957e-38 372 255
0.063561834 0.68400002 -0.0179892 1.5829544e-38 373 255
0.064761117 0.68400002 -0.0179892 1.6011409e-38 374 255
0.066153266 0.68599999 -0.018041799 1.6103963e-38 375 255
0.067454241 0.68699998 -0.018068098 1.5921364e-38 376 255
0.068658777 0.68699998 -0.018068098 1.5645137e-38 377 255
0.069863312 0.68699998 -0.018068098 1.4909748e-38 378 255
0.071067855 0.68699998 -0.018068098 1.361901e-38 379 255
0.07227239 0.68699998 -0.018068098 1.2534292e-38 380 255
-0.014475521 0.68800002 -0.019300694 1.4080366e-38 308 256
-0.013269227 0.68800002 -0.019300694 1.463354e-38 309 256
-0.012062933 0.68800002 -0.019300694 1.6747165e-38 310 256
-0.010856641 0.68800002 -0.019300694 1.6562415e-38 311 256
-0.0096363192 0.68699998 -0.019272638 1.6930105e-38 312 256
-0.0084317802 0.68699998 -0.019272638 1.6930105e-38 313 256
-0.0071851597 0.68300003 -0.019160427 1.7023379e-38 314 256
-0.0059876335 0.68300003 -0.019160427 1.720777e-38 315 256
-0.004783093 0.68199998 -0.019132372 1.7482563e-38 316 256
-0.0035767998 0.68000001 -0.019076265 1.7574759e-38 317 256
-0.0023845332 0.68000001 -0.019076265 1.7577278e-38 318 256
-0.0011905134 0.67900002 -0.019048214 1.7945702e-38 319 256
0 0.67799997 -0.019020159 1.812938e-38 320 256
0.0011852533 0.676 -0.018964052 1.8405607e-38 321 256
0.0023705065 0.676 -0.018964052 1.8222295e-38 322 256
0.0035557596 0.676 -0.018964052 1.8037903e-38 323 256
0.0047339997 0.67500001 -0.018935999 1.7852423e-38 324 256
0.0059174998 0.67500001 -0.018935999 1.7575478e-38 325 256
0.0070904801 0.67400002 -0.018907947 1.7391082e-38 326 256
0.0082722269 0.67400002 -0.018907947 1.7207051e-38 327 256
0.0094539737 0.67400002 -0.018907947 1.7297452e-38 328 256
0.010604159 0.67199999 -0.018851839 1.7204897e-38 329 256
0.011764866 0.671 -0.018823786 1.7112702e-38 330 256
0.012941353 0.671 -0.018823786 1.7204897e-38 331 256
0.01411784 0.671 -0.018823786 1.7204897e-38 332 256
0.015294326 0.671 -0.018823786 1.7204897e-38 333 256
0.016446266 0.67000002 -0.018795732 1.7205606e-38 334 256
0.017620999 0.67000002 -0.018795732 1.7297802e-38 335 256
0.018795732 0.67000002 -0.018795732 1.7392165e-38 336 256
0.019970467 0.67000002 -0.018795732 1.6285458e-38 337 256
0.0211452 0.67000002 -0.018795732 1.1411715e-38 338 256
0.022319933 0.67000002 -0.018795732 8.6454874e-39 339 256
0.023494666 0.67000002 -0.018795732 4.7902071e-39 340 256
0.024669399 0.67000002 -0.018795732 5.804359e-39 341 256
0.025882706 0.671 -0.018823786 9.2987952e-39 342 256
0.027059194 0.671 -0.018823786 1.2248695e-38 343 256
0.028193599 0.67000002 -0.018795732 1.4355861e-38 344 256
0.029368332 0.67000002 -0.018795732 1.3341351e-38 345 256
0.030451892 0.66799998 -0.018739626 1.2142798e-38 346 256
0.031623118 0.66799998 -0.018739626 1.1220481e-38 347 256
0.032745253 0.667 -0.018711573 9.199743e-39 348 256
0.03386388 0.66600001 -0.018683519 8.5543736e-39 349 256
0.035031598 0.66600001 -0.018683519 6.3524909e-39 350 256
0.036253672 0.667 -0.018711573 5.7993171e-39 351 256
0.037423145 0.667 -0.018711573 4.9702992e-39 352 256
0.038592618 0.667 -0.018711573 4.4174841e-39 353 256
0.039940935 0.67000002 -0.018795732 4.0494373e-39 354 256
0.041115668 0.67000002 -0.018795732 3.7732091e-39 355 256
0.042290401 0.67000002 -0.018795732 3.0381748e-39 356 256
0.043465134 0.67000002 -0.018795732 2.7619481e-39 357 256
0.044706494 0.671 -0.018823786 2.8523416e-39 358 256
0.045882981 0.671 -0.018823786 2.6679504e-39 359 256
0.047059465 0.671 -0.018823786 2.9452421e-39 360 256
0.048235953 0.671 -0.018823786 3.4062189e-39 361 256
0.049412437 0.671 -0.018823786 4.8784581e-39 362 256
0.050588924 0.671 -0.018823786 5.4316318e-39 363 256
0.052074 0.67500001 -0.018935999 6.1673836e-39 364 256
0.053257499 0.67500001 -0.018935999 6.3517749e-39 365 256
0.054441001 0.67500001 -0.018935999 7.5463524e-39 366 256
0.0556245 0.67500001 -0.018935999 7.8229393e-39 367 256
0.056892153 0.676 -0.018964052 8.1909987e-39 368 256
0.058077414 0.676 -0.018964052 8.5597812e-39 369 256
0.059262663 0.676 -0.018964052 9.0240006e-39 370 256
0.060626756 0.67799997 -0.019020159 1.0222542e-38 371 256
0.061997864 0.68000001 -0.019076265 1.2336562e-38 372 256
0.063375987 0.68199998 -0.019132372 1.279718e-38 373 256
0.064666435 0.68300003 -0.019160427 1.4172183e-38 374 256
0.066153266 0.68599999 -0.019244585 1.3895957e-38 375 256
0.06735605 0.68599999 -0.019244585 1.3988503e-38 376 256
0.068658777 0.68699998 -0.019272638 1.3804111e-38 377 256
0.069863312 0.68699998 -0.019272638 1.3255256e-38 378 256
0.071067855 0.68699998 -0.019272638 1.2793918e-38 379 256
0.07227239 0.68699998 -0.019272638 1.2062509e-38 380 256
-0.014475521 0.68800002 -0.020506985 1.3620096e-38 308 257
-0.013269227 0.68800002 -0.020506985 1.4726083e-38 309 257
-0.012045399 0.68699998 -0.020477179 1.51863e-38 310 257
-0.010840859 0.68699998 -0.020477179 1.4725324e-38 311 257
-0.0096222926 0.68599999 -0.020447372 1.4907918e-38 312 257
-0.0084195063 0.68599999 -0.020447372 1.4907918e-38 313 257
-0.0071851597 0.68300003 -0.020357953 1.4632423e-38 314 257
-0.005978866 0.68199998 -0.020328145 1.5001206e-38 315 257
-0.004783093 0.68199998 -0.020328145 1.5460391e-38 316 257
-0.0035767998 0.68000001 -0.020268533 1.5552587e-38 317 257
-0.0023810267 0.67900002 -0.020238725 1.5740938e-38 318 257
-0.0011887599 0.67799997 -0.020208918 1.6386308e-38 319 257
0 0.67799997 -0.020208918 1.6936963e-38 320 257
0.0011852533 0.676 -0.020149305 1.7305747e-38 321 257
0.0023705065 0.676 -0.020149305 1.7489413e-38 322 257
0.0035505001 0.67500001 -0.020119499 1.7213185e-38 323 257
0.0047339997 0.67500001 -0.020119499 1.7302133e-38 324 257
0.0059174998 0.67500001 -0.020119499 1.6748961e-38 325 257
0.0070904801 0.67400002 -0.020089693 1.6931909e-38 326 257
0.0082722269 0.67400002 -0.020089693 1.6747159e-38 327 257
0.0094259195 0.67199999 -0.020030079 1.6837197e-38 328 257
0.01058838 0.671 -0.020000271 1.6837197e-38 329 257
0.011764866 0.671 -0.020000271 1.7020509e-38 330 257
0.012941353 0.671 -0.020000271 1.7112704e-38 331 257
0.01411784 0.671 -0.020000271 1.7112702e-38 332 257
0.015271533 0.67000002 -0.019970467 1.7204897e-38 333 257
0.016446266 0.67000002 -0.019970467 1.7112702e-38 334 257
0.017620999 0.67000002 -0.019970467 1.7204897e-38 335 257
0.018795732 0.67000002 -0.019970467 1.6473466e-38 336 257
0.019970467 0.67000002 -0.019970467 1.4076738e-38 337 257
0.0211452 0.67000002 -0.019970467 7.7285912e-39 338 257
0.022319933 0.67000002 -0.019970467 6.8988306e-39 339 257
0.023494666 0.67000002 -0.019970467 4.8806048e-39 340 257
0.024669399 0.67000002 -0.019970467 6.9092674e-39 341 257
0.025844134 0.67000002 -0.019970467 1.2519506e-38 342 257
0.027018867 0.67000002 -0.019970467 1.5930744e-38 343 257
0.028109439 0.66799998 -0.019910853 1.7213553e-38 344 257
0.029280664 0.66799998 -0.019910853 1.6568184e-38 345 257
0.030451892 0.66799998 -0.019910853 1.5644054e-38 346 257
0.03157578 0.667 -0.019881045 1.4445511e-38 347 257
0.032745253 0.667 -0.019881045 1.2603753e-38 348 257
0.03386388 0.66600001 -0.019851239 1.1497046e-38 349 257
0.035031598 0.66600001 -0.019851239 8.9235037e-39 350 257
0.036253672 0.667 -0.019881045 7.8171561e-39 351 257
0.037423145 0.667 -0.019881045 6.7093974e-39 352 257
0.038592618 0.667 -0.019881045 6.2484207e-39 353 257
0.039762091 0.667 -0.019881045 4.9638153e-39 354 257
0.040931564 0.667 -0.019881045 4.7794227e-39 355 257
0.042101037 0.667 -0.019881045 3.219657e-39 356 257
0.043335386 0.66799998 -0.019910853 3.3118526e-39 357 257
0.044639867 0.67000002 -0.019970467 3.1281872e-39 358 257
0.0458146 0.67000002 -0.019970467 3.3125771e-39 359 257
0.046989333 0.67000002 -0.019970467 2.3027482e-39 360 257
0.048164066 0.67000002 -0.019970467 2.0258025e-39 361 257
0.049338799 0.67000002 -0.019970467 1.7499541e-39 362 257
0.050588924 0.671 -0.020000271 2.0268998e-39 363 257
0.051996857 0.67400002 -0.020089693 1.9368691e-39 364 257
0.053178601 0.67400002 -0.020089693 1.660641e-39 365 257
0.054441001 0.67500001 -0.020119499 2.7608522e-39 366 257
0.0556245 0.67500001 -0.020119499 2.5761023e-39 367 257
0.056808002 0.67500001 -0.020119499 2.852322e-39 368 257
0.057991501 0.67500001 -0.020119499 3.1289103e-39 369 257
0.059262663 0.676 -0.020149305 3.594203e-39 370 257
0.06044792 0.676 -0.020149305 5.1615302e-39 371 257
0.062180214 0.68199998 -0.020328145 8.1020639e-39 372 257
0.063375987 0.68199998 -0.020328145 8.8396289e-39 373 257
0.064571753 0.68199998 -0.020328145 1.0766362e-38 374 257
0.0659604 0.68400002 -0.020387759 1.0673808e-38 375 257
0.067159683 0.68400002 -0.020387759 1.0398299e-38 376 257
0.068558842 0.68599999 -0.020447372 1.0398299e-38 377 257
0.069863312 0.68699998 -0.020477179 1.030935e-38 378 257
0.071067855 0.68699998 -0.020477179 1.0770328e-38 379 257
0.07227239 0.68699998 -0.020477179 1.0497373e-38 380 257
0.073476933 0.68699998 -0.020477179 1.372422e-38 381 257
-0.012045399 0.68699998 -0.021681719 7.7281821e-39 310 258
-0.010840859 0.68699998 -0.021681719 6.5296473e-39 311 258
-0.0096222926 0.68599999 -0.021650158 4.968448e-39 312 258
-0.0083949603 0.68400002 -0.02158704 5.0606437e-39 313 258
-0.00717464 0.68199998 -0.021523919 4.6025536e-39 314 258
-0.005978866 0.68199998 -0.021523919 4.9716948e-39 315 258
-0.0047690663 0.68000001 -0.0214608 5.9836916e-39 316 258
-0.0035767998 0.68000001 -0.0214608 6.7212566e-39 317 258
-0.0023810267 0.67900002 -0.021429239 8.6537733e-39 318 258
-0.0011852533 0.676 -0.021334561 1.0313293e-38 319 258
0 0.676 -0.021334561 1.2429111e-38 320 258
0.0011852533 0.676 -0.021334561 1.2797533e-38 321 258
0.0023669999 0.67500001 -0.021303 1.4358733e-38 322 258
0.0035505001 0.67500001 -0.021303 1.4911906e-38 323 258
0.0047339997 0.67500001 -0.021303 1.5923165e-38 324 258
0.0059087332 0.67400002 -0.021271439 1.6015362e-38 325 258
0.0070904801 0.67400002 -0.021271439 1.6749683e-38 326 258
0.00824768 0.67199999 -0.021208318 1.6657487e-38 327 258
0.0094259195 0.67199999 -0.021208318 1.6929755e-38 328 258
0.01058838 0.671 -0.021176759 1.683756e-38 329 258
0.011764866 0.671 -0.021176759 1.7020862e-38 330 258
0.012941353 0.671 -0.021176759 1.7020862e-38 331 258
0.01411784 0.671 -0.021176759 1.6927587e-38 332 258
0.015271533 0.67000002 -0.0211452 1.7112339e-38 333 258
0.016446266 0.67000002 -0.0211452 1.7020509e-38 334 258
0.017620999 0.67000002 -0.0211452 1.7112704e-38 335 258
0.018795732 0.67000002 -0.0211452 1.5460041e-38 336 258
0.019970467 0.67000002 -0.0211452 1.2048444e-38 337 258
0.0211452 0.67000002 -0.0211452 5.0596011e-39 338 258
0.022319933 0.67000002 -0.0211452 5.2443511e-39 339 258
0.023494666 0.67000002 -0.0211452 4.6961996e-39 340 258
0.024669399 0.67000002 -0.0211452 8.4758617e-39 341 258
0.025766984 0.66799998 -0.021082079 1.4264369e-38 342 258
0.026938211 0.66799998 -0.021082079 1.6753292e-38 343 258
0.028109439 0.66799998 -0.021082079 1.6934796e-38 344 258
0.029236831 0.667 -0.021050518 1.68426e-38 345 258
0.030406304 0.667 -0.021050518 1.7117737e-38 346 258
0.03157578 0.667 -0.021050518 1.6380172e-38 347 258
0.032745253 0.667 -0.021050518 1.5826638e-38 348 258
0.03386388 0.66600001 -0.02101896 1.5457495e-38 349 258
0.035031598 0.66600001 -0.02101896 1.4811054e-38 350 258
0.03619932 0.66600001 -0.02101896 1.361251e-38 351 258
0.037367038 0.66600001 -0.02101896 1.2046276e-38 352 258
0.03853476 0.66600001 -0.02101896 1.112432e-38 353 258
0.039702479 0.66600001 -0.02101896 9.1943424e-39 354 258
0.040870197 0.66600001 -0.02101896 7.996158e-39 355 258
0.042037919 0.66600001 -0.02101896 4.5046154e-39 356 258
0.04327051 0.667 -0.021050518 3.9514417e-39 357 258
0.044506609 0.66799998 -0.021082079 2.026506e-39 358 258
0.045677837 0.66799998 -0.021082079 1.934309e-39 359 258
0.046849065 0.66799998 -0.021082079 1.7502918e-39 360 258
0.048020288 0.66799998 -0.021082079 1.6580948e-39 361 258
0.04919152 0.66799998 -0.021082079 2.1183667e-39 362 258
0.050513536 0.67000002 -0.0211452 2.4875094e-39 363 258
0.051765412 0.671 -0.021176759 2.5807896e-39 364 258
0.053020798 0.67199999 -0.021208318 2.6729852e-39 365 258
0.054199036 0.67199999 -0.021208318 2.9477644e-39 366 258
0.055377278 0.67199999 -0.021208318 2.9477644e-39 367 258
0.056808002 0.67500001 -0.021303 3.4069405e-39 368 258
0.057991501 0.67500001 -0.021303 3.5913332e-39 369 258
0.059175 0.67500001 -0.021303 2.9517273e-39 370 258
0.06044792 0.676 -0.021334561 3.4127055e-39 371 258
0.062180214 0.68199998 -0.021523919 3.5960149e-39 372 258
0.063375987 0.68199998 -0.021523919 3.5038193e-39 373 258
0.064571753 0.68199998 -0.021523919 3.7785985e-39 374 258
0.0659604 0.68400002 -0.02158704 3.7785985e-39 375 258
0.067159683 0.68400002 -0.02158704 3.5027305e-39 376 258
0.068558842 0.68599999 -0.021650158 3.5027305e-39 377 258
0.069863312 0.68699998 -0.021681719 3.8704438e-39 378 258
0.071067855 0.68699998 -0.021681719 3.1328788e-39 379 258
0.07227239 0.68699998 -0.021681719 1.2997842e-39 380 258
-0.01319208 0.68400002 -0.022786319 6.6197073e-39 309 259
-0.011975267 0.68300003 -0.022753006 4.413496e-39 310 259
-0.010761959 0.68199998 -0.022719691 4.0447135e-39 311 259
-0.0095381327 0.68000001 -0.022653066 3.0356189e-39 312 259
-0.0083458666 0.68000001 -0.022653066 3.2200101e-39 313 259
-0.0071430802 0.67900002 -0.022619752 2.577512e-39 314 259
-0.0059525664 0.67900002 -0.022619752 3.2228814e-39 315 259
-0.0047690663 0.68000001 -0.022653066 3.5920226e-39 316 259
-0.0035767998 0.68000001 -0.022653066 3.9604464e-39 317 259
-0.0023845332 0.68000001 -0.022653066 5.063201e-39 318 259
-0.0011852533 0.676 -0.022519812 5.7085704e-39 319 259
0 0.676 -0.022519812 8.4686772e-39 320 259
0.0011852533 0.676 -0.022519812 9.1140466e-39 321 259
0.0023669999 0.67500001 -0.022486499 1.0769232e-38 322 259
0.0035505001 0.67500001 -0.022486499 1.1598994e-38 323 259
0.0047269869 0.67400002 -0.022453187 1.2610253e-38 324 259
0.0059087332 0.67400002 -0.022453187 1.3255622e-38 325 259
0.0070694401 0.67199999 -0.022386558 1.4176134e-38 326 259
0.0082354061 0.671 -0.022353247 1.4544916e-38 327 259
0.0094118929 0.671 -0.022353247 1.509448e-38 328 259
0.01058838 0.671 -0.022353247 1.5002285e-38 329 259
0.011747333 0.67000002 -0.022319933 1.573625e-38 330 259
0.012922067 0.67000002 -0.022319933 1.5644054e-38 331 259
0.01411784 0.671 -0.022353247 1.646878e-38 332 259
0.015271533 0.67000002 -0.022319933 1.646878e-38 333 259
0.016446266 0.67000002 -0.022319933 1.6469499e-38 334 259
0.017620999 0.67000002 -0.022319933 1.6377303e-38 335 259
0.018739626 0.66799998 -0.022253305 1.3986354e-38 336 259
0.019910853 0.66799998 -0.022253305 1.066731e-38 337 259
0.021082079 0.66799998 -0.022253305 3.8653641e-39 338 259
0.02218668 0.66600001 -0.02218668 4.4185379e-39 339 259
0.023424532 0.66799998 -0.022253305 5.0620898e-39 340 259
0.02459576 0.66799998 -0.022253305 1.0132849e-38 341 259
0.025728412 0.667 -0.022219993 1.5458588e-38 342 259
0.026897885 0.667 -0.022219993 1.6473099e-38 343 259
0.028067358 0.667 -0.022219993 1.6656048e-38 344 259
0.029236831 0.667 -0.022219993 1.6656048e-38 345 259
0.030406304 0.667 -0.022219993 1.6747159e-38 346 259
0.031528439 0.66600001 -0.02218668 1.6562768e-38 347 259
0.032696161 0.66600001 -0.02218668 1.610179e-38 348 259
0.03386388 0.66600001 -0.02218668 1.6009594e-38 349 259
0.035031598 0.66600001 -0.02218668 1.5823761e-38 350 259
0.03619932 0.66600001 -0.02218668 1.5270946e-38 351 259
0.037367038 0.66600001 -0.02218668 1.4350782e-38 352 259
0.03853476 0.66600001 -0.02218668 1.3613217e-38 353 259
0.039702479 0.66600001 -0.02218668 1.2507592e-38 354 259
0.040870197 0.66600001 -0.02218668 1.167783e-38 355 259
0.042037919 0.66600001 -0.02218668 9.6545849e-39 356 259
0.04327051 0.667 -0.022219993 8.8248242e-39 357 259
0.044439986 0.667 -0.022219993 7.6266706e-39 358 259
0.045609459 0.667 -0.022219993 6.8891041e-39 359 259
0.046849065 0.66799998 -0.022253305 5.4190356e-39 360 259
0.048020288 0.66799998 -0.022253305 5.4190356e-39 361 259
0.04919152 0.66799998 -0.022253305 3.9529088e-39 362 259
0.050513536 0.67000002 -0.022319933 4.4135282e-39 363 259
0.051765412 0.671 -0.022353247 4.0494233e-39 364 259
0.052941896 0.671 -0.022353247 4.1416203e-39 365 259
0.054118387 0.671 -0.022353247 3.3165414e-39 366 259
0.055294871 0.671 -0.022353247 3.2243457e-39 367 259
0.056555521 0.67199999 -0.022386558 2.857731e-39 368 259
0.057905588 0.67400002 -0.022453187 2.9499266e-39 369 259
0.059087332 0.67400002 -0.022453187 2.5847553e-39 370 259
0.06026908 0.67400002 -0.022453187 2.7691479e-39 371 259
0.061450824 0.67400002 -0.022453187 2.5858511e-39 372 259
0.063190132 0.68000001 -0.022653066 2.4936555e-39 373 259
0.064382397 0.68000001 -0.022653066 2.5858539e-39 374 259
0.065767527 0.68199998 -0.022719691 2.5858539e-39 375 259
0.0669633 0.68199998 -0.022719691 2.6762489e-39 376 259
0.067959204 0.68000001 -0.022653066 2.5840532e-39 377 259
0.069354847 0.68199998 -0.022719691 2.676602e-39 378 259
0.070550621 0.68199998 -0.022719691 1.9390369e-39 379 259
-0.01319208 0.68400002 -0.0239856 2.2998489e-39 309 260
-0.011975267 0.68300003 -0.023950534 3.7695938e-39 310 260
-0.0107304 0.68000001 -0.023845334 4.4149632e-39 311 260
-0.009524107 0.67900002 -0.023810266 3.7742825e-39 312 260
-0.0083335936 0.67900002 -0.023810266 3.6817267e-39 313 260
