# .PCD v.7 - Point Cloud Data file format
FIELDS x y z rgb imX imY
SIZE 4 4 4 4 4 4
TYPE F F F F F F
COUNT 1 1 1 1 1 1
WIDTH 858
HEIGHT 1
VIEWPOINT 0 0 0 1 0 0 0
POINTS 858
DATA ascii
-0.0052529867 0.74900001 0.055156358 2.1109205e-38 316 198
0.001315 0.75 0.055229999 1.4279505e-38 321 198
0.00263 0.75 0.055229999 1.5372526e-38 322 198
0.0039555198 0.75199997 0.055377278 1.398959e-38 323 198
0.0052740262 0.75199997 0.055377278 1.6372268e-38 324 198
0.0065925326 0.75199997 0.055377278 1.6556659e-38 325 198
0.0079110395 0.75199997 0.055377278 1.7200567e-38 326 198
0.0092295464 0.75199997 0.055377278 1.7568991e-38 327 198
-0.0133078 0.759 0.054561976 1.98246e-38 310 199
-0.01194546 0.75700003 0.054418206 2.0008992e-38 311 199
-0.010590133 0.755 0.054274432 2.0281613e-38 312 199
-0.0092295464 0.75199997 0.054058768 1.926746e-38 313 199
-0.0078794798 0.74900001 0.053843111 1.9625795e-38 314 199
-0.0065662335 0.74900001 0.053843111 1.7782241e-38 315 199
-0.00526 0.75 0.053914998 1.7579106e-38 316 199
-0.0039397399 0.74900001 0.053843111 1.241615e-38 317 199
-0.0026194798 0.74699998 0.053699337 1.047678e-38 318 199
-0.0013097399 0.74699998 0.053699337 1.1214704e-38 319 199
0 0.74900001 0.053843111 1.4449467e-38 320 199
0.0013132467 0.74900001 0.053843111 1.7030586e-38 321 199
0.0026264933 0.74900001 0.053843111 1.8313764e-38 322 199
0.003945 0.75 0.053914998 1.7852788e-38 323 199
0.00526 0.75 0.053914998 1.9045199e-38 324 199
0.006575 0.75 0.053914998 1.9137396e-38 325 199
0.0079110395 0.75199997 0.054058768 1.9137029e-38 326 199
0.0092295464 0.75199997 0.054058768 1.9321061e-38 327 199
0.010548052 0.75199997 0.054058768 1.8770407e-38 328 199
0.011866559 0.75199997 0.054058768 1.8770407e-38 329 199
0.013220133 0.75400001 0.054202545 1.849419e-38 330 199
0.014542146 0.75400001 0.054202545 1.8217963e-38 331 199
0.015822079 0.75199997 0.054058768 1.8126133e-38 332 199
0.017140586 0.75199997 0.054058768 1.8033938e-38 333 199
0.018459093 0.75199997 0.054058768 1.7572256e-38 334 199
0.019830201 0.75400001 0.054202545 1.7111279e-38 335 199
0.021152213 0.75400001 0.054202545 1.6288762e-38 336 199
0.022474226 0.75400001 0.054202545 1.8317066e-38 337 199
0.02379624 0.75400001 0.054202545 1.6861038e-38 338 199
-0.0133078 0.759 0.053231198 2.1474023e-38 310 200
-0.011913899 0.755 0.052950665 2.0736458e-38 311 200
-0.010590133 0.755 0.052950665 2.1006186e-38 312 200
-0.0092295464 0.75199997 0.052740261 1.8701654e-38 313 200
-0.0078794798 0.74900001 0.052529868 1.7314356e-38 314 200
-0.0065662335 0.74900001 0.052529868 1.3257748e-38 315 200
-0.00526 0.75 0.0526 1.0208091e-38 316 200
-0.0039397399 0.74900001 0.052529868 7.8110394e-39 317 200
-0.0026194798 0.74699998 0.052389596 1.102026e-38 318 200
-0.0013079866 0.74599999 0.052319467 1.3877574e-38 319 200
0 0.74400002 0.052179199 1.720632e-38 320 200
0.00130448 0.74400002 0.052179199 1.8497058e-38 321 200
0.0026159731 0.74599999 0.052319467 1.9324305e-38 322 200
0.0039239596 0.74599999 0.052319467 1.9324305e-38 323 200
0.0052389596 0.74699998 0.052389596 1.959872e-38 324 200
0.0065486995 0.74699998 0.052389596 1.959872e-38 325 200
0.00789 0.75 0.0526 1.9414686e-38 326 200
0.0092049995 0.75 0.0526 1.9414686e-38 327 200
0.01052 0.75 0.0526 1.9323212e-38 328 200
0.011835 0.75 0.0526 1.9230658e-38 329 200
0.01315 0.75 0.0526 1.9137749e-38 330 200
0.014465 0.75 0.0526 1.9045193e-38 331 200
0.015822079 0.75199997 0.052740261 1.8768613e-38 332 200
0.017140586 0.75199997 0.052740261 1.8768613e-38 333 200
0.018459093 0.75199997 0.052740261 1.821796e-38 334 200
0.0197776 0.75199997 0.052740261 1.7848818e-38 335 200
0.021152213 0.75400001 0.052880533 1.6744293e-38 336 200
0.022474226 0.75400001 0.052880533 1.6191121e-38 337 200
0.02379624 0.75400001 0.052880533 1.4997304e-38 338 200
0.025118252 0.75400001 0.052880533 1.7394389e-38 339 200
-0.014600007 0.75700003 0.051763661 1.8429042e-38 309 201
-0.013272733 0.75700003 0.051763661 1.8785918e-38 310 201
-0.011913899 0.755 0.051626898 1.6573223e-38 311 201
-0.010590133 0.755 0.051626898 1.7942821e-38 312 201
-0.0092295464 0.75199997 0.051421758 1.4900005e-38 313 201
-0.0078794798 0.74900001 0.051216617 1.1392278e-38 314 201
-0.0065662335 0.74900001 0.051216617 8.0815237e-39 315 201
-0.0052529867 0.74900001 0.051216617 5.2410805e-39 316 201
-0.0038976599 0.741 0.050669577 1.1141588e-38 317 201
-0.0025984398 0.741 0.050669577 1.7301768e-38 318 201
-0.0012992199 0.741 0.050669577 1.8500311e-38 319 201
0 0.74199998 0.050737958 1.941363e-38 320 201
0.0013009732 0.74199998 0.050737958 1.9229238e-38 321 201
0.0026159731 0.74599999 0.051011477 1.9598367e-38 322 201
0.0039239596 0.74599999 0.051011477 1.9690563e-38 323 201
0.0052319462 0.74599999 0.051011477 1.9507253e-38 324 201
0.0065399334 0.74599999 0.051011477 1.9507253e-38 325 201
0.0078584393 0.74699998 0.051079858 1.9507606e-38 326 201
0.0091681797 0.74699998 0.051079858 1.9507606e-38 327 201
0.010505973 0.74900001 0.051216617 1.9415408e-38 328 201
0.01181922 0.74900001 0.051216617 1.9323212e-38 329 201
0.013132467 0.74900001 0.051216617 1.9322137e-38 330 201
0.014445714 0.74900001 0.051216617 1.9045549e-38 331 201
0.01578 0.75 0.051284999 1.922707e-38 332 201
0.017140586 0.75199997 0.051421758 1.9319266e-38 333 201
0.018459093 0.75199997 0.051421758 1.8403071e-38 334 201
0.0197776 0.75199997 0.051421758 1.8218679e-38 335 201
0.021096105 0.75199997 0.051421758 1.8034661e-38 336 201
0.022474226 0.75400001 0.051558517 1.7942465e-38 337 201
0.02379624 0.75400001 0.051558517 1.7113813e-38 338 201
0.025118252 0.75400001 0.051558517 1.5730877e-38 339 201
0.026440267 0.75400001 0.051558517 1.4096949e-38 340 201
-0.015885198 0.755 0.050303131 1.94266e-38 308 202
-0.014561433 0.755 0.050303131 1.8596839e-38 309 202
-0.013237666 0.755 0.050303131 1.8498137e-38 310 202
-0.011913899 0.755 0.050303131 1.7023007e-38 311 202
-0.010590133 0.755 0.050303131 1.5734436e-38 312 202
-0.0092295464 0.75199997 0.050103247 1.0294903e-38 313 202
-0.0079110395 0.75199997 0.050103247 4.4102562e-39 314 202
-0.0065925326 0.75199997 0.050103247 6.8995158e-39 315 202
-0.0051968796 0.741 0.049370356 1.3704728e-38 316 202
-0.0038976599 0.741 0.049370356 1.7853532e-38 317 202
-0.0025984398 0.741 0.049370356 1.9141727e-38 318 202
-0.0012992199 0.741 0.049370356 1.88655e-38 319 202
0 0.74199998 0.049436983 1.932214e-38 320 202
0.0013009732 0.74199998 0.049436983 1.9229945e-38 321 202
0.00260896 0.74400002 0.04957024 1.9505452e-38 322 202
0.0039134403 0.74400002 0.04957024 1.9689844e-38 323 202
0.0052319462 0.74599999 0.04970349 1.9414702e-38 324 202
0.0065399334 0.74599999 0.04970349 1.9414702e-38 325 202
0.0078479191 0.74599999 0.04970349 1.9507606e-38 326 202
0.0091681797 0.74699998 0.049770117 1.9415052e-38 327 202
0.010477919 0.74699998 0.049770117 1.9414686e-38 328 202
0.011787659 0.74699998 0.049770117 1.9414686e-38 329 202
0.013097399 0.74699998 0.049770117 1.941361e-38 330 202
0.014407139 0.74699998 0.049770117 1.9321414e-38 331 202
0.01575896 0.74900001 0.04990337 1.9321058e-38 332 202
0.017095 0.75 0.049969997 1.9137026e-38 333 202
0.018409999 0.75 0.049969997 1.8586373e-38 334 202
0.019724999 0.75 0.049969997 1.8586373e-38 335 202
0.021096105 0.75199997 0.050103247 1.8218332e-38 336 202
0.022414612 0.75199997 0.050103247 1.8218332e-38 337 202
0.023733119 0.75199997 0.050103247 1.7299264e-38 338 202
0.025051624 0.75199997 0.050103247 1.6561699e-38 339 202
0.026440267 0.75400001 0.050236505 1.4728972e-38 340 202
0.027762281 0.75400001 0.050236505 1.6849473e-38 341 202
-0.019830201 0.75400001 0.048914492 1.547949e-38 305 203
-0.018508185 0.75400001 0.048914492 1.7849919e-38 306 203
-0.017186172 0.75400001 0.048914492 1.6927603e-38 307 203
-0.01586416 0.75400001 0.048914492 1.8304394e-38 308 203
-0.014542146 0.75400001 0.048914492 1.9225991e-38 309 203
-0.013220133 0.75400001 0.048914492 1.8954093e-38 310 203
-0.01189812 0.75400001 0.048914492 1.7110539e-38 311 203
-0.010576107 0.75400001 0.048914492 1.2050952e-38 312 203
-0.0092540924 0.75400001 0.048914492 6.5203202e-39 313 203
-0.00793208 0.75400001 0.048914492 4.1358259e-39 314 203
-0.0064960998 0.741 0.048071139 1.1511801e-38 315 203
-0.0051828534 0.73900002 0.047941394 1.8404162e-38 316 203
-0.00388714 0.73900002 0.047941394 2.0063684e-38 317 203
-0.0025984398 0.741 0.048071139 1.9970031e-38 318 203
-0.0012992199 0.741 0.048071139 1.9232105e-38 319 203
0 0.741 0.048071139 1.9599073e-38 320 203
0.0012992199 0.741 0.048071139 1.9415042e-38 321 203
0.0026019465 0.74199998 0.048136011 1.9598001e-38 322 203
0.0039029196 0.74199998 0.048136011 1.9598001e-38 323 203
0.0052038929 0.74199998 0.048136011 1.9597651e-38 324 203
0.0065048663 0.74199998 0.048136011 1.9597651e-38 325 203
0.0078268806 0.74400002 0.048265759 1.959837e-38 326 203
0.0091313599 0.74400002 0.048265759 1.9414339e-38 327 203
0.01043584 0.74400002 0.048265759 1.9597651e-38 328 203
0.011771879 0.74599999 0.048395503 1.9505455e-38 329 203
0.013079867 0.74599999 0.048395503 1.9505455e-38 330 203
0.014387853 0.74599999 0.048395503 1.9412901e-38 331 203
0.015716879 0.74699998 0.048460379 1.9229945e-38 332 203
0.017026618 0.74699998 0.048460379 1.9137749e-38 333 203
0.018385453 0.74900001 0.048590127 1.8770407e-38 334 203
0.0196987 0.74900001 0.048590127 1.8493821e-38 335 203
0.02104 0.75 0.048655 1.8401997e-38 336 203
0.022355 0.75 0.048655 1.8217607e-38 337 203
0.023733119 0.75199997 0.048784744 1.7850272e-38 338 203
0.025051624 0.75199997 0.048784744 1.7665522e-38 339 203
0.02637013 0.75199997 0.048784744 1.6195455e-38 340 203
0.027688639 0.75199997 0.048784744 1.5642281e-38 341 203
0.029007144 0.75199997 0.048784744 1.5018549e-38 342 203
-0.030728921 0.76200002 0.048097439 1.972953e-38 297 204
-0.029392879 0.76200002 0.048097439 2.0275498e-38 298 204
-0.021152213 0.75400001 0.04759248 1.6662153e-38 304 204
-0.019830201 0.75400001 0.04759248 1.6662153e-38 305 204
-0.018508185 0.75400001 0.04759248 1.8123966e-38 306 204
-0.017186172 0.75400001 0.04759248 1.8216161e-38 307 204
-0.01586416 0.75400001 0.04759248 1.8859736e-38 308 204
-0.014542146 0.75400001 0.04759248 1.9320355e-38 309 204
-0.013220133 0.75400001 0.04759248 1.8405257e-38 310 204
-0.01189812 0.75400001 0.04759248 1.3519248e-38 311 204
-0.010576107 0.75400001 0.04759248 4.0457841e-39 312 204
-0.0092540924 0.75400001 0.04759248 3.6770072e-39 313 204
-0.00793208 0.75400001 0.04759248 9.9293739e-39 314 204
-0.0064785667 0.73900002 0.046645679 1.7213187e-38 315 204
-0.0051828534 0.73900002 0.046645679 1.9783857e-38 316 204
-0.00388714 0.73900002 0.046645679 1.9876052e-38 317 204
-0.0025914267 0.73900002 0.046645679 1.9692718e-38 318 204
-0.0012957134 0.73900002 0.046645679 1.9508327e-38 319 204
0 0.73900002 0.046645679 1.9600152e-38 320 204
0.0012992199 0.741 0.046771921 1.9507957e-38 321 204
0.0025984398 0.741 0.046771921 1.959872e-38 322 204
0.0038976599 0.741 0.046771921 1.959872e-38 323 204
0.0051968796 0.741 0.046771921 1.9597648e-38 324 204
0.0064960998 0.741 0.046771921 1.9597648e-38 325 204
0.0078058392 0.74199998 0.046835039 1.9505455e-38 326 204
0.009106813 0.74199998 0.046835039 1.9505455e-38 327 204
0.010407786 0.74199998 0.046835039 1.9412904e-38 328 204
0.01170876 0.74199998 0.046835039 1.9412904e-38 329 204
0.013009733 0.74199998 0.046835039 1.950438e-38 330 204
0.014310705 0.74199998 0.046835039 1.9412185e-38 331 204
0.015653761 0.74400002 0.046961278 1.9321061e-38 332 204
0.017003827 0.74599999 0.047087517 1.9137029e-38 333 204
0.018311813 0.74599999 0.047087517 1.8769688e-38 334 204
0.019646099 0.74699998 0.047150634 1.8769688e-38 335 204
0.021011947 0.74900001 0.047276881 1.8493468e-38 336 204
0.022355 0.75 0.047339998 1.8401273e-38 337 204
0.023669999 0.75 0.047339998 1.8033938e-38 338 204
0.025051624 0.75199997 0.047466237 1.7941383e-38 339 204
0.02637013 0.75199997 0.047466237 1.6930121e-38 340 204
0.027688639 0.75199997 0.047466237 1.628511e-38 341 204
0.029084291 0.75400001 0.04759248 1.4545677e-38 342 204
0.030406307 0.75400001 0.04759248 1.7588492e-38 343 204
-0.034737039 0.76200002 0.046761397 2.1110666e-38 294 205
-0.033401001 0.76200002 0.046761397 2.0742244e-38 295 205
-0.032064959 0.76200002 0.046761397 2.1288912e-38 296 205
-0.030688593 0.76099998 0.046700031 1.9905977e-38 297 205
-0.029354304 0.76099998 0.046700031 1.9713632e-38 298 205
-0.028056841 0.76200002 0.046761397 1.6026167e-38 299 205
-0.0267208 0.76200002 0.046761397 1.0856738e-38 300 205
-0.02538476 0.76200002 0.046761397 3.8570908e-39 301 205
-0.022474226 0.75400001 0.046270464 1.2063175e-38 303 205
-0.021152213 0.75400001 0.046270464 1.7576531e-38 304 205
-0.019830201 0.75400001 0.046270464 1.8037508e-38 305 205
-0.018508185 0.75400001 0.046270464 1.8862251e-38 306 205
-0.017140586 0.75199997 0.04614773 1.8954446e-38 307 205
-0.015822079 0.75199997 0.04614773 1.9411834e-38 308 205
-0.014503572 0.75199997 0.04614773 1.9319637e-38 309 205
-0.013220133 0.75400001 0.046270464 1.6563146e-38 310 205
-0.01189812 0.75400001 0.046270464 1.0662626e-38 311 205
-0.010323626 0.736 0.045165867 2.7550649e-40 312 205
-0.0090331733 0.736 0.045165867 5.3426228e-39 313 205
-0.0077637597 0.73799998 0.0452886 1.3799423e-38 314 205
-0.0064697997 0.73799998 0.0452886 1.9515552e-38 315 205
-0.0051758396 0.73799998 0.0452886 2.0430295e-38 316 205
-0.0038818798 0.73799998 0.0452886 1.969273e-38 317 205
-0.0025879198 0.73799998 0.0452886 2.0059702e-38 318 205
-0.0012957134 0.73900002 0.045349967 1.9967507e-38 319 205
0 0.73900002 0.045349967 1.9967857e-38 320 205
0.0012957134 0.73900002 0.045349967 1.9967857e-38 321 205
0.0025914267 0.73900002 0.045349967 1.9966781e-38 322 205
0.0038976599 0.741 0.045472696 1.9782748e-38 323 205
0.0051968796 0.741 0.045472696 1.9872793e-38 324 205
0.0064960998 0.741 0.045472696 1.9780597e-38 325 205
0.0077953199 0.741 0.045472696 1.9688046e-38 326 205
0.0090945391 0.741 0.045472696 1.9780241e-38 327 205
0.010393759 0.741 0.045472696 1.9505102e-38 328 205
0.01169298 0.741 0.045472696 1.9412906e-38 329 205
0.0129922 0.741 0.045472696 1.9229238e-38 330 205
0.014310705 0.74199998 0.045534063 1.9137043e-38 331 205
0.015611678 0.74199998 0.045534063 1.9045199e-38 332 205
0.016958239 0.74400002 0.0456568 1.9045199e-38 333 205
0.018311813 0.74599999 0.045779534 1.8952998e-38 334 205
0.019619798 0.74599999 0.045779534 1.8768966e-38 335 205
0.020955838 0.74699998 0.045840897 1.8494177e-38 336 205
0.022325192 0.74900001 0.045963634 1.8401982e-38 337 205
0.023669999 0.75 0.046024997 1.8033922e-38 338 205
0.024984999 0.75 0.046024997 1.7941367e-38 339 205
0.0263 0.75 0.046024997 1.7573681e-38 340 205
0.027688639 0.75199997 0.04614773 1.72049e-38 341 205
0.029007144 0.75199997 0.04614773 1.4906531e-38 342 205
0.030406307 0.75400001 0.046270464 1.5736292e-38 343 205
0.03172832 0.75400001 0.046270464 1.5946992e-38 344 205
-0.036073081 0.76200002 0.045425359 1.9084158e-38 293 206
-0.034737039 0.76200002 0.045425359 1.980731e-38 294 206
-0.033357166 0.76099998 0.045365743 1.7594975e-38 295 206
-0.032022879 0.76099998 0.045365743 1.8501069e-38 296 206
-0.030607941 0.759 0.045246519 1.7763504e-38 297 206
-0.029277159 0.759 0.045246519 1.8579203e-38 298 206
-0.028020019 0.76099998 0.045365743 1.3508443e-38 299 206
-0.026685731 0.76099998 0.045365743 2.6635881e-39 300 206
-0.025351444 0.76099998 0.045365743 3.3089477e-39 301 206
-0.02379624 0.75400001 0.044948451 1.1956955e-38 302 206
-0.022474226 0.75400001 0.044948451 1.7488692e-38 303 206
-0.021152213 0.75400001 0.044948451 1.9138838e-38 304 206
-0.019646099 0.74699998 0.044531155 1.8862251e-38 305 206
-0.018336359 0.74699998 0.044531155 1.8954081e-38 306 206
-0.017072206 0.74900001 0.044650383 1.8954081e-38 307 206
-0.01575896 0.74900001 0.044650383 1.9597666e-38 308 206
-0.014503572 0.75199997 0.044829223 1.849132e-38 309 206
-0.013185065 0.75199997 0.044829223 1.3615424e-38 310 206
-0.01169298 0.741 0.044173479 8.6368582e-39 311 206
-0.010323626 0.736 0.043875411 1.3775324e-39 312 206
-0.0090331733 0.736 0.043875411 9.4874772e-39 313 206
-0.0077427197 0.736 0.043875411 1.6561701e-38 314 206
-0.0064522666 0.736 0.043875411 2.1263678e-38 315 206
-0.0051758396 0.73799998 0.043994635 2.0894886e-38 316 206
-0.0038818798 0.73799998 0.043994635 2.0065486e-38 317 206
-0.0025879198 0.73799998 0.043994635 2.0429577e-38 318 206
-0.0012939599 0.73799998 0.043994635 2.015299e-38 319 206
0 0.73799998 0.043994635 2.0153696e-38 320 206
0.0012957134 0.73900002 0.044054255 1.9784913e-38 321 206
0.0025914267 0.73900002 0.044054255 1.9875314e-38 322 206
0.00388714 0.73900002 0.044054255 1.9783118e-38 323 206
0.0051828534 0.73900002 0.044054255 1.9873515e-38 324 206
0.0064785667 0.73900002 0.044054255 1.978096e-38 325 206
0.0077742799 0.73900002 0.044054255 1.950545e-38 326 206
0.0090699932 0.73900002 0.044054255 1.950545e-38 327 206
0.010365707 0.73900002 0.044054255 1.9321784e-38 328 206
0.01166142 0.73900002 0.044054255 1.9137393e-38 329 206
0.012957133 0.73900002 0.044054255 1.913632e-38 330 206
0.01429142 0.741 0.044173479 1.9044124e-38 331 206
0.01559064 0.741 0.044173479 1.904448e-38 332 206
0.016912652 0.74199998 0.044233091 1.9136676e-38 333 206
0.01826272 0.74400002 0.044352323 1.8953e-38 334 206
0.019619798 0.74599999 0.044471547 1.8768969e-38 335 206
0.020955838 0.74699998 0.044531155 1.8402345e-38 336 206
0.022265578 0.74699998 0.044531155 1.8218314e-38 337 206
0.02363844 0.74900001 0.044650383 1.7850976e-38 338 206
0.024984999 0.75 0.044709999 1.7758421e-38 339 206
0.0263 0.75 0.044709999 1.7114502e-38 340 206
0.027615 0.75 0.044709999 1.7206698e-38 341 206
0.029007144 0.75199997 0.044829223 1.5825594e-38 342 206
0.030325651 0.75199997 0.044829223 1.5549367e-38 343 206
0.031644158 0.75199997 0.044829223 1.5201499e-38 344 206
0.032831166 0.74900001 0.044650383 1.8889324e-38 345 206
-0.037409119 0.76200002 0.044089317 2.0731399e-38 292 207
-0.036073081 0.76200002 0.044089317 1.8979682e-38 293 207
-0.034691449 0.76099998 0.044031456 1.8967413e-38 294 207
-0.033357166 0.76099998 0.044031456 1.6754718e-38 295 207
-0.032022879 0.76099998 0.044031456 1.7661906e-38 296 207
-0.030607941 0.759 0.043915741 1.8031048e-38 297 207
-0.029277159 0.759 0.043915741 1.7300358e-38 298 207
-0.027946379 0.759 0.043915741 9.832512e-39 299 207
-0.026685731 0.76099998 0.044031456 0 300 207
-0.025351444 0.76099998 0.044031456 5.3455038e-39 301 207
-0.02379624 0.75400001 0.043626439 1.4628092e-38 302 207
-0.022474226 0.75400001 0.043626439 1.8408112e-38 303 207
-0.021096105 0.75199997 0.04351072 1.9322506e-38 304 207
-0.019619798 0.74599999 0.04316356 1.8861528e-38 305 207
-0.018311813 0.74599999 0.04316356 1.9229589e-38 306 207
-0.017003827 0.74599999 0.04316356 1.9229589e-38 307 207
-0.015695838 0.74599999 0.04316356 1.9691314e-38 308 207
-0.014310705 0.74199998 0.042932119 1.8123629e-38 309 207
-0.0129922 0.741 0.042874258 1.0210315e-38 310 207
-0.01169298 0.741 0.042874258 6.6146851e-39 311 207
-0.010323626 0.736 0.042584959 2.3877229e-39 312 207
-0.0090331733 0.736 0.042584959 1.1328516e-38 313 207
-0.0077427197 0.736 0.042584959 1.7944986e-38 314 207
-0.0064522666 0.736 0.042584959 2.0894886e-38 315 207
-0.005161813 0.736 0.042584959 2.0618657e-38 316 207
-0.0038713599 0.736 0.042584959 2.0342068e-38 317 207
-0.0025809065 0.736 0.042584959 2.0432082e-38 318 207
-0.0012939599 0.73799998 0.042700678 2.0062939e-38 319 207
0 0.73799998 0.042700678 2.0429187e-38 320 207
0.0012939599 0.73799998 0.042700678 1.996821e-38 321 207
0.0025879198 0.73799998 0.042700678 2.0151172e-38 322 207
0.0038818798 0.73799998 0.042700678 1.9966781e-38 323 207
0.0051758396 0.73799998 0.042700678 1.9965342e-38 324 207
0.0064785667 0.73900002 0.042758539 1.9780951e-38 325 207
0.0077742799 0.73900002 0.042758539 1.9780597e-38 326 207
0.0090699932 0.73900002 0.042758539 1.9780597e-38 327 207
0.010365707 0.73900002 0.042758539 1.9413257e-38 328 207
0.01166142 0.73900002 0.042758539 1.9321061e-38 329 207
0.012957133 0.73900002 0.042758539 1.9136673e-38 330 207
0.014252847 0.73900002 0.042758539 1.9136673e-38 331 207
0.01559064 0.741 0.042874258 1.8769335e-38 332 207
0.016889861 0.741 0.042874258 1.8769335e-38 333 207
0.018189078 0.741 0.042874258 1.8769332e-38 334 207
0.0195146 0.74199998 0.042932119 1.8677137e-38 335 207
0.02087168 0.74400002 0.043047838 1.8401626e-38 336 207
0.022235774 0.74599999 0.04316356 1.830943e-38 337 207
0.023575317 0.74699998 0.043221418 1.8216879e-38 338 207
0.024951685 0.74900001 0.04333714 1.8124682e-38 339 207
0.026264934 0.74900001 0.04333714 1.757296e-38 340 207
0.027578179 0.74900001 0.04333714 1.7388568e-38 341 207
0.028891427 0.74900001 0.04333714 1.6560992e-38 342 207
0.030204674 0.74900001 0.04333714 1.573123e-38 343 207
0.031517919 0.74900001 0.04333714 1.4270892e-38 344 207
0.032831166 0.74900001 0.04333714 1.786652e-38 345 207
-0.038745161 0.76200002 0.042753279 1.6677317e-38 291 208
-0.037409119 0.76200002 0.042753279 1.8218698e-38 292 208
-0.036073081 0.76200002 0.042753279 1.7389297e-38 293 208
-0.034691449 0.76099998 0.042697169 1.8674253e-38 294 208
-0.033357166 0.76099998 0.042697169 1.9042676e-38 295 208
-0.031938717 0.759 0.042584959 1.8769698e-38 296 208
-0.030607941 0.759 0.042584959 1.8862254e-38 297 208
-0.029200014 0.75700003 0.042472746 1.6750427e-38 298 208
-0.027872739 0.75700003 0.042472746 8.2684289e-39 299 208
-0.026545467 0.75700003 0.042472746 0 300 208
-0.024951685 0.74900001 0.042023893 7.7429503e-39 301 208
-0.02363844 0.74900001 0.042023893 1.6009228e-38 302 208
-0.022325192 0.74900001 0.042023893 1.8498509e-38 303 208
-0.021011947 0.74900001 0.042023893 1.9229589e-38 304 208
-0.019619798 0.74599999 0.04185557 1.9137393e-38 305 208
-0.018311813 0.74599999 0.04185557 1.9321058e-38 306 208
-0.016912652 0.74199998 0.041631144 1.9598004e-38 307 208
-0.015611678 0.74199998 0.041631144 1.950908e-38 308 208
-0.01429142 0.741 0.041575037 1.6651376e-38 309 208
-0.0129922 0.741 0.041575037 5.9757995e-39 310 208
-0.011645639 0.73799998 0.041406717 4.2244412e-39 311 208
-0.010323626 0.736 0.041294504 2.7586522e-39 312 208
-0.0090331733 0.736 0.041294504 1.1332837e-38 313 208
-0.0077427197 0.736 0.041294504 1.8958781e-38 314 208
-0.0064522666 0.736 0.041294504 2.024952e-38 315 208
-0.005161813 0.736 0.041294504 2.043175e-38 316 208
-0.0038713599 0.736 0.041294504 2.043175e-38 317 208
-0.0025809065 0.736 0.041294504 2.04321e-38 318 208
-0.0012904532 0.736 0.041294504 2.0155153e-38 319 208
0 0.736 0.041294504 2.0430283e-38 320 208
0.0012904532 0.736 0.041294504 1.9877109e-38 321 208
0.0025809065 0.736 0.041294504 2.0244089e-38 322 208
0.0038713599 0.736 0.041294504 1.9875308e-38 323 208
0.0051758396 0.73799998 0.041406717 1.9965708e-38 324 208
0.0064697997 0.73799998 0.041406717 1.9781316e-38 325 208
0.0077742799 0.73900002 0.041462827 1.9504731e-38 326 208
0.0090699932 0.73900002 0.041462827 1.9504731e-38 327 208
0.010365707 0.73900002 0.041462827 1.9321061e-38 328 208
0.01166142 0.73900002 0.041462827 1.9321061e-38 329 208
0.012957133 0.73900002 0.041462827 1.9045193e-38 330 208
0.014252847 0.73900002 0.041462827 1.8952998e-38 331 208
0.01554856 0.73900002 0.041462827 1.8953e-38 332 208
0.016889861 0.741 0.041575037 1.8953e-38 333 208
0.018189078 0.741 0.041575037 1.8769332e-38 334 208
0.019488299 0.741 0.041575037 1.8769332e-38 335 208
0.020815572 0.74199998 0.041631144 1.8493468e-38 336 208
0.022235774 0.74599999 0.04185557 1.8401273e-38 337 208
0.023543758 0.74599999 0.04185557 1.8033216e-38 338 208
0.024885058 0.74699998 0.041911677 1.7941019e-38 339 208
0.026194798 0.74699998 0.041911677 1.7480408e-38 340 208
0.027504537 0.74699998 0.041911677 1.7572962e-38 341 208
0.028891427 0.74900001 0.042023893 1.6654263e-38 342 208
0.030204674 0.74900001 0.042023893 1.628548e-38 343 208
0.031517919 0.74900001 0.042023893 1.4264055e-38 344 208
0.032831166 0.74900001 0.042023893 1.6568945e-38 345 208
-0.040028598 0.76099998 0.041362885 1.8967769e-38 290 209
-0.038745161 0.76200002 0.041417241 1.7031662e-38 291 209
-0.037409119 0.76200002 0.041417241 1.8216867e-38 292 209
-0.036073081 0.76200002 0.041417241 1.8124313e-38 293 209
-0.034691449 0.76099998 0.041362885 1.8676768e-38 294 209
-0.033269498 0.759 0.041254178 1.9045549e-38 295 209
-0.031938717 0.759 0.041254178 1.9322153e-38 296 209
-0.030527288 0.75700003 0.041145474 1.8861533e-38 297 209
-0.029200014 0.75700003 0.041145474 1.5460405e-38 298 209
-0.027799098 0.755 0.041036766 7.3475572e-39 299 209
-0.026440267 0.75400001 0.040982414 0 300 209
-0.024951685 0.74900001 0.040710647 8.9414907e-39 301 209
-0.023575317 0.74699998 0.040601939 1.720525e-38 302 209
-0.022265578 0.74699998 0.040601939 1.8680739e-38 303 209
-0.020927785 0.74599999 0.040547583 1.9412901e-38 304 209
-0.019567199 0.74400002 0.040438879 1.9412901e-38 305 209
-0.018213626 0.74199998 0.040330172 1.9229945e-38 306 209
-0.016912652 0.74199998 0.040330172 1.9414336e-38 307 209
-0.015611678 0.74199998 0.040330172 1.886551e-38 308 209
-0.01429142 0.741 0.04027582 1.5178044e-38 309 209
-0.012957133 0.73900002 0.040167112 4.5917888e-39 310 209
-0.011645639 0.73799998 0.040112756 4.408115e-39 311 209
-0.010323626 0.736 0.040004052 2.024327e-39 312 209
-0.0090331733 0.736 0.040004052 1.1059493e-38 313 209
-0.0077427197 0.736 0.040004052 1.9604153e-38 314 209
-0.006434733 0.73400003 0.039895348 1.9788546e-38 315 209
-0.0051477868 0.73400003 0.039895348 2.0246283e-38 316 209
-0.0038608401 0.73400003 0.039895348 2.0430675e-38 317 209
-0.0025738934 0.73400003 0.039895348 2.0431381e-38 318 209
-0.0012869467 0.73400003 0.039895348 2.0339184e-38 319 209
0 0.73400003 0.039895348 2.0430283e-38 320 209
0.0012869467 0.73400003 0.039895348 2.0153696e-38 321 209
0.0025738934 0.73400003 0.039895348 2.0244089e-38 322 209
0.0038608401 0.73400003 0.039895348 1.9875308e-38 323 209
0.005161813 0.736 0.040004052 1.9873512e-38 324 209
0.0064522666 0.736 0.040004052 1.9873512e-38 325 209
0.0077637597 0.73799998 0.040112756 1.9780597e-38 326 209
0.0090577193 0.73799998 0.040112756 1.9688402e-38 327 209
0.010351679 0.73799998 0.040112756 1.9321061e-38 328 209
0.011645639 0.73799998 0.040112756 1.9137029e-38 329 209
0.012939599 0.73799998 0.040112756 1.904483e-38 330 209
0.014252847 0.73900002 0.040167112 1.8952635e-38 331 209
0.01554856 0.73900002 0.040167112 1.8952998e-38 332 209
0.016844273 0.73900002 0.040167112 1.9045193e-38 333 209
0.018139986 0.73900002 0.040167112 1.8769332e-38 334 209
0.019488299 0.741 0.04027582 1.8769332e-38 335 209
0.020787518 0.741 0.04027582 1.8585667e-38 336 209
0.022176161 0.74400002 0.040438879 1.830908e-38 337 209
0.023480639 0.74400002 0.040438879 1.830908e-38 338 209
0.024851745 0.74599999 0.040547583 1.8124328e-38 339 209
0.026159734 0.74599999 0.040547583 1.7480408e-38 340 209
0.027504537 0.74699998 0.040601939 1.7480408e-38 341 209
0.028891427 0.74900001 0.040710647 1.6654265e-38 342 209
0.030204674 0.74900001 0.040710647 1.6561711e-38 343 209
0.031517919 0.74900001 0.040710647 1.4905462e-38 344 209
0.032962665 0.75199997 0.040873703 1.5550831e-38 345 209
0.034281172 0.75199997 0.040873703 1.6957904e-38 346 209
-0.038694311 0.76099998 0.040028598 1.8034638e-38 291 210
-0.037360024 0.76099998 0.040028598 1.8861531e-38 292 210
-0.036025736 0.76099998 0.040028598 1.9045923e-38 293 210
-0.034600276 0.759 0.0399234 1.913704e-38 294 210
-0.033269498 0.759 0.0399234 1.913704e-38 295 210
-0.031854562 0.75700003 0.039818201 1.9414351e-38 296 210
-0.030527288 0.75700003 0.039818201 1.8492395e-38 297 210
-0.029200014 0.75700003 0.039818201 1.4629922e-38 298 210
-0.027799098 0.755 0.039712999 6.9794977e-39 299 210
-0.026440267 0.75400001 0.039660402 9.1835496e-41 300 210
-0.024951685 0.74900001 0.0393974 9.6794089e-39 301 210
-0.023543758 0.74599999 0.039239597 1.7941019e-38 302 210
-0.022235774 0.74599999 0.039239597 1.8770781e-38 303 210
-0.02087168 0.74400002 0.039134398 1.9412541e-38 304 210
-0.0195146 0.74199998 0.0390292 1.9504736e-38 305 210
-0.018213626 0.74199998 0.0390292 1.9414333e-38 306 210
-0.016912652 0.74199998 0.0390292 1.9783116e-38 307 210
-0.01559064 0.741 0.038976599 1.8129377e-38 308 210
-0.01429142 0.741 0.038976599 1.3888377e-38 309 210
-0.012957133 0.73900002 0.0388714 4.3162683e-39 310 210
-0.011645639 0.73799998 0.038818799 4.8672897e-39 311 210
-0.010323626 0.736 0.038713597 2.8469004e-39 312 210
-0.0090331733 0.736 0.038713597 1.2527788e-38 313 210
-0.0077427197 0.736 0.038713597 1.9787097e-38 314 210
-0.006434733 0.73400003 0.038608398 1.9787097e-38 315 210
-0.0051477868 0.73400003 0.038608398 2.0429948e-38 316 210
-0.0038608401 0.73400003 0.038608398 2.0614341e-38 317 210
-0.0025738934 0.73400003 0.038608398 2.0615415e-38 318 210
-0.0012869467 0.73400003 0.038608398 2.0431025e-38 319 210
0 0.73400003 0.038608398 2.0522844e-38 320 210
0.0012869467 0.73400003 0.038608398 2.0062226e-38 321 210
0.0025738934 0.73400003 0.038608398 2.0244092e-38 322 210
0.0038608401 0.73400003 0.038608398 1.9875311e-38 323 210
0.0051477868 0.73400003 0.038608398 1.9964989e-38 324 210
0.006434733 0.73400003 0.038608398 1.9872793e-38 325 210
0.0077216802 0.73400003 0.038608398 1.9597285e-38 326 210
0.0090331733 0.736 0.038713597 1.9504731e-38 327 210
0.010323626 0.736 0.038713597 1.9503656e-38 328 210
0.01161408 0.736 0.038713597 1.9503656e-38 329 210
0.012939599 0.73799998 0.038818799 1.9135591e-38 330 210
0.014233559 0.73799998 0.038818799 1.9135591e-38 331 210
0.015527519 0.73799998 0.038818799 1.8768964e-38 332 210
0.016821479 0.73799998 0.038818799 1.8768964e-38 333 210
0.018115439 0.73799998 0.038818799 1.8769335e-38 334 210
0.019409399 0.73799998 0.038818799 1.8769335e-38 335 210
0.020731414 0.73900002 0.0388714 1.8493118e-38 336 210
0.02208674 0.741 0.038976599 1.8400922e-38 337 210
0.023417519 0.74199998 0.0390292 1.8216528e-38 338 210
0.02478512 0.74400002 0.039134398 1.8124331e-38 339 210
0.026159734 0.74599999 0.039239597 1.757296e-38 340 210
0.027467718 0.74599999 0.039239597 1.757296e-38 341 210
0.028814279 0.74699998 0.039292198 1.6746458e-38 342 210
0.030124018 0.74699998 0.039292198 1.6746458e-38 343 210
0.031517919 0.74900001 0.0393974 1.5549385e-38 344 210
0.032962665 0.75199997 0.039555199 1.5641581e-38 345 210
0.034281172 0.75199997 0.039555199 1.5847594e-38 346 210
-0.0399234 0.759 0.038592618 1.8036449e-38 290 211
-0.038592618 0.759 0.038592618 1.8129005e-38 291 211
-0.03726184 0.759 0.038592618 1.9044843e-38 292 211
-0.035931058 0.759 0.038592618 1.913704e-38 293 211
-0.034509107 0.75700003 0.038490929 1.9136676e-38 294 211
-0.033181835 0.75700003 0.038490929 1.9320708e-38 295 211
-0.031854562 0.75700003 0.038490929 1.93218e-38 296 211
-0.030446632 0.755 0.038389232 1.784667e-38 297 211
-0.029122867 0.755 0.038389232 1.3891638e-38 298 211
-0.027762281 0.75400001 0.038338386 7.0713332e-39 299 211
-0.026440267 0.75400001 0.038338386 1.8367099e-40 300 211
-0.024851745 0.74599999 0.03793161 1.0416977e-38 301 211
-0.023543758 0.74599999 0.03793161 1.840272e-38 302 211
-0.022176161 0.74400002 0.037829921 1.8863698e-38 303 211
-0.020815572 0.74199998 0.037728224 1.9412906e-38 304 211
-0.0195146 0.74199998 0.037728224 1.9597298e-38 305 211
-0.018213626 0.74199998 0.037728224 1.95069e-38 306 211
-0.016912652 0.74199998 0.037728224 1.9875324e-38 307 211
-0.01559064 0.741 0.037677377 1.7576928e-38 308 211
-0.014252847 0.73900002 0.037575684 1.2874592e-38 309 211
-0.012957133 0.73900002 0.037575684 4.2244328e-39 310 211
-0.01166142 0.73900002 0.037575684 4.4999449e-39 311 211
-0.010295574 0.73400003 0.037321456 3.8570908e-39 312 211
-0.0090086265 0.73400003 0.037321456 1.4088269e-38 313 211
-0.0077216802 0.73400003 0.037321456 1.9696686e-38 314 211
-0.006434733 0.73400003 0.037321456 1.9696686e-38 315 211
-0.0051477868 0.73400003 0.037321456 2.024663e-38 316 211
-0.0038608401 0.73400003 0.037321456 2.0339184e-38 317 211
-0.0025738934 0.73400003 0.037321456 2.0614696e-38 318 211
-0.0012869467 0.73400003 0.037321456 2.0706892e-38 319 211
0 0.73400003 0.037321456 2.0431379e-38 320 211
0.0012869467 0.73400003 0.037321456 2.0062595e-38 321 211
0.0025738934 0.73400003 0.037321456 2.0335938e-38 322 211
0.0038608401 0.73400003 0.037321456 1.9967156e-38 323 211
0.005140773 0.73299998 0.037270606 1.9965354e-38 324 211
0.0064259665 0.73299998 0.037270606 1.9873159e-38 325 211
0.0077216802 0.73400003 0.037321456 1.9687693e-38 326 211
0.0090086265 0.73400003 0.037321456 1.9687693e-38 327 211
0.010295574 0.73400003 0.037321456 1.95033e-38 328 211
0.011582521 0.73400003 0.037321456 1.95033e-38 329 211
0.012904533 0.736 0.037423145 1.9044477e-38 330 211
0.014194986 0.736 0.037423145 1.8952281e-38 331 211
0.015485439 0.736 0.037423145 1.8952281e-38 332 211
0.016775893 0.736 0.037423145 1.8952281e-38 333 211
0.018115439 0.73799998 0.037524838 1.876826e-38 334 211
0.019409399 0.73799998 0.037524838 1.876826e-38 335 211
0.020731414 0.73900002 0.037575684 1.8493121e-38 336 211
0.02208674 0.741 0.037677377 1.8400925e-38 337 211
0.023385961 0.741 0.037677377 1.8216178e-38 338 211
0.02478512 0.74400002 0.037829921 1.8216178e-38 339 211
0.026089599 0.74400002 0.037829921 1.7664805e-38 340 211
0.027467718 0.74599999 0.03793161 1.7480414e-38 341 211
0.028814279 0.74699998 0.03798246 1.6746095e-38 342 211
0.030124018 0.74699998 0.03798246 1.6746095e-38 343 211
0.031517919 0.74900001 0.038084153 1.5917795e-38 344 211
0.032962665 0.75199997 0.038236689 1.5733045e-38 345 211
0.034372345 0.75400001 0.038338386 1.4735483e-38 346 211
0.035694357 0.75400001 0.038338386 1.8607698e-38 347 211
-0.038389232 0.755 0.037065465 1.7946799e-38 291 212
-0.037065465 0.755 0.037065465 1.9045926e-38 292 212
-0.035741698 0.755 0.037065465 1.895373e-38 293 212
-0.034417931 0.755 0.037065465 1.9045199e-38 294 212
-0.033094164 0.755 0.037065465 1.9045199e-38 295 212
-0.03172832 0.75400001 0.037016369 1.9321084e-38 296 212
-0.030406307 0.75400001 0.037016369 1.7477171e-38 297 212
-0.029084291 0.75400001 0.037016369 1.2786731e-38 298 212
-0.027688639 0.75199997 0.036918186 6.5203202e-39 299 212
-0.026019465 0.74199998 0.036427252 1.8367099e-40 300 212
-0.024718491 0.74199998 0.036427252 1.1062349e-38 301 212
-0.023417519 0.74199998 0.036427252 1.868003e-38 302 212
-0.022116546 0.74199998 0.036427252 1.868003e-38 303 212
-0.020815572 0.74199998 0.036427252 1.9505102e-38 304 212
-0.0195146 0.74199998 0.036427252 1.9689493e-38 305 212
-0.018189078 0.741 0.036378156 1.959837e-38 306 212
-0.016889861 0.741 0.036378156 1.9874958e-38 307 212
-0.01554856 0.73900002 0.036279973 1.7117023e-38 308 212
-0.014252847 0.73900002 0.036279973 1.2230295e-38 309 212
-0.012957133 0.73900002 0.036279973 3.6734198e-39 310 212
-0.011645639 0.73799998 0.036230877 5.0524012e-39 311 212
-0.010295574 0.73400003 0.036034506 7.3468397e-39 312 212
-0.0090086265 0.73400003 0.036034506 1.7024843e-38 313 212
-0.0077111595 0.73299998 0.035985414 1.9972898e-38 314 212
-0.0064259665 0.73299998 0.035985414 1.9788148e-38 315 212
-0.0051477868 0.73400003 0.036034506 1.9971844e-38 316 212
-0.0038555798 0.73299998 0.035985414 2.0156236e-38 317 212
-0.0025703865 0.73299998 0.035985414 2.0431747e-38 318 212
-0.0012851933 0.73299998 0.035985414 2.0431747e-38 319 212
0 0.73299998 0.035985414 2.0431381e-38 320 212
0.0012851933 0.73299998 0.035985414 2.0154434e-38 321 212
0.0025703865 0.73299998 0.035985414 2.0428135e-38 322 212
0.0038555798 0.73299998 0.035985414 1.9967156e-38 323 212
0.005140773 0.73299998 0.035985414 2.0149025e-38 324 212
0.0064259665 0.73299998 0.035985414 1.987244e-38 325 212
0.0077111595 0.73299998 0.035985414 1.9779528e-38 326 212
0.0089963535 0.73299998 0.035985414 1.9687333e-38 327 212
0.010281546 0.73299998 0.035985414 1.9136676e-38 328 212
0.011566739 0.73299998 0.035985414 1.9136676e-38 329 212
0.012869466 0.73400003 0.036034506 1.8953e-38 330 212
0.014156413 0.73400003 0.036034506 1.8768969e-38 331 212
0.01544336 0.73400003 0.036034506 1.867642e-38 332 212
0.016730307 0.73400003 0.036034506 1.867642e-38 333 212
0.018066347 0.736 0.036132693 1.8493474e-38 334 212
0.019356798 0.736 0.036132693 1.8493474e-38 335 212
0.020647252 0.736 0.036132693 1.8401644e-38 336 212
0.022027127 0.73900002 0.036279973 1.8217613e-38 337 212
0.023385961 0.741 0.036378156 1.8125061e-38 338 212
0.024685178 0.741 0.036378156 1.794067e-38 339 212
0.025984399 0.741 0.036378156 1.7848473e-38 340 212
0.027394081 0.74400002 0.036525439 1.7571888e-38 341 212
0.028775707 0.74599999 0.036623627 1.711307e-38 342 212
0.030124018 0.74699998 0.036672719 1.711307e-38 343 212
0.031433757 0.74699998 0.036672719 1.6102888e-38 344 212
0.032874998 0.75 0.036819998 1.58263e-38 345 212
0.034372345 0.75400001 0.037016369 1.436021e-38 346 212
0.035694357 0.75400001 0.037016369 1.7956199e-38 347 212
0.037016369 0.75400001 0.037016369 1.9268203e-38 348 212
-0.039712999 0.755 0.035741698 1.6934445e-38 290 213
-0.038389232 0.755 0.035741698 1.7948599e-38 291 213
-0.037065465 0.755 0.035741698 1.913704e-38 292 213
-0.035741698 0.755 0.035741698 1.9044843e-38 293 213
-0.034372345 0.75400001 0.035694357 1.9045196e-38 294 213
-0.033050332 0.75400001 0.035694357 1.9045196e-38 295 213
-0.031644158 0.75199997 0.035599679 1.9230683e-38 296 213
-0.030325651 0.75199997 0.035599679 1.7202379e-38 297 213
-0.028891427 0.74900001 0.03545766 1.1315201e-38 298 213
-0.027394081 0.74400002 0.035220962 5.5101298e-39 299 213
-0.026019465 0.74199998 0.03512628 3.6734198e-40 300 213
-0.024685178 0.741 0.035078939 1.1614086e-38 301 213
-0.023385961 0.741 0.035078939 1.8955891e-38 302 213
-0.02208674 0.741 0.035078939 1.8679304e-38 303 213
-0.020815572 0.74199998 0.03512628 1.9505099e-38 304 213
-0.0195146 0.74199998 0.03512628 1.9689849e-38 305 213
-0.018189078 0.741 0.035078939 1.9599466e-38 306 213
-0.016889861 0.741 0.035078939 2.0060442e-38 307 213
-0.01554856 0.73900002 0.034984261 1.6655339e-38 308 213
-0.014233559 0.73799998 0.034936916 1.1768971e-38 309 213
-0.012939599 0.73799998 0.034936916 3.5815886e-39 310 213
-0.01161408 0.736 0.034842238 8.8338696e-39 311 213
-0.010281546 0.73299998 0.034700219 1.0778963e-38 312 213
-0.0089963535 0.73299998 0.034700219 1.5203994e-38 313 213
-0.0077111595 0.73299998 0.034700219 2.0248801e-38 314 213
-0.0064259665 0.73299998 0.034700219 1.9695627e-38 315 213
-0.005140773 0.73299998 0.034700219 2.0155153e-38 316 213
-0.0038555798 0.73299998 0.034700219 2.0247349e-38 317 213
-0.0025703865 0.73299998 0.034700219 2.0431025e-38 318 213
-0.0012851933 0.73299998 0.034700219 2.0431025e-38 319 213
0 0.73299998 0.034700219 2.0431025e-38 320 213
0.0012851933 0.73299998 0.034700219 2.0154437e-38 321 213
0.0025703865 0.73299998 0.034700219 2.0152637e-38 322 213
0.0038555798 0.73299998 0.034700219 1.9784213e-38 323 213
0.005140773 0.73299998 0.034700219 1.9965727e-38 324 213
0.0064259665 0.73299998 0.034700219 1.9781695e-38 325 213
0.0077111595 0.73299998 0.034700219 1.9412551e-38 326 213
0.0089963535 0.73299998 0.034700219 1.9412551e-38 327 213
0.010281546 0.73299998 0.034700219 1.913704e-38 328 213
0.011566739 0.73299998 0.034700219 1.913704e-38 329 213
0.012851933 0.73299998 0.034700219 1.8861533e-38 330 213
0.014156413 0.73400003 0.03474756 1.8768979e-38 331 213
0.01544336 0.73400003 0.03474756 1.8861533e-38 332 213
0.016730307 0.73400003 0.03474756 1.895373e-38 333 213
0.018017253 0.73400003 0.03474756 1.8678583e-38 334 213
0.019304199 0.73400003 0.03474756 1.8771137e-38 335 213
0.020647252 0.736 0.034842238 1.8403443e-38 336 213
0.022027127 0.73900002 0.034984261 1.8311248e-38 337 213
0.023322839 0.73900002 0.034984261 1.7943187e-38 338 213
0.024685178 0.741 0.035078939 1.7758437e-38 339 213
0.025984399 0.741 0.035078939 1.7297464e-38 340 213
0.027320439 0.74199998 0.03512628 1.7297464e-38 341 213
0.028775707 0.74599999 0.03531564 1.6654263e-38 342 213
0.030124018 0.74699998 0.035362978 1.6562067e-38 343 213
0.031433757 0.74699998 0.035362978 1.6011414e-38 344 213
0.032831166 0.74900001 0.03545766 1.610361e-38 345 213
0.034144413 0.74900001 0.03545766 1.4449168e-38 346 213
0.035694357 0.75400001 0.035694357 1.7122841e-38 347 213
0.037016369 0.75400001 0.035694357 1.8344807e-38 348 213
-0.040982414 0.75400001 0.034372345 7.834053e-39 289 214
-0.039660402 0.75400001 0.034372345 1.5830616e-38 290 214
-0.038338386 0.75400001 0.034372345 1.7397943e-38 291 214
-0.037065465 0.755 0.034417931 1.8678585e-38 292 214
-0.035741698 0.755 0.034417931 1.8678585e-38 293 214
-0.034372345 0.75400001 0.034372345 1.8861884e-38 294 214
-0.033050332 0.75400001 0.034372345 1.9046276e-38 295 214
-0.031644158 0.75199997 0.034281172 1.9141359e-38 296 214
-0.030244999 0.75 0.034189999 1.6652077e-38 297 214
-0.028814279 0.74699998 0.034053236 1.0116655e-38 298 214
-0.027394081 0.74400002 0.033916477 5.2346233e-39 299 214
-0.026019465 0.74199998 0.033825304 8.2651947e-40 300 214
-0.024685178 0.741 0.033779722 1.1888878e-38 301 214
-0.023385961 0.741 0.033779722 1.9048443e-38 302 214
-0.02208674 0.741 0.033779722 1.8679302e-38 303 214
-0.020787518 0.741 0.033779722 1.9322503e-38 304 214
-0.019488299 0.741 0.033779722 1.9507253e-38 305 214
-0.018189078 0.741 0.033779722 1.9508349e-38 306 214
-0.016889861 0.741 0.033779722 2.0061523e-38 307 214
-0.015527519 0.73799998 0.033642959 1.6286203e-38 308 214
-0.014233559 0.73799998 0.033642959 1.1768617e-38 309 214
-0.012904533 0.736 0.033551786 3.0305868e-39 310 214
-0.01161408 0.736 0.033551786 6.8988572e-39 311 214
-0.010281546 0.73299998 0.033415023 1.0139737e-38 312 214
-0.0089963535 0.73299998 0.033415023 1.4749877e-38 313 214
-0.00769012 0.73100001 0.033323854 2.0249896e-38 314 214
-0.006408433 0.73100001 0.033323854 1.9420134e-38 315 214
-0.005140773 0.73299998 0.033415023 1.9788176e-38 316 214
-0.0038555798 0.73299998 0.033415023 1.9972207e-38 317 214
-0.0025703865 0.73299998 0.033415023 2.0247001e-38 318 214
-0.0012816866 0.73100001 0.033323854 2.0247001e-38 319 214
0 0.73100001 0.033323854 2.0522146e-38 320 214
0.0012851933 0.73299998 0.033415023 2.0337396e-38 321 214
0.0025703865 0.73299998 0.033415023 2.0245185e-38 322 214
0.00384506 0.73100001 0.033323854 2.0060793e-38 323 214
0.0051267464 0.73100001 0.033323854 1.9967875e-38 324 214
0.006408433 0.73100001 0.033323854 1.9599453e-38 325 214
0.00769012 0.73100001 0.033323854 1.9598019e-38 326 214
0.0089718066 0.73100001 0.033323854 1.941363e-38 327 214
0.010253493 0.73100001 0.033323854 1.8863701e-38 328 214
0.01153518 0.73100001 0.033323854 1.8771147e-38 329 214
0.012851933 0.73299998 0.033415023 1.8403812e-38 330 214
0.014137126 0.73299998 0.033415023 1.8219781e-38 331 214
0.015422319 0.73299998 0.033415023 1.785279e-38 332 214
0.016707512 0.73299998 0.033415023 1.7760593e-38 333 214
0.018017253 0.73400003 0.033460613 1.7209219e-38 334 214
0.019304199 0.73400003 0.033460613 1.7301415e-38 335 214
0.020591147 0.73400003 0.033460613 1.7026638e-38 336 214
0.021937706 0.736 0.033551786 1.7118835e-38 337 214
0.023291279 0.73799998 0.033642959 1.6935889e-38 338 214
0.024618553 0.73900002 0.033688545 1.6751496e-38 339 214
0.025984399 0.741 0.033779722 1.702449e-38 340 214
0.027283618 0.741 0.033779722 1.6563512e-38 341 214
0.028775707 0.74599999 0.034007654 1.6470595e-38 342 214
0.03008369 0.74599999 0.034007654 1.6470595e-38 343 214
0.031433757 0.74699998 0.034053236 1.5828465e-38 344 214
0.032831166 0.74900001 0.034144413 1.5644434e-38 345 214
0.034144413 0.74900001 0.034144413 1.4631039e-38 346 214
0.03545766 0.74900001 0.034144413 1.629056e-38 347 214
-0.040982414 0.75400001 0.033050332 7.5491648e-39 289 215
-0.039660402 0.75400001 0.033050332 1.4725692e-38 290 215
-0.038338386 0.75400001 0.033050332 1.730717e-38 291 215
-0.037016369 0.75400001 0.033050332 1.8862254e-38 292 215
-0.035694357 0.75400001 0.033050332 1.8862254e-38 293 215
-0.034372345 0.75400001 0.033050332 1.8861881e-38 294 215
-0.032874998 0.75 0.032874998 1.9046632e-38 295 215
-0.03156 0.75 0.032874998 1.9141715e-38 296 215
-0.030204674 0.74900001 0.032831166 1.6467683e-38 297 215
-0.028775707 0.74599999 0.032699663 8.7355195e-39 298 215
-0.027394081 0.74400002 0.032612 4.5917748e-39 299 215
-0.026019465 0.74199998 0.032524332 1.1938615e-39 300 215
-0.024685178 0.741 0.032480497 1.2348066e-38 301 215
-0.023385961 0.741 0.032480497 1.9232856e-38 302 215
-0.02208674 0.741 0.032480497 1.8863714e-38 303 215
-0.020787518 0.741 0.032480497 1.9231755e-38 304 215
-0.019488299 0.741 0.032480497 1.9323952e-38 305 215
-0.018189078 0.741 0.032480497 1.9601982e-38 306 215
-0.016844273 0.73900002 0.032392833 1.9601982e-38 307 215
-0.015527519 0.73799998 0.032348998 1.5917424e-38 308 215
-0.014194986 0.736 0.032261331 1.1860816e-38 309 215
-0.012904533 0.736 0.032261331 3.2142606e-39 310 215
-0.01161408 0.736 0.032261331 3.8581951e-39 311 215
-0.010295574 0.73400003 0.032173667 6.0834822e-39 312 215
-0.0089963535 0.73299998 0.032129832 1.4381449e-38 313 215
-0.00769012 0.73100001 0.032042164 2.034353e-38 314 215
-0.006408433 0.73100001 0.032042164 1.9237541e-38 315 215
-0.0051267464 0.73100001 0.032042164 1.9971119e-38 316 215
-0.00384506 0.73100001 0.032042164 2.0155509e-38 317 215
-0.0025633732 0.73100001 0.032042164 2.0246633e-38 318 215
-0.0012816866 0.73100001 0.032042164 2.0246633e-38 319 215
0 0.73100001 0.032042164 2.0431031e-38 320 215
0.0012816866 0.73100001 0.032042164 2.0707258e-38 321 215
0.0025633732 0.73100001 0.032042164 1.9972207e-38 322 215
0.00384506 0.73100001 0.032042164 1.9972207e-38 323 215
0.0051267464 0.73100001 0.032042164 1.9604854e-38 324 215
0.006408433 0.73100001 0.032042164 1.905168e-38 325 215
0.0076795998 0.73000002 0.031998333 1.8591059e-38 326 215
0.0089595336 0.73000002 0.031998333 1.8314112e-38 327 215
0.010211413 0.72799999 0.031910665 1.7577999e-38 328 215
0.01148784 0.72799999 0.031910665 1.711702e-38 329 215
0.012799333 0.73000002 0.031998333 1.6563868e-38 330 215
0.014079267 0.73000002 0.031998333 1.6010694e-38 331 215
0.01538024 0.73100001 0.032042164 1.5274575e-38 332 215
0.016661927 0.73100001 0.032042164 1.4905432e-38 333 215
0.017992707 0.73299998 0.032129832 1.4354417e-38 334 215
0.019277899 0.73299998 0.032129832 1.4354417e-38 335 215
0.020591147 0.73400003 0.032173667 1.4171836e-38 336 215
0.021937706 0.736 0.032261331 1.454062e-38 337 215
0.023228159 0.736 0.032261331 1.4450228e-38 338 215
0.024585238 0.73799998 0.032348998 1.4818651e-38 339 215
0.025914267 0.73900002 0.032392833 1.5369655e-38 340 215
0.027209979 0.73900002 0.032392833 1.5462209e-38 341 215
0.02869856 0.74400002 0.032612 1.5646951e-38 342 215
0.03008369 0.74599999 0.032699663 1.5646951e-38 343 215
0.031391677 0.74599999 0.032699663 1.5737714e-38 344 215
0.032743499 0.74699998 0.032743499 1.5645518e-38 345 215
0.034281172 0.75199997 0.032962665 1.5091294e-38 346 215
0.035599679 0.75199997 0.032962665 1.6105447e-38 347 215
-0.042584959 0.759 0.031938717 1.277482e-38 288 216
-0.041036766 0.755 0.031770397 1.1299353e-38 289 216
-0.039712999 0.755 0.031770397 1.3342744e-38 290 216
-0.038338386 0.75400001 0.03172832 1.7307156e-38 291 216
-0.037016369 0.75400001 0.03172832 1.8769698e-38 292 216
-0.035599679 0.75199997 0.031644158 1.8769698e-38 293 216
-0.034144413 0.74900001 0.031517919 1.8861884e-38 294 216
-0.032743499 0.74699998 0.031433757 1.8954081e-38 295 216
-0.031433757 0.74699998 0.031433757 1.9232831e-38 296 216
-0.030124018 0.74699998 0.031433757 1.6374767e-38 297 216
-0.02869856 0.74400002 0.031307522 7.7220892e-39 298 216
-0.027320439 0.74199998 0.031223357 4.3162683e-39 299 216
-0.026019465 0.74199998 0.031223357 1.1938615e-39 300 216
-0.024685178 0.741 0.03118128 1.2439908e-38 301 216
-0.023385961 0.741 0.03118128 1.9324696e-38 302 216
-0.02208674 0.741 0.03118128 1.9048109e-38 303 216
-0.020787518 0.741 0.03118128 1.941615e-38 304 216
-0.019488299 0.741 0.03118128 1.941615e-38 305 216
-0.018139986 0.73900002 0.03109712 1.9694182e-38 306 216
-0.016821479 0.73799998 0.031055039 1.9601985e-38 307 216
-0.015527519 0.73799998 0.031055039 1.573196e-38 308 216
-0.014194986 0.736 0.030970879 1.2136329e-38 309 216
-0.012904533 0.736 0.030970879 3.9503851e-39 310 216
-0.01161408 0.736 0.030970879 3.1224181e-39 311 216
-0.010295574 0.73400003 0.030886721 2.9484623e-39 312 216
-0.0089963535 0.73299998 0.030844638 1.4011938e-38 313 216
-0.00769012 0.73100001 0.03076048 1.9976908e-38 314 216
