# .PCD v.7 - Point Cloud Data file format
FIELDS x y z rgb imX imY
SIZE 4 4 4 4 4 4
TYPE F F F F F F
COUNT 1 1 1 1 1 1
WIDTH 840
HEIGHT 1
VIEWPOINT 0 0 0 1 0 0 0
POINTS 840
DATA ascii
-0.0124136 0.708 0.0372408 1.0131047e-38 310 210
-0.01117224 0.708 0.0372408 1.0315439e-38 311 210
-0.016183265 0.70999998 0.036101133 1.5921014e-38 307 211
-0.014938398 0.70999998 0.036101133 1.51856e-38 308 211
-0.013693533 0.70999998 0.036101133 1.4632426e-38 309 211
-0.0124136 0.708 0.03599944 1.362259e-38 310 211
-0.011156459 0.70700002 0.035948593 1.362259e-38 311 211
-0.0099168532 0.70700002 0.035948593 1.2611325e-38 312 211
-0.017428132 0.70999998 0.034856264 1.7484361e-38 306 212
-0.01613768 0.708 0.034758076 1.729997e-38 307 212
-0.01489632 0.708 0.034758076 1.6932981e-38 308 212
-0.013654959 0.708 0.034758076 1.6656395e-38 309 212
-0.012378532 0.70599997 0.034659892 1.5829156e-38 310 212
-0.011140679 0.70599997 0.034659892 1.5552209e-38 311 212
-0.0099168532 0.70700002 0.034708988 1.4815738e-38 312 212
-0.0086404262 0.704 0.034561705 1.4354761e-38 313 212
-0.0074060797 0.704 0.034561705 1.3253105e-38 314 212
-0.017379038 0.708 0.033516716 1.7486149e-38 306 213
-0.01613768 0.708 0.033516716 1.7302118e-38 307 213
-0.01487528 0.70700002 0.033469379 1.7852774e-38 308 213
-0.013635674 0.70700002 0.033469379 1.8036805e-38 309 213
-0.012343466 0.704 0.03332736 1.7760944e-38 310 213
-0.011109119 0.704 0.03332736 1.7760944e-38 311 213
-0.0098747732 0.704 0.03332736 1.7850991e-38 312 213
-0.0086281532 0.70300001 0.033280019 1.7390013e-38 313 213
-0.0073955595 0.70300001 0.033280019 1.6471651e-38 314 213
-0.0061629666 0.70300001 0.033280019 1.6195063e-38 315 213
-0.020656019 0.69300002 0.031591557 1.8038236e-38 303 214
-0.01944096 0.69300002 0.031591557 1.8038238e-38 304 214
-0.0182522 0.69400001 0.031637147 1.8038238e-38 305 214
-0.017035386 0.69400001 0.031637147 1.8221904e-38 306 214
-0.01613768 0.708 0.03227536 1.8221904e-38 307 214
-0.014854239 0.70599997 0.032184184 1.794639e-38 308 214
-0.013616386 0.70599997 0.032184184 1.7854193e-38 309 214
-0.012325933 0.70300001 0.032047424 1.8129338e-38 310 214
-0.011045999 0.69999999 0.031910665 1.8129338e-38 311 214
-0.0097906133 0.69800001 0.031819493 1.7853121e-38 312 214
-0.0085667865 0.69800001 0.031819493 1.7207752e-38 313 214
-0.0073639993 0.69999999 0.031910665 1.6931515e-38 314 214
-0.0061366665 0.69999999 0.031910665 1.6562733e-38 315 214
-0.0048953067 0.69800001 0.031819493 1.6560935e-38 316 214
-0.0036714801 0.69800001 0.031819493 1.6376542e-38 317 214
-0.0024476533 0.69800001 0.031819493 1.6100348e-38 318 214
-0.0012238267 0.69800001 0.031819493 1.5916315e-38 319 214
0 0.69999999 0.031910665 1.5090164e-38 320 214
-0.02308614 0.69300002 0.0303765 1.7765627e-38 301 215
-0.021871079 0.69300002 0.0303765 1.7949655e-38 302 215
-0.020656019 0.69300002 0.0303765 1.7949655e-38 303 215
-0.01944096 0.69300002 0.0303765 1.7857823e-38 304 215
-0.018225901 0.69300002 0.0303765 1.7950018e-38 305 215
-0.017035386 0.69400001 0.030420333 1.8042217e-38 306 215
-0.015818574 0.69400001 0.030420333 1.7950021e-38 307 215
-0.014643839 0.69599998 0.030507999 1.7858907e-38 308 215
-0.013616386 0.70599997 0.030946331 1.7858907e-38 309 215
-0.012238266 0.69800001 0.030595668 1.7950024e-38 310 215
-0.01095132 0.69400001 0.030420333 1.7857828e-38 311 215
-0.0097345067 0.69400001 0.030420333 1.7764191e-38 312 215
-0.0085545136 0.69700003 0.030551834 1.7026626e-38 313 215
-0.0073429602 0.69800001 0.030595668 1.7208123e-38 314 215
-0.0061366665 0.69999999 0.030683333 1.6747146e-38 315 215
-0.0048953067 0.69800001 0.030595668 1.6746053e-38 316 215
-0.00366622 0.69700003 0.030551834 1.6469108e-38 317 215
-0.0024441467 0.69700003 0.030551834 1.656095e-38 318 215
-0.0012238267 0.69800001 0.030595668 1.6468755e-38 319 215
0 0.69999999 0.030683333 1.6377641e-38 320 215
-0.024231065 0.69099998 0.029077278 1.6204065e-38 300 216
-0.023019511 0.69099998 0.029077278 1.5927838e-38 301 216
-0.021807959 0.69099998 0.029077278 1.5743087e-38 302 216
-0.020596405 0.69099998 0.029077278 1.5650891e-38 303 216
-0.01944096 0.69300002 0.029161438 1.5191339e-38 304 216
-0.018225901 0.69300002 0.029161438 1.4822557e-38 305 216
-0.017035386 0.69400001 0.029203519 1.4728565e-38 306 216
-0.015818574 0.69400001 0.029203519 1.4820762e-38 307 216
-0.01460176 0.69400001 0.029203519 1.4729658e-38 308 216
-0.013384946 0.69400001 0.029203519 1.5006603e-38 309 216
-0.012168133 0.69400001 0.029203519 1.5467228e-38 310 216
-0.01095132 0.69400001 0.029203519 1.5835652e-38 311 216
-0.0097345067 0.69400001 0.029203519 1.6845491e-38 312 216
-0.0085422397 0.69599998 0.029287677 1.66611e-38 313 216
-0.0073008798 0.69400001 0.029203519 1.7118821e-38 314 216
-0.0060840664 0.69400001 0.029203519 1.674968e-38 315 216
-0.0048882933 0.69700003 0.02932976 1.7023363e-38 316 216
-0.00366622 0.69700003 0.02932976 1.6746416e-38 317 216
-0.0024441467 0.69700003 0.02932976 1.6561306e-38 318 216
-0.0012238267 0.69800001 0.029371841 1.6284721e-38 319 216
0 0.69999999 0.029455997 1.619288e-38 320 216
0.0012273333 0.69999999 0.029455997 1.6100684e-38 321 216
-0.024195999 0.69 0.027825398 1.4084294e-38 300 217
-0.022986198 0.69 0.027825398 1.399174e-38 301 217
-0.021807959 0.69099998 0.027865725 1.389953e-38 302 217
-0.020596405 0.69099998 0.027865725 1.3438553e-38 303 217
-0.019384852 0.69099998 0.027865725 1.3252695e-38 304 217
-0.0181733 0.69099998 0.027865725 1.1961956e-38 305 217
-0.01701084 0.69300002 0.027946379 1.2143103e-38 306 217
-0.015795778 0.69300002 0.027946379 1.2143103e-38 307 217
-0.014580719 0.69300002 0.027946379 1.1869423e-38 308 217
-0.01336566 0.69300002 0.027946379 1.2238564e-38 309 217
-0.012150601 0.69300002 0.027946379 1.1874487e-38 310 217
-0.010935539 0.69300002 0.027946379 1.2704248e-38 311 217
-0.0097204801 0.69300002 0.027946379 1.3900994e-38 312 217
-0.0085054198 0.69300002 0.027946379 1.4361614e-38 313 217
-0.0072903596 0.69300002 0.027946379 1.5281032e-38 314 217
-0.0060753003 0.69300002 0.027946379 1.5465425e-38 315 217
-0.0048812795 0.69599998 0.028067358 1.610718e-38 316 217
-0.0036609597 0.69599998 0.028067358 1.5830954e-38 317 217
-0.0024441467 0.69700003 0.028107686 1.5828435e-38 318 217
-0.0012238267 0.69800001 0.028148014 1.555149e-38 319 217
0 0.69999999 0.028228667 1.6100345e-38 320 217
0.0012273333 0.69999999 0.028228667 1.5916312e-38 321 217
0.0024546667 0.69999999 0.028228667 1.6007426e-38 322 217
-0.027704418 0.68699998 0.026499879 6.2667791e-39 297 218
-0.026499879 0.68699998 0.026499879 8.8417603e-39 298 218
-0.025295338 0.68699998 0.026499879 1.0132499e-38 299 218
-0.024125867 0.68800002 0.026538454 1.3163061e-38 300 218
-0.022919573 0.68800002 0.026538454 1.362368e-38 301 218
-0.021776399 0.69 0.026615599 1.4361234e-38 302 218
-0.020566599 0.69 0.026615599 1.4269038e-38 303 218
-0.019300694 0.68800002 0.026538454 1.4267222e-38 304 218
-0.0180944 0.68800002 0.026538454 1.3621853e-38 305 218
-0.0169372 0.69 0.026615599 1.3528208e-38 306 218
-0.015750192 0.69099998 0.026654173 1.2790643e-38 307 218
-0.014538639 0.69099998 0.026654173 1.1868704e-38 308 218
-0.013327086 0.69099998 0.026654173 1.0762715e-38 309 218
-0.012115533 0.69099998 0.026654173 7.4552063e-39 310 218
-0.010888199 0.69 0.026615599 5.7034907e-39 311 218
-0.0096783992 0.69 0.026615599 4.0461428e-39 312 218
-0.0084686 0.69 0.026615599 4.6915122e-39 313 218
-0.0072587994 0.69 0.026615599 5.1539127e-39 314 218
-0.0060489997 0.69 0.026615599 6.813434e-39 315 218
-0.0048812795 0.69599998 0.026847038 1.0949993e-38 316 218
-0.0036609597 0.69599998 0.026847038 1.2609155e-38 317 218
-0.0024406398 0.69599998 0.026847038 1.3991377e-38 318 218
-0.0012220733 0.69700003 0.026885614 1.4636746e-38 319 218
0 0.69999999 0.027001332 1.6103239e-38 320 218
0.0012273333 0.69999999 0.027001332 1.582665e-38 321 218
0.0024546667 0.69999999 0.027001332 1.6099627e-38 322 218
-0.027543113 0.68300003 0.02514806 1.1136237e-38 297 219
-0.026345588 0.68300003 0.02514806 1.2794298e-38 298 219
-0.025184879 0.68400002 0.025184879 1.380809e-38 299 219
-0.0239856 0.68400002 0.025184879 1.5646219e-38 300 219
-0.022786319 0.68400002 0.025184879 1.5738773e-38 301 219
-0.021650158 0.68599999 0.025258519 1.6015362e-38 302 219
-0.020477179 0.68699998 0.025295338 1.6291588e-38 303 219
-0.019272638 0.68699998 0.025295338 1.638414e-38 304 219
-0.018068098 0.68699998 0.025295338 1.6476336e-38 305 219
-0.01686356 0.68699998 0.025295338 1.610718e-38 306 219
-0.015727401 0.69 0.025405798 1.5369615e-38 307 219
-0.014475521 0.68800002 0.02533216 1.4906842e-38 308 219
-0.013269227 0.68800002 0.02533216 1.3984887e-38 309 219
-0.012062933 0.68800002 0.02533216 1.2421508e-38 310 219
-0.010856641 0.68800002 0.02533216 1.0854182e-38 311 219
-0.0096503468 0.68800002 0.02533216 9.6516954e-39 312 219
-0.0084440531 0.68800002 0.02533216 8.1769465e-39 313 219
-0.0072272392 0.68699998 0.025295338 7.6223462e-39 314 219
-0.0060226996 0.68699998 0.025295338 8.8176426e-39 315 219
-0.0048672534 0.69400001 0.025553079 9.004196e-39 316 219
-0.0036504399 0.69400001 0.025553079 1.0571522e-38 317 219
-0.0024336267 0.69400001 0.025553079 1.0858543e-38 318 219
-0.0012220733 0.69700003 0.025663542 1.2149282e-38 319 219
0 0.69999999 0.025773998 1.3620443e-38 320 219
0.0012273333 0.69999999 0.025773998 1.4173617e-38 321 219
0.0024546667 0.69999999 0.025773998 1.5091233e-38 322 219
0.0036872597 0.70099998 0.025810819 1.5091233e-38 323 219
0.0049373866 0.704 0.02592128 1.5364931e-38 324 219
-0.027543113 0.68300003 0.023950534 1.7221854e-38 297 220
-0.026345588 0.68300003 0.023950534 1.8781965e-38 298 220
-0.025184879 0.68400002 0.0239856 1.8413542e-38 299 220
-0.0239856 0.68400002 0.0239856 1.886838e-38 300 220
-0.022786319 0.68400002 0.0239856 1.8223012e-38 301 220
-0.02158704 0.68400002 0.0239856 1.831628e-38 302 220
-0.020387759 0.68400002 0.0239856 1.831628e-38 303 220
-0.01918848 0.68400002 0.0239856 1.8223367e-38 304 220
-0.0179892 0.68400002 0.0239856 1.8223367e-38 305 220
-0.016839013 0.68599999 0.024055731 1.8315564e-38 306 220
-0.015636226 0.68599999 0.024055731 1.7854586e-38 307 220
-0.01443344 0.68599999 0.024055731 1.7854939e-38 308 220
-0.013249939 0.68699998 0.024090799 1.7670547e-38 309 220
-0.012045399 0.68699998 0.024090799 1.7670547e-38 310 220
-0.010840859 0.68699998 0.024090799 1.7762743e-38 311 220
-0.0096363192 0.68699998 0.024090799 1.7484364e-38 312 220
-0.0084317802 0.68699998 0.024090799 1.6469852e-38 313 220
-0.0072272392 0.68699998 0.024090799 1.4994e-38 314 220
-0.0060226996 0.68699998 0.024090799 1.3611066e-38 315 220
-0.0048251734 0.68800002 0.024125867 1.0938837e-38 316 220
-0.0036504399 0.69400001 0.024336265 8.4495831e-39 317 220
-0.0024336267 0.69400001 0.024336265 4.043273e-39 318 220
-0.0012220733 0.69700003 0.024441468 3.5823018e-39 319 220
0 0.69999999 0.024546666 6.2469661e-39 320 220
0.0012273333 0.69999999 0.024546666 9.3812546e-39 321 220
0.0024546667 0.69999999 0.024546666 1.2881445e-38 322 220
0.0036819996 0.69999999 0.024546666 1.4172183e-38 323 220
0.0049373866 0.704 0.024686933 1.5001203e-38 324 220
-0.02869856 0.68199998 0.022719691 1.7215365e-38 296 221
-0.027502786 0.68199998 0.022719691 1.7768539e-38 297 221
-0.026307013 0.68199998 0.022719691 1.8780503e-38 298 221
-0.02514806 0.68300003 0.022753006 1.8504277e-38 299 221
-0.023950534 0.68300003 0.022753006 1.8501733e-38 300 221
-0.022753006 0.68300003 0.022753006 1.8132952e-38 301 221
-0.02155548 0.68300003 0.022753006 1.8224052e-38 302 221
-0.020357953 0.68300003 0.022753006 1.8224052e-38 303 221
-0.01918848 0.68400002 0.022786319 1.813114e-38 304 221
-0.017962901 0.68300003 0.022753006 1.7854193e-38 305 221
-0.016765373 0.68300003 0.022753006 1.7760928e-38 306 221
-0.015567848 0.68300003 0.022753006 1.7760928e-38 307 221
-0.014370319 0.68300003 0.022753006 1.7484686e-38 308 221
-0.01319208 0.68400002 0.022786319 1.7116262e-38 309 221
-0.0119928 0.68400002 0.022786319 1.7391773e-38 310 221
-0.010825079 0.68599999 0.022852944 1.7483969e-38 311 221
-0.0096363192 0.68699998 0.022886258 1.7207404e-38 312 221
-0.0084317802 0.68699998 0.022886258 1.7022654e-38 313 221
-0.0072272392 0.68699998 0.022886258 1.6655301e-38 314 221
-0.0060226996 0.68699998 0.022886258 1.5733343e-38 315 221
-0.0048181596 0.68699998 0.022886258 1.5178372e-38 316 221
-0.0036136196 0.68699998 0.022886258 1.4072024e-38 317 221
-0.0024090798 0.68699998 0.022886258 1.2410004e-38 318 221
-0.0012273333 0.69999999 0.023319334 1.0289522e-38 319 221
0 0.69999999 0.023319334 9.5508916e-39 320 221
0.0012273333 0.69999999 0.023319334 9.1835496e-39 321 221
0.0024546667 0.69999999 0.023319334 1.0202383e-38 322 221
0.0036819996 0.69999999 0.023319334 1.1493122e-38 323 221
-0.029894331 0.68199998 0.021523919 1.1144871e-38 295 222
-0.028614398 0.68000001 0.0214608 1.6570352e-38 296 222
-0.027422134 0.68000001 0.0214608 1.7215721e-38 297 222
-0.026307013 0.68199998 0.021523919 1.8410643e-38 298 222
-0.025111238 0.68199998 0.021523919 1.8226612e-38 299 222
-0.023915464 0.68199998 0.021523919 1.8410629e-38 300 222
-0.022719691 0.68199998 0.021523919 1.8318434e-38 301 222
-0.021523919 0.68199998 0.021523919 1.8225513e-38 302 222
-0.020357953 0.68300003 0.02155548 1.8041122e-38 303 222
-0.019160427 0.68300003 0.02155548 1.81308e-38 304 222
-0.017936599 0.68199998 0.021523919 1.7854213e-38 305 222
-0.016740825 0.68199998 0.021523919 1.7760941e-38 306 222
-0.015545053 0.68199998 0.021523919 1.7484714e-38 307 222
-0.01434928 0.68199998 0.021523919 1.7483635e-38 308 222
-0.013172794 0.68300003 0.02155548 1.7207048e-38 309 222
-0.011975267 0.68300003 0.02155548 1.7205969e-38 310 222
-0.01079352 0.68400002 0.02158704 1.7205969e-38 311 222
-0.0096222926 0.68599999 0.021650158 1.692974e-38 312 222
-0.0084195063 0.68599999 0.021650158 1.6745347e-38 313 222
-0.0072167199 0.68599999 0.021650158 1.7113408e-38 314 222
-0.0060139326 0.68599999 0.021650158 1.7205604e-38 315 222
-0.0048111463 0.68599999 0.021650158 1.7114127e-38 316 222
-0.0036136196 0.68699998 0.021681719 1.7206322e-38 317 222
-0.0024090798 0.68699998 0.021681719 1.6652798e-38 318 222
-0.0012062934 0.68800002 0.021713281 1.5269864e-38 319 222
0 0.68800002 0.021713281 1.3424153e-38 320 222
0.0012045399 0.68699998 0.021681719 1.0934881e-38 321 222
0.0024090798 0.68699998 0.021681719 9.1835496e-39 322 222
-0.042404365 0.69099998 0.020596405 1.5095594e-38 285 223
-0.041133199 0.69 0.020566599 1.6657863e-38 286 223
-0.0399234 0.69 0.020566599 1.7211036e-38 287 223
-0.029806666 0.68000001 0.020268533 7.741549e-39 295 223
-0.028614398 0.68000001 0.020268533 1.6018624e-38 296 223
-0.027422134 0.68000001 0.020268533 1.7032774e-38 297 223
-0.026229866 0.68000001 0.020268533 1.8226259e-38 298 223
-0.025111238 0.68199998 0.020328145 1.8134062e-38 299 223
-0.023915464 0.68199998 0.020328145 1.8503548e-38 300 223
-0.022653066 0.68000001 0.020268533 1.8503548e-38 301 223
-0.0214608 0.68000001 0.020268533 1.8411703e-38 302 223
-0.020328145 0.68199998 0.020328145 1.804292e-38 303 223
-0.019132372 0.68199998 0.020328145 1.8315191e-38 304 223
-0.017936599 0.68199998 0.020328145 1.8038604e-38 305 223
-0.016740825 0.68199998 0.020328145 1.7670542e-38 306 223
-0.015545053 0.68199998 0.020328145 1.7209922e-38 307 223
-0.01434928 0.68199998 0.020328145 1.7483635e-38 308 223
-0.013153506 0.68199998 0.020328145 1.7207048e-38 309 223
-0.011957732 0.68199998 0.020328145 1.7114853e-38 310 223
-0.01077774 0.68300003 0.020357953 1.6930461e-38 311 223
-0.0095802136 0.68300003 0.020357953 1.6929743e-38 312 223
-0.0083949603 0.68400002 0.020387759 1.6837546e-38 313 223
-0.0072167199 0.68599999 0.020447372 1.6744625e-38 314 223
-0.0060139326 0.68599999 0.020447372 1.6744625e-38 315 223
-0.0048111463 0.68599999 0.020447372 1.6652786e-38 316 223
-0.0036136196 0.68699998 0.020477179 1.6652786e-38 317 223
-0.0024090798 0.68699998 0.020477179 1.628437e-38 318 223
-0.0012045399 0.68699998 0.020477179 1.6192173e-38 319 223
0 0.68699998 0.020477179 1.5638276e-38 320 223
0.0012045399 0.68699998 0.020477179 1.4716322e-38 321 223
0.0024090798 0.68699998 0.020477179 1.3788973e-38 322 223
-0.043615919 0.69099998 0.019384852 1.7398652e-38 284 224
-0.042342998 0.69 0.019356798 1.6753283e-38 285 224
-0.041013971 0.68800002 0.019300694 1.7577629e-38 286 224
-0.039749816 0.68699998 0.019272638 1.7853857e-38 287 224
-0.03848917 0.68599999 0.019244585 1.7577626e-38 288 224
-0.037286382 0.68599999 0.019244585 1.665567e-38 289 224
-0.036083598 0.68599999 0.019244585 1.1497428e-38 290 224
-0.029806666 0.68000001 0.019076265 5.5306588e-39 295 224
-0.028572321 0.67900002 0.019048214 1.4822254e-38 296 224
-0.027381808 0.67900002 0.019048214 1.6112634e-38 297 224
-0.026229866 0.68000001 0.019076265 1.7765655e-38 298 224
-0.025037598 0.68000001 0.019076265 1.8041882e-38 299 224
-0.023810266 0.67900002 0.019048214 1.8412091e-38 300 224
-0.022619752 0.67900002 0.019048214 1.8412091e-38 301 224
-0.021429239 0.67900002 0.019048214 1.8320245e-38 302 224
-0.020238725 0.67900002 0.019048214 1.8044019e-38 303 224
-0.019048214 0.67900002 0.019048214 1.8592857e-38 304 224
-0.017883999 0.68000001 0.019076265 1.8223714e-38 305 224
-0.016691733 0.68000001 0.019076265 1.7855639e-38 306 224
-0.015499466 0.68000001 0.019076265 1.7302824e-38 307 224
-0.014307199 0.68000001 0.019076265 1.7483986e-38 308 224
-0.013114933 0.68000001 0.019076265 1.7207757e-38 309 224
-0.011922667 0.68000001 0.019076265 1.7298518e-38 310 224
-0.010761959 0.68199998 0.019132372 1.7114127e-38 311 224
-0.0095802136 0.68300003 0.019160427 1.7020855e-38 312 224
-0.0083826864 0.68300003 0.019160427 1.7020855e-38 313 224
-0.0071956799 0.68400002 0.01918848 1.6928659e-38 314 224
-0.0059964 0.68400002 0.01918848 1.6652433e-38 315 224
-0.0047971201 0.68400002 0.01918848 1.6743549e-38 316 224
-0.00360836 0.68599999 0.019244585 1.6466962e-38 317 224
-0.0024055731 0.68599999 0.019244585 1.6099609e-38 318 224
-0.0012027866 0.68599999 0.019244585 1.6007414e-38 319 224
0 0.68599999 0.019244585 1.6283275e-38 320 224
0.0012027866 0.68599999 0.019244585 1.6098883e-38 321 224
0.0024055731 0.68599999 0.019244585 1.5913416e-38 322 224
-0.043552797 0.69 0.018146999 1.7948572e-38 284 225
-0.042220265 0.68800002 0.0180944 1.73954e-38 285 225
-0.040954359 0.68699998 0.018068098 1.7670542e-38 286 225
-0.03957624 0.68400002 0.0179892 1.7855292e-38 287 225
-0.038320854 0.68300003 0.017962901 1.7947134e-38 288 225
-0.037123326 0.68300003 0.017962901 1.757835e-38 289 225
-0.035925802 0.68300003 0.017962901 1.2971126e-38 290 225
-0.029806666 0.68000001 0.017883999 5.2529859e-39 295 225
-0.028572321 0.67900002 0.017857701 1.2703913e-38 296 225
-0.027381808 0.67900002 0.017857701 1.4179401e-38 297 225
-0.026191294 0.67900002 0.017857701 1.6568198e-38 298 225
-0.025000781 0.67900002 0.017857701 1.7029536e-38 299 225
-0.023810266 0.67900002 0.017857701 1.8042235e-38 300 225
-0.022619752 0.67900002 0.017857701 1.8134432e-38 301 225
-0.021429239 0.67900002 0.017857701 1.8412444e-38 302 225
-0.020238725 0.67900002 0.017857701 1.8320248e-38 303 225
-0.019048214 0.67900002 0.017857701 1.831988e-38 304 225
-0.017857701 0.67900002 0.017857701 1.7858902e-38 305 225
-0.016667187 0.67900002 0.017857701 1.8130802e-38 306 225
-0.015476674 0.67900002 0.017857701 1.7669824e-38 307 225
-0.01428616 0.67900002 0.017857701 1.7485433e-38 308 225
-0.013095647 0.67900002 0.017857701 1.7024455e-38 309 225
-0.011905133 0.67900002 0.017857701 1.7115209e-38 310 225
-0.0107304 0.68000001 0.017883999 1.7022654e-38 311 225
-0.009566186 0.68199998 0.017936599 1.6930096e-38 312 225
-0.0083704125 0.68199998 0.017936599 1.6930096e-38 313 225
-0.0071851597 0.68300003 0.017962901 1.6744628e-38 314 225
-0.0059876335 0.68300003 0.017962901 1.6652433e-38 315 225
-0.0047901068 0.68300003 0.017962901 1.6467685e-38 316 225
-0.00359784 0.68400002 0.0179892 1.6283293e-38 317 225
-0.0024055731 0.68599999 0.018041799 1.6283646e-38 318 225
-0.0012027866 0.68599999 0.018041799 1.600706e-38 319 225
0 0.68599999 0.018041799 1.5915215e-38 320 225
0.0012027866 0.68599999 0.018041799 1.5823019e-38 321 225
0.0024055731 0.68599999 0.018041799 1.554823e-38 322 225
0.00360836 0.68599999 0.018041799 1.5456033e-38 323 225
0.0048251734 0.68800002 0.0180944 1.5177663e-38 324 225
0.0060314666 0.68800002 0.0180944 1.3610697e-38 325 225
0.0072587994 0.69 0.018146999 1.0754819e-38 326 225
-0.045772515 0.68699998 0.01686356 1.4634944e-38 282 226
-0.044567976 0.68699998 0.01686356 1.6386661e-38 283 226
-0.043363437 0.68699998 0.01686356 1.8040405e-38 284 226
-0.042097531 0.68599999 0.016839013 1.7948209e-38 285 226
-0.040775519 0.68400002 0.016789921 1.7947485e-38 286 226
-0.039518382 0.68300003 0.016765373 1.7947485e-38 287 226
-0.038320854 0.68300003 0.016765373 1.7854586e-38 288 226
-0.037068974 0.68199998 0.016740825 1.8131171e-38 289 226
-0.035873197 0.68199998 0.016740825 1.3433549e-38 290 226
-0.034677424 0.68199998 0.016740825 8.8237676e-39 291 226
-0.028530238 0.67799997 0.016642639 1.0584842e-38 296 226
-0.027341479 0.67799997 0.016642639 1.2889733e-38 297 226
-0.026152719 0.67799997 0.016642639 1.5829547e-38 298 226
-0.024963958 0.67799997 0.016642639 1.6751143e-38 299 226
-0.023775198 0.67799997 0.016642639 1.7487989e-38 300 226
-0.022586439 0.67799997 0.016642639 1.8133358e-38 301 226
-0.021397678 0.67799997 0.016642639 1.8227702e-38 302 226
-0.020208918 0.67799997 0.016642639 1.8412094e-38 303 226
-0.019020159 0.67799997 0.016642639 1.8412428e-38 304 226
-0.0178314 0.67799997 0.016642639 1.813584e-38 305 226
-0.016642639 0.67799997 0.016642639 1.8315911e-38 306 226
-0.015453878 0.67799997 0.016642639 1.7763096e-38 307 226
-0.014265119 0.67799997 0.016642639 1.7760575e-38 308 226
-0.013076359 0.67799997 0.016642639 1.748363e-38 309 226
-0.011887599 0.67799997 0.016642639 1.7390348e-38 310 226
-0.010698839 0.67799997 0.016642639 1.7298152e-38 311 226
-0.009524107 0.67900002 0.016667187 1.7113408e-38 312 226
-0.0083458666 0.68000001 0.016691733 1.7021211e-38 313 226
-0.0071535995 0.68000001 0.016691733 1.6928659e-38 314 226
-0.005978866 0.68199998 0.016740825 1.6652433e-38 315 226
-0.0047901068 0.68300003 0.016765373 1.6560237e-38 316 226
-0.0035925799 0.68300003 0.016765373 1.6375486e-38 317 226
-0.0023985601 0.68400002 0.016789921 1.6008135e-38 318 226
-0.00119928 0.68400002 0.016789921 1.5915581e-38 319 226
0 0.68400002 0.016789921 1.5915934e-38 320 226
0.00119928 0.68400002 0.016789921 1.5639707e-38 321 226
0.0023985601 0.68400002 0.016789921 1.5546781e-38 322 226
0.00359784 0.68400002 0.016789921 1.5546781e-38 323 226
0.0048181596 0.68699998 0.01686356 1.5364209e-38 324 226
0.0060314666 0.68800002 0.016888106 1.4995425e-38 325 226
0.0072377604 0.68800002 0.016888106 1.3796176e-38 326 226
0.0085054198 0.69300002 0.01701084 1.0200915e-38 327 226
0.0097204801 0.69300002 0.01701084 6.8905321e-39 328 226
0.01095132 0.69400001 0.017035386 1.0117361e-38 329 226
0.012168133 0.69400001 0.017035386 1.0583401e-38 330 226
-0.046977058 0.68699998 0.015659019 5.8911218e-39 281 227
-0.045772515 0.68699998 0.015659019 1.620299e-38 282 227
-0.044567976 0.68699998 0.015659019 1.7125305e-38 283 227
-0.043363437 0.68699998 0.015659019 1.7857104e-38 284 227
-0.042097531 0.68599999 0.015636226 1.7672711e-38 285 227
-0.040775519 0.68400002 0.01559064 1.7762743e-38 286 227
-0.039518382 0.68300003 0.015567848 1.7670547e-38 287 227
-0.038320854 0.68300003 0.015567848 1.7302131e-38 288 227
-0.037068974 0.68199998 0.015545053 1.7486882e-38 289 227
-0.035873197 0.68199998 0.015545053 1.3708326e-38 290 227
-0.034677424 0.68199998 0.015545053 8.4531746e-39 291 227
-0.028446076 0.676 0.015408293 8.836015e-39 296 227
-0.027260827 0.676 0.015408293 1.1786275e-38 297 227
-0.026075572 0.676 0.015408293 1.5922463e-38 298 227
-0.024963958 0.67799997 0.015453878 1.6290885e-38 299 227
-0.023775198 0.67799997 0.015453878 1.7118118e-38 300 227
-0.022586439 0.67799997 0.015453878 1.8039715e-38 301 227
-0.021397678 0.67799997 0.015453878 1.8319542e-38 302 227
-0.020208918 0.67799997 0.015453878 1.8688685e-38 303 227
-0.019020159 0.67799997 0.015453878 1.832133e-38 304 227
-0.0178314 0.67799997 0.015453878 1.813658e-38 305 227
-0.016642639 0.67799997 0.015453878 1.8135484e-38 306 227
-0.015453878 0.67799997 0.015453878 1.7397919e-38 307 227
-0.014265119 0.67799997 0.015453878 1.7580144e-38 308 227
-0.013076359 0.67799997 0.015453878 1.7027329e-38 309 227
-0.011887599 0.67799997 0.015453878 1.730032e-38 310 227
-0.010698839 0.67799997 0.015453878 1.6931177e-38 311 227
-0.0095100794 0.67799997 0.015453878 1.6929387e-38 312 227
-0.0083213197 0.67799997 0.015453878 1.6837191e-38 313 227
-0.0071325595 0.67799997 0.015453878 1.6652798e-38 314 227
-0.0059613334 0.68000001 0.015499466 1.6468407e-38 315 227
-0.004783093 0.68199998 0.015545053 1.6284373e-38 316 227
-0.0035925799 0.68300003 0.015567848 1.6192178e-38 317 227
-0.0023950534 0.68300003 0.015567848 1.5916665e-38 318 227
-0.00119928 0.68400002 0.01559064 1.563972e-38 319 227
0 0.68400002 0.01559064 1.5914512e-38 320 227
0.00119928 0.68400002 0.01559064 1.5914512e-38 321 227
0.0023985601 0.68400002 0.01559064 1.5546458e-38 322 227
0.00359784 0.68400002 0.01559064 1.5453902e-38 323 227
0.0048181596 0.68699998 0.015659019 1.5086201e-38 324 227
0.0060226996 0.68699998 0.015659019 1.5086201e-38 325 227
0.0072272392 0.68699998 0.015659019 1.5177668e-38 326 227
0.008480873 0.69099998 0.015750192 1.3979125e-38 327 227
0.0096924258 0.69099998 0.015750192 1.1396944e-38 328 227
0.010935539 0.69300002 0.015795778 8.2651947e-39 329 227
0.012150601 0.69300002 0.015795778 5.9822482e-39 330 227
0.013384946 0.69400001 0.015818574 9.3931264e-39 331 227
-0.055731449 0.69099998 0.014538639 1.3890539e-38 274 228
-0.054519895 0.69099998 0.014538639 1.5366028e-38 275 228
-0.048181597 0.68699998 0.014454478 5.2497055e-39 280 228
-0.046977058 0.68699998 0.014454478 6.1713016e-39 281 228
-0.045705888 0.68599999 0.01443344 1.629806e-38 282 228
-0.044503104 0.68599999 0.01443344 1.6851232e-38 283 228
-0.043300316 0.68599999 0.01443344 1.7672711e-38 284 228
-0.041974798 0.68400002 0.01439136 1.7304289e-38 285 228
-0.040775519 0.68400002 0.01439136 1.7577643e-38 286 228
-0.039518382 0.68300003 0.014370319 1.7209219e-38 287 228
-0.038320854 0.68300003 0.014370319 1.711702e-38 288 228
-0.037068974 0.68199998 0.01434928 1.7301412e-38 289 228
-0.035767999 0.68000001 0.014307199 1.4537713e-38 290 228
-0.034575731 0.68000001 0.014307199 1.0020128e-38 291 228
-0.028446076 0.676 0.014223038 6.5365333e-39 296 228
-0.027260827 0.676 0.014223038 9.7633789e-39 297 228
-0.026075572 0.676 0.014223038 1.50963e-38 298 228
-0.024890319 0.676 0.014223038 1.555692e-38 299 228
-0.023705067 0.676 0.014223038 1.7024119e-38 300 228
-0.022519812 0.676 0.014223038 1.7946434e-38 301 228
-0.021334561 0.676 0.014223038 1.795112e-38 302 228
-0.020149305 0.676 0.014223038 1.8596489e-38 303 228
-0.018964052 0.676 0.014223038 1.8412447e-38 304 228
-0.017778801 0.676 0.014223038 1.8227697e-38 305 228
-0.016593546 0.676 0.014223038 1.8318787e-38 306 228
-0.015408293 0.676 0.014223038 1.7765613e-38 307 228
-0.014223038 0.676 0.014223038 1.7764165e-38 308 228
-0.013037786 0.676 0.014223038 1.7210992e-38 309 228
-0.011852534 0.676 0.014223038 1.7391433e-38 310 228
-0.01066728 0.676 0.014223038 1.702301e-38 311 228
-0.0094820261 0.676 0.014223038 1.6929743e-38 312 228
-0.0083213197 0.67799997 0.014265119 1.6837546e-38 313 228
-0.0071325595 0.67799997 0.014265119 1.6835748e-38 314 228
-0.0059437994 0.67799997 0.014265119 1.6743193e-38 315 228
-0.0047690663 0.68000001 0.014307199 1.6375486e-38 316 228
-0.00358732 0.68199998 0.01434928 1.628329e-38 317 228
-0.0023915465 0.68199998 0.01434928 1.6007779e-38 318 228
-0.0011975267 0.68300003 0.014370319 1.5915584e-38 319 228
0 0.68300003 0.014370319 1.5823035e-38 320 228
0.0011975267 0.68300003 0.014370319 1.5639004e-38 321 228
0.0023950534 0.68300003 0.014370319 1.5546458e-38 322 228
0.00359784 0.68400002 0.01439136 1.5361706e-38 323 228
0.0048111463 0.68599999 0.01443344 1.5177668e-38 324 228
0.0060226996 0.68699998 0.014454478 1.4993637e-38 325 228
0.0072272392 0.68699998 0.014454478 1.4901802e-38 326 228
0.0084686 0.69 0.014517599 1.4441182e-38 327 228
0.0096783992 0.69 0.014517599 1.3336277e-38 328 228
0.010935539 0.69300002 0.014580719 1.0293826e-38 329 228
0.012150601 0.69300002 0.014580719 8.2720134e-39 330 228
0.013384946 0.69400001 0.01460176 9.9318948e-39 331 228
-0.057107817 0.69300002 0.01336566 1.3992095e-38 273 229
-0.055731449 0.69099998 0.013327086 1.674931e-38 274 229
-0.054519895 0.69099998 0.013327086 1.7118092e-38 275 229
-0.053308345 0.69099998 0.013327086 1.7486529e-38 276 229
-0.049386136 0.68699998 0.013249939 9.0989126e-39 279 229
-0.048181597 0.68699998 0.013249939 5.1596762e-39 280 229
-0.046908677 0.68599999 0.013230653 5.8050456e-39 281 229
-0.045705888 0.68599999 0.013230653 1.5930355e-38 282 229
-0.04437336 0.68400002 0.01319208 1.6114747e-38 283 229
-0.043174081 0.68400002 0.01319208 1.739433e-38 284 229
-0.041913435 0.68300003 0.013172794 1.7302133e-38 285 229
-0.040656291 0.68199998 0.013153506 1.711667e-38 286 229
-0.039460517 0.68199998 0.013153506 1.6932279e-38 287 229
-0.038264744 0.68199998 0.013153506 1.6839357e-38 288 229
-0.037068974 0.68199998 0.013153506 1.720814e-38 289 229
-0.035767999 0.68000001 0.013114933 1.5365672e-38 290 229
-0.034575731 0.68000001 0.013114933 1.2138826e-38 291 229
-0.027260827 0.676 0.013037786 7.3720561e-39 297 229
-0.026075572 0.676 0.013037786 1.3900659e-38 298 229
-0.024890319 0.676 0.013037786 1.4730421e-38 299 229
-0.023705067 0.676 0.013037786 1.693122e-38 300 229
-0.022519812 0.676 0.013037786 1.7576589e-38 301 229
-0.021334561 0.676 0.013037786 1.7582333e-38 302 229
-0.020149305 0.676 0.013037786 1.8412094e-38 303 229
-0.018935999 0.67500001 0.0130185 1.8412091e-38 304 229
-0.0177525 0.67500001 0.0130185 1.8227699e-38 305 229
-0.016569 0.67500001 0.0130185 1.8134415e-38 306 229
-0.0153855 0.67500001 0.0130185 1.7765274e-38 307 229
-0.014202001 0.67500001 0.0130185 1.7396484e-38 308 229
-0.0130185 0.67500001 0.0130185 1.6935146e-38 309 229
-0.011835 0.67500001 0.0130185 1.7024106e-38 310 229
-0.01066728 0.676 0.013037786 1.6839713e-38 311 229
-0.0094820261 0.676 0.013037786 1.6930108e-38 312 229
-0.0082967728 0.676 0.013037786 1.6745717e-38 313 229
-0.0071325595 0.67799997 0.013076359 1.6560237e-38 314 229
-0.0059437994 0.67799997 0.013076359 1.6375486e-38 315 229
-0.0047620535 0.67900002 0.013095647 1.6283646e-38 316 229
-0.0035715401 0.67900002 0.013095647 1.6283646e-38 317 229
-0.0023810267 0.67900002 0.013095647 1.5915581e-38 318 229
-0.0011957732 0.68199998 0.013153506 1.5915581e-38 319 229
0 0.68199998 0.013153506 1.5823388e-38 320 229
0.0011975267 0.68300003 0.013172794 1.5639357e-38 321 229
0.0023950534 0.68300003 0.013172794 1.5454258e-38 322 229
0.0035925799 0.68300003 0.013172794 1.5454258e-38 323 229
0.0047971201 0.68400002 0.01319208 1.5178394e-38 324 229
0.0060226996 0.68699998 0.013249939 1.5086198e-38 325 229
0.0072272392 0.68699998 0.013249939 1.4626297e-38 326 229
0.0084317802 0.68699998 0.013249939 1.4441545e-38 327 229
0.0096503468 0.68800002 0.013269227 1.4256432e-38 328 229
0.01090398 0.69099998 0.013327086 1.3242639e-38 329 229
0.012097999 0.69 0.0133078 1.0202718e-38 330 229
0.0133078 0.69 0.0133078 8.2666296e-39 331 229
-0.057107817 0.69300002 0.012150601 1.5645856e-38 273 230
-0.055650797 0.69 0.012097999 1.7301765e-38 274 230
-0.054440998 0.69 0.012097999 1.7301765e-38 275 230
-0.053231198 0.69 0.012097999 1.7395052e-38 276 230
-0.049386136 0.68699998 0.012045399 8.4539089e-39 279 230
-0.048181597 0.68699998 0.012045399 4.5157558e-39 280 230
-0.046908677 0.68599999 0.012027865 5.5295476e-39 281 230
-0.045705888 0.68599999 0.012027865 1.5377195e-38 282 230
-0.044308487 0.68300003 0.011975267 1.5746336e-38 283 230
-0.043110959 0.68300003 0.011975267 1.7025916e-38 284 230
-0.041852064 0.68199998 0.011957732 1.6841525e-38 285 230
-0.040656291 0.68199998 0.011957732 1.7114871e-38 286 230
-0.039460517 0.68199998 0.011957732 1.6930121e-38 287 230
-0.038264744 0.68199998 0.011957732 1.665425e-38 288 230
-0.036960267 0.68000001 0.011922667 1.6930477e-38 289 230
-0.035767999 0.68000001 0.011922667 1.5550423e-38 290 230
-0.027260827 0.676 0.011852534 5.711104e-39 297 230
-0.026075572 0.676 0.011852534 9.946331e-39 298 230
-0.0248535 0.67500001 0.011835 1.1974635e-38 299 230
-0.023669999 0.67500001 0.011835 1.6197257e-38 300 230
-0.022486499 0.67500001 0.011835 1.656568e-38 301 230
-0.021303 0.67500001 0.011835 1.7120633e-38 302 230
-0.020119499 0.67500001 0.011835 1.8134785e-38 303 230
-0.018907947 0.67400002 0.011817466 1.8412094e-38 304 230
-0.0177262 0.67400002 0.011817466 1.7951117e-38 305 230
-0.016544454 0.67400002 0.011817466 1.7857475e-38 306 230
-0.015362706 0.67400002 0.011817466 1.7488692e-38 307 230
-0.01418096 0.67400002 0.011817466 1.730178e-38 308 230
-0.012999214 0.67400002 0.011817466 1.7025193e-38 309 230
-0.011817466 0.67400002 0.011817466 1.7023753e-38 310 230
-0.0106515 0.67500001 0.011835 1.683936e-38 311 230
-0.0094679995 0.67500001 0.011835 1.693083e-38 312 230
-0.0082844999 0.67500001 0.011835 1.674644e-38 313 230
-0.0071115191 0.676 0.011852534 1.6652796e-38 314 230
-0.0059437994 0.67799997 0.011887599 1.6468404e-38 315 230
-0.0047550397 0.67799997 0.011887599 1.6192529e-38 316 230
-0.0035662798 0.67799997 0.011887599 1.6099975e-38 317 230
-0.0023775198 0.67799997 0.011887599 1.6007779e-38 318 230
-0.0011905134 0.67900002 0.011905133 1.5823388e-38 319 230
0 0.68199998 0.011957732 1.5822313e-38 320 230
0.0011957732 0.68199998 0.011957732 1.5730118e-38 321 230
0.0023915465 0.68199998 0.011957732 1.5454258e-38 322 230
0.0035925799 0.68300003 0.011975267 1.5362062e-38 323 230
0.0047971201 0.68400002 0.0119928 1.5269511e-38 324 230
0.0060139326 0.68599999 0.012027865 1.5177315e-38 325 230
0.0072167199 0.68599999 0.012027865 1.4627015e-38 326 230
0.0084317802 0.68699998 0.012045399 1.4350429e-38 327 230
0.0096503468 0.68800002 0.012062933 1.4349352e-38 328 230
0.010888199 0.69 0.012097999 1.4165321e-38 329 230
0.012097999 0.69 0.012097999 1.2139182e-38 330 230
0.013269227 0.68800002 0.012062933 9.5577075e-39 331 230
0.014475521 0.68800002 0.012062933 8.3685306e-39 332 230
-0.057107817 0.69300002 0.010935539 1.6656761e-38 273 231
-0.055650797 0.69 0.010888199 1.7209216e-38 274 231
-0.054440998 0.69 0.010888199 1.7485802e-38 275 231
-0.053231198 0.69 0.010888199 1.7303585e-38 276 231
-0.052021399 0.69 0.010888199 1.8225181e-38 277 231
-0.050590675 0.68699998 0.010840859 1.3248084e-38 278 231
-0.049386136 0.68699998 0.010840859 8.0851306e-39 279 231
-0.048181597 0.68699998 0.010840859 4.3310114e-39 280 231
-0.04670354 0.68300003 0.01077774 5.4369988e-39 281 231
-0.045506012 0.68300003 0.01077774 1.5099182e-38 282 231
-0.044308487 0.68300003 0.01077774 1.5744551e-38 283 231
-0.043047838 0.68199998 0.010761959 1.6841172e-38 284 231
-0.041852064 0.68199998 0.010761959 1.6472748e-38 285 231
-0.040656291 0.68199998 0.010761959 1.6929405e-38 286 231
-0.039344799 0.68000001 0.0107304 1.6560981e-38 287 231
-0.038152531 0.68000001 0.0107304 1.6377306e-38 288 231
-0.036960267 0.68000001 0.0107304 1.6469501e-38 289 231
-0.035767999 0.68000001 0.0107304 1.582665e-38 290 231
-0.026075572 0.676 0.01066728 5.9884027e-39 298 231
-0.0248535 0.67500001 0.0106515 9.2152498e-39 299 231
-0.023669999 0.67500001 0.0106515 1.5003749e-38 300 231
-0.022486499 0.67500001 0.0106515 1.5464727e-38 301 231
-0.021271439 0.67400002 0.01063572 1.7026991e-38 302 231
-0.020089693 0.67400002 0.01063572 1.8225534e-38 303 231
-0.018851839 0.67199999 0.010604159 1.7951473e-38 304 231
-0.017673599 0.67199999 0.010604159 1.758233e-38 305 231
-0.01649536 0.67199999 0.010604159 1.7304304e-38 306 231
-0.01531712 0.67199999 0.010604159 1.6935523e-38 307 231
-0.01418096 0.67400002 0.01063572 1.7025193e-38 308 231
-0.012960639 0.67199999 0.010604159 1.6841162e-38 309 231
-0.011782399 0.67199999 0.010604159 1.6841159e-38 310 231
-0.010604159 0.67199999 0.010604159 1.6748964e-38 311 231
-0.0094539737 0.67400002 0.01063572 1.7023379e-38 312 231
-0.0082722269 0.67400002 0.01063572 1.6746793e-38 313 231
-0.0070904801 0.67400002 0.01063572 1.6745347e-38 314 231
-0.0059262668 0.676 0.01066728 1.6560956e-38 315 231
-0.0047410131 0.676 0.01066728 1.6192529e-38 316 231
-0.0035557596 0.676 0.01066728 1.6099975e-38 317 231
-0.0023775198 0.67799997 0.010698839 1.6007779e-38 318 231
-0.0011887599 0.67799997 0.010698839 1.5823388e-38 319 231
0 0.67799997 0.010698839 1.5822313e-38 320 231
0.0011922666 0.68000001 0.0107304 1.5637921e-38 321 231
0.0023845332 0.68000001 0.0107304 1.5454258e-38 322 231
0.0035767998 0.68000001 0.0107304 1.5362062e-38 323 231
0.004783093 0.68199998 0.010761959 1.5177318e-38 324 231
0.0059876335 0.68300003 0.01077774 1.5177318e-38 325 231
0.0071956799 0.68400002 0.01079352 1.4901451e-38 326 231
0.0084195063 0.68599999 0.010825079 1.4809256e-38 327 231
0.0096363192 0.68699998 0.010840859 1.4258236e-38 328 231
0.010888199 0.69 0.010888199 1.416604e-38 329 231
0.012097999 0.69 0.010888199 1.3245526e-38 330 231
0.013269227 0.68800002 0.010856641 1.1862591e-38 331 231
0.014475521 0.68800002 0.010856641 8.9173884e-39 332 231
-0.059967503 0.69800001 0.0097906133 1.1322382e-38 271 232
-0.058575355 0.69599998 0.0097625591 1.5731931e-38 272 232
-0.057107817 0.69300002 0.0097204801 1.7207421e-38 273 232
-0.055650797 0.69 0.0096783992 1.6656761e-38 274 232
-0.054283202 0.68800002 0.0096503468 1.6749317e-38 275 232
-0.052999757 0.68699998 0.0096363192 1.7117392e-38 276 232
-0.051795214 0.68699998 0.0096363192 1.7854957e-38 277 232
-0.050590675 0.68699998 0.0096363192 1.297042e-38 278 232
-0.049386136 0.68699998 0.0096363192 8.1762458e-39 279 232
-0.047901068 0.68300003 0.0095802136 4.1480621e-39 280 232
-0.04670354 0.68300003 0.0095802136 4.6090388e-39 281 232
-0.045439381 0.68199998 0.009566186 1.4638929e-38 282 232
-0.044243611 0.68199998 0.009566186 1.5284299e-38 283 232
-0.043047838 0.68199998 0.009566186 1.6472395e-38 284 232
-0.041852064 0.68199998 0.009566186 1.6195808e-38 285 232
-0.040537067 0.68000001 0.0095381327 1.6560625e-38 286 232
-0.039344799 0.68000001 0.0095381327 1.6376234e-38 287 232
-0.038096428 0.67900002 0.009524107 1.6284389e-38 288 232
-0.036905911 0.67900002 0.009524107 1.6284389e-38 289 232
-0.024743039 0.67199999 0.0094259195 6.0881542e-39 299 232
-0.023564799 0.67199999 0.0094259195 1.3531515e-38 300 232
-0.022386558 0.67199999 0.0094259195 1.5928242e-38 301 232
-0.021208318 0.67199999 0.0094259195 1.7580186e-38 302 232
-0.020030079 0.67199999 0.0094259195 1.8041163e-38 303 232
-0.018851839 0.67199999 0.0094259195 1.7579093e-38 304 232
-0.017673599 0.67199999 0.0094259195 1.6933724e-38 305 232
-0.01649536 0.67199999 0.0094259195 1.6564568e-38 306 232
-0.01531712 0.67199999 0.0094259195 1.6564568e-38 307 232
-0.01413888 0.67199999 0.0094259195 1.6472373e-38 308 232
-0.012960639 0.67199999 0.0094259195 1.6656764e-38 309 232
-0.011782399 0.67199999 0.0094259195 1.6841878e-38 310 232
-0.010604159 0.67199999 0.0094259195 1.6841878e-38 311 232
-0.0094539737 0.67400002 0.0094539737 1.7024828e-38 312 232
-0.0082722269 0.67400002 0.0094539737 1.6932273e-38 313 232
-0.0070904801 0.67400002 0.0094539737 1.6930108e-38 314 232
-0.0059174998 0.67500001 0.0094679995 1.646913e-38 315 232
-0.0047339997 0.67500001 0.0094679995 1.6468404e-38 316 232
-0.0035505001 0.67500001 0.0094679995 1.609998e-38 317 232
-0.0023705065 0.676 0.0094820261 1.6007426e-38 318 232
-0.0011852533 0.676 0.0094820261 1.5639004e-38 319 232
0 0.67799997 0.0095100794 1.5822319e-38 320 232
0.0011905134 0.67900002 0.009524107 1.5730123e-38 321 232
0.0023810267 0.67900002 0.009524107 1.5453902e-38 322 232
0.0035715401 0.67900002 0.009524107 1.5361706e-38 323 232
0.0047690663 0.68000001 0.0095381327 1.5086201e-38 324 232
0.005978866 0.68199998 0.009566186 1.4993647e-38 325 232
0.0071851597 0.68300003 0.0095802136 1.4718139e-38 326 232
0.0084195063 0.68599999 0.0096222926 1.4718139e-38 327 232
0.0096363192 0.68699998 0.0096363192 1.3983091e-38 328 232
0.010856641 0.68800002 0.0096503468 1.3798699e-38 329 232
0.012062933 0.68800002 0.0096503468 1.3430637e-38 330 232
0.013269227 0.68800002 0.0096503468 1.2969659e-38 331 232
0.014475521 0.68800002 0.0096503468 9.744261e-39 332 232
-0.061103668 0.69700003 0.0085545136 1.0582299e-38 270 233
-0.059795678 0.69599998 0.0085422397 1.1780842e-38 271 233
-0.058407038 0.69400001 0.0085176928 1.6012101e-38 272 233
-0.057107817 0.69300002 0.0085054198 1.6380525e-38 273 233
-0.055650797 0.69 0.0084686 1.6289058e-38 274 233
-0.054283202 0.68800002 0.0084440531 1.6381253e-38 275 233
-0.052999757 0.68699998 0.0084317802 1.6655339e-38 276 233
-0.051795214 0.68699998 0.0084317802 1.7208513e-38 277 233
-0.050590675 0.68699998 0.0084317802 1.297041e-38 278 233
-0.049314249 0.68599999 0.0084195063 8.1758773e-39 279 233
-0.047901068 0.68300003 0.0083826864 3.7764013e-39 280 233
-0.04670354 0.68300003 0.0083826864 4.2377396e-39 281 233
-0.045439381 0.68199998 0.0083704125 1.399356e-38 282 233
-0.044243611 0.68199998 0.0083704125 1.4915516e-38 283 233
-0.043047838 0.68199998 0.0083704125 1.6380197e-38 284 233
-0.041729335 0.68000001 0.0083458666 1.6011414e-38 285 233
-0.040537067 0.68000001 0.0083458666 1.6377306e-38 286 233
-0.039344799 0.68000001 0.0083458666 1.610072e-38 287 233
-0.038040318 0.67799997 0.0083213197 1.5917401e-38 288 233
-0.036742851 0.676 0.0082967728 1.573337e-38 289 233
-0.035505001 0.67500001 0.0082844999 1.5549691e-38 290 233
-0.034321502 0.67500001 0.0082844999 1.5918833e-38 291 233
-0.024743039 0.67199999 0.00824768 4.4272035e-39 299 233
-0.023529733 0.671 0.0082354061 9.7612279e-39 300 233
-0.022353247 0.671 0.0082354061 1.2711848e-38 301 233
-0.021176759 0.671 0.0082354061 1.6386336e-38 302 233
-0.020030079 0.67199999 0.00824768 1.6201586e-38 303 233
-0.018851839 0.67199999 0.00824768 1.6657487e-38 304 233
-0.017673599 0.67199999 0.00824768 1.6012118e-38 305 233
-0.01649536 0.67199999 0.00824768 1.5735902e-38 306 233
-0.01531712 0.67199999 0.00824768 1.5735902e-38 307 233
-0.01413888 0.67199999 0.00824768 1.6195452e-38 308 233
-0.012960639 0.67199999 0.00824768 1.6748626e-38 309 233
-0.011782399 0.67199999 0.00824768 1.7118821e-38 310 233
-0.010604159 0.67199999 0.00824768 1.7302854e-38 311 233
-0.0094259195 0.67199999 0.00824768 1.7302471e-38 312 233
-0.00824768 0.67199999 0.00824768 1.7025526e-38 313 233
-0.0070694401 0.67199999 0.00824768 1.6931531e-38 314 233
-0.0059087332 0.67400002 0.0082722269 1.6470552e-38 315 233
-0.0047269869 0.67400002 0.0082722269 1.6560237e-38 316 233
-0.00354524 0.67400002 0.0082722269 1.628329e-38 317 233
-0.0023669999 0.67500001 0.0082844999 1.6007782e-38 318 233
-0.0011834999 0.67500001 0.0082844999 1.5639001e-38 319 233
0 0.676 0.0082967728 1.5546452e-38 320 233
0.0011887599 0.67799997 0.0083213197 1.5546452e-38 321 233
0.0023775198 0.67799997 0.0083213197 1.5178394e-38 322 233
0.0035662798 0.67799997 0.0083213197 1.5178394e-38 323 233
0.0047620535 0.67900002 0.0083335936 1.4994722e-38 324 233
0.005978866 0.68199998 0.0083704125 1.4718136e-38 325 233
0.00717464 0.68199998 0.0083704125 1.4901804e-38 326 233
0.0083826864 0.68300003 0.0083826864 1.4625576e-38 327 233
0.0095942402 0.68400002 0.0083949603 1.4166037e-38 328 233
0.010856641 0.68800002 0.0084440531 1.3981646e-38 329 233
0.012062933 0.68800002 0.0084440531 1.3705412e-38 330 233
0.013269227 0.68800002 0.0084440531 1.3521021e-38 331 233
0.014475521 0.68800002 0.0084440531 1.1772541e-38 332 233
-0.061103668 0.69700003 0.00733244 9.6578219e-39 270 234
-0.059795678 0.69599998 0.0073219193 1.1963073e-38 271 234
-0.058407038 0.69400001 0.0073008798 1.5829505e-38 272 234
-0.057107817 0.69300002 0.0072903596 1.5368528e-38 273 234
-0.055650797 0.69 0.0072587994 1.6654598e-38 274 234
-0.054283202 0.68800002 0.0072377604 1.6562402e-38 275 234
-0.052999757 0.68699998 0.0072272392 1.6746811e-38 276 234
-0.051795214 0.68699998 0.0072272392 1.7484376e-38 277 234
-0.050590675 0.68699998 0.0072272392 1.3156236e-38 278 234
-0.049314249 0.68599999 0.0072167199 7.8088898e-39 279 234
-0.047901068 0.68300003 0.0071851597 2.8530044e-39 280 234
-0.04670354 0.68300003 0.0071851597 3.6831238e-39 281 234
-0.045439381 0.68199998 0.00717464 1.3070527e-38 282 234
-0.044243611 0.68199998 0.00717464 1.4730409e-38 283 234
-0.042921599 0.68000001 0.0071535995 1.5921016e-38 284 234
-0.041729335 0.68000001 0.0071535995 1.5552234e-38 285 234
-0.040537067 0.68000001 0.0071535995 1.6009244e-38 286 234
-0.039286941 0.67900002 0.0071430802 1.5917048e-38 287 234
-0.037928104 0.676 0.0071115191 1.5640814e-38 288 234
-0.036688499 0.67500001 0.0071010003 1.5548619e-38 289 234
-0.035505001 0.67500001 0.0071010003 1.5364225e-38 290 234
-0.034321502 0.67500001 0.0071010003 1.5364225e-38 291 234
-0.023529733 0.671 0.0070589199 1.7614434e-39 300 234
-0.022353247 0.671 0.0070589199 5.8180525e-39 301 234
-0.021176759 0.671 0.0070589199 1.2978707e-38 302 234
-0.020030079 0.67199999 0.0070694401 1.3439685e-38 303 234
-0.018851839 0.67199999 0.0070694401 1.5087307e-38 304 234
-0.017673599 0.67199999 0.0070694401 1.4810719e-38 305 234
-0.01649536 0.67199999 0.0070694401 1.5911659e-38 306 234
-0.01531712 0.67199999 0.0070694401 1.6557028e-38 307 234
-0.01413888 0.67199999 0.0070694401 1.6377303e-38 308 234
-0.012941353 0.671 0.0070589199 1.7299619e-38 309 234
-0.011764866 0.671 0.0070589199 1.7487245e-38 310 234
-0.01058838 0.671 0.0070589199 1.7671995e-38 311 234
-0.0094259195 0.67199999 0.0070694401 1.7857109e-38 312 234
-0.00824768 0.67199999 0.0070694401 1.7303935e-38 313 234
-0.0070694401 0.67199999 0.0070694401 1.6931553e-38 314 234
-0.0058911997 0.67199999 0.0070694401 1.6193988e-38 315 234
-0.0047129598 0.67199999 0.0070694401 1.6284023e-38 316 234
-0.00354524 0.67400002 0.0070904801 1.6099271e-38 317 234
-0.0023634934 0.67400002 0.0070904801 1.591488e-38 318 234
-0.0011817467 0.67400002 0.0070904801 1.5546458e-38 319 234
0 0.67500001 0.0071010003 1.5637217e-38 320 234
0.0011834999 0.67500001 0.0071010003 1.536099e-38 321 234
0.0023705065 0.676 0.0071115191 1.5085845e-38 322 234
0.0035557596 0.676 0.0071115191 1.5085845e-38 323 234
0.0047620535 0.67900002 0.0071430802 1.4901454e-38 324 234
0.0059525664 0.67900002 0.0071430802 1.4901454e-38 325 234
0.0071535995 0.68000001 0.0071535995 1.4442275e-38 326 234
0.0083704125 0.68199998 0.00717464 1.4442275e-38 327 234
0.0095802136 0.68300003 0.0071851597 1.4166403e-38 328 234
0.010825079 0.68599999 0.0072167199 1.3982372e-38 329 234
0.012062933 0.68800002 0.0072377604 1.3523189e-38 330 234
0.013269227 0.68800002 0.0072377604 1.3154406e-38 331 234
0.014517599 0.69 0.0072587994 1.2694504e-38 332 234
0.015909746 0.69800001 0.0073429602 1.1679992e-38 333 234
0.017133573 0.69800001 0.0073429602 7.915097e-39 334 234
-0.062325738 0.69700003 0.0061103669 1.2612776e-38 269 235
-0.060840666 0.69400001 0.0060840664 9.6556569e-39 270 235
-0.05953794 0.69300002 0.0060753003 1.232933e-38 271 235
-0.058322877 0.69300002 0.0060753003 1.5461089e-38 272 235
-0.056942999 0.69099998 0.0060577663 1.5276698e-38 273 235
-0.055650797 0.69 0.0060489997 1.6194344e-38 274 235
-0.054283202 0.68800002 0.0060314666 1.6194344e-38 275 235
-0.052999757 0.68699998 0.0060226996 1.6286554e-38 276 235
-0.051795214 0.68699998 0.0060226996 1.7116673e-38 277 235
-0.050590675 0.68699998 0.0060226996 1.3156587e-38 278 235
-0.049314249 0.68599999 0.0060139326 7.993993e-39 279 235
-0.047901068 0.68300003 0.0059876335 3.0341587e-39 280 235
-0.046635158 0.68199998 0.005978866 3.7720727e-39 281 235
-0.045439381 0.68199998 0.005978866 1.1965979e-38 282 235
-0.044113863 0.68000001 0.0059613334 1.3809892e-38 283 235
-0.042921599 0.68000001 0.0059613334 1.5828818e-38 284 235
-0.041667968 0.67900002 0.0059525664 1.5275644e-38 285 235
-0.040477451 0.67900002 0.0059525664 1.5733733e-38 286 235
-0.039229076 0.67799997 0.0059437994 1.554934e-38 287 235
-0.037871998 0.67500001 0.0059174998 1.5456426e-38 288 235
-0.036634147 0.67400002 0.0059087332 1.536423e-38 289 235
-0.035452399 0.67400002 0.0059087332 1.5087998e-38 290 235
