# .PCD v.7 - Point Cloud Data file format
FIELDS x y z rgb imX imY
SIZE 4 4 4 4 4 4
TYPE F F F F F F
COUNT 1 1 1 1 1 1
WIDTH 830
HEIGHT 1
VIEWPOINT 0 0 0 1 0 0 0
POINTS 830
DATA ascii
-0.0089349858 0.72799999 -0.0038292799 1.5457187e-38 313 243
-0.0076585598 0.72799999 -0.0038292799 1.5733401e-38 314 243
-0.0063821329 0.72799999 -0.0038292799 1.5733401e-38 315 243
-0.0051057064 0.72799999 -0.0038292799 1.5915991e-38 316 243
-0.0038292799 0.72799999 -0.0038292799 1.5915991e-38 317 243
-0.0025528532 0.72799999 -0.0038292799 1.5915991e-38 318 243
-0.0012764266 0.72799999 -0.0038292799 1.5547568e-38 319 243
0 0.72799999 -0.0038292799 1.573088e-38 320 243
0.0012764266 0.72799999 -0.0038292799 1.6007468e-38 321 243
0.0025528532 0.72799999 -0.0038292799 1.536497e-38 322 243
0.0038292799 0.72799999 -0.0038292799 1.3889839e-38 323 243
0.0050986931 0.727 -0.0038240198 1.0850976e-38 324 243
0.0063733663 0.727 -0.0038240198 7.9007225e-39 325 243
0.0076585598 0.72799999 -0.0038292799 3.0305714e-39 326 243
0.0089349858 0.72799999 -0.0038292799 3.3060779e-39 327 243
0.010211413 0.72799999 -0.0038292799 9.2587993e-41 328 243
0.01148784 0.72799999 -0.0038292799 3.9236357e-43 329 243
0.012764266 0.72799999 -0.0038292799 2.030134e-39 330 243
0.014040692 0.72799999 -0.0038292799 4.7963616e-39 331 243
0.01531712 0.72799999 -0.0038292799 1.0583438e-38 332 243
0.016593546 0.72799999 -0.0038292799 1.2058208e-38 333 243
0.017869972 0.72799999 -0.0038292799 1.3156982e-38 334 243
0.0191464 0.72799999 -0.0038292799 1.3064786e-38 335 243
0.020478934 0.73000002 -0.0038397999 1.3431397e-38 336 243
0.021758866 0.73000002 -0.0038397999 1.3523594e-38 337 243
0.023038799 0.73000002 -0.0038397999 1.3431394e-38 338 243
0.024352046 0.73100001 -0.00384506 1.3431394e-38 339 243
0.025633732 0.73100001 -0.00384506 1.3431031e-38 340 243
0.026989058 0.73299998 -0.0038555798 1.3338835e-38 341 243
0.028274251 0.73299998 -0.0038555798 1.3339188e-38 342 243
0.029599773 0.73400003 -0.0038608401 1.3339188e-38 343 243
0.030970879 0.736 -0.0038713599 1.3155873e-38 344 243
0.032261331 0.736 -0.0038713599 1.3063678e-38 345 243
0.033642959 0.73799998 -0.0038818798 1.288001e-38 346 243
0.034936916 0.73799998 -0.0038818798 1.288001e-38 347 243
0.036279973 0.73900002 -0.00388714 1.2879656e-38 348 243
0.037575684 0.73900002 -0.00388714 1.3063688e-38 349 243
0.0388714 0.73900002 -0.00388714 1.2789624e-38 350 243
0.04027582 0.741 -0.0038976599 1.3158407e-38 351 243
0.041631144 0.74199998 -0.0039029196 1.2793945e-38 352 243
0.042932119 0.74199998 -0.0039029196 1.3347117e-38 353 243
0.044352323 0.74400002 -0.0039134403 1.3166689e-38 354 243
0.045779534 0.74599999 -0.0039239596 1.3812058e-38 355 243
-0.054418206 0.75700003 -0.0053090933 1.7606491e-38 279 244
-0.053090934 0.75700003 -0.0053090933 1.5008436e-38 280 244
-0.051626898 0.755 -0.0052950666 1.4823686e-38 281 244
-0.050303131 0.755 -0.0052950666 1.5561241e-38 282 244
-0.048979364 0.755 -0.0052950666 1.5008068e-38 283 244
-0.04759248 0.75400001 -0.0052880533 1.5004471e-38 284 244
-0.046270464 0.75400001 -0.0052880533 1.4635689e-38 285 244
-0.044829223 0.75199997 -0.0052740262 1.4632092e-38 286 244
-0.04351072 0.75199997 -0.0052740262 1.4448061e-38 287 244
-0.04208 0.75 -0.00526 1.4538458e-38 288 244
-0.040710647 0.74900001 -0.0052529867 1.4538458e-38 289 244
-0.039292198 0.74699998 -0.0052389596 1.4629574e-38 290 244
-0.03798246 0.74699998 -0.0052389596 1.4629574e-38 291 244
-0.036525439 0.74400002 -0.0052179201 1.4628499e-38 292 244
-0.03512628 0.74199998 -0.0052038929 1.4628499e-38 293 244
-0.033825304 0.74199998 -0.0052038929 1.4903644e-38 294 244
-0.032524332 0.74199998 -0.0052038929 1.4903644e-38 295 244
-0.031223357 0.74199998 -0.0052038929 1.5088026e-38 296 244
-0.029882059 0.741 -0.0051968796 1.5088026e-38 297 244
-0.028582839 0.741 -0.0051968796 1.5088382e-38 298 244
-0.027209979 0.73900002 -0.0051828534 1.5180577e-38 299 244
-0.025914267 0.73900002 -0.0051828534 1.4722489e-38 300 244
-0.024585238 0.73799998 -0.0051758396 1.2510154e-38 301 244
-0.023228159 0.736 -0.005161813 6.9921192e-39 302 244
-0.021878093 0.73400003 -0.0051477868 2.5713939e-39 303 244
-0.020563092 0.73299998 -0.005140773 3.2189409e-39 304 244
-0.019277899 0.73299998 -0.005140773 6.1688409e-39 305 244
-0.017992707 0.73299998 -0.005140773 8.4704793e-39 306 244
-0.016707512 0.73299998 -0.005140773 5.8890016e-39 307 244
-0.01538024 0.73100001 -0.0051267464 3.0305938e-39 308 244
-0.014098554 0.73100001 -0.0051267464 4.133354e-39 309 244
-0.012799333 0.73000002 -0.0051197335 6.2646589e-39 310 244
-0.011519399 0.73000002 -0.0051197335 9.5837016e-39 311 244
-0.010239467 0.73000002 -0.0051197335 1.5093459e-38 312 244
-0.0089349858 0.72799999 -0.0051057064 1.4448089e-38 313 244
-0.0076585598 0.72799999 -0.0051057064 1.5642647e-38 314 244
-0.0063821329 0.72799999 -0.0051057064 1.5642647e-38 315 244
-0.0051057064 0.72799999 -0.0051057064 1.5734124e-38 316 244
-0.0038292799 0.72799999 -0.0051057064 1.5641928e-38 317 244
-0.0025528532 0.72799999 -0.0051057064 1.5732332e-38 318 244
-0.0012764266 0.72799999 -0.0051057064 1.5547582e-38 319 244
0 0.72799999 -0.0051057064 1.5546861e-38 320 244
0.0012764266 0.72799999 -0.0051057064 1.5546861e-38 321 244
0.0025528532 0.72799999 -0.0051057064 1.4997634e-38 322 244
0.0038292799 0.72799999 -0.0051057064 1.4444461e-38 323 244
0.0051057064 0.72799999 -0.0051057064 1.407495e-38 324 244
0.0063821329 0.72799999 -0.0051057064 1.2876766e-38 325 244
0.0076585598 0.72799999 -0.0051057064 1.0202739e-38 326 244
0.0089349858 0.72799999 -0.0051057064 7.6223462e-39 327 244
0.010211413 0.72799999 -0.0051057064 9.2015843e-40 328 244
0.01148784 0.72799999 -0.0051057064 1.0127128e-39 329 244
0.012799333 0.73000002 -0.0051197335 3.6882035e-40 330 244
0.014079267 0.73000002 -0.0051197335 1.198581e-39 331 244
0.0153592 0.73000002 -0.0051197335 3.3158351e-39 332 244
0.016593546 0.72799999 -0.0051057064 5.9898671e-39 333 244
0.017869972 0.72799999 -0.0051057064 1.0676354e-38 334 244
0.019199001 0.73000002 -0.0051197335 1.1598309e-38 335 244
0.020478934 0.73000002 -0.0051197335 1.3158057e-38 336 244
0.021788673 0.73100001 -0.0051267464 1.2881471e-38 337 244
0.02307036 0.73100001 -0.0051267464 1.3431034e-38 338 244
0.024418673 0.73299998 -0.005140773 1.3431034e-38 339 244
0.025703866 0.73299998 -0.005140773 1.3430312e-38 340 244
0.02702588 0.73400003 -0.0051477868 1.3430312e-38 341 244
0.028312827 0.73400003 -0.0051477868 1.3245918e-38 342 244
0.029680425 0.736 -0.005161813 1.3245918e-38 343 244
0.030970879 0.736 -0.005161813 1.3063322e-38 344 244
0.032348998 0.73799998 -0.0051758396 1.3063322e-38 345 244
0.033688545 0.73900002 -0.0051828534 1.2788533e-38 346 244
0.034984261 0.73900002 -0.0051828534 1.2788533e-38 347 244
0.036279973 0.73900002 -0.0051828534 1.2697066e-38 348 244
0.037575684 0.73900002 -0.0051828534 1.2881097e-38 349 244
0.038976599 0.741 -0.0051968796 1.2699231e-38 350 244
0.04027582 0.741 -0.0051968796 1.3067653e-38 351 244
0.041575037 0.741 -0.0051968796 1.2979776e-38 352 244
0.042932119 0.74199998 -0.0052038929 1.3348919e-38 353 244
-0.054418206 0.75700003 -0.0066363667 1.9452209e-38 279 245
-0.052950665 0.755 -0.0066188332 1.6488603e-38 280 245
-0.051626898 0.755 -0.0066188332 1.4552494e-38 281 245
-0.050303131 0.755 -0.0066188332 1.5378645e-38 282 245
-0.048979364 0.755 -0.0066188332 1.5193895e-38 283 245
-0.047655597 0.755 -0.0066188332 1.4822599e-38 284 245
-0.046270464 0.75400001 -0.0066100666 1.4361619e-38 285 245
-0.044948451 0.75400001 -0.0066100666 1.4909035e-38 286 245
-0.04351072 0.75199997 -0.0065925326 1.4448058e-38 287 245
-0.04219221 0.75199997 -0.0065925326 1.4539174e-38 288 245
-0.040764999 0.75 -0.006575 1.4354782e-38 289 245
-0.0393974 0.74900001 -0.0065662335 1.435371e-38 290 245
-0.03798246 0.74699998 -0.0065486995 1.4261515e-38 291 245
-0.036672719 0.74699998 -0.0065486995 1.4536307e-38 292 245
-0.035220962 0.74400002 -0.0065223998 1.4628502e-38 293 245
-0.033916477 0.74400002 -0.0065223998 1.481217e-38 294 245
-0.032524332 0.74199998 -0.0065048663 1.481217e-38 295 245
-0.031223357 0.74199998 -0.0065048663 1.4904e-38 296 245
-0.029882059 0.741 -0.0064960998 1.4811446e-38 297 245
-0.028582839 0.741 -0.0064960998 1.4720673e-38 298 245
-0.027209979 0.73900002 -0.0064785667 1.4905064e-38 299 245
-0.025914267 0.73900002 -0.0064785667 1.4263678e-38 300 245
-0.024585238 0.73799998 -0.0064697997 1.0391463e-38 301 245
-0.023228159 0.736 -0.0064522666 3.8639572e-39 302 245
-0.021878093 0.73400003 -0.006434733 5.5101298e-40 303 245
-0.020563092 0.73299998 -0.0064259665 4.3227647e-39 304 245
-0.019277899 0.73299998 -0.0064259665 8.2871768e-39 305 245
-0.017992707 0.73299998 -0.0064259665 1.2889377e-38 306 245
-0.016707512 0.73299998 -0.0064259665 1.1230215e-38 307 245
-0.01538024 0.73100001 -0.006408433 7.5323254e-39 308 245
-0.014098554 0.73100001 -0.006408433 5.4182943e-39 309 245
-0.012816866 0.73100001 -0.006408433 2.3031139e-39 310 245
-0.011519399 0.73000002 -0.0063996664 6.082776e-39 311 245
-0.010239467 0.73000002 -0.0063996664 1.1784518e-38 312 245
-0.0089349858 0.72799999 -0.0063821329 1.2706476e-38 313 245
-0.0076585598 0.72799999 -0.0063821329 1.5093093e-38 314 245
-0.0063821329 0.72799999 -0.0063821329 1.5093093e-38 315 245
-0.0051057064 0.72799999 -0.0063821329 1.5368585e-38 316 245
-0.0038292799 0.72799999 -0.0063821329 1.527639e-38 317 245
-0.0025528532 0.72799999 -0.0063821329 1.5366067e-38 318 245
-0.0012764266 0.72799999 -0.0063821329 1.5181676e-38 319 245
0 0.72799999 -0.0063821329 1.5088757e-38 320 245
0.0012764266 0.72799999 -0.0063821329 1.4996562e-38 321 245
0.0025528532 0.72799999 -0.0063821329 1.4629208e-38 322 245
0.0038292799 0.72799999 -0.0063821329 1.4352261e-38 323 245
0.0051057064 0.72799999 -0.0063821329 1.4536304e-38 324 245
0.0063821329 0.72799999 -0.0063821329 1.4444108e-38 325 245
0.0076795998 0.73000002 -0.0063996664 1.3246268e-38 326 245
0.0089349858 0.72799999 -0.0063821329 1.0388202e-38 327 245
0.010211413 0.72799999 -0.0063821329 6.7079373e-39 328 245
0.01148784 0.72799999 -0.0063821329 5.7863537e-39 329 245
0.012764266 0.72799999 -0.0063821329 2.1122346e-39 330 245
0.014098554 0.73100001 -0.006408433 1.6530501e-39 331 245
0.01538024 0.73100001 -0.006408433 9.3675401e-41 332 245
0.016639132 0.73000002 -0.0063996664 1.3844142e-39 333 245
0.017919067 0.73000002 -0.0063996664 6.9035543e-39 334 245
0.019199001 0.73000002 -0.0063996664 8.5634358e-39 335 245
0.020478934 0.73000002 -0.0063996664 1.1595067e-38 336 245
0.021788673 0.73100001 -0.006408433 1.1963849e-38 337 245
0.02307036 0.73100001 -0.006408433 1.3065137e-38 338 245
0.024418673 0.73299998 -0.0064259665 1.297294e-38 339 245
0.025703866 0.73299998 -0.0064259665 1.3155167e-38 340 245
0.02702588 0.73400003 -0.006434733 1.2970776e-38 341 245
0.028312827 0.73400003 -0.006434733 1.3153367e-38 342 245
0.029680425 0.736 -0.0064522666 1.3245921e-38 343 245
0.031055039 0.73799998 -0.0064697997 1.2971126e-38 344 245
0.032348998 0.73799998 -0.0064697997 1.2971126e-38 345 245
0.033688545 0.73900002 -0.0064785667 1.2788533e-38 346 245
0.034984261 0.73900002 -0.0064785667 1.2788533e-38 347 245
0.036279973 0.73900002 -0.0064785667 1.2698504e-38 348 245
0.037677377 0.741 -0.0064960998 1.2882896e-38 349 245
0.038976599 0.741 -0.0064960998 1.2792864e-38 350 245
0.04027582 0.741 -0.0064960998 1.3069811e-38 351 245
0.041575037 0.741 -0.0064960998 1.3072692e-38 352 245
0.042874258 0.741 -0.0064960998 1.3626226e-38 353 245
-0.052950665 0.755 -0.0079425992 1.8706708e-38 280 246
-0.051626898 0.755 -0.0079425992 1.5664252e-38 281 246
-0.050303131 0.755 -0.0079425992 1.5193901e-38 282 246
-0.048979364 0.755 -0.0079425992 1.5378292e-38 283 246
-0.047655597 0.755 -0.0079425992 1.5193182e-38 284 246
-0.04633183 0.755 -0.0079425992 1.4547813e-38 285 246
-0.044948451 0.75400001 -0.00793208 1.4911922e-38 286 246
-0.043626439 0.75400001 -0.00793208 1.4543141e-38 287 246
-0.042304426 0.75400001 -0.00793208 1.444879e-38 288 246
-0.040873703 0.75199997 -0.0079110395 1.4172563e-38 289 246
-0.039449997 0.75 -0.00789 1.4171117e-38 290 246
-0.038084153 0.74900001 -0.0078794798 1.4078921e-38 291 246
-0.036770906 0.74900001 -0.0078794798 1.4352991e-38 292 246
-0.035362978 0.74699998 -0.0078584393 1.4352991e-38 293 246
-0.033916477 0.74400002 -0.0078268806 1.4536307e-38 294 246
-0.032612 0.74400002 -0.0078268806 1.4536307e-38 295 246
-0.031223357 0.74199998 -0.0078058392 1.4719972e-38 296 246
-0.029922385 0.74199998 -0.0078058392 1.4719972e-38 297 246
-0.028582839 0.741 -0.0077953199 1.4444461e-38 298 246
-0.027209979 0.73900002 -0.0077742799 1.4905079e-38 299 246
-0.025914267 0.73900002 -0.0077742799 1.3711603e-38 300 246
-0.024618553 0.73900002 -0.0077742799 8.087311e-39 301 246
-0.023291279 0.73799998 -0.0077637597 1.4573504e-42 302 246
-0.021878093 0.73400003 -0.0077216802 0 303 246
-0.020591147 0.73400003 -0.0077216802 5.5195059e-39 304 246
-0.019304199 0.73400003 -0.0077216802 9.4839179e-39 305 246
-0.018017253 0.73400003 -0.0077216802 1.4357676e-38 306 246
-0.016707512 0.73299998 -0.0077111595 1.4633903e-38 307 246
-0.015422319 0.73299998 -0.0077111595 1.3708338e-38 308 246
-0.014137126 0.73299998 -0.0077111595 9.1907523e-39 309 246
-0.012816866 0.73100001 -0.00769012 2.0203935e-39 310 246
-0.01153518 0.73100001 -0.00769012 2.5714149e-39 311 246
-0.010239467 0.73000002 -0.0076795998 2.680918e-39 312 246
-0.0089595336 0.73000002 -0.0076795998 7.6594806e-39 313 246
-0.0076795998 0.73000002 -0.0076795998 1.4635747e-38 314 246
-0.0063821329 0.72799999 -0.0076585598 1.5004528e-38 315 246
-0.0051057064 0.72799999 -0.0076585598 1.5094905e-38 316 246
-0.0038292799 0.72799999 -0.0076585598 1.4634285e-38 317 246
-0.0025528532 0.72799999 -0.0076585598 1.5092374e-38 318 246
-0.0012764266 0.72799999 -0.0076585598 1.4723231e-38 319 246
0 0.73000002 -0.0076795998 1.4906534e-38 320 246
0.0012764266 0.72799999 -0.0076585598 1.4445556e-38 321 246
0.0025528532 0.72799999 -0.0076585598 1.4536307e-38 322 246
0.0038292799 0.72799999 -0.0076585598 1.4444111e-38 323 246
0.0051057064 0.72799999 -0.0076585598 1.4168246e-38 324 246
0.0063821329 0.72799999 -0.0076585598 1.4260443e-38 325 246
0.0076795998 0.73000002 -0.0076795998 1.4258994e-38 326 246
0.0089349858 0.72799999 -0.0076585598 1.4074603e-38 327 246
0.010211413 0.72799999 -0.0076585598 1.2873889e-38 328 246
0.01148784 0.72799999 -0.0076585598 1.0661194e-38 329 246
0.012816866 0.73100001 -0.00769012 5.8799969e-39 330 246
0.014098554 0.73100001 -0.00769012 3.6734198e-39 331 246
0.01538024 0.73100001 -0.00769012 1.1020666e-39 332 246
0.016661927 0.73100001 -0.00769012 1.0102297e-39 333 246
0.017943613 0.73100001 -0.00769012 1.1294466e-42 334 246
0.019225299 0.73100001 -0.00769012 8.3341105e-40 335 246
0.020506985 0.73100001 -0.00769012 6.3507337e-39 336 246
0.021788673 0.73100001 -0.00769012 8.6559846e-39 337 246
0.02307036 0.73100001 -0.00769012 1.2514499e-38 338 246
0.024418673 0.73299998 -0.0077111595 1.2238271e-38 339 246
0.025703866 0.73299998 -0.0077111595 1.3154814e-38 340 246
0.02702588 0.73400003 -0.0077216802 1.2878227e-38 341 246
0.028389972 0.736 -0.0077427197 1.3245565e-38 342 246
0.029761078 0.73799998 -0.0077637597 1.3245565e-38 343 246
0.031055039 0.73799998 -0.0077637597 1.2971129e-38 344 246
0.032392833 0.73900002 -0.0077742799 1.3063325e-38 345 246
0.033688545 0.73900002 -0.0077742799 1.2788177e-38 346 246
0.035078939 0.741 -0.0077953199 1.2972927e-38 347 246
0.036378156 0.741 -0.0077953199 1.2607032e-38 348 246
0.037677377 0.741 -0.0077953199 1.3068009e-38 349 246
0.0390292 0.74199998 -0.0078058392 1.2886146e-38 350 246
0.040330172 0.74199998 -0.0078058392 1.3254568e-38 351 246
0.041631144 0.74199998 -0.0078058392 1.3258533e-38 352 246
0.042932119 0.74199998 -0.0078058392 1.3351087e-38 353 246
-0.051626898 0.755 -0.0092663663 1.6867128e-38 281 247
-0.050303131 0.755 -0.0092663663 1.5197148e-38 282 247
-0.048979364 0.755 -0.0092663663 1.4920201e-38 283 247
-0.04778184 0.75700003 -0.0092909131 1.5471208e-38 284 247
-0.046454567 0.75700003 -0.0092909131 1.4825839e-38 285 247
-0.045008067 0.755 -0.0092663663 1.4913354e-38 286 247
-0.043684296 0.755 -0.0092663663 1.4636408e-38 287 247
-0.042304426 0.75400001 -0.0092540924 1.4633887e-38 288 247
-0.040873703 0.75199997 -0.0092295464 1.4265465e-38 289 247
-0.039555199 0.75199997 -0.0092295464 1.4448056e-38 290 247
-0.038135 0.75 -0.0092049995 1.4171467e-38 291 247
-0.036819998 0.75 -0.0092049995 1.4353708e-38 292 247
-0.03545766 0.74900001 -0.0091927266 1.4353708e-38 293 247
-0.034053236 0.74699998 -0.0091681797 1.4352991e-38 294 247
-0.032699663 0.74599999 -0.0091559067 1.4352991e-38 295 247
-0.031307522 0.74400002 -0.0091313599 1.435371e-38 296 247
-0.029922385 0.74199998 -0.009106813 1.4261515e-38 297 247
-0.028621411 0.74199998 -0.009106813 1.4352638e-38 298 247
-0.027283618 0.741 -0.0090945391 1.4629224e-38 299 247
-0.025984399 0.741 -0.0090945391 1.1963499e-38 300 247
-0.024685178 0.741 -0.0090945391 5.4183265e-39 301 247
-0.023291279 0.73799998 -0.0090577193 9.8090893e-45 302 247
-0.021878093 0.73400003 -0.0090086265 1.5414283e-44 303 247
-0.020591147 0.73400003 -0.0090086265 7.9093896e-39 304 247
-0.019304199 0.73400003 -0.0090086265 1.1873802e-38 305 247
-0.018017253 0.73400003 -0.0090086265 1.4077862e-38 306 247
-0.016707512 0.73299998 -0.0089963535 1.4262612e-38 307 247
-0.015422319 0.73299998 -0.0089963535 1.4540976e-38 308 247
-0.014137126 0.73299998 -0.0089963535 1.3250237e-38 309 247
-0.012851933 0.73299998 -0.0089963535 1.0386424e-38 310 247
-0.01153518 0.73100001 -0.0089718066 8.1737291e-39 311 247
-0.010253493 0.73100001 -0.0089718066 6.4900017e-40 312 247
-0.0089595336 0.73000002 -0.0089595336 5.166586e-39 313 247
-0.0076795998 0.73000002 -0.0089595336 1.013402e-38 314 247
-0.0063996664 0.73000002 -0.0089595336 1.1885738e-38 315 247
-0.0051197335 0.73000002 -0.0089595336 1.4546065e-38 316 247
-0.0038292799 0.72799999 -0.0089349858 1.399325e-38 317 247
-0.0025528532 0.72799999 -0.0089349858 1.4449888e-38 318 247
-0.0012764266 0.72799999 -0.0089349858 1.4081465e-38 319 247
0 0.73000002 -0.0089595336 1.4354806e-38 320 247
0.0012764266 0.72799999 -0.0089349858 1.4170414e-38 321 247
0.0025528532 0.72799999 -0.0089349858 1.4077496e-38 322 247
0.0038292799 0.72799999 -0.0089349858 1.3985301e-38 323 247
0.0051057064 0.72799999 -0.0089349858 1.4075697e-38 324 247
0.0063821329 0.72799999 -0.0089349858 1.3983501e-38 325 247
0.0076795998 0.73000002 -0.0089595336 1.3983136e-38 326 247
0.0089349858 0.72799999 -0.0089349858 1.4259362e-38 327 247
0.010211413 0.72799999 -0.0089349858 1.3707972e-38 328 247
0.01148784 0.72799999 -0.0089349858 1.2693819e-38 329 247
0.012816866 0.73100001 -0.0089718066 1.1220118e-38 330 247
0.014098554 0.73100001 -0.0089718066 8.4538907e-39 331 247
0.01538024 0.73100001 -0.0089718066 5.9693115e-39 332 247
0.016661927 0.73100001 -0.0089718066 4.9591168e-39 333 247
0.017943613 0.73100001 -0.0089718066 1.0102115e-39 334 247
0.019277899 0.73299998 -0.0089963535 1.0102115e-39 335 247
0.020563092 0.73299998 -0.0089963535 2.3928082e-39 336 247
0.021848286 0.73299998 -0.0089963535 4.2367208e-39 337 247
0.023133477 0.73299998 -0.0089963535 7.2726942e-39 338 247
0.024451986 0.73400003 -0.0090086265 8.8400185e-39 339 247
0.025738932 0.73400003 -0.0090086265 1.1595067e-38 340 247
0.027173158 0.73799998 -0.0090577193 1.1687262e-38 341 247
0.028467119 0.73799998 -0.0090577193 1.2879303e-38 342 247
0.029801406 0.73900002 -0.0090699932 1.2879303e-38 343 247
0.03109712 0.73900002 -0.0090699932 1.2787461e-38 344 247
0.032480497 0.741 -0.0090945391 1.2787461e-38 345 247
0.033779722 0.741 -0.0090945391 1.2697063e-38 346 247
0.035078939 0.741 -0.0090945391 1.297329e-38 347 247
0.036378156 0.741 -0.0090945391 1.2699953e-38 348 247
0.037728224 0.74199998 -0.009106813 1.2976539e-38 349 247
0.0390292 0.74199998 -0.009106813 1.2979429e-38 350 247
0.040330172 0.74199998 -0.009106813 1.3348213e-38 351 247
0.04174336 0.74400002 -0.0091313599 1.3259257e-38 352 247
0.043047838 0.74400002 -0.0091313599 1.4181213e-38 353 247
-0.050303131 0.755 -0.010590133 1.6214559e-38 282 248
-0.048979364 0.755 -0.010590133 1.4831625e-38 283 248
-0.04778184 0.75700003 -0.010618187 1.5287911e-38 284 248
-0.046454567 0.75700003 -0.010618187 1.4826933e-38 285 248
-0.045127295 0.75700003 -0.010618187 1.5098481e-38 286 248
-0.043684296 0.755 -0.010590133 1.4637503e-38 287 248
-0.042304426 0.75400001 -0.010576107 1.4636058e-38 288 248
-0.040982414 0.75400001 -0.010576107 1.4267275e-38 289 248
-0.039555199 0.75199997 -0.010548052 1.4449499e-38 290 248
-0.038236689 0.75199997 -0.010548052 1.4080716e-38 291 248
-0.036819998 0.75 -0.01052 1.4354782e-38 292 248
-0.03545766 0.74900001 -0.010505973 1.4078197e-38 293 248
-0.034053236 0.74699998 -0.010477919 1.4353345e-38 294 248
-0.032699663 0.74599999 -0.010463892 1.4353345e-38 295 248
-0.031391677 0.74599999 -0.010463892 1.4353342e-38 296 248
-0.030003037 0.74400002 -0.01043584 1.4261146e-38 297 248
-0.028621411 0.74199998 -0.010407786 1.4168963e-38 298 248
-0.027320439 0.74199998 -0.010407786 1.3615789e-38 299 248
-0.026019465 0.74199998 -0.010407786 9.4785356e-39 300 248
-0.024718491 0.74199998 -0.010407786 3.3979288e-39 301 248
-0.023291279 0.73799998 -0.010351679 2.7552611e-40 302 248
-0.021878093 0.73400003 -0.010295574 1.7492213e-39 303 248
-0.020591147 0.73400003 -0.010295574 9.5678347e-39 304 248
-0.019304199 0.73400003 -0.010295574 1.2610651e-38 305 248
-0.018017253 0.73400003 -0.010295574 1.3985301e-38 306 248
-0.016730307 0.73400003 -0.010295574 1.3893105e-38 307 248
-0.01544336 0.73400003 -0.010295574 1.4169692e-38 308 248
-0.014156413 0.73400003 -0.010295574 1.5091647e-38 309 248
-0.012851933 0.73299998 -0.010281546 1.5091641e-38 310 248
-0.011566739 0.73299998 -0.010281546 1.195735e-38 311 248
-0.010281546 0.73299998 -0.010281546 4.6922759e-39 312 248
-0.0089718066 0.73100001 -0.010253493 3.0323945e-39 313 248
-0.00769012 0.73100001 -0.010253493 1.9476717e-39 314 248
-0.006408433 0.73100001 -0.010253493 7.571245e-39 315 248
-0.0051267464 0.73100001 -0.010253493 1.3994715e-38 316 248
-0.0038397999 0.73000002 -0.010239467 1.390216e-38 317 248
-0.0025598668 0.73000002 -0.010239467 1.4266594e-38 318 248
-0.0012799334 0.73000002 -0.010239467 1.3713421e-38 319 248
0 0.73000002 -0.010239467 1.4262623e-38 320 248
0.0012799334 0.73000002 -0.010239467 1.3894199e-38 321 248
0.0025598668 0.73000002 -0.010239467 1.4075711e-38 322 248
0.0038397999 0.73000002 -0.010239467 1.3891678e-38 323 248
0.0051197335 0.73000002 -0.010239467 1.3983151e-38 324 248
0.0063996664 0.73000002 -0.010239467 1.3890597e-38 325 248
0.0076795998 0.73000002 -0.010239467 1.3891306e-38 326 248
0.0089595336 0.73000002 -0.010239467 1.3891306e-38 327 248
0.010239467 0.73000002 -0.010239467 1.3523947e-38 328 248
0.011519399 0.73000002 -0.010239467 1.3616143e-38 329 248
0.012816866 0.73100001 -0.010253493 1.3707972e-38 330 248
0.014098554 0.73100001 -0.010253493 1.2786015e-38 331 248
0.01538024 0.73100001 -0.010253493 1.0571529e-38 332 248
0.016661927 0.73100001 -0.010253493 7.8978541e-39 333 248
0.017992707 0.73299998 -0.010281546 2.9387401e-39 334 248
0.019277899 0.73299998 -0.010281546 2.5713939e-39 335 248
0.020591147 0.73400003 -0.010295574 3.5032462e-44 336 248
0.021878093 0.73400003 -0.010295574 3.0828566e-44 337 248
0.023165042 0.73400003 -0.010295574 2.197236e-42 338 248
0.024451986 0.73400003 -0.010295574 2.3114096e-39 339 248
0.025809066 0.736 -0.010323626 8.2821602e-39 340 248
0.027173158 0.73799998 -0.010351679 1.0033518e-38 341 248
0.028467119 0.73799998 -0.010351679 1.2238271e-38 342 248
0.029801406 0.73900002 -0.010365707 1.2146075e-38 343 248
0.03109712 0.73900002 -0.010365707 1.2787473e-38 344 248
0.032480497 0.741 -0.010393759 1.2787473e-38 345 248
0.033779722 0.741 -0.010393759 1.2880747e-38 346 248
0.03512628 0.74199998 -0.010407786 1.3065139e-38 347 248
0.036427252 0.74199998 -0.010407786 1.2883638e-38 348 248
0.037728224 0.74199998 -0.010407786 1.3436811e-38 349 248
0.0390292 0.74199998 -0.010407786 1.3164187e-38 350 248
0.040438879 0.74400002 -0.01043584 1.353333e-38 351 248
0.04174336 0.74400002 -0.01043584 1.3535847e-38 352 248
0.043047838 0.74400002 -0.01043584 1.4918781e-38 353 248
-0.049368605 0.76099998 -0.012008579 1.5387688e-38 283 249
-0.048034318 0.76099998 -0.012008579 1.5564501e-38 284 249
-0.046577301 0.759 -0.01197702 1.4919131e-38 285 249
-0.045246519 0.759 -0.01197702 1.5283948e-38 286 249
-0.043684296 0.755 -0.011913899 1.4915166e-38 287 249
-0.042360533 0.755 -0.011913899 1.4821521e-38 288 249
-0.040982414 0.75400001 -0.01189812 1.445274e-38 289 249
-0.039660402 0.75400001 -0.01189812 1.4450931e-38 290 249
-0.038236689 0.75199997 -0.011866559 1.4173985e-38 291 249
-0.036819998 0.75 -0.011835 1.4355859e-38 292 249
-0.03545766 0.74900001 -0.01181922 1.4079272e-38 293 249
-0.034144413 0.74900001 -0.01181922 1.4261865e-38 294 249
-0.032699663 0.74599999 -0.011771879 1.4261865e-38 295 249
-0.031391677 0.74599999 -0.011771879 1.4261862e-38 296 249
-0.030003037 0.74400002 -0.011740319 1.4169667e-38 297 249
-0.02869856 0.74400002 -0.011740319 1.4261159e-38 298 249
-0.027394081 0.74400002 -0.011740319 1.2417605e-38 299 249
-0.026089599 0.74400002 -0.011740319 6.8113405e-39 300 249
-0.024718491 0.74199998 -0.01170876 2.2040701e-39 301 249
-0.023291279 0.73799998 -0.011645639 1.6537732e-39 302 249
-0.021937706 0.736 -0.01161408 4.6043935e-39 303 249
-0.020591147 0.73400003 -0.011582521 1.1591807e-38 304 249
-0.019304199 0.73400003 -0.011582521 1.3527915e-38 305 249
-0.018017253 0.73400003 -0.011582521 1.4075694e-38 306 249
-0.016730307 0.73400003 -0.011582521 1.4075694e-38 307 249
-0.01544336 0.73400003 -0.011582521 1.3892029e-38 308 249
-0.014156413 0.73400003 -0.011582521 1.4353007e-38 309 249
-0.012851933 0.73299998 -0.011566739 1.4358392e-38 310 249
-0.011566739 0.73299998 -0.011566739 1.3713023e-38 311 249
-0.010281546 0.73299998 -0.011566739 1.2327574e-38 312 249
-0.0089963535 0.73299998 -0.011566739 9.3773142e-39 313 249
-0.0077111595 0.73299998 -0.011566739 5.3337147e-39 314 249
-0.006408433 0.73100001 -0.01153518 7.4542128e-39 315 249
-0.0051267464 0.73100001 -0.01153518 8.8450926e-39 316 249
-0.00384506 0.73100001 -0.01153518 1.0873396e-38 317 249
-0.0025633732 0.73100001 -0.01153518 1.3805629e-38 318 249
-0.0012816866 0.73100001 -0.01153518 1.3437207e-38 319 249
0 0.73100001 -0.01153518 1.3894199e-38 320 249
0.0012799334 0.73000002 -0.011519399 1.3709808e-38 321 249
0.0025598668 0.73000002 -0.011519399 1.3616887e-38 322 249
0.0038397999 0.73000002 -0.011519399 1.3524691e-38 323 249
0.0051197335 0.73000002 -0.011519399 1.3706921e-38 324 249
0.0063996664 0.73000002 -0.011519399 1.3706921e-38 325 249
0.0076795998 0.73000002 -0.011519399 1.3615076e-38 326 249
0.0089595336 0.73000002 -0.011519399 1.3707272e-38 327 249
0.010239467 0.73000002 -0.011519399 1.3523227e-38 328 249
0.011519399 0.73000002 -0.011519399 1.3523227e-38 329 249
0.012816866 0.73100001 -0.01153518 1.3523944e-38 330 249
0.014098554 0.73100001 -0.01153518 1.3523944e-38 331 249
0.015422319 0.73299998 -0.011566739 1.2786015e-38 332 249
0.016707512 0.73299998 -0.011566739 1.1587472e-38 333 249
0.017992707 0.73299998 -0.011566739 9.1003573e-39 334 249
0.019304199 0.73400003 -0.011582521 6.8876622e-39 335 249
0.020591147 0.73400003 -0.011582521 2.4795724e-39 336 249
0.021937706 0.736 -0.01161408 1.7448772e-39 337 249
0.023228159 0.736 -0.01161408 2.5223372e-44 338 249
0.024518613 0.736 -0.01161408 7.3796021e-40 339 249
0.025879199 0.73799998 -0.011645639 2.8548626e-39 340 249
0.027173158 0.73799998 -0.011645639 4.5140252e-39 341 249
0.028467119 0.73799998 -0.011645639 8.0091662e-39 342 249
0.029801406 0.73900002 -0.01166142 9.115155e-39 343 249
0.03109712 0.73900002 -0.01166142 1.168582e-38 344 249
0.032480497 0.741 -0.01169298 1.2238635e-38 345 249
0.033825304 0.74199998 -0.01170876 1.2789997e-38 346 249
0.03512628 0.74199998 -0.01170876 1.315878e-38 347 249
0.036427252 0.74199998 -0.01170876 1.2793597e-38 348 249
0.037829921 0.74400002 -0.011740319 1.3346412e-38 349 249
0.039134398 0.74400002 -0.011740319 1.3165266e-38 350 249
0.040438879 0.74400002 -0.011740319 1.371844e-38 351 249
0.04185557 0.74599999 -0.011771879 1.3721324e-38 352 249
0.04316356 0.74599999 -0.011771879 1.5289008e-38 353 249
-0.048034318 0.76099998 -0.013342866 1.5659217e-38 284 250
-0.046577301 0.759 -0.0133078 1.4644705e-38 285 250
-0.045246519 0.759 -0.0133078 1.5193192e-38 286 250
-0.043800019 0.75700003 -0.013272733 1.4916965e-38 287 250
-0.042360533 0.755 -0.013237666 1.5006636e-38 288 250
-0.041036766 0.755 -0.013237666 1.4545657e-38 289 250
-0.039660402 0.75400001 -0.013220133 1.4636043e-38 290 250
-0.038338386 0.75400001 -0.013220133 1.4359096e-38 291 250
-0.036918186 0.75199997 -0.013185065 1.4541326e-38 292 250
-0.035599679 0.75199997 -0.013185065 1.4264379e-38 293 250
-0.034189999 0.75 -0.01315 1.4447328e-38 294 250
-0.032743499 0.74699998 -0.013097399 1.4355133e-38 295 250
-0.031391677 0.74599999 -0.013079867 1.4354414e-38 296 250
-0.03008369 0.74599999 -0.013079867 1.4354414e-38 297 250
-0.02869856 0.74400002 -0.0130448 1.3987098e-38 298 250
-0.027394081 0.74400002 -0.0130448 1.0944283e-38 299 250
-0.026089599 0.74400002 -0.0130448 3.8668467e-39 300 250
-0.024718491 0.74199998 -0.013009733 1.8381841e-39 301 250
-0.023385961 0.741 -0.0129922 3.496604e-39 302 250
-0.021937706 0.736 -0.012904533 7.0918734e-39 303 250
-0.020647252 0.736 -0.012904533 1.278818e-38 304 250
-0.019356798 0.736 -0.012904533 1.3710136e-38 305 250
-0.018066347 0.736 -0.012904533 1.3800539e-38 306 250
-0.016730307 0.73400003 -0.012869466 1.4076766e-38 307 250
-0.01544336 0.73400003 -0.012869466 1.361724e-38 308 250
-0.014156413 0.73400003 -0.012869466 1.3709437e-38 309 250
-0.012869466 0.73400003 -0.012869466 1.3436799e-38 310 250
-0.011582521 0.73400003 -0.012869466 1.4266199e-38 311 250
-0.010295574 0.73400003 -0.012869466 1.4725735e-38 312 250
-0.0089963535 0.73299998 -0.012851933 1.2605236e-38 313 250
-0.0077111595 0.73299998 -0.012851933 9.7464876e-39 314 250
-0.0064259665 0.73299998 -0.012851933 6.2448474e-39 315 250
-0.0051267464 0.73100001 -0.012816866 5.2480029e-39 316 250
-0.00384506 0.73100001 -0.012816866 9.3968048e-39 317 250
-0.0025633732 0.73100001 -0.012816866 1.2609612e-38 318 250
-0.0012816866 0.73100001 -0.012816866 1.2794005e-38 319 250
0 0.73299998 -0.012851933 1.3433944e-38 320 250
0.0012816866 0.73100001 -0.012816866 1.3341747e-38 321 250
0.0025633732 0.73100001 -0.012816866 1.3432495e-38 322 250
0.00384506 0.73100001 -0.012816866 1.33403e-38 323 250
0.0051267464 0.73100001 -0.012816866 1.3614723e-38 324 250
0.006408433 0.73100001 -0.012816866 1.3614723e-38 325 250
0.0076795998 0.73000002 -0.012799333 1.3523241e-38 326 250
0.0089595336 0.73000002 -0.012799333 1.3431045e-38 327 250
0.010239467 0.73000002 -0.012799333 1.3431397e-38 328 250
0.011519399 0.73000002 -0.012799333 1.3431397e-38 329 250
0.012816866 0.73100001 -0.012816866 1.3247716e-38 330 250
0.014098554 0.73100001 -0.012816866 1.3247716e-38 331 250
0.015422319 0.73299998 -0.012851933 1.35243e-38 332 250
0.016707512 0.73299998 -0.012851933 1.3432103e-38 333 250
0.018017253 0.73400003 -0.012869466 1.2325388e-38 334 250
0.019304199 0.73400003 -0.012869466 1.038928e-38 335 250
0.020647252 0.736 -0.012904533 6.6164647e-39 336 250
0.021937706 0.736 -0.012904533 5.2346233e-39 337 250
0.023291279 0.73799998 -0.012939599 2.2040631e-39 338 250
0.024585238 0.73799998 -0.012939599 2.1122248e-39 339 250
0.025879199 0.73799998 -0.012939599 1.1056245e-42 340 250
0.027209979 0.73900002 -0.012957133 2.1874269e-42 341 250
0.028505694 0.73900002 -0.012957133 2.7630173e-39 342 250
0.029801406 0.73900002 -0.012957133 5.3444949e-39 343 250
0.03118128 0.741 -0.0129922 9.1122712e-39 344 250
0.032480497 0.741 -0.0129922 1.0495206e-38 345 250
0.033825304 0.74199998 -0.013009733 1.1965281e-38 346 250
0.035220962 0.74400002 -0.0130448 1.2610651e-38 347 250
0.036623627 0.74599999 -0.013079867 1.2886875e-38 348 250
0.037829921 0.74400002 -0.0130448 1.3256017e-38 349 250
0.039134398 0.74400002 -0.0130448 1.298339e-38 350 250
0.040547583 0.74599999 -0.013079867 1.3536563e-38 351 250
0.04185557 0.74599999 -0.013079867 1.3540533e-38 352 250
-0.045365743 0.76099998 -0.014677152 1.5011677e-38 286 251
-0.044031456 0.76099998 -0.014677152 1.4642895e-38 287 251
-0.042697169 0.76099998 -0.014677152 1.509991e-38 288 251
-0.041036766 0.755 -0.014561433 1.4823323e-38 289 251
-0.039712999 0.755 -0.014561433 1.4821521e-38 290 251
-0.038338386 0.75400001 -0.014542146 1.4360544e-38 291 251
-0.037016369 0.75400001 -0.014542146 1.4451294e-38 292 251
-0.035599679 0.75199997 -0.014503572 1.4082872e-38 293 251
-0.034281172 0.75199997 -0.014503572 1.4173983e-38 294 251
-0.032831166 0.74900001 -0.014445714 1.3805559e-38 295 251
-0.031517919 0.74900001 -0.014445714 1.4171467e-38 296 251
-0.030124018 0.74699998 -0.014407139 1.4171467e-38 297 251
-0.028814279 0.74699998 -0.014407139 1.3436092e-38 298 251
-0.027504537 0.74699998 -0.014407139 8.826311e-39 299 251
-0.026194798 0.74699998 -0.014407139 9.2127246e-40 300 251
-0.024685178 0.741 -0.01429142 1.0134681e-39 301 251
-0.023385961 0.741 -0.01429142 4.6000775e-39 302 251
-0.021997318 0.73799998 -0.014233559 9.3020546e-39 303 251
-0.020703359 0.73799998 -0.014233559 1.3709057e-38 304 251
-0.019409399 0.73799998 -0.014233559 1.3801611e-38 305 251
-0.018066347 0.736 -0.014194986 1.3801258e-38 306 251
-0.016775893 0.736 -0.014194986 1.3893454e-38 307 251
-0.015485439 0.736 -0.014194986 1.352576e-38 308 251
-0.014194986 0.736 -0.014194986 1.352576e-38 309 251
-0.012869466 0.73400003 -0.014156413 1.3435367e-38 310 251
-0.011582521 0.73400003 -0.014156413 1.3711954e-38 311 251
-0.010295574 0.73400003 -0.014156413 1.3897424e-38 312 251
-0.0089963535 0.73299998 -0.014137126 1.3804869e-38 313 251
-0.0077111595 0.73299998 -0.014137126 1.3341376e-38 314 251
-0.0064259665 0.73299998 -0.014137126 1.0667703e-38 315 251
-0.005140773 0.73299998 -0.014137126 7.8129158e-39 316 251
-0.00384506 0.73100001 -0.014098554 8.1816997e-39 317 251
-0.0025633732 0.73100001 -0.014098554 8.8403926e-39 318 251
-0.0012851933 0.73299998 -0.014137126 1.0499913e-38 319 251
0 0.73299998 -0.014137126 1.3339231e-38 320 251
0.0012816866 0.73100001 -0.014098554 1.3523622e-38 321 251
0.0025633732 0.73100001 -0.014098554 1.343213e-38 322 251
0.00384506 0.73100001 -0.014098554 1.3339934e-38 323 251
0.005140773 0.73299998 -0.014137126 1.3339931e-38 324 251
0.0064259665 0.73299998 -0.014137126 1.3339931e-38 325 251
0.00769012 0.73100001 -0.014098554 1.3431048e-38 326 251
0.0089718066 0.73100001 -0.014098554 1.3431048e-38 327 251
0.010253493 0.73100001 -0.014098554 1.34314e-38 328 251
0.01153518 0.73100001 -0.014098554 1.3247368e-38 329 251
0.012816866 0.73100001 -0.014098554 1.3247363e-38 330 251
0.014137126 0.73299998 -0.014137126 1.3247363e-38 331 251
0.015422319 0.73299998 -0.014137126 1.3156239e-38 332 251
0.016730307 0.73400003 -0.014156413 1.3156239e-38 333 251
0.018017253 0.73400003 -0.014156413 1.3063678e-38 334 251
0.019356798 0.736 -0.014194986 1.2786731e-38 335 251
0.020647252 0.736 -0.014194986 1.1956248e-38 336 251
0.021937706 0.736 -0.014194986 1.0112336e-38 337 251
0.023228159 0.736 -0.014194986 7.1685721e-39 338 251
0.024618553 0.73900002 -0.014252847 5.3264588e-39 339 251
0.025914267 0.73900002 -0.014252847 0 340 251
0.027283618 0.741 -0.01429142 1.8511713e-40 341 251
0.028582839 0.741 -0.01429142 6.4288491e-40 342 251
0.029882059 0.741 -0.01429142 1.748515e-39 343 251
0.03118128 0.741 -0.01429142 2.6744216e-39 344 251
0.032612 0.74400002 -0.01434928 4.7945609e-39 345 251
0.034007654 0.74599999 -0.014387853 8.1060352e-39 346 251
0.03531564 0.74599999 -0.014387853 9.5808051e-39 347 251
0.036623627 0.74599999 -0.014387853 1.2154361e-38 348 251
0.03793161 0.74599999 -0.014387853 1.2707175e-38 349 251
0.039239597 0.74599999 -0.014387853 1.3077036e-38 350 251
0.040547583 0.74599999 -0.014387853 1.3906437e-38 351 251
0.04185557 0.74599999 -0.014387853 1.3083886e-38 352 251
-0.045425359 0.76200002 -0.01603248 1.5014201e-38 286 252
-0.044031456 0.76099998 -0.016011439 1.4552863e-38 287 252
-0.042697169 0.76099998 -0.016011439 1.5193901e-38 288 252
-0.041362885 0.76099998 -0.016011439 1.4825118e-38 289 252
-0.040028598 0.76099998 -0.016011439 1.5098816e-38 290 252
-0.038389232 0.755 -0.015885198 1.4729673e-38 291 252
-0.037065465 0.755 -0.015885198 1.4728944e-38 292 252
-0.035694357 0.75400001 -0.01586416 1.4451997e-38 293 252
-0.034281172 0.75199997 -0.015822079 1.435908e-38 294 252
-0.032874998 0.75 -0.01578 1.4082492e-38 295 252
-0.03156 0.75 -0.01578 1.435478e-38 296 252
-0.030204674 0.74900001 -0.01575896 1.4078553e-38 297 252
-0.028891427 0.74900001 -0.01575896 1.25163e-38 298 252
-0.027578179 0.74900001 -0.01575896 7.3533445e-39 299 252
-0.026089599 0.74400002 -0.015653761 1.5414283e-44 300 252
-0.024685178 0.741 -0.01559064 1.1078049e-39 301 252
-0.023385961 0.741 -0.01559064 7.0810736e-39 302 252
-0.022027127 0.73900002 -0.01554856 1.1967443e-38 303 252
-0.020731414 0.73900002 -0.01554856 1.3986723e-38 304 252
-0.019409399 0.73799998 -0.015527519 1.3710136e-38 305 252
-0.018115439 0.73799998 -0.015527519 1.3618665e-38 306 252
-0.016775893 0.736 -0.015485439 1.3618665e-38 307 252
-0.015485439 0.736 -0.015485439 1.3526116e-38 308 252
-0.014194986 0.736 -0.015485439 1.3618312e-38 309 252
-0.012869466 0.73400003 -0.01544336 1.3435013e-38 310 252
-0.011582521 0.73400003 -0.01544336 1.3435013e-38 311 252
-0.010295574 0.73400003 -0.01544336 1.3527565e-38 312 252
-0.0089963535 0.73299998 -0.015422319 1.4172934e-38 313 252
-0.0077111595 0.73299998 -0.015422319 1.4174727e-38 314 252
-0.0064259665 0.73299998 -0.015422319 1.2883988e-38 315 252
-0.005140773 0.73299998 -0.015422319 9.7443395e-39 316 252
-0.0038555798 0.73299998 -0.015422319 5.877504e-39 317 252
-0.0025703865 0.73299998 -0.015422319 5.157961e-39 318 252
-0.0012851933 0.73299998 -0.015422319 8.2000581e-39 319 252
0 0.73299998 -0.015422319 1.2145736e-38 320 252
0.0012851933 0.73299998 -0.015422319 1.2330486e-38 321 252
0.0025703865 0.73299998 -0.015422319 1.3248101e-38 322 252
0.0038555798 0.73299998 -0.015422319 1.3248101e-38 323 252
0.005140773 0.73299998 -0.015422319 1.3248101e-38 324 252
0.0064259665 0.73299998 -0.015422319 1.306407e-38 325 252
0.0077111595 0.73299998 -0.015422319 1.3247736e-38 326 252
0.0089963535 0.73299998 -0.015422319 1.3247736e-38 327 252
0.010253493 0.73100001 -0.01538024 1.3248087e-38 328 252
0.01153518 0.73100001 -0.01538024 1.3155533e-38 329 252
0.012851933 0.73299998 -0.015422319 1.3154814e-38 330 252
0.014137126 0.73299998 -0.015422319 1.3154814e-38 331 252
0.01544336 0.73400003 -0.01544336 1.3155523e-38 332 252
0.016730307 0.73400003 -0.01544336 1.3062969e-38 333 252
0.018066347 0.736 -0.015485439 1.3155167e-38 334 252
0.019356798 0.736 -0.015485439 1.3431394e-38 335 252
0.020647252 0.736 -0.015485439 1.3248438e-38 336 252
0.021937706 0.736 -0.015485439 1.2142091e-38 337 252
0.023322839 0.73900002 -0.01554856 1.0852056e-38 338 252
0.024718491 0.74199998 -0.015611678 8.9159479e-39 339 252
0.026019465 0.74199998 -0.015611678 5.0531047e-39 340 252
0.027394081 0.74400002 -0.015653761 4.4081038e-39 341 252
0.028775707 0.74599999 -0.015695838 1.7448968e-39 342 252
0.03008369 0.74599999 -0.015695838 1.8367337e-39 343 252
0.031391677 0.74599999 -0.015695838 2.805876e-40 344 252
0.032699663 0.74599999 -0.015695838 1.4791308e-39 345 252
0.034007654 0.74599999 -0.015695838 4.4247092e-39 346 252
0.03531564 0.74599999 -0.015695838 6.1764262e-39 347 252
0.036672719 0.74699998 -0.015716879 9.3038721e-39 348 252
0.03798246 0.74699998 -0.015716879 1.0502414e-38 349 252
0.039292198 0.74699998 -0.015716879 1.1516207e-38 350 252
0.040601939 0.74699998 -0.015716879 1.2806946e-38 351 252
-0.044089317 0.76200002 -0.01736852 1.4004012e-38 287 253
-0.042697169 0.76099998 -0.017345725 1.5196066e-38 288 253
-0.041362885 0.76099998 -0.017345725 1.4919838e-38 289 253
-0.040028598 0.76099998 -0.017345725 1.5100996e-38 290 253
-0.038490929 0.75700003 -0.017254554 1.4640377e-38 291 253
-0.037065465 0.755 -0.017208965 1.4547457e-38 292 253
-0.035741698 0.755 -0.017208965 1.3994283e-38 293 253
-0.034417931 0.755 -0.017208965 1.4268352e-38 294 253
-0.033050332 0.75400001 -0.017186172 1.40836e-38 295 253
-0.03172832 0.75400001 -0.017186172 1.426513e-38 296 253
-0.030325651 0.75199997 -0.017140586 1.3342815e-38 297 253
-0.029007144 0.75199997 -0.017140586 1.0676357e-38 298 253
-0.027688639 0.75199997 -0.017140586 5.9743785e-39 299 253
-0.026089599 0.74400002 -0.016958239 4.6242569e-40 300 253
-0.02478512 0.74400002 -0.016958239 2.8591533e-39 301 253
-0.023417519 0.74199998 -0.016912652 9.6603835e-39 302 253
-0.02208674 0.741 -0.016889861 1.3071623e-38 303 253
-0.020787518 0.741 -0.016889861 1.3803774e-38 304 253
-0.019488299 0.741 -0.016889861 1.3527547e-38 305 253
-0.018139986 0.73900002 -0.016844273 1.3710506e-38 306 253
-0.016821479 0.73799998 -0.016821479 1.3710506e-38 307 253
-0.015485439 0.736 -0.016775893 1.3617957e-38 308 253
-0.014194986 0.736 -0.016775893 1.3617957e-38 309 253
-0.012904533 0.736 -0.016775893 1.3434648e-38 310 253
-0.01161408 0.736 -0.016775893 1.3434648e-38 311 253
-0.010295574 0.73400003 -0.016730307 1.3526846e-38 312 253
-0.0090086265 0.73400003 -0.016730307 1.3803073e-38 313 253
-0.0077216802 0.73400003 -0.016730307 1.3529363e-38 314 253
-0.006434733 0.73400003 -0.016730307 1.3897787e-38 315 253
-0.0051477868 0.73400003 -0.016730307 1.186374e-38 316 253
-0.0038608401 0.73400003 -0.016730307 6.1529937e-39 317 253
-0.0025738934 0.73400003 -0.016730307 9.2199133e-40 318 253
-0.0012851933 0.73299998 -0.016707512 3.503469e-39 319 253
0 0.73299998 -0.016707512 9.9420515e-39 320 253
0.0012851933 0.73299998 -0.016707512 1.1048398e-38 321 253
0.0025703865 0.73299998 -0.016707512 1.3063717e-38 322 253
0.0038555798 0.73299998 -0.016707512 1.3247748e-38 323 253
0.005140773 0.73299998 -0.016707512 1.3064067e-38 324 253
0.0064259665 0.73299998 -0.016707512 1.3064067e-38 325 253
0.0077111595 0.73299998 -0.016707512 1.3064423e-38 326 253
0.0089963535 0.73299998 -0.016707512 1.3064423e-38 327 253
0.010281546 0.73299998 -0.016707512 1.3247733e-38 328 253
0.011566739 0.73299998 -0.016707512 1.3155536e-38 329 253
0.012869466 0.73400003 -0.016730307 1.3338485e-38 330 253
0.014156413 0.73400003 -0.016730307 1.3245931e-38 331 253
0.01544336 0.73400003 -0.016730307 1.315517e-38 332 253
0.016730307 0.73400003 -0.016730307 1.315517e-38 333 253
0.018115439 0.73799998 -0.016821479 1.3154814e-38 334 253
0.019409399 0.73799998 -0.016821479 1.3154814e-38 335 253
0.020703359 0.73799998 -0.016821479 1.2787827e-38 336 253
0.021997318 0.73799998 -0.016821479 1.2880022e-38 337 253
0.023322839 0.73900002 -0.016844273 1.2880728e-38 338 253
0.024718491 0.74199998 -0.016912652 1.241975e-38 339 253
0.026019465 0.74199998 -0.016912652 1.1590711e-38 340 253
0.027394081 0.74400002 -0.016958239 9.7468001e-39 341 253
0.028775707 0.74599999 -0.017003827 5.7028083e-39 342 253
0.03008369 0.74599999 -0.017003827 4.5042651e-39 343 253
0.031391677 0.74599999 -0.017003827 1.6620647e-39 344 253
0.032699663 0.74599999 -0.017003827 2.0304871e-39 345 253
0.034007654 0.74599999 -0.017003827 1.9404663e-39 346 253
0.035362978 0.74699998 -0.017026618 2.49364e-39 347 253
0.036672719 0.74699998 -0.017026618 1.947306e-39 348 253
0.03798246 0.74699998 -0.017026618 3.7912172e-39 349 253
0.039292198 0.74699998 -0.017026618 6.9204778e-39 350 253
-0.042697169 0.76099998 -0.018680012 1.5104596e-38 288 254
-0.041254178 0.759 -0.01863092 1.4920203e-38 289 254
-0.0399234 0.759 -0.01863092 1.5010233e-38 290 254
-0.038490929 0.75700003 -0.018581826 1.4825841e-38 291 254
-0.037163652 0.75700003 -0.018581826 1.4916222e-38 292 254
-0.03583638 0.75700003 -0.018581826 1.454708e-38 293 254
-0.034417931 0.755 -0.018532733 1.4636759e-38 294 254
-0.033094164 0.755 -0.018532733 1.4268335e-38 295 254
-0.031770397 0.755 -0.018532733 1.4816852e-38 296 254
-0.030406307 0.75400001 -0.018508185 1.3249887e-38 297 254
-0.029084291 0.75400001 -0.018508185 9.2051759e-39 298 254
-0.027578179 0.74900001 -0.018385453 5.1482094e-39 299 254
-0.026194798 0.74699998 -0.018336359 9.219591e-40 300 254
-0.02478512 0.74400002 -0.01826272 5.1625993e-39 301 254
-0.023417519 0.74199998 -0.018213626 1.1133713e-38 302 254
-0.022116546 0.74199998 -0.018213626 1.3438964e-38 303 254
-0.020815572 0.74199998 -0.018213626 1.4078921e-38 304 254
-0.019488299 0.741 -0.018189078 1.3986367e-38 305 254
-0.018189078 0.741 -0.018189078 1.3894174e-38 306 254
-0.016844273 0.73900002 -0.018139986 1.3710142e-38 307 254
-0.015527519 0.73799998 -0.018115439 1.3709788e-38 308 254
-0.014194986 0.736 -0.018066347 1.3709788e-38 309 254
-0.012904533 0.736 -0.018066347 1.361724e-38 310 254
-0.01161408 0.736 -0.018066347 1.3709437e-38 311 254
-0.010323626 0.736 -0.018066347 1.3618689e-38 312 254
-0.0090086265 0.73400003 -0.018017253 1.3618689e-38 313 254
-0.0077216802 0.73400003 -0.018017253 1.3803073e-38 314 254
-0.006434733 0.73400003 -0.018017253 1.4632834e-38 315 254
-0.0051477868 0.73400003 -0.018017253 1.3066934e-38 316 254
-0.0038608401 0.73400003 -0.018017253 8.2727617e-39 317 254
-0.0025738934 0.73400003 -0.018017253 4.2255469e-39 318 254
-0.0012869467 0.73400003 -0.018017253 3.2142648e-39 319 254
0 0.73400003 -0.018017253 6.5380186e-39 320 254
0.0012851933 0.73299998 -0.017992707 8.935105e-39 321 254
0.0025703865 0.73299998 -0.017992707 1.2515231e-38 322 254
0.0038555798 0.73299998 -0.017992707 1.2515231e-38 323 254
0.0051477868 0.73400003 -0.018017253 1.3248454e-38 324 254
0.006434733 0.73400003 -0.018017253 1.3248454e-38 325 254
0.0077216802 0.73400003 -0.018017253 1.3248452e-38 326 254
0.0090086265 0.73400003 -0.018017253 1.3248452e-38 327 254
0.010295574 0.73400003 -0.018017253 1.3248087e-38 328 254
0.011582521 0.73400003 -0.018017253 1.3155533e-38 329 254
0.012869466 0.73400003 -0.018017253 1.315517e-38 330 254
0.014156413 0.73400003 -0.018017253 1.315517e-38 331 254
0.015485439 0.736 -0.018066347 1.3155167e-38 332 254
0.016821479 0.73799998 -0.018115439 1.3155167e-38 333 254
0.018115439 0.73799998 -0.018115439 1.3063693e-38 334 254
0.019409399 0.73799998 -0.018115439 1.3063693e-38 335 254
0.020731414 0.73900002 -0.018139986 1.3246284e-38 336 254
0.022027127 0.73900002 -0.018139986 1.3246284e-38 337 254
0.023385961 0.741 -0.018189078 1.2880713e-38 338 254
0.024718491 0.74199998 -0.018213626 1.2696322e-38 339 254
0.026089599 0.74400002 -0.01826272 1.260664e-38 340 254
0.027467718 0.74599999 -0.018311813 1.1776879e-38 341 254
0.028775707 0.74599999 -0.018311813 1.0396854e-38 342 254
0.030124018 0.74699998 -0.018336359 9.4748992e-39 343 254
0.031433757 0.74699998 -0.018336359 7.5431406e-39 344 254
0.032743499 0.74699998 -0.018336359 6.8977712e-39 345 254
0.034053236 0.74699998 -0.018336359 4.972118e-39 346 254
0.035362978 0.74699998 -0.018336359 4.6958913e-39 347 254
0.036672719 0.74699998 -0.018336359 3.8751284e-39 348 254
0.038592618 0.759 -0.01863092 5.7190409e-39 349 254
-0.042697169 0.76099998 -0.020014299 1.5198609e-38 288 255
-0.041254178 0.759 -0.0199617 1.455324e-38 289 255
-0.0399234 0.759 -0.0199617 1.4919129e-38 290 255
-0.038592618 0.759 -0.0199617 1.4734737e-38 291 255
-0.037163652 0.75700003 -0.019909101 1.4733288e-38 292 255
-0.03583638 0.75700003 -0.019909101 1.427267e-38 293 255
-0.034509107 0.75700003 -0.019909101 1.4361992e-38 294 255
-0.033181835 0.75700003 -0.019909101 1.4177601e-38 295 255
-0.031770397 0.755 -0.0198565 1.4635355e-38 296 255
-0.030406307 0.75400001 -0.019830201 1.2699246e-38 297 255
-0.029084291 0.75400001 -0.019830201 7.5485454e-39 298 255
-0.027578179 0.74900001 -0.0196987 4.6901207e-39 299 255
-0.026194798 0.74699998 -0.019646099 2.7644396e-39 300 255
-0.024851745 0.74599999 -0.019619798 6.7288517e-39 301 255
-0.023480639 0.74400002 -0.019567199 1.2238618e-38 302 255
-0.022176161 0.74400002 -0.019567199 1.3805944e-38 303 255
-0.020815572 0.74199998 -0.0195146 1.3803774e-38 304 255
-0.0195146 0.74199998 -0.0195146 1.3803774e-38 305 255
-0.018189078 0.741 -0.019488299 1.361974e-38 306 255
