# .PCD v.7 - Point Cloud Data file format
FIELDS x y z rgb imX imY
SIZE 4 4 4 4 4 4
TYPE F F F F F F
COUNT 1 1 1 1 1 1
WIDTH 840
HEIGHT 1
VIEWPOINT 0 0 0 1 0 0 0
POINTS 840
DATA ascii
-0.013693534 0.78100002 0.013693534 1.9825303e-38 310 230
-0.01232418 0.78100002 0.013693534 1.9825303e-38 311 230
-0.010940799 0.77999997 0.013675999 2.0100811e-38 312 230
-0.0095731998 0.77999997 0.013675999 2.0930573e-38 313 230
-0.0082055992 0.77999997 0.013675999 2.1296102e-38 314 230
-0.0068029333 0.77600002 0.013605867 2.1111352e-38 315 230
-0.0054283198 0.77399999 0.013570799 2.1756721e-38 316 230
-0.0040712398 0.77399999 0.013570799 2.1941471e-38 317 230
-0.0027141599 0.77399999 0.013570799 2.148051e-38 318 230
-0.0013605866 0.77600002 0.013605867 2.0742945e-38 319 230
0 0.77600002 0.013605867 2.0099373e-38 320 230
0.0013605866 0.77600002 0.013605867 2.0007178e-38 321 230
0.0027211732 0.77600002 0.013605867 1.9365045e-38 322 230
0.0040817601 0.77600002 0.013605867 1.9457241e-38 323 230
0.0054703997 0.77999997 0.013675999 1.9639834e-38 324 230
0.0068204664 0.778 0.013640933 1.8626041e-38 325 230
0.0081845606 0.778 0.013640933 1.7155593e-38 326 230
0.0095854728 0.78100002 0.013693534 1.6418028e-38 327 230
0.010954826 0.78100002 0.013693534 1.696868e-38 328 230
0.01232418 0.78100002 0.013693534 1.6231115e-38 329 230
0.013728599 0.78299999 0.013728599 1.3819303e-38 330 230
0.01510146 0.78299999 0.013728599 1.1514772e-38 331 230
0.016516401 0.78500003 0.013763667 9.9801976e-39 332 230
0.017938353 0.787 0.013798732 1.3114849e-38 333 230
0.019367319 0.78899997 0.013833799 1.6511334e-38 334 230
-0.024932399 0.79000002 0.0124662 1.7615852e-38 302 231
-0.023517458 0.78899997 0.012450419 1.807647e-38 303 231
-0.022134079 0.78899997 0.012450419 1.8443815e-38 304 231
-0.0206981 0.787 0.01241886 1.8259422e-38 305 231
-0.019269135 0.78500003 0.0123873 1.8534211e-38 306 231
-0.017847179 0.78299999 0.012355739 1.8903354e-38 307 231
-0.016432239 0.78100002 0.01232418 1.8904436e-38 308 231
-0.015062887 0.78100002 0.01232418 1.9181383e-38 309 231
-0.013675999 0.77999997 0.012308398 1.9549436e-38 310 231
-0.012308398 0.77999997 0.012308398 1.9457241e-38 311 231
-0.010940799 0.77999997 0.012308398 1.9825303e-38 312 231
-0.0095731998 0.77999997 0.012308398 2.1023487e-38 313 231
-0.0081845606 0.778 0.012276839 2.2402112e-38 314 231
-0.0067853997 0.77399999 0.01221372 2.2217722e-38 315 231
-0.0054283198 0.77399999 0.01221372 2.1668141e-38 316 231
-0.0040712398 0.77399999 0.01221372 2.1575945e-38 317 231
-0.0027141599 0.77399999 0.01221372 2.1572705e-38 318 231
-0.0013570799 0.77399999 0.01221372 2.0927336e-38 319 231
0 0.77399999 0.01221372 2.0099376e-38 320 231
0.0013605866 0.77600002 0.01224528 1.9914626e-38 321 231
0.0027141599 0.77399999 0.01221372 1.9457244e-38 322 231
0.0040712398 0.77399999 0.01221372 1.9641635e-38 323 231
0.0054703997 0.77999997 0.012308398 1.9090985e-38 324 231
0.0068204664 0.778 0.012276839 1.7707692e-38 325 231
0.0081845606 0.778 0.012276839 1.6970483e-38 326 231
0.0095731998 0.77999997 0.012308398 1.6325113e-38 327 231
0.010954826 0.78100002 0.01232418 1.5953787e-38 328 231
0.01232418 0.78100002 0.01232418 1.2911333e-38 329 231
0.013693534 0.78100002 0.01232418 6.4450593e-39 330 231
0.01510146 0.78299999 0.012355739 2.1122234e-39 331 231
0.01647432 0.78299999 0.012355739 2.0592768e-39 332 231
0.017938353 0.787 0.01241886 9.0661446e-39 333 231
-0.026317533 0.79000002 0.011081067 1.7340351e-38 301 232
-0.024900839 0.78899997 0.011067039 1.7891363e-38 302 232
-0.023517458 0.78899997 0.011067039 1.8075754e-38 303 232
-0.022077972 0.787 0.011038986 1.8259066e-38 304 232
-0.020645501 0.78500003 0.011010934 1.8259066e-38 305 232
-0.019220039 0.78299999 0.010982879 1.862713e-38 306 232
-0.017847179 0.78299999 0.010982879 1.8719325e-38 307 232
-0.016411198 0.77999997 0.010940799 1.8811521e-38 308 232
-0.0150436 0.77999997 0.010940799 1.9272499e-38 309 232
-0.013675999 0.77999997 0.010940799 1.9549442e-38 310 232
-0.012308398 0.77999997 0.010940799 1.9364692e-38 311 232
-0.010912746 0.778 0.010912746 1.9456525e-38 312 232
-0.009524107 0.77600002 0.010884693 2.0562512e-38 313 232
-0.0081635201 0.77600002 0.010884693 2.0282701e-38 314 232
-0.0067853997 0.77399999 0.01085664 1.6687431e-38 315 232
-0.0054213065 0.773 0.010842613 1.2930791e-38 316 232
-0.0040659797 0.773 0.010842613 1.5143126e-38 317 232
-0.0027141599 0.77399999 0.01085664 1.9364342e-38 318 232
-0.0013553266 0.773 0.010842613 1.9456537e-38 319 232
0 0.773 0.010842613 1.9363976e-38 320 232
0.0013570799 0.77399999 0.01085664 1.9456172e-38 321 232
0.0027141599 0.77399999 0.01085664 1.954872e-38 322 232
0.0040712398 0.77399999 0.01085664 1.8811155e-38 323 232
0.0054283198 0.77399999 0.01085664 1.7613697e-38 324 232
0.0067853997 0.77399999 0.01085664 1.6968327e-38 325 232
0.0081424797 0.77399999 0.01085664 1.7612978e-38 326 232
0.009524107 0.77600002 0.010884693 1.8166152e-38 327 232
0.010912746 0.778 0.010912746 1.6505889e-38 328 232
0.012276839 0.778 0.010912746 1.1619519e-38 329 232
0.013693534 0.78100002 0.010954826 1.8536138e-39 330 232
0.01510146 0.78299999 0.010982879 0 331 232
0.01647432 0.78299999 0.010982879 6.1587068e-42 332 232
0.017847179 0.78299999 0.010982879 6.2808621e-39 333 232
0.019220039 0.78299999 0.010982879 1.4301183e-38 334 232
-0.026317533 0.79000002 0.0096959332 1.7615143e-38 301 233
-0.024900839 0.78899997 0.0096836593 1.7798458e-38 302 233
-0.023517458 0.78899997 0.0096836593 1.7890654e-38 303 233
-0.022077972 0.787 0.0096591124 1.7431836e-38 304 233
-0.020645501 0.78500003 0.0096345674 1.7431836e-38 305 233
-0.019220039 0.78299999 0.0096100196 1.7799893e-38 306 233
-0.017801592 0.78100002 0.0095854728 1.8168317e-38 307 233
-0.016411198 0.77999997 0.0095731998 1.8260147e-38 308 233
-0.0150436 0.77999997 0.0095731998 1.8905516e-38 309 233
-0.013675999 0.77999997 0.0095731998 1.9365771e-38 310 233
-0.012276839 0.778 0.0095486529 1.918138e-38 311 233
-0.010912746 0.778 0.0095486529 1.9365048e-38 312 233
-0.009524107 0.77600002 0.009524107 1.9641635e-38 313 233
-0.0081424797 0.77399999 0.0094995592 1.7427868e-38 314 233
-0.0067766332 0.773 0.0094872871 9.4990436e-39 315 233
-0.0054213065 0.773 0.0094872871 3.718431e-39 316 233
-0.0040659797 0.773 0.0094872871 8.7888319e-39 317 233
-0.0027106532 0.773 0.0094872871 1.5681208e-38 318 233
-0.0013553266 0.773 0.0094872871 1.7893903e-38 319 233
0 0.773 0.0094872871 1.9181027e-38 320 233
0.0013553266 0.773 0.0094872871 1.8720407e-38 321 233
0.0027106532 0.773 0.0094872871 1.8076104e-38 322 233
0.0040659797 0.773 0.0094872871 1.7430735e-38 323 233
0.0054213065 0.773 0.0094872871 1.6599899e-38 324 233
0.0067766332 0.773 0.0094872871 1.7245269e-38 325 233
0.0081319595 0.773 0.0094872871 1.8716088e-38 326 233
0.0094995592 0.77399999 0.0094995592 1.9084511e-38 327 233
0.01085664 0.77399999 0.0094995592 1.7704432e-38 328 233
0.01224528 0.77600002 0.009524107 1.4477585e-38 329 233
0.013605867 0.77600002 0.009524107 7.0071986e-39 330 233
0.0150436 0.77999997 0.0095731998 2.7694142e-40 331 233
0.016411198 0.77999997 0.0095731998 1.821688e-44 332 233
0.017778799 0.77999997 0.0095731998 1.7546289e-39 333 233
-0.026317533 0.79000002 0.0083108004 1.7705898e-38 301 234
-0.024900839 0.78899997 0.0083002793 1.752295e-38 302 234
-0.023457846 0.787 0.0082792398 1.752295e-38 303 234
-0.022021867 0.78500003 0.0082582003 1.7154168e-38 304 234
-0.0205929 0.78299999 0.0082371598 1.6877581e-38 305 234
-0.019220039 0.78299999 0.0082371598 1.7246716e-38 306 234
-0.017801592 0.78100002 0.0082161194 1.8260868e-38 307 234
-0.016369121 0.778 0.0081845606 1.8536376e-38 308 234
-0.015005025 0.778 0.0081845606 1.8905519e-38 309 234
-0.013640933 0.778 0.0081845606 1.9182824e-38 310 234
-0.01224528 0.77600002 0.0081635201 1.9551607e-38 311 234
-0.01085664 0.77399999 0.0081424797 1.9642001e-38 312 234
-0.0094995592 0.77399999 0.0081424797 1.5401362e-38 313 234
-0.0081424797 0.77399999 0.0081424797 8.488479e-39 314 234
-0.0067766332 0.773 0.0081319595 0 315 234
-0.0054213065 0.773 0.0081319595 2.5363502e-42 316 234
-0.0040659797 0.773 0.0081319595 2.312469e-39 317 234
-0.0027106532 0.773 0.0081319595 4.7221502e-39 318 234
-0.0013553266 0.773 0.0081319595 8.9635093e-39 319 234
0 0.773 0.0081319595 1.5677944e-38 320 234
0.0013553266 0.773 0.0081319595 1.6046728e-38 321 234
0.0027106532 0.773 0.0081319595 1.4943992e-38 322 234
0.0040659797 0.773 0.0081319595 1.586595e-38 323 234
0.0054213065 0.773 0.0081319595 1.8167247e-38 324 234
0.0067766332 0.773 0.0081319595 1.9181398e-38 325 234
0.0081319595 0.773 0.0081319595 2.0281619e-38 326 234
0.0094872871 0.773 0.0081319595 1.9359303e-38 327 234
0.010842613 0.773 0.0081319595 1.8441647e-38 328 234
0.01221372 0.77399999 0.0081424797 1.7888473e-38 329 234
0.013570799 0.77399999 0.0081424797 1.3914663e-38 330 234
0.015005025 0.778 0.0081845606 5.2482733e-39 331 234
0.016369121 0.778 0.0081845606 4.3047889e-42 332 234
0.01764204 0.77399999 0.0081424797 4.6851714e-40 333 234
-0.026284218 0.78899997 0.0069168997 1.7247805e-38 301 235
-0.024837719 0.787 0.0068993662 1.7339282e-38 302 235
-0.023457846 0.787 0.0068993662 1.7247086e-38 303 235
-0.022021867 0.78500003 0.0068818335 1.7153442e-38 304 235
-0.020540299 0.78100002 0.0068467669 1.6969411e-38 305 235
-0.019170946 0.78100002 0.0068467669 1.8442739e-38 306 235
-0.017778799 0.77999997 0.0068379994 1.9272499e-38 307 235
-0.01632704 0.77600002 0.0068029333 1.8353067e-38 308 235
-0.014966453 0.77600002 0.0068029333 1.8721489e-38 309 235
-0.013605867 0.77600002 0.0068029333 1.9641653e-38 310 235
-0.01221372 0.77399999 0.0067853997 1.9180676e-38 311 235
-0.01085664 0.77399999 0.0067853997 1.7798811e-38 312 235
-0.0094995592 0.77399999 0.0067853997 8.4874126e-39 313 235
-0.0081319595 0.773 0.0067766332 2.9599712e-39 314 235
-0.0067590997 0.77100003 0.0067590997 1.0190663e-40 315 235
-0.0054072798 0.77100003 0.0067590997 2.9588922e-39 316 235
-0.0040659797 0.773 0.0067766332 4.987196e-39 317 235
-0.0027036399 0.77100003 0.0067590997 5.4506755e-39 318 235
-0.00135182 0.77100003 0.0067590997 7.1101982e-39 319 235
0 0.77100003 0.0067590997 1.4292471e-38 320 235
0.00135182 0.77100003 0.0067590997 1.7334927e-38 321 235
0.0027036399 0.77100003 0.0067590997 1.7431846e-38 322 235
0.0040554604 0.77100003 0.0067590997 1.8077215e-38 323 235
0.0054072798 0.77100003 0.0067590997 2.0193755e-38 324 235
0.0067590997 0.77100003 0.0067590997 2.0746929e-38 325 235
0.0081109209 0.77100003 0.0067590997 2.1572708e-38 326 235
0.0094627403 0.77100003 0.0067590997 1.9912827e-38 327 235
0.010842613 0.773 0.0067766332 1.8350896e-38 328 235
0.012197939 0.773 0.0067766332 1.8166505e-38 329 235
0.013570799 0.77399999 0.0067853997 1.6595178e-38 330 235
0.014927879 0.77399999 0.0067853997 9.7723416e-39 331 235
0.016284959 0.77399999 0.0067853997 2.6729152e-39 332 235
0.01764204 0.77399999 0.0067853997 1.1056133e-39 333 235
0.018974574 0.773 0.0067766332 1.1632179e-40 334 235
-0.027667599 0.78899997 0.0055335197 1.5960313e-38 300 236
-0.026217593 0.787 0.005519493 1.6974464e-38 301 236
-0.0247746 0.78500003 0.0055054668 1.743148e-38 302 236
-0.02333862 0.78299999 0.0054914397 1.6970142e-38 303 236
-0.021965759 0.78299999 0.0054914397 1.7337114e-38 304 236
-0.020513998 0.77999997 0.0054703997 1.7705895e-38 305 236
-0.0191464 0.77999997 0.0054703997 1.8536013e-38 306 236
-0.017733213 0.778 0.0054563731 1.8536013e-38 307 236
-0.016284959 0.77399999 0.0054283198 1.7891735e-38 308 236
-0.014927879 0.77399999 0.0054283198 1.8168322e-38 309 236
-0.013570799 0.77399999 0.0054283198 1.8444559e-38 310 236
-0.01221372 0.77399999 0.0054283198 1.6508451e-38 311 236
-0.01085664 0.77399999 0.0054283198 1.3558171e-38 312 236
-0.0094872871 0.773 0.0054213065 3.253815e-42 313 236
-0.0081319595 0.773 0.0054213065 7.9089285e-42 314 236
-0.0067590997 0.77100003 0.0054072798 5.0797476e-39 315 236
-0.0054072798 0.77100003 0.0054072798 1.0046077e-38 316 236
-0.0040659797 0.773 0.0054213065 1.1613763e-38 317 236
-0.0027036399 0.77100003 0.0054072798 1.1154573e-38 318 236
-0.0013483133 0.76899999 0.0053932532 1.0232976e-38 319 236
0 0.76899999 0.0053932532 1.4382515e-38 320 236
0.0013483133 0.76899999 0.0053932532 1.9084851e-38 321 236
0.0026966266 0.76899999 0.0053932532 2.1945812e-38 322 236
0.0040449398 0.76899999 0.0053932532 2.1392646e-38 323 236
0.0053932532 0.76899999 0.0053932532 2.1668509e-38 324 236
0.0067590997 0.77100003 0.0054072798 2.2037648e-38 325 236
0.0081109209 0.77100003 0.0054072798 2.2310992e-38 326 236
0.0094627403 0.77100003 0.0054072798 2.0374884e-38 327 236
0.010842613 0.773 0.0054213065 1.8536013e-38 328 236
0.012197939 0.773 0.0054213065 1.7705892e-38 329 236
0.013570799 0.77399999 0.0054283198 1.6507334e-38 330 236
0.014927879 0.77399999 0.0054283198 1.3372681e-38 331 236
0.016263919 0.773 0.0054213065 7.5564347e-39 332 236
0.017619247 0.773 0.0054213065 3.9604464e-39 333 236
0.018974574 0.773 0.0054213065 1.1528482e-41 334 236
0.020356199 0.77399999 0.0054283198 6.0064052e-39 335 236
-0.027667599 0.78899997 0.0041501396 1.2461914e-38 300 237
-0.026150968 0.78500003 0.0041291001 1.3291675e-38 301 237
-0.024711479 0.78299999 0.0041185799 1.5130538e-38 302 237
-0.023279008 0.78100002 0.0041080597 1.5775908e-38 303 237
-0.021909652 0.78100002 0.0041080597 1.7522583e-38 304 237
-0.020513998 0.77999997 0.0041027996 1.8167952e-38 305 237
-0.019097306 0.778 0.0040922803 1.8352711e-38 306 237
-0.017733213 0.778 0.0040922803 1.7430754e-38 307 237
-0.016284959 0.77399999 0.0040712398 1.5496813e-38 308 237
-0.014927879 0.77399999 0.0040712398 1.5773401e-38 309 237
-0.013570799 0.77399999 0.0040712398 1.6052511e-38 310 237
-0.01221372 0.77399999 0.0040712398 1.2825664e-38 311 237
-0.01085664 0.77399999 0.0040712398 7.3975961e-39 312 237
-0.0094872871 0.773 0.0040659797 1.0780189e-41 313 237
-0.0081319595 0.773 0.0040659797 1.9447178e-39 314 237
-0.0067766332 0.773 0.0040659797 7.1998687e-39 315 237
-0.0054213065 0.773 0.0040659797 1.1244257e-38 316 237
-0.0040659797 0.773 0.0040659797 1.2074018e-38 317 237
-0.0027036399 0.77100003 0.0040554604 1.0327693e-38 318 237
-0.0013483133 0.76899999 0.0040449398 9.405378e-39 319 237
0 0.76899999 0.0040449398 1.5398465e-38 320 237
0.0013483133 0.76899999 0.0040449398 1.9362877e-38 321 237
0.0026966266 0.76899999 0.0040449398 2.2773408e-38 322 237
0.0040449398 0.76899999 0.0040449398 2.1667069e-38 323 237
0.0053932532 0.76899999 0.0040449398 2.1300084e-38 324 237
0.0067415666 0.76899999 0.0040449398 2.1668507e-38 325 237
0.0080898795 0.76899999 0.0040449398 2.1761058e-38 326 237
0.0094381925 0.76899999 0.0040449398 2.0009343e-38 327 237
0.01081456 0.77100003 0.0040554604 1.8628928e-38 328 237
0.012197939 0.773 0.0040659797 1.6969408e-38 329 237
0.013553266 0.773 0.0040659797 1.4577712e-38 330 237
0.014908593 0.773 0.0040659797 1.4024178e-38 331 237
0.016263919 0.773 0.0040659797 1.4389002e-38 332 237
0.017619247 0.773 0.0040659797 1.1807524e-38 333 237
0.018999118 0.77399999 0.0040712398 8.1182727e-39 334 237
0.020356199 0.77399999 0.0040712398 9.5934028e-39 335 237
-0.027457198 0.78299999 0.0027457199 3.8124385e-39 300 238
-0.026084339 0.78299999 0.0027457199 5.1957316e-39 301 238
-0.024648361 0.78100002 0.0027387065 1.4108469e-38 302 238
-0.023279008 0.78100002 0.0027387065 1.7427512e-38 303 238
-0.021881599 0.77999997 0.0027351999 1.7615143e-38 304 238
-0.020461399 0.778 0.0027281865 1.8260512e-38 305 238
-0.019097306 0.778 0.0027281865 1.8445275e-38 306 238
-0.017687626 0.77600002 0.0027211732 1.7154536e-38 307 238
-0.016284959 0.77399999 0.0027141599 1.5128031e-38 308 238
-0.014927879 0.77399999 0.0027141599 1.5220227e-38 309 238
-0.013570799 0.77399999 0.0027141599 1.6049618e-38 310 238
-0.012197939 0.773 0.0027106532 1.4021314e-38 311 238
-0.010842613 0.773 0.0027106532 1.0060804e-38 312 238
-0.0094872871 0.773 0.0027106532 1.3944153e-39 313 238
-0.0081319595 0.773 0.0027106532 2.3163562e-39 314 238
-0.0067766332 0.773 0.0027106532 7.7558969e-39 315 238
-0.0054213065 0.773 0.0027106532 1.1521561e-38 316 238
-0.0040659797 0.773 0.0027106532 1.1982538e-38 317 238
-0.0026966266 0.76899999 0.0026966266 9.8659862e-39 318 238
-0.0013483133 0.76899999 0.0026966266 8.5752474e-39 319 238
0 0.76899999 0.0026966266 1.6689189e-38 320 238
0.0013483133 0.76899999 0.0026966266 2.0008231e-38 321 238
0.0026966266 0.76899999 0.0026966266 2.2497901e-38 322 238
0.0040449398 0.76899999 0.0026966266 2.1575945e-38 323 238
0.0053932532 0.76899999 0.0026966266 2.0932021e-38 324 238
0.0067415666 0.76899999 0.0026966266 2.1116772e-38 325 238
0.0080898795 0.76899999 0.0026966266 2.093382e-38 326 238
0.0094381925 0.76899999 0.0026966266 1.9550885e-38 327 238
0.01081456 0.77100003 0.0027036399 1.8813316e-38 328 238
0.01216638 0.77100003 0.0027036399 1.6877567e-38 329 238
0.013518199 0.77100003 0.0027036399 1.5221284e-38 330 238
0.014908593 0.773 0.0027106532 1.5866653e-38 331 238
0.016263919 0.773 0.0027106532 1.7892439e-38 332 238
0.017619247 0.773 0.0027106532 1.7523298e-38 333 238
0.018999118 0.77399999 0.0027141599 1.438758e-38 334 238
0.020356199 0.77399999 0.0027141599 1.3465622e-38 335 238
0.021713279 0.77399999 0.0027141599 1.4574858e-38 336 238
-0.027387068 0.78100002 0.0013693533 2.846878e-41 300 239
-0.026017714 0.78100002 0.0013693533 2.060374e-39 301 239
-0.024648361 0.78100002 0.0013693533 1.4387227e-38 302 239
-0.023279008 0.78100002 0.0013693533 1.8443474e-38 303 239
-0.021881599 0.77999997 0.0013675999 1.7707713e-38 304 239
-0.020461399 0.778 0.0013640933 1.7523682e-38 305 239
-0.019097306 0.778 0.0013640933 1.7709875e-38 306 239
-0.017687626 0.77600002 0.0013605866 1.7341451e-38 307 239
-0.016284959 0.77399999 0.0013570799 1.7522953e-38 308 239
-0.014927879 0.77399999 0.0013570799 1.7707344e-38 309 239
-0.013553266 0.773 0.0013553266 1.8720404e-38 310 239
-0.012197939 0.773 0.0013553266 1.9273578e-38 311 239
-0.010842613 0.773 0.0013553266 1.8895009e-38 312 239
-0.0094872871 0.773 0.0013553266 8.2003145e-39 313 239
-0.0081109209 0.77100003 0.00135182 3.1489671e-39 314 239
-0.0067590997 0.77100003 0.00135182 7.5743573e-39 315 239
-0.0054072798 0.77100003 0.00135182 1.0694318e-38 316 239
-0.0040554604 0.77100003 0.00135182 1.0879068e-38 317 239
-0.0026966266 0.76899999 0.0013483133 8.388338e-39 318 239
-0.0013483133 0.76899999 0.0013483133 7.1897948e-39 319 239
0 0.76899999 0.0013483133 1.8071046e-38 320 239
0.0013483133 0.76899999 0.0013483133 2.1205698e-38 321 239
0.0026966266 0.76899999 0.0013483133 2.2681572e-38 322 239
0.0040449398 0.76899999 0.0013483133 2.1943649e-38 323 239
0.0053932532 0.76899999 0.0013483133 2.0932742e-38 324 239
0.0067415666 0.76899999 0.0013483133 2.0840547e-38 325 239
0.0080898795 0.76899999 0.0013483133 2.0564683e-38 326 239
0.0094381925 0.76899999 0.0013483133 1.9827118e-38 327 239
0.010786506 0.76899999 0.0013483133 1.9274297e-38 328 239
0.01216638 0.77100003 0.00135182 1.8260147e-38 329 239
0.013518199 0.77100003 0.00135182 1.8076826e-38 330 239
0.014908593 0.773 0.0013553266 1.8261219e-38 331 239
0.016263919 0.773 0.0013553266 1.8536013e-38 332 239
0.017619247 0.773 0.0013553266 1.7890644e-38 333 239
0.018974574 0.773 0.0013553266 1.6967611e-38 334 239
0.0203299 0.773 0.0013553266 1.6506634e-38 335 239
0.021685226 0.773 0.0013553266 1.6507719e-38 336 239
0.023040552 0.773 0.0013553266 1.7522231e-38 337 239
-0.027387068 0.78100002 -0 1.6228438e-41 300 240
-0.026017714 0.78100002 -0 8.1305243e-39 301 240
-0.024648361 0.78100002 -0 1.5308828e-38 302 240
-0.023249198 0.77999997 -0 1.8535675e-38 303 240
-0.021825492 0.778 -0 1.6972685e-38 304 240
-0.020461399 0.778 -0 1.6327316e-38 305 240
-0.019048214 0.77600002 -0 1.7709162e-38 306 240
-0.017687626 0.77600002 -0 1.7801357e-38 307 240
-0.016284959 0.77399999 -0 1.7983208e-38 308 240
-0.014908593 0.773 -0 1.7983208e-38 309 240
-0.013553266 0.773 -0 1.8627856e-38 310 240
-0.012197939 0.773 -0 1.9826399e-38 311 240
-0.010842613 0.773 -0 2.1479016e-38 312 240
-0.0094627403 0.77100003 -0 1.4103726e-38 313 240
-0.0081109209 0.77100003 -0 5.9044285e-39 314 240
-0.0067590997 0.77100003 -0 7.287363e-39 315 240
-0.0054072798 0.77100003 -0 6.0982323e-39 316 240
-0.0040554604 0.77100003 -0 7.573361e-39 317 240
-0.0026966266 0.76899999 -0 7.1094737e-39 318 240
-0.0013483133 0.76899999 -0 6.5563e-39 319 240
0 0.76899999 -0 1.761475e-38 320 240
0.0013483133 0.76899999 -0 2.1118545e-38 321 240
0.0026896133 0.76700002 -0 2.2680855e-38 322 240
0.00403442 0.76700002 -0 2.2035494e-38 323 240
0.0053792265 0.76700002 -0 2.1024222e-38 324 240
0.006724033 0.76700002 -0 2.0471049e-38 325 240
0.00806884 0.76700002 -0 1.9736001e-38 326 240
0.0094136465 0.76700002 -0 1.9736001e-38 327 240
0.010758453 0.76700002 -0 1.9826399e-38 328 240
0.012134819 0.76899999 -0 1.8904082e-38 329 240
0.013483133 0.76899999 -0 1.8627853e-38 330 240
0.01487002 0.77100003 -0 1.8904438e-38 331 240
0.016221842 0.77100003 -0 1.7707694e-38 332 240
0.01757366 0.77100003 -0 1.7431106e-38 333 240
0.018974574 0.773 -0 1.6234009e-38 334 240
0.0203299 0.773 -0 1.6141813e-38 335 240
0.021685226 0.773 -0 1.6233656e-38 336 240
0.023040552 0.773 -0 1.6879025e-38 337 240
-0.026017714 0.78100002 -0.0013693533 1.2724847e-38 301 241
-0.024616797 0.77999997 -0.0013675999 1.5400676e-38 302 241
-0.023189586 0.778 -0.0013640933 1.7613373e-38 303 241
-0.021769386 0.77600002 -0.0013605866 1.5684105e-38 304 241
-0.0204088 0.77600002 -0.0013605866 1.5868136e-38 305 241
-0.019048214 0.77600002 -0.0013605866 1.7984654e-38 306 241
-0.017687626 0.77600002 -0.0013605866 1.8353076e-38 307 241
-0.016263919 0.773 -0.0013553266 1.8257628e-38 308 241
-0.014908593 0.773 -0.0013553266 1.8165433e-38 309 241
-0.013518199 0.77100003 -0.00135182 1.844418e-38 310 241
-0.01216638 0.77100003 -0.00135182 1.9550888e-38 311 241
-0.01081456 0.77100003 -0.00135182 2.0837307e-38 312 241
-0.0094627403 0.77100003 -0.00135182 1.8163633e-38 313 241
-0.0081109209 0.77100003 -0.00135182 1.4565831e-38 314 241
-0.0067590997 0.77100003 -0.00135182 1.0878364e-38 315 241
-0.0053932532 0.76899999 -0.0013483133 9.605262e-39 316 241
-0.0040449398 0.76899999 -0.0013483133 1.2832109e-38 317 241
-0.0026966266 0.76899999 -0.0013483133 1.5868115e-38 318 241
-0.0013483133 0.76899999 -0.0013483133 1.6513484e-38 319 241
0 0.76700002 -0.0013448066 1.6971944e-38 320 241
0.0013448066 0.76700002 -0.0013448066 1.9000248e-38 321 241
0.0026896133 0.76700002 -0.0013448066 2.2497184e-38 322 241
0.00403442 0.76700002 -0.0013448066 2.1944019e-38 323 241
0.0053792265 0.76700002 -0.0013448066 2.0379217e-38 324 241
0.006724033 0.76700002 -0.0013448066 1.9549455e-38 325 241
0.00806884 0.76700002 -0.0013448066 1.8813339e-38 326 241
0.0094136465 0.76700002 -0.0013448066 1.899773e-38 327 241
0.010758453 0.76700002 -0.0013448066 1.9089925e-38 328 241
0.01210326 0.76700002 -0.0013448066 1.899773e-38 329 241
0.013448066 0.76700002 -0.0013448066 1.8628221e-38 330 241
0.014831445 0.76899999 -0.0013483133 1.8167603e-38 331 241
0.016179759 0.76899999 -0.0013483133 1.6788985e-38 332 241
0.017528072 0.76899999 -0.0013483133 1.6696429e-38 333 241
0.018925481 0.77100003 -0.00135182 1.586775e-38 334 241
0.0203299 0.773 -0.0013553266 1.5590805e-38 335 241
0.021685226 0.773 -0.0013553266 1.5865597e-38 336 241
0.023040552 0.773 -0.0013553266 1.6326575e-38 337 241
-0.026017714 0.78100002 -0.0027387065 1.0416349e-38 301 242
-0.024616797 0.77999997 -0.0027351999 1.3929506e-38 302 242
-0.023189586 0.778 -0.0027281865 1.6880127e-38 303 242
-0.021769386 0.77600002 -0.0027211732 1.6970873e-38 304 242
-0.0204088 0.77600002 -0.0027211732 1.6970873e-38 305 242
-0.019048214 0.77600002 -0.0027211732 1.8995918e-38 306 242
-0.017687626 0.77600002 -0.0027211732 1.9088114e-38 307 242
-0.016263919 0.773 -0.0027106532 1.8534208e-38 308 242
-0.01487002 0.77100003 -0.0027036399 1.8811155e-38 309 242
-0.013518199 0.77100003 -0.0027036399 1.9181383e-38 310 242
-0.01216638 0.77100003 -0.0027036399 1.9549805e-38 311 242
-0.01081456 0.77100003 -0.0027036399 1.9183196e-38 312 242
-0.0094627403 0.77100003 -0.0027036399 1.7247089e-38 313 242
-0.0081109209 0.77100003 -0.0027036399 1.7701226e-38 314 242
-0.0067590997 0.77100003 -0.0027036399 1.7055857e-38 315 242
-0.0053932532 0.76899999 -0.0026966266 1.6051416e-38 316 242
-0.0040449398 0.76899999 -0.0026966266 1.7526547e-38 317 242
-0.0026966266 0.76899999 -0.0026966266 1.9182844e-38 318 242
-0.0013483133 0.76899999 -0.0026966266 1.8998451e-38 319 242
0 0.76700002 -0.0026896133 1.6233671e-38 320 242
0.0013448066 0.76700002 -0.0026896133 1.6418423e-38 321 242
0.0026896133 0.76700002 -0.0026896133 1.9182138e-38 322 242
0.00403442 0.76700002 -0.0026896133 1.9643109e-38 323 242
0.0053792265 0.76700002 -0.0026896133 1.8539275e-38 324 242
0.006724033 0.76700002 -0.0026896133 1.7986102e-38 325 242
0.00806884 0.76700002 -0.0026896133 1.8077221e-38 326 242
0.0094136465 0.76700002 -0.0026896133 1.8261612e-38 327 242
0.010758453 0.76700002 -0.0026896133 1.8353807e-38 328 242
0.01210326 0.76700002 -0.0026896133 1.8538196e-38 329 242
0.013448066 0.76700002 -0.0026896133 1.8169048e-38 330 242
0.014831445 0.76899999 -0.0026966266 1.770771e-38 331 242
0.016179759 0.76899999 -0.0026966266 1.7156335e-38 332 242
0.017528072 0.76899999 -0.0026966266 1.7156335e-38 333 242
0.018925481 0.77100003 -0.0027036399 1.641877e-38 334 242
0.0203299 0.773 -0.0027106532 1.5958151e-38 335 242
0.021685226 0.773 -0.0027106532 1.5590089e-38 336 242
0.023040552 0.773 -0.0027106532 1.6051065e-38 337 242
0.024395877 0.773 -0.0027106532 1.7063777e-38 338 242
-0.026017714 0.78100002 -0.0041080597 9.5753975e-39 301 243
-0.024648361 0.78100002 -0.0041080597 1.1902963e-38 302 243
-0.023249198 0.77999997 -0.0041027996 1.6143962e-38 303 243
-0.021825492 0.778 -0.0040922803 1.6599918e-38 304 243
-0.0204088 0.77600002 -0.0040817601 1.6507722e-38 305 243
-0.019048214 0.77600002 -0.0040817601 1.8256925e-38 306 243
-0.017687626 0.77600002 -0.0040817601 1.8902294e-38 307 243
-0.016263919 0.773 -0.0040659797 1.8995562e-38 308 243
-0.01487002 0.77100003 -0.0040554604 1.9548736e-38 309 243
-0.013518199 0.77100003 -0.0040554604 1.9366142e-38 310 243
-0.01216638 0.77100003 -0.0040554604 1.9181392e-38 311 243
-0.01081456 0.77100003 -0.0040554604 1.8077215e-38 312 243
-0.0094381925 0.76899999 -0.0040449398 1.5956716e-38 313 243
-0.0080898795 0.76899999 -0.0040449398 1.779811e-38 314 243
-0.0067415666 0.76899999 -0.0040449398 1.9457633e-38 315 243
-0.0053932532 0.76899999 -0.0040449398 1.9459787e-38 316 243
-0.0040449398 0.76899999 -0.0040449398 1.9459787e-38 317 243
-0.0026966266 0.76899999 -0.0040449398 1.9735295e-38 318 243
-0.0013483133 0.76899999 -0.0040449398 1.9366512e-38 319 243
0 0.76700002 -0.00403442 1.5772685e-38 320 243
0.0013448066 0.76700002 -0.00403442 1.4665977e-38 321 243
0.0026896133 0.76700002 -0.00403442 1.5407511e-38 322 243
0.00403442 0.76700002 -0.00403442 1.6606054e-38 323 243
0.0053792265 0.76700002 -0.00403442 1.6790092e-38 324 243
0.006724033 0.76700002 -0.00403442 1.6882288e-38 325 243
0.00806884 0.76700002 -0.00403442 1.7341468e-38 326 243
0.0094136465 0.76700002 -0.00403442 1.7341468e-38 327 243
0.010758453 0.76700002 -0.00403442 1.7434017e-38 328 243
0.01210326 0.76700002 -0.00403442 1.7526212e-38 329 243
0.013448066 0.76700002 -0.00403442 1.7341095e-38 330 243
0.014831445 0.76899999 -0.0040449398 1.6880477e-38 331 243
0.016179759 0.76899999 -0.0040449398 1.715706e-38 332 243
0.017528072 0.76899999 -0.0040449398 1.7341451e-38 333 243
0.018876385 0.76899999 -0.0040449398 1.6603883e-38 334 243
0.020277301 0.77100003 -0.0040554604 1.6050709e-38 335 243
0.021685226 0.773 -0.0040659797 1.5498612e-38 336 243
0.023040552 0.773 -0.0040659797 1.5683003e-38 337 243
0.024395877 0.773 -0.0040659797 1.6603517e-38 338 243
-0.026017714 0.78100002 -0.0054774131 1.5203629e-38 301 244
-0.024616797 0.77999997 -0.0054703997 1.5402428e-38 302 244
-0.023189586 0.778 -0.0054563731 1.7338536e-38 303 244
-0.021825492 0.778 -0.0054563731 1.6969411e-38 304 244
-0.0204088 0.77600002 -0.0054423464 1.6969411e-38 305 244
-0.019048214 0.77600002 -0.0054423464 1.7152375e-38 306 244
-0.01764204 0.77399999 -0.0054283198 1.788994e-38 307 244
-0.016221842 0.77100003 -0.0054072798 1.8719704e-38 308 244
-0.01487002 0.77100003 -0.0054072798 1.8903735e-38 309 244
-0.013483133 0.76899999 -0.0053932532 1.8536757e-38 310 244
-0.012134819 0.76899999 -0.0053932532 1.8444203e-38 311 244
-0.010786506 0.76899999 -0.0053932532 1.761589e-38 312 244
-0.0094381925 0.76899999 -0.0053932532 1.5034414e-38 313 244
-0.0080898795 0.76899999 -0.0053932532 1.4764659e-38 314 244
-0.006724033 0.76700002 -0.0053792265 1.6700768e-38 315 244
-0.0053792265 0.76700002 -0.0053792265 1.8076868e-38 316 244
-0.00403442 0.76700002 -0.0053792265 1.7892118e-38 317 244
-0.0026896133 0.76700002 -0.0053792265 1.7892471e-38 318 244
-0.0013448066 0.76700002 -0.0053792265 1.7892471e-38 319 244
0 0.76700002 -0.0053792265 1.7521881e-38 320 244
0.0013448066 0.76700002 -0.0053792265 1.5861999e-38 321 244
0.0026896133 0.76700002 -0.0053792265 1.2738151e-38 322 244
0.00403442 0.76700002 -0.0053792265 1.4766454e-38 323 244
0.0053792265 0.76700002 -0.0053792265 1.6606427e-38 324 244
0.006724033 0.76700002 -0.0053792265 1.6606427e-38 325 244
0.00806884 0.76700002 -0.0053792265 1.706524e-38 326 244
0.0094136465 0.76700002 -0.0053792265 1.706524e-38 327 244
0.010758453 0.76700002 -0.0053792265 1.7065234e-38 328 244
0.01210326 0.76700002 -0.0053792265 1.7157788e-38 329 244
0.013448066 0.76700002 -0.0053792265 1.6880121e-38 330 244
0.014831445 0.76899999 -0.0053932532 1.6419142e-38 331 244
0.016179759 0.76899999 -0.0053932532 1.5955647e-38 332 244
0.017528072 0.76899999 -0.0053932532 1.6416623e-38 333 244
0.018876385 0.76899999 -0.0053932532 1.6329821e-38 334 244
0.020277301 0.77100003 -0.0054072798 1.5868483e-38 335 244
0.021629119 0.77100003 -0.0054072798 1.5773404e-38 336 244
0.02298094 0.77100003 -0.0054072798 1.5957795e-38 337 244
-0.025984399 0.77999997 -0.0068379994 2.0458037e-38 301 245
-0.024553679 0.778 -0.0068204664 1.8351265e-38 302 245
-0.023189586 0.778 -0.0068204664 1.8259069e-38 303 245
-0.021769386 0.77600002 -0.0068029333 1.8260868e-38 304 245
-0.0204088 0.77600002 -0.0068029333 1.8260868e-38 305 245
-0.019048214 0.77600002 -0.0068029333 1.7797745e-38 306 245
-0.017619247 0.773 -0.0067766332 1.7244571e-38 307 245
-0.016221842 0.77100003 -0.0067590997 1.8075067e-38 308 245
-0.014831445 0.76899999 -0.0067415666 1.8075067e-38 309 245
-0.013483133 0.76899999 -0.0067415666 1.7707734e-38 310 245
-0.012134819 0.76899999 -0.0067415666 1.7707734e-38 311 245
-0.010786506 0.76899999 -0.0067415666 1.7156e-38 312 245
-0.0094381925 0.76899999 -0.0067415666 1.4298296e-38 313 245
-0.00806884 0.76700002 -0.006724033 1.4208981e-38 314 245
-0.006724033 0.76700002 -0.006724033 1.6422035e-38 315 245
-0.0053792265 0.76700002 -0.006724033 1.7248196e-38 316 245
-0.00403442 0.76700002 -0.006724033 1.7063805e-38 317 245
-0.0026896133 0.76700002 -0.006724033 1.7064158e-38 318 245
-0.0013448066 0.76700002 -0.006724033 1.7064158e-38 319 245
0 0.76700002 -0.006724033 1.7892105e-38 320 245
0.0013448066 0.76700002 -0.006724033 1.6509169e-38 321 245
0.0026896133 0.76700002 -0.006724033 1.1815841e-38 322 245
0.00403442 0.76700002 -0.006724033 1.3198776e-38 323 245
0.0053792265 0.76700002 -0.006724033 1.6604276e-38 324 245
0.006724033 0.76700002 -0.006724033 1.6880861e-38 325 245
0.00806884 0.76700002 -0.006724033 1.7156354e-38 326 245
0.0094136465 0.76700002 -0.006724033 1.7064158e-38 327 245
0.010758453 0.76700002 -0.006724033 1.6696452e-38 328 245
0.01210326 0.76700002 -0.006724033 1.6880843e-38 329 245
0.013483133 0.76899999 -0.0067415666 1.6512419e-38 330 245
0.014831445 0.76899999 -0.0067415666 1.5774495e-38 331 245
0.016179759 0.76899999 -0.0067415666 1.2644883e-38 332 245
0.017528072 0.76899999 -0.0067415666 1.3013664e-38 333 245
0.018876385 0.76899999 -0.0067415666 1.6238347e-38 334 245
0.0202247 0.76899999 -0.0067415666 1.5961761e-38 335 245
0.021573013 0.76899999 -0.0067415666 1.5865965e-38 336 245
0.022921326 0.76899999 -0.0067415666 1.5773769e-38 337 245
0.025784519 0.81699997 -0.0071623665 1.6602085e-38 338 245
-0.027387068 0.78100002 -0.0082161194 1.8436975e-38 300 246
-0.025984399 0.77999997 -0.0082055992 1.9635518e-38 301 246
-0.024553679 0.778 -0.0081845606 1.7799543e-38 302 246
-0.023129974 0.77600002 -0.0081635201 1.7706988e-38 303 246
-0.021769386 0.77600002 -0.0081635201 1.7984654e-38 304 246
-0.020356199 0.77399999 -0.0081424797 1.8445631e-38 305 246
-0.018999118 0.77399999 -0.0081424797 1.8535675e-38 306 246
-0.017619247 0.773 -0.0081319595 1.8074697e-38 307 246
-0.016179759 0.76899999 -0.0080898795 1.7708087e-38 308 246
-0.014831445 0.76899999 -0.0080898795 1.7523694e-38 309 246
-0.013483133 0.76899999 -0.0080898795 1.688049e-38 310 246
-0.012134819 0.76899999 -0.0080898795 1.688049e-38 311 246
-0.010786506 0.76899999 -0.0080898795 1.6512067e-38 312 246
-0.0094136465 0.76700002 -0.00806884 1.4022425e-38 313 246
-0.00806884 0.76700002 -0.00806884 1.4668874e-38 314 246
-0.006724033 0.76700002 -0.00806884 1.6604982e-38 315 246
-0.0053792265 0.76700002 -0.00806884 1.7156356e-38 316 246
-0.00403442 0.76700002 -0.00806884 1.669538e-38 317 246
-0.0026896133 0.76700002 -0.00806884 1.6145078e-38 318 246
-0.0013448066 0.76700002 -0.00806884 1.6237274e-38 319 246
0 0.76700002 -0.00806884 1.7063792e-38 320 246
0.0013448066 0.76700002 -0.00806884 1.6510618e-38 321 246
0.0026861064 0.76599997 -0.0080583189 1.4116772e-38 322 246
0.0040291594 0.76599997 -0.0080583189 1.3655795e-38 323 246
0.0053722127 0.76599997 -0.0080583189 1.5589032e-38 324 246
0.0067152665 0.76599997 -0.0080583189 1.7063802e-38 325 246
0.0080898795 0.76899999 -0.0080898795 1.7248552e-38 326 246
0.0094381925 0.76899999 -0.0080898795 1.7156356e-38 327 246
0.010758453 0.76700002 -0.00806884 1.6604982e-38 328 246
0.01210326 0.76700002 -0.00806884 1.6697177e-38 329 246
0.013448066 0.76700002 -0.00806884 1.5500073e-38 330 246
0.014831445 0.76899999 -0.0080898795 1.3471768e-38 331 246
0.016179759 0.76899999 -0.0080898795 9.8851335e-39 332 246
0.017528072 0.76899999 -0.0080898795 1.1636492e-38 333 246
0.018876385 0.76899999 -0.0080898795 1.5777738e-38 334 246
0.0202247 0.76899999 -0.0080898795 1.5777738e-38 335 246
0.021573013 0.76899999 -0.0080898795 1.6051079e-38 336 246
0.022921326 0.76899999 -0.0080898795 1.5774851e-38 337 246
-0.027351998 0.77999997 -0.0095731998 1.8258363e-38 300 247
-0.025984399 0.77999997 -0.0095731998 1.788994e-38 301 247
-0.024553679 0.778 -0.0095486529 1.7154183e-38 302 247
-0.023129974 0.77600002 -0.009524107 1.7338934e-38 303 247
-0.021769386 0.77600002 -0.009524107 1.7248899e-38 304 247
-0.020356199 0.77399999 -0.0094995592 1.7433651e-38 305 247
-0.018999118 0.77399999 -0.0094995592 1.7341098e-38 306 247
-0.017619247 0.773 -0.0094872871 1.7525491e-38 307 247
-0.016179759 0.76899999 -0.0094381925 1.7065237e-38 308 247
-0.014831445 0.76899999 -0.0094381925 1.7065237e-38 309 247
-0.013448066 0.76700002 -0.0094136465 1.6880493e-38 310 247
-0.01210326 0.76700002 -0.0094136465 1.6696101e-38 311 247
-0.010758453 0.76700002 -0.0094136465 1.549972e-38 312 247
-0.0094136465 0.76700002 -0.0094136465 1.3102993e-38 313 247
-0.00806884 0.76700002 -0.0094136465 1.5128778e-38 314 247
-0.006724033 0.76700002 -0.0094136465 1.6787941e-38 315 247
-0.0053792265 0.76700002 -0.0094136465 1.6420235e-38 316 247
-0.00403442 0.76700002 -0.0094136465 1.6051811e-38 317 247
-0.0026896133 0.76700002 -0.0094136465 1.5776669e-38 318 247
-0.0013448066 0.76700002 -0.0094136465 1.5776669e-38 319 247
0 0.76700002 -0.0094136465 1.6052174e-38 320 247
0.0013448066 0.76700002 -0.0094136465 1.6329121e-38 321 247
0.0026861064 0.76599997 -0.0094013726 1.5773767e-38 322 247
0.0040291594 0.76599997 -0.0094013726 1.2823867e-38 323 247
0.0053722127 0.76599997 -0.0094013726 1.1073593e-38 324 247
0.0067152665 0.76599997 -0.0094013726 1.3101897e-38 325 247
0.0080898795 0.76899999 -0.0094381925 1.475964e-38 326 247
0.0094136465 0.76700002 -0.0094136465 1.5220978e-38 327 247
0.010758453 0.76700002 -0.0094136465 1.5497555e-38 328 247
0.01210326 0.76700002 -0.0094136465 1.5497555e-38 329 247
0.013448066 0.76700002 -0.0094136465 1.3566485e-38 330 247
0.014831445 0.76899999 -0.0094381925 1.1999519e-38 331 247
0.016179759 0.76899999 -0.0094381925 1.3103709e-38 332 247
0.017528072 0.76899999 -0.0094381925 1.4578839e-38 333 247
0.018876385 0.76899999 -0.0094381925 1.5960328e-38 334 247
0.0202247 0.76899999 -0.0094381925 1.5868133e-38 335 247
0.021573013 0.76899999 -0.0094381925 1.5317466e-38 336 247
0.022921326 0.76899999 -0.0094381925 1.4764294e-38 337 247
-0.028756421 0.78100002 -0.010954826 1.7520079e-38 299 248
-0.027351998 0.77999997 -0.010940799 1.7062343e-38 300 248
-0.025984399 0.77999997 -0.010940799 1.7062343e-38 301 248
-0.024553679 0.778 -0.010912746 1.6879397e-38 302 248
-0.023129974 0.77600002 -0.010884693 1.7063789e-38 303 248
-0.021769386 0.77600002 -0.010884693 1.6236922e-38 304 248
-0.020356199 0.77399999 -0.01085664 1.5591553e-38 305 248
-0.018999118 0.77399999 -0.01085664 1.5226013e-38 306 248
-0.017619247 0.773 -0.010842613 1.5779187e-38 307 248
-0.016179759 0.76899999 -0.010786506 1.6604632e-38 308 248
-0.014831445 0.76899999 -0.010786506 1.6604632e-38 309 248
-0.013448066 0.76700002 -0.010758453 1.7064531e-38 310 248
-0.01210326 0.76700002 -0.010758453 1.6511717e-38 311 248
-0.010758453 0.76700002 -0.010758453 1.3476814e-38 312 248
-0.0094136465 0.76700002 -0.010758453 1.2370107e-38 313 248
-0.00806884 0.76700002 -0.010758453 1.5681596e-38 314 248
-0.006724033 0.76700002 -0.010758453 1.6326966e-38 315 248
-0.0053792265 0.76700002 -0.010758453 1.5591922e-38 316 248
-0.00403442 0.76700002 -0.010758453 1.5591922e-38 317 248
-0.0026896133 0.76700002 -0.010758453 1.5683401e-38 318 248
-0.0013430532 0.76599997 -0.010744425 1.5683401e-38 319 248
0 0.76599997 -0.010744425 1.5683398e-38 320 248
0.0013448066 0.76700002 -0.010758453 1.6051821e-38 321 248
0.0026861064 0.76599997 -0.010744425 1.5866698e-38 322 248
0.0040291594 0.76599997 -0.010744425 6.5545792e-39 323 248
0.0053792265 0.76700002 -0.010758453 1.8539179e-42 324 248
0.006724033 0.76700002 -0.010758453 8.3349233e-42 325 248
0.0080898795 0.76899999 -0.010786506 1.4906817e-39 326 248
0.0094136465 0.76700002 -0.010758453 3.6111812e-39 327 248
0.010758453 0.76700002 -0.010758453 4.9919618e-39 328 248
0.01210326 0.76700002 -0.010758453 5.4529386e-39 329 248
0.013448066 0.76700002 -0.010758453 7.5817001e-39 330 248
0.014831445 0.76899999 -0.010786506 1.1085135e-38 331 248
0.016179759 0.76899999 -0.010786506 1.5774148e-38 332 248
0.017528072 0.76899999 -0.010786506 1.6419517e-38 333 248
0.018876385 0.76899999 -0.010786506 1.5774865e-38 334 248
0.0202247 0.76899999 -0.010786506 1.5682668e-38 335 248
0.021573013 0.76899999 -0.010786506 1.5039454e-38 336 248
0.022921326 0.76899999 -0.010786506 1.448628e-38 337 248
-0.028756421 0.78100002 -0.01232418 1.7336413e-38 299 249
-0.027351998 0.77999997 -0.012308398 1.6602811e-38 300 249
-0.025984399 0.77999997 -0.012308398 1.6695366e-38 301 249
-0.024553679 0.778 -0.012276839 1.6144723e-38 302 249
-0.023129974 0.77600002 -0.01224528 1.6052527e-38 303 249
-0.021769386 0.77600002 -0.01224528 1.5314258e-38 304 249
-0.020356199 0.77399999 -0.01221372 1.4576693e-38 305 249
-0.018999118 0.77399999 -0.01221372 1.4579937e-38 306 249
-0.017619247 0.773 -0.012197939 1.5133111e-38 307 249
-0.016221842 0.77100003 -0.01216638 1.5500449e-38 308 249
-0.014831445 0.76899999 -0.012134819 1.5777034e-38 309 249
-0.013483133 0.76899999 -0.012134819 1.6509559e-38 310 249
-0.012134819 0.76899999 -0.012134819 1.438906e-38 311 249
-0.010758453 0.76700002 -0.01210326 7.2247754e-39 312 249
-0.0094136465 0.76700002 -0.01210326 9.3452735e-39 313 249
-0.00806884 0.76700002 -0.01210326 1.5865994e-38 314 249
-0.006724033 0.76700002 -0.01210326 1.6234417e-38 315 249
-0.0053792265 0.76700002 -0.01210326 1.531606e-38 316 249
-0.00403442 0.76700002 -0.01210326 1.5131309e-38 317 249
-0.0026896133 0.76700002 -0.01210326 1.5223145e-38 318 249
-0.0013430532 0.76599997 -0.012087479 1.5223145e-38 319 249
0 0.76599997 -0.012087479 1.5500452e-38 320 249
0.0013448066 0.76700002 -0.01210326 1.531606e-38 321 249
0.0026861064 0.76599997 -0.012087479 1.2554506e-38 322 249
0.0040291594 0.76599997 -0.012087479 3.3349432e-39 323 249
0.0053792265 0.76700002 -0.01210326 1.821688e-44 324 249
0.006724033 0.76700002 -0.01210326 2.8025969e-44 325 249
0.00806884 0.76700002 -0.01210326 4.4841551e-44 326 249
0.0094136465 0.76700002 -0.01210326 1.1280453e-42 327 249
0.013483133 0.76899999 -0.012134819 5.4568888e-39 330 249
0.014831445 0.76899999 -0.012134819 1.2463757e-38 331 249
0.016179759 0.76899999 -0.012134819 1.5499726e-38 332 249
0.017528072 0.76899999 -0.012134819 1.5499726e-38 333 249
0.018925481 0.77100003 -0.01216638 1.4488095e-38 334 249
0.020277301 0.77100003 -0.01216638 1.4211148e-38 335 249
0.021573013 0.76899999 -0.012134819 1.4027473e-38 336 249
0.022921326 0.76899999 -0.012134819 1.365833e-38 337 249
-0.028830061 0.78299999 -0.013728599 1.6969426e-38 299 250
-0.027351998 0.77999997 -0.013675999 1.6052161e-38 300 250
-0.025984399 0.77999997 -0.013675999 1.6052161e-38 301 250
-0.024616797 0.77999997 -0.013675999 1.5684833e-38 302 250
-0.023189586 0.778 -0.013640933 1.5316411e-38 303 250
-0.021769386 0.77600002 -0.013605867 1.4208634e-38 304 250
-0.0204088 0.77600002 -0.013605867 1.3471067e-38 305 250
-0.018999118 0.77399999 -0.013570799 1.3566862e-38 306 250
-0.01764204 0.77399999 -0.013570799 1.3935643e-38 307 250
-0.016221842 0.77100003 -0.013518199 1.4395176e-38 308 250
-0.014831445 0.76899999 -0.013483133 1.4026035e-38 309 250
-0.013483133 0.76899999 -0.013483133 1.3743675e-38 310 250
-0.012134819 0.76899999 -0.013483133 9.1338918e-39 311 250
-0.010758453 0.76700002 -0.013448066 3.6042798e-41 312 250
-0.0094136465 0.76700002 -0.013448066 5.2915538e-39 313 250
-0.00806884 0.76700002 -0.013448066 1.411718e-38 314 250
-0.006724033 0.76700002 -0.013448066 1.5500108e-38 315 250
-0.0053792265 0.76700002 -0.013448066 1.5407903e-38 316 250
-0.00403442 0.76700002 -0.013448066 1.503876e-38 317 250
-0.0026896133 0.76700002 -0.013448066 1.5039116e-38 318 250
-0.0013430532 0.76599997 -0.013430533 1.5131312e-38 319 250
0 0.76599997 -0.013430533 1.6144386e-38 320 250
0.0013448066 0.76700002 -0.013448066 1.476145e-38 321 250
0.0026896133 0.76700002 -0.013448066 7.8586443e-39 322 250
0.00403442 0.76700002 -0.013448066 2.9824256e-40 323 250
0.0053792265 0.76700002 -0.013448066 4.4841551e-44 324 250
0.00806884 0.76700002 -0.013448066 8.3209103e-42 326 250
0.013483133 0.76899999 -0.013483133 4.9901471e-39 330 250
0.014831445 0.76899999 -0.013483133 1.3195557e-38 331 250
0.016221842 0.77100003 -0.013518199 1.4579937e-38 332 250
0.01757366 0.77100003 -0.013518199 1.4303349e-38 333 250
0.018925481 0.77100003 -0.013518199 1.3384271e-38 334 250
0.020277301 0.77100003 -0.013518199 1.3291717e-38 335 250
0.021573013 0.76899999 -0.013483133 1.3198801e-38 336 250
0.022921326 0.76899999 -0.013483133 1.2553431e-38 337 250
-0.028830061 0.78299999 -0.01510146 1.6508814e-38 299 251
-0.027351998 0.77999997 -0.0150436 1.5867417e-38 300 251
-0.025984399 0.77999997 -0.0150436 1.5867417e-38 301 251
-0.024616797 0.77999997 -0.0150436 1.5684117e-38 302 251
-0.023189586 0.778 -0.015005025 1.5684117e-38 303 251
-0.021769386 0.77600002 -0.014966453 1.4946199e-38 304 251
-0.0204088 0.77600002 -0.014966453 1.4393025e-38 305 251
-0.018999118 0.77399999 -0.014927879 1.3474665e-38 306 251
-0.01764204 0.77399999 -0.014927879 1.2921492e-38 307 251
-0.016221842 0.77100003 -0.01487002 8.5014928e-39 308 251
-0.01487002 0.77100003 -0.01487002 3.9839069e-39 309 251
-0.013483133 0.76899999 -0.014831445 4.1463497e-39 310 251
-0.012134819 0.76899999 -0.014831445 2.02549e-39 311 251
-0.010758453 0.76700002 -0.014792874 7.6412805e-42 312 251
-0.0094136465 0.76700002 -0.014792874 1.4881734e-39 313 251
-0.00806884 0.76700002 -0.014792874 5.1979569e-39 314 251
-0.006724033 0.76700002 -0.014792874 1.1098462e-38 315 251
-0.0053792265 0.76700002 -0.014792874 1.6326628e-38 316 251
-0.00403442 0.76700002 -0.014792874 1.5589063e-38 317 251
-0.0026896133 0.76700002 -0.014792874 1.503876e-38 318 251
-0.0013448066 0.76700002 -0.014792874 1.5315707e-38 319 251
0 0.76700002 -0.014792874 1.6328061e-38 320 251
0.0013448066 0.76700002 -0.014792874 1.3101214e-38 321 251
0.0026896133 0.76700002 -0.014792874 8.5933507e-40 322 251
0.00403442 0.76700002 -0.014792874 1.6250858e-41 323 251
0.0053792265 0.76700002 -0.014792874 9.6571885e-41 324 251
0.012134819 0.76899999 -0.014831445 3.5032462e-44 329 251
0.013483133 0.76899999 -0.014831445 4.1578711e-39 330 251
0.014831445 0.76899999 -0.014831445 1.2178891e-38 331 251
0.016221842 0.77100003 -0.01487002 1.356723e-38 332 251
0.01757366 0.77100003 -0.01487002 1.356723e-38 333 251
0.018925481 0.77100003 -0.01487002 1.3474313e-38 334 251
0.020277301 0.77100003 -0.01487002 1.3474313e-38 335 251
0.021629119 0.77100003 -0.01487002 1.328992e-38 336 251
0.02298094 0.77100003 -0.01487002 1.2921139e-38 337 251
-0.027351998 0.77999997 -0.016411198 1.540717e-38 300 252
-0.025984399 0.77999997 -0.016411198 1.540717e-38 301 252
-0.024616797 0.77999997 -0.016411198 1.4947644e-38 302 252
-0.023189586 0.778 -0.016369121 1.5040198e-38 303 252
-0.021825492 0.778 -0.016369121 1.4855448e-38 304 252
-0.0204088 0.77600002 -0.01632704 1.4855448e-38 305 252
-0.018999118 0.77399999 -0.016284959 1.503982e-38 306 252
-0.01764204 0.77399999 -0.016284959 1.33803e-38 307 252
-0.016263919 0.773 -0.016263919 6.3737584e-39 308 252
-0.01487002 0.77100003 -0.016221842 7.5782221e-42 309 252
-0.013518199 0.77100003 -0.016221842 1.1210388e-44 310 252
-0.012134819 0.76899999 -0.016179759 3.0828566e-44 311 252
-0.010786506 0.76899999 -0.016179759 6.8887833e-42 312 252
-0.0094381925 0.76899999 -0.016179759 3.2860449e-42 313 252
-0.0080898795 0.76899999 -0.016179759 3.018551e-40 314 252
-0.0067415666 0.76899999 -0.016179759 9.7061695e-39 315 252
-0.0053792265 0.76700002 -0.01613768 1.4303736e-38 316 252
-0.00403442 0.76700002 -0.01613768 1.4396289e-38 317 252
-0.0026896133 0.76700002 -0.01613768 1.457959e-38 318 252
-0.0013448066 0.76700002 -0.01613768 1.4948014e-38 319 252
0 0.76700002 -0.01613768 1.4856167e-38 320 252
0.0013448066 0.76700002 -0.01613768 1.0430778e-38 321 252
0.0026896133 0.76700002 -0.01613768 1.193626e-41 322 252
0.00403442 0.76700002 -0.01613768 5.8139873e-42 323 252
0.0053792265 0.76700002 -0.01613768 1.1117972e-39 324 252
0.0067590997 0.77100003 -0.016221842 1.5727754e-39 325 252
0.01216638 0.77100003 -0.016221842 3.7835059e-44 329 252
0.013518199 0.77100003 -0.016221842 3.4206718e-39 330 252
0.01487002 0.77100003 -0.016221842 1.0796322e-38 331 252
0.016221842 0.77100003 -0.016221842 1.3014778e-38 332 252
0.017619247 0.773 -0.016263919 1.3291366e-38 333 252
0.018974574 0.773 -0.016263919 1.2830744e-38 334 252
0.0203299 0.773 -0.016263919 1.2830744e-38 335 252
0.021629119 0.77100003 -0.016221842 1.2830741e-38 336 252
0.02298094 0.77100003 -0.016221842 1.3014772e-38 337 252
-0.027387068 0.78100002 -0.017801592 1.4300461e-38 300 253
-0.026017714 0.78100002 -0.017801592 1.4853633e-38 301 253
-0.024648361 0.78100002 -0.017801592 1.3843091e-38 302 253
-0.023249198 0.77999997 -0.017778799 1.3566864e-38 303 253
-0.021825492 0.778 -0.017733213 1.4304427e-38 304 253
-0.0204088 0.77600002 -0.017687626 1.48576e-38 305 253
-0.019048214 0.77600002 -0.017687626 1.7063805e-38 306 253
-0.01764204 0.77399999 -0.01764204 1.5496839e-38 307 253
-0.016263919 0.773 -0.017619247 1.0239871e-38 308 253
-0.01487002 0.77100003 -0.01757366 3.3248384e-39 309 253
-0.013518199 0.77100003 -0.01757366 4.713968e-42 310 253
-0.01216638 0.77100003 -0.01757366 9.2991007e-40 311 253
-0.01081456 0.77100003 -0.01757366 1.2086816e-39 312 253
-0.0094627403 0.77100003 -0.01757366 5.6331217e-40 313 253
-0.0081109209 0.77100003 -0.01757366 1.5941171e-41 314 253
-0.0067590997 0.77100003 -0.01757366 1.6808659e-39 315 253
-0.0053932532 0.76899999 -0.017528072 4.4640044e-39 316 253
-0.0040449398 0.76899999 -0.017528072 8.612805e-39 317 253
-0.0026966266 0.76899999 -0.017528072 1.3844187e-38 318 253
