# .PCD v.7 - Point Cloud Data file format
FIELDS x y z rgb imX imY
SIZE 4 4 4 4 4 4
TYPE F F F F F F
COUNT 1 1 1 1 1 1
WIDTH 837
HEIGHT 1
VIEWPOINT 0 0 0 1 0 0 0
POINTS 837
DATA ascii
0.026694499 0.72500002 -0.045761999 7.8258105e-39 341 276
0.027965667 0.72500002 -0.045761999 5.4370408e-39 342 276
0.029317487 0.727 -0.045888241 6.0824103e-39 343 276
0.030592158 0.727 -0.045888241 9.0460122e-39 344 276
0.03186683 0.727 -0.045888241 1.3287011e-38 345 276
-0.0064259665 0.73299998 -0.04755215 4.8888921e-39 315 277
-0.005140773 0.73299998 -0.04755215 6.9042242e-39 316 277
-0.00384506 0.73100001 -0.047422405 7.5495936e-39 317 277
-0.0025598668 0.73000002 -0.047357533 8.0084039e-39 318 277
-0.0012764266 0.72799999 -0.047227785 7.8240112e-39 319 277
0 0.727 -0.047162913 8.0984471e-39 320 277
0.0012711667 0.72500002 -0.047033165 8.2831985e-39 321 277
0.0025353199 0.72299999 -0.046903417 8.4719016e-39 322 277
0.0038029798 0.72299999 -0.046903417 9.0247166e-39 323 277
0.0050636264 0.722 -0.046838548 1.0587717e-38 324 277
0.0063120001 0.72000003 -0.0467088 1.1878455e-38 325 277
0.0075743999 0.72000003 -0.0467088 1.159718e-38 326 277
0.0088245263 0.71899998 -0.046643924 9.0157021e-39 327 277
0.010085173 0.71899998 -0.046643924 8.0080242e-39 328 277
0.01134582 0.71899998 -0.046643924 9.483513e-39 329 277
0.012606465 0.71899998 -0.046643924 1.2250478e-38 330 277
0.013867113 0.71899998 -0.046643924 1.4555368e-38 331 277
0.01512776 0.71899998 -0.046643924 1.390928e-38 332 277
0.016388407 0.71899998 -0.046643924 1.1604029e-38 333 277
0.017649053 0.71899998 -0.046643924 8.8342017e-39 334 277
0.018909698 0.71899998 -0.046643924 8.649809e-39 335 277
0.020170346 0.71899998 -0.046643924 8.373948e-39 336 277
0.021430992 0.71899998 -0.046643924 8.2813937e-39 337 277
0.022691639 0.71899998 -0.046643924 8.0066046e-39 338 277
0.0239856 0.72000003 -0.0467088 8.2835517e-39 339 277
0.025248 0.72000003 -0.0467088 8.1013212e-39 340 277
0.026584039 0.722 -0.046838548 8.1935168e-39 341 277
0.02788852 0.72299999 -0.046903417 7.1819055e-39 342 277
0.029156178 0.72299999 -0.046903417 6.5365361e-39 343 277
0.030423839 0.72299999 -0.046903417 6.1850582e-39 344 277
0.031691495 0.72299999 -0.046903417 1.0610448e-38 345 277
0.032959159 0.72299999 -0.046903417 1.5309558e-38 346 277
-0.0064259665 0.73299998 -0.048837345 6.176031e-39 315 278
-0.005140773 0.73299998 -0.048837345 7.3634002e-39 316 278
-0.00384506 0.73100001 -0.048704091 7.7325415e-39 317 278
-0.0025598668 0.73000002 -0.048637468 8.0076766e-39 318 278
-0.0012764266 0.72799999 -0.048504211 7.8236455e-39 319 278
0 0.727 -0.048437584 7.8236553e-39 320 278
0.0012676599 0.72299999 -0.048171077 8.0084067e-39 321 278
0.0025353199 0.72299999 -0.048171077 8.0105731e-39 322 278
0.0037977197 0.722 -0.048104454 8.7481382e-39 323 278
0.0050496003 0.72000003 -0.0479712 1.0314742e-38 324 278
0.0063032326 0.71899998 -0.04790457 1.2343046e-38 325 278
0.0075638802 0.71899998 -0.04790457 1.2795367e-38 326 278
0.0087999795 0.71700001 -0.04777132 8.5547267e-39 327 278
0.01005712 0.71700001 -0.04777132 8.8359926e-39 328 278
0.01131426 0.71700001 -0.04777132 1.1694057e-38 329 278
0.0125714 0.71700001 -0.04777132 1.335792e-38 330 278
0.013828539 0.71700001 -0.04777132 1.5386225e-38 331 278
0.015085679 0.71700001 -0.04777132 1.4096908e-38 332 278
0.016342819 0.71700001 -0.04777132 1.1607626e-38 333 278
0.017599959 0.71700001 -0.04777132 8.7430781e-39 334 278
0.0188308 0.71600002 -0.047704693 8.3742955e-39 335 278
0.020086186 0.71600002 -0.047704693 8.649809e-39 336 278
0.021371379 0.71700001 -0.04777132 8.4650591e-39 337 278
0.02262852 0.71700001 -0.04777132 8.0066046e-39 338 278
0.02388566 0.71700001 -0.04777132 8.1909959e-39 339 278
0.0251428 0.71700001 -0.04777132 7.8254574e-39 340 278
0.02647358 0.71899998 -0.04790457 8.1020429e-39 341 278
0.027772799 0.72000003 -0.0479712 7.9180216e-39 342 278
0.029035201 0.72000003 -0.0479712 7.3648478e-39 343 278
0.0302976 0.72000003 -0.0479712 5.4410121e-39 344 278
0.031691495 0.72299999 -0.048171077 8.206881e-39 345 278
0.032959159 0.72299999 -0.048171077 1.3466012e-38 346 278
-0.0077111595 0.73299998 -0.050122537 1.4195256e-38 314 279
-0.0064259665 0.73299998 -0.050122537 6.911801e-39 315 279
-0.005140773 0.73299998 -0.050122537 7.2722892e-39 316 279
-0.00384506 0.73100001 -0.049985781 7.2722892e-39 317 279
-0.0025528532 0.72799999 -0.049780637 8.0988003e-39 318 279
-0.0012746733 0.727 -0.049712259 8.0066046e-39 319 279
0 0.72500002 -0.0495755 7.7318128e-39 320 279
0.0012676599 0.72299999 -0.049438741 7.8240084e-39 321 279
0.0025248001 0.72000003 -0.0492336 8.2839174e-39 322 279
0.0037872 0.72000003 -0.0492336 8.9292868e-39 323 279
0.0050425865 0.71899998 -0.049165215 9.0258139e-39 324 279
0.0062857 0.71700001 -0.04902846 1.2160465e-38 325 279
0.0075428397 0.71700001 -0.04902846 1.2523121e-38 326 279
0.0087877065 0.71600002 -0.048960082 7.360166e-39 327 279
0.010043093 0.71600002 -0.048960082 9.6646967e-39 328 279
0.01129848 0.71600002 -0.048960082 1.4827652e-38 329 279
0.012553867 0.71600002 -0.048960082 1.4741943e-38 330 279
0.013809253 0.71600002 -0.048960082 1.5111086e-38 331 279
0.01506464 0.71600002 -0.048960082 1.3824286e-38 332 279
0.016320027 0.71600002 -0.048960082 1.1611592e-38 333 279
0.017575413 0.71600002 -0.048960082 9.389895e-39 334 279
0.0188308 0.71600002 -0.048960082 8.9289183e-39 335 279
0.020086186 0.71600002 -0.048960082 8.5601315e-39 336 279
0.021341572 0.71600002 -0.048960082 7.9147621e-39 337 279
0.022596961 0.71600002 -0.048960082 7.9140433e-39 338 279
0.023852346 0.71600002 -0.048960082 8.0062389e-39 339 279
0.025107734 0.71600002 -0.048960082 8.0084039e-39 340 279
0.02639994 0.71700001 -0.04902846 8.2849894e-39 341 279
0.027657079 0.71700001 -0.04902846 8.0109361e-39 342 279
0.028994869 0.71899998 -0.049165215 8.0109361e-39 343 279
0.030255521 0.71899998 -0.049165215 6.6305618e-39 344 279
0.031516165 0.71899998 -0.049165215 8.1060506e-39 345 279
-0.0077111595 0.73299998 -0.051407732 1.4012306e-38 314 280
-0.0064259665 0.73299998 -0.051407732 7.0979943e-39 315 280
-0.0051267464 0.73100001 -0.051267464 7.5499495e-39 316 280
-0.0038397999 0.73000002 -0.051197331 7.4577525e-39 317 280
-0.0025528532 0.72799999 -0.051057063 7.8243616e-39 318 280
-0.0012746733 0.727 -0.050986931 7.6399703e-39 319 280
0 0.72500002 -0.050846666 7.6392641e-39 320 280
0.0012676599 0.72299999 -0.050706398 7.7314597e-39 321 280
0.0025248001 0.72000003 -0.050496001 7.9162209e-39 322 280
0.0037819401 0.71899998 -0.050425861 8.1009709e-39 323 280
0.0050285598 0.71700001 -0.0502856 8.0113158e-39 324 280
0.0062769335 0.71600002 -0.050215468 1.0131455e-38 325 280
0.00753232 0.71600002 -0.050215468 1.1511153e-38 326 280
0.0087877065 0.71600002 -0.050215468 6.7169799e-39 327 280
0.010043093 0.71600002 -0.050215468 8.3768557e-39 328 280
0.01129848 0.71600002 -0.050215468 1.4369212e-38 329 280
0.012518799 0.71399999 -0.050075196 1.5019256e-38 330 280
0.01377068 0.71399999 -0.050075196 1.4650473e-38 331 280
0.015022559 0.71399999 -0.050075196 1.410124e-38 332 280
0.016274439 0.71399999 -0.050075196 1.2902697e-38 333 280
0.017526319 0.71399999 -0.050075196 1.0497334e-38 334 280
0.018778199 0.71399999 -0.050075196 9.2065954e-39 335 280
0.020030079 0.71399999 -0.050075196 8.9253183e-39 336 280
0.021281958 0.71399999 -0.050075196 8.5568945e-39 337 280
0.022533838 0.71399999 -0.050075196 7.6388955e-39 338 280
0.023852346 0.71600002 -0.050215468 7.7314499e-39 339 280
0.025107734 0.71600002 -0.050215468 7.2737269e-39 340 280
0.026363119 0.71600002 -0.050215468 7.5503152e-39 341 280
0.027657079 0.71700001 -0.0502856 7.5517628e-39 342 280
0.028994869 0.71899998 -0.050425861 8.0127409e-39 343 280
0.030255521 0.71899998 -0.050425861 6.4479558e-39 344 280
0.031516165 0.71899998 -0.050425861 6.5401514e-39 345 280
-0.0077111595 0.73299998 -0.052692924 1.3921543e-38 314 281
-0.006408433 0.73100001 -0.052549154 7.6518813e-39 315 281
-0.0051267464 0.73100001 -0.052549154 7.9198208e-39 316 281
-0.0038397999 0.73000002 -0.052477267 7.0900588e-39 317 281
-0.0025528532 0.72799999 -0.052333489 7.8236553e-39 318 281
-0.0012746733 0.727 -0.052261602 7.6392641e-39 319 281
0 0.72500002 -0.052117832 7.455949e-39 320 281
0.0012624001 0.72000003 -0.051758397 7.3637534e-39 321 281
0.0025212932 0.71899998 -0.05168651 8.0073263e-39 322 281
0.0037819401 0.71899998 -0.05168651 8.191719e-39 323 281
0.0050285598 0.71700001 -0.051542737 8.1928162e-39 324 281
0.0062769335 0.71600002 -0.051470853 8.9303812e-39 325 281
0.00753232 0.71600002 -0.051470853 9.2962897e-39 326 281
0.0087631596 0.71399999 -0.05132708 6.8070077e-39 327 281
0.01001504 0.71399999 -0.05132708 7.087905e-39 328 281
0.011266919 0.71399999 -0.05132708 1.0960121e-38 329 281
0.012518799 0.71399999 -0.05132708 1.2159746e-38 330 281
0.01377068 0.71399999 -0.05132708 1.3173538e-38 331 281
0.015022559 0.71399999 -0.05132708 1.4008691e-38 332 281
0.016274439 0.71399999 -0.05132708 1.3732464e-38 333 281
0.017526319 0.71399999 -0.05132708 1.068173e-38 334 281
0.018778199 0.71399999 -0.05132708 8.7456214e-39 335 281
0.020030079 0.71399999 -0.05132708 7.9126069e-39 336 281
0.021281958 0.71399999 -0.05132708 8.004804e-39 337 281
0.022533838 0.71399999 -0.05132708 7.4555833e-39 338 281
0.02378572 0.71399999 -0.05132708 7.4555833e-39 339 281
0.025107734 0.71600002 -0.051470853 7.3655568e-39 340 281
0.026363119 0.71600002 -0.051470853 7.5499495e-39 341 281
0.027618507 0.71600002 -0.051470853 7.5524788e-39 342 281
0.028994869 0.71899998 -0.05168651 7.8294259e-39 343 281
0.030255521 0.71899998 -0.05168651 7.4621035e-39 344 281
0.03156 0.72000003 -0.051758397 6.8167341e-39 345 281
-0.0077111595 0.73299998 -0.053978115 1.4289601e-38 314 282
-0.0063821329 0.72799999 -0.053609919 8.4812763e-39 315 282
-0.0051057064 0.72799999 -0.053609919 8.4733491e-39 316 282
-0.0038292799 0.72799999 -0.053609919 7.090056e-39 317 282
-0.0025493465 0.727 -0.053536277 7.2733584e-39 318 282
-0.0012746733 0.727 -0.053536277 7.1811628e-39 319 282
0 0.72299999 -0.053241719 7.3637562e-39 320 282
0.0012624001 0.72000003 -0.053020801 7.3637562e-39 321 282
0.0025212932 0.71899998 -0.05294716 7.4548798e-39 322 282
0.0037714199 0.71700001 -0.052799881 7.7314653e-39 323 282
0.0050215465 0.71600002 -0.052726239 7.9162209e-39 324 282
0.0062769335 0.71600002 -0.052726239 8.3775578e-39 325 282
0.0075112795 0.71399999 -0.052578956 8.9289365e-39 326 282
0.0087631596 0.71399999 -0.052578956 7.7303933e-39 327 282
0.01001504 0.71399999 -0.052578956 6.9020746e-39 328 282
0.011266919 0.71399999 -0.052578956 8.3775634e-39 329 282
0.012518799 0.71399999 -0.052578956 9.8595178e-39 330 282
0.013751393 0.713 -0.052505318 1.1980019e-38 331 282
0.015001519 0.713 -0.052505318 1.4191643e-38 332 282
0.016251646 0.713 -0.052505318 1.3730665e-38 333 282
0.017501773 0.713 -0.052505318 8.9296526e-39 334 282
0.018751899 0.713 -0.052505318 7.9155006e-39 335 282
0.020002026 0.713 -0.052505318 7.4537868e-39 336 282
0.021281958 0.71399999 -0.052578956 7.4537868e-39 337 282
0.022533838 0.71399999 -0.052578956 7.1793607e-39 338 282
0.02378572 0.71399999 -0.052578956 7.2715577e-39 339 282
0.025107734 0.71600002 -0.052726239 7.1804565e-39 340 282
0.026363119 0.71600002 -0.052726239 7.5495992e-39 341 282
0.027618507 0.71600002 -0.052726239 7.3688177e-39 342 282
0.028914221 0.71700001 -0.052799881 7.92199e-39 343 282
0.030255521 0.71899998 -0.05294716 7.3724302e-39 344 282
0.031516165 0.71899998 -0.05294716 7.0036463e-39 345 282
0.032776814 0.71899998 -0.05294716 4.4301168e-39 346 282
-0.0063821329 0.72799999 -0.054886345 9.1252122e-39 315 283
-0.0051057064 0.72799999 -0.054886345 8.5659119e-39 316 283
-0.0038240198 0.727 -0.054810952 7.0907804e-39 317 283
-0.0025493465 0.727 -0.054810952 7.4566735e-39 318 283
-0.0012711667 0.72500002 -0.054660168 7.2722836e-39 319 283
0 0.72299999 -0.054509375 7.3637562e-39 320 283
0.0012624001 0.72000003 -0.054283202 7.2715605e-39 321 283
0.0025212932 0.71899998 -0.054207806 7.5463524e-39 322 283
0.0037714199 0.71700001 -0.054057021 7.638548e-39 323 283
0.0050215465 0.71600002 -0.053981625 7.8236609e-39 324 283
0.0062593995 0.71399999 -0.053830836 8.2842803e-39 325 283
0.0075112795 0.71399999 -0.053830836 8.4690247e-39 326 283
0.0087631596 0.71399999 -0.053830836 8.0084067e-39 327 283
0.010001013 0.713 -0.053755447 7.1786418e-39 328 283
0.011251139 0.713 -0.053755447 6.4410768e-39 329 283
0.012501267 0.713 -0.053755447 8.7510094e-39 330 283
0.013751393 0.713 -0.053755447 1.2807617e-38 331 283
0.015001519 0.713 -0.053755447 1.3729943e-38 332 283
0.016251646 0.713 -0.053755447 1.2254813e-38 333 283
0.017501773 0.713 -0.053755447 7.1775726e-39 334 283
0.018751899 0.713 -0.053755447 6.900627e-39 335 283
0.020002026 0.713 -0.053755447 7.5459824e-39 336 283
0.021281958 0.71399999 -0.053830836 7.3615912e-39 337 283
0.022533838 0.71399999 -0.053830836 7.1786446e-39 338 283
0.02378572 0.71399999 -0.053830836 7.3630373e-39 339 283
0.025037598 0.71399999 -0.053830836 7.2726521e-39 340 283
0.026363119 0.71600002 -0.053981625 7.5495992e-39 341 283
0.027618507 0.71600002 -0.053981625 7.5521327e-39 342 283
0.028914221 0.71700001 -0.054057021 8.1053051e-39 343 283
0.030171359 0.71700001 -0.054057021 7.4653475e-39 344 283
0.031428497 0.71700001 -0.054057021 7.7415743e-39 345 283
0.032776814 0.71899998 -0.054207806 5.0729625e-39 346 283
-0.0076795998 0.73000002 -0.056317069 1.4565477e-38 314 284
-0.0063821329 0.72799999 -0.056162767 9.0340997e-39 315 284
-0.0051057064 0.72799999 -0.056162767 8.750306e-39 316 284
-0.0038240198 0.727 -0.056085624 7.1826215e-39 317 284
-0.0025493465 0.727 -0.056085624 7.0896902e-39 318 284
-0.0012711667 0.72500002 -0.055931333 6.905299e-39 319 284
0 0.72000003 -0.055545598 7.2715605e-39 320 284
0.0012624001 0.72000003 -0.055545598 7.1790048e-39 321 284
0.0025142799 0.71700001 -0.055314157 7.2715605e-39 322 284
0.00376616 0.71600002 -0.055237014 7.2715605e-39 323 284
0.0050215465 0.71600002 -0.055237014 7.3634002e-39 324 284
0.0062593995 0.71399999 -0.05508272 7.6403459e-39 325 284
0.0075112795 0.71399999 -0.05508272 8.0080508e-39 326 284
0.0087508867 0.713 -0.055005573 7.8236581e-39 327 284
0.010001013 0.713 -0.055005573 7.5485006e-39 328 284
0.011251139 0.713 -0.055005573 6.9953268e-39 329 284
0.0124662 0.71100003 -0.054851279 9.851962e-39 330 284
0.01371282 0.71100003 -0.054851279 1.3908571e-38 331 284
0.014959441 0.71100003 -0.054851279 1.2717236e-38 332 284
0.01620606 0.71100003 -0.054851279 1.050454e-38 333 284
0.01745268 0.71100003 -0.054851279 6.5343654e-39 334 284
0.0186993 0.71100003 -0.054851279 6.5343654e-39 335 284
0.020002026 0.713 -0.055005573 7.3619569e-39 336 284
0.021252153 0.713 -0.055005573 7.1779258e-39 337 284
0.022502279 0.713 -0.055005573 6.9031438e-39 338 284
0.02378572 0.71399999 -0.05508272 7.2722864e-39 339 284
0.025037598 0.71399999 -0.05508272 6.9063906e-39 340 284
0.026289478 0.71399999 -0.05508272 6.7219993e-39 341 284
0.027618507 0.71600002 -0.055237014 6.6323442e-39 342 284
0.028873893 0.71600002 -0.055237014 7.5542991e-39 343 284
0.030171359 0.71700001 -0.055314157 7.0980097e-39 344 284
0.031428497 0.71700001 -0.055314157 7.3745966e-39 345 284
0.032776814 0.71899998 -0.055468451 5.9938272e-39 346 284
0.03403746 0.71899998 -0.055468451 4.7956427e-39 347 284
-0.0076795998 0.73000002 -0.057597004 1.4381815e-38 314 285
-0.0063821329 0.72799999 -0.057439197 9.1266639e-39 315 285
-0.0051057064 0.72799999 -0.057439197 9.1198116e-39 316 285
-0.0038292799 0.72799999 -0.057439197 7.6446815e-39 317 285
-0.0025493465 0.727 -0.057360299 8.0091228e-39 318 285
-0.0012711667 0.72500002 -0.057202499 7.5485034e-39 319 285
0 0.72000003 -0.056808002 7.3633876e-39 320 285
0.0012606466 0.71899998 -0.056729097 7.3633876e-39 321 285
0.0025142799 0.71700001 -0.056571297 7.0878895e-39 322 285
0.00376616 0.71600002 -0.056492399 6.9956925e-39 323 285
0.0050075199 0.71399999 -0.0563346 7.1786573e-39 324 285
0.0062593995 0.71399999 -0.0563346 6.9946261e-39 325 285
0.0075007593 0.713 -0.056255698 6.9045927e-39 326 285
0.0087508867 0.713 -0.056255698 6.9967883e-39 327 285
0.0099729598 0.71100003 -0.056097899 7.3655666e-39 328 285
0.01121958 0.71100003 -0.056097899 7.6425137e-39 329 285
0.0124662 0.71100003 -0.056097899 1.0221483e-38 330 285
0.01371282 0.71100003 -0.056097899 1.3817473e-38 331 285
0.014959441 0.71100003 -0.056097899 1.2714362e-38 332 285
0.01620606 0.71100003 -0.056097899 9.9484932e-39 333 285
0.017428132 0.70999998 -0.056018997 6.6269198e-39 334 285
0.018672999 0.70999998 -0.056018997 6.6269198e-39 335 285
0.01994592 0.71100003 -0.056097899 6.9034997e-39 336 285
0.021192541 0.71100003 -0.056097899 6.5347186e-39 337 285
0.022502279 0.713 -0.056255698 6.2585044e-39 338 285
0.023752406 0.713 -0.056255698 7.087905e-39 339 285
0.025037598 0.71399999 -0.0563346 5.2544475e-39 340 285
0.026289478 0.71399999 -0.0563346 4.609078e-39 341 285
0.027618507 0.71600002 -0.056492399 4.2453556e-39 342 285
0.028873893 0.71600002 -0.056492399 5.4435401e-39 343 285
0.030171359 0.71700001 -0.056571297 6.2725847e-39 344 285
0.031428497 0.71700001 -0.056571297 6.6413672e-39 345 285
0.032685637 0.71700001 -0.056571297 6.4544382e-39 346 285
0.033942781 0.71700001 -0.056571297 4.5183314e-39 347 285
-0.0063821329 0.72799999 -0.058715623 9.4947234e-39 315 286
-0.0051057064 0.72799999 -0.058715623 9.3974774e-39 316 286
-0.0038292799 0.72799999 -0.058715623 8.1067386e-39 317 286
-0.0025493465 0.727 -0.058634974 7.6446619e-39 318 286
-0.0012711667 0.72500002 -0.058473669 6.9070968e-39 319 286
0 0.72000003 -0.058070403 7.1811572e-39 320 286
0.0012606466 0.71899998 -0.057989739 6.9049304e-39 321 286
0.0025107733 0.71600002 -0.057747785 6.9956925e-39 322 286
0.00376616 0.71600002 -0.057747785 6.9034969e-39 323 286
0.0050075199 0.71399999 -0.057586476 6.9935415e-39 324 286
0.0062506334 0.713 -0.057505824 6.9935415e-39 325 286
0.0075007593 0.713 -0.057505824 6.9935415e-39 326 286
0.0087263398 0.71100003 -0.057344519 7.1782915e-39 327 286
0.0099729598 0.71100003 -0.057344519 7.4563203e-39 328 286
0.01121958 0.71100003 -0.057344519 7.7329086e-39 329 286
0.012448666 0.70999998 -0.057263866 9.7612181e-39 330 286
0.013693533 0.70999998 -0.057263866 1.1697326e-38 331 286
0.014938398 0.70999998 -0.057263866 1.0680293e-38 332 286
0.016183265 0.70999998 -0.057263866 8.9289365e-39 333 286
0.017428132 0.70999998 -0.057263866 6.8084328e-39 334 286
0.018672999 0.70999998 -0.057263866 6.8084328e-39 335 286
0.019917866 0.70999998 -0.057263866 6.1648753e-39 336 286
0.021192541 0.71100003 -0.057344519 5.7042573e-39 337 286
0.022439159 0.71100003 -0.057344519 5.2533783e-39 338 286
0.023752406 0.713 -0.057505824 8.8486477e-39 339 286
0.025002534 0.713 -0.057505824 8.4870777e-39 340 286
0.026289478 0.71399999 -0.057586476 8.9476971e-39 341 286
0.02754136 0.71399999 -0.057586476 9.0460122e-39 342 286
0.028873893 0.71600002 -0.057747785 1.0060164e-38 343 286
0.03012928 0.71600002 -0.057747785 1.0977802e-38 344 286
0.031428497 0.71700001 -0.057828441 1.079341e-38 345 286
0.032685637 0.71700001 -0.057828441 1.1156417e-38 346 286
0.033942781 0.71700001 -0.057828441 7.745177e-39 347 286
0.035199918 0.71700001 -0.057828441 4.6603544e-40 348 286
-0.0063821329 0.72799999 -0.059992049 9.404327e-39 315 287
-0.0051057064 0.72799999 -0.059992049 9.5807869e-39 316 287
-0.0038292799 0.72799999 -0.059992049 8.3822437e-39 317 287
-0.0025493465 0.727 -0.059909642 8.1956664e-39 318 287
-0.0012746733 0.727 -0.059909642 7.7346869e-39 319 287
0 0.72000003 -0.059332799 7.3666106e-39 320 287
0.0012606466 0.71899998 -0.059250388 7.089665e-39 321 287
0.0025107733 0.71600002 -0.059003171 6.7201818e-39 322 287
0.00376616 0.71600002 -0.059003171 6.6279862e-39 323 287
0.0050075199 0.71399999 -0.058838356 6.5347214e-39 324 287
0.0062506334 0.713 -0.058755953 6.4425257e-39 325 287
0.0074797203 0.71100003 -0.058591139 6.1670305e-39 326 287
0.0087263398 0.71100003 -0.058591139 6.3514217e-39 327 287
0.0099589331 0.70999998 -0.058508728 6.2606708e-39 328 287
0.011203799 0.70999998 -0.058508728 6.5372577e-39 329 287
0.012448666 0.70999998 -0.058508728 7.5499467e-39 330 287
0.013693533 0.70999998 -0.058508728 8.4719016e-39 331 287
0.014938398 0.70999998 -0.058508728 8.2853397e-39 332 287
0.016183265 0.70999998 -0.058508728 6.7180154e-39 333 287
0.017428132 0.70999998 -0.058508728 6.4396517e-39 334 287
0.018672999 0.70999998 -0.058508728 6.4396517e-39 335 287
0.019917866 0.70999998 -0.058508728 4.5147314e-39 336 287
0.021192541 0.71100003 -0.058591139 5.9898615e-39 337 287
0.022439159 0.71100003 -0.058591139 6.4616675e-39 338 287
0.023752406 0.713 -0.058755953 9.2271762e-39 339 287
0.025002534 0.713 -0.058755953 1.0791988e-38 340 287
0.026289478 0.71399999 -0.058838356 1.1252966e-38 341 287
0.02754136 0.71399999 -0.058838356 1.1256562e-38 342 287
0.028873893 0.71600002 -0.059003171 1.2085964e-38 343 287
0.03012928 0.71600002 -0.059003171 1.2730247e-38 344 287
0.031384666 0.71600002 -0.059003171 1.2730247e-38 345 287
0.032685637 0.71700001 -0.059085581 1.3095042e-38 346 287
0.03389544 0.71600002 -0.059003171 1.0974542e-38 347 287
0.035150826 0.71600002 -0.059003171 4.6191394e-39 348 287
-0.0051057064 0.72799999 -0.061268479 9.3974774e-39 316 288
-0.0038292799 0.72799999 -0.061268479 8.0141829e-39 317 288
-0.0025493465 0.727 -0.061184317 8.380429e-39 318 288
-0.0012746733 0.727 -0.061184317 7.7350596e-39 319 288
0 0.72000003 -0.060595199 7.1836753e-39 320 288
0.0012606466 0.71899998 -0.060511041 6.7230559e-39 321 288
0.0025107733 0.71600002 -0.06025856 6.8130977e-39 322 288
0.00376616 0.71600002 -0.06025856 6.4446739e-39 323 288
0.0050075199 0.71399999 -0.060090236 6.2599267e-39 324 288
0.0062506334 0.713 -0.060006075 6.1677311e-39 325 288
0.0074797203 0.71100003 -0.059837762 6.167378e-39 326 288
0.0087263398 0.71100003 -0.059837762 6.167378e-39 327 288
0.0099589331 0.70999998 -0.059753593 6.2592233e-39 328 288
0.011203799 0.70999998 -0.059753593 6.3514189e-39 329 288
0.012448666 0.70999998 -0.059753593 5.8014905e-39 330 288
0.013693533 0.70999998 -0.059753593 5.2483168e-39 331 288
0.014938398 0.70999998 -0.059753593 4.3270863e-39 332 288
0.016183265 0.70999998 -0.059753593 4.6955101e-39 333 288
0.017428132 0.70999998 -0.059753593 4.8766854e-39 334 288
0.018672999 0.70999998 -0.059753593 7.9187825e-39 335 288
0.019917866 0.70999998 -0.059753593 9.0380962e-39 336 288
0.021192541 0.71100003 -0.059837762 1.1251151e-38 337 288
0.022439159 0.71100003 -0.059837762 1.1624973e-38 338 288
0.023752406 0.713 -0.060006075 1.19012e-38 339 288
0.025002534 0.713 -0.060006075 1.1622821e-38 340 288
0.026289478 0.71399999 -0.060090236 1.0885256e-38 341 288
0.02754136 0.71399999 -0.060090236 1.0336398e-38 342 288
0.028873893 0.71600002 -0.06025856 1.0889572e-38 343 288
0.03012928 0.71600002 -0.06025856 1.1258354e-38 344 288
0.031384666 0.71600002 -0.06025856 1.1627137e-38 345 288
0.032640055 0.71600002 -0.06025856 1.2821351e-38 346 288
0.03389544 0.71600002 -0.06025856 1.2268177e-38 347 288
0.035150826 0.71600002 -0.06025856 1.1345848e-38 348 288
0.036406212 0.71600002 -0.06025856 1.1622077e-38 349 288
-0.0063821329 0.72799999 -0.062544905 1.0508154e-38 315 289
-0.0051057064 0.72799999 -0.062544905 9.6729825e-39 316 289
-0.0038292799 0.72799999 -0.062544905 8.1056554e-39 317 289
-0.0025528532 0.72799999 -0.062544905 8.5640972e-39 318 289
-0.0012746733 0.727 -0.062458992 8.1031191e-39 319 289
0 0.72000003 -0.061857603 7.5510159e-39 320 289
0.0012606466 0.71899998 -0.061771683 7.0903965e-39 321 289
0.0025107733 0.71600002 -0.061513945 6.7212566e-39 322 289
0.00376616 0.71600002 -0.061513945 6.3524755e-39 323 289
0.0050075199 0.71399999 -0.061342116 6.1677311e-39 324 289
0.0062506334 0.713 -0.061256204 6.0755341e-39 325 289
0.0074797203 0.71100003 -0.061084379 6.1673808e-39 326 289
0.0087263398 0.71100003 -0.061084379 6.1673808e-39 327 289
0.0099589331 0.70999998 -0.060998458 5.9837182e-39 328 289
0.011203799 0.70999998 -0.060998458 6.259945e-39 329 289
0.012448666 0.70999998 -0.060998458 5.6181881e-39 330 289
0.013693533 0.70999998 -0.060998458 5.2497657e-39 331 289
0.014938398 0.70999998 -0.060998458 4.4243337e-39 332 289
0.016183265 0.70999998 -0.060998458 5.4388443e-39 333 289
0.017428132 0.70999998 -0.060998458 6.1811107e-39 334 289
0.018672999 0.70999998 -0.060998458 8.6703927e-39 335 289
0.019917866 0.70999998 -0.060998458 1.0884184e-38 336 289
0.021162732 0.70999998 -0.060998458 1.1806139e-38 337 289
0.022439159 0.71100003 -0.061084379 1.1809007e-38 338 289
0.023752406 0.713 -0.061256204 1.1624976e-38 339 289
0.025002534 0.713 -0.061256204 1.1164717e-38 340 289
0.026289478 0.71399999 -0.061342116 1.0334956e-38 341 289
0.02754136 0.71399999 -0.061342116 1.0335675e-38 342 289
0.028873893 0.71600002 -0.061513945 1.0612263e-38 343 289
0.03012928 0.71600002 -0.061513945 1.1072521e-38 344 289
0.031384666 0.71600002 -0.061513945 1.153314e-38 345 289
0.032640055 0.71600002 -0.061513945 1.2269262e-38 346 289
0.03389544 0.71600002 -0.061513945 1.2269262e-38 347 289
0.035150826 0.71600002 -0.061513945 1.1992307e-38 348 289
0.036406212 0.71600002 -0.061513945 1.2176698e-38 349 289
-0.0063821329 0.72799999 -0.063821331 1.0784015e-38 315 290
-0.0051057064 0.72799999 -0.063821331 9.6733385e-39 316 290
-0.0038292799 0.72799999 -0.063821331 8.1978483e-39 317 290
-0.0025528532 0.72799999 -0.063821331 8.380429e-39 318 290
-0.0012746733 0.727 -0.06373366 8.0116451e-39 319 290
0 0.72000003 -0.06312 7.6432143e-39 320 290
0.0012606466 0.71899998 -0.063032329 7.0900405e-39 321 290
0.0025107733 0.71600002 -0.062769331 6.8127334e-39 322 290
0.00376616 0.71600002 -0.062769331 6.5357878e-39 323 290
0.0050075199 0.71399999 -0.062593997 6.4425201e-39 324 290
0.0062506334 0.713 -0.062506333 6.3503231e-39 325 290
0.0074797203 0.71100003 -0.062331002 6.3499728e-39 326 290
0.0087263398 0.71100003 -0.062331002 6.4421698e-39 327 290
0.0099589331 0.70999998 -0.062243331 5.9844371e-39 328 290
0.011203799 0.70999998 -0.062243331 6.0766327e-39 329 290
0.012448666 0.70999998 -0.062243331 5.1579358e-39 330 290
0.013693533 0.70999998 -0.062243331 4.7891533e-39 331 290
0.014938398 0.70999998 -0.062243331 5.6272153e-39 332 290
0.016183265 0.70999998 -0.062243331 7.5633235e-39 333 290
0.017428132 0.70999998 -0.062243331 9.871824e-39 334 290
0.018672999 0.70999998 -0.062243331 1.1162563e-38 335 290
0.019917866 0.70999998 -0.062243331 1.1715739e-38 336 290
0.021162732 0.70999998 -0.062243331 1.1623542e-38 337 290
0.022439159 0.71100003 -0.062331002 1.1072884e-38 338 290
0.023685781 0.71100003 -0.062331002 1.1349831e-38 339 290
0.025002534 0.713 -0.062506333 1.1808641e-38 340 290
0.026252659 0.713 -0.062506333 1.0702294e-38 341 290
0.02754136 0.71399999 -0.062593997 1.0148394e-38 342 290
0.028793238 0.71399999 -0.062593997 9.7796115e-39 343 290
0.03012928 0.71600002 -0.062769331 9.9622105e-39 344 290
0.031384666 0.71600002 -0.062769331 1.0238439e-38 345 290
0.032640055 0.71600002 -0.062769331 1.0516477e-38 346 290
0.03389544 0.71600002 -0.062769331 1.106965e-38 347 290
0.035150826 0.71600002 -0.062769331 1.1715016e-38 348 290
0.036406212 0.71600002 -0.062769331 1.226819e-38 349 290
0.037661601 0.71600002 -0.062769331 1.3925894e-38 350 290
-0.006408433 0.73100001 -0.065366022 1.0692898e-38 315 291
-0.0051197335 0.73000002 -0.0652766 9.6737014e-39 316 291
-0.0038292799 0.72799999 -0.065097757 8.1067358e-39 317 291
-0.0025528532 0.72799999 -0.065097757 8.2885991e-39 318 291
-0.0012746733 0.727 -0.065008335 7.8279797e-39 319 291
0 0.72000003 -0.064382397 7.7354156e-39 320 291
0.0012606466 0.71899998 -0.064292975 7.2740773e-39 321 291
0.0025107733 0.71600002 -0.064024724 6.9045773e-39 322 291
0.00376616 0.71600002 -0.064024724 6.627989e-39 323 291
0.0050075199 0.71399999 -0.063845873 6.4432446e-39 324 291
0.0062593995 0.71399999 -0.063845873 6.2592135e-39 325 291
0.0074797203 0.71100003 -0.063577622 6.2588604e-39 326 291
0.0087263398 0.71100003 -0.063577622 6.2588604e-39 327 291
0.0099589331 0.70999998 -0.063488193 5.8918827e-39 328 291
0.011203799 0.70999998 -0.063488193 5.9844371e-39 329 291
0.012448666 0.70999998 -0.063488193 4.791677e-39 330 291
0.013693533 0.70999998 -0.063488193 6.0824159e-39 331 291
0.014938398 0.70999998 -0.063488193 8.7636716e-39 332 291
0.016183265 0.70999998 -0.063488193 9.7774633e-39 333 291
0.017428132 0.70999998 -0.063488193 9.1378617e-39 334 291
0.018672999 0.70999998 -0.063488193 9.7832311e-39 335 291
0.019917866 0.70999998 -0.063488193 1.0336405e-38 336 291
0.021162732 0.70999998 -0.063488193 1.0889219e-38 337 291
0.022407599 0.70999998 -0.063488193 1.1805767e-38 338 291
0.023652466 0.70999998 -0.063488193 1.1344789e-38 339 291
0.024932399 0.71100003 -0.063577622 1.0784406e-38 340 291
0.026179021 0.71100003 -0.063577622 8.0185367e-39 341 291
0.02754136 0.71399999 -0.063845873 6.356849e-39 342 291
0.028793238 0.71399999 -0.063845873 5.5270883e-39 343 291
0.030045118 0.71399999 -0.063845873 6.2625065e-39 344 291
0.031296998 0.71399999 -0.063845873 6.8153216e-39 345 291
0.032640055 0.71600002 -0.064024724 6.4530355e-39 346 291
0.03389544 0.71600002 -0.064024724 7.4668273e-39 347 291
0.035150826 0.71600002 -0.064024724 6.2819552e-39 348 291
0.036406212 0.71600002 -0.064024724 9.2325754e-39 349 291
0.037661601 0.71600002 -0.064024724 1.3649314e-38 350 291
-0.006408433 0.73100001 -0.066647708 1.0785812e-38 315 292
-0.0051197335 0.73000002 -0.066556528 9.7651782e-39 316 292
-0.0038397999 0.73000002 -0.066556528 8.1978511e-39 317 292
-0.0025528532 0.72799999 -0.066374183 8.5637441e-39 318 292
-0.0012746733 0.727 -0.06628301 8.194963e-39 319 292
0 0.727 -0.06628301 7.6432143e-39 320 292
0.0012606466 0.71899998 -0.065553628 7.366626e-39 321 292
0.0025107733 0.71600002 -0.06528011 7.2729927e-39 322 292
0.00376616 0.71600002 -0.06528011 6.9960456e-39 323 292
0.0050075199 0.71399999 -0.065097757 6.6272701e-39 324 292
0.0062593995 0.71399999 -0.065097757 6.5350745e-39 325 292
0.0075007593 0.713 -0.065006584 6.0762642e-39 326 292
0.0087263398 0.71100003 -0.064824238 5.9840685e-39 327 292
0.0099729598 0.71100003 -0.064824238 5.6156546e-39 328 292
0.011203799 0.70999998 -0.064733058 5.2465133e-39 329 292
0.012448666 0.70999998 -0.064733058 5.8969484e-39 330 292
0.013693533 0.70999998 -0.064733058 8.6628187e-39 331 292
0.014938398 0.70999998 -0.064733058 1.0515747e-38 332 292
0.016183265 0.70999998 -0.064733058 1.088489e-38 333 292
0.017428132 0.70999998 -0.064733058 9.1378589e-39 334 292
0.018672999 0.70999998 -0.064733058 9.32189e-39 335 292
0.019917866 0.70999998 -0.064733058 1.0701943e-38 336 292
0.021162732 0.70999998 -0.064733058 1.1347313e-38 337 292
0.022407599 0.70999998 -0.064733058 1.2355326e-38 338 292
0.023652466 0.70999998 -0.064733058 1.0419217e-38 339 292
0.024932399 0.71100003 -0.064824238 8.4801987e-39 340 292
0.026179021 0.71100003 -0.064824238 3.5016361e-39 341 292
0.02754136 0.71399999 -0.065097757 3.0348944e-39 342 292
0.028793238 0.71399999 -0.065097757 3.31184e-39 343 292
0.030045118 0.71399999 -0.065097757 4.4156848e-39 344 292
0.031296998 0.71399999 -0.065097757 5.3376425e-39 345 292
0.032640055 0.71600002 -0.06528011 4.8835195e-39 346 292
0.03389544 0.71600002 -0.06528011 4.5143783e-39 347 292
0.035150826 0.71600002 -0.06528011 2.3128473e-39 348 292
0.036406212 0.71600002 -0.06528011 7.0144643e-39 349 292
0.037661601 0.71600002 -0.06528011 1.2819546e-38 350 292
0.038916986 0.71600002 -0.06528011 1.5032602e-38 351 292
-0.0051197335 0.73000002 -0.067836471 9.7659026e-39 316 293
-0.0038397999 0.73000002 -0.067836471 8.1063827e-39 317 293
-0.0025528532 0.72799999 -0.067650609 8.5659091e-39 318 293
-0.0012746733 0.727 -0.067557678 7.9205397e-39 319 293
0 0.727 -0.067557678 7.5531851e-39 320 293
0.0012624001 0.72000003 -0.066907197 7.0922083e-39 321 293
0.0025142799 0.71700001 -0.066628419 6.9982106e-39 322 293
0.00376616 0.71600002 -0.066535495 6.6297883e-39 323 293
0.0050075199 0.71399999 -0.066349633 6.4450425e-39 324 293
0.0062593995 0.71399999 -0.066349633 6.3528468e-39 325 293
0.0075007593 0.713 -0.066256717 6.076267e-39 326 293
0.0087508867 0.713 -0.066256717 5.9837126e-39 327 293
0.0099729598 0.71100003 -0.066070862 5.3379957e-39 328 293
0.011203799 0.70999998 -0.065977924 4.7848219e-39 329 293
0.012448666 0.70999998 -0.065977924 7.7448211e-39 330 293
0.013693533 0.70999998 -0.065977924 1.1340451e-38 331 293
0.014938398 0.70999998 -0.065977924 1.0610098e-38 332 293
0.016183265 0.70999998 -0.065977924 1.014912e-38 333 293
0.017428132 0.70999998 -0.065977924 9.4158737e-39 334 293
0.018672999 0.70999998 -0.065977924 8.401363e-39 335 293
0.019917866 0.70999998 -0.065977924 8.6678718e-39 336 293
0.021162732 0.70999998 -0.065977924 7.6537213e-39 337 293
0.022407599 0.70999998 -0.065977924 7.278801e-39 338 293
0.023652466 0.70999998 -0.065977924 5.3426928e-39 339 293
0.024897331 0.70999998 -0.065977924 4.5262179e-39 340 293
0.026179021 0.71100003 -0.066070862 2.3135227e-39 341 293
0.027502786 0.713 -0.066256717 5.8893674e-39 342 293
0.028793238 0.71399999 -0.066349633 6.0737586e-39 343 293
0.030045118 0.71399999 -0.066349633 6.2581541e-39 344 293
0.031296998 0.71399999 -0.066349633 6.6269352e-39 345 293
0.032548878 0.71399999 -0.066349633 6.3564762e-39 346 293
0.033800758 0.71399999 -0.066349633 6.1724437e-39 347 293
0.035150826 0.71600002 -0.066535495 3.2275953e-39 348 293
0.036406212 0.71600002 -0.066535495 6.4540823e-39 349 293
0.037661601 0.71600002 -0.066535495 1.1253653e-38 350 293
0.038916986 0.71600002 -0.066535495 1.4572695e-38 351 293
-0.0051267464 0.73100001 -0.069211073 9.9510142e-39 316 294
-0.00384506 0.73100001 -0.069211073 8.1071016e-39 317 294
-0.0025528532 0.72799999 -0.068927035 8.8414072e-39 318 294
-0.0012746733 0.727 -0.06883236 8.380429e-39 319 294
0 0.727 -0.06883236 8.0119926e-39 320 294
0.0012624001 0.72000003 -0.068169601 7.5510159e-39 321 294
0.0025142799 0.71700001 -0.067885563 7.2744304e-39 322 294
0.00376616 0.71600002 -0.067790881 6.9056493e-39 323 294
0.0050215465 0.71600002 -0.067790881 6.7209063e-39 324 294
0.0062769335 0.71600002 -0.067790881 6.4443208e-39 325 294
0.0075112795 0.71399999 -0.067601517 6.3514217e-39 326 294
0.0087508867 0.713 -0.067506835 6.0748348e-39 327 294
0.010001013 0.713 -0.067506835 5.1546932e-39 328 294
0.01121958 0.71100003 -0.067317478 6.0766481e-39 329 294
0.0124662 0.71100003 -0.067317478 8.6693025e-39 330 294
0.013693533 0.70999998 -0.067222796 1.1711757e-38 331 294
0.014938398 0.70999998 -0.067222796 9.7835786e-39 332 294
0.016183265 0.70999998 -0.067222796 9.6913816e-39 333 294
0.017428132 0.70999998 -0.067222796 9.6895809e-39 334 294
0.018672999 0.70999998 -0.067222796 7.2928533e-39 335 294
0.019917866 0.70999998 -0.067222796 6.1778485e-39 336 294
0.021162732 0.70999998 -0.067222796 4.8871097e-39 337 294
0.022407599 0.70999998 -0.067222796 5.0635668e-39 338 294
0.023652466 0.70999998 -0.067222796 5.3405124e-39 339 294
0.024897331 0.70999998 -0.067222796 5.7114571e-39 340 294
0.026179021 0.71100003 -0.067317478 5.250479e-39 341 294
0.027502786 0.713 -0.067506835 5.5234715e-39 342 294
0.028793238 0.71399999 -0.067601517 5.5234715e-39 343 294
0.030045118 0.71399999 -0.067601517 5.7082229e-39 344 294
0.031296998 0.71399999 -0.067601517 5.8926142e-39 345 294
0.032548878 0.71399999 -0.067601517 5.9876993e-39 346 294
0.033800758 0.71399999 -0.067601517 6.0798949e-39 347 294
0.035150826 0.71600002 -0.067790881 4.9717495e-39 348 294
0.036406212 0.71600002 -0.067790881 7.0000534e-39 349 294
0.037661601 0.71600002 -0.067790881 1.1617022e-38 350 294
0.038916986 0.71600002 -0.067790881 1.5304847e-38 351 294
-0.0064259665 0.73299998 -0.070685625 1.1617378e-38 315 295
-0.0051267464 0.73100001 -0.070492767 9.9513673e-39 316 295
-0.00384506 0.73100001 -0.070492767 8.0152591e-39 317 295
-0.0025528532 0.72799999 -0.070203468 8.6588138e-39 318 295
-0.0012746733 0.727 -0.070107035 8.1978356e-39 319 295
0 0.72500002 -0.069914162 7.9212431e-39 320 295
0.0012624001 0.72000003 -0.069432005 7.3680694e-39 321 295
0.0025142799 0.71700001 -0.069142699 7.1826047e-39 322 295
0.0037714199 0.71700001 -0.069142699 6.9060178e-39 323 295
0.0050215465 0.71600002 -0.069046266 6.536885e-39 324 295
0.0062769335 0.71600002 -0.069046266 6.4446893e-39 325 295
0.0075112795 0.71399999 -0.068853401 6.0766299e-39 326 295
0.0087631596 0.71399999 -0.068853401 5.4312605e-39 327 295
0.010001013 0.713 -0.068756968 5.8033024e-39 328 295
0.011251139 0.713 -0.068756968 9.0301495e-39 329 295
0.0124662 0.71100003 -0.068564095 1.0145876e-38 330 295
0.013693533 0.70999998 -0.068467662 1.1251865e-38 331 295
0.014938398 0.70999998 -0.068467662 9.6921047e-39 332 295
0.016183265 0.70999998 -0.068467662 9.5999076e-39 333 295
0.017428132 0.70999998 -0.068467662 7.5694374e-39 334 295
0.018672999 0.70999998 -0.068467662 4.3425903e-39 335 295
0.019917866 0.70999998 -0.068467662 3.132876e-39 336 295
0.021162732 0.70999998 -0.068467662 3.870441e-39 337 295
0.022407599 0.70999998 -0.068467662 5.6156714e-39 338 295
0.023652466 0.70999998 -0.068467662 5.892617e-39 339 295
0.024897331 0.70999998 -0.068467662 5.5252736e-39 340 295
0.026179021 0.71100003 -0.068564095 5.3408823e-39 341 295
0.027425639 0.71100003 -0.068564095 5.430913e-39 342 295
0.028752912 0.713 -0.068756968 5.6153042e-39 343 295
0.030045118 0.71399999 -0.068853401 5.6153042e-39 344 295
0.031296998 0.71399999 -0.068853401 6.0762824e-39 345 295
0.032548878 0.71399999 -0.068853401 6.0784474e-39 346 295
0.033800758 0.71399999 -0.068853401 6.2628386e-39 347 295
0.035150826 0.71600002 -0.069046266 5.432006e-39 348 295
0.036406212 0.71600002 -0.069046266 7.7368953e-39 349 295
0.037661601 0.71600002 -0.069046266 1.1892536e-38 350 295
0.038916986 0.71600002 -0.069046266 1.5487806e-38 351 295
-0.0064259665 0.73299998 -0.071970828 1.1892883e-38 315 296
-0.0051267464 0.73100001 -0.071774453 1.0136475e-38 316 296
-0.00384506 0.73100001 -0.071774453 7.9241396e-39 317 296
-0.0025633732 0.73100001 -0.071774453 8.5684104e-39 318 296
-0.0012746733 0.727 -0.071381703 8.2918235e-39 319 296
0 0.72500002 -0.071185336 8.0137947e-39 320 296
0.0012624001 0.72000003 -0.070694394 7.4606209e-39 321 296
0.0025212932 0.71899998 -0.070596211 7.2748017e-39 322 296
0.0037714199 0.71700001 -0.070399836 6.9982135e-39 323 296
0.0050215465 0.71600002 -0.070301652 6.6294379e-39 324 296
0.0062769335 0.71600002 -0.070301652 6.4446865e-39 325 296
0.0075112795 0.71399999 -0.070105277 6.3521378e-39 326 296
0.0087631596 0.71399999 -0.070105277 5.1539533e-39 327 296
0.01001504 0.71399999 -0.070105277 6.4497536e-39 328 296
0.011251139 0.713 -0.070007093 1.096734e-38 329 296
0.0124662 0.71100003 -0.069810718 1.0423905e-38 330 296
0.013693533 0.70999998 -0.069712527 1.0792689e-38 331 296
0.014938398 0.70999998 -0.069712527 1.0519347e-38 332 296
0.016183265 0.70999998 -0.069712527 9.7817821e-39 333 296
0.017428132 0.70999998 -0.069712527 5.0794337e-39 334 296
0.018672999 0.70999998 -0.069712527 3.0511298e-39 335 296
0.019917866 0.70999998 -0.069712527 4.4200149e-39 336 296
0.021162732 0.70999998 -0.069712527 4.8813517e-39 337 296
0.022407599 0.70999998 -0.069712527 5.433078e-39 338 296
0.023652466 0.70999998 -0.069712527 5.433078e-39 339 296
0.024897331 0.70999998 -0.069712527 5.4327122e-39 340 296
0.026179021 0.71100003 -0.069810718 5.3405152e-39 341 296
0.027425639 0.71100003 -0.069810718 5.4309102e-39 342 296
0.028752912 0.713 -0.070007093 5.5231058e-39 343 296
0.030045118 0.71399999 -0.070105277 5.3405152e-39 344 296
0.031296998 0.71399999 -0.070105277 5.708939e-39 345 296
0.032548878 0.71399999 -0.070105277 5.8936988e-39 346 296
0.033800758 0.71399999 -0.070105277 5.9858958e-39 347 296
0.035150826 0.71600002 -0.070301652 5.7075167e-39 348 296
0.036406212 0.71600002 -0.070301652 8.1967987e-39 349 296
0.037661601 0.71600002 -0.070301652 1.1892536e-38 350 296
0.038916986 0.71600002 -0.070301652 1.5211578e-38 351 296
-0.0064259665 0.73299998 -0.073256016 1.2445338e-38 315 297
-0.005140773 0.73299998 -0.073256016 1.0691083e-38 316 297
-0.0038555798 0.73299998 -0.073256016 8.2018013e-39 317 297
-0.0025633732 0.73100001 -0.073056139 8.7531548e-39 318 297
-0.0012764266 0.72799999 -0.072756313 8.4765679e-39 319 297
0 0.72500002 -0.072456501 8.2896557e-39 320 297
0.0012659066 0.722 -0.072156675 7.7364819e-39 321 297
0.0025212932 0.71899998 -0.071856856 7.3673505e-39 322 297
0.0037714199 0.71700001 -0.07165698 7.0907622e-39 323 297
0.0050215465 0.71600002 -0.071557038 6.7216336e-39 324 297
0.0062769335 0.71600002 -0.071557038 6.5372409e-39 325 297
0.0075112795 0.71399999 -0.071357153 6.4454124e-39 326 297
0.0087631596 0.71399999 -0.071357153 4.9702823e-39 327 297
0.01001504 0.71399999 -0.071357153 7.6482968e-39 328 297
0.011251139 0.713 -0.071257219 1.2534305e-38 329 297
0.012501267 0.713 -0.071257219 1.0517902e-38 330 297
0.013693533 0.70999998 -0.070957392 1.0056924e-38 331 297
0.014938398 0.70999998 -0.070957392 1.0150562e-38 332 297
0.016183265 0.70999998 -0.070957392 9.0442143e-39 333 297
0.017428132 0.70999998 -0.070957392 3.4177403e-39 334 297
0.018672999 0.70999998 -0.070957392 2.864568e-39 335 297
0.019917866 0.70999998 -0.070957392 5.3401593e-39 336 297
0.021162732 0.70999998 -0.070957392 5.6163874e-39 337 297
0.022407599 0.70999998 -0.070957392 5.8915324e-39 338 297
0.023652466 0.70999998 -0.070957392 5.7993368e-39 339 297
0.024897331 0.70999998 -0.070957392 5.6153042e-39 340 297
0.026179021 0.71100003 -0.071057342 5.5231086e-39 341 297
0.027425639 0.71100003 -0.071057342 5.4309074e-39 342 297
0.028752912 0.713 -0.071257219 5.5234617e-39 343 297
0.030003037 0.713 -0.071257219 5.2479608e-39 344 297
0.031296998 0.71399999 -0.071357153 5.3405152e-39 345 297
0.032548878 0.71399999 -0.071357153 5.8007843e-39 346 297
0.033800758 0.71399999 -0.071357153 5.9851756e-39 347 297
0.035052639 0.71399999 -0.071357153 5.7096677e-39 348 297
0.036304519 0.71399999 -0.071357153 8.106754e-39 349 297
0.037661601 0.71600002 -0.071557038 1.1708495e-38 350 297
-0.005140773 0.73299998 -0.074541211 1.1704877e-38 316 298
-0.0038555798 0.73299998 -0.074541211 8.8471707e-39 317 298
-0.0025633732 0.73100001 -0.074337825 9.0286697e-39 318 298
-0.0012746733 0.727 -0.073931053 8.844277e-39 319 298
0 0.72500002 -0.073727667 8.1981888e-39 320 298
0.0012676599 0.72299999 -0.073524274 7.645015e-39 321 298
0.0025248001 0.72000003 -0.073219202 7.3680722e-39 322 298
0.0037714199 0.71700001 -0.072914116 7.0914839e-39 323 298
0.0050285598 0.71700001 -0.072914116 6.7216308e-39 324 298
0.0062769335 0.71600002 -0.072812423 6.5372381e-39 325 298
0.00753232 0.71600002 -0.072812423 6.4446921e-39 326 298
0.0087631596 0.71399999 -0.072609037 5.9837154e-39 327 298
0.01001504 0.71399999 -0.072609037 9.2152652e-39 328 298
0.011266919 0.71399999 -0.072609037 1.2995287e-38 329 298
0.012518799 0.71399999 -0.072609037 9.8750498e-39 330 298
0.01371282 0.71100003 -0.072303966 9.414073e-39 331 298
0.014959441 0.71100003 -0.072303966 8.4913965e-39 332 298
0.01620606 0.71100003 -0.072303966 7.0159076e-39 333 298
0.01745268 0.71100003 -0.072303966 3.320507e-39 334 298
0.0186993 0.71100003 -0.072303966 3.7814852e-39 335 298
0.019917866 0.70999998 -0.072202265 5.7082173e-39 336 298
0.021162732 0.70999998 -0.072202265 5.7082173e-39 337 298
0.022407599 0.70999998 -0.072202265 5.7092921e-39 338 298
0.023652466 0.70999998 -0.072202265 5.6170965e-39 339 298
0.024897331 0.70999998 -0.072202265 5.6156574e-39 340 298
0.026179021 0.71100003 -0.072303966 5.6156574e-39 341 298
0.027425639 0.71100003 -0.072303966 5.5234617e-39 342 298
0.028752912 0.713 -0.072507344 5.5234617e-39 343 298
0.030003037 0.713 -0.072507344 5.2483168e-39 344 298
0.031296998 0.71399999 -0.072609037 5.2483168e-39 345 298
0.032548878 0.71399999 -0.072609037 5.6156686e-39 346 298
0.033800758 0.71399999 -0.072609037 6.261038e-39 347 298
0.035052639 0.71399999 -0.072609037 6.0788005e-39 348 298
0.036304519 0.71399999 -0.072609037 8.4755268e-39 349 298
0.037661601 0.71600002 -0.072812423 1.1432984e-38 350 298
-0.0038555798 0.73299998 -0.075826399 8.8500574e-39 317 299
-0.0025633732 0.73100001 -0.075619511 9.03012e-39 318 299
-0.0012746733 0.727 -0.075205728 8.7531744e-39 319 299
0 0.72500002 -0.074998833 8.65629e-39 320 299
0.0012676599 0.72299999 -0.074791931 8.3797032e-39 321 299
0.0025248001 0.72000003 -0.074481606 7.7357659e-39 322 299
0.0037819401 0.71899998 -0.074378148 7.3666232e-39 323 299
0.0050285598 0.71700001 -0.07417126 7.1797349e-39 324 299
0.0062769335 0.71600002 -0.074067809 6.9953422e-39 325 299
0.00753232 0.71600002 -0.074067809 5.8940491e-39 326 299
0.0087877065 0.71600002 -0.074067809 7.3695393e-39 327 299
0.01001504 0.71399999 -0.073860914 9.5883679e-39 328 299
0.011266919 0.71399999 -0.073860914 1.2169846e-38 329 299
0.012518799 0.71399999 -0.073860914 9.5066246e-39 330 299
0.013751393 0.713 -0.07375747 9.5066246e-39 331 299
0.014959441 0.71100003 -0.073550582 7.5687143e-39 332 299
0.01620606 0.71100003 -0.073550582 5.1716293e-39 333 299
0.01745268 0.71100003 -0.073550582 3.5009326e-39 334 299
0.0186993 0.71100003 -0.073550582 4.331052e-39 335 299
0.01994592 0.71100003 -0.073550582 5.801122e-39 336 299
0.021192541 0.71100003 -0.073550582 5.8933176e-39 337 299
0.022439159 0.71100003 -0.073550582 5.8011192e-39 338 299
0.023685781 0.71100003 -0.073550582 5.7089236e-39 339 299
0.024932399 0.71100003 -0.073550582 5.8915198e-39 340 299
0.026179021 0.71100003 -0.073550582 5.7067684e-39 341 299
0.027502786 0.713 -0.07375747 5.5234589e-39 342 299
0.028752912 0.713 -0.07375747 5.5234589e-39 343 299
0.030003037 0.713 -0.07375747 5.2475951e-39 344 299
0.031296998 0.71399999 -0.073860914 5.4316262e-39 345 299
0.032548878 0.71399999 -0.073860914 5.4330752e-39 346 299
0.03389544 0.71600002 -0.074067809 5.9862489e-39 347 299
0.035150826 0.71600002 -0.074067809 6.3568237e-39 348 299
0.036406212 0.71600002 -0.074067809 8.4776819e-39 349 299
0.037661601 0.71600002 -0.074067809 1.1801759e-38 350 299
-0.0052038929 0.74199998 -0.078058399 1.1432984e-38 316 300
-0.0038555798 0.73299998 -0.077111594 9.5890714e-39 317 300
-0.0025633732 0.73100001 -0.076901197 9.309595e-39 318 300
-0.0012764266 0.72799999 -0.076585598 8.5720286e-39 319 300
0 0.72500002 -0.076269999 7.8287e-39 320 300
0.0012676599 0.72299999 -0.076059602 7.9208956e-39 321 300
0.0025318132 0.722 -0.0759544 7.5531879e-39 322 300
0.0037872 0.72000003 -0.075743996 7.0922111e-39 323 300
0.0050425865 0.71899998 -0.075638793 6.9971415e-39 324 300
0.0062857 0.71700001 -0.075428396 6.1673808e-39 325 300
0.00753232 0.71600002 -0.075323202 5.8926114e-39 326 300
0.0087877065 0.71600002 -0.075323202 9.948859e-39 327 300
0.010043093 0.71600002 -0.075323202 9.3161096e-39 328 300
0.011266919 0.71399999 -0.075112797 1.0975991e-38 329 300
0.012518799 0.71399999 -0.075112797 9.3236781e-39 330 300
0.01377068 0.71399999 -0.075112797 9.7842975e-39 331 300
0.015001519 0.713 -0.075007595 6.6460363e-39 332 300
0.016251646 0.713 -0.075007595 3.7876117e-39 333 300
0.017501773 0.713 -0.075007595 4.7895092e-39 334 300
0.018751899 0.713 -0.075007595 5.3423243e-39 335 300
0.01994592 0.71100003 -0.074797198 5.6181727e-39 336 300
0.021192541 0.71100003 -0.074797198 5.6181727e-39 337 300
0.022439159 0.71100003 -0.074797198 5.8940365e-39 338 300
0.023685781 0.71100003 -0.074797198 5.8018409e-39 339 300
0.025002534 0.713 -0.075007595 5.6170909e-39 340 300
0.026252659 0.713 -0.075007595 5.4330598e-39 341 300
0.027502786 0.713 -0.075007595 5.5234589e-39 342 300
0.028752912 0.713 -0.075007595 5.5234589e-39 343 300
0.030045118 0.71399999 -0.075112797 5.3390677e-39 344 300
0.031296998 0.71399999 -0.075112797 5.5234589e-39 345 300
0.032548878 0.71399999 -0.075112797 5.3405124e-39 346 300
0.03389544 0.71600002 -0.075323202 6.3543056e-39 347 300
0.035150826 0.71600002 -0.075323202 6.1717122e-39 348 300
0.036406212 0.71600002 -0.075323202 9.0301355e-39 349 300
-0.0038713599 0.736 -0.078717649 1.04174e-38 317 301
-0.0025703865 0.73299998 -0.07839679 9.955333e-39 318 301
-0.0012816866 0.73100001 -0.078182884 8.941181e-39 319 301
0 0.72500002 -0.077541165 7.5524788e-39 320 301
0.0012676599 0.72299999 -0.077327259 7.3680876e-39 321 301
0.0025318132 0.722 -0.077220306 7.7354282e-39 322 301
0.0037872 0.72000003 -0.0770064 7.2744514e-39 323 301
0.0050425865 0.71899998 -0.076899439 7.4563175e-39 324 301
