# .PCD v.7 - Point Cloud Data file format
FIELDS x y z rgb imX imY
SIZE 4 4 4 4 4 4
TYPE F F F F F F
COUNT 1 1 1 1 1 1
WIDTH 857
HEIGHT 1
VIEWPOINT 0 0 0 1 0 0 0
POINTS 857
DATA ascii
-0.0026159731 0.74599999 0.034007654 1.5653395e-38 318 214
-0.0013079866 0.74599999 0.034007654 1.5468645e-38 319 214
0 0.74599999 0.034007654 1.5375731e-38 320 214
0.0013079866 0.74599999 0.034007654 1.5007307e-38 321 214
0.0026159731 0.74599999 0.034007654 1.5098421e-38 322 214
0.0039239596 0.74599999 0.034007654 1.4914029e-38 323 214
0.0052319462 0.74599999 0.034007654 1.4912236e-38 324 214
0.0065399334 0.74599999 0.034007654 1.4635647e-38 325 214
0.0078479191 0.74599999 0.034007654 1.4634575e-38 326 214
0.0091681797 0.74699998 0.034053236 1.454238e-38 327 214
0.010477919 0.74699998 0.034053236 1.4449834e-38 328 214
0.011787659 0.74699998 0.034053236 1.4357637e-38 329 214
0.013097399 0.74699998 0.034053236 1.4173969e-38 330 214
0.014407139 0.74699998 0.034053236 1.4081773e-38 331 214
0.015716879 0.74699998 0.034053236 1.3989575e-38 332 214
0.017072206 0.74900001 0.034144413 1.3897379e-38 333 214
0.018385453 0.74900001 0.034144413 1.3897379e-38 334 214
0.0196987 0.74900001 0.034144413 1.3897379e-38 335 214
0.02104 0.75 0.034189999 1.3621871e-38 336 214
0.022355 0.75 0.034189999 1.3621871e-38 337 214
0.023733119 0.75199997 0.034281172 1.3439275e-38 338 214
0.025051624 0.75199997 0.034281172 1.3347079e-38 339 214
0.02637013 0.75199997 0.034281172 1.3438922e-38 340 214
0.027762281 0.75400001 0.034372345 1.3438922e-38 341 214
0.029084291 0.75400001 0.034372345 1.353077e-38 342 214
0.030406307 0.75400001 0.034372345 1.3622965e-38 343 214
0.03172832 0.75400001 0.034372345 1.334712e-38 344 214
0.033050332 0.75400001 0.034372345 1.3531513e-38 345 214
0.034509107 0.75700003 0.034509107 1.2426998e-38 346 214
0.035931058 0.759 0.034600276 1.279578e-38 347 214
0.03726184 0.759 0.034600276 1.2813082e-38 348 214
0.038694311 0.76099998 0.034691449 1.5578951e-38 349 214
0.040081199 0.76200002 0.034737039 1.5127699e-38 350 214
0.041417241 0.76200002 0.034737039 1.4666721e-38 351 214
0.042865492 0.764 0.034828212 1.4206463e-38 352 214
0.044320758 0.76599997 0.034919381 1.4299018e-38 353 214
0.045723427 0.76700002 0.034964975 1.4021687e-38 354 214
0.047190964 0.76899999 0.035056144 1.1163622e-38 355 214
0.04866552 0.77100003 0.03514732 1.2065027e-38 356 214
0.050147086 0.773 0.035238493 1.0866843e-38 357 214
0.051569037 0.77399999 0.03528408 1.2153966e-38 358 214
0.052926116 0.77399999 0.03528408 1.123165e-38 359 214
0.054423466 0.77600002 0.035375252 8.9361392e-39 360 214
0.055784054 0.77600002 0.035375252 1.3638116e-38 361 214
-0.05470575 0.76099998 0.033357166 1.9361455e-38 279 215
-0.053371463 0.76099998 0.033357166 1.6495437e-38 280 215
-0.052037176 0.76099998 0.033357166 1.2715775e-38 281 215
-0.050702889 0.76099998 0.033357166 1.4533393e-38 282 215
-0.049368605 0.76099998 0.033357166 1.527096e-38 283 215
-0.048034318 0.76099998 0.033357166 1.4818609e-38 284 215
-0.046700031 0.76099998 0.033357166 1.5095556e-38 285 215
-0.045246519 0.759 0.033269498 1.5003006e-38 286 215
-0.043915741 0.759 0.033269498 1.5003006e-38 287 215
-0.042472746 0.75700003 0.033181835 1.5002285e-38 288 215
-0.041036766 0.755 0.033094164 1.5463263e-38 289 215
-0.039712999 0.755 0.033094164 1.6672646e-38 290 215
-0.038389232 0.755 0.033094164 1.9161928e-38 291 215
-0.037065465 0.755 0.033094164 1.7974217e-38 292 215
-0.035694357 0.75400001 0.033050332 1.8435555e-38 293 215
-0.034372345 0.75400001 0.033050332 1.8809e-38 294 215
-0.033050332 0.75400001 0.033050332 1.8901196e-38 295 215
-0.03172832 0.75400001 0.033050332 1.8992312e-38 296 215
-0.030204674 0.74900001 0.032831166 1.9177064e-38 297 215
-0.028891427 0.74900001 0.032831166 1.9354971e-38 298 215
-0.027578179 0.74900001 0.032831166 1.5851537e-38 299 215
-0.026264934 0.74900001 0.032831166 1.5102759e-38 300 215
-0.024951685 0.74900001 0.032831166 1.2429084e-38 301 215
-0.02363844 0.74900001 0.032831166 1.5094458e-38 302 215
-0.022325192 0.74900001 0.032831166 1.5924218e-38 303 215
-0.020955838 0.74699998 0.032743499 1.583384e-38 304 215
-0.019646099 0.74699998 0.032743499 1.5926036e-38 305 215
-0.018336359 0.74699998 0.032743499 1.5925683e-38 306 215
-0.017026618 0.74699998 0.032743499 1.6017878e-38 307 215
-0.015716879 0.74699998 0.032743499 1.6018597e-38 308 215
-0.014407139 0.74699998 0.032743499 1.6110794e-38 309 215
-0.013097399 0.74699998 0.032743499 1.5928201e-38 310 215
-0.011787659 0.74699998 0.032743499 1.6112592e-38 311 215
-0.010477919 0.74699998 0.032743499 1.6113311e-38 312 215
-0.0091681797 0.74699998 0.032743499 1.6205865e-38 313 215
-0.0078584393 0.74699998 0.032743499 1.5930355e-38 314 215
-0.0065399334 0.74599999 0.032699663 1.602255e-38 315 215
-0.0052319462 0.74599999 0.032699663 1.5930352e-38 316 215
-0.0039239596 0.74599999 0.032699663 1.5838156e-38 317 215
-0.0026159731 0.74599999 0.032699663 1.5562292e-38 318 215
-0.0013079866 0.74599999 0.032699663 1.5285704e-38 319 215
0 0.74599999 0.032699663 1.5375746e-38 320 215
0.0013079866 0.74599999 0.032699663 1.5007324e-38 321 215
0.0026159731 0.74599999 0.032699663 1.5006603e-38 322 215
0.0039239596 0.74599999 0.032699663 1.4821853e-38 323 215
0.0052319462 0.74599999 0.032699663 1.4820411e-38 324 215
0.0065399334 0.74599999 0.032699663 1.4451629e-38 325 215
0.0078479191 0.74599999 0.032699663 1.4542027e-38 326 215
0.0091681797 0.74699998 0.032743499 1.4449831e-38 327 215
0.010477919 0.74699998 0.032743499 1.4265085e-38 328 215
0.011787659 0.74699998 0.032743499 1.4265085e-38 329 215
0.013097399 0.74699998 0.032743499 1.4172534e-38 330 215
0.014407139 0.74699998 0.032743499 1.4172534e-38 331 215
0.015716879 0.74699998 0.032743499 1.3988858e-38 332 215
0.017026618 0.74699998 0.032743499 1.3988858e-38 333 215
0.018385453 0.74900001 0.032831166 1.3897379e-38 334 215
0.0196987 0.74900001 0.032831166 1.3805183e-38 335 215
0.021011947 0.74900001 0.032831166 1.3529319e-38 336 215
0.022355 0.75 0.032874998 1.3621515e-38 337 215
0.023669999 0.75 0.032874998 1.34382e-38 338 215
0.024984999 0.75 0.032874998 1.34382e-38 339 215
0.02637013 0.75199997 0.032962665 1.3529317e-38 340 215
0.027688639 0.75199997 0.032962665 1.3529317e-38 341 215
0.029084291 0.75400001 0.033050332 1.3437497e-38 342 215
0.030406307 0.75400001 0.033050332 1.3621886e-38 343 215
0.03172832 0.75400001 0.033050332 1.3347117e-38 344 215
0.033050332 0.75400001 0.033050332 1.3439314e-38 345 215
0.034417931 0.755 0.033094164 1.3164187e-38 346 215
0.03583638 0.75700003 0.033181835 1.3071992e-38 347 215
0.03726184 0.759 0.033269498 1.1609131e-38 348 215
0.038592618 0.759 0.033269498 1.5481348e-38 349 215
0.040028598 0.76099998 0.033357166 1.512698e-38 350 215
0.041417241 0.76200002 0.033401001 1.4666002e-38 351 215
0.042865492 0.764 0.033488665 1.3747643e-38 352 215
0.044320758 0.76599997 0.033576332 1.3747643e-38 353 215
0.045663811 0.76599997 0.033576332 1.4021334e-38 354 215
0.047190964 0.76899999 0.033707831 1.2454008e-38 355 215
0.04866552 0.77100003 0.033795502 1.2070068e-38 356 215
0.050147086 0.773 0.033883166 9.7651782e-39 357 215
0.051569037 0.77399999 0.033927001 1.2153963e-38 358 215
0.052926116 0.77399999 0.033927001 1.1877375e-38 359 215
0.054283198 0.77399999 0.033927001 9.5721507e-39 360 215
0.055640277 0.77399999 0.033927001 1.4181932e-38 361 215
-0.055892758 0.759 0.031938717 1.9168409e-38 278 216
-0.054561976 0.759 0.031938717 1.640254e-38 279 216
-0.053231198 0.759 0.031938717 1.445739e-38 280 216
-0.051900417 0.759 0.031938717 1.3074454e-38 281 216
-0.050569639 0.759 0.031938717 1.4171799e-38 282 216
-0.049238857 0.759 0.031938717 1.5001559e-38 283 216
-0.047908079 0.759 0.031938717 1.50952e-38 284 216
-0.046577301 0.759 0.031938717 1.5003003e-38 285 216
-0.045127295 0.75700003 0.031854562 1.5094836e-38 286 216
-0.043800019 0.75700003 0.031854562 1.5094836e-38 287 216
-0.042360533 0.755 0.031770397 1.5094833e-38 288 216
-0.041036766 0.755 0.031770397 1.5371061e-38 289 216
-0.039712999 0.755 0.031770397 1.5559088e-38 290 216
-0.038338386 0.75400001 0.03172832 1.6296653e-38 291 216
-0.037016369 0.75400001 0.03172832 1.6022625e-38 292 216
-0.035599679 0.75199997 0.031644158 1.7129331e-38 293 216
-0.034281172 0.75199997 0.031644158 1.7321995e-38 294 216
-0.032831166 0.74900001 0.031517919 1.870493e-38 295 216
-0.031517919 0.74900001 0.031517919 1.8340462e-38 296 216
-0.030204674 0.74900001 0.031517919 1.7511061e-38 297 216
-0.028814279 0.74699998 0.031433757 1.7135771e-38 298 216
-0.027504537 0.74699998 0.031433757 1.3908924e-38 299 216
-0.026194798 0.74699998 0.031433757 1.4635282e-38 300 216
-0.024885058 0.74699998 0.031433757 1.3989912e-38 301 216
-0.023575317 0.74699998 0.031433757 1.5462164e-38 302 216
-0.022265578 0.74699998 0.031433757 1.6199729e-38 303 216
-0.020955838 0.74699998 0.031433757 1.5741292e-38 304 216
-0.019646099 0.74699998 0.031433757 1.5833487e-38 305 216
-0.018336359 0.74699998 0.031433757 1.5649819e-38 306 216
-0.017026618 0.74699998 0.031433757 1.5834569e-38 307 216
-0.015716879 0.74699998 0.031433757 1.5835652e-38 308 216
-0.014407139 0.74699998 0.031433757 1.5927848e-38 309 216
-0.013079867 0.74599999 0.031391677 1.6021118e-38 310 216
-0.011771879 0.74599999 0.031391677 1.6113314e-38 311 216
-0.010463892 0.74599999 0.031391677 1.6022915e-38 312 216
-0.0091559067 0.74599999 0.031391677 1.6115469e-38 313 216
-0.0078479191 0.74599999 0.031391677 1.6298778e-38 314 216
-0.0065223998 0.74400002 0.031307522 1.6298778e-38 315 216
-0.0052179201 0.74400002 0.031307522 1.6114745e-38 316 216
-0.0039134403 0.74400002 0.031307522 1.5930352e-38 317 216
-0.00260896 0.74400002 0.031307522 1.5745605e-38 318 216
-0.00130448 0.74400002 0.031307522 1.5377181e-38 319 216
0 0.74400002 0.031307522 1.5191715e-38 320 216
0.00130448 0.74400002 0.031307522 1.5007324e-38 321 216
0.00260896 0.74400002 0.031307522 1.4914052e-38 322 216
0.0039134403 0.74400002 0.031307522 1.4637465e-38 323 216
0.0052179201 0.74400002 0.031307522 1.4635666e-38 324 216
0.0065223998 0.74400002 0.031307522 1.4266885e-38 325 216
0.0078479191 0.74599999 0.031391677 1.4266522e-38 326 216
0.0091559067 0.74599999 0.031391677 1.4173966e-38 327 216
0.010463892 0.74599999 0.031391677 1.417289e-38 328 216
0.011787659 0.74699998 0.031433757 1.3988858e-38 329 216
0.013097399 0.74699998 0.031433757 1.3896307e-38 330 216
0.014407139 0.74699998 0.031433757 1.3988503e-38 331 216
0.015716879 0.74699998 0.031433757 1.3896663e-38 332 216
0.017026618 0.74699998 0.031433757 1.3896663e-38 333 216
0.018385453 0.74900001 0.031517919 1.3987779e-38 334 216
0.0196987 0.74900001 0.031517919 1.3895224e-38 335 216
0.021011947 0.74900001 0.031517919 1.3620799e-38 336 216
0.022325192 0.74900001 0.031517919 1.3528603e-38 337 216
0.023669999 0.75 0.03156 1.3436768e-38 338 216
0.024984999 0.75 0.03156 1.3529322e-38 339 216
0.0263 0.75 0.03156 1.3253456e-38 340 216
0.027688639 0.75199997 0.031644158 1.3345651e-38 341 216
0.029007144 0.75199997 0.031644158 1.334602e-38 342 216
0.030325651 0.75199997 0.031644158 1.3438215e-38 343 216
0.03172832 0.75400001 0.03172832 1.3254921e-38 344 216
0.033050332 0.75400001 0.03172832 1.3439314e-38 345 216
0.034417931 0.755 0.031770397 1.279756e-38 346 216
0.03583638 0.75700003 0.031854562 1.2705364e-38 347 216
0.037163652 0.75700003 0.031854562 1.0959443e-38 348 216
0.038592618 0.759 0.031938717 1.4462877e-38 349 216
0.040028598 0.76099998 0.032022879 1.4296141e-38 350 216
0.041417241 0.76200002 0.032064959 1.4849315e-38 351 216
0.042865492 0.764 0.032149121 1.3747643e-38 352 216
0.044320758 0.76599997 0.032233275 1.3378501e-38 353 216
0.045663811 0.76599997 0.032233275 1.3561797e-38 354 216
0.047068235 0.76700002 0.03227536 1.3008982e-38 355 216
0.048539277 0.76899999 0.032359518 1.1523012e-38 356 216
0.050147086 0.773 0.032527838 8.6649473e-39 357 216
0.051502414 0.773 0.032527838 1.1969572e-38 358 216
0.052926116 0.77399999 0.032569919 1.2153963e-38 359 216
0.054283198 0.77399999 0.032569919 1.0123887e-38 360 216
0.055640277 0.77399999 0.032569919 1.3626961e-38 361 216
0.056997359 0.77399999 0.032569919 1.8072531e-38 362 216
-0.057374325 0.76099998 0.030688593 1.8347296e-38 277 217
-0.055892758 0.759 0.030607941 1.6027602e-38 278 217
-0.054418206 0.75700003 0.030527288 1.2155386e-38 279 217
-0.053090934 0.75700003 0.030527288 1.3527136e-38 280 217
-0.051763661 0.75700003 0.030527288 1.4633482e-38 281 217
-0.050436385 0.75700003 0.030527288 1.4820395e-38 282 217
-0.049109112 0.75700003 0.030527288 1.4912592e-38 283 217
-0.04778184 0.75700003 0.030527288 1.5094833e-38 284 217
-0.046454567 0.75700003 0.030527288 1.5094833e-38 285 217
-0.045008067 0.755 0.030446632 1.5278501e-38 286 217
-0.043684296 0.755 0.030446632 1.5278501e-38 287 217
-0.042360533 0.755 0.030446632 1.509483e-38 288 217
-0.040982414 0.75400001 0.030406307 1.5002635e-38 289 217
-0.039660402 0.75400001 0.030406307 1.4724979e-38 290 217
-0.038338386 0.75400001 0.030406307 1.4448032e-38 291 217
-0.036918186 0.75199997 0.030325651 1.4352968e-38 292 217
-0.03545766 0.74900001 0.030204674 1.4445165e-38 293 217
-0.034144413 0.74900001 0.030204674 1.3898487e-38 294 217
-0.032831166 0.74900001 0.030204674 1.592715e-38 295 217
-0.031517919 0.74900001 0.030204674 1.602835e-38 296 217
-0.030124018 0.74699998 0.030124018 1.4829807e-38 297 217
-0.028814279 0.74699998 0.030124018 1.4083569e-38 298 217
-0.027504537 0.74699998 0.030124018 1.3714786e-38 299 217
-0.026194798 0.74699998 0.030124018 1.5278852e-38 300 217
-0.024885058 0.74699998 0.030124018 1.5371047e-38 301 217
-0.023575317 0.74699998 0.030124018 1.5555456e-38 302 217
-0.022265578 0.74699998 0.030124018 1.5740206e-38 303 217
-0.020955838 0.74699998 0.030124018 1.5465431e-38 304 217
-0.019646099 0.74699998 0.030124018 1.5649822e-38 305 217
-0.018311813 0.74599999 0.03008369 1.5650185e-38 306 217
-0.017003827 0.74599999 0.03008369 1.5742739e-38 307 217
-0.015695838 0.74599999 0.03008369 1.5835652e-38 308 217
-0.014387853 0.74599999 0.03008369 1.6020043e-38 309 217
-0.0130448 0.74400002 0.030003037 1.5930718e-38 310 217
-0.011740319 0.74400002 0.030003037 1.6022915e-38 311 217
-0.01043584 0.74400002 0.030003037 1.6116188e-38 312 217
-0.0091313599 0.74400002 0.030003037 1.6116188e-38 313 217
-0.0078268806 0.74400002 0.030003037 1.6299504e-38 314 217
-0.0065223998 0.74400002 0.030003037 1.6207309e-38 315 217
-0.0052179201 0.74400002 0.030003037 1.6115113e-38 316 217
-0.0039134403 0.74400002 0.030003037 1.5746689e-38 317 217
-0.0026019465 0.74199998 0.029922385 1.5653056e-38 318 217
-0.0013009732 0.74199998 0.029922385 1.5376828e-38 319 217
0 0.74199998 0.029922385 1.5191362e-38 320 217
0.0013009732 0.74199998 0.029922385 1.4822578e-38 321 217
0.0026019465 0.74199998 0.029922385 1.4911901e-38 322 217
0.0039134403 0.74400002 0.030003037 1.4727508e-38 323 217
0.0052179201 0.74400002 0.030003037 1.4359083e-38 324 217
0.0065223998 0.74400002 0.030003037 1.4174692e-38 325 217
0.0078268806 0.74400002 0.030003037 1.408177e-38 326 217
0.0091559067 0.74599999 0.03008369 1.3897379e-38 327 217
0.010463892 0.74599999 0.03008369 1.380483e-38 328 217
0.011771879 0.74599999 0.03008369 1.3620799e-38 329 217
0.013097399 0.74699998 0.030124018 1.3620799e-38 330 217
0.014407139 0.74699998 0.030124018 1.3620799e-38 331 217
0.015716879 0.74699998 0.030124018 1.3620796e-38 332 217
0.017026618 0.74699998 0.030124018 1.3620796e-38 333 217
0.018336359 0.74699998 0.030124018 1.3804111e-38 334 217
0.019646099 0.74699998 0.030124018 1.3804111e-38 335 217
0.020955838 0.74699998 0.030124018 1.3620446e-38 336 217
0.022265578 0.74699998 0.030124018 1.352825e-38 337 217
0.023669999 0.75 0.030244999 1.352825e-38 338 217
0.024984999 0.75 0.030244999 1.3620446e-38 339 217
0.0263 0.75 0.030244999 1.3345651e-38 340 217
0.027688639 0.75199997 0.030325651 1.3438206e-38 341 217
0.029007144 0.75199997 0.030325651 1.334602e-38 342 217
0.030325651 0.75199997 0.030325651 1.3438215e-38 343 217
0.03172832 0.75400001 0.030406307 1.298013e-38 344 217
0.033050332 0.75400001 0.030406307 1.3164522e-38 345 217
0.034372345 0.75400001 0.030406307 1.2705362e-38 346 217
0.035741698 0.755 0.030446632 1.2797557e-38 347 217
0.037163652 0.75700003 0.030527288 1.1141314e-38 348 217
0.038592618 0.759 0.030607941 1.3354009e-38 349 217
0.040028598 0.76099998 0.030688593 1.328055e-38 350 217
0.041362885 0.76099998 0.030688593 1.4755321e-38 351 217
0.042865492 0.764 0.030809574 1.3930602e-38 352 217
0.04420504 0.764 0.030809574 1.3377429e-38 353 217
0.045663811 0.76599997 0.030890226 1.3193744e-38 354 217
0.047068235 0.76700002 0.030930554 1.3378135e-38 355 217
0.048539277 0.76899999 0.031011207 1.189576e-38 356 217
0.050147086 0.773 0.03117251 8.5763586e-39 357 217
0.051502414 0.773 0.03117251 1.1877022e-38 358 217
0.052926116 0.77399999 0.031212838 1.2614588e-38 359 217
0.054283198 0.77399999 0.031212838 1.0401195e-38 360 217
0.055640277 0.77399999 0.031212838 1.3443651e-38 361 217
0.056997359 0.77399999 0.031212838 1.8347676e-38 362 217
-0.058554318 0.759 0.029277159 1.8889304e-38 276 218
-0.05722354 0.759 0.029277159 1.5017088e-38 277 218
-0.055745479 0.75700003 0.029200014 1.3717301e-38 278 218
-0.054274432 0.755 0.029122867 1.28879e-38 279 218
-0.052950665 0.755 0.029122867 1.4635635e-38 280 218
-0.051763661 0.75700003 0.029200014 1.5004057e-38 281 218
-0.050436385 0.75700003 0.029200014 1.4912592e-38 282 218
-0.048979364 0.755 0.029122867 1.4912592e-38 283 218
-0.047655597 0.755 0.029122867 1.5094836e-38 284 218
-0.04633183 0.755 0.029122867 1.5094836e-38 285 218
-0.045008067 0.755 0.029122867 1.5278869e-38 286 218
-0.043684296 0.755 0.029122867 1.5278869e-38 287 218
-0.042304426 0.75400001 0.029084291 1.5278863e-38 288 218
-0.040982414 0.75400001 0.029084291 1.509483e-38 289 218
-0.039555199 0.75199997 0.029007144 1.5186303e-38 290 218
-0.038236689 0.75199997 0.029007144 1.5186303e-38 291 218
-0.036770906 0.74900001 0.028891427 1.4910439e-38 292 218
-0.03545766 0.74900001 0.028891427 1.4818244e-38 293 218
-0.034144413 0.74900001 0.028891427 1.5092332e-38 294 218
-0.032743499 0.74699998 0.028814279 1.5460754e-38 295 218
-0.031433757 0.74699998 0.028814279 1.5190286e-38 296 218
-0.030124018 0.74699998 0.028814279 1.4821503e-38 297 218
-0.028814279 0.74699998 0.028814279 1.4817893e-38 298 218
-0.027504537 0.74699998 0.028814279 1.509448e-38 299 218
-0.026159734 0.74599999 0.028775707 1.5371061e-38 300 218
-0.024851745 0.74599999 0.028775707 1.5371061e-38 301 218
-0.023543758 0.74599999 0.028775707 1.5463257e-38 302 218
-0.022265578 0.74699998 0.028814279 1.5648007e-38 303 218
-0.020927785 0.74599999 0.028775707 1.5373231e-38 304 218
-0.019619798 0.74599999 0.028775707 1.5649819e-38 305 218
-0.01826272 0.74400002 0.02869856 1.5650185e-38 306 218
-0.016958239 0.74400002 0.02869856 1.5834935e-38 307 218
-0.015653761 0.74400002 0.02869856 1.5744536e-38 308 218
-0.01434928 0.74400002 0.02869856 1.6113317e-38 309 218
-0.0130448 0.74400002 0.02869856 1.5839605e-38 310 218
-0.01170876 0.74199998 0.028621411 1.6115832e-38 311 218
-0.010407786 0.74199998 0.028621411 1.6116911e-38 312 218
-0.009106813 0.74199998 0.028621411 1.6116911e-38 313 218
-0.0078268806 0.74400002 0.02869856 1.6300226e-38 314 218
-0.0065048663 0.74199998 0.028621411 1.6115835e-38 315 218
-0.0052038929 0.74199998 0.028621411 1.6115116e-38 316 218
-0.0039029196 0.74199998 0.028621411 1.5746333e-38 317 218
-0.0025984398 0.741 0.028582839 1.5561942e-38 318 218
-0.0012992199 0.741 0.028582839 1.5100964e-38 319 218
0 0.74199998 0.028621411 1.5099166e-38 320 218
0.0013009732 0.74199998 0.028621411 1.4730382e-38 321 218
0.0026019465 0.74199998 0.028621411 1.4544193e-38 322 218
0.0039029196 0.74199998 0.028621411 1.4359802e-38 323 218
0.0052038929 0.74199998 0.028621411 1.4173971e-38 324 218
0.0065048663 0.74199998 0.028621411 1.4173971e-38 325 218
0.0078268806 0.74400002 0.02869856 1.3988503e-38 326 218
0.0091559067 0.74599999 0.028775707 1.3804111e-38 327 218
0.010463892 0.74599999 0.028775707 1.3804111e-38 328 218
0.011771879 0.74599999 0.028775707 1.3711916e-38 329 218
0.013079867 0.74599999 0.028775707 1.3528603e-38 330 218
0.014387853 0.74599999 0.028775707 1.3528603e-38 331 218
0.015695838 0.74599999 0.028775707 1.3528599e-38 332 218
0.017026618 0.74699998 0.028814279 1.3528599e-38 333 218
0.018336359 0.74699998 0.028814279 1.3711911e-38 334 218
0.019646099 0.74699998 0.028814279 1.3711911e-38 335 218
0.020955838 0.74699998 0.028814279 1.3619716e-38 336 218
0.022265578 0.74699998 0.028814279 1.3711911e-38 337 218
0.023669999 0.75 0.028929999 1.3437122e-38 338 218
0.024984999 0.75 0.028929999 1.3437122e-38 339 218
0.0263 0.75 0.028929999 1.325453e-38 340 218
0.027688639 0.75199997 0.029007144 1.325453e-38 341 218
0.029007144 0.75199997 0.029007144 1.3071231e-38 342 218
0.030325651 0.75199997 0.029007144 1.3163426e-38 343 218
0.031644158 0.75199997 0.029007144 1.288901e-38 344 218
0.033050332 0.75400001 0.029084291 1.3073043e-38 345 218
0.034372345 0.75400001 0.029084291 1.2705715e-38 346 218
0.035694357 0.75400001 0.029084291 1.2705715e-38 347 218
0.037065465 0.755 0.029122867 1.1784868e-38 348 218
0.038490929 0.75700003 0.029200014 1.2706825e-38 349 218
0.0399234 0.759 0.029277159 1.1896168e-38 350 218
0.041362885 0.76099998 0.029354304 1.4477645e-38 351 218
0.042697169 0.76099998 0.029354304 1.3287031e-38 352 218
0.04420504 0.764 0.029470026 1.2918248e-38 353 218
0.045544583 0.764 0.029470026 1.3101193e-38 354 218
0.047068235 0.76700002 0.029585747 1.3377782e-38 355 218
0.048539277 0.76899999 0.02966289 1.263514e-38 356 218
0.050017338 0.77100003 0.029740039 9.2239014e-39 357 218
0.051502414 0.773 0.029817186 1.1510046e-38 358 218
0.052857738 0.773 0.029817186 1.2063218e-38 359 218
0.054213066 0.773 0.029817186 1.0219319e-38 360 218
0.055640277 0.77399999 0.029855758 1.3538362e-38 361 218
0.056997359 0.77399999 0.029855758 1.8900848e-38 362 218
-0.059885096 0.759 0.027946379 1.7519713e-38 275 219
-0.058554318 0.759 0.027946379 1.5754991e-38 276 219
-0.05722354 0.759 0.027946379 1.1052655e-38 277 219
-0.055745479 0.75700003 0.027872739 1.3528577e-38 278 219
-0.054274432 0.755 0.027799098 1.4634926e-38 279 219
-0.052950665 0.755 0.027799098 1.51881e-38 280 219
-0.051626898 0.755 0.027799098 1.5095904e-38 281 219
-0.050303131 0.755 0.027799098 1.5371412e-38 282 219
-0.048979364 0.755 0.027799098 1.5279216e-38 283 219
-0.047655597 0.755 0.027799098 1.5370699e-38 284 219
-0.046270464 0.75400001 0.027762281 1.5370699e-38 285 219
-0.044948451 0.75400001 0.027762281 1.5370699e-38 286 219
-0.043626439 0.75400001 0.027762281 1.5370699e-38 287 219
-0.04219221 0.75199997 0.027688639 1.5370693e-38 288 219
-0.040873703 0.75199997 0.027688639 1.5370693e-38 289 219
-0.039555199 0.75199997 0.027688639 1.5279216e-38 290 219
-0.038135 0.75 0.027615 1.5371412e-38 291 219
-0.036770906 0.74900001 0.027578179 1.5187749e-38 292 219
-0.03545766 0.74900001 0.027578179 1.5279945e-38 293 219
-0.034053236 0.74699998 0.027504537 1.5370708e-38 294 219
-0.032743499 0.74699998 0.027504537 1.5278513e-38 295 219
-0.031433757 0.74699998 0.027504537 1.5278516e-38 296 219
-0.030124018 0.74699998 0.027504537 1.5370711e-38 297 219
-0.028814279 0.74699998 0.027504537 1.5280311e-38 298 219
-0.027467718 0.74599999 0.027467718 1.5095919e-38 299 219
-0.026159734 0.74599999 0.027467718 1.5187749e-38 300 219
-0.024851745 0.74599999 0.027467718 1.5187749e-38 301 219
-0.023543758 0.74599999 0.027467718 1.5188115e-38 302 219
-0.022235774 0.74599999 0.027467718 1.5372865e-38 303 219
-0.020927785 0.74599999 0.027467718 1.5189562e-38 304 219
-0.019619798 0.74599999 0.027467718 1.5558345e-38 305 219
-0.01826272 0.74400002 0.027394081 1.5651266e-38 306 219
-0.016958239 0.74400002 0.027394081 1.5927853e-38 307 219
-0.015611678 0.74199998 0.027320439 1.5746333e-38 308 219
-0.014310705 0.74199998 0.027320439 1.602292e-38 309 219
-0.013009733 0.74199998 0.027320439 1.6115832e-38 310 219
-0.01170876 0.74199998 0.027320439 1.6208028e-38 311 219
-0.010407786 0.74199998 0.027320439 1.6300223e-38 312 219
-0.009106813 0.74199998 0.027320439 1.6300223e-38 313 219
-0.0078058392 0.74199998 0.027320439 1.6391703e-38 314 219
-0.0064960998 0.741 0.027283618 1.6207312e-38 315 219
-0.0051968796 0.741 0.027283618 1.6114397e-38 316 219
-0.0038976599 0.741 0.027283618 1.583745e-38 317 219
-0.0025984398 0.741 0.027283618 1.5652337e-38 318 219
-0.0012992199 0.741 0.027283618 1.5191718e-38 319 219
0 0.74199998 0.027320439 1.4822575e-38 320 219
0.0013009732 0.74199998 0.027320439 1.4454153e-38 321 219
0.0026019465 0.74199998 0.027320439 1.4359802e-38 322 219
0.0039029196 0.74199998 0.027320439 1.3991021e-38 323 219
0.0052038929 0.74199998 0.027320439 1.3989224e-38 324 219
0.0065048663 0.74199998 0.027320439 1.3804833e-38 325 219
0.0078058392 0.74199998 0.027320439 1.3894875e-38 326 219
0.0091313599 0.74400002 0.027394081 1.3710842e-38 327 219
0.01043584 0.74400002 0.027394081 1.3436053e-38 328 219
0.011740319 0.74400002 0.027394081 1.3436053e-38 329 219
0.013079867 0.74599999 0.027467718 1.343605e-38 330 219
0.014387853 0.74599999 0.027467718 1.343605e-38 331 219
0.015695838 0.74599999 0.027467718 1.3436048e-38 332 219
0.017003827 0.74599999 0.027467718 1.3436048e-38 333 219
0.018336359 0.74699998 0.027504537 1.3436048e-38 334 219
0.019646099 0.74699998 0.027504537 1.3436048e-38 335 219
0.020955838 0.74699998 0.027504537 1.3436768e-38 336 219
0.022265578 0.74699998 0.027504537 1.3344571e-38 337 219
0.023575317 0.74699998 0.027504537 1.3344571e-38 338 219
0.024984999 0.75 0.027615 1.3436768e-38 339 219
0.0263 0.75 0.027615 1.3253103e-38 340 219
0.027615 0.75 0.027615 1.3345657e-38 341 219
0.028929999 0.75 0.027615 1.2887565e-38 342 219
0.030325651 0.75199997 0.027688639 1.3071957e-38 343 219
0.031644158 0.75199997 0.027688639 1.2613868e-38 344 219
0.032962665 0.75199997 0.027688639 1.2706065e-38 345 219
0.034372345 0.75400001 0.027762281 1.2338374e-38 346 219
0.035694357 0.75400001 0.027762281 1.2338374e-38 347 219
0.037065465 0.755 0.027799098 1.1784497e-38 348 219
0.038389232 0.755 0.027799098 1.1692301e-38 349 219
0.039818201 0.75700003 0.027872739 1.0510697e-38 350 219
0.041254178 0.759 0.027946379 1.4382913e-38 351 219
0.042697169 0.76099998 0.028020019 1.3469983e-38 352 219
0.04420504 0.764 0.028130481 1.3008645e-38 353 219
0.045544583 0.764 0.028130481 1.2825332e-38 354 219
0.047068235 0.76700002 0.02824094 1.3101921e-38 355 219
0.048539277 0.76899999 0.028314579 1.2912818e-38 356 219
0.050017338 0.77100003 0.028388219 9.6859712e-39 357 219
0.051502414 0.773 0.028461859 1.1417139e-38 358 219
0.052857738 0.773 0.028461859 1.1693726e-38 359 219
0.054213066 0.773 0.028461859 1.012964e-38 360 219
0.055640277 0.77399999 0.028498679 1.4094053e-38 361 219
0.056997359 0.77399999 0.028498679 1.9178511e-38 362 219
-0.061215881 0.759 0.026615599 1.7336388e-38 274 220
-0.059885096 0.759 0.026615599 1.0237325e-38 275 220
-0.058554318 0.759 0.026615599 1.2337629e-38 276 220
-0.057072755 0.75700003 0.026545467 1.252202e-38 277 220
-0.055745479 0.75700003 0.026545467 1.4911885e-38 278 220
-0.054274432 0.755 0.026475333 1.5095917e-38 279 220
-0.052950665 0.755 0.026475333 1.5188471e-38 280 220
-0.051626898 0.755 0.026475333 1.5188471e-38 281 220
-0.050303131 0.755 0.026475333 1.5279945e-38 282 220
-0.048979364 0.755 0.026475333 1.5279945e-38 283 220
-0.04759248 0.75400001 0.026440267 1.5188471e-38 284 220
-0.046270464 0.75400001 0.026440267 1.5188471e-38 285 220
-0.044948451 0.75400001 0.026440267 1.5371064e-38 286 220
-0.043626439 0.75400001 0.026440267 1.5371064e-38 287 220
-0.04219221 0.75199997 0.02637013 1.5371415e-38 288 220
-0.040764999 0.75 0.0263 1.546361e-38 289 220
-0.039449997 0.75 0.0263 1.5280648e-38 290 220
-0.038084153 0.74900001 0.026264934 1.5280648e-38 291 220
-0.036770906 0.74900001 0.026264934 1.5188821e-38 292 220
-0.03545766 0.74900001 0.026264934 1.5096626e-38 293 220
-0.034053236 0.74699998 0.026194798 1.5187752e-38 294 220
-0.032743499 0.74699998 0.026194798 1.5187752e-38 295 220
-0.031433757 0.74699998 0.026194798 1.5279948e-38 296 220
-0.030124018 0.74699998 0.026194798 1.5187752e-38 297 220
-0.028814279 0.74699998 0.026194798 1.5279945e-38 298 220
-0.027467718 0.74599999 0.026159734 1.5279945e-38 299 220
-0.026159734 0.74599999 0.026159734 1.5188465e-38 300 220
-0.02478512 0.74400002 0.026089599 1.509627e-38 301 220
-0.023480639 0.74400002 0.026089599 1.5188468e-38 302 220
-0.022176161 0.74400002 0.026089599 1.5372859e-38 303 220
-0.02087168 0.74400002 0.026089599 1.5465425e-38 304 220
-0.019567199 0.74400002 0.026089599 1.5742371e-38 305 220
-0.01826272 0.74400002 0.026089599 1.565162e-38 306 220
-0.016912652 0.74199998 0.026019465 1.6204793e-38 307 220
-0.015611678 0.74199998 0.026019465 1.6022564e-38 308 220
-0.014310705 0.74199998 0.026019465 1.611476e-38 309 220
-0.013009733 0.74199998 0.026019465 1.6207677e-38 310 220
-0.01170876 0.74199998 0.026019465 1.6299873e-38 311 220
-0.010407786 0.74199998 0.026019465 1.6575737e-38 312 220
-0.009106813 0.74199998 0.026019465 1.6391706e-38 313 220
-0.0078058392 0.74199998 0.026019465 1.6300229e-38 314 220
-0.0064960998 0.741 0.025984399 1.6115479e-38 315 220
-0.0051968796 0.741 0.025984399 1.5930367e-38 316 220
-0.0038976599 0.741 0.025984399 1.5654141e-38 317 220
-0.0025984398 0.741 0.025984399 1.5468672e-38 318 220
-0.0012992199 0.741 0.025984399 1.4823302e-38 319 220
0 0.741 0.025984399 1.4821856e-38 320 220
0.0012992199 0.741 0.025984399 1.4176487e-38 321 220
0.0025984398 0.741 0.025984399 1.4082136e-38 322 220
0.0039029196 0.74199998 0.026019465 1.398994e-38 323 220
0.0052038929 0.74199998 0.026019465 1.3804477e-38 324 220
0.0065048663 0.74199998 0.026019465 1.3620446e-38 325 220
0.0078058392 0.74199998 0.026019465 1.3619719e-38 326 220
0.0091313599 0.74400002 0.026089599 1.3619719e-38 327 220
0.01043584 0.74400002 0.026089599 1.352752e-38 328 220
0.011740319 0.74400002 0.026089599 1.352752e-38 329 220
0.013079867 0.74599999 0.026159734 1.3343133e-38 330 220
0.014387853 0.74599999 0.026159734 1.3527164e-38 331 220
0.015695838 0.74599999 0.026159734 1.352752e-38 332 220
0.017003827 0.74599999 0.026159734 1.352752e-38 333 220
0.018336359 0.74699998 0.026194798 1.3527873e-38 334 220
0.019646099 0.74699998 0.026194798 1.3527873e-38 335 220
0.020955838 0.74699998 0.026194798 1.3436404e-38 336 220
0.022265578 0.74699998 0.026194798 1.3344208e-38 337 220
0.023575317 0.74699998 0.026194798 1.3344574e-38 338 220
0.024951685 0.74900001 0.026264934 1.3344574e-38 339 220
0.0263 0.75 0.0263 1.3253103e-38 340 220
0.027615 0.75 0.0263 1.3253103e-38 341 220
0.028929999 0.75 0.0263 1.2887565e-38 342 220
0.030325651 0.75199997 0.02637013 1.3071957e-38 343 220
0.031644158 0.75199997 0.02637013 1.2613868e-38 344 220
0.032962665 0.75199997 0.02637013 1.2613868e-38 345 220
0.034281172 0.75199997 0.02637013 1.2338374e-38 346 220
0.035694357 0.75400001 0.026440267 1.196995e-38 347 220
0.037016369 0.75400001 0.026440267 1.1968162e-38 348 220
0.038389232 0.755 0.026475333 1.1046565e-38 349 220
0.039818201 0.75700003 0.026545467 9.4918689e-39 350 220
0.041254178 0.759 0.026615599 1.4286042e-38 351 220
0.042697169 0.76099998 0.026685731 1.328488e-38 352 220
0.04420504 0.764 0.026790932 1.2732065e-38 353 220
0.045544583 0.764 0.026790932 1.2457273e-38 354 220
0.047068235 0.76700002 0.026896132 1.2457273e-38 355 220
0.048539277 0.76899999 0.026966266 1.2912462e-38 356 220
0.050017338 0.77100003 0.027036399 1.1345495e-38 357 220
0.05136916 0.77100003 0.027036399 1.141931e-38 358 220
0.052857738 0.773 0.027106533 1.0773941e-38 359 220
0.054213066 0.773 0.027106533 1.0408754e-38 360 220
0.055568393 0.773 0.027106533 1.4465363e-38 361 220
0.056997359 0.77399999 0.027141599 1.9914997e-38 362 220
-0.06271147 0.76099998 0.025351444 1.9362919e-38 273 221
-0.061377186 0.76099998 0.025351444 1.5862673e-38 274 221
-0.059885096 0.759 0.025284819 8.0260449e-39 275 221
-0.058554318 0.759 0.025284819 1.1782277e-38 276 221
-0.057072755 0.75700003 0.025218192 1.3625831e-38 277 221
-0.055598196 0.755 0.025151566 1.4912254e-38 278 221
-0.054274432 0.755 0.025151566 1.4912254e-38 279 221
-0.052950665 0.755 0.025151566 1.5280666e-38 280 221
-0.051626898 0.755 0.025151566 1.5372862e-38 281 221
-0.050303131 0.755 0.025151566 1.5373212e-38 282 221
-0.048914492 0.75400001 0.025118252 1.5465408e-38 283 221
-0.04759248 0.75400001 0.025118252 1.5465764e-38 284 221
-0.04614773 0.75199997 0.025051624 1.5465764e-38 285 221
-0.044829223 0.75199997 0.025051624 1.564836e-38 286 221
-0.04351072 0.75199997 0.025051624 1.564836e-38 287 221
-0.04208 0.75 0.024984999 1.5464679e-38 288 221
-0.040764999 0.75 0.024984999 1.5557234e-38 289 221
-0.0393974 0.74900001 0.024951685 1.5466112e-38 290 221
-0.038084153 0.74900001 0.024951685 1.5373916e-38 291 221
-0.036672719 0.74699998 0.024885058 1.5281367e-38 292 221
-0.035362978 0.74699998 0.024885058 1.5281367e-38 293 221
-0.034053236 0.74699998 0.024885058 1.5187746e-38 294 221
-0.032743499 0.74699998 0.024885058 1.5187746e-38 295 221
-0.031433757 0.74699998 0.024885058 1.5279592e-38 296 221
-0.03008369 0.74599999 0.024851745 1.5279592e-38 297 221
-0.028775707 0.74599999 0.024851745 1.5279948e-38 298 221
-0.027467718 0.74599999 0.024851745 1.5279948e-38 299 221
-0.026159734 0.74599999 0.024851745 1.5188465e-38 300 221
-0.02478512 0.74400002 0.02478512 1.5188465e-38 301 221
-0.023480639 0.74400002 0.02478512 1.5097354e-38 302 221
-0.022176161 0.74400002 0.02478512 1.5373581e-38 303 221
-0.02087168 0.74400002 0.02478512 1.5374314e-38 304 221
-0.019567199 0.74400002 0.02478512 1.5834932e-38 305 221
-0.018213626 0.74199998 0.024718491 1.5654141e-38 306 221
-0.016912652 0.74199998 0.024718491 1.5930367e-38 307 221
-0.015611678 0.74199998 0.024718491 1.5931448e-38 308 221
-0.014310705 0.74199998 0.024718491 1.6115479e-38 309 221
-0.013009733 0.74199998 0.024718491 1.6116561e-38 310 221
-0.01170876 0.74199998 0.024718491 1.6208756e-38 311 221
-0.010407786 0.74199998 0.024718491 1.6300229e-38 312 221
-0.009106813 0.74199998 0.024718491 1.6300229e-38 313 221
-0.0078058392 0.74199998 0.024718491 1.6208033e-38 314 221
-0.0064960998 0.741 0.024685178 1.5931448e-38 315 221
-0.0051968796 0.741 0.024685178 1.593037e-38 316 221
-0.0038976599 0.741 0.024685178 1.5469393e-38 317 221
-0.0025984398 0.741 0.024685178 1.5099885e-38 318 221
-0.0012992199 0.741 0.024685178 1.4638907e-38 319 221
0 0.741 0.024685178 1.4360155e-38 320 221
0.0012992199 0.741 0.024685178 1.4083569e-38 321 221
0.0025984398 0.741 0.024685178 1.4082492e-38 322 221
0.0039029196 0.74199998 0.024718491 1.3713711e-38 323 221
0.0052038929 0.74199998 0.024718491 1.3528966e-38 324 221
0.0065048663 0.74199998 0.024718491 1.3436771e-38 325 221
0.0078058392 0.74199998 0.024718491 1.3343852e-38 326 221
0.009106813 0.74199998 0.024718491 1.3343852e-38 327 221
0.010407786 0.74199998 0.024718491 1.3251656e-38 328 221
0.01170876 0.74199998 0.024718491 1.3251656e-38 329 221
0.0130448 0.74400002 0.02478512 1.3067991e-38 330 221
0.014387853 0.74599999 0.024851745 1.3067991e-38 331 221
0.015695838 0.74599999 0.024851745 1.3068344e-38 332 221
0.017003827 0.74599999 0.024851745 1.316054e-38 333 221
0.018336359 0.74699998 0.024885058 1.3160896e-38 334 221
0.019646099 0.74699998 0.024885058 1.3160896e-38 335 221
0.020955838 0.74699998 0.024885058 1.3160543e-38 336 221
0.022265578 0.74699998 0.024885058 1.3344574e-38 337 221
0.023575317 0.74699998 0.024885058 1.3253103e-38 338 221
0.024951685 0.74900001 0.024951685 1.3253103e-38 339 221
0.0263 0.75 0.024984999 1.3161629e-38 340 221
0.027615 0.75 0.024984999 1.334602e-38 341 221
0.028929999 0.75 0.024984999 1.2887928e-38 342 221
0.030325651 0.75199997 0.025051624 1.2980483e-38 343 221
0.031644158 0.75199997 0.025051624 1.2521675e-38 344 221
0.032962665 0.75199997 0.025051624 1.2521675e-38 345 221
0.034281172 0.75199997 0.025051624 1.1970666e-38 346 221
0.035694357 0.75400001 0.025118252 1.1786275e-38 347 221
0.037016369 0.75400001 0.025118252 1.1692652e-38 348 221
0.038389232 0.755 0.025151566 1.0955085e-38 349 221
0.039818201 0.75700003 0.025218192 9.9449353e-39 350 221
0.041254178 0.759 0.025284819 1.4278489e-38 351 221
0.042697169 0.76099998 0.025351444 1.2732062e-38 352 221
0.044089317 0.76200002 0.02538476 1.2639866e-38 353 221
0.045544583 0.764 0.025451386 1.2273232e-38 354 221
0.047006864 0.76599997 0.025518013 1.2180676e-38 355 221
0.048413042 0.76700002 0.025551327 1.3189052e-38 356 221
0.04988759 0.76899999 0.025617953 1.2267096e-38 357 221
0.051235907 0.76899999 0.025617953 9.8617094e-39 358 221
0.052720979 0.77100003 0.02568458 8.5709706e-39 359 221
0.054213066 0.773 0.025751207 1.0688226e-38 360 221
0.055568393 0.773 0.025751207 1.4560443e-38 361 221
0.056997359 0.77399999 0.025784519 1.9548014e-38 362 221
-0.06271147 0.76099998 0.024017159 1.8257296e-38 273 222
-0.061377186 0.76099998 0.024017159 1.5402416e-38 274 222
-0.059885096 0.759 0.023954039 9.5018952e-39 275 222
-0.058400027 0.75700003 0.02389092 1.2520909e-38 276 222
-0.057072755 0.75700003 0.02389092 1.3351029e-38 277 222
-0.055598196 0.755 0.023827799 1.4820055e-38 278 222
-0.054274432 0.755 0.023827799 1.5004805e-38 279 222
-0.052950665 0.755 0.023827799 1.527996e-38 280 222
-0.051626898 0.755 0.023827799 1.546471e-38 281 222
-0.050236505 0.75400001 0.02379624 1.5373584e-38 282 222
-0.048914492 0.75400001 0.02379624 1.5557976e-38 283 222
-0.047466237 0.75199997 0.023733119 1.5375015e-38 284 222
-0.04614773 0.75199997 0.023733119 1.5375015e-38 285 222
-0.044709999 0.75 0.023669999 1.5557608e-38 286 222
-0.043394998 0.75 0.023669999 1.5741639e-38 287 222
-0.042023893 0.74900001 0.02363844 1.5466483e-38 288 222
-0.040710647 0.74900001 0.02363844 1.5466483e-38 289 222
-0.0393974 0.74900001 0.02363844 1.546648e-38 290 222
-0.03798246 0.74699998 0.023575317 1.5374284e-38 291 222
-0.036672719 0.74699998 0.023575317 1.5281736e-38 292 222
-0.035362978 0.74699998 0.023575317 1.5097705e-38 293 222
-0.034053236 0.74699998 0.023575317 1.5280664e-38 294 222
-0.032743499 0.74699998 0.023575317 1.5188468e-38 295 222
-0.031433757 0.74699998 0.023575317 1.5279948e-38 296 222
-0.03008369 0.74599999 0.023543758 1.5095556e-38 297 222
-0.028775707 0.74599999 0.023543758 1.5187752e-38 298 222
-0.027467718 0.74599999 0.023543758 1.5187752e-38 299 222
-0.026089599 0.74400002 0.023480639 1.5188465e-38 300 222
-0.024718491 0.74199998 0.023417519 1.528102e-38 301 222
-0.023417519 0.74199998 0.023417519 1.5190269e-38 302 222
-0.022116546 0.74199998 0.023417519 1.5374661e-38 303 222
-0.020815572 0.74199998 0.023417519 1.5467226e-38 304 222
-0.0195146 0.74199998 0.023417519 1.5928204e-38 305 222
-0.018213626 0.74199998 0.023417519 1.5654859e-38 306 222
-0.016912652 0.74199998 0.023417519 1.5839252e-38 307 222
-0.015611678 0.74199998 0.023417519 1.5931095e-38 308 222
-0.014310705 0.74199998 0.023417519 1.620768e-38 309 222
-0.013009733 0.74199998 0.023417519 1.6116208e-38 310 222
-0.01170876 0.74199998 0.023417519 1.6116208e-38 311 222
-0.010407786 0.74199998 0.023417519 1.6299876e-38 312 222
-0.009106813 0.74199998 0.023417519 1.6299876e-38 313 222
-0.0078058392 0.74199998 0.023417519 1.5931451e-38 314 222
-0.0064960998 0.741 0.023385961 1.5746699e-38 315 222
-0.0051968796 0.741 0.023385961 1.5561592e-38 316 222
-0.0038976599 0.741 0.023385961 1.5284645e-38 317 222
-0.0025984398 0.741 0.023385961 1.4731105e-38 318 222
-0.0012992199 0.741 0.023385961 1.4362323e-38 319 222
0 0.741 0.023385961 1.4084288e-38 320 222
0.0012992199 0.741 0.023385961 1.38077e-38 321 222
0.0025984398 0.741 0.023385961 1.3806262e-38 322 222
0.0038976599 0.741 0.023385961 1.3621871e-38 323 222
0.0051968796 0.741 0.023385961 1.3437122e-38 324 222
0.0064960998 0.741 0.023385961 1.3344927e-38 325 222
0.0078058392 0.74199998 0.023417519 1.3343852e-38 326 222
0.009106813 0.74199998 0.023417519 1.3251656e-38 327 222
0.010407786 0.74199998 0.023417519 1.3159461e-38 328 222
0.01170876 0.74199998 0.023417519 1.3159461e-38 329 222
0.0130448 0.74400002 0.023480639 1.3068344e-38 330 222
0.01434928 0.74400002 0.023480639 1.3068344e-38 331 222
0.015695838 0.74599999 0.023543758 1.2976146e-38 332 222
0.017003827 0.74599999 0.023543758 1.3068341e-38 333 222
0.018336359 0.74699998 0.023575317 1.3068344e-38 334 222
0.019646099 0.74699998 0.023575317 1.3068344e-38 335 222
0.020955838 0.74699998 0.023575317 1.3067991e-38 336 222
0.022265578 0.74699998 0.023575317 1.3160187e-38 337 222
0.023575317 0.74699998 0.023575317 1.3160905e-38 338 222
0.024951685 0.74900001 0.02363844 1.3253103e-38 339 222
0.0263 0.75 0.023669999 1.2795004e-38 340 222
0.027615 0.75 0.023669999 1.28872e-38 341 222
0.028929999 0.75 0.023669999 1.2887928e-38 342 222
0.030325651 0.75199997 0.023733119 1.2703897e-38 343 222
0.031644158 0.75199997 0.023733119 1.2520954e-38 344 222
0.032962665 0.75199997 0.023733119 1.2520954e-38 345 222
0.034281172 0.75199997 0.023733119 1.2153613e-38 346 222
0.035694357 0.75400001 0.02379624 1.1969222e-38 347 222
0.037016369 0.75400001 0.02379624 1.1692638e-38 348 222
0.038389232 0.755 0.023827799 1.1047268e-38 349 222
0.039818201 0.75700003 0.02389092 1.0218631e-38 350 222
0.041254178 0.759 0.023954039 1.3722425e-38 351 222
0.042697169 0.76099998 0.024017159 1.199485e-38 352 222
0.044089317 0.76200002 0.02404872 1.2732415e-38 353 222
0.045544583 0.764 0.024111839 1.2455468e-38 354 222
0.047006864 0.76599997 0.024174958 1.2547665e-38 355 222
0.048413042 0.76700002 0.024206521 1.3374538e-38 356 222
0.04988759 0.76899999 0.024269639 1.2729168e-38 357 222
0.051235907 0.76899999 0.024269639 8.9480334e-39 358 222
0.052720979 0.77100003 0.02433276 6.9197295e-39 359 222
0.054213066 0.773 0.024395877 1.0782943e-38 360 222
0.055568393 0.773 0.024395877 1.5300529e-38 361 222
-0.063877434 0.759 0.02262326 1.8997024e-38 272 223
-0.062546656 0.759 0.02262326 1.6784328e-38 273 223
-0.061215881 0.759 0.02262326 1.5769772e-38 274 223
-0.059885096 0.759 0.02262326 1.2450729e-38 275 223
-0.058400027 0.75700003 0.022563647 1.3444294e-38 276 223
-0.056921966 0.755 0.022504034 1.2706729e-38 277 223
-0.055598196 0.755 0.022504034 1.4453407e-38 278 223
-0.054274432 0.755 0.022504034 1.4729995e-38 279 223
-0.052880533 0.75400001 0.022474226 1.5187767e-38 280 223
-0.051558517 0.75400001 0.022474226 1.5464354e-38 281 223
-0.050236505 0.75400001 0.022474226 1.5282115e-38 282 223
-0.048914492 0.75400001 0.022474226 1.5374311e-38 283 223
-0.047466237 0.75199997 0.022414612 1.5558693e-38 284 223
-0.046024997 0.75 0.022355 1.5558693e-38 285 223
-0.044709999 0.75 0.022355 1.5650522e-38 286 223
-0.04333714 0.74900001 0.022325192 1.5650522e-38 287 223
-0.042023893 0.74900001 0.022325192 1.5558327e-38 288 223
-0.040601939 0.74699998 0.022265578 1.5558327e-38 289 223
-0.039292198 0.74699998 0.022265578 1.5375015e-38 290 223
-0.03798246 0.74699998 0.022265578 1.5282819e-38 291 223
-0.036672719 0.74699998 0.022265578 1.5373934e-38 292 223
-0.035362978 0.74699998 0.022265578 1.5097349e-38 293 223
-0.034053236 0.74699998 0.022265578 1.5280666e-38 294 223
-0.032699663 0.74599999 0.022235774 1.5188471e-38 295 223
-0.031391677 0.74599999 0.022235774 1.5187752e-38 296 223
-0.030003037 0.74400002 0.022176161 1.5095556e-38 297 223
-0.02869856 0.74400002 0.022176161 1.5187746e-38 298 223
-0.027394081 0.74400002 0.022176161 1.5187746e-38 299 223
-0.026019465 0.74199998 0.022116546 1.5096626e-38 300 223
-0.024718491 0.74199998 0.022116546 1.5281017e-38 301 223
-0.023417519 0.74199998 0.022116546 1.4914402e-38 302 223
-0.022116546 0.74199998 0.022116546 1.5283185e-38 303 223
-0.020815572 0.74199998 0.022116546 1.5284632e-38 304 223
-0.0195146 0.74199998 0.022116546 1.574561e-38 305 223
-0.018213626 0.74199998 0.022116546 1.5746336e-38 306 223
-0.016912652 0.74199998 0.022116546 1.5930367e-38 307 223
-0.015611678 0.74199998 0.022116546 1.5838902e-38 308 223
-0.014310705 0.74199998 0.022116546 1.5931097e-38 309 223
-0.013009733 0.74199998 0.022116546 1.6024015e-38 310 223
-0.01170876 0.74199998 0.022116546 1.6024015e-38 311 223
-0.010407786 0.74199998 0.022116546 1.6024368e-38 312 223
-0.009106813 0.74199998 0.022116546 1.5931813e-38 313 223
-0.0078058392 0.74199998 0.022116546 1.5746699e-38 314 223
-0.0064960998 0.741 0.02208674 1.5470112e-38 315 223
-0.0051968796 0.741 0.02208674 1.5285001e-38 316 223
-0.0038976599 0.741 0.02208674 1.4824024e-38 317 223
-0.0025984398 0.741 0.02208674 1.4730382e-38 318 223
-0.0012992199 0.741 0.02208674 1.4269404e-38 319 223
0 0.741 0.02208674 1.4267959e-38 320 223
0.0012992199 0.741 0.02208674 1.3714786e-38 321 223
0.0025984398 0.741 0.02208674 1.380518e-38 322 223
0.0038976599 0.741 0.02208674 1.3621149e-38 323 223
0.0051968796 0.741 0.02208674 1.3253807e-38 324 223
0.0064960998 0.741 0.02208674 1.3069416e-38 325 223
0.0078058392 0.74199998 0.022116546 1.306906e-38 326 223
0.009106813 0.74199998 0.022116546 1.2976865e-38 327 223
0.010407786 0.74199998 0.022116546 1.2792833e-38 328 223
0.01170876 0.74199998 0.022116546 1.2792833e-38 329 223
0.0130448 0.74400002 0.022176161 1.2792833e-38 330 223
0.01434928 0.74400002 0.022176161 1.2700638e-38 331 223
0.015695838 0.74599999 0.022235774 1.2792836e-38 332 223
0.017003827 0.74599999 0.022235774 1.2792836e-38 333 223
0.018336359 0.74699998 0.022265578 1.2883597e-38 334 223
0.019646099 0.74699998 0.022265578 1.2975793e-38 335 223
0.020955838 0.74699998 0.022265578 1.2792483e-38 336 223
0.022265578 0.74699998 0.022265578 1.2976514e-38 337 223
0.023575317 0.74699998 0.022265578 1.28854e-38 338 223
0.024951685 0.74900001 0.022325192 1.2977596e-38 339 223
0.0263 0.75 0.022355 1.279537e-38 340 223
0.027615 0.75 0.022355 1.279537e-38 341 223
0.028929999 0.75 0.022355 1.2795019e-38 342 223
0.030325651 0.75199997 0.022414612 1.2795019e-38 343 223
0.031644158 0.75199997 0.022414612 1.2519872e-38 344 223
0.032962665 0.75199997 0.022414612 1.2704263e-38 345 223
0.034281172 0.75199997 0.022414612 1.206177e-38 346 223
0.035694357 0.75400001 0.022474226 1.1877019e-38 347 223
0.037016369 0.75400001 0.022474226 1.1691556e-38 348 223
0.038389232 0.755 0.022504034 1.1138382e-38 349 223
0.039818201 0.75700003 0.022563647 1.0676723e-38 350 223
0.041254178 0.759 0.02262326 1.3442592e-38 351 223
0.042697169 0.76099998 0.022682872 1.1256559e-38 352 223
0.044089317 0.76200002 0.02271268 1.3100472e-38 353 223
0.045544583 0.764 0.022772292 1.2915011e-38 354 223
0.047006864 0.76599997 0.022831906 1.2638064e-38 355 223
0.048413042 0.76700002 0.022861714 1.2455105e-38 356 223
0.049757849 0.76700002 0.022861714 1.2270355e-38 357 223
0.051235907 0.76899999 0.022921326 9.2296649e-39 358 223
0.052584216 0.76899999 0.022921326 6.4634373e-39 359 223
0.054072797 0.77100003 0.02298094 1.1706339e-38 360 223
0.055568393 0.773 0.023040552 1.613209e-38 361 223
-0.065208219 0.759 0.02129248 1.9180689e-38 271 224
-0.063877434 0.759 0.02129248 1.835201e-38 272 224
-0.062546656 0.759 0.02129248 1.5862728e-38 273 224
-0.061215881 0.759 0.02129248 1.6137492e-38 274 224
-0.059727304 0.75700003 0.021236373 1.5123699e-38 275 224
-0.058400027 0.75700003 0.021236373 1.5108126e-38 276 224
-0.056921966 0.755 0.021180267 1.1789083e-38 277 224
-0.055598196 0.755 0.021180267 1.3992751e-38 278 224
-0.054274432 0.755 0.021180267 1.4822871e-38 279 224
-0.052880533 0.75400001 0.021152213 1.500445e-38 280 224
-0.051558517 0.75400001 0.021152213 1.5465428e-38 281 224
-0.050103247 0.75199997 0.021096105 1.5373961e-38 282 224
-0.048784744 0.75199997 0.021096105 1.5557992e-38 283 224
-0.047339998 0.75 0.02104 1.5467226e-38 284 224
-0.045963634 0.74900001 0.021011947 1.5559421e-38 285 224
-0.044650383 0.74900001 0.021011947 1.5559772e-38 286 224
-0.04333714 0.74900001 0.021011947 1.5467576e-38 287 224
-0.041911677 0.74699998 0.020955838 1.5650888e-38 288 224
-0.040601939 0.74699998 0.020955838 1.5650888e-38 289 224
-0.039292198 0.74699998 0.020955838 1.5559048e-38 290 224
-0.03798246 0.74699998 0.020955838 1.5374659e-38 291 224
-0.036623627 0.74599999 0.020927785 1.5281383e-38 292 224
-0.03531564 0.74599999 0.020927785 1.5097351e-38 293 224
-0.034007654 0.74599999 0.020927785 1.5004803e-38 294 224
-0.032699663 0.74599999 0.020927785 1.4912607e-38 295 224
-0.031307522 0.74400002 0.02087168 1.4911888e-38 296 224
