# .PCD v.7 - Point Cloud Data file format
FIELDS x y z rgb imX imY
SIZE 4 4 4 4 4 4
TYPE F F F F F F
COUNT 1 1 1 1 1 1
WIDTH 830
HEIGHT 1
VIEWPOINT 0 0 0 1 0 0 0
POINTS 830
DATA ascii
0.040004052 0.713 -0.015001519 8.373948e-39 352 252
0.041312039 0.71399999 -0.015022559 8.373948e-39 353 252
0.042563915 0.71399999 -0.015022559 8.6509203e-39 354 252
0.043999899 0.71700001 -0.015085679 1.0863617e-38 355 252
0.045383278 0.71899998 -0.01512776 9.7709613e-39 356 252
0.046838548 0.722 -0.015190879 1.0416331e-38 357 252
0.048104454 0.722 -0.015190879 9.4086584e-39 358 252
0.049438741 0.72299999 -0.015211919 9.4086584e-39 359 252
0.050846666 0.72500002 -0.015254001 1.0326987e-38 360 252
0.052333489 0.72799999 -0.01531712 7.8373446e-39 361 252
0.053609919 0.72799999 -0.01531712 6.9013165e-39 362 252
0.054886345 0.72799999 -0.01531712 1.2064272e-38 363 252
0.056548502 0.73299998 -0.015422319 1.6223164e-38 364 252
0.057833698 0.73299998 -0.015422319 1.825147e-38 365 252
-0.072826453 0.704 -0.016046507 7.4682188e-39 261 253
-0.071592107 0.704 -0.016046507 1.03061e-38 262 253
-0.070257813 0.70300001 -0.016023712 1.1320612e-38 263 253
-0.069025226 0.70300001 -0.016023712 1.2055984e-38 264 253
-0.067599766 0.70099998 -0.015978126 1.2055984e-38 265 253
-0.066275999 0.69999999 -0.015955333 1.2331848e-38 266 253
-0.065048665 0.69999999 -0.015955333 1.251624e-38 267 253
-0.063638985 0.69800001 -0.015909746 1.251624e-38 268 253
-0.062415157 0.69800001 -0.015909746 1.2424044e-38 269 253
-0.061103668 0.69700003 -0.015886955 1.2330776e-38 270 253
-0.05988159 0.69700003 -0.015886955 1.2146385e-38 271 253
-0.058575355 0.69599998 -0.015864158 1.1595009e-38 272 253
-0.057355035 0.69599998 -0.015864158 1.0673053e-38 273 253
-0.055973411 0.69400001 -0.015818574 1.0589181e-38 274 253
-0.054677699 0.69300002 -0.015795778 1.4645789e-38 275 253
-0.053462639 0.69300002 -0.015795778 1.3002511e-38 276 253
-0.05224758 0.69300002 -0.015795778 1.3094708e-38 277 253
-0.050885238 0.69099998 -0.015750192 1.2544051e-38 278 253
-0.049673684 0.69099998 -0.015750192 1.2451855e-38 279 253
-0.04846213 0.69099998 -0.015750192 1.2451137e-38 280 253
-0.047182199 0.69 -0.015727401 1.2266745e-38 281 253
-0.045972396 0.69 -0.015727401 1.2358944e-38 282 253
-0.044632856 0.68800002 -0.015681813 1.2819563e-38 283 253
-0.043363437 0.68699998 -0.015659019 1.3096137e-38 284 253
-0.042158898 0.68699998 -0.015659019 1.198943e-38 285 253
-0.040954359 0.68699998 -0.015659019 1.188675e-38 286 253
-0.039749816 0.68699998 -0.015659019 8.7524584e-39 287 253
-0.03848917 0.68599999 -0.015636226 1.104365e-38 288 253
-0.037286382 0.68599999 -0.015636226 1.104365e-38 289 253
-0.036083598 0.68599999 -0.015636226 1.0400817e-38 290 253
-0.03477912 0.68400002 -0.01559064 1.0400817e-38 291 253
-0.033579841 0.68400002 -0.01559064 9.849811e-39 292 253
-0.032380559 0.68400002 -0.01559064 9.5735842e-39 293 253
-0.031135695 0.68300003 -0.015567848 9.573587e-39 294 253
-0.029938167 0.68300003 -0.015567848 9.29664e-39 295 253
-0.02878272 0.68400002 -0.01559064 9.2959211e-39 296 253
-0.027583439 0.68400002 -0.01559064 9.2037255e-39 297 253
-0.02638416 0.68400002 -0.01559064 9.2951925e-39 298 253
-0.025184879 0.68400002 -0.01559064 9.2951925e-39 299 253
-0.024055731 0.68599999 -0.015636226 9.4799369e-39 300 253
-0.022852944 0.68599999 -0.015636226 9.3877412e-39 301 253
-0.021650158 0.68599999 -0.015636226 9.5703346e-39 302 253
-0.020447372 0.68599999 -0.015636226 9.4781376e-39 303 253
-0.019272638 0.68699998 -0.015659019 9.1111571e-39 304 253
-0.018068098 0.68699998 -0.015659019 9.1111571e-39 305 253
-0.01686356 0.68699998 -0.015659019 9.0196804e-39 306 253
-0.015659019 0.68699998 -0.015659019 8.9274847e-39 307 253
-0.014454478 0.68699998 -0.015659019 9.2026297e-39 308 253
-0.013249939 0.68699998 -0.015659019 9.2026297e-39 309 253
-0.012045399 0.68699998 -0.015659019 9.0200335e-39 310 253
-0.010840859 0.68699998 -0.015659019 9.0200335e-39 311 253
-0.0096363192 0.68699998 -0.015659019 9.0200335e-39 312 253
-0.0084317802 0.68699998 -0.015659019 9.0200335e-39 313 253
-0.0072272392 0.68699998 -0.015659019 9.2022612e-39 314 253
-0.0060226996 0.68699998 -0.015659019 9.2022612e-39 315 253
-0.0048251734 0.68800002 -0.015681813 9.2022584e-39 316 253
-0.0036188802 0.68800002 -0.015681813 9.2022584e-39 317 253
-0.0024125867 0.68800002 -0.015681813 9.478125e-39 318 253
-0.0012062934 0.68800002 -0.015681813 9.3859293e-39 319 253
0 0.69 -0.015727401 9.1111375e-39 320 253
0.0012097999 0.69 -0.015727401 9.1111375e-39 321 253
0.0024195998 0.69 -0.015727401 9.1107844e-39 322 253
0.0036293997 0.69 -0.015727401 9.0185888e-39 323 253
0.0048462129 0.69099998 -0.015750192 9.200829e-39 324 253
0.0060753003 0.69300002 -0.015795778 9.200829e-39 325 253
0.0072903596 0.69300002 -0.015795778 9.017514e-39 326 253
0.0085054198 0.69300002 -0.015795778 8.9253183e-39 327 253
0.0097204801 0.69300002 -0.015795778 9.0171468e-39 328 253
0.010935539 0.69300002 -0.015795778 9.0171468e-39 329 253
0.012150601 0.69300002 -0.015795778 8.6501594e-39 330 253
0.01336566 0.69300002 -0.015795778 8.6501594e-39 331 253
0.01460176 0.69400001 -0.015818574 8.8331185e-39 332 253
0.015864158 0.69599998 -0.015864158 8.8331185e-39 333 253
0.017084479 0.69599998 -0.015864158 8.8331185e-39 334 253
0.0183574 0.69800001 -0.015909746 8.9256743e-39 335 253
0.019581227 0.69800001 -0.015909746 8.6498062e-39 336 253
0.020805053 0.69800001 -0.015909746 8.5576106e-39 337 253
0.02202888 0.69800001 -0.015909746 8.4650619e-39 338 253
0.023252707 0.69800001 -0.015909746 8.4650619e-39 339 253
0.024546666 0.69999999 -0.015955333 8.3721446e-39 340 253
0.025773998 0.69999999 -0.015955333 8.3721446e-39 341 253
0.027039904 0.70099998 -0.015978126 8.4646933e-39 342 253
0.028349647 0.70300001 -0.016023712 8.3724977e-39 343 253
0.029624319 0.704 -0.016046507 8.3724949e-39 344 253
0.030858666 0.704 -0.016046507 8.3724949e-39 345 253
0.032184184 0.70599997 -0.016092092 8.1891854e-39 346 253
0.033422034 0.70599997 -0.016092092 8.3732165e-39 347 253
0.034708988 0.70700002 -0.016114887 8.1899043e-39 348 253
0.03599944 0.708 -0.01613768 8.2820999e-39 349 253
0.037345998 0.70999998 -0.016183265 8.3753703e-39 350 253
0.038753927 0.713 -0.016251646 8.282816e-39 351 253
0.040060159 0.71399999 -0.016274439 8.4664912e-39 352 253
0.041312039 0.71399999 -0.016274439 8.3742955e-39 353 253
0.042683143 0.71600002 -0.016320027 8.8385359e-39 354 253
0.043999899 0.71700001 -0.016342819 1.0497699e-38 355 253
0.045383278 0.71899998 -0.016388407 9.8642317e-39 356 253
0.046838548 0.722 -0.016456785 1.0693994e-38 357 253
0.048171077 0.72299999 -0.01647958 9.5923308e-39 358 253
0.0495755 0.72500002 -0.016525166 9.5001352e-39 359 253
0.051057063 0.72799999 -0.016593546 9.5919398e-39 360 253
0.052333489 0.72799999 -0.016593546 7.5636346e-39 361 253
0.053609919 0.72799999 -0.016593546 7.454856e-39 362 253
0.054886345 0.72799999 -0.016593546 1.3447573e-38 363 253
0.056548502 0.73299998 -0.016707512 1.7605747e-38 364 253
-0.072723009 0.70300001 -0.017256306 5.9030412e-39 261 254
-0.071490414 0.70300001 -0.017256306 1.0580526e-38 262 254
-0.070257813 0.70300001 -0.017256306 1.2147492e-38 263 254
-0.069025226 0.70300001 -0.017256306 1.1964515e-38 264 254
-0.067599766 0.70099998 -0.017207211 1.1964515e-38 265 254
-0.066275999 0.69999999 -0.017182667 1.2240734e-38 266 254
-0.065048665 0.69999999 -0.017182667 1.233293e-38 267 254
-0.063638985 0.69800001 -0.017133573 1.214818e-38 268 254
-0.062415157 0.69800001 -0.017133573 1.1963789e-38 269 254
-0.061103668 0.69700003 -0.017109027 1.168721e-38 270 254
-0.05988159 0.69700003 -0.017109027 1.1594656e-38 271 254
-0.058575355 0.69599998 -0.017084479 1.1319148e-38 272 254
-0.057190225 0.69400001 -0.017035386 1.0397192e-38 273 254
-0.055973411 0.69400001 -0.017035386 9.9402144e-39 274 254
-0.054677699 0.69300002 -0.01701084 1.3167061e-38 275 254
-0.053462639 0.69300002 -0.01701084 1.2173108e-38 276 254
-0.052096792 0.69099998 -0.016961746 1.318726e-38 277 254
-0.050885238 0.69099998 -0.016961746 1.2543332e-38 278 254
-0.049673684 0.69099998 -0.016961746 1.2451137e-38 279 254
-0.048391998 0.69 -0.0169372 1.2175273e-38 280 254
-0.047182199 0.69 -0.0169372 1.2175273e-38 281 254
-0.045972396 0.69 -0.0169372 1.2083077e-38 282 254
-0.044632856 0.68800002 -0.016888106 1.2175273e-38 283 254
-0.043363437 0.68699998 -0.01686356 1.2175982e-38 284 254
-0.042158898 0.68699998 -0.01686356 1.1438058e-38 285 254
-0.040954359 0.68699998 -0.01686356 1.0605734e-38 286 254
-0.039749816 0.68699998 -0.01686356 5.6275306e-39 287 254
-0.03848917 0.68599999 -0.016839013 1.0123507e-38 288 254
-0.037286382 0.68599999 -0.016839013 1.0400454e-38 289 254
-0.036083598 0.68599999 -0.016839013 9.9420066e-39 290 254
-0.03477912 0.68400002 -0.016789921 9.9420066e-39 291 254
-0.033579841 0.68400002 -0.016789921 9.3917097e-39 292 254
-0.032380559 0.68400002 -0.016789921 9.3917097e-39 293 254
-0.031135695 0.68300003 -0.016765373 9.2055206e-39 294 254
-0.029938167 0.68300003 -0.016765373 9.0211293e-39 295 254
-0.02878272 0.68400002 -0.016789921 9.1122487e-39 296 254
-0.027583439 0.68400002 -0.016789921 8.9282176e-39 297 254
-0.02638416 0.68400002 -0.016789921 8.836015e-39 298 254
-0.025184879 0.68400002 -0.016789921 9.1126019e-39 299 254
-0.024055731 0.68599999 -0.016839013 9.2966218e-39 300 254
-0.022852944 0.68599999 -0.016839013 9.2966218e-39 301 254
-0.021650158 0.68599999 -0.016839013 9.2955428e-39 302 254
-0.020447372 0.68599999 -0.016839013 9.1115103e-39 303 254
-0.019272638 0.68699998 -0.01686356 8.9274847e-39 304 254
-0.018068098 0.68699998 -0.01686356 8.9274847e-39 305 254
-0.01686356 0.68699998 -0.01686356 8.7441725e-39 306 254
-0.015659019 0.68699998 -0.01686356 8.7441725e-39 307 254
-0.014454478 0.68699998 -0.01686356 8.9274819e-39 308 254
-0.013249939 0.68699998 -0.01686356 8.9274819e-39 309 254
-0.012045399 0.68699998 -0.01686356 8.9274819e-39 310 254
-0.010840859 0.68699998 -0.01686356 9.0200363e-39 311 254
-0.0096363192 0.68699998 -0.01686356 9.2948225e-39 312 254
-0.0084317802 0.68699998 -0.01686356 9.1104313e-39 313 254
-0.0072272392 0.68699998 -0.01686356 9.202264e-39 314 254
-0.0060226996 0.68699998 -0.01686356 9.202264e-39 315 254
-0.0048251734 0.68800002 -0.016888106 9.20298e-39 316 254
-0.0036188802 0.68800002 -0.016888106 9.20298e-39 317 254
-0.0024125867 0.68800002 -0.016888106 9.1107816e-39 318 254
-0.0012062934 0.68800002 -0.016888106 9.1107816e-39 319 254
0 0.69 -0.0169372 8.9274693e-39 320 254
0.0012097999 0.69 -0.0169372 8.9274693e-39 321 254
0.0024195998 0.69 -0.0169372 8.6516083e-39 322 254
0.0036293997 0.69 -0.0169372 8.6516083e-39 323 254
0.0048462129 0.69099998 -0.016961746 9.017514e-39 324 254
0.0060753003 0.69300002 -0.01701084 8.9253183e-39 325 254
0.0072903596 0.69300002 -0.01701084 8.9253183e-39 326 254
0.0085054198 0.69300002 -0.01701084 8.9253183e-39 327 254
0.0097204801 0.69300002 -0.01701084 8.7420033e-39 328 254
0.010935539 0.69300002 -0.01701084 8.6498062e-39 329 254
0.012150601 0.69300002 -0.01701084 8.6501622e-39 330 254
0.01336566 0.69300002 -0.01701084 8.5576078e-39 331 254
0.01460176 0.69400001 -0.017035386 8.5572575e-39 332 254
0.015864158 0.69599998 -0.017084479 8.6494531e-39 333 254
0.017084479 0.69599998 -0.017084479 8.6494531e-39 334 254
0.018331099 0.69700003 -0.017109027 8.6494531e-39 335 254
0.019553173 0.69700003 -0.017109027 8.5572575e-39 336 254
0.020805053 0.69800001 -0.017133573 8.4650619e-39 337 254
0.02202888 0.69800001 -0.017133573 8.4650619e-39 338 254
0.023319334 0.69999999 -0.017182667 8.3728662e-39 339 254
0.024546666 0.69999999 -0.017182667 8.1895512e-39 340 254
0.025773998 0.69999999 -0.017182667 8.0973555e-39 341 254
0.027039904 0.70099998 -0.017207211 8.0969898e-39 342 254
0.028349647 0.70300001 -0.017256306 8.1891854e-39 343 254
0.029624319 0.704 -0.017280852 8.1895386e-39 344 254
0.030858666 0.704 -0.017280852 8.1895386e-39 345 254
0.032184184 0.70599997 -0.017329946 8.4650492e-39 346 254
0.033422034 0.70599997 -0.017329946 8.4650492e-39 347 254
0.034708988 0.70700002 -0.017354494 8.2820971e-39 348 254
0.03599944 0.708 -0.017379038 8.2820971e-39 349 254
0.037398599 0.71100003 -0.01745268 8.3746515e-39 350 254
0.038753927 0.713 -0.017501773 8.4668471e-39 351 254
0.040060159 0.71399999 -0.017526319 8.4661409e-39 352 254
0.041312039 0.71399999 -0.017526319 8.4661409e-39 353 254
0.042683143 0.71600002 -0.017575413 8.5633938e-39 354 254
0.043999899 0.71700001 -0.017599959 1.0130721e-38 355 254
0.045383278 0.71899998 -0.017649053 9.9553484e-39 356 254
0.046838548 0.722 -0.017722692 1.0692913e-38 357 254
0.048171077 0.72299999 -0.017747238 9.7760018e-39 358 254
0.049712259 0.727 -0.017845426 9.7760018e-39 359 254
0.051057063 0.72799999 -0.017869972 1.0142595e-38 360 254
0.052333489 0.72799999 -0.017869972 8.5749096e-39 361 254
0.053609919 0.72799999 -0.017869972 9.4828109e-39 362 254
0.054886345 0.72799999 -0.017869972 1.5383331e-38 363 254
0.056162767 0.72799999 -0.017869972 1.8252201e-38 364 254
-0.072516106 0.70099998 -0.018436298 5.6250068e-39 261 255
-0.071287021 0.70099998 -0.018436298 1.0949658e-38 262 255
-0.070057929 0.70099998 -0.018436298 1.1963811e-38 263 255
-0.068828844 0.70099998 -0.018436298 1.2055634e-38 264 255
-0.067503333 0.69999999 -0.018409999 1.214783e-38 265 255
-0.066275999 0.69999999 -0.018409999 1.2148899e-38 266 255
-0.06486281 0.69800001 -0.0183574 1.2148899e-38 267 255
-0.063638985 0.69800001 -0.0183574 1.1963789e-38 268 255
-0.062325738 0.69700003 -0.018331099 1.1687561e-38 269 255
-0.061103668 0.69700003 -0.018331099 1.150246e-38 270 255
-0.059795678 0.69599998 -0.018304799 1.1318069e-38 271 255
-0.058575355 0.69599998 -0.018304799 1.1317363e-38 272 255
-0.057190225 0.69400001 -0.0182522 1.1041135e-38 273 255
-0.055892758 0.69300002 -0.018225901 1.0214286e-38 274 255
-0.054677699 0.69300002 -0.018225901 1.1597222e-38 275 255
-0.053462639 0.69300002 -0.018225901 1.1711401e-38 276 255
-0.052096792 0.69099998 -0.0181733 1.3186891e-38 277 255
-0.050885238 0.69099998 -0.0181733 1.2634449e-38 278 255
-0.049673684 0.69099998 -0.0181733 1.2634449e-38 279 255
-0.048391998 0.69 -0.018146999 1.2267822e-38 280 255
-0.047182199 0.69 -0.018146999 1.2175626e-38 281 255
-0.045839146 0.68800002 -0.0180944 1.1991232e-38 282 255
-0.044632856 0.68800002 -0.0180944 1.1899035e-38 283 255
-0.043363437 0.68699998 -0.018068098 1.1439856e-38 284 255
-0.042158898 0.68699998 -0.018068098 1.0794845e-38 285 255
-0.040954359 0.68699998 -0.018068098 9.9621825e-39 286 255
-0.039749816 0.68699998 -0.018068098 4.1538578e-39 287 255
-0.03848917 0.68599999 -0.018041799 8.9285806e-39 288 255
-0.037286382 0.68599999 -0.018041799 9.6661456e-39 289 255
-0.035978399 0.68400002 -0.0179892 9.5757478e-39 290 255
-0.03477912 0.68400002 -0.0179892 9.6679435e-39 291 255
-0.033579841 0.68400002 -0.0179892 9.300956e-39 292 255
-0.032380559 0.68400002 -0.0179892 9.1165647e-39 293 255
-0.031135695 0.68300003 -0.017962901 9.0229272e-39 294 255
-0.029938167 0.68300003 -0.017962901 8.8385359e-39 295 255
-0.02878272 0.68400002 -0.0179892 9.0211293e-39 296 255
-0.027583439 0.68400002 -0.0179892 8.8367381e-39 297 255
-0.02638416 0.68400002 -0.0179892 8.9285679e-39 298 255
-0.025184879 0.68400002 -0.0179892 9.1125991e-39 299 255
-0.024055731 0.68599999 -0.018041799 9.1140312e-39 300 255
-0.022852944 0.68599999 -0.018041799 9.1140312e-39 301 255
-0.021650158 0.68599999 -0.018041799 9.1129522e-39 302 255
-0.020447372 0.68599999 -0.018041799 8.9289211e-39 303 255
-0.019272638 0.68699998 -0.018068098 8.9274819e-39 304 255
-0.018068098 0.68699998 -0.018068098 8.9274819e-39 305 255
-0.01686356 0.68699998 -0.018068098 8.9274819e-39 306 255
-0.015659019 0.68699998 -0.018068098 8.9274819e-39 307 255
-0.014454478 0.68699998 -0.018068098 8.8352863e-39 308 255
-0.013249939 0.68699998 -0.018068098 8.9274819e-39 309 255
-0.012045399 0.68699998 -0.018068098 9.0189615e-39 310 255
-0.010840859 0.68699998 -0.018068098 9.1111571e-39 311 255
-0.0096363192 0.68699998 -0.018068098 9.385942e-39 312 255
-0.0084440531 0.68800002 -0.0180944 9.2019108e-39 313 255
-0.0072377604 0.68800002 -0.0180944 9.202264e-39 314 255
-0.0060314666 0.68800002 -0.0180944 9.202264e-39 315 255
-0.0048251734 0.68800002 -0.0180944 9.1107844e-39 316 255
-0.0036188802 0.68800002 -0.0180944 9.1107844e-39 317 255
-0.0024125867 0.68800002 -0.0180944 8.9274693e-39 318 255
-0.0012062934 0.68800002 -0.0180944 8.9274693e-39 319 255
0 0.69 -0.018146999 8.9274721e-39 320 255
0.0012097999 0.69 -0.018146999 8.8349178e-39 321 255
0.0024195998 0.69 -0.018146999 8.8349178e-39 322 255
0.0036293997 0.69 -0.018146999 8.7427221e-39 323 255
0.0048462129 0.69099998 -0.0181733 8.9256743e-39 324 255
0.0060753003 0.69300002 -0.018225901 8.9256743e-39 325 255
0.0072903596 0.69300002 -0.018225901 8.7420033e-39 326 255
0.0085054198 0.69300002 -0.018225901 8.6498062e-39 327 255
0.0097204801 0.69300002 -0.018225901 8.8323996e-39 328 255
0.01095132 0.69400001 -0.0182522 8.8323996e-39 329 255
0.012168133 0.69400001 -0.0182522 8.5568889e-39 330 255
0.013384946 0.69400001 -0.0182522 8.5568889e-39 331 255
0.01460176 0.69400001 -0.0182522 8.5568917e-39 332 255
0.015864158 0.69599998 -0.018304799 8.5568917e-39 333 255
0.017084479 0.69599998 -0.018304799 8.4650591e-39 334 255
0.018331099 0.69700003 -0.018331099 8.4650591e-39 335 255
0.019553173 0.69700003 -0.018331099 8.4643402e-39 336 255
0.020805053 0.69800001 -0.0183574 8.4643402e-39 337 255
0.02202888 0.69800001 -0.0183574 8.3721446e-39 338 255
0.023319334 0.69999999 -0.018409999 8.3721446e-39 339 255
0.024546666 0.69999999 -0.018409999 8.0966339e-39 340 255
0.025773998 0.69999999 -0.018409999 8.0966339e-39 341 255
0.027039904 0.70099998 -0.018436298 8.2802978e-39 342 255
0.028349647 0.70300001 -0.018488899 8.3724949e-39 343 255
0.029624319 0.704 -0.018515198 8.1895386e-39 344 255
0.030858666 0.704 -0.018515198 8.3735697e-39 345 255
0.032184184 0.70599997 -0.018567799 8.3732137e-39 346 255
0.033422034 0.70599997 -0.018567799 8.3732137e-39 347 255
0.034758076 0.708 -0.0186204 8.1906232e-39 348 255
0.036101133 0.70999998 -0.018672999 8.2828188e-39 349 255
0.037398599 0.71100003 -0.0186993 8.3750144e-39 350 255
0.038808275 0.71399999 -0.018778199 8.3750144e-39 351 255
0.040060159 0.71399999 -0.018778199 8.6505265e-39 352 255
0.041312039 0.71399999 -0.018778199 8.466494e-39 353 255
0.042683143 0.71600002 -0.0188308 8.8385359e-39 354 255
0.043999899 0.71700001 -0.018857099 1.0590253e-38 355 255
0.045383278 0.71899998 -0.018909698 1.0231216e-38 356 255
0.046838548 0.722 -0.0189886 1.1153173e-38 357 255
0.048171077 0.72299999 -0.019014901 1.0144782e-38 358 255
0.049712259 0.727 -0.019120099 1.0144782e-38 359 255
0.051057063 0.72799999 -0.0191464 1.0419904e-38 360 255
0.052477267 0.73000002 -0.019199001 8.8525783e-39 361 255
0.053757198 0.73000002 -0.019199001 1.1054824e-38 362 255
0.055112526 0.73100001 -0.019225299 1.6402172e-38 363 255
-0.07406079 0.704 -0.019749546 1.1614835e-38 260 256
-0.072516106 0.70099998 -0.019665385 6.6362707e-39 261 256
-0.071287021 0.70099998 -0.019665385 1.1501741e-38 262 256
-0.070057929 0.70099998 -0.019665385 1.2147111e-38 263 256
-0.068828844 0.70099998 -0.019665385 1.1871243e-38 264 256
-0.067503333 0.69999999 -0.019637333 1.1963439e-38 265 256
-0.066086642 0.69800001 -0.019581227 1.1780126e-38 266 256
-0.06486281 0.69800001 -0.019581227 1.1687931e-38 267 256
-0.06354782 0.69700003 -0.019553173 1.1594659e-38 268 256
-0.062325738 0.69700003 -0.019553173 1.1502463e-38 269 256
-0.061015997 0.69599998 -0.019525118 1.1135123e-38 270 256
-0.059795678 0.69599998 -0.019525118 1.1042927e-38 271 256
-0.058407038 0.69400001 -0.019469013 1.1317363e-38 272 256
-0.057190225 0.69400001 -0.019469013 1.1409558e-38 273 256
-0.055892758 0.69300002 -0.01944096 1.0858205e-38 274 256
-0.054677699 0.69300002 -0.01944096 1.1411379e-38 275 256
-0.053308345 0.69099998 -0.019384852 1.1707435e-38 276 256
-0.052096792 0.69099998 -0.019384852 1.3551348e-38 277 256
-0.050885238 0.69099998 -0.019384852 1.1807569e-38 278 256
-0.049601797 0.69 -0.019356798 1.1807569e-38 279 256
-0.048391998 0.69 -0.019356798 1.1440224e-38 280 256
-0.047045439 0.68800002 -0.019300694 1.1348029e-38 281 256
-0.045839146 0.68800002 -0.019300694 1.1530978e-38 282 256
-0.044632856 0.68800002 -0.019300694 1.1530978e-38 283 256
-0.043363437 0.68699998 -0.019272638 1.0979604e-38 284 256
-0.042158898 0.68699998 -0.019272638 1.0887408e-38 285 256
-0.040954359 0.68699998 -0.019272638 1.0145505e-38 286 256
-0.039749816 0.68699998 -0.019272638 4.7059624e-39 287 256
-0.03848917 0.68599999 -0.019244585 8.7459998e-39 288 256
-0.037286382 0.68599999 -0.019244585 9.2073381e-39 289 256
-0.035978399 0.68400002 -0.01918848 9.3006085e-39 290 256
-0.03477912 0.68400002 -0.01918848 9.3928041e-39 291 256
-0.033579841 0.68400002 -0.01918848 9.3931572e-39 292 256
-0.032380559 0.68400002 -0.01918848 9.3009616e-39 293 256
-0.03118128 0.68400002 -0.01918848 9.2995141e-39 294 256
-0.029982001 0.68400002 -0.01918848 9.0229272e-39 295 256
-0.02878272 0.68400002 -0.01918848 9.1136809e-39 296 256
-0.027583439 0.68400002 -0.01918848 8.9289309e-39 297 256
-0.02638416 0.68400002 -0.01918848 9.1126019e-39 298 256
-0.025258519 0.68599999 -0.019244585 9.2969931e-39 299 256
-0.024055731 0.68599999 -0.019244585 9.1143969e-39 300 256
-0.022852944 0.68599999 -0.019244585 9.2065926e-39 301 256
-0.021650158 0.68599999 -0.019244585 9.1136781e-39 302 256
-0.020447372 0.68599999 -0.019244585 8.8370912e-39 303 256
-0.019272638 0.68699998 -0.019272638 8.9274875e-39 304 256
-0.018068098 0.68699998 -0.019272638 8.9274875e-39 305 256
-0.01686356 0.68699998 -0.019272638 8.7441725e-39 306 256
-0.015659019 0.68699998 -0.019272638 8.7441725e-39 307 256
-0.014454478 0.68699998 -0.019272638 8.7441725e-39 308 256
-0.013249939 0.68699998 -0.019272638 8.7441725e-39 309 256
-0.012045399 0.68699998 -0.019272638 8.9274847e-39 310 256
-0.010840859 0.68699998 -0.019272638 8.9274847e-39 311 256
-0.0096503468 0.68800002 -0.019300694 9.0193174e-39 312 256
-0.0084440531 0.68800002 -0.019300694 8.9267631e-39 313 256
-0.0072377604 0.68800002 -0.019300694 9.1104313e-39 314 256
-0.0060314666 0.68800002 -0.019300694 9.1104313e-39 315 256
-0.0048251734 0.68800002 -0.019300694 9.0193146e-39 316 256
-0.0036188802 0.68800002 -0.019300694 9.0193146e-39 317 256
-0.0024125867 0.68800002 -0.019300694 8.8356394e-39 318 256
-0.0012097999 0.69 -0.019356798 8.8356394e-39 319 256
0 0.69 -0.019356798 8.6512524e-39 320 256
0.0012097999 0.69 -0.019356798 8.5590568e-39 321 256
0.0024195998 0.69 -0.019356798 8.6505293e-39 322 256
0.0036293997 0.69 -0.019356798 8.6505293e-39 323 256
0.0048462129 0.69099998 -0.019384852 8.7420033e-39 324 256
0.0060753003 0.69300002 -0.01944096 8.6498062e-39 325 256
0.0072903596 0.69300002 -0.01944096 8.8324024e-39 326 256
0.0085054198 0.69300002 -0.01944096 8.7402068e-39 327 256
0.0097204801 0.69300002 -0.01944096 8.7402068e-39 328 256
0.01095132 0.69400001 -0.019469013 8.7402068e-39 329 256
0.012168133 0.69400001 -0.019469013 8.465415e-39 330 256
0.013384946 0.69400001 -0.019469013 8.465415e-39 331 256
0.01460176 0.69400001 -0.019469013 8.3728634e-39 332 256
0.015864158 0.69599998 -0.019525118 8.3728634e-39 333 256
0.017084479 0.69599998 -0.019525118 8.6476552e-39 334 256
0.018331099 0.69700003 -0.019553173 8.6476552e-39 335 256
0.019581227 0.69800001 -0.019581227 8.5550967e-39 336 256
0.020805053 0.69800001 -0.019581227 8.5550967e-39 337 256
0.02202888 0.69800001 -0.019581227 8.3717816e-39 338 256
0.023319334 0.69999999 -0.019637333 8.5558127e-39 339 256
0.024546666 0.69999999 -0.019637333 8.3724977e-39 340 256
0.025810819 0.70099998 -0.019665385 8.3724977e-39 341 256
0.027117053 0.70300001 -0.019721493 8.5561659e-39 342 256
0.028389972 0.704 -0.019749546 8.6483615e-39 343 256
0.029624319 0.704 -0.019749546 8.5572421e-39 344 256
0.030946331 0.70599997 -0.019805651 8.5572421e-39 345 256
0.032184184 0.70599997 -0.019805651 8.4650464e-39 346 256
0.033469379 0.70700002 -0.019833706 8.5572421e-39 347 256
0.034758076 0.708 -0.01986176 8.3742955e-39 348 256
0.036101133 0.70999998 -0.019917866 8.4664912e-39 349 256
0.037398599 0.71100003 -0.01994592 8.3753703e-39 350 256
0.038808275 0.71399999 -0.020030079 8.467566e-39 351 256
0.040060159 0.71399999 -0.020030079 8.7427221e-39 352 256
0.041312039 0.71399999 -0.020030079 8.8349178e-39 353 256
0.042683143 0.71600002 -0.020086186 8.7459844e-39 354 256
0.043999899 0.71700001 -0.020114239 1.0589897e-38 355 256
0.045383278 0.71899998 -0.020170346 1.0599277e-38 356 256
0.046838548 0.722 -0.020254506 1.1705623e-38 357 256
0.048171077 0.72299999 -0.020282559 1.0512482e-38 358 256
0.049712259 0.727 -0.020394772 1.0512482e-38 359 256
0.051057063 0.72799999 -0.020422826 1.0327352e-38 360 256
0.052477267 0.73000002 -0.020478934 9.4053962e-39 361 256
0.053757198 0.73000002 -0.020478934 1.3087092e-38 362 256
0.055037133 0.73000002 -0.020478934 1.6774916e-38 363 256
-0.075295143 0.704 -0.020983893 1.2079801e-38 259 257
-0.07406079 0.704 -0.020983893 9.4871423e-39 260 257
-0.072723009 0.70300001 -0.020954086 8.4733491e-39 261 257
-0.071490414 0.70300001 -0.020954086 1.177977e-38 262 257
-0.070257813 0.70300001 -0.020954086 1.1687575e-38 263 257
-0.068828844 0.70099998 -0.020894472 1.1411712e-38 264 257
-0.067503333 0.69999999 -0.020864666 1.1319517e-38 265 257
-0.066086642 0.69800001 -0.020805053 1.1226968e-38 266 257
-0.06486281 0.69800001 -0.020805053 1.1134772e-38 267 257
-0.06354782 0.69700003 -0.020775247 1.1134772e-38 268 257
-0.062325738 0.69700003 -0.020775247 1.1134772e-38 269 257
-0.061015997 0.69599998 -0.020745439 1.0675593e-38 270 257
-0.059795678 0.69599998 -0.020745439 1.0675593e-38 271 257
-0.058407038 0.69400001 -0.020685827 1.0584114e-38 272 257
-0.057190225 0.69400001 -0.020685827 1.0584114e-38 273 257
-0.055892758 0.69300002 -0.020656019 1.0583047e-38 274 257
-0.054677699 0.69300002 -0.020656019 1.0490852e-38 275 257
-0.053308345 0.69099998 -0.020596405 1.1243569e-38 276 257
-0.052096792 0.69099998 -0.020596405 1.3640657e-38 277 257
-0.050885238 0.69099998 -0.020596405 1.1072165e-38 278 257
-0.049601797 0.69 -0.020566599 1.0979969e-38 279 257
-0.048391998 0.69 -0.020566599 1.0704108e-38 280 257
-0.047045439 0.68800002 -0.020506985 1.0704108e-38 281 257
-0.045839146 0.68800002 -0.020506985 1.1254764e-38 282 257
-0.044632856 0.68800002 -0.020506985 1.1162568e-38 283 257
-0.043363437 0.68699998 -0.020477179 1.1070367e-38 284 257
-0.042158898 0.68699998 -0.020477179 1.1255117e-38 285 257
-0.040954359 0.68699998 -0.020477179 1.0515732e-38 286 257
-0.039749816 0.68699998 -0.020477179 4.6152115e-39 287 257
-0.038545277 0.68699998 -0.020477179 8.7452865e-39 288 257
-0.037286382 0.68599999 -0.020447372 9.3906559e-39 289 257
-0.035978399 0.68400002 -0.020387759 9.2077038e-39 290 257
-0.03477912 0.68400002 -0.020387759 9.3002582e-39 291 257
-0.033579841 0.68400002 -0.020387759 9.484648e-39 292 257
-0.032380559 0.68400002 -0.020387759 9.3002554e-39 293 257
-0.03118128 0.68400002 -0.020387759 9.2076884e-39 294 257
-0.029982001 0.68400002 -0.020387759 9.0232971e-39 295 257
-0.02878272 0.68400002 -0.020387759 9.3895545e-39 296 257
-0.027583439 0.68400002 -0.020387759 9.1133277e-39 297 257
-0.026461305 0.68599999 -0.020447372 9.2969931e-39 298 257
-0.025258519 0.68599999 -0.020447372 9.4813844e-39 299 257
-0.024055731 0.68599999 -0.020447372 9.2995113e-39 300 257
-0.022852944 0.68599999 -0.020447372 9.2073156e-39 301 257
-0.021650158 0.68599999 -0.020447372 9.1136809e-39 302 257
-0.020447372 0.68599999 -0.020447372 8.8367353e-39 303 257
-0.019272638 0.68699998 -0.020477179 8.7438166e-39 304 257
-0.018068098 0.68699998 -0.020477179 8.7438166e-39 305 257
-0.01686356 0.68699998 -0.020477179 8.8349332e-39 306 257
-0.015659019 0.68699998 -0.020477179 8.8349332e-39 307 257
-0.014454478 0.68699998 -0.020477179 8.6516209e-39 308 257
-0.013249939 0.68699998 -0.020477179 8.6516209e-39 309 257
-0.012045399 0.68699998 -0.020477179 8.9274847e-39 310 257
-0.010856641 0.68800002 -0.020506985 8.9274847e-39 311 257
-0.0096503468 0.68800002 -0.020506985 8.9274819e-39 312 257
-0.0084440531 0.68800002 -0.020506985 8.8352863e-39 313 257
-0.0072377604 0.68800002 -0.020506985 9.0193174e-39 314 257
-0.0060314666 0.68800002 -0.020506985 8.9267631e-39 315 257
-0.0048251734 0.68800002 -0.020506985 8.8352863e-39 316 257
-0.0036188802 0.68800002 -0.020506985 8.6512552e-39 317 257
-0.0024125867 0.68800002 -0.020506985 8.8345674e-39 318 257
-0.0012097999 0.69 -0.020566599 8.8345674e-39 319 257
0 0.69 -0.020566599 8.6501762e-39 320 257
0.0012097999 0.69 -0.020566599 8.6501762e-39 321 257
0.0024231065 0.69099998 -0.020596405 8.6501734e-39 322 257
0.0036346598 0.69099998 -0.020596405 8.4661409e-39 323 257
0.0048462129 0.69099998 -0.020596405 8.924954e-39 324 257
0.0060753003 0.69300002 -0.020656019 8.8323996e-39 325 257
0.0072903596 0.69300002 -0.020656019 8.5568917e-39 326 257
0.0085054198 0.69300002 -0.020656019 8.4646961e-39 327 257
0.0097204801 0.69300002 -0.020656019 8.6480112e-39 328 257
0.01095132 0.69400001 -0.020685827 8.6480112e-39 329 257
0.012168133 0.69400001 -0.020685827 8.1895484e-39 330 257
0.013384946 0.69400001 -0.020685827 8.1895484e-39 331 257
0.014643839 0.69599998 -0.020745439 8.3728634e-39 332 257
0.015886955 0.69700003 -0.020775247 8.1888323e-39 333 257
0.017109027 0.69700003 -0.020775247 8.3721446e-39 334 257
0.018331099 0.69700003 -0.020775247 8.3721446e-39 335 257
0.019581227 0.69800001 -0.020805053 8.3717816e-39 336 257
0.020805053 0.69800001 -0.020805053 8.3717816e-39 337 257
0.022091998 0.69999999 -0.020864666 8.3717788e-39 338 257
0.023319334 0.69999999 -0.020864666 8.5558099e-39 339 257
0.024546666 0.69999999 -0.020864666 8.6483615e-39 340 257
0.025810819 0.70099998 -0.020894472 8.6483615e-39 341 257
0.027117053 0.70300001 -0.020954086 8.4650492e-39 342 257
0.028389972 0.704 -0.020983893 8.5572449e-39 343 257
0.029624319 0.704 -0.020983893 8.5579609e-39 344 257
0.030946331 0.70599997 -0.021043506 8.4657653e-39 345 257
0.032229774 0.70700002 -0.021073313 8.4657653e-39 346 257
0.033469379 0.70700002 -0.021073313 8.5579609e-39 347 257
0.034758076 0.708 -0.021103119 8.6501594e-39 348 257
0.036101133 0.70999998 -0.021162732 8.742355e-39 349 257
0.037398599 0.71100003 -0.021192541 8.5597602e-39 350 257
0.038753927 0.713 -0.021252153 8.6519558e-39 351 257
0.040060159 0.71399999 -0.021281958 8.8359898e-39 352 257
0.041312039 0.71399999 -0.021281958 8.8359898e-39 353 257
0.042683143 0.71600002 -0.021341572 9.1122459e-39 354 257
0.043999899 0.71700001 -0.021371379 1.114055e-38 355 257
0.045383278 0.71899998 -0.021430992 1.0783308e-38 356 257
0.046838548 0.722 -0.021520413 1.1890016e-38 357 257
0.048304334 0.72500002 -0.021609833 1.0789432e-38 358 257
0.049780637 0.72799999 -0.021699252 1.0696876e-38 359 257
0.051057063 0.72799999 -0.021699252 1.0142961e-38 360 257
0.052477267 0.73000002 -0.021758866 1.0142961e-38 361 257
0.053757198 0.73000002 -0.021758866 1.484061e-38 362 257
0.055037133 0.73000002 -0.021758866 1.714514e-38 363 257
-0.076529488 0.704 -0.022218239 1.7703013e-38 258 258
-0.075295143 0.704 -0.022218239 8.9440677e-39 259 258
-0.07406079 0.704 -0.022218239 9.2044318e-39 260 258
-0.072723009 0.70300001 -0.02218668 1.0310419e-38 261 258
-0.071490414 0.70300001 -0.02218668 1.1412063e-38 262 258
-0.070257813 0.70300001 -0.02218668 1.1135476e-38 263 258
-0.068828844 0.70099998 -0.022123558 1.0858543e-38 264 258
-0.067503333 0.69999999 -0.022091998 1.0766346e-38 265 258
-0.066086642 0.69800001 -0.02202888 1.0857106e-38 266 258
-0.06486281 0.69800001 -0.02202888 1.0949302e-38 267 258
-0.06354782 0.69700003 -0.02199732 1.0490482e-38 268 258
-0.062325738 0.69700003 -0.02199732 1.0490482e-38 269 258
-0.061015997 0.69599998 -0.021965759 1.0306456e-38 270 258
-0.059795678 0.69599998 -0.021965759 1.0214261e-38 271 258
-0.058407038 0.69400001 -0.021902639 1.0123144e-38 272 258
-0.057107817 0.69300002 -0.021871079 9.9383941e-39 273 258
-0.055892758 0.69300002 -0.021871079 9.1111599e-39 274 258
-0.054677699 0.69300002 -0.021871079 8.7420187e-39 275 258
-0.053308345 0.69099998 -0.021807959 1.0781876e-38 276 258
-0.052096792 0.69099998 -0.021807959 1.3916168e-38 277 258
-0.050885238 0.69099998 -0.021807959 1.0979251e-38 278 258
-0.049601797 0.69 -0.021776399 1.0979251e-38 279 258
-0.048391998 0.69 -0.021776399 1.0887421e-38 280 258
-0.047045439 0.68800002 -0.021713281 1.0795225e-38 281 258
-0.045839146 0.68800002 -0.021713281 1.0886702e-38 282 258
-0.044632856 0.68800002 -0.021713281 1.0978897e-38 283 258
-0.043363437 0.68699998 -0.021681719 1.0886702e-38 284 258
-0.042158898 0.68699998 -0.021681719 1.1163287e-38 285 258
-0.040954359 0.68699998 -0.021681719 1.0976354e-38 286 258
-0.039749816 0.68699998 -0.021681719 5.1680294e-39 287 258
-0.038545277 0.68699998 -0.021681719 8.652735e-39 288 258
-0.037340738 0.68699998 -0.021681719 9.3903e-39 289 258
-0.036083598 0.68599999 -0.021650158 9.2069849e-39 290 258
-0.034880809 0.68599999 -0.021650158 9.3913748e-39 291 258
-0.033678025 0.68599999 -0.021650158 9.4839235e-39 292 258
-0.032475237 0.68599999 -0.021650158 9.5761206e-39 293 258
-0.03118128 0.68400002 -0.02158704 9.2084101e-39 294 258
-0.029982001 0.68400002 -0.02158704 9.0240188e-39 295 258
-0.02886688 0.68599999 -0.021650158 9.2984421e-39 296 258
-0.027664091 0.68599999 -0.021650158 9.1140494e-39 297 258
-0.026461305 0.68599999 -0.021650158 9.2062422e-39 298 258
-0.025258519 0.68599999 -0.021650158 9.3906349e-39 299 258
-0.024055731 0.68599999 -0.021650158 9.1158487e-39 300 258
-0.022852944 0.68599999 -0.021650158 9.0232943e-39 301 258
-0.021650158 0.68599999 -0.021650158 9.0211321e-39 302 258
-0.020447372 0.68599999 -0.021650158 8.8363821e-39 303 258
-0.019272638 0.68699998 -0.021681719 8.7438194e-39 304 258
-0.018068098 0.68699998 -0.021681719 8.6516237e-39 305 258
-0.01686356 0.68699998 -0.021681719 8.8349332e-39 306 258
-0.015659019 0.68699998 -0.021681719 8.8349332e-39 307 258
-0.014454478 0.68699998 -0.021681719 8.8349332e-39 308 258
-0.013249939 0.68699998 -0.021681719 8.8349332e-39 309 258
-0.012045399 0.68699998 -0.021681719 8.8352863e-39 310 258
-0.010856641 0.68800002 -0.021713281 8.9274819e-39 311 258
-0.0096503468 0.68800002 -0.021713281 8.9274819e-39 312 258
-0.0084440531 0.68800002 -0.021713281 8.8352863e-39 313 258
-0.0072377604 0.68800002 -0.021713281 8.8352891e-39 314 258
-0.0060314666 0.68800002 -0.021713281 8.8352891e-39 315 258
-0.0048251734 0.68800002 -0.021713281 8.651258e-39 316 258
-0.0036188802 0.68800002 -0.021713281 8.5590624e-39 317 258
-0.0024195998 0.69 -0.021776399 8.7423718e-39 318 258
-0.0012097999 0.69 -0.021776399 8.6501762e-39 319 258
0 0.69 -0.021776399 8.6501762e-39 320 258
0.0012097999 0.69 -0.021776399 8.6501762e-39 321 258
0.0024231065 0.69099998 -0.021807959 8.649809e-39 322 258
0.0036346598 0.69099998 -0.021807959 8.5576134e-39 323 258
0.0048462129 0.69099998 -0.021807959 8.5568917e-39 324 258
0.0060753003 0.69300002 -0.021871079 8.4646961e-39 325 258
0.0072903596 0.69300002 -0.021871079 8.6480084e-39 326 258
0.0085054198 0.69300002 -0.021871079 8.6480084e-39 327 258
0.0097345067 0.69400001 -0.021902639 8.5558127e-39 328 258
0.01095132 0.69400001 -0.021902639 8.5558127e-39 329 258
0.012168133 0.69400001 -0.021902639 8.1891854e-39 330 258
0.013384946 0.69400001 -0.021902639 8.1891854e-39 331 258
0.014643839 0.69599998 -0.021965759 8.1891882e-39 332 258
0.015886955 0.69700003 -0.02199732 8.0966339e-39 333 258
0.017109027 0.69700003 -0.02199732 8.3717816e-39 334 258
0.018331099 0.69700003 -0.02199732 8.5558127e-39 335 258
0.019581227 0.69800001 -0.02202888 8.3717788e-39 336 258
0.020805053 0.69800001 -0.02202888 8.2795818e-39 337 258
0.022091998 0.69999999 -0.022091998 8.3717788e-39 338 258
0.023319334 0.69999999 -0.022091998 8.5558099e-39 339 258
0.024546666 0.69999999 -0.022091998 8.4650492e-39 340 258
0.025810819 0.70099998 -0.022123558 8.4650492e-39 341 258
0.027117053 0.70300001 -0.02218668 8.4650492e-39 342 258
0.028389972 0.704 -0.022218239 8.741276e-39 343 258
0.029708479 0.70599997 -0.022281358 8.5579637e-39 344 258
0.030946331 0.70599997 -0.022281358 8.5579637e-39 345 258
0.032229774 0.70700002 -0.022312919 8.6501594e-39 346 258
0.033469379 0.70700002 -0.022312919 8.6501594e-39 347 258
0.034758076 0.708 -0.022344479 8.6508782e-39 348 258
0.036101133 0.70999998 -0.022407599 8.7430753e-39 349 258
0.037398599 0.71100003 -0.022439159 8.6526775e-39 350 258
0.038753927 0.713 -0.022502279 8.6526775e-39 351 258
0.040172372 0.71600002 -0.022596961 9.0203838e-39 352 258
0.041427758 0.71600002 -0.022596961 8.9281882e-39 353 258
0.042742759 0.71700001 -0.02262852 9.1133249e-39 354 258
0.043999899 0.71700001 -0.02262852 1.1418216e-38 355 258
0.045383278 0.71899998 -0.022691639 1.0600715e-38 356 258
0.046838548 0.722 -0.022786319 1.1707423e-38 357 258
0.048437584 0.727 -0.022944121 1.0789432e-38 358 258
0.049780637 0.72799999 -0.022975679 1.0881628e-38 359 258
0.051197331 0.73000002 -0.023038799 9.7741815e-39 360 258
0.052477267 0.73000002 -0.023038799 1.0972725e-38 361 258
0.053757198 0.73000002 -0.023038799 1.6408301e-38 362 258
-0.076529488 0.704 -0.023452586 1.6503018e-38 258 259
-0.075295143 0.704 -0.023452586 7.1912591e-39 259 259
-0.07406079 0.704 -0.023452586 9.7529168e-39 260 259
-0.072723009 0.70300001 -0.023419274 1.1504275e-38 261 259
-0.071490414 0.70300001 -0.023419274 1.104365e-38 262 259
-0.070057929 0.70099998 -0.023352645 1.0674866e-38 263 259
-0.068828844 0.70099998 -0.023352645 1.0213905e-38 264 259
-0.067503333 0.69999999 -0.023319334 1.0213905e-38 265 259
-0.066086642 0.69800001 -0.023252707 9.9380409e-39 266 259
-0.06486281 0.69800001 -0.023252707 1.0030595e-38 267 259
-0.06354782 0.69700003 -0.023219392 9.7550846e-39 268 259
-0.062325738 0.69700003 -0.023219392 9.7550846e-39 269 259
-0.061015997 0.69599998 -0.023186078 9.6625359e-39 270 259
-0.059623852 0.69400001 -0.023119451 9.5703402e-39 271 259
-0.058407038 0.69400001 -0.023119451 9.4792236e-39 272 259
-0.057107817 0.69300002 -0.02308614 9.3866692e-39 273 259
-0.055892758 0.69300002 -0.02308614 8.9267813e-39 274 259
-0.054677699 0.69300002 -0.02308614 8.2814119e-39 275 259
-0.053308345 0.69099998 -0.023019511 1.0503857e-38 276 259
-0.052096792 0.69099998 -0.023019511 1.400729e-38 277 259
-0.050885238 0.69099998 -0.023019511 1.1163282e-38 278 259
-0.049601797 0.69 -0.022986198 1.0979251e-38 279 259
-0.048391998 0.69 -0.022986198 1.0795225e-38 280 259
-0.047045439 0.68800002 -0.022919573 1.0795225e-38 281 259
-0.045839146 0.68800002 -0.022919573 1.0611913e-38 282 259
-0.044632856 0.68800002 -0.022919573 1.0611913e-38 283 259
-0.043363437 0.68699998 -0.022886258 1.0795581e-38 284 259
-0.042158898 0.68699998 -0.022886258 1.1164363e-38 285 259
-0.040954359 0.68699998 -0.022886258 1.1254016e-38 286 259
-0.039749816 0.68699998 -0.022886258 5.7226381e-39 287 259
-0.038545277 0.68699998 -0.022886258 8.4676234e-39 288 259
-0.037340738 0.68699998 -0.022886258 9.2973855e-39 289 259
-0.036083598 0.68599999 -0.022852944 9.1147949e-39 290 259
-0.034880809 0.68599999 -0.022852944 9.2069905e-39 291 259
-0.033678025 0.68599999 -0.022852944 9.0243943e-39 292 259
-0.032475237 0.68599999 -0.022852944 9.11659e-39 293 259
-0.031272452 0.68599999 -0.022852944 9.2084129e-39 294 259
-0.030069664 0.68599999 -0.022852944 9.0236629e-39 295 259
-0.02886688 0.68599999 -0.022852944 9.2984421e-39 296 259
-0.027664091 0.68599999 -0.022852944 9.2984421e-39 297 259
-0.026461305 0.68599999 -0.022852944 9.1158487e-39 298 259
-0.025258519 0.68599999 -0.022852944 9.2080443e-39 299 259
-0.024055731 0.68599999 -0.022852944 9.1158459e-39 300 259
-0.022852944 0.68599999 -0.022852944 8.9314532e-39 301 259
-0.021650158 0.68599999 -0.022852944 9.0211293e-39 302 259
-0.020447372 0.68599999 -0.022852944 8.8367381e-39 303 259
-0.019272638 0.68699998 -0.022886258 8.7438166e-39 304 259
-0.018068098 0.68699998 -0.022886258 8.6516209e-39 305 259
-0.01686356 0.68699998 -0.022886258 8.8345702e-39 306 259
-0.015659019 0.68699998 -0.022886258 8.9267659e-39 307 259
-0.014454478 0.68699998 -0.022886258 8.6509021e-39 308 259
-0.013249939 0.68699998 -0.022886258 8.6509021e-39 309 259
-0.012062933 0.68800002 -0.022919573 8.8352863e-39 310 259
-0.010856641 0.68800002 -0.022919573 8.8352863e-39 311 259
-0.0096503468 0.68800002 -0.022919573 8.9267631e-39 312 259
-0.0084440531 0.68800002 -0.022919573 8.8345674e-39 313 259
-0.0072377604 0.68800002 -0.022919573 8.9267631e-39 314 259
-0.0060314666 0.68800002 -0.022919573 8.9267631e-39 315 259
-0.0048251734 0.68800002 -0.022919573 8.5597756e-39 316 259
-0.0036188802 0.68800002 -0.022919573 8.46758e-39 317 259
-0.0024195998 0.69 -0.022986198 8.7423718e-39 318 259
-0.0012097999 0.69 -0.022986198 8.6501762e-39 319 259
0 0.69 -0.022986198 8.4668639e-39 320 259
0.0012097999 0.69 -0.022986198 8.4668639e-39 321 259
0.0024231065 0.69099998 -0.023019511 8.4661409e-39 322 259
0.0036346598 0.69099998 -0.023019511 8.3739452e-39 323 259
0.0048462129 0.69099998 -0.023019511 8.5568945e-39 324 259
0.0060753003 0.69300002 -0.02308614 8.4643402e-39 325 259
0.0072903596 0.69300002 -0.02308614 8.6480056e-39 326 259
0.0085054198 0.69300002 -0.02308614 8.5558099e-39 327 259
0.0097345067 0.69400001 -0.023119451 8.3724977e-39 328 259
0.01095132 0.69400001 -0.023119451 8.3724977e-39 329 259
0.012168133 0.69400001 -0.023119451 8.1891882e-39 330 259
0.013384946 0.69400001 -0.023119451 8.1891882e-39 331 259
0.014643839 0.69599998 -0.023186078 8.2799489e-39 332 259
0.015886955 0.69700003 -0.023219392 8.2799489e-39 333 259
0.017109027 0.69700003 -0.023219392 8.2803049e-39 334 259
0.0183574 0.69800001 -0.023252707 8.2803049e-39 335 259
0.019581227 0.69800001 -0.023252707 8.2802978e-39 336 259
0.020805053 0.69800001 -0.023252707 8.3724949e-39 337 259
0.022091998 0.69999999 -0.023319334 8.1891826e-39 338 259
0.023319334 0.69999999 -0.023319334 8.4657681e-39 339 259
0.024581732 0.70099998 -0.023352645 8.2820971e-39 340 259
0.025884461 0.70300001 -0.023419274 8.2820971e-39 341 259
0.027117053 0.70300001 -0.023419274 8.3742955e-39 342 259
0.028389972 0.704 -0.023452586 8.4664912e-39 343 259
0.029708479 0.70599997 -0.023519212 8.6501622e-39 344 259
0.030990168 0.70700002 -0.023552528 8.6501622e-39 345 259
0.032229774 0.70700002 -0.023552528 8.6508782e-39 346 259
0.033516716 0.708 -0.023585839 8.6508782e-39 347 259
0.034856264 0.70999998 -0.023652466 8.7430753e-39 348 259
0.036151983 0.71100003 -0.023685781 8.8352709e-39 349 259
0.037503798 0.713 -0.023752406 8.6526775e-39 350 259
0.038808275 0.71399999 -0.02378572 8.7448731e-39 351 259
0.040172372 0.71600002 -0.023852346 9.0203866e-39 352 259
0.041485619 0.71700001 -0.02388566 8.928191e-39 353 259
0.042742759 0.71700001 -0.02388566 9.1133277e-39 354 259
0.044122629 0.71899998 -0.023952285 1.160261e-38 355 259
0.045446403 0.72000003 -0.0239856 1.0600715e-38 356 259
0.046903417 0.72299999 -0.024085538 1.152303e-38 357 259
0.048437584 0.727 -0.024218792 1.0881625e-38 358 259
0.0499174 0.73000002 -0.024318734 1.0881625e-38 359 259
0.051197331 0.73000002 -0.024318734 1.0693261e-38 360 259
0.052477267 0.73000002 -0.024318734 1.2721924e-38 361 259
-0.075295143 0.704 -0.024686933 6.8239157e-39 259 260
-0.07406079 0.704 -0.024686933 1.0214984e-38 260 260
-0.072723009 0.70300001 -0.024651866 1.1229136e-38 261 260
-0.071490414 0.70300001 -0.024651866 1.0583751e-38 262 260
-0.070057929 0.70099998 -0.024581732 1.0214608e-38 263 260
-0.068828844 0.70099998 -0.024581732 9.9383815e-39 264 260
-0.067503333 0.69999999 -0.024546666 9.9383815e-39 265 260
-0.066086642 0.69800001 -0.024476532 9.6632337e-39 266 260
-0.06486281 0.69800001 -0.024476532 9.478841e-39 267 260
-0.06354782 0.69700003 -0.024441468 9.7536329e-39 268 260
-0.062325738 0.69700003 -0.024441468 9.7536329e-39 269 260
-0.061015997 0.69599998 -0.0244064 9.3862951e-39 270 260
-0.059623852 0.69400001 -0.024336265 9.4784907e-39 271 260
-0.058322877 0.69300002 -0.024301201 9.1115103e-39 272 260
-0.057107817 0.69300002 -0.024301201 9.1115103e-39 273 260
-0.055892758 0.69300002 -0.024301201 9.2022766e-39 274 260
-0.054677699 0.69300002 -0.024301201 8.5569072e-39 275 260
-0.053308345 0.69099998 -0.024231065 9.9499576e-39 276 260
-0.052096792 0.69099998 -0.024231065 1.3822174e-38 277 260
-0.050885238 0.69099998 -0.024231065 1.1072168e-38 278 260
-0.049601797 0.69 -0.024195999 1.0795581e-38 279 260
-0.048391998 0.69 -0.024195999 1.0704108e-38 280 260
-0.047045439 0.68800002 -0.024125867 1.0611913e-38 281 260
-0.045839146 0.68800002 -0.024125867 1.061191e-38 282 260
-0.044632856 0.68800002 -0.024125867 1.061191e-38 283 260
-0.043363437 0.68699998 -0.024090799 1.061119e-38 284 260
-0.042158898 0.68699998 -0.024090799 1.1164363e-38 285 260
-0.040954359 0.68699998 -0.024090799 1.1438414e-38 286 260
-0.039749816 0.68699998 -0.024090799 7.0130238e-39 287 260
-0.038545277 0.68699998 -0.024090799 8.6527223e-39 288 260
-0.037340738 0.68699998 -0.024090799 9.0211447e-39 289 260
-0.036083598 0.68599999 -0.024055731 9.2062422e-39 290 260
-0.034880809 0.68599999 -0.024055731 9.2984393e-39 291 260
-0.033678025 0.68599999 -0.024055731 9.1154956e-39 292 260
-0.032475237 0.68599999 -0.024055731 9.2076912e-39 293 260
-0.031272452 0.68599999 -0.024055731 9.3910034e-39 294 260
-0.030069664 0.68599999 -0.024055731 9.2988078e-39 295 260
-0.02886688 0.68599999 -0.024055731 9.2980889e-39 296 260
-0.027664091 0.68599999 -0.024055731 9.3902846e-39 297 260
-0.026461305 0.68599999 -0.024055731 9.1162144e-39 298 260
-0.025258519 0.68599999 -0.024055731 9.1162144e-39 299 260
-0.024055731 0.68599999 -0.024055731 9.0232999e-39 300 260
-0.022852944 0.68599999 -0.024055731 8.9311029e-39 301 260
-0.021650158 0.68599999 -0.024055731 8.7459872e-39 302 260
-0.020447372 0.68599999 -0.024055731 8.5615959e-39 303 260
-0.019272638 0.68699998 -0.024090799 8.6526957e-39 304 260
-0.018068098 0.68699998 -0.024090799 8.4686646e-39 305 260
-0.01686356 0.68699998 -0.024090799 8.6512552e-39 306 260
-0.015659019 0.68699998 -0.024090799 8.6512552e-39 307 260
-0.014454478 0.68699998 -0.024090799 8.6512524e-39 308 260
-0.013249939 0.68699998 -0.024090799 8.6512524e-39 309 260
-0.012062933 0.68800002 -0.024125867 8.8356394e-39 310 260
-0.010856641 0.68800002 -0.024125867 8.8356394e-39 311 260
-0.0096503468 0.68800002 -0.024125867 8.8349206e-39 312 260
-0.0084440531 0.68800002 -0.024125867 8.8349206e-39 313 260
-0.0072377604 0.68800002 -0.024125867 8.8342045e-39 314 260
-0.0060314666 0.68800002 -0.024125867 8.8342045e-39 315 260
-0.0048391996 0.69 -0.024195999 8.5590568e-39 316 260
-0.0036293997 0.69 -0.024195999 8.4668611e-39 317 260
-0.0024195998 0.69 -0.024195999 8.4668639e-39 318 260
-0.0012097999 0.69 -0.024195999 8.4668639e-39 319 260
0 0.69 -0.024195999 8.6501734e-39 320 260
0.0012097999 0.69 -0.024195999 8.4661409e-39 321 260
0.0024231065 0.69099998 -0.024231065 8.3739424e-39 322 260
0.0036346598 0.69099998 -0.024231065 8.3739424e-39 323 260
0.0048462129 0.69099998 -0.024231065 8.5568945e-39 324 260
0.0060753003 0.69300002 -0.024301201 8.4643402e-39 325 260
0.0072903596 0.69300002 -0.024301201 8.3725005e-39 326 260
0.0085054198 0.69300002 -0.024301201 8.3725005e-39 327 260
0.0097345067 0.69400001 -0.024336265 8.1891854e-39 328 260
0.01095132 0.69400001 -0.024336265 8.1891854e-39 329 260
0.012168133 0.69400001 -0.024336265 8.0969856e-39 330 260
0.013384946 0.69400001 -0.024336265 8.0969856e-39 331 260
0.014643839 0.69599998 -0.0244064 8.0969856e-39 332 260
0.015886955 0.69700003 -0.024441468 8.0969856e-39 333 260
0.017133573 0.69800001 -0.024476532 8.2802978e-39 334 260
0.0183574 0.69800001 -0.024476532 8.2802978e-39 335 260
0.019581227 0.69800001 -0.024476532 8.2806538e-39 336 260
0.020864666 0.69999999 -0.024546666 8.3728508e-39 337 260
0.022091998 0.69999999 -0.024546666 8.1902574e-39 338 260
0.023319334 0.69999999 -0.024546666 8.282453e-39 339 260
0.024581732 0.70099998 -0.024581732 8.282816e-39 340 260
0.025884461 0.70300001 -0.024651866 8.282816e-39 341 260
0.027155625 0.704 -0.024686933 8.3750144e-39 342 260
0.028389972 0.704 -0.024686933 8.46721e-39 343 260
0.029708479 0.70599997 -0.024757065 8.650881e-39 344 260
0.030990168 0.70700002 -0.024792133 8.650881e-39 345 260
