# .PCD v.7 - Point Cloud Data file format
FIELDS x y z rgb imX imY
SIZE 4 4 4 4 4 4
TYPE F F F F F F
COUNT 1 1 1 1 1 1
WIDTH 843
HEIGHT 1
VIEWPOINT 0 0 0 1 0 0 0
POINTS 843
DATA ascii
-0.033050332 0.72500002 -0.016525166 1.760794e-38 294 253
-0.031779166 0.72500002 -0.016525166 1.7515745e-38 295 253
-0.030423839 0.72299999 -0.01647958 1.7791255e-38 296 253
-0.029156178 0.72299999 -0.01647958 1.7883451e-38 297 253
-0.027849946 0.722 -0.016456785 1.6780699e-38 298 253
-0.026510401 0.72000003 -0.0164112 1.6411918e-38 299 253
-0.025212931 0.71899998 -0.016388407 1.7513582e-38 300 253
-0.02388566 0.71700001 -0.016342819 1.7236635e-38 301 253
-0.02262852 0.71700001 -0.016342819 1.7236635e-38 302 253
-0.021371379 0.71700001 -0.016342819 1.7236635e-38 303 253
-0.020170346 0.71899998 -0.016388407 1.714444e-38 304 253
-0.018909698 0.71899998 -0.016388407 1.714444e-38 305 253
-0.017599959 0.71700001 -0.016342819 1.7694744e-38 306 253
-0.016342819 0.71700001 -0.016342819 1.7786939e-38 307 253
-0.01506464 0.71600002 -0.016320027 1.6684913e-38 308 253
-0.013809253 0.71600002 -0.016320027 1.7330283e-38 309 253
-0.012553867 0.71600002 -0.016320027 1.8341914e-38 310 253
-0.011266919 0.71399999 -0.016274439 1.778874e-38 311 253
-0.01001504 0.71399999 -0.016274439 1.8062084e-38 312 253
-0.0087508867 0.713 -0.016251646 1.7601106e-38 313 253
-0.0074797203 0.71100003 -0.01620606 1.5862337e-38 314 253
-0.0062330998 0.71100003 -0.01620606 1.6692098e-38 315 253
-0.0049864799 0.71100003 -0.01620606 1.7700857e-38 316 253
-0.0037398601 0.71100003 -0.01620606 1.7147684e-38 317 253
-0.0024932399 0.71100003 -0.01620606 1.6228241e-38 318 253
-0.00124662 0.71100003 -0.01620606 1.5859819e-38 319 253
0 0.71100003 -0.01620606 1.5768342e-38 320 253
0.00125188 0.71399999 -0.016274439 1.5583952e-38 321 253
0.0025037599 0.71399999 -0.016274439 1.5583955e-38 322 253
0.00376616 0.71600002 -0.016320027 1.5767986e-38 323 253
0.0050215465 0.71600002 -0.016320027 1.5675075e-38 324 253
0.0062769335 0.71600002 -0.016320027 1.5675075e-38 325 253
0.0075428397 0.71700001 -0.016342819 1.5491762e-38 326 253
0.0087999795 0.71700001 -0.016342819 1.5399208e-38 327 253
0.01005712 0.71700001 -0.016342819 1.5765821e-38 328 253
0.01131426 0.71700001 -0.016342819 1.5304845e-38 329 253
0.012606465 0.71899998 -0.016388407 1.5393074e-38 330 253
0.013867113 0.71899998 -0.016388407 1.5116486e-38 331 253
0.0151488 0.72000003 -0.0164112 1.4940021e-38 332 253
0.0164112 0.72000003 -0.0164112 1.6046728e-38 333 253
-0.035445385 0.722 -0.017722692 1.7333867e-38 292 254
-0.034179479 0.722 -0.017722692 1.705764e-38 293 254
-0.032959159 0.72299999 -0.017747238 1.6413003e-38 294 254
-0.031691495 0.72299999 -0.017747238 1.6782145e-38 295 254
-0.030381758 0.722 -0.017722692 1.7795224e-38 296 254
-0.029115854 0.722 -0.017722692 1.8163648e-38 297 254
-0.027772799 0.72000003 -0.017673599 1.7610827e-38 298 254
-0.026510401 0.72000003 -0.017673599 1.7518631e-38 299 254
-0.025212931 0.71899998 -0.017649053 1.7793772e-38 300 254
-0.02388566 0.71700001 -0.017599959 1.7333154e-38 301 254
-0.02262852 0.71700001 -0.017599959 1.72388e-38 302 254
-0.021371379 0.71700001 -0.017599959 1.6870378e-38 303 254
-0.020114239 0.71700001 -0.017599959 1.7327036e-38 304 254
-0.018857099 0.71700001 -0.017599959 1.7511427e-38 305 254
-0.017575413 0.71600002 -0.017575413 1.7328835e-38 306 254
-0.016320027 0.71600002 -0.017575413 1.7144084e-38 307 254
-0.01506464 0.71600002 -0.017575413 1.6868579e-38 308 254
-0.01377068 0.71399999 -0.017526319 1.7421752e-38 309 254
-0.012518799 0.71399999 -0.017526319 1.7513948e-38 310 254
-0.011266919 0.71399999 -0.017526319 1.6960774e-38 311 254
-0.010001013 0.713 -0.017501773 1.7143365e-38 312 254
-0.0087508867 0.713 -0.017501773 1.5668235e-38 313 254
-0.0074797203 0.71100003 -0.01745268 1.4108472e-38 314 254
-0.0062330998 0.71100003 -0.01745268 1.5583602e-38 315 254
-0.0049864799 0.71100003 -0.01745268 1.6044227e-38 316 254
-0.0037345996 0.70999998 -0.017428132 1.5583608e-38 317 254
-0.0024897333 0.70999998 -0.017428132 1.4940751e-38 318 254
-0.00124662 0.71100003 -0.01745268 1.4848554e-38 319 254
0 0.70999998 -0.017428132 1.5399927e-38 320 254
0.0012448666 0.70999998 -0.017428132 1.5215896e-38 321 254
0.0025002533 0.713 -0.017501773 1.5215898e-38 322 254
0.0037556398 0.71399999 -0.017526319 1.5215898e-38 323 254
0.0050075199 0.71399999 -0.017526319 1.5215543e-38 324 254
0.0062769335 0.71600002 -0.017575413 1.5215543e-38 325 254
0.00753232 0.71600002 -0.017575413 1.5123701e-38 326 254
0.0087999795 0.71700001 -0.017599959 1.5123701e-38 327 254
0.01005712 0.71700001 -0.017599959 1.5674353e-38 328 254
0.01131426 0.71700001 -0.017599959 1.5674353e-38 329 254
0.012606465 0.71899998 -0.017649053 1.5394878e-38 330 254
0.013867113 0.71899998 -0.017649053 1.3919389e-38 331 254
0.01512776 0.71899998 -0.017649053 1.355313e-38 332 254
0.016388407 0.71899998 -0.017649053 1.50279e-38 333 254
0.017599959 0.71700001 -0.017599959 1.6689947e-38 334 254
-0.035445385 0.722 -0.0189886 1.5952015e-38 292 255
-0.034179479 0.722 -0.0189886 1.5767623e-38 293 255
-0.032913569 0.722 -0.0189886 1.6046378e-38 294 255
-0.031647664 0.722 -0.0189886 1.6322605e-38 295 255
-0.030381758 0.722 -0.0189886 1.7059457e-38 296 255
-0.029035201 0.72000003 -0.018935999 1.7704826e-38 297 255
-0.027772799 0.72000003 -0.018935999 1.7797739e-38 298 255
-0.02647358 0.71899998 -0.018909698 1.7982489e-38 299 255
-0.0251428 0.71700001 -0.018857099 1.807612e-38 300 255
-0.023852346 0.71600002 -0.0188308 1.8721489e-38 301 255
-0.022596961 0.71600002 -0.0188308 1.9729527e-38 302 255
-0.021341572 0.71600002 -0.0188308 1.9084158e-38 303 255
-0.020086186 0.71600002 -0.0188308 1.8987633e-38 304 255
-0.0188308 0.71600002 -0.0188308 1.843446e-38 305 255
-0.017575413 0.71600002 -0.0188308 1.7421381e-38 306 255
-0.016320027 0.71600002 -0.0188308 1.7236988e-38 307 255
-0.015022559 0.71399999 -0.018778199 1.7146239e-38 308 255
-0.01377068 0.71399999 -0.018778199 1.7422826e-38 309 255
-0.012501267 0.713 -0.018751899 1.7146239e-38 310 255
-0.011251139 0.713 -0.018751899 1.650087e-38 311 255
-0.0099729598 0.71100003 -0.0186993 1.5765468e-38 312 255
-0.0087263398 0.71100003 -0.0186993 1.4106307e-38 313 255
-0.0074797203 0.71100003 -0.0186993 1.3831531e-38 314 255
-0.0062243328 0.70999998 -0.018672999 1.3647499e-38 315 255
-0.0049794666 0.70999998 -0.018672999 1.3558188e-38 316 255
-0.0037345996 0.70999998 -0.018672999 1.392697e-38 317 255
-0.0024897333 0.70999998 -0.018672999 1.4203554e-38 318 255
-0.0012448666 0.70999998 -0.018672999 1.44805e-38 319 255
0 0.70999998 -0.018672999 1.5214462e-38 320 255
0.0012448666 0.70999998 -0.018672999 1.5122267e-38 321 255
0.0024932399 0.71100003 -0.0186993 1.5122264e-38 322 255
0.0037503797 0.713 -0.018751899 1.5122264e-38 323 255
0.0050075199 0.71399999 -0.018778199 1.4938951e-38 324 255
0.0062593995 0.71399999 -0.018778199 1.5031147e-38 325 255
0.00753232 0.71600002 -0.0188308 1.503115e-38 326 255
0.0087877065 0.71600002 -0.0188308 1.503115e-38 327 255
0.010043093 0.71600002 -0.0188308 1.4938954e-38 328 255
0.01129848 0.71600002 -0.0188308 1.4846759e-38 329 255
0.0125714 0.71700001 -0.018857099 1.5487806e-38 330 255
0.013828539 0.71700001 -0.018857099 1.5303775e-38 331 255
0.015085679 0.71700001 -0.018857099 1.438002e-38 332 255
0.016342819 0.71700001 -0.018857099 1.4011237e-38 333 255
0.017599959 0.71700001 -0.018857099 1.4755642e-38 334 255
0.018857099 0.71700001 -0.018857099 1.6322608e-38 335 255
-0.035445385 0.722 -0.020254506 1.5400283e-38 292 256
-0.034179479 0.722 -0.020254506 1.5400283e-38 293 256
-0.032913569 0.722 -0.020254506 1.6045296e-38 294 256
-0.03156 0.72000003 -0.020198401 1.6137492e-38 295 256
-0.0302976 0.72000003 -0.020198401 1.6414805e-38 296 256
-0.029035201 0.72000003 -0.020198401 1.6599196e-38 297 256
-0.027734226 0.71899998 -0.020170346 1.6874707e-38 298 256
-0.02639994 0.71700001 -0.020114239 1.6782511e-38 299 256
-0.0251428 0.71700001 -0.020114239 1.6969779e-38 300 256
-0.023852346 0.71600002 -0.020086186 1.9090279e-38 301 256
-0.022596961 0.71600002 -0.020086186 2.101955e-38 302 256
-0.021281958 0.71399999 -0.020030079 2.0466376e-38 303 256
-0.020030079 0.71399999 -0.020030079 2.0280534e-38 304 256
-0.018778199 0.71399999 -0.020030079 1.9266741e-38 305 256
-0.017526319 0.71399999 -0.020030079 1.6962924e-38 306 256
-0.016274439 0.71399999 -0.020030079 1.6686336e-38 307 256
-0.015001519 0.713 -0.020002026 1.7146961e-38 308 256
-0.013751393 0.713 -0.020002026 1.6778178e-38 309 256
-0.012501267 0.713 -0.020002026 1.5856222e-38 310 256
-0.01121958 0.71100003 -0.01994592 1.5303048e-38 311 256
-0.0099729598 0.71100003 -0.01994592 1.4937154e-38 312 256
-0.0087140659 0.70999998 -0.019917866 1.4476534e-38 313 256
-0.0074691991 0.70999998 -0.019917866 1.3742579e-38 314 256
-0.0062243328 0.70999998 -0.019917866 1.3650383e-38 315 256
-0.0049794666 0.70999998 -0.019917866 1.3284487e-38 316 256
-0.0037345996 0.70999998 -0.019917866 1.3561434e-38 317 256
-0.0024897333 0.70999998 -0.019917866 1.4112087e-38 318 256
-0.0012448666 0.70999998 -0.019917866 1.4204283e-38 319 256
0 0.70999998 -0.019917866 1.4663093e-38 320 256
0.0012448666 0.70999998 -0.019917866 1.4663093e-38 321 256
0.0024932399 0.71100003 -0.01994592 1.466309e-38 322 256
0.0037398601 0.71100003 -0.01994592 1.466309e-38 323 256
0.0050005065 0.713 -0.020002026 1.466309e-38 324 256
0.0062506334 0.713 -0.020002026 1.4570895e-38 325 256
0.0075112795 0.71399999 -0.020030079 1.466309e-38 326 256
0.0087631596 0.71399999 -0.020030079 1.466309e-38 327 256
0.01001504 0.71399999 -0.020030079 1.4663446e-38 328 256
0.01129848 0.71600002 -0.020086186 1.4570892e-38 329 256
0.012553867 0.71600002 -0.020086186 1.530486e-38 330 256
0.013809253 0.71600002 -0.020086186 1.548961e-38 331 256
0.01506464 0.71600002 -0.020086186 1.4747726e-38 332 256
0.016320027 0.71600002 -0.020086186 1.3918326e-38 333 256
0.017599959 0.71700001 -0.020114239 1.3187237e-38 334 256
0.018857099 0.71700001 -0.020114239 1.4754563e-38 335 256
-0.03671129 0.722 -0.021520413 1.6872892e-38 291 257
-0.035445385 0.722 -0.021520413 1.5216615e-38 292 257
-0.034179479 0.722 -0.021520413 1.5401006e-38 293 257
-0.032913569 0.722 -0.021520413 1.5769435e-38 294 257
-0.03156 0.72000003 -0.021460801 1.5861631e-38 295 257
-0.0302976 0.72000003 -0.021460801 1.5770883e-38 296 257
-0.029035201 0.72000003 -0.021460801 1.5863078e-38 297 257
-0.027734226 0.71899998 -0.021430992 1.5863078e-38 298 257
-0.02639994 0.71700001 -0.021371379 1.5586491e-38 299 257
-0.025107734 0.71600002 -0.021341572 1.5588289e-38 300 257
-0.023852346 0.71600002 -0.021341572 1.7985376e-38 301 257
-0.022533838 0.71399999 -0.021281958 2.0284153e-38 302 257
-0.021281958 0.71399999 -0.021281958 2.0191957e-38 303 257
-0.020030079 0.71399999 -0.021281958 2.0744042e-38 304 257
-0.018778199 0.71399999 -0.021281958 1.9913923e-38 305 257
-0.017526319 0.71399999 -0.021281958 1.6687794e-38 306 257
-0.016251646 0.713 -0.021252153 1.5950229e-38 307 257
-0.015001519 0.713 -0.021252153 1.7055135e-38 308 257
-0.01371282 0.71100003 -0.021192541 1.631757e-38 309 257
-0.0124662 0.71100003 -0.021192541 1.5026112e-38 310 257
-0.01121958 0.71100003 -0.021192541 1.4841721e-38 311 257
-0.0099589331 0.70999998 -0.021162732 1.4936803e-38 312 257
-0.0087140659 0.70999998 -0.021162732 1.4844606e-38 313 257
-0.0074691991 0.70999998 -0.021162732 1.4204286e-38 314 257
-0.0062243328 0.70999998 -0.021162732 1.4111731e-38 315 257
-0.0049794666 0.70999998 -0.021162732 1.4020255e-38 316 257
-0.0037345996 0.70999998 -0.021162732 1.411245e-38 317 257
-0.0024897333 0.70999998 -0.021162732 1.4204636e-38 318 257
-0.0012448666 0.70999998 -0.021162732 1.4204636e-38 319 257
0 0.70999998 -0.021162732 1.4387227e-38 320 257
0.0012448666 0.70999998 -0.021162732 1.4387227e-38 321 257
0.0024897333 0.70999998 -0.021162732 1.4387227e-38 322 257
0.0037398601 0.71100003 -0.021192541 1.4387227e-38 323 257
0.0049864799 0.71100003 -0.021192541 1.4295031e-38 324 257
0.0062506334 0.713 -0.021252153 1.4202834e-38 325 257
0.0075007593 0.713 -0.021252153 1.4203551e-38 326 257
0.0087631596 0.71399999 -0.021281958 1.4296106e-38 327 257
0.01001504 0.71399999 -0.021281958 1.4387583e-38 328 257
0.011266919 0.71399999 -0.021281958 1.4202831e-38 329 257
0.012553867 0.71600002 -0.021341572 1.4385778e-38 330 257
0.013809253 0.71600002 -0.021341572 1.392516e-38 331 257
0.01506464 0.71600002 -0.021341572 1.4839919e-38 332 257
0.016320027 0.71600002 -0.021341572 1.5024669e-38 333 257
0.017575413 0.71600002 -0.021341572 1.3001048e-38 334 257
0.0188308 0.71600002 -0.021341572 1.3369831e-38 335 257
0.020086186 0.71600002 -0.021341572 1.6320088e-38 336 257
-0.038029801 0.72299999 -0.02281788 1.7426066e-38 290 258
-0.03671129 0.722 -0.022786319 1.6319718e-38 291 258
-0.035445385 0.722 -0.022786319 1.5216617e-38 292 258
-0.034179479 0.722 -0.022786319 1.5308813e-38 293 258
-0.0328224 0.72000003 -0.022723202 1.5401011e-38 294 258
-0.03156 0.72000003 -0.022723202 1.5585043e-38 295 258
-0.0302976 0.72000003 -0.022723202 1.5403176e-38 296 258
-0.028994869 0.71899998 -0.022691639 1.5679403e-38 297 258
-0.027657079 0.71700001 -0.02262852 1.5863434e-38 298 258
-0.026363119 0.71600002 -0.022596961 1.5863434e-38 299 258
-0.025107734 0.71600002 -0.022596961 1.5495019e-38 300 258
-0.02378572 0.71399999 -0.022533838 1.58638e-38 301 258
-0.022533838 0.71399999 -0.022533838 1.660353e-38 302 258
-0.021281958 0.71399999 -0.022533838 1.7709878e-38 303 258
-0.020002026 0.713 -0.022502279 1.9641304e-38 304 258
-0.018751899 0.713 -0.022502279 1.9180326e-38 305 258
-0.017501773 0.713 -0.022502279 1.7332448e-38 306 258
-0.016251646 0.713 -0.022502279 1.6502687e-38 307 258
-0.014959441 0.71100003 -0.022439159 1.6319372e-38 308 258
-0.013693533 0.70999998 -0.022407599 1.6042425e-38 309 258
-0.012448666 0.70999998 -0.022407599 1.5487809e-38 310 258
-0.011203799 0.70999998 -0.022407599 1.5487809e-38 311 258
-0.0099308798 0.708 -0.022344479 1.5029355e-38 312 258
-0.008689519 0.708 -0.022344479 1.4660572e-38 313 258
-0.0074691991 0.70999998 -0.022407599 1.4570191e-38 314 258
-0.0062243328 0.70999998 -0.022407599 1.4570191e-38 315 258
-0.0049654399 0.708 -0.022344479 1.4204286e-38 316 258
-0.00372408 0.708 -0.022344479 1.4388317e-38 317 258
-0.00248272 0.708 -0.022344479 1.4112803e-38 318 258
-0.00124136 0.708 -0.022344479 1.4020608e-38 319 258
0 0.708 -0.022344479 1.4295753e-38 320 258
0.0012448666 0.70999998 -0.022407599 1.4203557e-38 321 258
0.0024897333 0.70999998 -0.022407599 1.4111357e-38 322 258
0.0037345996 0.70999998 -0.022407599 1.4111357e-38 323 258
0.0049794666 0.70999998 -0.022407599 1.3927326e-38 324 258
0.0062330998 0.71100003 -0.022439159 1.3927326e-38 325 258
0.0075007593 0.713 -0.022502279 1.3927323e-38 326 258
0.0087631596 0.71399999 -0.022533838 1.4111354e-38 327 258
0.01001504 0.71399999 -0.022533838 1.4202831e-38 328 258
0.011266919 0.71399999 -0.022533838 1.4110636e-38 329 258
0.012518799 0.71399999 -0.022533838 1.4108119e-38 330 258
0.013809253 0.71600002 -0.022596961 1.3923726e-38 331 258
0.01506464 0.71600002 -0.022596961 1.502755e-38 332 258
0.016320027 0.71600002 -0.022596961 1.502755e-38 333 258
0.017575413 0.71600002 -0.022596961 1.3643894e-38 334 258
0.0188308 0.71600002 -0.022596961 1.3183274e-38 335 258
0.020086186 0.71600002 -0.022596961 1.3557815e-38 336 258
0.021341572 0.71600002 -0.022596961 1.6047097e-38 337 258
-0.038029801 0.72299999 -0.024085538 1.6873614e-38 290 259
-0.036762137 0.72299999 -0.024085538 1.5582876e-38 291 259
-0.035445385 0.722 -0.024052227 1.5124066e-38 292 259
-0.034179479 0.722 -0.024052227 1.5216261e-38 293 259
-0.0328224 0.72000003 -0.0239856 1.4941122e-38 294 259
-0.03156 0.72000003 -0.0239856 1.5033318e-38 295 259
-0.0302976 0.72000003 -0.0239856 1.5034039e-38 296 259
-0.028994869 0.71899998 -0.023952285 1.5218431e-38 297 259
-0.027657079 0.71700001 -0.02388566 1.5862355e-38 298 259
-0.026363119 0.71600002 -0.023852346 1.5954551e-38 299 259
-0.025037598 0.71399999 -0.02378572 1.5862355e-38 300 259
-0.02378572 0.71399999 -0.02378572 1.5309182e-38 301 259
-0.022533838 0.71399999 -0.02378572 1.485217e-38 302 259
-0.021252153 0.713 -0.023752406 1.6142909e-38 303 259
-0.020002026 0.713 -0.023752406 1.7798839e-38 304 259
-0.0186993 0.71100003 -0.023685781 1.8352013e-38 305 259
-0.01745268 0.71100003 -0.023685781 1.7149498e-38 306 259
-0.01620606 0.71100003 -0.023685781 1.6504129e-38 307 259
-0.014938398 0.70999998 -0.023652466 1.5675075e-38 308 259
-0.013693533 0.70999998 -0.023652466 1.5582879e-38 309 259
-0.0124136 0.708 -0.023585839 1.5397411e-38 310 259
-0.01117224 0.708 -0.023585839 1.5121185e-38 311 259
-0.0099168532 0.70700002 -0.023552528 1.5211228e-38 312 259
-0.008677247 0.70700002 -0.023552528 1.5119032e-38 313 259
-0.0074481601 0.708 -0.023585839 1.5029002e-38 314 259
-0.0062067998 0.708 -0.023585839 1.5213393e-38 315 259
-0.0049654399 0.708 -0.023585839 1.4755655e-38 316 259
-0.00372408 0.708 -0.023585839 1.4755655e-38 317 259
-0.00248272 0.708 -0.023585839 1.420428e-38 318 259
-0.00124136 0.708 -0.023585839 1.4112084e-38 319 259
0 0.708 -0.023585839 1.374438e-38 320 259
0.00124136 0.708 -0.023585839 1.355963e-38 321 259
0.00248272 0.708 -0.023585839 1.3743301e-38 322 259
0.0037345996 0.70999998 -0.023652466 1.3558911e-38 323 259
0.0049794666 0.70999998 -0.023652466 1.3742579e-38 324 259
0.0062243328 0.70999998 -0.023652466 1.3742579e-38 325 259
0.0074797203 0.71100003 -0.023685781 1.3742576e-38 326 259
0.0087508867 0.713 -0.023752406 1.3742576e-38 327 259
0.010001013 0.713 -0.023752406 1.3742576e-38 328 259
0.011251139 0.713 -0.023752406 1.3742576e-38 329 259
0.012518799 0.71399999 -0.02378572 1.3925523e-38 330 259
0.01377068 0.71399999 -0.02378572 1.4018077e-38 331 259
0.01506464 0.71600002 -0.023852346 1.4661997e-38 332 259
0.016320027 0.71600002 -0.023852346 1.4201021e-38 333 259
0.017575413 0.71600002 -0.023852346 1.373608e-38 334 259
0.0188308 0.71600002 -0.023852346 1.3274741e-38 335 259
0.020086186 0.71600002 -0.023852346 1.1990123e-38 336 259
0.021371379 0.71700001 -0.02388566 1.438685e-38 337 259
0.022723202 0.72000003 -0.0239856 1.7703376e-38 338 259
-0.0379772 0.722 -0.025318133 1.6229325e-38 290 260
-0.03671129 0.722 -0.025318133 1.4754194e-38 291 260
-0.035445385 0.722 -0.025318133 1.503115e-38 292 260
-0.034084801 0.72000003 -0.025248 1.5123346e-38 293 260
-0.0328224 0.72000003 -0.025248 1.5124069e-38 294 260
-0.03156 0.72000003 -0.025248 1.5216264e-38 295 260
-0.030255521 0.71899998 -0.025212931 1.5215911e-38 296 260
-0.028914221 0.71700001 -0.0251428 1.5400661e-38 297 260
-0.027618507 0.71600002 -0.025107734 1.5309905e-38 298 260
-0.026289478 0.71399999 -0.025037598 1.5586491e-38 299 260
-0.025037598 0.71399999 -0.025037598 1.5586489e-38 300 260
-0.02378572 0.71399999 -0.025037598 1.5494293e-38 301 260
-0.022502279 0.713 -0.025002534 1.5218431e-38 302 260
-0.021192541 0.71100003 -0.024932399 1.5495019e-38 303 260
-0.019917866 0.70999998 -0.024897331 1.6230789e-38 304 260
-0.018672999 0.70999998 -0.024897331 1.6322985e-38 305 260
-0.017428132 0.70999998 -0.024897331 1.5769085e-38 306 260
-0.016183265 0.70999998 -0.024897331 1.5308107e-38 307 260
-0.01489632 0.708 -0.024827199 1.5306663e-38 308 260
-0.013654959 0.708 -0.024827199 1.5214109e-38 309 260
-0.0124136 0.708 -0.024827199 1.530451e-38 310 260
-0.011156459 0.70700002 -0.024792133 1.530451e-38 311 260
-0.0099168532 0.70700002 -0.024792133 1.5214109e-38 312 260
-0.008677247 0.70700002 -0.024792133 1.5306663e-38 313 260
-0.0074481601 0.708 -0.024827199 1.5031869e-38 314 260
-0.0062067998 0.708 -0.024827199 1.5031869e-38 315 260
-0.0049654399 0.708 -0.024827199 1.4756727e-38 316 260
-0.00372408 0.708 -0.024827199 1.44805e-38 317 260
-0.00248272 0.708 -0.024827199 1.4020608e-38 318 260
-0.00124136 0.708 -0.024827199 1.3652184e-38 319 260
0 0.708 -0.024827199 1.3743301e-38 320 260
0.00124136 0.708 -0.024827199 1.3558911e-38 321 260
0.00248272 0.708 -0.024827199 1.3650027e-38 322 260
0.00372408 0.708 -0.024827199 1.3650027e-38 323 260
0.0049794666 0.70999998 -0.024897331 1.365038e-38 324 260
0.0062243328 0.70999998 -0.024897331 1.365038e-38 325 260
0.0074797203 0.71100003 -0.024932399 1.3650736e-38 326 260
0.0087263398 0.71100003 -0.024932399 1.3742932e-38 327 260
0.0099729598 0.71100003 -0.024932399 1.3742213e-38 328 260
0.01121958 0.71100003 -0.024932399 1.3926244e-38 329 260
0.012501267 0.713 -0.025002534 1.3926244e-38 330 260
0.01377068 0.71399999 -0.025037598 1.3742213e-38 331 260
0.015022559 0.71399999 -0.025037598 1.3833327e-38 332 260
0.016320027 0.71600002 -0.025107734 1.3280153e-38 333 260
0.017575413 0.71600002 -0.025107734 1.4472213e-38 334 260
0.0188308 0.71600002 -0.025107734 1.4656604e-38 335 260
0.020114239 0.71700001 -0.0251428 1.3461656e-38 336 260
0.021371379 0.71700001 -0.0251428 1.4107026e-38 337 260
0.022723202 0.72000003 -0.025248 1.5860182e-38 338 260
0.0239856 0.72000003 -0.025248 1.7335671e-38 339 260
-0.038029801 0.72299999 -0.026620859 1.5769065e-38 290 261
-0.03671129 0.722 -0.026584039 1.4293935e-38 291 261
-0.035445385 0.722 -0.026584039 1.4571614e-38 292 261
-0.034084801 0.72000003 -0.026510401 1.4756005e-38 293 261
-0.0328224 0.72000003 -0.026510401 1.4756011e-38 294 261
-0.03156 0.72000003 -0.026510401 1.4940403e-38 295 261
-0.030255521 0.71899998 -0.02647358 1.475781e-38 296 261
-0.028914221 0.71700001 -0.02639994 1.4850005e-38 297 261
-0.027618507 0.71600002 -0.026363119 1.5126232e-38 298 261
-0.026289478 0.71399999 -0.026289478 1.5310625e-38 299 261
-0.025002534 0.713 -0.026252659 1.5585773e-38 300 261
-0.023752406 0.713 -0.026252659 1.5493576e-38 301 261
-0.022439159 0.71100003 -0.026179021 1.5309907e-38 302 261
-0.021192541 0.71100003 -0.026179021 1.5586136e-38 303 261
-0.019917866 0.70999998 -0.026142199 1.5954195e-38 304 261
-0.018672999 0.70999998 -0.026142199 1.6046391e-38 305 261
-0.017428132 0.70999998 -0.026142199 1.5860562e-38 306 261
-0.01613768 0.708 -0.026068559 1.5491778e-38 307 261
-0.01489632 0.708 -0.026068559 1.5856965e-38 308 261
-0.013654959 0.708 -0.026068559 1.5672572e-38 309 261
-0.012396066 0.70700002 -0.02603174 1.5396705e-38 310 261
-0.011156459 0.70700002 -0.02603174 1.530451e-38 311 261
-0.0099168532 0.70700002 -0.02603174 1.558217e-38 312 261
-0.008677247 0.70700002 -0.02603174 1.5305942e-38 313 261
-0.0074376399 0.70700002 -0.02603174 1.5031872e-38 314 261
-0.0061980332 0.70700002 -0.02603174 1.4939317e-38 315 261
-0.0049584266 0.70700002 -0.02603174 1.438867e-38 316 261
-0.0037188199 0.70700002 -0.02603174 1.420428e-38 317 261
-0.00248272 0.708 -0.026068559 1.4019889e-38 318 261
-0.00124136 0.708 -0.026068559 1.3927692e-38 319 261
0 0.708 -0.026068559 1.3284119e-38 320 261
0.00124136 0.708 -0.026068559 1.3191923e-38 321 261
0.00248272 0.708 -0.026068559 1.328304e-38 322 261
0.00372408 0.708 -0.026068559 1.3099007e-38 323 261
0.0049654399 0.708 -0.026068559 1.3283396e-38 324 261
0.0062243328 0.70999998 -0.026142199 1.3283396e-38 325 261
0.0074691991 0.70999998 -0.026142199 1.328304e-38 326 261
0.0087263398 0.71100003 -0.026179021 1.328304e-38 327 261
0.0099729598 0.71100003 -0.026179021 1.3374519e-38 328 261
0.01121958 0.71100003 -0.026179021 1.3374519e-38 329 261
0.012501267 0.713 -0.026252659 1.3467068e-38 330 261
0.01377068 0.71399999 -0.026289478 1.3467068e-38 331 261
0.015022559 0.71399999 -0.026289478 1.3648218e-38 332 261
0.016274439 0.71399999 -0.026289478 1.3371273e-38 333 261
0.017575413 0.71600002 -0.026363119 1.4015919e-38 334 261
0.0188308 0.71600002 -0.026363119 1.4108475e-38 335 261
0.020086186 0.71600002 -0.026363119 1.3277985e-38 336 261
0.021371379 0.71700001 -0.02639994 1.3093594e-38 337 261
0.022723202 0.72000003 -0.026510401 1.3649282e-38 338 261
0.0239856 0.72000003 -0.026510401 1.6507706e-38 339 261
0.025248 0.72000003 -0.026510401 1.8162189e-38 340 261
-0.0379772 0.722 -0.027849946 1.5584674e-38 290 262
-0.03671129 0.722 -0.027849946 1.4386131e-38 291 262
-0.035445385 0.722 -0.027849946 1.4570892e-38 292 262
-0.034084801 0.72000003 -0.027772799 1.4755642e-38 293 262
-0.0328224 0.72000003 -0.027772799 1.4663812e-38 294 262
-0.03156 0.72000003 -0.027772799 1.4848203e-38 295 262
-0.030255521 0.71899998 -0.027734226 1.4848924e-38 296 262
-0.028914221 0.71700001 -0.027657079 1.5033315e-38 297 262
-0.027618507 0.71600002 -0.027618507 1.5125869e-38 298 262
-0.026289478 0.71399999 -0.02754136 1.5310261e-38 299 262
-0.025002534 0.713 -0.027502786 1.5493573e-38 300 262
-0.023752406 0.713 -0.027502786 1.5493573e-38 301 262
-0.022439159 0.71100003 -0.027425639 1.5493576e-38 302 262
-0.021162732 0.70999998 -0.027387066 1.5585773e-38 303 262
-0.019917866 0.70999998 -0.027387066 1.5677965e-38 304 262
-0.018672999 0.70999998 -0.027387066 1.5862355e-38 305 262
-0.017379038 0.708 -0.027309919 1.6044949e-38 306 262
-0.01613768 0.708 -0.027309919 1.5583971e-38 307 262
-0.01489632 0.708 -0.027309919 1.5489254e-38 308 262
-0.013654959 0.708 -0.027309919 1.5489254e-38 309 262
-0.012396066 0.70700002 -0.027271347 1.5119751e-38 310 262
-0.011156459 0.70700002 -0.027271347 1.4381827e-38 311 262
-0.0099028256 0.70599997 -0.027232772 1.4290711e-38 312 262
-0.0086649731 0.70599997 -0.027232772 1.410632e-38 313 262
-0.0074376399 0.70700002 -0.027271347 1.3650383e-38 314 262
-0.0061980332 0.70700002 -0.027271347 1.4295753e-38 315 262
-0.0049584266 0.70700002 -0.027271347 1.4387595e-38 316 262
-0.0037188199 0.70700002 -0.027271347 1.42954e-38 317 262
-0.0024792133 0.70700002 -0.027271347 1.3836574e-38 318 262
-0.00124136 0.708 -0.027309919 1.3652181e-38 319 262
0 0.708 -0.027309919 1.3284119e-38 320 262
0.00124136 0.708 -0.027309919 1.3099728e-38 321 262
0.00248272 0.708 -0.027309919 1.3099007e-38 322 262
0.00372408 0.708 -0.027309919 1.3099007e-38 323 262
0.0049654399 0.708 -0.027309919 1.3006812e-38 324 262
0.0062243328 0.70999998 -0.027387066 1.3006812e-38 325 262
0.0074691991 0.70999998 -0.027387066 1.3190127e-38 326 262
0.0087140659 0.70999998 -0.027387066 1.3190127e-38 327 262
0.0099589331 0.70999998 -0.027387066 1.3190127e-38 328 262
0.01121958 0.71100003 -0.027425639 1.3190127e-38 329 262
0.0124662 0.71100003 -0.027425639 1.3374873e-38 330 262
0.013751393 0.713 -0.027502786 1.3374873e-38 331 262
0.015022559 0.71399999 -0.02754136 1.3465269e-38 332 262
0.016274439 0.71399999 -0.02754136 1.3096488e-38 333 262
0.017526319 0.71399999 -0.02754136 1.3280878e-38 334 262
0.0188308 0.71600002 -0.027618507 1.2451118e-38 335 262
0.020086186 0.71600002 -0.027618507 1.2355676e-38 336 262
0.021341572 0.71600002 -0.027618507 1.1987252e-38 337 262
0.022691639 0.71899998 -0.027734226 1.1439115e-38 338 262
0.0239856 0.72000003 -0.027772799 1.5126938e-38 339 262
0.025248 0.72000003 -0.027772799 1.8070363e-38 340 262
-0.0379772 0.722 -0.029115854 1.5767989e-38 290 263
-0.03671129 0.722 -0.029115854 1.4569446e-38 291 263
-0.035445385 0.722 -0.029115854 1.4295384e-38 292 263
-0.034084801 0.72000003 -0.029035201 1.438758e-38 293 263
-0.0328224 0.72000003 -0.029035201 1.4663812e-38 294 263
-0.031516165 0.71899998 -0.028994869 1.4756008e-38 295 263
-0.030171359 0.71700001 -0.028914221 1.4848924e-38 296 263
-0.028873893 0.71600002 -0.028873893 1.4941119e-38 297 263
-0.02754136 0.71399999 -0.028793238 1.5033315e-38 298 263
-0.026252659 0.713 -0.028752912 1.5218065e-38 299 263
-0.024932399 0.71100003 -0.028672259 1.5126588e-38 300 263
-0.023685781 0.71100003 -0.028672259 1.5126588e-38 301 263
-0.022407599 0.70999998 -0.028631933 1.5217709e-38 302 263
-0.021162732 0.70999998 -0.028631933 1.5309905e-38 303 263
-0.019917866 0.70999998 -0.028631933 1.5494293e-38 304 263
-0.0186204 0.708 -0.02855128 1.5586489e-38 305 263
-0.017379038 0.708 -0.02855128 1.5677965e-38 306 263
-0.01613768 0.708 -0.02855128 1.5032596e-38 307 263
-0.01489632 0.708 -0.02855128 1.456874e-38 308 263
-0.013635674 0.70700002 -0.028510952 1.456874e-38 309 263
-0.012396066 0.70700002 -0.028510952 1.4658772e-38 310 263
-0.011156459 0.70700002 -0.028510952 1.4382183e-38 311 263
-0.0099028256 0.70599997 -0.028470624 1.4382183e-38 312 263
-0.0086649731 0.70599997 -0.028470624 1.4198152e-38 313 263
-0.0074376399 0.70700002 -0.028510952 1.3557467e-38 314 263
-0.0061980332 0.70700002 -0.028510952 1.4295034e-38 315 263
-0.0049584266 0.70700002 -0.028510952 1.3836579e-38 316 263
-0.0037188199 0.70700002 -0.028510952 1.3744025e-38 317 263
-0.0024792133 0.70700002 -0.028510952 1.3652184e-38 318 263
-0.00124136 0.708 -0.02855128 1.355963e-38 319 263
0 0.708 -0.02855128 1.3375235e-38 320 263
0.00124136 0.708 -0.02855128 1.3099007e-38 321 263
0.00248272 0.708 -0.02855128 1.3006815e-38 322 263
0.00372408 0.708 -0.02855128 1.291426e-38 323 263
0.0049654399 0.708 -0.02855128 1.2822067e-38 324 263
0.0062243328 0.70999998 -0.028631933 1.2914263e-38 325 263
0.0074691991 0.70999998 -0.028631933 1.3097575e-38 326 263
0.0087140659 0.70999998 -0.028631933 1.3097575e-38 327 263
0.0099589331 0.70999998 -0.028631933 1.2822067e-38 328 263
0.011203799 0.70999998 -0.028631933 1.2822067e-38 329 263
0.0124662 0.71100003 -0.028672259 1.3097575e-38 330 263
0.013751393 0.713 -0.028752912 1.3097575e-38 331 263
0.015022559 0.71399999 -0.028793238 1.2729506e-38 332 263
0.016274439 0.71399999 -0.028793238 1.2636952e-38 333 263
0.017526319 0.71399999 -0.028793238 1.2542235e-38 334 263
0.0188308 0.71600002 -0.028873893 1.2357842e-38 335 263
0.020086186 0.71600002 -0.028873893 1.2722663e-38 336 263
0.021341572 0.71600002 -0.028873893 1.2815218e-38 337 263
0.02262852 0.71700001 -0.028914221 1.1621714e-38 338 263
0.02388566 0.71700001 -0.028914221 1.3742213e-38 339 263
0.0251428 0.71700001 -0.028914221 1.6782145e-38 340 263
-0.039243106 0.722 -0.030381758 1.7794125e-38 289 264
-0.0379772 0.722 -0.030381758 1.5951661e-38 290 264
-0.036609601 0.72000003 -0.0302976 1.4844954e-38 291 264
-0.035347197 0.72000003 -0.0302976 1.4478696e-38 292 264
-0.034084801 0.72000003 -0.0302976 1.4478696e-38 293 264
-0.032776814 0.71899998 -0.030255521 1.4571616e-38 294 264
-0.031428497 0.71700001 -0.030171359 1.4663812e-38 295 264
-0.03012928 0.71600002 -0.03012928 1.4756727e-38 296 264
-0.028793238 0.71399999 -0.030045118 1.4848924e-38 297 264
-0.02754136 0.71399999 -0.030045118 1.5033315e-38 298 264
-0.026252659 0.713 -0.030003037 1.5125869e-38 299 264
-0.024932399 0.71100003 -0.029918881 1.5034034e-38 300 264
-0.023652466 0.70999998 -0.029876797 1.5126588e-38 301 264
-0.022407599 0.70999998 -0.029876797 1.5217709e-38 302 264
-0.021162732 0.70999998 -0.029876797 1.5309905e-38 303 264
-0.01986176 0.708 -0.02979264 1.5494293e-38 304 264
-0.0186204 0.708 -0.02979264 1.5586489e-38 305 264
-0.017379038 0.708 -0.02979264 1.5586126e-38 306 264
-0.01613768 0.708 -0.02979264 1.4756005e-38 307 264
-0.01489632 0.708 -0.02979264 1.4383629e-38 308 264
-0.013635674 0.70700002 -0.029750559 1.4475825e-38 309 264
-0.012396066 0.70700002 -0.029750559 1.493608e-38 310 264
-0.011140679 0.70599997 -0.029708479 1.4659493e-38 311 264
-0.0099028256 0.70599997 -0.029708479 1.4566576e-38 312 264
-0.0086649731 0.70599997 -0.029708479 1.4566576e-38 313 264
-0.0074376399 0.70700002 -0.029750559 1.3742579e-38 314 264
-0.0061980332 0.70700002 -0.029750559 1.392697e-38 315 264
-0.0049584266 0.70700002 -0.029750559 1.3744025e-38 316 264
-0.0037188199 0.70700002 -0.029750559 1.3651828e-38 317 264
-0.0024792133 0.70700002 -0.029750559 1.337632e-38 318 264
-0.0012396066 0.70700002 -0.029750559 1.3284124e-38 319 264
0 0.70700002 -0.029750559 1.3283045e-38 320 264
0.00124136 0.708 -0.02979264 1.3006459e-38 321 264
0.00248272 0.708 -0.02979264 1.2914263e-38 322 264
0.00372408 0.708 -0.02979264 1.2729872e-38 323 264
0.0049654399 0.708 -0.02979264 1.2729872e-38 324 264
0.0062067998 0.708 -0.02979264 1.2729872e-38 325 264
0.0074691991 0.70999998 -0.029876797 1.2821348e-38 326 264
0.0087140659 0.70999998 -0.029876797 1.2821348e-38 327 264
0.0099589331 0.70999998 -0.029876797 1.2637676e-38 328 264
0.011203799 0.70999998 -0.029876797 1.2637676e-38 329 264
0.0124662 0.71100003 -0.029918881 1.2637676e-38 330 264
0.013751393 0.713 -0.030003037 1.2637676e-38 331 264
0.015022559 0.71399999 -0.030045118 1.2636231e-38 332 264
0.016274439 0.71399999 -0.030045118 1.245184e-38 333 264
0.017526319 0.71399999 -0.030045118 1.1621361e-38 334 264
0.0188308 0.71600002 -0.03012928 1.1713556e-38 335 264
0.020086186 0.71600002 -0.03012928 1.3093247e-38 336 264
0.021341572 0.71600002 -0.03012928 1.3093247e-38 337 264
0.022596961 0.71600002 -0.03012928 1.2080887e-38 338 264
0.02388566 0.71700001 -0.030171359 1.3002843e-38 339 264
0.0251428 0.71700001 -0.030171359 1.5492125e-38 340 264
-0.040396802 0.72000003 -0.03156 1.7886325e-38 288 265
-0.039134402 0.72000003 -0.03156 1.7517542e-38 289 265
-0.037871998 0.72000003 -0.03156 1.5952017e-38 290 265
-0.036609601 0.72000003 -0.03156 1.5029702e-38 291 265
-0.035347197 0.72000003 -0.03156 1.4203907e-38 292 265
-0.03403746 0.71899998 -0.031516165 1.411171e-38 293 265
-0.032685637 0.71700001 -0.031428497 1.4478699e-38 294 265
-0.031428497 0.71700001 -0.031428497 1.466309e-38 295 265
-0.03012928 0.71600002 -0.031384666 1.4756005e-38 296 265
-0.028793238 0.71399999 -0.031296998 1.4940756e-38 297 265
-0.027502786 0.713 -0.031253166 1.4941119e-38 298 265
-0.026252659 0.713 -0.031253166 1.5033315e-38 299 265
-0.024932399 0.71100003 -0.031165501 1.5125869e-38 300 265
-0.023652466 0.70999998 -0.031121666 1.5125869e-38 301 265
-0.022407599 0.70999998 -0.031121666 1.5125869e-38 302 265
-0.021162732 0.70999998 -0.031121666 1.5218065e-38 303 265
-0.01986176 0.708 -0.031034 1.5493576e-38 304 265
-0.0186204 0.708 -0.031034 1.5493576e-38 305 265
-0.017379038 0.708 -0.031034 1.5400661e-38 306 265
-0.016114887 0.70700002 -0.030990168 1.5123715e-38 307 265
-0.01487528 0.70700002 -0.030990168 1.5028999e-38 308 265
-0.013635674 0.70700002 -0.030990168 1.5121195e-38 309 265
-0.012396066 0.70700002 -0.030990168 1.4938957e-38 310 265
-0.011140679 0.70599997 -0.030946331 1.383261e-38 311 265
-0.0099028256 0.70599997 -0.030946331 1.42882e-38 312 265
-0.0086649731 0.70599997 -0.030946331 1.4564426e-38 313 265
-0.0074376399 0.70700002 -0.030990168 1.3559632e-38 314 265
-0.0061980332 0.70700002 -0.030990168 1.3744025e-38 315 265
-0.0049584266 0.70700002 -0.030990168 1.3560351e-38 316 265
-0.0037188199 0.70700002 -0.030990168 1.337632e-38 317 265
-0.0024792133 0.70700002 -0.030990168 1.3467081e-38 318 265
-0.0012396066 0.70700002 -0.030990168 1.328269e-38 319 265
0 0.70700002 -0.030990168 1.3189774e-38 320 265
0.00124136 0.708 -0.031034 1.3097578e-38 321 265
0.00248272 0.708 -0.031034 1.2913547e-38 322 265
0.00372408 0.708 -0.031034 1.2821351e-38 323 265
0.0049654399 0.708 -0.031034 1.2453289e-38 324 265
0.0062067998 0.708 -0.031034 1.2453289e-38 325 265
0.0074481601 0.708 -0.031034 1.2361809e-38 326 265
0.0087140659 0.70999998 -0.031121666 1.2361809e-38 327 265
0.0099589331 0.70999998 -0.031121666 1.2453286e-38 328 265
0.011203799 0.70999998 -0.031121666 1.2453286e-38 329 265
0.0124662 0.71100003 -0.031165501 1.2544401e-38 330 265
0.013751393 0.713 -0.031253166 1.2544401e-38 331 265
0.015022559 0.71399999 -0.031296998 1.2635152e-38 332 265
0.016274439 0.71399999 -0.031296998 1.2358926e-38 333 265
0.017526319 0.71399999 -0.031296998 1.2357842e-38 334 265
0.0188308 0.71600002 -0.031384666 1.2357842e-38 335 265
0.020086186 0.71600002 -0.031384666 1.2542235e-38 336 265
0.021341572 0.71600002 -0.031384666 1.1896866e-38 337 265
0.022596961 0.71600002 -0.031384666 1.1527363e-38 338 265
0.02388566 0.71700001 -0.031428497 1.2357123e-38 339 265
0.025248 0.72000003 -0.03156 1.4478696e-38 340 265
0.026584039 0.722 -0.031647664 1.7060174e-38 341 265
-0.040396802 0.72000003 -0.0328224 1.8161464e-38 288 266
-0.039134402 0.72000003 -0.0328224 1.779268e-38 289 266
-0.037871998 0.72000003 -0.0328224 1.6135683e-38 290 266
-0.036609601 0.72000003 -0.0328224 1.5397759e-38 291 266
-0.035298105 0.71899998 -0.032776814 1.447905e-38 292 266
-0.03403746 0.71899998 -0.032776814 1.447905e-38 293 266
-0.032685637 0.71700001 -0.032685637 1.4202831e-38 294 266
-0.031428497 0.71700001 -0.032685637 1.4571614e-38 295 266
-0.03012928 0.71600002 -0.032640055 1.4480144e-38 296 266
-0.028793238 0.71399999 -0.032548878 1.4756371e-38 297 266
-0.027502786 0.713 -0.032503292 1.4573061e-38 298 266
-0.026179021 0.71100003 -0.032412119 1.4665258e-38 299 266
-0.024932399 0.71100003 -0.032412119 1.4940766e-38 300 266
-0.023652466 0.70999998 -0.032366529 1.5033321e-38 301 266
-0.022407599 0.70999998 -0.032366529 1.5033318e-38 302 266
-0.021103119 0.708 -0.03227536 1.5033318e-38 303 266
-0.01986176 0.708 -0.03227536 1.5308831e-38 304 266
-0.0186204 0.708 -0.03227536 1.5401027e-38 305 266
-0.017354494 0.70700002 -0.032229774 1.5493222e-38 306 266
-0.016114887 0.70700002 -0.032229774 1.5585419e-38 307 266
-0.01487528 0.70700002 -0.032229774 1.5673296e-38 308 266
-0.013616386 0.70599997 -0.032184184 1.5673296e-38 309 266
-0.012378532 0.70599997 -0.032184184 1.5306307e-38 310 266
-0.011140679 0.70599997 -0.032184184 1.420032e-38 311 266
-0.0099028256 0.70599997 -0.032184184 1.456372e-38 312 266
-0.0086649731 0.70599997 -0.032184184 1.4748472e-38 313 266
-0.0074271196 0.70599997 -0.032184184 1.3836226e-38 314 266
-0.0061980332 0.70700002 -0.032229774 1.3651475e-38 315 266
-0.0049584266 0.70700002 -0.032229774 1.3559632e-38 316 266
-0.0037188199 0.70700002 -0.032229774 1.3375241e-38 317 266
-0.0024792133 0.70700002 -0.032229774 1.3282692e-38 318 266
-0.0012396066 0.70700002 -0.032229774 1.3006105e-38 319 266
0 0.70700002 -0.032229774 1.2730598e-38 320 266
0.00124136 0.708 -0.03227536 1.2638402e-38 321 266
0.00248272 0.708 -0.03227536 1.2454011e-38 322 266
0.00372408 0.708 -0.03227536 1.2454011e-38 323 266
0.0049654399 0.708 -0.03227536 1.21785e-38 324 266
0.0062067998 0.708 -0.03227536 1.21785e-38 325 266
0.0074481601 0.708 -0.03227536 1.2085944e-38 326 266
0.0087140659 0.70999998 -0.032366529 1.2085944e-38 327 266
0.0099589331 0.70999998 -0.032366529 1.2085944e-38 328 266
0.011203799 0.70999998 -0.032366529 1.1993749e-38 329 266
0.0124662 0.71100003 -0.032412119 1.199303e-38 330 266
0.013751393 0.713 -0.032503292 1.199303e-38 331 266
0.015022559 0.71399999 -0.032548878 1.2083781e-38 332 266
0.016274439 0.71399999 -0.032548878 1.1991585e-38 333 266
0.017526319 0.71399999 -0.032548878 1.1991938e-38 334 266
0.0188308 0.71600002 -0.032640055 1.1899741e-38 335 266
0.020086186 0.71600002 -0.032640055 1.2172376e-38 336 266
0.021341572 0.71600002 -0.032640055 1.1711757e-38 337 266
0.02262852 0.71700001 -0.032685637 1.1526657e-38 338 266
0.023952285 0.71899998 -0.032776814 1.1711407e-38 339 266
0.025248 0.72000003 -0.0328224 1.3096844e-38 340 266
0.026584039 0.722 -0.032913569 1.6323691e-38 341 266
0.02788852 0.72299999 -0.032959159 1.7794125e-38 342 266
0.029156178 0.72299999 -0.032959159 1.7701929e-38 343 266
-0.040396802 0.72000003 -0.034084801 1.770301e-38 288 267
-0.039134402 0.72000003 -0.034084801 1.7518617e-38 289 267
-0.037871998 0.72000003 -0.034084801 1.6228241e-38 290 267
-0.036558751 0.71899998 -0.03403746 1.5398841e-38 291 267
-0.035298105 0.71899998 -0.03403746 1.4846756e-38 292 267
-0.033942781 0.71700001 -0.033942781 1.4385778e-38 293 267
-0.032685637 0.71700001 -0.033942781 1.4202831e-38 294 267
-0.031384666 0.71600002 -0.03389544 1.4295387e-38 295 267
-0.03012928 0.71600002 -0.03389544 1.4571616e-38 296 267
-0.028793238 0.71399999 -0.033800758 1.4663812e-38 297 267
-0.027502786 0.713 -0.033753417 1.4755655e-38 298 267
-0.026179021 0.71100003 -0.033658739 1.484785e-38 299 267
-0.024932399 0.71100003 -0.033658739 1.4848571e-38 300 267
-0.023652466 0.70999998 -0.033611398 1.4848571e-38 301 267
-0.022344479 0.708 -0.033516716 1.5032599e-38 302 267
-0.021103119 0.708 -0.033516716 1.5032599e-38 303 267
-0.01986176 0.708 -0.033516716 1.5400305e-38 304 267
-0.018594101 0.70700002 -0.033469379 1.5676532e-38 305 267
-0.017354494 0.70700002 -0.033469379 1.5586136e-38 306 267
-0.016114887 0.70700002 -0.033469379 1.5586136e-38 307 267
-0.01487528 0.70700002 -0.033469379 1.5673649e-38 308 267
-0.013616386 0.70599997 -0.033422034 1.4936083e-38 309 267
-0.012378532 0.70599997 -0.033422034 1.3832254e-38 310 267
-0.011140679 0.70599997 -0.033422034 1.3832254e-38 311 267
-0.0099028256 0.70599997 -0.033422034 1.4197802e-38 312 267
-0.0086649731 0.70599997 -0.033422034 1.4658421e-38 313 267
-0.0074271196 0.70599997 -0.033422034 1.3742945e-38 314 267
-0.0061980332 0.70700002 -0.033469379 1.3927696e-38 315 267
-0.0049584266 0.70700002 -0.033469379 1.3375964e-38 316 267
-0.0037188199 0.70700002 -0.033469379 1.3099377e-38 317 267
-0.0024792133 0.70700002 -0.033469379 1.3006461e-38 318 267
-0.0012396066 0.70700002 -0.033469379 1.2821711e-38 319 267
0 0.70700002 -0.033469379 1.2638399e-38 320 267
0.00124136 0.708 -0.033516716 1.2454008e-38 321 267
0.00248272 0.708 -0.033516716 1.2453292e-38 322 267
0.00372408 0.708 -0.033516716 1.2453292e-38 323 267
0.0049654399 0.708 -0.033516716 1.2269615e-38 324 267
0.0062067998 0.708 -0.033516716 1.2269615e-38 325 267
0.0074481601 0.708 -0.033516716 1.20863e-38 326 267
0.0087140659 0.70999998 -0.033611398 1.20863e-38 327 267
0.0099589331 0.70999998 -0.033611398 1.2085581e-38 328 267
0.011203799 0.70999998 -0.033611398 1.2085581e-38 329 267
0.0124662 0.71100003 -0.033658739 1.2084502e-38 330 267
0.013751393 0.713 -0.033753417 1.1992307e-38 331 267
0.015022559 0.71399999 -0.033800758 1.1991585e-38 332 267
0.016274439 0.71399999 -0.033800758 1.1899388e-38 333 267
0.017526319 0.71399999 -0.033800758 1.1899022e-38 334 267
0.0188308 0.71600002 -0.03389544 1.1161098e-38 335 267
0.020086186 0.71600002 -0.03389544 1.0790877e-38 336 267
0.021341572 0.71600002 -0.03389544 1.1712473e-38 337 267
0.02262852 0.71700001 -0.033942781 1.226313e-38 338 267
0.023952285 0.71899998 -0.03403746 1.0603609e-38 339 267
0.025248 0.72000003 -0.034084801 1.1069253e-38 340 267
0.026584039 0.722 -0.034179479 1.5586839e-38 341 267
0.02788852 0.72299999 -0.03422682 1.7794125e-38 342 267
0.029156178 0.72299999 -0.03422682 1.7701929e-38 343 267
-0.039134402 0.72000003 -0.035347197 1.8162186e-38 289 268
-0.037871998 0.72000003 -0.035347197 1.6412993e-38 290 268
-0.036558751 0.71899998 -0.035298105 1.5398841e-38 291 268
-0.035298105 0.71899998 -0.035298105 1.4938589e-38 292 268
-0.033942781 0.71700001 -0.035199918 1.4753839e-38 293 268
-0.032685637 0.71700001 -0.035199918 1.4202831e-38 294 268
-0.031384666 0.71600002 -0.035150826 1.4202831e-38 295 268
-0.03012928 0.71600002 -0.035150826 1.4203201e-38 296 268
-0.028793238 0.71399999 -0.035052639 1.4387951e-38 297 268
-0.027425639 0.71100003 -0.034905359 1.4388314e-38 298 268
-0.026179021 0.71100003 -0.034905359 1.448051e-38 299 268
-0.024897331 0.70999998 -0.034856264 1.4480866e-38 300 268
-0.023652466 0.70999998 -0.034856264 1.4573061e-38 301 268
-0.022344479 0.708 -0.034758076 1.4665261e-38 302 268
-0.021103119 0.708 -0.034758076 1.4757457e-38 303 268
-0.01986176 0.708 -0.034758076 1.5217359e-38 304 268
-0.018594101 0.70700002 -0.034708988 1.5125163e-38 305 268
-0.017354494 0.70700002 -0.034708988 1.5400305e-38 306 268
-0.016092092 0.70599997 -0.034659892 1.5215914e-38 307 268
-0.014854239 0.70599997 -0.034659892 1.5028636e-38 308 268
-0.013616386 0.70599997 -0.034659892 1.4383267e-38 309 268
-0.012378532 0.70599997 -0.034659892 1.3094689e-38 310 268
-0.011140679 0.70599997 -0.034659892 1.3002493e-38 311 268
-0.0099028256 0.70599997 -0.034659892 1.3646064e-38 312 268
-0.0086649731 0.70599997 -0.034659892 1.4199237e-38 313 268
-0.0074271196 0.70599997 -0.034659892 1.3558188e-38 314 268
-0.0061980332 0.70700002 -0.034708988 1.3834775e-38 315 268
-0.0049584266 0.70700002 -0.034708988 1.3467081e-38 316 268
-0.0037188199 0.70700002 -0.034708988 1.3098658e-38 317 268
-0.0024792133 0.70700002 -0.034708988 1.2914982e-38 318 268
-0.0012396066 0.70700002 -0.034708988 1.2546559e-38 319 268
0 0.70700002 -0.034708988 1.2454008e-38 320 268
0.00124136 0.708 -0.034758076 1.2361812e-38 321 268
0.00248272 0.708 -0.034758076 1.2085228e-38 322 268
0.00372408 0.708 -0.034758076 1.2085228e-38 323 268
0.0049654399 0.708 -0.034758076 1.1993751e-38 324 268
0.0062067998 0.708 -0.034758076 1.1901556e-38 325 268
0.0074481601 0.708 -0.034758076 1.1901553e-38 326 268
0.0087140659 0.70999998 -0.034856264 1.1901553e-38 327 268
0.0099589331 0.70999998 -0.034856264 1.1809357e-38 328 268
0.01121958 0.71100003 -0.034905359 1.1809357e-38 329 268
0.012501267 0.713 -0.035003547 1.1808638e-38 330 268
0.013751393 0.713 -0.035003547 1.1716443e-38 331 268
0.015022559 0.71399999 -0.035052639 1.1623524e-38 332 268
0.016274439 0.71399999 -0.035052639 1.1623524e-38 333 268
0.017526319 0.71399999 -0.035052639 1.1806468e-38 334 268
0.0188308 0.71600002 -0.035150826 1.1253653e-38 335 268
0.020086186 0.71600002 -0.035150826 1.1159654e-38 336 268
0.021341572 0.71600002 -0.035150826 1.1712826e-38 337 268
0.02262852 0.71700001 -0.035199918 1.1895773e-38 338 268
0.023952285 0.71899998 -0.035298105 1.0881622e-38 339 268
0.025248 0.72000003 -0.035347197 1.1799974e-38 340 268
0.026584039 0.722 -0.035445385 1.6501591e-38 341 268
0.02788852 0.72299999 -0.035494477 1.7333867e-38 342 268
0.029156178 0.72299999 -0.035494477 1.7518617e-38 343 268
-0.037871998 0.72000003 -0.036609601 1.6504832e-38 290 269
-0.036558751 0.71899998 -0.036558751 1.5398844e-38 291 269
-0.035199918 0.71700001 -0.036457058 1.4939307e-38 292 269
-0.033942781 0.71700001 -0.036457058 1.4754557e-38 293 269
-0.032640055 0.71600002 -0.036406212 1.4295381e-38 294 269
-0.031384666 0.71600002 -0.036406212 1.4203184e-38 295 269
-0.030045118 0.71399999 -0.036304519 1.4202837e-38 296 269
-0.028793238 0.71399999 -0.036304519 1.4387229e-38 297 269
-0.027387066 0.70999998 -0.036101133 1.4387951e-38 298 269
-0.026142199 0.70999998 -0.036101133 1.4480147e-38 299 269
-0.024897331 0.70999998 -0.036101133 1.4480144e-38 300 269
-0.023652466 0.70999998 -0.036101133 1.457234e-38 301 269
-0.022344479 0.708 -0.03599944 1.4756373e-38 302 269
-0.021103119 0.708 -0.03599944 1.4848571e-38 303 269
-0.019833706 0.70700002 -0.035948593 1.4848573e-38 304 269
-0.018594101 0.70700002 -0.035948593 1.4848573e-38 305 269
-0.017354494 0.70700002 -0.035948593 1.4571263e-38 306 269
-0.016092092 0.70599997 -0.035897743 1.4110285e-38 307 269
-0.014854239 0.70599997 -0.035897743 1.4108122e-38 308 269
-0.013616386 0.70599997 -0.035897743 1.3647143e-38 309 269
-0.012378532 0.70599997 -0.035897743 1.3186891e-38 310 269
-0.011140679 0.70599997 -0.035897743 1.3370922e-38 311 269
-0.0099028256 0.70599997 -0.035897743 1.3374166e-38 312 269
-0.0086649731 0.70599997 -0.035897743 1.3835143e-38 313 269
-0.0074271196 0.70599997 -0.035897743 1.3375241e-38 314 269
-0.0061980332 0.70700002 -0.035948593 1.3467437e-38 315 269
-0.0049584266 0.70700002 -0.035948593 1.3099377e-38 316 269
-0.0037188199 0.70700002 -0.035948593 1.2914985e-38 317 269
-0.0024792133 0.70700002 -0.035948593 1.2730595e-38 318 269
-0.0012396066 0.70700002 -0.035948593 1.2454008e-38 319 269
0 0.70700002 -0.035948593 1.2361812e-38 320 269
0.00124136 0.708 -0.03599944 1.2085225e-38 321 269
0.00248272 0.708 -0.03599944 1.2176342e-38 322 269
0.00372408 0.708 -0.03599944 1.2176342e-38 323 269
0.0049654399 0.708 -0.03599944 1.1900834e-38 324 269
0.0062067998 0.708 -0.03599944 1.1900834e-38 325 269
0.0074691991 0.70999998 -0.036101133 1.1900834e-38 326 269
0.0087140659 0.70999998 -0.036101133 1.1808638e-38 327 269
0.0099729598 0.71100003 -0.036151983 1.1808638e-38 328 269
0.01121958 0.71100003 -0.036151983 1.1808638e-38 329 269
0.012501267 0.713 -0.036253672 1.1807917e-38 330 269
0.013751393 0.713 -0.036253672 1.171572e-38 331 269
0.015022559 0.71399999 -0.036304519 1.1807192e-38 332 269
0.016274439 0.71399999 -0.036304519 1.1622802e-38 333 269
0.017575413 0.71600002 -0.036406212 1.1530963e-38 334 269
0.0188308 0.71600002 -0.036406212 1.1254016e-38 335 269
0.020086186 0.71600002 -0.036406212 1.1711754e-38 336 269
0.021341572 0.71600002 -0.036406212 1.1527363e-38 337 269
0.02262852 0.71700001 -0.036457058 1.161884e-38 338 269
0.023952285 0.71899998 -0.036558751 1.1526644e-38 339 269
0.025248 0.72000003 -0.036609601 1.2260965e-38 340 269
0.026584039 0.722 -0.03671129 1.5948792e-38 341 269
0.02788852 0.72299999 -0.036762137 1.7057643e-38 342 269
