# .PCD v.7 - Point Cloud Data file format
FIELDS x y z rgb imX imY
SIZE 4 4 4 4 4 4
TYPE F F F F F F
COUNT 1 1 1 1 1 1
WIDTH 842
HEIGHT 1
VIEWPOINT 0 0 0 1 0 0 0
POINTS 842
DATA ascii
0.029035201 0.72000003 -0.039134402 1.8442741e-38 343 271
0.0302976 0.72000003 -0.039134402 1.7058728e-38 344 271
0.03156 0.72000003 -0.039134402 1.595238e-38 345 271
0.0328224 0.72000003 -0.039134402 1.6413712e-38 346 271
0.03403746 0.71899998 -0.039080046 1.5122973e-38 347 271
0.035298105 0.71899998 -0.039080046 5.5400195e-39 348 271
0.03671129 0.722 -0.039243106 5.0404706e-42 349 271
0.038029801 0.72299999 -0.039297458 5.413216e-42 350 271
0.039297458 0.72299999 -0.039297458 2.8344064e-40 351 271
0.040565118 0.72299999 -0.039297458 1.04677e-41 352 271
-0.0012624001 0.72000003 -0.040396802 1.0700804e-38 319 272
0 0.72000003 -0.040396802 1.7609365e-38 320 272
0.0012624001 0.72000003 -0.040396802 1.8070343e-38 321 272
0.0025248001 0.72000003 -0.040396802 1.7517898e-38 322 272
0.0037819401 0.71899998 -0.040340692 1.6872529e-38 323 272
0.0050425865 0.71899998 -0.040340692 1.6137492e-38 324 272
0.0063032326 0.71899998 -0.040340692 1.6230046e-38 325 272
0.0075638802 0.71899998 -0.040340692 1.6412284e-38 326 272
0.0088245263 0.71899998 -0.040340692 1.6227892e-38 327 272
0.010085173 0.71899998 -0.040340692 1.5677238e-38 328 272
0.01134582 0.71899998 -0.040340692 1.5585043e-38 329 272
0.012606465 0.71899998 -0.040340692 1.5769435e-38 330 272
0.013867113 0.71899998 -0.040340692 1.6230412e-38 331 272
0.01512776 0.71899998 -0.040340692 1.6782145e-38 332 272
0.016388407 0.71899998 -0.040340692 1.6413003e-38 333 272
0.017649053 0.71899998 -0.040340692 1.3096841e-38 334 272
0.018909698 0.71899998 -0.040340692 1.3557818e-38 335 272
0.020170346 0.71899998 -0.040340692 1.4295384e-38 336 272
0.021460801 0.72000003 -0.040396802 1.4940754e-38 337 272
0.022723202 0.72000003 -0.040396802 1.5860912e-38 338 272
0.0239856 0.72000003 -0.040396802 1.6229693e-38 339 272
0.025248 0.72000003 -0.040396802 1.5771233e-38 340 272
0.02647358 0.71899998 -0.040340692 1.6969776e-38 341 272
0.027734226 0.71899998 -0.040340692 1.8626777e-38 342 272
0.028994869 0.71899998 -0.040340692 1.8811168e-38 343 272
0.030255521 0.71899998 -0.040340692 1.6874341e-38 344 272
0.031516165 0.71899998 -0.040340692 1.5860187e-38 345 272
0.032776814 0.71899998 -0.040340692 1.5954898e-38 346 272
0.033942781 0.71700001 -0.040228479 1.5217333e-38 347 272
0.035199918 0.71700001 -0.040228479 1.0325911e-38 348 272
0.036457058 0.71700001 -0.040228479 3.6878252e-39 349 272
0.037661601 0.71600002 -0.040172372 5.5569331e-40 350 272
0.038916986 0.71600002 -0.040172372 2.4914428e-39 351 272
-0.0025212932 0.71899998 -0.041601337 1.2263464e-38 318 273
-0.0012606466 0.71899998 -0.041601337 1.3831149e-38 319 273
0 0.71899998 -0.041601337 1.650626e-38 320 273
0.0012606466 0.71899998 -0.041601337 1.6782849e-38 321 273
0.0025212932 0.71899998 -0.041601337 1.5952731e-38 322 273
0.0037819401 0.71899998 -0.041601337 1.5492113e-38 323 273
0.0050425865 0.71899998 -0.041601337 1.4571967e-38 324 273
0.0062857 0.71700001 -0.041485619 1.4571967e-38 325 273
0.0075428397 0.71700001 -0.041485619 1.5124069e-38 326 273
0.0087999795 0.71700001 -0.041485619 1.4755286e-38 327 273
0.01005712 0.71700001 -0.041485619 1.4202837e-38 328 273
0.01131426 0.71700001 -0.041485619 1.4202837e-38 329 273
0.0125714 0.71700001 -0.041485619 1.493932e-38 330 273
0.013828539 0.71700001 -0.041485619 1.5769082e-38 331 273
0.015085679 0.71700001 -0.041485619 1.5861631e-38 332 273
0.016388407 0.71899998 -0.041601337 1.5308816e-38 333 273
0.017649053 0.71899998 -0.041601337 1.3280153e-38 334 273
0.018909698 0.71899998 -0.041601337 1.3464903e-38 335 273
0.020170346 0.71899998 -0.041601337 1.4570529e-38 336 273
0.021430992 0.71899998 -0.041601337 1.5584321e-38 337 273
0.022691639 0.71899998 -0.041601337 1.6506634e-38 338 273
0.023952285 0.71899998 -0.041601337 1.6506634e-38 339 273
0.025212931 0.71899998 -0.041601337 1.6047097e-38 340 273
0.02647358 0.71899998 -0.041601337 1.6969413e-38 341 273
0.027734226 0.71899998 -0.041601337 1.8809017e-38 342 273
0.028994869 0.71899998 -0.041601337 1.7979615e-38 343 273
0.030171359 0.71700001 -0.041485619 1.6046744e-38 344 273
0.031428497 0.71700001 -0.041485619 1.5586126e-38 345 273
0.032685637 0.71700001 -0.041485619 1.6506637e-38 346 273
0.03389544 0.71600002 -0.041427758 1.5861268e-38 347 273
0.035150826 0.71600002 -0.041427758 1.1986508e-38 348 273
0.036406212 0.71600002 -0.041427758 5.9012364e-39 349 273
0.037661601 0.71600002 -0.041427758 4.3047889e-42 350 273
-0.0037872 0.72000003 -0.042921603 1.5490661e-38 317 274
-0.0025248001 0.72000003 -0.042921603 1.4658026e-38 318 274
-0.0012606466 0.71899998 -0.042861983 1.3367287e-38 319 274
0 0.71899998 -0.042861983 1.2545105e-38 320 274
0.0012606466 0.71899998 -0.042861983 1.2084487e-38 321 274
0.0025212932 0.71899998 -0.042861983 1.3092891e-38 322 274
0.0037819401 0.71899998 -0.042861983 1.4383629e-38 323 274
0.0050285598 0.71700001 -0.042742759 1.4203557e-38 324 274
0.0062857 0.71700001 -0.042742759 1.392697e-38 325 274
0.0075428397 0.71700001 -0.042742759 1.4939323e-38 326 274
0.0087999795 0.71700001 -0.042742759 1.4939323e-38 327 274
0.01005712 0.71700001 -0.042742759 1.5031516e-38 328 274
0.01131426 0.71700001 -0.042742759 1.5031516e-38 329 274
0.0125714 0.71700001 -0.042742759 1.4756008e-38 330 274
0.013809253 0.71600002 -0.042683143 1.4756008e-38 331 274
0.01506464 0.71600002 -0.042683143 1.3652181e-38 332 274
0.016342819 0.71700001 -0.042742759 1.346779e-38 333 274
0.017599959 0.71700001 -0.042742759 1.2819897e-38 334 274
0.018857099 0.71700001 -0.042742759 1.2912451e-38 335 274
0.020114239 0.71700001 -0.042742759 1.4570526e-38 336 274
0.021430992 0.71899998 -0.042861983 1.6045296e-38 337 274
0.022691639 0.71899998 -0.042861983 1.6599905e-38 338 274
0.023952285 0.71899998 -0.042861983 1.6507709e-38 339 274
0.025212931 0.71899998 -0.042861983 1.6414437e-38 340 274
0.02647358 0.71899998 -0.042861983 1.6690666e-38 341 274
0.027734226 0.71899998 -0.042861983 1.6778548e-38 342 274
0.028914221 0.71700001 -0.042742759 1.5303778e-38 343 274
0.030171359 0.71700001 -0.042742759 1.4021314e-38 344 274
0.031428497 0.71700001 -0.042742759 1.4851075e-38 345 274
0.032640055 0.71600002 -0.042683143 1.6414437e-38 346 274
0.03389544 0.71600002 -0.042683143 1.6045296e-38 347 274
0.035150826 0.71600002 -0.042683143 1.2910252e-38 348 274
0.036406212 0.71600002 -0.042683143 7.7472972e-39 349 274
0.037661601 0.71600002 -0.042683143 9.3344274e-40 350 274
0.038808275 0.71399999 -0.042563915 1.117834e-39 351 274
0.046077598 0.73000002 -0.043517731 7.9450596e-39 356 274
-0.0050636264 0.722 -0.044306733 1.6412268e-38 316 275
-0.0037872 0.72000003 -0.044183999 1.6412268e-38 317 275
-0.0025248001 0.72000003 -0.044183999 1.5674356e-38 318 275
-0.0012624001 0.72000003 -0.044183999 1.4014474e-38 319 275
0 0.72000003 -0.044183999 1.3832254e-38 320 275
0.0012606466 0.71899998 -0.044122629 1.3371275e-38 321 275
0.0025212932 0.71899998 -0.044122629 1.2541871e-38 322 275
0.0037819401 0.71899998 -0.044122629 1.3924807e-38 323 275
0.0050285598 0.71700001 -0.043999899 1.4756371e-38 324 275
0.0062857 0.71700001 -0.043999899 1.4480144e-38 325 275
0.0075428397 0.71700001 -0.043999899 1.4113156e-38 326 275
0.0087877065 0.71600002 -0.043938532 1.4205352e-38 327 275
0.010043093 0.71600002 -0.043938532 1.4297548e-38 328 275
0.01129848 0.71600002 -0.043938532 1.4297548e-38 329 275
0.0125714 0.71700001 -0.043999899 1.4388667e-38 330 275
0.013809253 0.71600002 -0.043938532 1.4204636e-38 331 275
0.01506464 0.71600002 -0.043938532 1.4111004e-38 332 275
0.016342819 0.71700001 -0.043999899 1.3742582e-38 333 275
0.017575413 0.71600002 -0.043938532 1.3095044e-38 334 275
0.0188308 0.71600002 -0.043938532 1.3740414e-38 335 275
0.020114239 0.71700001 -0.043999899 1.5492122e-38 336 275
0.021371379 0.71700001 -0.043999899 1.6045296e-38 337 275
0.02262852 0.71700001 -0.043999899 1.6322961e-38 338 275
0.02388566 0.71700001 -0.043999899 1.5861984e-38 339 275
0.0251428 0.71700001 -0.043999899 1.5769065e-38 340 275
0.02639994 0.71700001 -0.043999899 1.5584674e-38 341 275
0.027657079 0.71700001 -0.043999899 1.5031503e-38 342 275
0.028914221 0.71700001 -0.043999899 1.4386134e-38 343 275
0.030171359 0.71700001 -0.043999899 1.466416e-38 344 275
0.031428497 0.71700001 -0.043999899 1.5309529e-38 345 275
0.032640055 0.71600002 -0.043938532 1.6137129e-38 346 275
0.03389544 0.71600002 -0.043938532 1.6044933e-38 347 275
0.035150826 0.71600002 -0.043938532 1.5213351e-38 348 275
0.036304519 0.71399999 -0.043815799 1.355419e-38 349 275
0.037556399 0.71399999 -0.043815799 1.0971613e-38 350 275
0.038808275 0.71399999 -0.043815799 7.7447678e-39 351 275
0.041427758 0.71600002 -0.043938532 2.5868684e-39 353 275
0.042683143 0.71600002 -0.043938532 4.775443e-40 354 275
0.046077598 0.73000002 -0.044797666 9.1331505e-39 356 275
0.047357533 0.73000002 -0.044797666 1.2175246e-38 357 275
0.048637468 0.73000002 -0.044797666 1.2178494e-38 358 275
-0.0063295332 0.722 -0.045572639 1.6044577e-38 315 276
-0.0050636264 0.722 -0.045572639 1.5952383e-38 316 276
-0.0037977197 0.722 -0.045572639 1.604458e-38 317 276
-0.0025248001 0.72000003 -0.045446403 1.6505201e-38 318 276
-0.0012624001 0.72000003 -0.045446403 1.6782148e-38 319 276
0 0.72000003 -0.045446403 1.6965813e-38 320 276
0.00125714 0.71700001 -0.045257039 1.5398488e-38 321 276
0.0025142799 0.71700001 -0.045257039 1.3276193e-38 322 276
0.0037714199 0.71700001 -0.045257039 1.4013758e-38 323 276
0.0050285598 0.71700001 -0.045257039 1.429575e-38 324 276
0.0062857 0.71700001 -0.045257039 1.4203554e-38 325 276
0.00753232 0.71600002 -0.045193922 1.4111357e-38 326 276
0.0087877065 0.71600002 -0.045193922 1.4111357e-38 327 276
0.010043093 0.71600002 -0.045193922 1.4202831e-38 328 276
0.01129848 0.71600002 -0.045193922 1.4202831e-38 329 276
0.012553867 0.71600002 -0.045193922 1.4202831e-38 330 276
0.013809253 0.71600002 -0.045193922 1.4295387e-38 331 276
0.01506464 0.71600002 -0.045193922 1.3926247e-38 332 276
0.016320027 0.71600002 -0.045193922 1.3096488e-38 333 276
0.017575413 0.71600002 -0.045193922 1.3832977e-38 334 276
0.0188308 0.71600002 -0.045193922 1.5308107e-38 335 276
0.020086186 0.71600002 -0.045193922 1.6690315e-38 336 276
0.021341572 0.71600002 -0.045193922 1.6414087e-38 337 276
0.022596961 0.71600002 -0.045193922 1.6229325e-38 338 276
0.023852346 0.71600002 -0.045193922 1.5214812e-38 339 276
0.025107734 0.71600002 -0.045193922 1.438685e-38 340 276
0.026363119 0.71600002 -0.045193922 1.4479047e-38 341 276
0.027618507 0.71600002 -0.045193922 1.466309e-38 342 276
0.028873893 0.71600002 -0.045193922 1.5124069e-38 343 276
0.03012928 0.71600002 -0.045193922 1.5676166e-38 344 276
0.031384666 0.71600002 -0.045193922 1.5676166e-38 345 276
0.032640055 0.71600002 -0.045193922 1.6136779e-38 346 276
0.033800758 0.71399999 -0.045067675 1.6413005e-38 347 276
0.035052639 0.71399999 -0.045067675 1.6412284e-38 348 276
0.036304519 0.71399999 -0.045067675 1.6320088e-38 349 276
0.037556399 0.71399999 -0.045067675 1.5858021e-38 350 276
0.038808275 0.71399999 -0.045067675 1.355313e-38 351 276
0.040060159 0.71399999 -0.045067675 1.0050747e-38 352 276
0.041427758 0.71600002 -0.045193922 3.0442382e-39 353 276
0.046077598 0.73000002 -0.046077598 1.0057993e-38 356 276
0.047357533 0.73000002 -0.046077598 1.1440928e-38 357 276
0.048637468 0.73000002 -0.046077598 1.1994102e-38 358 276
0.0499174 0.73000002 -0.046077598 1.2363244e-38 359 276
-0.0075954394 0.722 -0.046838548 1.604745e-38 314 277
-0.0063295332 0.722 -0.046838548 1.4848907e-38 315 277
-0.0050636264 0.722 -0.046838548 1.5031869e-38 316 277
-0.0037872 0.72000003 -0.0467088 1.5308816e-38 317 277
-0.0025248001 0.72000003 -0.0467088 1.6505204e-38 318 277
-0.0012624001 0.72000003 -0.0467088 1.6873988e-38 319 277
0 0.71899998 -0.046643924 1.733352e-38 320 277
0.00125714 0.71700001 -0.046514176 1.6780346e-38 321 277
0.0025142799 0.71700001 -0.046514176 1.4383617e-38 322 277
0.0037714199 0.71700001 -0.046514176 1.3369105e-38 323 277
0.0050215465 0.71600002 -0.046449307 1.346455e-38 324 277
0.0062769335 0.71600002 -0.046449307 1.4109919e-38 325 277
0.00753232 0.71600002 -0.046449307 1.3834775e-38 326 277
0.0087877065 0.71600002 -0.046449307 1.3834775e-38 327 277
0.010043093 0.71600002 -0.046449307 1.401844e-38 328 277
0.01129848 0.71600002 -0.046449307 1.4110636e-38 329 277
0.012518799 0.71399999 -0.046319555 1.4386499e-38 330 277
0.01377068 0.71399999 -0.046319555 1.4386499e-38 331 277
0.015022559 0.71399999 -0.046319555 1.2544389e-38 332 277
0.016320027 0.71600002 -0.046449307 1.1899019e-38 333 277
0.017575413 0.71600002 -0.046449307 1.3836574e-38 334 277
0.0188308 0.71600002 -0.046449307 1.4850724e-38 335 277
0.020030079 0.71399999 -0.046319555 1.5862355e-38 336 277
0.021281958 0.71399999 -0.046319555 1.5954551e-38 337 277
0.022533838 0.71399999 -0.046319555 1.6229327e-38 338 277
0.02378572 0.71399999 -0.046319555 1.5767989e-38 339 277
0.025107734 0.71600002 -0.046449307 1.50315e-38 340 277
0.026363119 0.71600002 -0.046449307 1.50315e-38 341 277
0.027618507 0.71600002 -0.046449307 1.5306658e-38 342 277
0.028873893 0.71600002 -0.046449307 1.5399214e-38 343 277
0.03012928 0.71600002 -0.046449307 1.5860915e-38 344 277
0.031384666 0.71600002 -0.046449307 1.6506284e-38 345 277
0.032548878 0.71399999 -0.046319555 1.7610111e-38 346 277
0.033800758 0.71399999 -0.046319555 1.7333164e-38 347 277
0.035003547 0.713 -0.046254687 1.5676885e-38 348 277
0.036253672 0.713 -0.046254687 1.5216267e-38 349 277
0.037503798 0.713 -0.046254687 1.4756724e-38 350 277
0.038753927 0.713 -0.046254687 1.4756724e-38 351 277
0.040060159 0.71399999 -0.046319555 1.4104489e-38 352 277
0.041427758 0.71600002 -0.046449307 7.5585997e-39 353 277
0.042683143 0.71600002 -0.046449307 2.0563677e-39 354 277
0.043999899 0.71700001 -0.046514176 7.0352904e-39 355 277
0.045951359 0.72799999 -0.047227785 1.2267098e-38 356 277
0.047227785 0.72799999 -0.047227785 1.2359294e-38 357 277
0.048504211 0.72799999 -0.047227785 1.2176695e-38 358 277
0.0499174 0.73000002 -0.047357533 1.2729869e-38 359 277
0.051197331 0.73000002 -0.047357533 1.6413008e-38 360 277
-0.0075954394 0.722 -0.048104454 1.5399197e-38 314 278
-0.0063295332 0.722 -0.048104454 1.4661273e-38 315 278
-0.0050636264 0.722 -0.048104454 1.447905e-38 316 278
-0.0037872 0.72000003 -0.0479712 1.4755636e-38 317 278
-0.0025248001 0.72000003 -0.0479712 1.5583602e-38 318 278
-0.0012624001 0.72000003 -0.0479712 1.6228971e-38 319 278
0 0.71899998 -0.04790457 1.7057659e-38 320 278
0.00125714 0.71700001 -0.04777132 1.7057659e-38 321 278
0.0025142799 0.71700001 -0.04777132 1.5213746e-38 322 278
0.0037714199 0.71700001 -0.04777132 1.3369833e-38 323 278
0.0050215465 0.71600002 -0.047704693 1.1990862e-38 324 278
0.0062769335 0.71600002 -0.047704693 1.3189405e-38 325 278
0.00753232 0.71600002 -0.047704693 1.4018092e-38 326 278
0.0087631596 0.71399999 -0.047571439 1.3925538e-38 327 278
0.01001504 0.71399999 -0.047571439 1.383513e-38 328 278
0.011266919 0.71399999 -0.047571439 1.4203554e-38 329 278
0.012518799 0.71399999 -0.047571439 1.475456e-38 330 278
0.01377068 0.71399999 -0.047571439 1.4385778e-38 331 278
0.015022559 0.71399999 -0.047571439 1.199229e-38 332 278
0.016274439 0.71399999 -0.047571439 1.199229e-38 333 278
0.017526319 0.71399999 -0.047571439 1.4295753e-38 334 278
0.018778199 0.71399999 -0.047571439 1.4387948e-38 335 278
0.020030079 0.71399999 -0.047571439 1.4572695e-38 336 278
0.021281958 0.71399999 -0.047571439 1.4941119e-38 337 278
0.022533838 0.71399999 -0.047571439 1.6045302e-38 338 278
0.02378572 0.71399999 -0.047571439 1.5860912e-38 339 278
0.025037598 0.71399999 -0.047571439 1.567687e-38 340 278
0.026289478 0.71399999 -0.047571439 1.5492478e-38 341 278
0.02754136 0.71399999 -0.047571439 1.5306648e-38 342 278
0.028793238 0.71399999 -0.047571439 1.5121898e-38 343 278
0.030045118 0.71399999 -0.047571439 1.595238e-38 344 278
0.031296998 0.71399999 -0.047571439 1.7243119e-38 345 278
0.032503292 0.713 -0.047504812 1.8163636e-38 346 278
0.033753417 0.713 -0.047504812 1.7425713e-38 347 278
0.035003547 0.713 -0.047504812 1.5216983e-38 348 278
0.036253672 0.713 -0.047504812 1.4663809e-38 349 278
0.037503798 0.713 -0.047504812 1.37451e-38 350 278
0.038753927 0.713 -0.047504812 1.4667056e-38 351 278
0.040004052 0.713 -0.047504812 1.5766914e-38 352 278
0.041427758 0.71600002 -0.047704693 1.1341883e-38 353 278
0.042742759 0.71700001 -0.04777132 6.8448049e-39 354 278
0.043999899 0.71700001 -0.04777132 9.7947049e-39 355 278
0.045951359 0.72799999 -0.048504211 1.2912465e-38 356 278
0.047227785 0.72799999 -0.048504211 1.2543683e-38 357 278
0.048504211 0.72799999 -0.048504211 1.1993386e-38 358 278
0.049780637 0.72799999 -0.048504211 1.2269612e-38 359 278
0.051057063 0.72799999 -0.048504211 1.5861281e-38 360 278
0.052333489 0.72799999 -0.048504211 1.650665e-38 361 278
-0.0088613462 0.722 -0.04937036 1.5309516e-38 313 279
-0.0075954394 0.722 -0.04937036 1.5397759e-38 314 279
-0.0063295332 0.722 -0.04937036 1.4476163e-38 315 279
-0.0050636264 0.722 -0.04937036 1.4293219e-38 316 279
-0.0037872 0.72000003 -0.0492336 1.4293219e-38 317 279
-0.0025248001 0.72000003 -0.0492336 1.4017721e-38 318 279
-0.0012624001 0.72000003 -0.0492336 1.4293948e-38 319 279
0 0.71899998 -0.049165215 1.4848206e-38 320 279
0.00125714 0.71700001 -0.04902846 1.4848206e-38 321 279
0.0025107733 0.71600002 -0.048960082 1.5122269e-38 322 279
0.00376616 0.71600002 -0.048960082 1.3647499e-38 323 279
0.0050215465 0.71600002 -0.048960082 1.0889183e-38 324 279
0.0062769335 0.71600002 -0.048960082 1.2272118e-38 325 279
0.0075112795 0.71399999 -0.048823316 1.4293585e-38 326 279
0.0087631596 0.71399999 -0.048823316 1.4201389e-38 327 279
0.01001504 0.71399999 -0.048823316 1.3924076e-38 328 279
0.011266919 0.71399999 -0.048823316 1.3370903e-38 329 279
0.012518799 0.71399999 -0.048823316 1.2723738e-38 330 279
0.01377068 0.71399999 -0.048823316 1.1986173e-38 331 279
0.015022559 0.71399999 -0.048823316 1.1071421e-38 332 279
0.016274439 0.71399999 -0.048823316 1.2454714e-38 333 279
0.017526319 0.71399999 -0.048823316 1.4386149e-38 334 279
0.018778199 0.71399999 -0.048823316 1.4109922e-38 335 279
0.020002026 0.713 -0.048754938 1.4111357e-38 336 279
0.021252153 0.713 -0.048754938 1.429575e-38 337 279
0.022502279 0.713 -0.048754938 1.457269e-38 338 279
0.023752406 0.713 -0.048754938 1.4849277e-38 339 279
0.025002534 0.713 -0.048754938 1.5859469e-38 340 279
0.026179021 0.71100003 -0.048618179 1.5766914e-38 341 279
0.027425639 0.71100003 -0.048618179 1.5399927e-38 342 279
0.028672259 0.71100003 -0.048618179 1.5492122e-38 343 279
0.029918881 0.71100003 -0.048618179 1.6045296e-38 344 279
0.031253166 0.713 -0.048754938 1.6967611e-38 345 279
0.032412119 0.71100003 -0.048618179 1.8072884e-38 346 279
0.033658739 0.71100003 -0.048618179 1.7335319e-38 347 279
0.034905359 0.71100003 -0.048618179 1.4572693e-38 348 279
0.036253672 0.713 -0.048754938 1.4388301e-38 349 279
0.037503798 0.713 -0.048754938 1.3836579e-38 350 279
0.038753927 0.713 -0.048754938 1.4205002e-38 351 279
0.040004052 0.713 -0.048754938 1.3930207e-38 352 279
0.041312039 0.71399999 -0.048823316 1.1994099e-38 353 279
0.042683143 0.71600002 -0.048960082 1.0798433e-38 354 279
0.044183999 0.72000003 -0.0492336 1.1535998e-38 355 279
0.045888241 0.727 -0.049712259 1.2269612e-38 356 279
0.047162913 0.727 -0.049712259 1.2085581e-38 357 279
0.048504211 0.72799999 -0.049780637 1.0520416e-38 358 279
0.049780637 0.72799999 -0.049780637 1.0336025e-38 359 279
0.051057063 0.72799999 -0.049780637 1.475781e-38 360 279
0.052333489 0.72799999 -0.049780637 1.5863797e-38 361 279
0.053609919 0.72799999 -0.049780637 1.6965813e-38 362 279
-0.0088736191 0.72299999 -0.050706398 1.5766172e-38 313 280
-0.0075954394 0.722 -0.050636265 1.5122254e-38 314 280
-0.0063295332 0.722 -0.050636265 1.4476884e-38 315 280
-0.0050496003 0.72000003 -0.050496001 1.4383985e-38 316 280
-0.0037872 0.72000003 -0.050496001 1.4476181e-38 317 280
-0.0025248001 0.72000003 -0.050496001 1.3925172e-38 318 280
-0.0012606466 0.71899998 -0.050425861 1.3832977e-38 319 280
0 0.71700001 -0.0502856 1.4110638e-38 320 280
0.0012553866 0.71600002 -0.050215468 1.4387227e-38 321 280
0.0025107733 0.71600002 -0.050215468 1.4387583e-38 322 280
0.00376616 0.71600002 -0.050215468 1.3742213e-38 323 280
0.0050215465 0.71600002 -0.050215468 1.2359992e-38 324 280
0.0062769335 0.71600002 -0.050215468 1.1346199e-38 325 280
0.0075112795 0.71399999 -0.050075196 1.2538255e-38 326 280
0.0087631596 0.71399999 -0.050075196 1.1892886e-38 327 280
0.01001504 0.71399999 -0.050075196 1.0512101e-38 328 280
0.011266919 0.71399999 -0.050075196 9.4979477e-39 329 280
0.012518799 0.71399999 -0.050075196 6.9200953e-39 330 280
0.01377068 0.71399999 -0.050075196 5.0765428e-39 331 280
0.015022559 0.71399999 -0.050075196 6.4717274e-39 332 280
0.016274439 0.71399999 -0.050075196 1.0804563e-38 333 280
0.017526319 0.71399999 -0.050075196 1.4110285e-38 334 280
0.018778199 0.71399999 -0.050075196 1.401809e-38 335 280
0.020002026 0.713 -0.050005067 1.4110638e-38 336 280
0.021252153 0.713 -0.050005067 1.4295031e-38 337 280
0.022502279 0.713 -0.050005067 1.4296106e-38 338 280
0.023752406 0.713 -0.050005067 1.4388301e-38 339 280
0.024932399 0.71100003 -0.049864799 1.5122992e-38 340 280
0.026179021 0.71100003 -0.049864799 1.5583971e-38 341 280
0.027425639 0.71100003 -0.049864799 1.5401374e-38 342 280
0.028631933 0.70999998 -0.049794663 1.5309179e-38 343 280
0.029876797 0.70999998 -0.049794663 1.5676522e-38 344 280
0.031121666 0.70999998 -0.049794663 1.6414087e-38 345 280
0.032366529 0.70999998 -0.049794663 1.7060177e-38 346 280
0.033611398 0.70999998 -0.049794663 1.6599199e-38 347 280
0.034905359 0.71100003 -0.049864799 1.4203554e-38 348 280
0.036253672 0.713 -0.050005067 1.3927326e-38 349 280
0.037503798 0.713 -0.050005067 1.3377406e-38 350 280
0.038753927 0.713 -0.050005067 1.3469602e-38 351 280
0.040004052 0.713 -0.050005067 1.3377403e-38 352 280
0.041312039 0.71399999 -0.050075196 1.2086664e-38 353 280
0.042683143 0.71600002 -0.050215468 1.1716796e-38 354 280
0.044122629 0.71899998 -0.050425861 1.1901187e-38 355 280
0.045446403 0.72000003 -0.050496001 1.2544401e-38 356 280
0.047033165 0.72500002 -0.050846666 1.2821348e-38 357 280
0.048304334 0.72500002 -0.050846666 9.8750498e-39 358 280
0.049712259 0.727 -0.050986931 7.9389415e-39 359 280
0.050986931 0.727 -0.050986931 1.3284124e-38 360 280
0.052333489 0.72799999 -0.051057063 1.5035483e-38 361 280
0.053609919 0.72799999 -0.051057063 1.7057653e-38 362 280
-0.0088736191 0.72299999 -0.051974058 1.5489239e-38 313 281
-0.0075954394 0.722 -0.051902171 1.4844954e-38 314 281
-0.0063295332 0.722 -0.051902171 1.4660923e-38 315 281
-0.0050496003 0.72000003 -0.051758397 1.4200668e-38 316 281
-0.0037872 0.72000003 -0.051758397 1.4200668e-38 317 281
-0.0025212932 0.71899998 -0.05168651 1.4108838e-38 318 281
-0.00125714 0.71700001 -0.051542737 1.4108838e-38 319 281
0 0.71700001 -0.051542737 1.374186e-38 320 281
0.0012553866 0.71600002 -0.051470853 1.3925891e-38 321 281
0.0025107733 0.71600002 -0.051470853 1.3741857e-38 322 281
0.00376616 0.71600002 -0.051470853 1.4110638e-38 323 281
0.0050215465 0.71600002 -0.051470853 1.3740058e-38 324 281
0.0062769335 0.71600002 -0.051470853 5.1658644e-39 325 281
0.0075112795 0.71399999 -0.05132708 2.755205e-40 326 281
0.0087631596 0.71399999 -0.05132708 0 327 281
0.01001504 0.71399999 -0.05132708 0 328 281
0.011266919 0.71399999 -0.05132708 0 329 281
0.012518799 0.71399999 -0.05132708 1.4012985e-45 330 281
0.01377068 0.71399999 -0.05132708 6.4467857e-40 331 281
0.015022559 0.71399999 -0.05132708 1.8673451e-39 332 281
0.016274439 0.71399999 -0.05132708 7.3994416e-39 333 281
0.017526319 0.71399999 -0.05132708 1.3742947e-38 334 281
0.018778199 0.71399999 -0.05132708 1.3835143e-38 335 281
0.020002026 0.713 -0.051255193 1.4109917e-38 336 281
0.021252153 0.713 -0.051255193 1.4478699e-38 337 281
0.022502279 0.713 -0.051255193 1.4570892e-38 338 281
0.023752406 0.713 -0.051255193 1.4663446e-38 339 281
0.024932399 0.71100003 -0.051111419 1.4571616e-38 340 281
0.026179021 0.71100003 -0.051111419 1.4571616e-38 341 281
0.027425639 0.71100003 -0.051111419 1.4756727e-38 342 281
0.028631933 0.70999998 -0.051039528 1.4941119e-38 343 281
0.029876797 0.70999998 -0.051039528 1.4755286e-38 344 281
0.031121666 0.70999998 -0.051039528 1.4755286e-38 345 281
0.032366529 0.70999998 -0.051039528 1.4665611e-38 346 281
0.033611398 0.70999998 -0.051039528 1.4020242e-38 347 281
0.034856264 0.70999998 -0.051039528 1.3097928e-38 348 281
0.036151983 0.71100003 -0.051111419 1.3190124e-38 349 281
0.037398599 0.71100003 -0.051111419 1.3374885e-38 350 281
0.038753927 0.713 -0.051255193 1.3559635e-38 351 281
0.040004052 0.713 -0.051255193 1.300898e-38 352 281
0.041312039 0.71399999 -0.05132708 1.2179219e-38 353 281
0.042563915 0.71399999 -0.05132708 1.2636234e-38 354 281
0.044122629 0.71899998 -0.05168651 1.2451843e-38 355 281
0.045446403 0.72000003 -0.051758397 1.2544036e-38 356 281
0.046838548 0.722 -0.051902171 1.2912818e-38 357 281
0.048304334 0.72500002 -0.052117832 8.9548857e-39 358 281
0.0495755 0.72500002 -0.052117832 5.6358431e-39 359 281
0.050846666 0.72500002 -0.052117832 1.2178494e-38 360 281
0.052261602 0.727 -0.052261602 1.4667775e-38 361 281
-0.0088981669 0.72500002 -0.053388998 1.4847112e-38 313 282
-0.0075954394 0.722 -0.053168077 1.4201386e-38 314 282
-0.0063295332 0.722 -0.053168077 1.4201386e-38 315 282
-0.0050496003 0.72000003 -0.053020801 1.4108475e-38 316 282
-0.0037872 0.72000003 -0.053020801 1.4015919e-38 317 282
-0.0025212932 0.71899998 -0.05294716 1.3557467e-38 318 282
-0.00125714 0.71700001 -0.052799881 1.3465272e-38 319 282
0 0.71600002 -0.052726239 1.3465636e-38 320 282
0.0012553866 0.71600002 -0.052726239 1.3465636e-38 321 282
0.0025107733 0.71600002 -0.052726239 1.3557467e-38 322 282
0.00376616 0.71600002 -0.052726239 1.3649664e-38 323 282
0.0050215465 0.71600002 -0.052726239 1.291391e-38 324 282
0.0062769335 0.71600002 -0.052726239 2.3114124e-39 325 282
0.0075112795 0.71399999 -0.052578956 1.2611686e-44 326 282
0.0087631596 0.71399999 -0.052578956 2.6624671e-44 327 282
0.01001504 0.71399999 -0.052578956 7.0064923e-45 328 282
0.011266919 0.71399999 -0.052578956 2.7623797e-40 329 282
0.012518799 0.71399999 -0.052578956 7.4268819e-43 330 282
0.01377068 0.71399999 -0.052578956 2.1019477e-44 331 282
0.015022559 0.71399999 -0.052578956 1.012298e-41 332 282
0.016274439 0.71399999 -0.052578956 4.8107781e-39 333 282
0.017526319 0.71399999 -0.052578956 1.3557131e-38 334 282
0.018751899 0.713 -0.052505318 1.4294696e-38 335 282
0.020002026 0.713 -0.052505318 1.4202834e-38 336 282
0.021252153 0.713 -0.052505318 1.4202834e-38 337 282
0.022502279 0.713 -0.052505318 1.4478699e-38 338 282
0.023685781 0.71100003 -0.052358042 1.4570895e-38 339 282
0.024932399 0.71100003 -0.052358042 1.4387227e-38 340 282
0.026179021 0.71100003 -0.052358042 1.4387227e-38 341 282
0.027387066 0.70999998 -0.052284397 1.4387227e-38 342 282
0.028631933 0.70999998 -0.052284397 1.4663812e-38 343 282
0.029876797 0.70999998 -0.052284397 1.4570176e-38 344 282
0.031121666 0.70999998 -0.052284397 1.4385783e-38 345 282
0.03227536 0.708 -0.052137118 1.383513e-38 346 282
0.033516716 0.708 -0.052137118 1.3558185e-38 347 282
0.034856264 0.70999998 -0.052284397 1.2822065e-38 348 282
0.036101133 0.70999998 -0.052284397 1.2822065e-38 349 282
0.037398599 0.71100003 -0.052358042 1.3007182e-38 350 282
0.038645219 0.71100003 -0.052358042 1.3191573e-38 351 282
0.040004052 0.713 -0.052505318 1.2916065e-38 352 282
0.041254178 0.713 -0.052505318 1.2362891e-38 353 282
0.042563915 0.71399999 -0.052578956 1.2911743e-38 354 282
0.044122629 0.71899998 -0.05294716 1.2635155e-38 355 282
0.045446403 0.72000003 -0.053020801 1.2636231e-38 356 282
0.046838548 0.722 -0.053168077 1.2912818e-38 357 282
0.048304334 0.72500002 -0.053388998 8.9527193e-39 358 282
0.0495755 0.72500002 -0.053388998 4.9883072e-39 359 282
0.050846666 0.72500002 -0.053388998 1.3095761e-38 360 282
0.052261602 0.727 -0.053536277 1.5769435e-38 361 282
-0.010197386 0.727 -0.054810952 1.7334599e-38 312 283
-0.0088981669 0.72500002 -0.054660168 1.4476534e-38 313 283
-0.0076059597 0.72299999 -0.054509375 1.3280875e-38 314 283
-0.0063295332 0.722 -0.054433983 1.3742213e-38 315 283
-0.0050496003 0.72000003 -0.054283202 1.3832607e-38 316 283
-0.0037872 0.72000003 -0.054283202 1.3740411e-38 317 283
-0.0025142799 0.71700001 -0.054057021 1.346455e-38 318 283
-0.0012553866 0.71600002 -0.053981625 1.3372354e-38 319 283
0 0.71600002 -0.053981625 1.3280525e-38 320 283
0.0012553866 0.71600002 -0.053981625 1.3280525e-38 321 283
0.0025037599 0.71399999 -0.053830836 1.3097212e-38 322 283
0.0037556398 0.71399999 -0.053830836 1.3189408e-38 323 283
0.0050075199 0.71399999 -0.053830836 1.162389e-38 324 283
0.0062593995 0.71399999 -0.053830836 1.7589575e-39 325 283
0.0075112795 0.71399999 -0.053830836 3.0828566e-44 326 283
0.0087631596 0.71399999 -0.053830836 1.478765e-39 327 283
0.01001504 0.71399999 -0.053830836 2.3963829e-39 328 283
0.011266919 0.71399999 -0.053830836 2.3963829e-39 329 283
0.012518799 0.71399999 -0.053830836 1.9379257e-39 330 283
0.01377068 0.71399999 -0.053830836 1.3847519e-39 331 283
0.015022559 0.71399999 -0.053830836 4.6242849e-44 332 283
0.016274439 0.71399999 -0.053830836 1.8446959e-39 333 283
0.017526319 0.71399999 -0.053830836 1.19909e-38 334 283
0.018751899 0.713 -0.053755447 1.3835172e-38 335 283
0.020002026 0.713 -0.053755447 1.4569823e-38 336 283
0.021252153 0.713 -0.053755447 1.4569823e-38 337 283
0.022439159 0.71100003 -0.053604662 1.4570529e-38 338 283
0.023685781 0.71100003 -0.053604662 1.4478332e-38 339 283
0.024932399 0.71100003 -0.053604662 1.4478332e-38 340 283
0.026142199 0.70999998 -0.053529263 1.4385778e-38 341 283
0.027387066 0.70999998 -0.053529263 1.4109191e-38 342 283
0.028631933 0.70999998 -0.053529263 1.3740408e-38 343 283
0.029876797 0.70999998 -0.053529263 1.3187958e-38 344 283
0.031034 0.708 -0.053378478 1.3003565e-38 345 283
0.03227536 0.708 -0.053378478 1.3006809e-38 346 283
0.033516716 0.708 -0.053378478 1.2914613e-38 347 283
0.034856264 0.70999998 -0.053529263 1.3097926e-38 348 283
0.036101133 0.70999998 -0.053529263 1.319048e-38 349 283
0.037345998 0.70999998 -0.053529263 1.328304e-38 350 283
0.038645219 0.71100003 -0.053604662 1.3375235e-38 351 283
0.039891839 0.71100003 -0.053604662 1.2823864e-38 352 283
0.041254178 0.713 -0.053755447 1.2271049e-38 353 283
0.042504307 0.713 -0.053755447 1.2819546e-38 354 283
0.043999899 0.71700001 -0.054057021 1.2635155e-38 355 283
0.045383278 0.71899998 -0.054207806 1.2544755e-38 356 283
0.0467088 0.72000003 -0.054283202 1.2729506e-38 357 283
0.048171077 0.72299999 -0.054509375 8.767605e-39 358 283
0.049438741 0.72299999 -0.054509375 4.8953885e-39 359 283
0.050846666 0.72500002 -0.054660168 1.4476531e-38 360 283
0.052261602 0.727 -0.054810952 1.6689226e-38 361 283
-0.010197386 0.727 -0.056085624 1.6506281e-38 312 284
-0.0088981669 0.72500002 -0.055931333 1.3002846e-38 313 284
-0.0076059597 0.72299999 -0.055777039 1.2359998e-38 314 284
-0.0063295332 0.722 -0.055699892 1.3742932e-38 315 284
-0.0050496003 0.72000003 -0.055545598 1.4109194e-38 316 284
-0.0037819401 0.71899998 -0.055468451 1.3648215e-38 317 284
-0.0025142799 0.71700001 -0.055314157 1.3372354e-38 318 284
-0.0012553866 0.71600002 -0.055237014 1.3187604e-38 319 284
0 0.71600002 -0.055237014 1.3003939e-38 320 284
0.0012553866 0.71600002 -0.055237014 1.3003939e-38 321 284
0.0025037599 0.71399999 -0.05508272 1.2912462e-38 322 284
0.0037556398 0.71399999 -0.05508272 1.2912462e-38 323 284
0.0050075199 0.71399999 -0.05508272 1.0242755e-38 324 284
0.0062593995 0.71399999 -0.05508272 7.4696355e-40 325 284
0.0075112795 0.71399999 -0.05508272 1.8413062e-42 326 284
0.0087631596 0.71399999 -0.05508272 1.6628032e-39 327 284
0.01001504 0.71399999 -0.05508272 2.1205219e-39 328 284
0.011266919 0.71399999 -0.05508272 2.1205219e-39 329 284
0.012518799 0.71399999 -0.05508272 1.6613388e-39 330 284
0.01377068 0.71399999 -0.05508272 1.8457301e-39 331 284
0.015022559 0.71399999 -0.05508272 3.9236357e-44 332 284
0.016274439 0.71399999 -0.05508272 4.0637655e-44 333 284
0.017526319 0.71399999 -0.05508272 6.7432836e-39 334 284
0.018751899 0.713 -0.055005573 1.0523663e-38 335 284
0.020002026 0.713 -0.055005573 1.3555667e-38 336 284
0.021252153 0.713 -0.055005573 1.3186884e-38 337 284
0.022439159 0.71100003 -0.054851279 1.2910648e-38 338 284
0.023685781 0.71100003 -0.054851279 1.2818452e-38 339 284
0.024897331 0.70999998 -0.054774132 1.2727335e-38 340 284
0.026142199 0.70999998 -0.054774132 1.2819531e-38 341 284
0.027387066 0.70999998 -0.054774132 1.27259e-38 342 284
0.028631933 0.70999998 -0.054774132 1.2357477e-38 343 284
0.029876797 0.70999998 -0.054774132 1.0888109e-38 344 284
0.031034 0.708 -0.054619838 1.1349085e-38 345 284
0.03227536 0.708 -0.054619838 1.3007528e-38 346 284
0.033516716 0.708 -0.054619838 1.3652897e-38 347 284
0.034856264 0.70999998 -0.054774132 1.3743648e-38 348 284
0.036101133 0.70999998 -0.054774132 1.3835844e-38 349 284
0.037345998 0.70999998 -0.054774132 1.374473e-38 350 284
0.038590867 0.70999998 -0.054774132 1.3560339e-38 351 284
0.039891839 0.71100003 -0.054851279 1.3099007e-38 352 284
0.041138459 0.71100003 -0.054851279 1.282242e-38 353 284
0.042504307 0.713 -0.055005573 1.2636234e-38 354 284
0.043999899 0.71700001 -0.055314157 1.2451843e-38 355 284
0.045257039 0.71700001 -0.055314157 1.254511e-38 356 284
0.0467088 0.72000003 -0.055545598 1.254511e-38 357 284
0.048171077 0.72299999 -0.055777039 8.1222258e-39 358 284
0.049438741 0.72299999 -0.055777039 7.0155181e-39 359 284
0.050986931 0.727 -0.056085624 1.6503386e-38 360 284
0.052333489 0.72799999 -0.056162767 1.7517898e-38 361 284
-0.01148784 0.72799999 -0.057439197 1.742535e-38 311 285
-0.010197386 0.727 -0.057360299 1.595418e-38 312 285
-0.0088981669 0.72500002 -0.057202499 1.2081963e-38 313 285
-0.0076059597 0.72299999 -0.057044696 1.2267076e-38 314 285
-0.0063295332 0.722 -0.056965802 1.3742566e-38 315 285
-0.0050496003 0.72000003 -0.056808002 1.3650015e-38 316 285
-0.0037819401 0.71899998 -0.056729097 1.3096841e-38 317 285
-0.0025142799 0.71700001 -0.056571297 1.2912815e-38 318 285
-0.0012553866 0.71600002 -0.056492399 1.2820618e-38 319 285
0 0.71600002 -0.056492399 1.2544757e-38 320 285
0.0012553866 0.71600002 -0.056492399 1.2452562e-38 321 285
0.0025037599 0.71399999 -0.0563346 1.2729153e-38 322 285
0.0037556398 0.71399999 -0.0563346 1.1991588e-38 323 285
0.0050075199 0.71399999 -0.0563346 9.2278769e-39 324 285
0.0062593995 0.71399999 -0.0563346 7.4587894e-40 325 285
0.0075112795 0.71399999 -0.0563346 1.8766049e-40 326 285
0.0087631596 0.71399999 -0.0563346 1.7546261e-39 327 285
0.01001504 0.71399999 -0.0563346 2.1205163e-39 328 285
0.01129848 0.71600002 -0.056492399 2.0283193e-39 329 285
0.012553867 0.71600002 -0.056492399 1.8450098e-39 330 285
0.01377068 0.71399999 -0.0563346 1.8450098e-39 331 285
0.015022559 0.71399999 -0.0563346 4.6929486e-42 332 285
0.016251646 0.713 -0.056255698 4.2038954e-45 333 285
0.017501773 0.713 -0.056255698 4.8942787e-39 334 285
0.018751899 0.713 -0.056255698 8.7664938e-39 335 285
0.020002026 0.713 -0.056255698 1.2726957e-38 336 285
0.021192541 0.71100003 -0.056097899 1.2173783e-38 337 285
0.022439159 0.71100003 -0.056097899 1.1713909e-38 338 285
0.023652466 0.70999998 -0.056018997 1.1529158e-38 339 285
0.024897331 0.70999998 -0.056018997 1.1345493e-38 340 285
0.026142199 0.70999998 -0.056018997 1.1345493e-38 341 285
0.027387066 0.70999998 -0.056018997 1.1989067e-38 342 285
0.028631933 0.70999998 -0.056018997 1.2450045e-38 343 285
0.02979264 0.708 -0.055861197 1.1993383e-38 344 285
0.031034 0.708 -0.055861197 1.2454361e-38 345 285
0.03227536 0.708 -0.055861197 1.3743298e-38 346 285
0.033516716 0.708 -0.055861197 1.4204636e-38 347 285
0.034758076 0.708 -0.055861197 1.4112791e-38 348 285
0.03599944 0.708 -0.055861197 1.4020595e-38 349 285
0.037345998 0.70999998 -0.056018997 1.3928045e-38 350 285
0.038590867 0.70999998 -0.056018997 1.3559264e-38 351 285
0.039835732 0.70999998 -0.056018997 1.2914979e-38 352 285
0.041080594 0.70999998 -0.056018997 1.2454361e-38 353 285
0.042325463 0.70999998 -0.056018997 1.2544038e-38 354 285
0.043938532 0.71600002 -0.056492399 1.2267093e-38 355 285
0.045257039 0.71700001 -0.056571297 1.2269244e-38 356 285
0.046514176 0.71700001 -0.056571297 1.2177048e-38 357 285
0.048437584 0.727 -0.057360299 1.0056161e-38 358 285
0.049712259 0.727 -0.057360299 1.0609334e-38 359 285
0.051057063 0.72799999 -0.057439197 1.7426772e-38 360 285
0.052333489 0.72799999 -0.057439197 1.770336e-38 361 285
0.053609919 0.72799999 -0.057439197 1.6690301e-38 362 285
-0.01148784 0.72799999 -0.058715623 1.7058009e-38 311 286
-0.010197386 0.727 -0.058634974 1.5585396e-38 312 286
-0.0089227129 0.727 -0.058634974 1.2081963e-38 313 286
-0.0076059597 0.72299999 -0.058312356 1.263514e-38 314 286
-0.0063382997 0.72299999 -0.058312356 1.3648932e-38 315 286
-0.0050496003 0.72000003 -0.058070403 1.3280872e-38 316 286
-0.0037872 0.72000003 -0.058070403 1.3004645e-38 317 286
-0.0025212932 0.71899998 -0.057989739 1.2820616e-38 318 286
-0.00125714 0.71700001 -0.057828441 1.2452193e-38 319 286
0 0.71600002 -0.057747785 1.2451124e-38 320 286
0.0012553866 0.71600002 -0.057747785 1.2635155e-38 321 286
0.0025037599 0.71399999 -0.057586476 1.2729153e-38 322 286
0.0037556398 0.71399999 -0.057586476 1.1161467e-38 323 286
0.0050075199 0.71399999 -0.057586476 7.4786682e-39 324 286
0.0062769335 0.71600002 -0.057747785 1.0301646e-40 325 286
0.00753232 0.71600002 -0.057747785 9.6531247e-41 326 286
0.0087877065 0.71600002 -0.057747785 1.8482468e-39 327 286
0.010043093 0.71600002 -0.057747785 1.9379257e-39 328 286
0.01129848 0.71600002 -0.057747785 1.8457301e-39 329 286
0.012553867 0.71600002 -0.057747785 1.8453742e-39 330 286
0.01377068 0.71399999 -0.057586476 1.6613416e-39 331 286
0.015022559 0.71399999 -0.057586476 9.8090893e-45 332 286
0.016251646 0.713 -0.057505824 1.4012985e-44 333 286
0.017501773 0.713 -0.057505824 8.1161049e-39 334 286
0.018751899 0.713 -0.057505824 1.1527345e-38 335 286
0.01994592 0.71100003 -0.057344519 1.34649e-38 336 286
0.021192541 0.71100003 -0.057344519 1.3648932e-38 337 286
0.022439159 0.71100003 -0.057344519 1.3648937e-38 338 286
0.023652466 0.70999998 -0.057263866 1.3648937e-38 339 286
0.024897331 0.70999998 -0.057263866 1.3464547e-38 340 286
0.026142199 0.70999998 -0.057263866 1.3372352e-38 341 286
0.027387066 0.70999998 -0.057263866 1.346455e-38 342 286
0.028631933 0.70999998 -0.057263866 1.3740777e-38 343 286
0.02979264 0.708 -0.057102561 1.3650383e-38 344 286
0.031034 0.708 -0.057102561 1.3558188e-38 345 286
0.03227536 0.708 -0.057102561 1.3467071e-38 346 286
0.033516716 0.708 -0.057102561 1.3743298e-38 347 286
0.034758076 0.708 -0.057102561 1.4018443e-38 348 286
0.03599944 0.708 -0.057102561 1.4018443e-38 349 286
0.037345998 0.70999998 -0.057263866 1.3467071e-38 350 286
0.038590867 0.70999998 -0.057263866 1.3097928e-38 351 286
0.039835732 0.70999998 -0.057263866 1.2821348e-38 352 286
0.041080594 0.70999998 -0.057263866 1.2636957e-38 353 286
0.042325463 0.70999998 -0.057263866 1.2175976e-38 354 286
0.043938532 0.71600002 -0.057747785 1.1622802e-38 355 286
0.045193922 0.71600002 -0.057747785 1.190154e-38 356 286
0.046514176 0.71700001 -0.057828441 1.190154e-38 357 286
0.048437584 0.727 -0.058634974 1.1531661e-38 358 286
0.049712259 0.727 -0.058634974 1.2822399e-38 359 286
0.051057063 0.72799999 -0.058715623 1.7519336e-38 360 286
0.052333489 0.72799999 -0.058715623 1.7150555e-38 361 286
-0.01148784 0.72799999 -0.059992049 1.6779624e-38 311 287
-0.010197386 0.727 -0.059909642 1.4755639e-38 312 287
-0.0089227129 0.727 -0.059909642 1.2358193e-38 313 287
-0.0076270006 0.72500002 -0.059744831 1.3002846e-38 314 287
-0.0063382997 0.72299999 -0.059580017 1.355602e-38 315 287
-0.0050496003 0.72000003 -0.059332799 1.3280156e-38 316 287
-0.0037872 0.72000003 -0.059332799 1.318796e-38 317 287
-0.0025212932 0.71899998 -0.059250388 1.28199e-38 318 287
-0.00125714 0.71700001 -0.059085581 1.2635508e-38 319 287
0 0.71600002 -0.059003171 1.2174897e-38 320 287
0.0012553866 0.71600002 -0.059003171 1.2359289e-38 321 287
0.0025037599 0.71399999 -0.058838356 1.2452206e-38 322 287
0.0037556398 0.71399999 -0.058838356 1.0516098e-38 323 287
0.0050075199 0.71399999 -0.058838356 7.1995436e-39 324 287
0.0062593995 0.71399999 -0.058838356 6.5365389e-40 325 287
0.0075112795 0.71399999 -0.058838356 3.9460565e-42 326 287
0.0087877065 0.71600002 -0.059003171 1.7563833e-39 327 287
0.010043093 0.71600002 -0.059003171 2.2141399e-39 328 287
0.01129848 0.71600002 -0.059003171 2.02975e-39 329 287
0.012553867 0.71600002 -0.059003171 1.6613388e-39 330 287
0.01377068 0.71399999 -0.058838356 1.1078049e-39 331 287
0.015001519 0.713 -0.058755953 4.6957512e-42 332 287
0.01620606 0.71100003 -0.058591139 2.1266358e-39 333 287
0.01745268 0.71100003 -0.058591139 1.2080534e-38 334 287
0.0186993 0.71100003 -0.058591139 1.3555664e-38 335 287
0.01994592 0.71100003 -0.058591139 1.4017368e-38 336 287
0.021192541 0.71100003 -0.058591139 1.4017368e-38 337 287
0.022439159 0.71100003 -0.058591139 1.3649662e-38 338 287
0.023652466 0.70999998 -0.058508728 1.3649662e-38 339 287
0.024897331 0.70999998 -0.058508728 1.3557818e-38 340 287
0.026142199 0.70999998 -0.058508728 1.3465622e-38 341 287
0.027387066 0.70999998 -0.058508728 1.3373424e-38 342 287
0.028631933 0.70999998 -0.058508728 1.3465619e-38 343 287
0.02979264 0.708 -0.058343921 1.3281954e-38 344 287
0.031034 0.708 -0.058343921 1.3281954e-38 345 287
0.03227536 0.708 -0.058343921 1.3465636e-38 346 287
0.033516716 0.708 -0.058343921 1.3465636e-38 347 287
0.034758076 0.708 -0.058343921 1.3375238e-38 348 287
0.03599944 0.708 -0.058343921 1.3283043e-38 349 287
0.037345998 0.70999998 -0.058508728 1.3006815e-38 350 287
0.038590867 0.70999998 -0.058508728 1.2637673e-38 351 287
0.039835732 0.70999998 -0.058508728 1.2269612e-38 352 287
0.041080594 0.70999998 -0.058508728 1.2361809e-38 353 287
0.042325463 0.70999998 -0.058508728 1.2267093e-38 354 287
0.043570329 0.70999998 -0.058508728 1.0515735e-38 355 287
0.045067675 0.71399999 -0.058838356 1.0795914e-38 356 287
0.046319555 0.71399999 -0.058838356 1.1164338e-38 357 287
-0.01148784 0.72799999 -0.061268479 1.6319718e-38 311 288
-0.010197386 0.727 -0.061184317 1.3926595e-38 312 288
-0.0089227129 0.727 -0.061184317 1.2359629e-38 313 288
-0.0076270006 0.72500002 -0.061016005 1.3554218e-38 314 288
-0.0063382997 0.72299999 -0.060847677 1.373861e-38 315 288
-0.0050496003 0.72000003 -0.060595199 1.3371626e-38 316 288
-0.0037872 0.72000003 -0.060595199 1.3095039e-38 317 288
-0.0025212932 0.71899998 -0.060511041 1.2635505e-38 318 288
-0.00125714 0.71700001 -0.060342718 1.2359279e-38 319 288
0 0.71700001 -0.060342718 1.1990862e-38 320 288
0.0012553866 0.71600002 -0.06025856 1.1990862e-38 321 288
0.0025107733 0.71600002 -0.06025856 1.1807187e-38 322 288
0.00376616 0.71600002 -0.06025856 9.9636329e-39 323 288
0.0050075199 0.71399999 -0.060090236 6.8347184e-39 324 288
0.0062593995 0.71399999 -0.060090236 1.9487087e-39 325 288
0.0075112795 0.71399999 -0.060090236 2.8305108e-40 326 288
0.0087631596 0.71399999 -0.060090236 6.8243235e-42 327 288
0.010043093 0.71600002 -0.06025856 1.1085084e-39 328 288
0.01129848 0.71600002 -0.06025856 1.2932598e-39 329 288
0.012518799 0.71399999 -0.060090236 4.6985538e-42 330 288
0.01377068 0.71399999 -0.060090236 2.1776178e-42 331 288
0.015001519 0.713 -0.060006075 5.4456813e-39 332 288
0.01620606 0.71100003 -0.059837762 9.4100933e-39 333 288
0.01745268 0.71100003 -0.059837762 1.3925523e-38 334 288
0.0186993 0.71100003 -0.059837762 1.3925523e-38 335 288
0.01994592 0.71100003 -0.059837762 1.3189761e-38 336 288
0.021192541 0.71100003 -0.059837762 1.3005011e-38 337 288
0.022439159 0.71100003 -0.059837762 1.3097207e-38 338 288
0.023652466 0.70999998 -0.059753593 1.3097207e-38 339 288
0.024897331 0.70999998 -0.059753593 1.3280878e-38 340 288
0.026142199 0.70999998 -0.059753593 1.3280878e-38 341 288
0.027387066 0.70999998 -0.059753593 1.3097207e-38 342 288
0.028631933 0.70999998 -0.059753593 1.3097207e-38 343 288
0.029876797 0.70999998 -0.059753593 1.3280878e-38 344 288
0.031034 0.708 -0.059585281 1.3280878e-38 345 288
0.03227536 0.708 -0.059585281 1.3280522e-38 346 288
0.033516716 0.708 -0.059585281 1.3372717e-38 347 288
0.034758076 0.708 -0.059585281 1.3281601e-38 348 288
0.03599944 0.708 -0.059585281 1.3281601e-38 349 288
0.0372408 0.708 -0.059585281 1.2729869e-38 350 288
0.038482159 0.708 -0.059585281 1.2176695e-38 351 288
0.039723519 0.708 -0.059585281 1.2176342e-38 352 288
0.040964879 0.708 -0.059585281 1.2268896e-38 353 288
0.042206239 0.708 -0.059585281 1.0700859e-38 354 288
0.043570329 0.70999998 -0.059753593 7.4740117e-39 355 288
0.045067675 0.71399999 -0.060090236 1.0608293e-38 356 288
0.046319555 0.71399999 -0.060090236 1.2636957e-38 357 288
-0.010169334 0.72500002 -0.062287167 1.4108469e-38 312 289
-0.0088981669 0.72500002 -0.062287167 1.3186511e-38 313 289
-0.0076270006 0.72500002 -0.062287167 1.2175599e-38 314 289
-0.0063382997 0.72299999 -0.062115334 1.1622427e-38 315 289
-0.0050496003 0.72000003 -0.061857603 1.2451827e-38 316 289
-0.0037872 0.72000003 -0.061857603 1.282025e-38 317 289
-0.0025248001 0.72000003 -0.061857603 1.2819178e-38 318 289
-0.0012606466 0.71899998 -0.061771683 1.2634787e-38 319 289
0 0.71700001 -0.061599858 1.1623158e-38 320 289
0.0012553866 0.71600002 -0.061513945 1.0793398e-38 321 289
0.0025107733 0.71600002 -0.061513945 9.230381e-39 322 289
0.00376616 0.71600002 -0.061513945 9.8757504e-39 323 289
0.0050215465 0.71600002 -0.061513945 1.0518589e-38 324 289
0.0062593995 0.71399999 -0.061342116 9.2278503e-39 325 289
0.0075112795 0.71399999 -0.061342116 7.7473028e-39 326 289
0.0087631596 0.71399999 -0.061342116 5.1658265e-39 327 289
0.010043093 0.71600002 -0.061513945 3.4112383e-39 328 289
0.011266919 0.71399999 -0.061342116 1.4751301e-39 329 289
0.012518799 0.71399999 -0.061342116 1.0086546e-41 330 289
0.013751393 0.713 -0.061256204 2.9099644e-40 331 289
0.015001519 0.713 -0.061256204 1.0509967e-38 332 289
0.01620606 0.71100003 -0.061084379 1.3460587e-38 333 289
0.01745268 0.71100003 -0.061084379 1.3648937e-38 334 289
0.0186993 0.71100003 -0.061084379 1.3372352e-38 335 289
0.019917866 0.70999998 -0.060998458 1.2820618e-38 336 289
0.021162732 0.70999998 -0.060998458 1.2912815e-38 337 289
0.022407599 0.70999998 -0.060998458 1.2912818e-38 338 289
0.023652466 0.70999998 -0.060998458 1.2912818e-38 339 289
0.024897331 0.70999998 -0.060998458 1.2912815e-38 340 289
0.026142199 0.70999998 -0.060998458 1.3005011e-38 341 289
0.027387066 0.70999998 -0.060998458 1.2821702e-38 342 289
0.028631933 0.70999998 -0.060998458 1.2821702e-38 343 289
0.029876797 0.70999998 -0.060998458 1.3005014e-38 344 289
0.031034 0.708 -0.060826641 1.3005014e-38 345 289
0.03227536 0.708 -0.060826641 1.3004658e-38 346 289
0.033516716 0.708 -0.060826641 1.2912462e-38 347 289
0.034758076 0.708 -0.060826641 1.2637676e-38 348 289
0.03599944 0.708 -0.060826641 1.2637676e-38 349 289
0.0372408 0.708 -0.060826641 1.2453286e-38 350 289
0.038482159 0.708 -0.060826641 1.2268894e-38 351 289
0.039723519 0.708 -0.060826641 1.2452209e-38 352 289
0.040964879 0.708 -0.060826641 1.1530612e-38 353 289
0.042206239 0.708 -0.060826641 9.7792612e-39 354 289
0.043570329 0.70999998 -0.060998458 7.2899806e-39 355 289
0.044815198 0.70999998 -0.060998458 1.1526291e-38 356 289
-0.010169334 0.72500002 -0.063558333 1.4936784e-38 312 290
-0.0088981669 0.72500002 -0.063558333 1.3646045e-38 313 290
-0.0076270006 0.72500002 -0.063558333 1.0701901e-38 314 290
-0.0063382997 0.72299999 -0.063382991 8.1204251e-39 315 290
-0.0050496003 0.72000003 -0.06312 9.595558e-39 316 290
-0.0037872 0.72000003 -0.06312 1.1439112e-38 317 290
-0.0025248001 0.72000003 -0.06312 1.2910648e-38 318 290
-0.0012606466 0.71899998 -0.063032329 1.3095039e-38 319 290
0 0.71700001 -0.062856995 1.153023e-38 320 290
0.00125714 0.71700001 -0.062856995 1.0239492e-38 321 290
0.0025107733 0.71600002 -0.062769331 8.4024196e-39 322 290
