# .PCD v.7 - Point Cloud Data file format
FIELDS x y z rgb imX imY
SIZE 4 4 4 4 4 4
TYPE F F F F F F
COUNT 1 1 1 1 1 1
WIDTH 853
HEIGHT 1
VIEWPOINT 0 0 0 1 0 0 0
POINTS 853
DATA ascii
0.012518799 0.71399999 -0.048823316 8.8338514e-39 330 279
0.013751393 0.713 -0.048754938 8.8338514e-39 331 279
0.015001519 0.713 -0.048754938 9.0153616e-39 332 279
0.016274439 0.71399999 -0.048823316 1.0398655e-38 333 279
0.017501773 0.713 -0.048754938 1.3540866e-38 334 279
0.018751899 0.713 -0.048754938 1.4186236e-38 335 279
0.020002026 0.713 -0.048754938 1.3814564e-38 336 279
0.021192541 0.71100003 -0.048618179 1.114089e-38 337 279
0.022439159 0.71100003 -0.048618179 9.6661064e-39 338 279
0.023685781 0.71100003 -0.048618179 9.1129326e-39 339 279
0.025002534 0.713 -0.048754938 8.8342017e-39 340 279
0.026252659 0.713 -0.048754938 8.7420061e-39 341 279
0.027502786 0.713 -0.048754938 8.2824657e-39 342 279
0.028793238 0.71399999 -0.048823316 8.19027e-39 343 279
0.03012928 0.71600002 -0.048960082 7.4555861e-39 344 279
0.031384666 0.71600002 -0.048960082 7.3633904e-39 345 279
0.032640055 0.71600002 -0.048960082 7.2712074e-39 346 279
0.03389544 0.71600002 -0.048960082 7.4555987e-39 347 279
0.035199918 0.71700001 -0.04902846 6.9063934e-39 348 279
0.036558751 0.71899998 -0.049165215 7.1826215e-39 349 279
0.037819397 0.71899998 -0.049165215 6.7256119e-39 350 279
0.039134402 0.72000003 -0.0492336 7.18659e-39 351 279
0.040396802 0.72000003 -0.0492336 6.8210501e-39 352 279
0.041659199 0.72000003 -0.0492336 6.7288545e-39 353 279
0.043040827 0.722 -0.04937036 5.6239586e-39 354 279
0.044306733 0.722 -0.04937036 6.8221431e-39 355 279
0.045572639 0.722 -0.04937036 1.180467e-38 356 279
0.046838548 0.722 -0.04937036 1.6507006e-38 357 279
0.048104454 0.722 -0.04937036 1.7517558e-38 358 279
0.0025142799 0.71700001 -0.0502856 3.5877038e-39 322 280
0.0037714199 0.71700001 -0.0502856 3.5877038e-39 323 280
0.0050215465 0.71600002 -0.050215468 7.5459796e-39 324 280
0.0062769335 0.71600002 -0.050215468 8.7445228e-39 325 280
0.00753232 0.71600002 -0.050215468 9.6636022e-39 326 280
0.0087631596 0.71399999 -0.050075196 9.3873755e-39 327 280
0.01001504 0.71399999 -0.050075196 9.6607184e-39 328 280
0.011266919 0.71399999 -0.050075196 9.4763271e-39 329 280
0.012501267 0.713 -0.050005067 9.0175196e-39 330 280
0.013751393 0.713 -0.050005067 9.1097152e-39 331 280
0.015001519 0.713 -0.050005067 9.4813872e-39 332 280
0.016251646 0.713 -0.050005067 1.1232745e-38 333 280
0.017501773 0.713 -0.050005067 1.4373514e-38 334 280
0.0186993 0.71100003 -0.049864799 1.5387665e-38 335 280
0.01994592 0.71100003 -0.049864799 1.5109265e-38 336 280
0.021162732 0.70999998 -0.049794663 1.2896569e-38 337 280
0.022407599 0.70999998 -0.049794663 1.0773177e-38 338 280
0.023685781 0.71100003 -0.049864799 8.8370688e-39 339 280
0.024932399 0.71100003 -0.049864799 9.1100655e-39 340 280
0.026179021 0.71100003 -0.049864799 8.9256743e-39 341 280
0.027425639 0.71100003 -0.049864799 8.3739424e-39 342 280
0.028752912 0.713 -0.050005067 8.2817468e-39 343 280
0.030045118 0.71399999 -0.050075196 7.4552301e-39 344 280
0.031296998 0.71399999 -0.050075196 7.4552301e-39 345 280
0.032640055 0.71600002 -0.050215468 6.9056619e-39 346 280
0.03389544 0.71600002 -0.050215468 6.9056619e-39 347 280
0.035199918 0.71700001 -0.0502856 6.7238014e-39 348 280
0.036558751 0.71899998 -0.050425861 7.0922238e-39 349 280
0.037819397 0.71899998 -0.050425861 6.6352155e-39 350 280
0.039134402 0.72000003 -0.050496001 7.0961922e-39 351 280
0.040396802 0.72000003 -0.050496001 6.8203284e-39 352 280
0.041659199 0.72000003 -0.050496001 5.8983721e-39 353 280
0.043040827 0.722 -0.050636265 5.8051031e-39 354 280
0.044306733 0.722 -0.050636265 7.0958419e-39 355 280
0.045572639 0.722 -0.050636265 1.097347e-38 356 280
0.046838548 0.722 -0.050636265 1.604423e-38 357 280
0.048171077 0.72299999 -0.050706398 1.7058022e-38 358 280
0.00125714 0.71700001 -0.051542737 1.0604312e-38 321 281
0.0025142799 0.71700001 -0.051542737 4.4185505e-39 322 281
0.00376616 0.71600002 -0.051470853 7.0000281e-39 323 281
0.0050215465 0.71600002 -0.051470853 1.0036357e-38 324 281
0.0062593995 0.71399999 -0.05132708 1.0865758e-38 325 281
0.0075112795 0.71399999 -0.05132708 1.2065014e-38 326 281
0.0087631596 0.71399999 -0.05132708 1.1511481e-38 327 281
0.010001013 0.713 -0.051255193 1.0675593e-38 328 281
0.011251139 0.713 -0.051255193 9.2926589e-39 329 281
0.012501267 0.713 -0.051255193 8.8331185e-39 330 281
0.01371282 0.71100003 -0.051111419 8.9256743e-39 331 281
0.014959441 0.71100003 -0.051111419 9.8501613e-39 332 281
0.01620606 0.71100003 -0.051111419 1.11409e-38 333 281
0.01745268 0.71100003 -0.051111419 1.4098356e-38 334 281
0.0186993 0.71100003 -0.051111419 1.5204704e-38 335 281
0.019917866 0.70999998 -0.051039528 1.5570959e-38 336 281
0.021162732 0.70999998 -0.051039528 1.3911797e-38 337 281
0.022407599 0.70999998 -0.051039528 1.1972436e-38 338 281
0.023652466 0.70999998 -0.051039528 8.8381436e-39 339 281
0.024932399 0.71100003 -0.051111419 9.2951757e-39 340 281
0.026179021 0.71100003 -0.051111419 9.0185888e-39 341 281
0.027425639 0.71100003 -0.051111419 8.2813993e-39 342 281
0.028672259 0.71100003 -0.051111419 8.1892036e-39 343 281
0.029918881 0.71100003 -0.051111419 7.0878952e-39 344 281
0.031253166 0.713 -0.051255193 7.2722864e-39 345 281
0.032640055 0.71600002 -0.051470853 6.7227182e-39 346 281
0.03389544 0.71600002 -0.051470853 6.9071094e-39 347 281
0.035150826 0.71600002 -0.051470853 6.8163627e-39 348 281
0.036457058 0.71700001 -0.051542737 7.1851439e-39 349 281
0.037819397 0.71899998 -0.05168651 6.6355812e-39 350 281
0.039080046 0.71899998 -0.05168651 6.6355812e-39 351 281
0.040396802 0.72000003 -0.051758397 6.8174628e-39 352 281
0.041659199 0.72000003 -0.051758397 6.1720934e-39 353 281
0.043040827 0.722 -0.051902171 6.4476026e-39 354 281
0.044306733 0.722 -0.051902171 7.6461444e-39 355 281
0.045572639 0.722 -0.051902171 1.0509967e-38 356 281
0.046838548 0.722 -0.051902171 1.5396337e-38 357 281
0.048171077 0.72299999 -0.051974058 1.6413003e-38 358 281
0 0.71700001 -0.052799881 1.3739317e-38 320 282
0.00125714 0.71700001 -0.052799881 9.0373381e-39 321 282
0.0025142799 0.71700001 -0.052799881 5.1543037e-39 322 282
0.00376616 0.71600002 -0.052726239 8.1964007e-39 323 282
0.0050215465 0.71600002 -0.052726239 1.0867909e-38 324 282
0.0062593995 0.71399999 -0.052578956 1.2158648e-38 325 282
0.0075112795 0.71399999 -0.052578956 1.234556e-38 326 282
0.0087508867 0.713 -0.052505318 1.1515799e-38 327 282
0.010001013 0.713 -0.052505318 1.077318e-38 328 282
0.01121958 0.71100003 -0.052358042 8.4679303e-39 329 282
0.0124662 0.71100003 -0.052358042 8.4672171e-39 330 282
0.01371282 0.71100003 -0.052358042 8.6516083e-39 331 282
0.014959441 0.71100003 -0.052358042 8.8367381e-39 332 282
0.016183265 0.70999998 -0.052284397 1.0219673e-38 333 282
0.017428132 0.70999998 -0.052284397 1.3914684e-38 334 282
0.018672999 0.70999998 -0.052284397 1.5021033e-38 335 282
0.019917866 0.70999998 -0.052284397 1.5112502e-38 336 282
0.021162732 0.70999998 -0.052284397 1.4467133e-38 337 282
0.022407599 0.70999998 -0.052284397 1.3356459e-38 338 282
0.023652466 0.70999998 -0.052284397 1.0037417e-38 339 282
0.024897331 0.70999998 -0.052284397 9.7557979e-39 340 282
0.026142199 0.70999998 -0.052284397 9.0182328e-39 341 282
0.027425639 0.71100003 -0.052358042 8.2813993e-39 342 282
0.028672259 0.71100003 -0.052358042 8.0966493e-39 343 282
0.029918881 0.71100003 -0.052358042 6.9971415e-39 344 282
0.031253166 0.713 -0.052505318 7.0893371e-39 345 282
0.032548878 0.71399999 -0.052578956 6.7238014e-39 346 282
0.033800758 0.71399999 -0.052578956 7.0000281e-39 347 282
0.035150826 0.71600002 -0.052726239 6.9092828e-39 348 282
0.036457058 0.71700001 -0.052799881 7.0014785e-39 349 282
0.037714198 0.71700001 -0.052799881 6.8181802e-39 350 282
0.039080046 0.71899998 -0.05294716 6.6337876e-39 351 282
0.040340692 0.71899998 -0.05294716 6.5405199e-39 352 282
0.041659199 0.72000003 -0.053020801 6.1717374e-39 353 282
0.043040827 0.722 -0.053168077 6.5397983e-39 354 282
0.044306733 0.722 -0.053168077 7.4613944e-39 355 282
0.045572639 0.722 -0.053168077 9.9564302e-39 356 282
0.046838548 0.722 -0.053168077 1.4658409e-38 357 282
0.048171077 0.72299999 -0.053241719 1.6412637e-38 358 282
0 0.71700001 -0.054057021 1.3092496e-38 320 283
0.00125714 0.71700001 -0.054057021 7.2845296e-39 321 283
0.0025107733 0.71600002 -0.053981625 5.0628087e-39 322 283
0.00376616 0.71600002 -0.053981625 8.474047e-39 323 283
0.0050075199 0.71399999 -0.053830836 1.1330319e-38 324 283
0.0062593995 0.71399999 -0.053830836 1.2344112e-38 325 283
0.0075007593 0.713 -0.053755447 1.2253364e-38 326 283
0.0087508867 0.713 -0.053755447 1.1607995e-38 327 283
0.0099589331 0.70999998 -0.053529263 1.1049761e-38 328 283
0.011203799 0.70999998 -0.053529263 8.7452291e-39 329 283
0.012448666 0.70999998 -0.053529263 8.3753675e-39 330 283
0.013693533 0.70999998 -0.053529263 8.5597602e-39 331 283
0.014938398 0.70999998 -0.053529263 8.4665108e-39 332 283
0.016183265 0.70999998 -0.053529263 1.0125672e-38 333 283
0.017428132 0.70999998 -0.053529263 1.3729946e-38 334 283
0.018672999 0.70999998 -0.053529263 1.5204716e-38 335 283
0.019917866 0.70999998 -0.053529263 1.4929208e-38 336 283
0.021162732 0.70999998 -0.053529263 1.4837013e-38 337 283
0.022407599 0.70999998 -0.053529263 1.428239e-38 338 283
0.023652466 0.70999998 -0.053529263 1.0410175e-38 339 283
0.024897331 0.70999998 -0.053529263 9.2955456e-39 340 283
0.026142199 0.70999998 -0.053529263 8.373948e-39 341 283
0.027387066 0.70999998 -0.053529263 7.8218575e-39 342 283
0.028672259 0.71100003 -0.053604662 7.9144118e-39 343 283
0.029918881 0.71100003 -0.053604662 7.0893399e-39 344 283
0.031165501 0.71100003 -0.053604662 7.3655666e-39 345 283
0.032503292 0.713 -0.053755447 6.8163655e-39 346 283
0.033800758 0.71399999 -0.053830836 7.0007568e-39 347 283
0.035052639 0.71399999 -0.053830836 7.0018456e-39 348 283
0.036406212 0.71600002 -0.053981625 7.0018456e-39 349 283
0.037714198 0.71700001 -0.054057021 6.8174572e-39 350 283
0.039080046 0.71899998 -0.054207806 6.6330659e-39 351 283
0.040340692 0.71899998 -0.054207806 6.5401514e-39 352 283
0.041659199 0.72000003 -0.054283202 6.4479558e-39 353 283
0.042921603 0.72000003 -0.054283202 6.5426681e-39 354 283
0.044306733 0.722 -0.054433983 7.0958419e-39 355 283
0.04563576 0.72299999 -0.054509375 9.586933e-39 356 283
0.046903417 0.72299999 -0.054509375 1.3828291e-38 357 283
0.048171077 0.72299999 -0.054509375 1.6504838e-38 358 283
0 0.71700001 -0.055314157 1.2907383e-38 320 284
0.0012553866 0.71600002 -0.055237014 6.2692958e-39 321 284
0.0025107733 0.71600002 -0.055237014 4.0540672e-39 322 284
0.0037556398 0.71399999 -0.05508272 7.9262836e-39 323 284
0.0050075199 0.71399999 -0.05508272 1.1334665e-38 324 284
0.0062506334 0.713 -0.055005573 1.2717958e-38 325 284
0.0074797203 0.71100003 -0.054851279 1.382071e-38 326 284
0.0087140659 0.70999998 -0.054774132 1.3083145e-38 327 284
0.0099589331 0.70999998 -0.054774132 1.1513632e-38 328 284
0.011203799 0.70999998 -0.054774132 8.8399582e-39 329 284
0.0124136 0.708 -0.054619838 8.1920553e-39 330 284
0.013654959 0.708 -0.054619838 8.2842509e-39 331 284
0.01489632 0.708 -0.054619838 8.4675828e-39 332 284
0.016183265 0.70999998 -0.054774132 9.5742905e-39 333 284
0.017428132 0.70999998 -0.054774132 1.2529602e-38 334 284
0.018672999 0.70999998 -0.054774132 1.2437407e-38 335 284
0.019917866 0.70999998 -0.054774132 1.2345577e-38 336 284
0.021162732 0.70999998 -0.054774132 1.3728511e-38 337 284
0.022407599 0.70999998 -0.054774132 1.4098371e-38 338 284
0.023652466 0.70999998 -0.054774132 1.0226156e-38 339 284
0.024897331 0.70999998 -0.054774132 8.1006051e-39 340 284
0.026142199 0.70999998 -0.054774132 6.9938975e-39 341 284
0.027387066 0.70999998 -0.054774132 7.6389011e-39 342 284
0.028631933 0.70999998 -0.054774132 7.8232924e-39 343 284
0.029876797 0.70999998 -0.054774132 6.9063906e-39 344 284
0.031165501 0.71100003 -0.054851279 7.1829775e-39 345 284
0.032503292 0.713 -0.055005573 6.6334162e-39 346 284
0.033753417 0.713 -0.055005573 6.8181662e-39 347 284
0.035052639 0.71399999 -0.05508272 7.0018456e-39 348 284
0.036406212 0.71600002 -0.055237014 6.8178131e-39 349 284
0.037661601 0.71600002 -0.055237014 6.7256175e-39 350 284
0.038971342 0.71700001 -0.055314157 6.4486718e-39 351 284
0.040340692 0.71899998 -0.055468451 6.5394213e-39 352 284
0.041659199 0.72000003 -0.055545598 6.723814e-39 353 284
0.042921603 0.72000003 -0.055545598 6.7281356e-39 354 284
0.044306733 0.722 -0.055699892 6.9125269e-39 355 284
0.04563576 0.72299999 -0.055777039 8.6653354e-39 356 284
0.046903417 0.72299999 -0.055777039 1.281378e-38 357 284
0.048171077 0.72299999 -0.055777039 1.6412284e-38 358 284
0 0.71600002 -0.056492399 1.2356012e-38 320 285
0.0012553866 0.71600002 -0.056492399 7.193057e-39 321 285
0.0025037599 0.71399999 -0.0563346 7.0097616e-39 322 285
0.0037556398 0.71399999 -0.0563346 9.4990436e-39 323 285
0.0050005065 0.713 -0.056255698 1.2169861e-38 324 285
0.0062330998 0.71100003 -0.056097899 1.3552795e-38 325 285
0.0074691991 0.70999998 -0.056018997 1.5115786e-38 326 285
0.0087140659 0.70999998 -0.056018997 1.4101635e-38 327 285
0.0099589331 0.70999998 -0.056018997 1.262756e-38 328 285
0.01117224 0.708 -0.055861197 1.0598897e-38 329 285
0.0124136 0.708 -0.055861197 9.3059783e-39 330 285
0.013654959 0.708 -0.055861197 7.9230438e-39 331 285
0.01489632 0.708 -0.055861197 7.7339778e-39 332 285
0.01613768 0.708 -0.055861197 7.9187278e-39 333 285
0.017379038 0.708 -0.055861197 9.6711679e-39 334 285
0.0186204 0.708 -0.055861197 9.1179941e-39 335 285
0.01986176 0.708 -0.055861197 8.1052869e-39 336 285
0.021103119 0.708 -0.055861197 1.0225786e-38 337 285
0.022344479 0.708 -0.055861197 1.2989873e-38 338 285
0.023585839 0.708 -0.055861197 1.0131808e-38 339 285
0.024827199 0.708 -0.055861197 8.3775634e-39 340 285
0.026068559 0.708 -0.055861197 7.2708571e-39 341 285
0.027387066 0.70999998 -0.056018997 7.8225861e-39 342 285
0.028631933 0.70999998 -0.056018997 7.8225861e-39 343 285
0.029876797 0.70999998 -0.056018997 6.8145607e-39 344 285
0.031165501 0.71100003 -0.056097899 6.9993121e-39 345 285
0.032412119 0.71100003 -0.056097899 6.633782e-39 346 285
0.033753417 0.713 -0.056255698 6.7263363e-39 347 285
0.035052639 0.71399999 -0.0563346 6.7259804e-39 348 285
0.036304519 0.71399999 -0.0563346 6.6337848e-39 349 285
0.037661601 0.71600002 -0.056492399 6.5408675e-39 350 285
0.038916986 0.71600002 -0.056492399 6.3564762e-39 351 285
0.040228479 0.71700001 -0.056571297 6.0802452e-39 352 285
0.041601337 0.71899998 -0.056729097 6.633419e-39 353 285
0.042921603 0.72000003 -0.056808002 6.7274139e-39 354 285
0.044306733 0.722 -0.056965802 7.1883907e-39 355 285
0.04563576 0.72299999 -0.057044696 8.2032783e-39 356 285
0.046903417 0.72299999 -0.057044696 1.2075495e-38 357 285
0.048637468 0.73000002 -0.057597004 1.6044227e-38 358 285
0 0.71600002 -0.057747785 1.2265631e-38 320 286
0.00125188 0.71399999 -0.057586476 1.1896849e-38 321 286
0.0025037599 0.71399999 -0.057586476 1.3281954e-38 322 286
0.0037503797 0.713 -0.057505824 1.4203551e-38 323 286
0.0049864799 0.71100003 -0.057344519 1.4663459e-38 324 286
0.0062243328 0.70999998 -0.057263866 1.4663459e-38 325 286
0.0074691991 0.70999998 -0.057263866 1.4846406e-38 326 286
0.0087140659 0.70999998 -0.057263866 1.4293232e-38 327 286
0.0099589331 0.70999998 -0.057263866 1.4381096e-38 328 286
0.01117224 0.708 -0.057102561 1.4381096e-38 329 286
0.0124136 0.708 -0.057102561 1.3370534e-38 330 286
0.013654959 0.708 -0.057102561 1.2079795e-38 331 286
0.01489632 0.708 -0.057102561 1.1336468e-38 332 286
0.01613768 0.708 -0.057102561 8.7549905e-39 333 286
0.017379038 0.708 -0.057102561 5.6177999e-39 334 286
0.0186204 0.708 -0.057102561 4.9724305e-39 335 286
0.01986176 0.708 -0.057102561 4.5085685e-39 336 286
0.021103119 0.708 -0.057102561 5.7993073e-39 337 286
0.022344479 0.708 -0.057102561 8.0105871e-39 338 286
0.023585839 0.708 -0.057102561 8.7481522e-39 339 286
0.024827199 0.708 -0.057102561 8.1020639e-39 340 286
0.026068559 0.708 -0.057102561 7.5492488e-39 341 286
0.027309919 0.708 -0.057102561 7.4545295e-39 342 286
0.028631933 0.70999998 -0.057263866 7.7307562e-39 343 286
0.029876797 0.70999998 -0.057263866 6.9060402e-39 344 286
0.031121666 0.70999998 -0.057263866 7.1826271e-39 345 286
0.032412119 0.71100003 -0.057344519 6.5408675e-39 346 286
0.033753417 0.713 -0.057505824 6.6330631e-39 347 286
0.035052639 0.71399999 -0.057586476 6.633419e-39 348 286
0.036304519 0.71399999 -0.057586476 6.5412234e-39 349 286
0.037661601 0.71600002 -0.057747785 6.5394213e-39 350 286
0.038916986 0.71600002 -0.057747785 6.0784446e-39 351 286
0.040228479 0.71700001 -0.057828441 6.44686e-39 352 286
0.041601337 0.71899998 -0.057989739 6.8156439e-39 353 286
0.042921603 0.72000003 -0.058070403 7.5546466e-39 354 286
0.044368099 0.72299999 -0.058312356 7.8315937e-39 355 286
0.04563576 0.72299999 -0.058312356 8.0192401e-39 356 286
0.046903417 0.72299999 -0.058312356 1.0969502e-38 357 286
0.048637468 0.73000002 -0.058876935 1.5215548e-38 358 286
0 0.71399999 -0.058838356 1.1896866e-38 320 287
0.00125188 0.71399999 -0.058838356 1.3003212e-38 321 287
0.0025002533 0.713 -0.058755953 1.5306307e-38 322 287
0.0037398601 0.71100003 -0.058591139 1.5306307e-38 323 287
0.0049794666 0.70999998 -0.058508728 1.4846408e-38 324 287
0.0062243328 0.70999998 -0.058508728 1.4753854e-38 325 287
0.0074481601 0.708 -0.058343921 1.5029002e-38 326 287
0.008689519 0.708 -0.058343921 1.4291437e-38 327 287
0.0099308798 0.708 -0.058343921 1.374078e-38 328 287
0.01117224 0.708 -0.058343921 1.4017368e-38 329 287
0.012396066 0.70700002 -0.05826151 1.4293232e-38 330 287
0.013635674 0.70700002 -0.05826151 1.4201036e-38 331 287
0.01487528 0.70700002 -0.05826151 1.3277988e-38 332 287
0.01613768 0.708 -0.058343921 1.1249684e-38 333 287
0.017354494 0.70700002 -0.05826151 9.2155819e-39 334 287
0.018594101 0.70700002 -0.05826151 5.7121466e-39 335 287
0.019833706 0.70700002 -0.05826151 5.0624429e-39 336 287
0.021103119 0.708 -0.058343921 4.6933003e-39 337 287
0.022344479 0.708 -0.058343921 5.7971563e-39 338 287
0.023585839 0.708 -0.058343921 7.5485132e-39 339 287
0.024827199 0.708 -0.058343921 7.6396396e-39 340 287
0.026068559 0.708 -0.058343921 7.547444e-39 341 287
0.027309919 0.708 -0.058343921 7.0889868e-39 342 287
0.028631933 0.70999998 -0.058508728 7.0889868e-39 343 287
0.029876797 0.70999998 -0.058508728 6.3557531e-39 344 287
0.031121666 0.70999998 -0.058508728 6.4479502e-39 345 287
0.032412119 0.71100003 -0.058591139 6.0816942e-39 346 287
0.033753417 0.713 -0.058755953 5.9894986e-39 347 287
0.035052639 0.71399999 -0.058838356 5.9880622e-39 348 287
0.036304519 0.71399999 -0.058838356 5.7118355e-39 349 287
0.037661601 0.71600002 -0.059003171 5.9851812e-39 350 287
0.038916986 0.71600002 -0.059003171 5.8926268e-39 351 287
0.040228479 0.71700001 -0.059085581 5.9873279e-39 352 287
0.041601337 0.71899998 -0.059250388 7.0014785e-39 353 287
0.042921603 0.72000003 -0.059332799 7.0961894e-39 354 287
0.044306733 0.722 -0.059497613 7.8337545e-39 355 287
0.04563576 0.72299999 -0.059580017 7.3745966e-39 356 287
0.047033165 0.72500002 -0.059744831 9.034118e-39 357 287
0.048704091 0.73100001 -0.06023927 1.4109922e-38 358 287
0 0.713 -0.060006075 1.2080887e-38 320 288
0.0012501266 0.713 -0.060006075 1.3740408e-38 321 288
0.0024932399 0.71100003 -0.059837762 1.5488888e-38 322 288
0.0037345996 0.70999998 -0.059753593 1.5304497e-38 323 288
0.0049794666 0.70999998 -0.059753593 1.456873e-38 324 288
0.0062067998 0.708 -0.059585281 1.438398e-38 325 288
0.0074481601 0.708 -0.059585281 1.419959e-38 326 288
0.008689519 0.708 -0.059585281 1.3369831e-38 327 288
0.0099308798 0.708 -0.059585281 1.2727704e-38 328 288
0.011156459 0.70700002 -0.059501119 1.3096488e-38 329 288
0.012396066 0.70700002 -0.059501119 1.3004661e-38 330 288
0.013635674 0.70700002 -0.059501119 1.3004661e-38 331 288
0.01487528 0.70700002 -0.059501119 1.318761e-38 332 288
0.016092092 0.70599997 -0.059416957 1.3095414e-38 333 288
0.017329946 0.70599997 -0.059416957 1.3736443e-38 334 288
0.018567799 0.70599997 -0.059416957 1.1339715e-38 335 288
0.019805651 0.70599997 -0.059416957 8.3858198e-39 336 288
0.021073313 0.70700002 -0.059501119 5.2511698e-39 337 288
0.022312919 0.70700002 -0.059501119 6.0712153e-39 338 288
0.023585839 0.708 -0.059585281 7.177923e-39 339 288
0.024827199 0.708 -0.059585281 7.1797405e-39 340 288
0.026068559 0.708 -0.059585281 7.0875448e-39 341 288
0.027309919 0.708 -0.059585281 6.4461383e-39 342 288
0.028631933 0.70999998 -0.059753593 6.4461383e-39 343 288
0.029876797 0.70999998 -0.059753593 6.3543112e-39 344 288
0.031121666 0.70999998 -0.059753593 6.5387025e-39 345 288
0.032412119 0.71100003 -0.059837762 6.080248e-39 346 288
0.033753417 0.713 -0.060006075 5.8033024e-39 347 288
0.035052639 0.71399999 -0.060090236 5.9851756e-39 348 288
0.036304519 0.71399999 -0.060090236 5.7085887e-39 349 288
0.037661601 0.71600002 -0.06025856 6.1663242e-39 350 288
0.038916986 0.71600002 -0.06025856 6.3510742e-39 351 288
0.040228479 0.71700001 -0.060342718 6.5390528e-39 352 288
0.041601337 0.71899998 -0.060511041 7.2766178e-39 353 288
0.042921603 0.72000003 -0.060595199 7.5568018e-39 354 288
0.044306733 0.722 -0.060763516 8.0174199e-39 355 288
0.04563576 0.72299999 -0.060847677 7.0980069e-39 356 288
0.047033165 0.72500002 -0.061016005 7.3749525e-39 357 288
0 0.713 -0.061256204 1.2724089e-38 320 289
0.0012501266 0.713 -0.061256204 1.2724089e-38 321 289
0.0024932399 0.71100003 -0.061084379 1.3822875e-38 322 289
0.0037345996 0.70999998 -0.060998458 1.3085308e-38 323 289
0.0049794666 0.70999998 -0.060998458 1.2622535e-38 324 289
0.0062067998 0.708 -0.060826641 1.2069361e-38 325 289
0.0074481601 0.708 -0.060826641 1.0878025e-38 326 289
0.008689519 0.708 -0.060826641 1.1523394e-38 327 289
0.0099308798 0.708 -0.060826641 1.1252218e-38 328 289
0.011156459 0.70700002 -0.060740728 1.1989783e-38 329 289
0.012396066 0.70700002 -0.060740728 1.2635881e-38 330 289
0.013616386 0.70599997 -0.060654808 1.2912468e-38 331 289
0.014854239 0.70599997 -0.060654808 1.2635884e-38 332 289
0.016092092 0.70599997 -0.060654808 1.2819916e-38 333 289
0.017329946 0.70599997 -0.060654808 1.3096488e-38 334 289
0.018515198 0.704 -0.060482983 1.2451118e-38 335 289
0.019749546 0.704 -0.060482983 1.1248223e-38 336 289
0.021043506 0.70599997 -0.060654808 8.4819951e-39 337 289
0.022312919 0.70700002 -0.060740728 7.3673533e-39 338 289
0.023552528 0.70700002 -0.060740728 5.8000262e-39 339 289
0.024792133 0.70700002 -0.060740728 6.4439677e-39 340 289
0.026068559 0.708 -0.060826641 6.8127502e-39 341 289
0.027309919 0.708 -0.060826641 6.3535867e-39 342 289
0.02855128 0.708 -0.060826641 6.2613911e-39 343 289
0.029876797 0.70999998 -0.060998458 5.8029395e-39 344 289
0.031121666 0.70999998 -0.060998458 5.8029395e-39 345 289
0.032412119 0.71100003 -0.061084379 5.7096677e-39 346 289
0.033753417 0.713 -0.061256204 5.5252764e-39 347 289
0.035052639 0.71399999 -0.061342116 5.6149483e-39 348 289
0.036304519 0.71399999 -0.061342116 5.6149483e-39 349 289
0.037661601 0.71600002 -0.061513945 5.6160217e-39 350 289
0.038916986 0.71600002 -0.061513945 6.0769984e-39 351 289
0.040228479 0.71700001 -0.061599858 6.0816676e-39 352 289
0.041601337 0.71899998 -0.061771683 7.0036253e-39 353 289
0.042921603 0.72000003 -0.061857603 7.3738525e-39 354 289
0.044368099 0.72299999 -0.062115334 7.9270263e-39 355 289
0.04563576 0.72299999 -0.062115334 7.5575431e-39 356 289
0.047162913 0.727 -0.062458992 6.9121737e-39 357 289
0.048504211 0.72799999 -0.062544905 1.2079811e-38 358 289
0 0.71399999 -0.062593997 1.1984353e-38 320 290
0.00124662 0.71100003 -0.062331002 8.6653102e-39 321 290
0.0024897333 0.70999998 -0.062243331 9.4842585e-39 322 290
0.0037345996 0.70999998 -0.062243331 8.3779109e-39 323 290
0.0049794666 0.70999998 -0.062243331 7.9122594e-39 324 290
0.0062067998 0.708 -0.062068 6.8059133e-39 325 290
0.0074481601 0.708 -0.062068 4.696236e-39 326 290
0.008689519 0.708 -0.062068 6.1713647e-39 327 290
0.0099308798 0.708 -0.062068 6.1793072e-39 328 290
0.011156459 0.70700002 -0.061980337 8.5767523e-39 329 290
0.012396066 0.70700002 -0.061980337 1.0606501e-38 330 290
0.013616386 0.70599997 -0.061892662 1.1989435e-38 331 290
0.014854239 0.70599997 -0.061892662 1.2358941e-38 332 290
0.016092092 0.70599997 -0.061892662 1.2635528e-38 333 290
0.017280852 0.704 -0.061717331 1.2267822e-38 334 290
0.018515198 0.704 -0.061717331 1.2175626e-38 335 290
0.019749546 0.704 -0.061717331 1.2910297e-38 336 290
0.020983893 0.704 -0.061717331 1.180395e-38 337 290
0.022218239 0.704 -0.061717331 1.1059157e-38 338 290
0.023552528 0.70700002 -0.061980337 6.0809515e-39 339 290
0.024792133 0.70700002 -0.061980337 5.9837126e-39 340 290
0.02603174 0.70700002 -0.061980337 6.629082e-39 341 290
0.027309919 0.708 -0.062068 6.1691969e-39 342 290
0.02855128 0.708 -0.062068 5.8926114e-39 343 290
0.029876797 0.70999998 -0.062243331 5.8011346e-39 344 290
0.031121666 0.70999998 -0.062243331 5.708939e-39 345 290
0.032412119 0.71100003 -0.062331002 5.799334e-39 346 290
0.033753417 0.713 -0.062506333 5.5231058e-39 347 290
0.035052639 0.71399999 -0.062593997 5.7067684e-39 348 290
0.036304519 0.71399999 -0.062593997 5.7993227e-39 349 290
0.037661601 0.71600002 -0.062769331 5.8933148e-39 350 290
0.038916986 0.71600002 -0.062769331 6.354293e-39 351 290
0.040228479 0.71700001 -0.062856995 6.083464e-39 352 290
0.041601337 0.71899998 -0.063032329 6.8213878e-39 353 290
0.042921603 0.72000003 -0.06312 7.3738525e-39 354 290
0.044490833 0.72500002 -0.063558333 8.0192219e-39 355 290
0.045761999 0.72500002 -0.063558333 7.5578991e-39 356 290
0.047033165 0.72500002 -0.063558333 6.5433884e-39 357 290
0.048437584 0.727 -0.06373366 1.1434081e-38 358 290
0 0.71399999 -0.063845873 1.0417387e-38 320 291
0.00124662 0.71100003 -0.063577622 5.8998014e-39 321 291
0.0024897333 0.70999998 -0.063488193 7.1804411e-39 322 291
0.0037345996 0.70999998 -0.063488193 7.1804411e-39 323 291
0.0049654399 0.708 -0.063309364 6.900613e-39 324 291
0.0062067998 0.708 -0.063309364 6.2552436e-39 325 291
0.0074481601 0.708 -0.063309364 5.8868492e-39 326 291
0.008689519 0.708 -0.063309364 5.7946536e-39 327 291
0.0099308798 0.708 -0.063309364 4.7870079e-39 328 291
0.011156459 0.70700002 -0.063219935 6.262138e-39 329 291
0.012396066 0.70700002 -0.063219935 5.8080164e-39 330 291
0.013616386 0.70599997 -0.063130513 7.1909508e-39 331 291
0.014854239 0.70599997 -0.063130513 9.4086878e-39 332 291
0.016092092 0.70599997 -0.063130513 1.1344795e-38 333 291
0.017280852 0.704 -0.062951677 1.1900484e-38 334 291
0.018515198 0.704 -0.062951677 1.1716093e-38 335 291
0.019749546 0.704 -0.062951677 1.1991232e-38 336 291
0.020983893 0.704 -0.062951677 1.2175982e-38 337 291
0.022218239 0.704 -0.062951677 1.2721214e-38 338 291
0.023519212 0.70599997 -0.063130513 7.5586179e-39 339 291
0.024757065 0.70599997 -0.063130513 5.7996871e-39 340 291
0.02603174 0.70700002 -0.063219935 5.7996871e-39 341 291
0.027309919 0.708 -0.063309364 6.2599478e-39 342 291
0.02855128 0.708 -0.063309364 6.0755579e-39 343 291
0.029876797 0.70999998 -0.063488193 5.6170965e-39 344 291
0.031121666 0.70999998 -0.063488193 5.3405096e-39 345 291
0.032412119 0.71100003 -0.063577622 5.6145756e-39 346 291
0.033753417 0.713 -0.063756458 5.7989668e-39 347 291
0.035052639 0.71399999 -0.063845873 5.524175e-39 348 291
0.036304519 0.71399999 -0.063845873 5.801122e-39 349 291
0.037661601 0.71600002 -0.064024724 5.9869524e-39 350 291
0.038916986 0.71600002 -0.064024724 6.3560937e-39 351 291
0.040228479 0.71700001 -0.064114138 6.3589747e-39 352 291
0.041601337 0.71899998 -0.064292975 7.0043441e-39 353 291
0.042921603 0.72000003 -0.064382397 7.7411959e-39 354 291
0.044368099 0.72299999 -0.064650662 8.2018153e-39 355 291
0.04563576 0.72299999 -0.064650662 7.6482912e-39 356 291
0.046903417 0.72299999 -0.064650662 6.0809641e-39 357 291
0.048304334 0.72500002 -0.064829499 1.1524473e-38 358 291
0 0.71399999 -0.065097757 9.12738e-39 320 292
0.00124662 0.71100003 -0.064824238 4.7023485e-39 321 292
0.0024897333 0.70999998 -0.064733058 6.9038738e-39 322 292
0.0037345996 0.70999998 -0.064733058 7.3648506e-39 323 292
0.0049654399 0.708 -0.06455072 6.9949793e-39 324 292
0.0062067998 0.708 -0.06455072 6.7180336e-39 325 292
0.0074481601 0.708 -0.06455072 6.7173274e-39 326 292
0.008689519 0.708 -0.06455072 6.6251317e-39 327 292
0.0099308798 0.708 -0.06455072 5.7060551e-39 328 292
0.011156459 0.70700002 -0.064459547 5.4291095e-39 329 292
0.012378532 0.70599997 -0.064368367 4.1401896e-39 330 292
0.013616386 0.70599997 -0.064368367 3.9557997e-39 331 292
0.014854239 0.70599997 -0.064368367 5.3477599e-39 332 292
0.016092092 0.70599997 -0.064368367 9.0352264e-39 333 292
0.017329946 0.70599997 -0.064368367 1.0792704e-38 334 292
0.018515198 0.704 -0.064186029 1.1622823e-38 335 292
0.019749546 0.704 -0.064186029 1.1529903e-38 336 292
0.020983893 0.704 -0.064186029 1.1990882e-38 337 292
0.022218239 0.704 -0.064186029 1.2084131e-38 338 292
0.023519212 0.70599997 -0.064368367 7.9353262e-39 339 292
0.024757065 0.70599997 -0.064368367 5.6178196e-39 340 292
0.02603174 0.70700002 -0.064459547 4.7880589e-39 341 292
0.027309919 0.708 -0.06455072 6.6272855e-39 342 292
0.02855128 0.708 -0.06455072 6.2585044e-39 343 292
0.029876797 0.70999998 -0.064733058 5.7993227e-39 344 292
0.031121666 0.70999998 -0.064733058 5.7067684e-39 345 292
0.032412119 0.71100003 -0.064824238 5.9829881e-39 346 292
0.033753417 0.713 -0.065006584 6.1673808e-39 347 292
0.035052639 0.71399999 -0.065097757 5.802194e-39 348 292
0.036304519 0.71399999 -0.065097757 5.9865853e-39 349 292
0.037661601 0.71600002 -0.06528011 6.1720653e-39 350 292
0.038916986 0.71600002 -0.06528011 6.4486536e-39 351 292
0.040228479 0.71700001 -0.065371275 6.4501012e-39 352 292
0.041659199 0.72000003 -0.065644801 7.2798604e-39 353 292
0.042921603 0.72000003 -0.065644801 7.3727805e-39 354 292
0.044306733 0.722 -0.065827139 7.9259543e-39 355 292
0.045572639 0.722 -0.065827139 7.0039966e-39 356 292
0.046838548 0.722 -0.065827139 5.0678884e-39 357 292
0.048304334 0.72500002 -0.066100664 1.1983284e-38 358 292
0 0.713 -0.066256717 6.5473415e-39 320 293
0.0012501266 0.713 -0.066256717 3.9658638e-39 321 293
0.0024932399 0.71100003 -0.066070862 6.9931912e-39 322 293
0.0037345996 0.70999998 -0.065977924 7.3623338e-39 323 293
0.0049654399 0.708 -0.065792084 7.0860959e-39 324 293
0.0062067998 0.708 -0.065792084 6.8095104e-39 325 293
0.0074481601 0.708 -0.065792084 6.3499728e-39 326 293
0.008689519 0.708 -0.065792084 6.3499728e-39 327 293
0.0099168532 0.70700002 -0.065699153 6.2592135e-39 328 293
0.011140679 0.70599997 -0.065606222 6.1666577e-39 329 293
0.012378532 0.70599997 -0.065606222 6.7176805e-39 330 293
0.013616386 0.70599997 -0.065606222 6.3492567e-39 331 293
0.014854239 0.70599997 -0.065606222 4.5093392e-39 332 293
0.016092092 0.70599997 -0.065606222 5.33946e-39 333 293
0.017329946 0.70599997 -0.065606222 3.6986797e-39 334 293
0.018515198 0.704 -0.065420374 7.8478417e-39 335 293
0.019749546 0.704 -0.065420374 1.0702309e-38 336 293
0.020983893 0.704 -0.065420374 1.0886702e-38 337 293
0.022218239 0.704 -0.065420374 1.0520414e-38 338 293
0.023519212 0.70599997 -0.065606222 8.1236873e-39 339 293
0.024757065 0.70599997 -0.065606222 7.4653447e-39 340 293
0.025994917 0.70599997 -0.065606222 4.2384977e-39 341 293
0.027271347 0.70700002 -0.065699153 6.4436174e-39 342 293
0.02855128 0.708 -0.065792084 6.3514217e-39 343 293
0.029876797 0.70999998 -0.065977924 5.7089264e-39 344 293
0.031165501 0.71100003 -0.066070862 5.801122e-39 345 293
0.032503292 0.713 -0.066256717 5.6185286e-39 346 293
0.033753417 0.713 -0.066256717 5.8947554e-39 347 293
0.035052639 0.71399999 -0.066349633 5.8040031e-39 348 293
0.036304519 0.71399999 -0.066349633 5.9887531e-39 349 293
0.037661601 0.71600002 -0.066535495 6.3564566e-39 350 293
0.038971342 0.71700001 -0.066628419 6.541208e-39 351 293
0.040340692 0.71899998 -0.066814266 7.0011099e-39 352 293
0.041659199 0.72000003 -0.066907197 7.3695337e-39 353 293
0.042921603 0.72000003 -0.066907197 7.9237893e-39 354 293
0.044306733 0.722 -0.067093052 8.2922117e-39 355 293
0.045572639 0.722 -0.067093052 7.0918734e-39 356 293
0.046838548 0.722 -0.067093052 5.4327122e-39 357 293
0.048171077 0.72299999 -0.067185976 1.2629375e-38 358 293
0 0.713 -0.067506835 4.7923777e-39 320 294
0.00124662 0.71100003 -0.067317478 3.962617e-39 321 294
0.0024897333 0.70999998 -0.067222796 7.2719333e-39 322 294
0.0037345996 0.70999998 -0.067222796 7.087542e-39 323 294
0.0049654399 0.708 -0.067033432 6.8102293e-39 324 294
0.0062067998 0.708 -0.067033432 6.625838e-39 325 294
0.0074481601 0.708 -0.067033432 6.3499728e-39 326 294
0.008677247 0.70700002 -0.066938758 6.3499728e-39 327 294
0.0099028256 0.70599997 -0.066844068 6.167378e-39 328 294
0.011140679 0.70599997 -0.066844068 6.167378e-39 329 294
0.012378532 0.70599997 -0.066844068 6.2595764e-39 330 294
0.013616386 0.70599997 -0.066844068 6.1673808e-39 331 294
0.014854239 0.70599997 -0.066844068 5.3390677e-39 332 294
0.016092092 0.70599997 -0.066844068 4.2327201e-39 333 294
0.017329946 0.70599997 -0.066844068 1.4794839e-39 334 294
0.018567799 0.70599997 -0.066844068 5.9052343e-39 335 294
0.019805651 0.70599997 -0.066844068 1.0517199e-38 336 294
0.021043506 0.70599997 -0.066844068 1.070159e-38 337 294
0.022281358 0.70599997 -0.066844068 1.0057643e-38 338 294
0.023519212 0.70599997 -0.066844068 9.5044694e-39 339 294
0.024757065 0.70599997 -0.066844068 8.4827406e-39 340 294
0.025994917 0.70599997 -0.066844068 3.6885665e-39 341 294
0.027271347 0.70700002 -0.066938758 5.8007689e-39 342 294
0.02855128 0.708 -0.067033432 6.0769956e-39 343 294
0.029876797 0.70999998 -0.067222796 6.0777019e-39 344 294
0.031165501 0.71100003 -0.067317478 6.0777019e-39 345 294
0.032503292 0.713 -0.067506835 6.262096e-39 346 294
0.033800758 0.71399999 -0.067601517 6.262096e-39 347 294
0.035052639 0.71399999 -0.067601517 6.2635421e-39 348 294
0.036406212 0.71600002 -0.067790881 6.3557377e-39 349 294
0.037661601 0.71600002 -0.067790881 6.4486564e-39 350 294
0.038971342 0.71700001 -0.067885563 6.5408521e-39 351 294
0.040396802 0.72000003 -0.068169601 6.634491e-39 352 294
0.041659199 0.72000003 -0.068169601 7.2798604e-39 353 294
0.043040827 0.722 -0.068358958 7.5571676e-39 354 294
0.044368099 0.72299999 -0.06845364 7.7415588e-39 355 294
0.04563576 0.72299999 -0.06845364 6.6337665e-39 356 294
0.046903417 0.72299999 -0.06845364 6.4493753e-39 357 294
0.048171077 0.72299999 -0.06845364 1.4194537e-38 358 294
0 0.713 -0.068756968 4.6962136e-39 320 295
0.00124662 0.71100003 -0.068564095 4.7884092e-39 321 295
0.0024897333 0.70999998 -0.068467662 7.2737241e-39 322 295
0.0037345996 0.70999998 -0.068467662 6.7205504e-39 323 295
0.0049654399 0.708 -0.068274796 6.5354374e-39 324 295
0.0062067998 0.708 -0.068274796 6.2592107e-39 325 295
0.0074481601 0.708 -0.068274796 6.0744621e-39 326 295
0.008677247 0.70700002 -0.068178371 6.1666577e-39 327 295
0.0099028256 0.70599997 -0.06808193 6.2592107e-39 328 295
0.011140679 0.70599997 -0.06808193 6.1670136e-39 329 295
0.012378532 0.70599997 -0.06808193 6.167378e-39 330 295
0.013616386 0.70599997 -0.06808193 6.075181e-39 331 295
0.014854239 0.70599997 -0.06808193 5.8911694e-39 332 295
0.016092092 0.70599997 -0.06808193 5.7986137e-39 333 295
0.017329946 0.70599997 -0.06808193 3.2232891e-39 334 295
0.018567799 0.70599997 -0.06808193 6.6345275e-39 335 295
0.019805651 0.70599997 -0.06808193 9.4097696e-39 336 295
0.021043506 0.70599997 -0.06808193 1.0147335e-38 337 295
0.022281358 0.70599997 -0.06808193 9.138212e-39 338 295
0.023519212 0.70599997 -0.06808193 9.6913844e-39 339 295
0.024757065 0.70599997 -0.06808193 8.8551189e-39 340 295
0.02603174 0.70700002 -0.068178371 2.9545986e-39 341 295
0.027309919 0.708 -0.068274796 5.6170937e-39 342 295
0.02855128 0.708 -0.068274796 6.078432e-39 343 295
0.029876797 0.70999998 -0.068467662 5.9869524e-39 344 295
0.031165501 0.71100003 -0.068564095 5.9869524e-39 345 295
0.032548878 0.71399999 -0.068853401 6.0787949e-39 346 295
0.033800758 0.71399999 -0.068853401 6.2635449e-39 347 295
0.035150826 0.71600002 -0.069046266 6.263189e-39 348 295
0.036406212 0.71600002 -0.069046266 6.3557433e-39 349 295
0.037661601 0.71600002 -0.069046266 6.5397717e-39 350 295
0.039080046 0.71899998 -0.069335558 6.6319687e-39 351 295
0.040396802 0.72000003 -0.069432005 6.8185165e-39 352 295
0.041659199 0.72000003 -0.069432005 7.3716903e-39 353 295
0.043040827 0.722 -0.069624864 8.0167038e-39 354 295
0.044490833 0.72500002 -0.069914162 7.46353e-39 355 295
0.04563576 0.72299999 -0.069721296 8.2914984e-39 356 295
0.046903417 0.72299999 -0.069721296 1.0965172e-38 357 295
0.048171077 0.72299999 -0.069721296 1.5303048e-38 358 295
0 0.70999998 -0.069712527 6.3550118e-39 320 296
0.0012448666 0.70999998 -0.069712527 5.4334157e-39 321 296
0.0024897333 0.70999998 -0.069712527 7.1808068e-39 322 296
0.0037345996 0.70999998 -0.069712527 6.9045801e-39 323 296
0.0049654399 0.708 -0.069516152 6.2606484e-39 324 296
0.0062067998 0.708 -0.069516152 5.9844217e-39 325 296
0.0074481601 0.708 -0.069516152 6.075181e-39 326 296
0.008677247 0.70700002 -0.069417976 6.075181e-39 327 296
0.0099168532 0.70700002 -0.069417976 6.167378e-39 328 296
0.011140679 0.70599997 -0.069319785 6.167378e-39 329 296
0.012343466 0.704 -0.06912341 5.8918715e-39 330 296
0.013577812 0.704 -0.06912341 5.7993171e-39 331 296
0.014812159 0.704 -0.06912341 5.706774e-39 332 296
0.016046507 0.704 -0.06912341 5.7989696e-39 333 296
0.017280852 0.704 -0.06912341 4.6022579e-39 334 296
0.018567799 0.70599997 -0.069319785 6.3543336e-39 335 296
0.019805651 0.70599997 -0.069319785 7.5680122e-39 336 296
0.021043506 0.70599997 -0.069319785 9.4119234e-39 337 296
0.022281358 0.70599997 -0.069319785 8.7708742e-39 338 296
0.023519212 0.70599997 -0.069319785 9.3236879e-39 339 296
0.024757065 0.70599997 -0.069319785 9.3175418e-39 340 296
0.02603174 0.70700002 -0.069417976 3.5092171e-39 341 296
0.027271347 0.70700002 -0.069417976 5.7089264e-39 342 296
0.02855128 0.708 -0.069516152 6.2617414e-39 343 296
0.029876797 0.70999998 -0.069712527 6.1709807e-39 344 296
0.031253166 0.713 -0.070007093 6.1709807e-39 345 296
0.032548878 0.71399999 -0.070105277 6.3546587e-39 346 296
0.03389544 0.71600002 -0.070301652 6.4468544e-39 347 296
0.035150826 0.71600002 -0.070301652 6.3557405e-39 348 296
0.036457058 0.71700001 -0.070399836 6.3557405e-39 349 296
0.037714198 0.71700001 -0.070399836 6.6312484e-39 350 296
0.039134402 0.72000003 -0.070694394 6.8159998e-39 351 296
0.040396802 0.72000003 -0.070694394 6.8181606e-39 352 296
0.041659199 0.72000003 -0.070694394 7.9245082e-39 353 296
0.043040827 0.722 -0.070890769 8.5677266e-39 354 296
0.044613566 0.727 -0.071381703 8.5677266e-39 355 296
0.045888241 0.727 -0.071381703 1.1516911e-38 356 296
0.047227785 0.72799999 -0.071479887 1.4928149e-38 357 296
0 0.70999998 -0.070957392 7.829779e-39 320 297
0.0012448666 0.70999998 -0.070957392 6.7230713e-39 321 297
0.0024897333 0.70999998 -0.070957392 6.7216336e-39 322 297
0.0037345996 0.70999998 -0.070957392 6.6294379e-39 323 297
0.0049654399 0.708 -0.070757516 6.2613771e-39 324 297
0.0062067998 0.708 -0.070757516 5.9844315e-39 325 297
0.0074481601 0.708 -0.070757516 5.9840685e-39 326 297
0.0086649731 0.70599997 -0.070557632 5.9840685e-39 327 297
0.0098747732 0.704 -0.070357755 5.8925918e-39 328 297
0.011109119 0.704 -0.070357755 5.800036e-39 329 297
0.012343466 0.704 -0.070357755 5.8000402e-39 330 297
0.013577812 0.704 -0.070357755 5.523812e-39 331 297
0.014812159 0.704 -0.070357755 5.6145784e-39 332 297
0.016046507 0.704 -0.070357755 5.7989696e-39 333 297
0.017280852 0.704 -0.070357755 5.2479763e-39 334 297
0.018567799 0.70599997 -0.070557632 5.8933457e-39 335 297
0.019805651 0.70599997 -0.070557632 6.1836288e-39 336 297
0.021073313 0.70700002 -0.070657574 9.1342477e-39 337 297
0.022281358 0.70599997 -0.070557632 9.32189e-39 338 297
0.023519212 0.70599997 -0.070557632 9.6910327e-39 339 297
0.024792133 0.70700002 -0.070657574 9.6877718e-39 340 297
0.02603174 0.70700002 -0.070657574 4.3400666e-39 341 297
0.027271347 0.70700002 -0.070657574 5.5256239e-39 342 297
0.02855128 0.708 -0.070757516 5.9866021e-39 343 297
0.029876797 0.70999998 -0.070957392 5.9869524e-39 344 297
0.031253166 0.713 -0.071257219 6.079148e-39 345 297
0.032548878 0.71399999 -0.071357153 6.3546615e-39 346 297
0.03389544 0.71600002 -0.071557038 6.3546615e-39 347 297
0.035150826 0.71600002 -0.071557038 6.2635421e-39 348 297
0.036457058 0.71700001 -0.07165698 6.3557377e-39 349 297
0.037819397 0.71899998 -0.071856856 6.6312484e-39 350 297
0.039134402 0.72000003 -0.071956798 6.8159998e-39 351 297
0.040509012 0.722 -0.072156675 6.8181606e-39 352 297
0.041774917 0.722 -0.072156675 8.1088994e-39 353 297
0.043040827 0.722 -0.072156675 8.7539185e-39 354 297
0.044613566 0.727 -0.072656378 1.0044657e-38 355 297
0.045888241 0.727 -0.072656378 1.2538268e-38 356 297
0 0.71100003 -0.072303966 9.1208807e-39 320 298
0.00124662 0.71100003 -0.072303966 7.2769681e-39 321 298
0.0024897333 0.70999998 -0.072202265 6.6301568e-39 322 298
0.0037345996 0.70999998 -0.072202265 6.6301568e-39 323 298
0.0049654399 0.708 -0.071998879 6.0787837e-39 324 298
0.0062067998 0.708 -0.071998879 5.8018381e-39 325 298
0.0074481601 0.708 -0.071998879 5.8922358e-39 326 298
0.0086649731 0.70599997 -0.071795486 5.8922358e-39 327 298
0.0098747732 0.704 -0.071592107 5.8000402e-39 328 298
0.011109119 0.704 -0.071592107 5.6160077e-39 329 298
0.012343466 0.704 -0.071592107 5.7067684e-39 330 298
0.013577812 0.704 -0.071592107 5.6145727e-39 331 298
0.014812159 0.704 -0.071592107 5.4309074e-39 332 298
0.016092092 0.70599997 -0.071795486 5.6156574e-39 333 298
0.017329946 0.70599997 -0.071795486 5.4327276e-39 334 298
0.018567799 0.70599997 -0.071795486 5.5249233e-39 335 298
0.019833706 0.70700002 -0.071897186 5.442824e-39 336 298
0.021073313 0.70700002 -0.071897186 9.4994317e-39 337 298
0.022312919 0.70700002 -0.071897186 1.0148767e-38 338 298
0.023552528 0.70700002 -0.071897186 1.0517549e-38 339 298
0.024792133 0.70700002 -0.071897186 9.965079e-39 340 298
0.02603174 0.70700002 -0.071897186 5.2631019e-39 341 298
0.027309919 0.708 -0.071998879 5.5259897e-39 342 298
0.028631933 0.70999998 -0.072202265 5.7107397e-39 343 298
0.029876797 0.70999998 -0.072202265 6.0784292e-39 344 298
0.031253166 0.713 -0.072507344 6.1706248e-39 345 298
0.032548878 0.71399999 -0.072609037 6.1706276e-39 346 298
0.03389544 0.71600002 -0.072812423 6.4468544e-39 347 298
0.035199918 0.71700001 -0.072914116 6.1720653e-39 348 298
0.036558751 0.71899998 -0.073117502 6.264261e-39 349 298
0.037819397 0.71899998 -0.073117502 6.5397717e-39 350 298
0.039134402 0.72000003 -0.073219202 6.7241643e-39 351 298
0.040509012 0.722 -0.073422581 6.9114296e-39 352 298
0.041659199 0.72000003 -0.073219202 7.6489947e-39 353 298
0.042921603 0.72000003 -0.073219202 8.6642382e-39 354 298
0.044183999 0.72000003 -0.073219202 1.0785096e-38 355 298
0 0.71100003 -0.073550582 1.0321225e-38 320 299
0.00124662 0.71100003 -0.073550582 7.739747e-39 321 299
0.0024932399 0.71100003 -0.073550582 7.089693e-39 322 299
0.0037345996 0.70999998 -0.073447131 6.904943e-39 323 299
0.0049654399 0.708 -0.073240235 6.9049458e-39 324 299
0.0062067998 0.708 -0.073240235 6.351772e-39 325 299
0.0074376399 0.70700002 -0.073136792 5.8918827e-39 326 299
0.0086404262 0.704 -0.072826453 5.6156546e-39 327 299
0.0098747732 0.704 -0.072826453 5.6156546e-39 328 299
0.011109119 0.704 -0.072826453 5.5234589e-39 329 299
0.012343466 0.704 -0.072826453 5.6156517e-39 330 299
0.013577812 0.704 -0.072826453 5.5234561e-39 331 299
0.014854239 0.70599997 -0.07303334 5.6156517e-39 332 299
0.016092092 0.70599997 -0.07303334 5.800043e-39 333 299
0.017329946 0.70599997 -0.07303334 5.5256393e-39 334 299
0.018567799 0.70599997 -0.07303334 5.2494126e-39 335 299
0.019833706 0.70700002 -0.073136792 5.1626442e-39 336 299
0.021073313 0.70700002 -0.073136792 9.8646213e-39 337 299
0.022312919 0.70700002 -0.073136792 1.051683e-38 338 299
0.023552528 0.70700002 -0.073136792 1.0700862e-38 339 299
0.024792133 0.70700002 -0.073136792 1.0148394e-38 340 299
0.026068559 0.708 -0.073240235 5.8151995e-39 341 299
0.027387066 0.70999998 -0.073447131 5.7107369e-39 342 299
0.028631933 0.70999998 -0.073447131 5.6185412e-39 343 299
0.030003037 0.713 -0.07375747 6.079504e-39 344 299
0.031296998 0.71399999 -0.073860914 5.9869482e-39 345 299
0.032640055 0.71600002 -0.074067809 6.0787949e-39 346 299
0.03389544 0.71600002 -0.074067809 6.1713493e-39 347 299
0.035298105 0.71899998 -0.074378148 6.264261e-39 348 299
0.036558751 0.71899998 -0.074378148 6.3564566e-39 349 299
0.037871998 0.72000003 -0.074481606 6.6312512e-39 350 299
0.039134402 0.72000003 -0.074481606 7.0922294e-39 351 299
0.040509012 0.722 -0.074688487 6.6362847e-39 352 299
0.041659199 0.72000003 -0.074481606 7.5585997e-39 353 299
0.042921603 0.72000003 -0.074481606 8.1128693e-39 354 299
0.00124662 0.71100003 -0.074797198 8.0170541e-39 321 300
0.0024932399 0.71100003 -0.074797198 8.2885991e-39 322 300
0.0037398601 0.71100003 -0.074797198 7.8279797e-39 323 300
0.0049794666 0.70999998 -0.074691996 6.538687e-39 324 300
0.0062067998 0.708 -0.074481599 6.0773488e-39 325 300
0.0074376399 0.70700002 -0.074376404 5.8911694e-39 326 300
0.0086404262 0.704 -0.07406079 5.7064181e-39 327 300
0.0098747732 0.704 -0.07406079 5.6163776e-39 328 300
0.011109119 0.704 -0.07406079 5.7085733e-39 329 300
0.012343466 0.704 -0.07406079 5.3430179e-39 330 300
0.013577812 0.704 -0.07406079 5.2504636e-39 331 300
0.014854239 0.70599997 -0.074271195 5.4337786e-39 332 300
0.016092092 0.70599997 -0.074271195 5.341583e-39 333 300
0.017329946 0.70599997 -0.074271195 5.8004186e-39 334 300
0.018594101 0.70700002 -0.074376404 5.5234715e-39 335 300
0.01986176 0.708 -0.074481599 4.7927673e-39 336 300
0.021103119 0.708 -0.074481599 9.8635255e-39 337 300
0.022312919 0.70700002 -0.074376404 1.0517184e-38 338 300
0.023552528 0.70700002 -0.074376404 1.0517184e-38 339 300
0.024827199 0.708 -0.074481599 9.8736022e-39 340 300
0.026142199 0.70999998 -0.074691996 5.5404076e-39 341 300
0.027387066 0.70999998 -0.074691996 5.7103837e-39 342 300
0.028752912 0.713 -0.075007595 5.6181881e-39 343 300
0.030003037 0.713 -0.075007595 6.1706248e-39 344 300
0.031296998 0.71399999 -0.075112797 6.0784292e-39 345 300
0.032640055 0.71600002 -0.075323202 6.1706276e-39 346 300
0.03389544 0.71600002 -0.075323202 6.4468544e-39 347 300
0.035298105 0.71899998 -0.075638793 6.3557377e-39 348 300
0.036609601 0.72000003 -0.075743996 6.3557377e-39 349 300
0.037871998 0.72000003 -0.075743996 6.9071136e-39 350 300
0.039134402 0.72000003 -0.075743996 7.0915049e-39 351 300
0.040509012 0.722 -0.0759544 7.5539306e-39 352 300
0.041774917 0.722 -0.0759544 8.6602781e-39 353 300
0.0024932399 0.71100003 -0.076043822 8.6566586e-39 322 301
0.0037398601 0.71100003 -0.076043822 8.1956818e-39 323 301
0.0049794666 0.70999998 -0.075936861 6.904943e-39 324 301
0.0062067998 0.708 -0.075722955 6.352128e-39 325 301
0.0074481601 0.708 -0.075722955 6.4428943e-39 326 301
0.008677247 0.70700002 -0.07561601 6.2585044e-39 327 301
0.0099168532 0.70700002 -0.07561601 5.7089208e-39 328 301
0.011156459 0.70700002 -0.07561601 6.0777019e-39 329 301
0.0124136 0.708 -0.075722955 5.7110718e-39 330 301
0.013635674 0.70700002 -0.07561601 5.6188761e-39 331 301
0.01487528 0.70700002 -0.07561601 5.8014751e-39 332 301
0.016114887 0.70700002 -0.07561601 5.8014751e-39 333 301
0.017354494 0.70700002 -0.07561601 5.8014905e-39 334 301
0.0186204 0.708 -0.075722955 5.6167406e-39 335 301
0.01986176 0.708 -0.075722955 5.066829e-39 336 301
0.021103119 0.708 -0.075722955 1.0137589e-38 337 301
0.022344479 0.708 -0.075722955 1.0425704e-38 338 301
0.023585839 0.708 -0.075722955 1.0610095e-38 339 301
0.024897331 0.70999998 -0.075936861 1.0332785e-38 340 301
0.026142199 0.70999998 -0.075936861 5.5386126e-39 341 301
0.027425639 0.71100003 -0.076043822 5.6174692e-39 342 301
0.028752912 0.713 -0.076257721 5.8940547e-39 343 301
0.030003037 0.713 -0.076257721 6.3542958e-39 344 301
0.031296998 0.71399999 -0.076364681 6.2617414e-39 345 301
0.032640055 0.71600002 -0.076578587 6.1713493e-39 346 301
