# .PCD v.7 - Point Cloud Data file format
FIELDS x y z rgb imX imY
SIZE 4 4 4 4 4 4
TYPE F F F F F F
COUNT 1 1 1 1 1 1
WIDTH 852
HEIGHT 1
VIEWPOINT 0 0 0 1 0 0 0
POINTS 852
DATA ascii
-0.0062769335 0.71600002 -0.045193922 1.1247536e-38 315 276
-0.0050215465 0.71600002 -0.045193922 1.4352288e-38 316 276
-0.00376616 0.71600002 -0.045193922 1.343033e-38 317 276
-0.0025107733 0.71600002 -0.045193922 1.6458723e-38 318 276
-0.00125188 0.71399999 -0.045067675 1.6827504e-38 319 276
0 0.71399999 -0.045067675 1.7011894e-38 320 276
0.0012501266 0.713 -0.045004558 1.7657263e-38 321 276
0.0024897333 0.70999998 -0.044815198 1.6560272e-38 322 276
0.0037345996 0.70999998 -0.044815198 1.4624524e-38 323 276
0.0049654399 0.708 -0.044688959 1.0572608e-38 324 276
0.0062067998 0.708 -0.044688959 1.2232488e-38 325 276
0.0074481601 0.708 -0.044688959 1.4991527e-38 326 276
0.008689519 0.708 -0.044688959 1.7757036e-38 327 276
0.0099308798 0.708 -0.044688959 1.738931e-38 328 276
0.01117224 0.708 -0.044688959 1.6836137e-38 329 276
0.012448666 0.70999998 -0.044815198 1.7109836e-38 330 276
0.013693533 0.70999998 -0.044815198 1.6556662e-38 331 276
0.014938398 0.70999998 -0.044815198 1.68293e-38 332 276
0.016183265 0.70999998 -0.044815198 1.7843451e-38 333 276
0.017428132 0.70999998 -0.044815198 1.4812868e-38 334 276
0.018672999 0.70999998 -0.044815198 1.1586021e-38 335 276
0.019917866 0.70999998 -0.044815198 1.0840903e-38 336 276
0.021162732 0.70999998 -0.044815198 1.3606772e-38 337 276
0.022439159 0.71100003 -0.044878319 1.5909858e-38 338 276
0.023752406 0.713 -0.045004558 1.5633631e-38 339 276
0.025002534 0.713 -0.045004558 1.6366877e-38 340 276
0.026289478 0.71399999 -0.045067675 1.6182485e-38 341 276
0.02754136 0.71399999 -0.045067675 1.6272529e-38 342 276
0.028793238 0.71399999 -0.045067675 1.6549476e-38 343 276
0.030045118 0.71399999 -0.045067675 1.1762897e-38 344 276
0.031296998 0.71399999 -0.045067675 7.3468397e-39 345 276
0.032640055 0.71600002 -0.045193922 1.0212848e-38 346 276
0.03389544 0.71600002 -0.045193922 1.2425903e-38 347 276
0.035150826 0.71600002 -0.045193922 1.462348e-38 348 276
0.036457058 0.71700001 -0.045257039 1.5361045e-38 349 276
0.037819397 0.71899998 -0.045383278 1.4721069e-38 350 276
0.039134402 0.72000003 -0.045446403 1.3061549e-38 351 276
0.040396802 0.72000003 -0.045446403 1.2963238e-38 352 276
0.041659199 0.72000003 -0.045446403 1.4438368e-38 353 276
0.043040827 0.722 -0.045572639 1.390717e-38 354 276
0.044306733 0.722 -0.045572639 1.8885374e-38 355 276
0.045572639 0.722 -0.045572639 1.7335334e-38 356 276
-0.0050075199 0.71399999 -0.046319555 1.498902e-38 316 277
-0.0037556398 0.71399999 -0.046319555 1.5081574e-38 317 277
-0.0025037599 0.71399999 -0.046319555 1.6642759e-38 318 277
-0.00125188 0.71399999 -0.046319555 1.6642759e-38 319 277
0 0.713 -0.046254687 1.6827151e-38 320 277
0.0012501266 0.713 -0.046254687 1.7011543e-38 321 277
0.0024897333 0.70999998 -0.046060063 1.3248069e-38 322 277
0.0037345996 0.70999998 -0.046060063 1.2233558e-38 323 277
0.0049654399 0.708 -0.045930319 1.3059009e-38 324 277
0.0062067998 0.708 -0.045930319 1.4902563e-38 325 277
0.0074481601 0.708 -0.045930319 1.5637612e-38 326 277
0.008689519 0.708 -0.045930319 1.7020547e-38 327 277
0.0099308798 0.708 -0.045930319 1.757155e-38 328 277
0.01117224 0.708 -0.045930319 1.7387159e-38 329 277
0.0124136 0.708 -0.045930319 1.7570458e-38 330 277
0.013654959 0.708 -0.045930319 1.6925089e-38 331 277
0.014938398 0.70999998 -0.046060063 1.6741421e-38 332 277
0.01613768 0.708 -0.045930319 1.6372637e-38 333 277
0.017379038 0.708 -0.045930319 1.3150833e-38 334 277
0.0186204 0.708 -0.045930319 1.2782049e-38 335 277
0.01986176 0.708 -0.045930319 1.3707245e-38 336 277
0.021103119 0.708 -0.045930319 1.4537007e-38 337 277
0.022407599 0.70999998 -0.046060063 1.5820541e-38 338 277
0.023652466 0.70999998 -0.046060063 1.5820541e-38 339 277
0.024932399 0.71100003 -0.046124939 1.6460148e-38 340 277
0.026179021 0.71100003 -0.046124939 1.6091365e-38 341 277
0.027502786 0.713 -0.046254687 1.599774e-38 342 277
0.028752912 0.713 -0.046254687 1.6182132e-38 343 277
0.030045118 0.71399999 -0.046319555 1.130444e-38 344 277
0.031296998 0.71399999 -0.046319555 7.255007e-39 345 277
0.032548878 0.71399999 -0.046319555 1.0121734e-38 346 277
0.03389544 0.71600002 -0.046449307 1.2426266e-38 347 277
0.035150826 0.71600002 -0.046449307 1.4623483e-38 348 277
0.036457058 0.71700001 -0.046514176 1.5729472e-38 349 277
0.037714198 0.71700001 -0.046514176 1.4905825e-38 350 277
0.039134402 0.72000003 -0.0467088 1.3246662e-38 351 277
0.040396802 0.72000003 -0.0467088 1.3333097e-38 352 277
0.041659199 0.72000003 -0.0467088 1.3978466e-38 353 277
0.043040827 0.722 -0.046838548 1.3717734e-38 354 277
0.044306733 0.722 -0.046838548 1.8788494e-38 355 277
0.045572639 0.722 -0.046838548 1.6873993e-38 356 277
-0.0062593995 0.71399999 -0.047571439 8.8446666e-39 315 278
-0.0050075199 0.71399999 -0.047571439 1.5538577e-38 316 278
-0.0037556398 0.71399999 -0.047571439 1.6276142e-38 317 278
-0.0025037599 0.71399999 -0.047571439 1.655164e-38 318 278
-0.0012501266 0.713 -0.047504812 1.655164e-38 319 278
0 0.713 -0.047504812 1.5725479e-38 320 278
0.00124662 0.71100003 -0.047371563 1.5540729e-38 321 278
0.00248272 0.708 -0.047171678 1.094642e-38 322 278
0.00372408 0.708 -0.047171678 1.1222646e-38 323 278
0.0049654399 0.708 -0.047171678 1.4905085e-38 324 278
0.0061980332 0.70700002 -0.047105055 1.5273869e-38 325 278
0.0074376399 0.70700002 -0.047105055 1.6094997e-38 326 278
0.008677247 0.70700002 -0.047105055 1.7293541e-38 327 278
0.0099168532 0.70700002 -0.047105055 1.7849216e-38 328 278
0.011156459 0.70700002 -0.047105055 1.7849216e-38 329 278
0.012396066 0.70700002 -0.047105055 1.7574411e-38 330 278
0.013654959 0.708 -0.047171678 1.7205269e-38 331 278
0.01489632 0.708 -0.047171678 1.6924736e-38 332 278
0.01613768 0.708 -0.047171678 1.5633997e-38 333 278
0.017379038 0.708 -0.047171678 1.2595163e-38 334 278
0.018594101 0.70700002 -0.047105055 1.3885901e-38 335 278
0.019833706 0.70700002 -0.047105055 1.5646247e-38 336 278
0.021073313 0.70700002 -0.047105055 1.536966e-38 337 278
0.022344479 0.708 -0.047171678 1.6559183e-38 338 278
0.023585839 0.708 -0.047171678 1.6098205e-38 339 278
0.024897331 0.70999998 -0.047304932 1.6460864e-38 340 278
0.026142199 0.70999998 -0.047304932 1.6000244e-38 341 278
0.027387066 0.70999998 -0.047304932 1.5814425e-38 342 278
0.028672259 0.71100003 -0.047371563 1.5906621e-38 343 278
0.030003037 0.713 -0.047504812 1.121474e-38 344 278
0.031253166 0.713 -0.047504812 7.3468397e-39 345 278
0.032548878 0.71399999 -0.047571439 9.8469299e-39 346 278
0.033800758 0.71399999 -0.047571439 1.1229864e-38 347 278
0.035052639 0.71399999 -0.047571439 1.3615089e-38 348 278
0.036406212 0.71600002 -0.047704693 1.4905828e-38 349 278
0.037661601 0.71600002 -0.047704693 1.4449168e-38 350 278
0.038971342 0.71700001 -0.04777132 1.3066234e-38 351 278
0.040396802 0.72000003 -0.0479712 1.3425293e-38 352 278
0.041659199 0.72000003 -0.0479712 1.4070662e-38 353 278
0.042921603 0.72000003 -0.0479712 1.3715569e-38 354 278
0.044306733 0.722 -0.048104454 1.8233155e-38 355 278
0.045572639 0.722 -0.048104454 1.6962589e-38 356 278
-0.0062593995 0.71399999 -0.048823316 9.758344e-39 315 279
-0.0050075199 0.71399999 -0.048823316 1.62747e-38 316 279
-0.0037556398 0.71399999 -0.048823316 1.7012265e-38 317 279
-0.0025002533 0.713 -0.048754938 1.6650319e-38 318 279
-0.0012501266 0.713 -0.048754938 1.7019102e-38 319 279
0 0.71100003 -0.048618179 1.3611109e-38 320 279
0.0012448666 0.70999998 -0.048549797 1.2873185e-38 321 279
0.0024792133 0.70700002 -0.048344657 1.0490849e-38 322 279
0.0037188199 0.70700002 -0.048344657 1.1689391e-38 323 279
0.0049584266 0.70700002 -0.048344657 1.6009639e-38 324 279
0.0061892662 0.70599997 -0.048276275 1.5456465e-38 325 279
0.0074271196 0.70599997 -0.048276275 1.6370861e-38 326 279
0.0086649731 0.70599997 -0.048276275 1.7477209e-38 327 279
0.0099028256 0.70599997 -0.048276275 1.8033974e-38 328 279
0.011140679 0.70599997 -0.048276275 1.8033974e-38 329 279
0.012378532 0.70599997 -0.048276275 1.7208165e-38 330 279
0.013635674 0.70700002 -0.048344657 1.7023415e-38 331 279
0.01487528 0.70700002 -0.048344657 1.6649596e-38 332 279
0.016114887 0.70700002 -0.048344657 1.5635444e-38 333 279
0.017354494 0.70700002 -0.048344657 1.2320016e-38 334 279
0.018594101 0.70700002 -0.048344657 1.3795505e-38 335 279
0.019833706 0.70700002 -0.048344657 1.6752958e-38 336 279
0.021073313 0.70700002 -0.048344657 1.6107588e-38 337 279
0.022344479 0.708 -0.048413038 1.7019455e-38 338 279
0.023585839 0.708 -0.048413038 1.6650673e-38 339 279
0.024827199 0.708 -0.048413038 1.6552359e-38 340 279
0.026068559 0.708 -0.048413038 1.6183936e-38 341 279
0.027309919 0.708 -0.048413038 1.5355621e-38 342 279
0.028631933 0.70999998 -0.048549797 1.5631847e-38 343 279
0.029876797 0.70999998 -0.048549797 1.1400579e-38 344 279
0.031165501 0.71100003 -0.048618179 8.8191013e-39 345 279
0.032412119 0.71100003 -0.048618179 9.2987924e-39 346 279
0.033753417 0.713 -0.048754938 9.6675735e-39 347 279
0.035003547 0.713 -0.048754938 9.8451447e-39 348 279
0.036304519 0.71399999 -0.048823316 1.205784e-38 349 279
0.037556399 0.71399999 -0.048823316 1.3992879e-38 350 279
0.038808275 0.71399999 -0.048823316 1.3070923e-38 351 279
0.040172372 0.71600002 -0.048960082 1.379948e-38 352 279
0.041485619 0.71700001 -0.04902846 1.379948e-38 353 279
0.042921603 0.72000003 -0.0492336 1.3901399e-38 354 279
0.044306733 0.722 -0.04937036 1.7312996e-38 355 279
-0.0050005065 0.713 -0.050005067 1.6370493e-38 316 280
-0.0037503797 0.713 -0.050005067 1.747684e-38 317 280
-0.0025002533 0.713 -0.050005067 1.6102553e-38 318 280
-0.0012448666 0.70999998 -0.049794663 1.5457184e-38 319 280
0 0.708 -0.049654398 9.5649508e-39 320 280
0.0012396066 0.70700002 -0.049584266 1.0117766e-38 321 280
0.0024757064 0.70599997 -0.04951413 1.2054227e-38 322 280
0.0037135598 0.70599997 -0.04951413 1.2883988e-38 323 280
0.0049514128 0.70599997 -0.04951413 1.6098237e-38 324 280
0.0061717331 0.704 -0.049373865 1.5822009e-38 325 280
0.0074060797 0.704 -0.049373865 1.5822724e-38 326 280
0.0086404262 0.704 -0.049373865 1.692907e-38 327 280
0.0098747732 0.704 -0.049373865 1.7851384e-38 328 280
0.011140679 0.70599997 -0.04951413 1.7666991e-38 329 280
0.012378532 0.70599997 -0.04951413 1.7299282e-38 330 280
0.013616386 0.70599997 -0.04951413 1.7299282e-38 331 280
0.014854239 0.70599997 -0.04951413 1.5913108e-38 332 280
0.016114887 0.70700002 -0.049584266 1.5175542e-38 333 280
0.017354494 0.70700002 -0.049584266 1.1951226e-38 334 280
0.018594101 0.70700002 -0.049584266 1.3979889e-38 335 280
0.019833706 0.70700002 -0.049584266 1.7215015e-38 336 280
0.021073313 0.70700002 -0.049584266 1.5924276e-38 337 280
0.022344479 0.708 -0.049654398 1.664889e-38 338 280
0.023585839 0.708 -0.049654398 1.664889e-38 339 280
0.024827199 0.708 -0.049654398 1.6002436e-38 340 280
0.026068559 0.708 -0.049654398 1.4987924e-38 341 280
0.027309919 0.708 -0.049654398 1.5172671e-38 342 280
0.02855128 0.708 -0.049654398 1.5541095e-38 343 280
0.029876797 0.70999998 -0.049794663 1.2323254e-38 344 280
0.031121666 0.70999998 -0.049794663 9.4655497e-39 345 280
0.032366529 0.70999998 -0.049794663 1.0310053e-38 346 280
0.033658739 0.71100003 -0.049864799 1.1047618e-38 347 280
0.034905359 0.71100003 -0.049864799 1.1956997e-38 348 280
0.036253672 0.713 -0.050005067 1.3062984e-38 349 280
0.037503798 0.713 -0.050005067 1.2613184e-38 350 280
0.038808275 0.71399999 -0.050075196 1.2152206e-38 351 280
0.040060159 0.71399999 -0.050075196 1.30666e-38 352 280
0.041427758 0.71600002 -0.050215468 1.4265143e-38 353 280
0.042683143 0.71600002 -0.050215468 1.390392e-38 354 280
-0.008677247 0.70700002 -0.050823875 1.0418854e-38 313 281
-0.0074376399 0.70700002 -0.050823875 1.4991539e-38 314 281
-0.0061892662 0.70599997 -0.050751984 1.4623117e-38 315 281
-0.0049514128 0.70599997 -0.050751984 1.6649596e-38 316 281
-0.0037188199 0.70700002 -0.050823875 1.7479357e-38 317 281
-0.00248272 0.708 -0.050895758 1.3705823e-38 318 281
-0.00124136 0.708 -0.050895758 9.188237e-39 319 281
0 0.708 -0.050895758 3.8570908e-39 320 281
0.0012378532 0.70599997 -0.050751984 6.9906576e-39 321 281
0.0024686933 0.704 -0.050608214 1.2969704e-38 322 281
0.0037030398 0.704 -0.050608214 1.3522876e-38 323 281
0.0049373866 0.704 -0.050608214 1.5357067e-38 324 281
0.0061717331 0.704 -0.050608214 1.5725489e-38 325 281
0.0074060797 0.704 -0.050608214 1.5912404e-38 326 281
0.0086404262 0.704 -0.050608214 1.7756317e-38 327 281
0.0098747732 0.704 -0.050608214 1.730001e-38 328 281
0.011109119 0.704 -0.050608214 1.7484043e-38 329 281
0.012378532 0.70599997 -0.050751984 1.7670938e-38 330 281
0.013616386 0.70599997 -0.050751984 1.7301797e-38 331 281
0.014854239 0.70599997 -0.050751984 1.5359581e-38 332 281
0.016114887 0.70700002 -0.050823875 1.3607862e-38 333 281
0.017354494 0.70700002 -0.050823875 1.1584967e-38 334 281
0.018594101 0.70700002 -0.050823875 1.4811814e-38 335 281
0.019833706 0.70700002 -0.050823875 1.7032068e-38 336 281
0.021073313 0.70700002 -0.050823875 1.5280353e-38 337 281
0.022312919 0.70700002 -0.050823875 1.5728013e-38 338 281
0.023552528 0.70700002 -0.050823875 1.5728013e-38 339 281
0.024792133 0.70700002 -0.050823875 1.54507e-38 340 281
0.02603174 0.70700002 -0.050823875 1.4529104e-38 341 281
0.027271347 0.70700002 -0.050823875 1.5264867e-38 342 281
0.02855128 0.708 -0.050895758 1.6186464e-38 343 281
0.02979264 0.708 -0.050895758 1.3062984e-38 344 281
0.031034 0.708 -0.050895758 1.0113084e-38 345 281
0.03227536 0.708 -0.050895758 1.1140187e-38 346 281
0.033516716 0.708 -0.050895758 1.1877752e-38 347 281
0.034758076 0.708 -0.050895758 1.4348341e-38 348 281
0.036151983 0.71100003 -0.051111419 1.4624927e-38 349 281
0.037398599 0.71100003 -0.051111419 1.1046228e-38 350 281
0.038753927 0.713 -0.051255193 1.0585609e-38 351 281
0.040060159 0.71399999 -0.05132708 1.2238288e-38 352 281
0.041427758 0.71600002 -0.051470853 1.4358787e-38 353 281
0.042683143 0.71600002 -0.051470853 1.3906793e-38 354 281
0.044122629 0.71899998 -0.05168651 1.6119489e-38 355 281
-0.0099168532 0.70700002 -0.05206348 1.696222e-38 312 282
-0.008677247 0.70700002 -0.05206348 8.756808e-39 313 282
-0.0074376399 0.70700002 -0.05206348 1.5169814e-38 314 282
-0.0061892662 0.70599997 -0.051989835 1.6737498e-38 315 282
-0.0049514128 0.70599997 -0.051989835 1.5823077e-38 316 282
-0.0037188199 0.70700002 -0.05206348 1.4809284e-38 317 282
-0.0024792133 0.70700002 -0.05206348 1.0479696e-38 318 282
-0.0012378532 0.70599997 -0.051989835 6.2448137e-39 319 282
0 0.704 -0.051842559 8.458578e-39 320 282
0.0012343467 0.704 -0.051842559 9.8415125e-39 321 282
0.0024686933 0.704 -0.051842559 1.3608587e-38 322 282
0.0037030398 0.704 -0.051842559 1.3977368e-38 323 282
0.0049373866 0.704 -0.051842559 1.4987561e-38 324 282
0.0061717331 0.704 -0.051842559 1.5263788e-38 325 282
0.0074060797 0.704 -0.051842559 1.5358154e-38 326 282
0.0086404262 0.704 -0.051842559 1.6741089e-38 327 282
0.0098747732 0.704 -0.051842559 1.6192584e-38 328 282
0.011109119 0.704 -0.051842559 1.6284781e-38 329 282
0.012343466 0.704 -0.051842559 1.6561714e-38 330 282
0.013616386 0.70599997 -0.051989835 1.6285487e-38 331 282
0.014854239 0.70599997 -0.051989835 1.3885172e-38 332 282
0.016092092 0.70599997 -0.051989835 1.2133455e-38 333 282
0.017354494 0.70700002 -0.05206348 1.2419048e-38 334 282
0.018567799 0.70599997 -0.051989835 1.5277111e-38 335 282
0.019805651 0.70599997 -0.051989835 1.7029551e-38 336 282
0.021043506 0.70599997 -0.051989835 1.4909051e-38 337 282
0.022281358 0.70599997 -0.051989835 1.5631141e-38 338 282
0.023552528 0.70700002 -0.05206348 1.5723338e-38 339 282
0.024792133 0.70700002 -0.05206348 1.5264514e-38 340 282
0.02603174 0.70700002 -0.05206348 1.5080122e-38 341 282
0.027271347 0.70700002 -0.05206348 1.5542896e-38 342 282
0.028510952 0.70700002 -0.05206348 1.7110582e-38 343 282
0.02979264 0.708 -0.052137118 1.3982427e-38 344 282
0.031034 0.708 -0.052137118 1.0018014e-38 345 282
0.032229774 0.70700002 -0.05206348 1.1042599e-38 346 282
0.033469379 0.70700002 -0.05206348 1.1964197e-38 347 282
0.034758076 0.708 -0.052137118 1.4348341e-38 348 282
0.036151983 0.71100003 -0.052358042 1.499371e-38 349 282
0.037398599 0.71100003 -0.052358042 1.3892064e-38 350 282
0.038753927 0.713 -0.052505318 1.2785716e-38 351 282
0.040004052 0.713 -0.052505318 1.0305779e-38 352 282
0.041312039 0.71399999 -0.052578956 1.344043e-38 353 282
0.042683143 0.71600002 -0.052726239 1.4001151e-38 354 282
0.044122629 0.71899998 -0.05294716 1.6398597e-38 355 282
0.045383278 0.71899998 -0.05294716 1.6870022e-38 356 282
-0.008677247 0.70700002 -0.053303085 8.93507e-39 313 283
-0.0074271196 0.70599997 -0.053227689 1.5540029e-38 314 283
-0.0061717331 0.704 -0.053076904 1.7015159e-38 315 283
-0.0049373866 0.704 -0.053076904 1.4168243e-38 316 283
-0.0037030398 0.704 -0.053076904 1.1033952e-38 317 283
-0.0024686933 0.704 -0.053076904 8.0847775e-39 318 283
-0.0012343467 0.704 -0.053076904 7.1631785e-39 319 283
0 0.704 -0.053076904 1.1495646e-38 320 283
0.0012343467 0.704 -0.053076904 1.2325407e-38 321 283
0.0024686933 0.704 -0.053076904 1.3974851e-38 322 283
0.0037030398 0.704 -0.053076904 1.4159242e-38 323 283
0.0049373866 0.704 -0.053076904 1.4618421e-38 324 283
0.0061717331 0.704 -0.053076904 1.4341836e-38 325 283
0.0074060797 0.704 -0.053076904 1.4618421e-38 326 283
0.0086404262 0.704 -0.053076904 1.4987205e-38 327 283
0.0098747732 0.704 -0.053076904 1.4804612e-38 328 283
0.011109119 0.704 -0.053076904 1.4804612e-38 329 283
0.012343466 0.704 -0.053076904 1.4987561e-38 330 283
0.013577812 0.704 -0.053076904 1.5079757e-38 331 283
0.014854239 0.70599997 -0.053227689 1.2408251e-38 332 283
0.016092092 0.70599997 -0.053227689 1.0840565e-38 333 283
0.017329946 0.70599997 -0.053227689 1.3064423e-38 334 283
0.018567799 0.70599997 -0.053227689 1.5092727e-38 335 283
0.019805651 0.70599997 -0.053227689 1.6195105e-38 336 283
0.021043506 0.70599997 -0.053227689 1.481217e-38 337 283
0.022281358 0.70599997 -0.053227689 1.5630775e-38 338 283
0.023519212 0.70599997 -0.053227689 1.553858e-38 339 283
0.024757065 0.70599997 -0.053227689 1.5263435e-38 340 283
0.025994917 0.70599997 -0.053227689 1.535563e-38 341 283
0.027232772 0.70599997 -0.053227689 1.6003152e-38 342 283
0.028470624 0.70599997 -0.053227689 1.812401e-38 343 283
0.029750559 0.70700002 -0.053303085 1.4535953e-38 344 283
0.030990168 0.70700002 -0.053303085 9.1886069e-39 345 283
0.032229774 0.70700002 -0.053303085 1.0766007e-38 346 283
0.033469379 0.70700002 -0.053303085 1.196455e-38 347 283
0.034708988 0.70700002 -0.053303085 1.4439815e-38 348 283
0.03599944 0.708 -0.053378478 1.5085184e-38 349 283
0.037345998 0.70999998 -0.053529263 1.4811856e-38 350 283
0.038645219 0.71100003 -0.053604662 1.3244529e-38 351 283
0.040004052 0.713 -0.053755447 9.2934226e-39 352 283
0.041312039 0.71399999 -0.053830836 1.2796857e-38 353 283
0.042563915 0.71399999 -0.053830836 1.4095151e-38 354 283
0.044183999 0.72000003 -0.054283202 1.686102e-38 355 283
0.045446403 0.72000003 -0.054283202 1.7146252e-38 356 283
-0.0099168532 0.70700002 -0.054542694 1.5196091e-38 312 284
-0.008677247 0.70700002 -0.054542694 1.0954732e-38 313 284
-0.0074060797 0.704 -0.054311249 1.5450347e-38 314 284
-0.0061717331 0.704 -0.054311249 1.4712782e-38 315 284
-0.0049373866 0.704 -0.054311249 9.8451264e-39 316 284
-0.0037030398 0.704 -0.054311249 6.7108338e-39 317 284
-0.0024686933 0.704 -0.054311249 6.9881423e-39 318 284
-0.0012343467 0.704 -0.054311249 8.7395006e-39 319 284
0 0.704 -0.054311249 1.2873185e-38 320 284
0.0012343467 0.704 -0.054311249 1.3057937e-38 321 284
0.0024686933 0.704 -0.054311249 1.3790103e-38 322 284
0.0037030398 0.704 -0.054311249 1.3974495e-38 323 284
0.0049373866 0.704 -0.054311249 1.4157443e-38 324 284
0.0061717331 0.704 -0.054311249 1.4065247e-38 325 284
0.0074060797 0.704 -0.054311249 1.434039e-38 326 284
0.0086404262 0.704 -0.054311249 1.434039e-38 327 284
0.0098747732 0.704 -0.054311249 1.4525504e-38 328 284
0.011109119 0.704 -0.054311249 1.4525504e-38 329 284
0.012343466 0.704 -0.054311249 1.4432235e-38 330 284
0.013577812 0.704 -0.054311249 1.4616628e-38 331 284
0.014854239 0.70599997 -0.054465543 1.1207553e-38 332 284
0.016092092 0.70599997 -0.054465543 9.4590659e-39 333 284
0.017329946 0.70599997 -0.054465543 1.3245931e-38 334 284
0.018567799 0.70599997 -0.054465543 1.407605e-38 335 284
0.019805651 0.70599997 -0.054465543 1.5357783e-38 336 284
0.021043506 0.70599997 -0.054465543 1.4897163e-38 337 284
0.022281358 0.70599997 -0.054465543 1.5078678e-38 338 284
0.023519212 0.70599997 -0.054465543 1.4802091e-38 339 284
0.024757065 0.70599997 -0.054465543 1.4712066e-38 340 284
0.025994917 0.70599997 -0.054465543 1.6371227e-38 341 284
0.027232772 0.70599997 -0.054465543 1.628226e-38 342 284
0.028470624 0.70599997 -0.054465543 1.794178e-38 343 284
0.029708479 0.70599997 -0.054465543 1.4447352e-38 344 284
0.030946331 0.70599997 -0.054465543 8.8234173e-39 345 284
0.032184184 0.70599997 -0.054465543 1.0672738e-38 346 284
0.033469379 0.70700002 -0.054542694 1.2332259e-38 347 284
0.034708988 0.70700002 -0.054542694 1.4163226e-38 348 284
0.03599944 0.708 -0.054619838 1.4347619e-38 349 284
0.037345998 0.70999998 -0.054774132 1.3614741e-38 350 284
0.038645219 0.71100003 -0.054851279 1.2600589e-38 351 284
0.040004052 0.713 -0.055005573 9.6596772e-39 352 284
0.041312039 0.71399999 -0.05508272 1.2886524e-38 353 284
0.042563915 0.71399999 -0.05508272 1.3912555e-38 354 284
0.043815799 0.71399999 -0.05508272 1.7416348e-38 355 284
-0.0099168532 0.70700002 -0.055782299 1.4264058e-38 312 285
-0.008677247 0.70700002 -0.055782299 1.2881124e-38 313 285
-0.0074060797 0.704 -0.055545598 1.3247363e-38 314 285
-0.0061717331 0.704 -0.055545598 1.0020516e-38 315 285
-0.0049373866 0.704 -0.055545598 6.2523864e-39 316 285
-0.0037030398 0.704 -0.055545598 5.9757995e-39 317 285
-0.0024686933 0.704 -0.055545598 9.0121302e-39 318 285
-0.0012343467 0.704 -0.055545598 1.0855684e-38 319 285
0 0.704 -0.055545598 1.3331645e-38 320 285
0.0012343467 0.704 -0.055545598 1.323945e-38 321 285
0.0024686933 0.704 -0.055545598 1.3881579e-38 322 285
0.0037030398 0.704 -0.055545598 1.3973775e-38 323 285
0.0049373866 0.704 -0.055545598 1.3973052e-38 324 285
0.0061629666 0.70300001 -0.0554667 1.3788662e-38 325 285
0.0073955595 0.70300001 -0.0554667 1.3972333e-38 326 285
0.0086281532 0.70300001 -0.0554667 1.4064529e-38 327 285
0.0098607466 0.70300001 -0.0554667 1.4158163e-38 328 285
0.011109119 0.704 -0.055545598 1.3974131e-38 329 285
0.012343466 0.704 -0.055545598 1.3789381e-38 330 285
0.013616386 0.70599997 -0.055703394 1.3789381e-38 331 285
0.014854239 0.70599997 -0.055703394 1.0381017e-38 332 285
0.016092092 0.70599997 -0.055703394 8.9998786e-39 333 285
0.017329946 0.70599997 -0.055703394 1.2968958e-38 334 285
0.018567799 0.70599997 -0.055703394 1.3337741e-38 335 285
0.019805651 0.70599997 -0.055703394 1.4710248e-38 336 285
0.021043506 0.70599997 -0.055703394 1.4710248e-38 337 285
0.022218239 0.704 -0.055545598 1.46177e-38 338 285
0.023452586 0.704 -0.055545598 1.46177e-38 339 285
0.024686933 0.704 -0.055545598 1.4619147e-38 340 285
0.02592128 0.704 -0.055545598 1.7016233e-38 341 285
0.027155625 0.704 -0.055545598 1.6929073e-38 342 285
0.028389972 0.704 -0.055545598 1.7758835e-38 343 285
0.029708479 0.70599997 -0.055703394 1.4445205e-38 344 285
0.030946331 0.70599997 -0.055703394 8.359935e-39 345 285
0.032184184 0.70599997 -0.055703394 1.0211416e-38 346 285
0.033469379 0.70700002 -0.055782299 1.2331555e-38 347 285
0.034758076 0.708 -0.055861197 1.3612202e-38 348 285
0.036101133 0.70999998 -0.056018997 1.3520006e-38 349 285
0.037345998 0.70999998 -0.056018997 1.2878227e-38 350 285
0.038645219 0.71100003 -0.056097899 1.2140662e-38 351 285
0.040004052 0.713 -0.056255698 9.5635033e-39 352 285
0.041312039 0.71399999 -0.0563346 1.3159133e-38 353 285
0.042563915 0.71399999 -0.0563346 1.4095136e-38 354 285
0.043938532 0.71600002 -0.056492399 1.8796753e-38 355 285
0.045193922 0.71600002 -0.056492399 1.7791621e-38 356 285
-0.0099168532 0.70700002 -0.057021905 1.4718562e-38 312 286
-0.008677247 0.70700002 -0.057021905 1.2690258e-38 313 286
-0.0074060797 0.704 -0.056779943 8.3735949e-39 314 286
-0.0061717331 0.704 -0.056779943 3.7652553e-39 315 286
-0.0049373866 0.704 -0.056779943 3.032379e-39 316 286
-0.0037030398 0.704 -0.056779943 5.9822791e-39 317 286
-0.0024686933 0.704 -0.056779943 1.1864078e-38 318 286
-0.0012343467 0.704 -0.056779943 1.2509447e-38 319 286
0 0.704 -0.056779943 1.3331998e-38 320 286
0.0012343467 0.704 -0.056779943 1.3239803e-38 321 286
0.0024686933 0.704 -0.056779943 1.3789381e-38 322 286
0.0036977797 0.70300001 -0.056699295 1.3789381e-38 323 286
0.0049303733 0.70300001 -0.056699295 1.3973046e-38 324 286
0.0061629666 0.70300001 -0.056699295 1.3973046e-38 325 286
0.0073955595 0.70300001 -0.056699295 1.3790087e-38 326 286
0.0086281532 0.70300001 -0.056699295 1.3790087e-38 327 286
0.0098607466 0.70300001 -0.056699295 1.3973399e-38 328 286
0.01109334 0.70300001 -0.056699295 1.3789368e-38 329 286
0.012343466 0.704 -0.056779943 1.3422396e-38 330 286
0.013577812 0.704 -0.056779943 1.2961418e-38 331 286
0.014812159 0.704 -0.056779943 9.556295e-39 332 286
0.016046507 0.704 -0.056779943 8.3577518e-39 333 286
0.017280852 0.704 -0.056779943 1.2784567e-38 334 286
0.018515198 0.704 -0.056779943 1.2784567e-38 335 286
0.019749546 0.704 -0.056779943 1.4615885e-38 336 286
0.020983893 0.704 -0.056779943 1.4615885e-38 337 286
0.022218239 0.704 -0.056779943 1.4432582e-38 338 286
0.023452586 0.704 -0.056779943 1.4617334e-38 339 286
0.024686933 0.704 -0.056779943 1.46195e-38 340 286
0.02592128 0.704 -0.056779943 1.6002436e-38 341 286
0.027155625 0.704 -0.056779943 1.6556329e-38 342 286
0.028389972 0.704 -0.056779943 1.7754512e-38 343 286
0.029708479 0.70599997 -0.056941248 1.3794795e-38 344 286
0.030946331 0.70599997 -0.056941248 9.0006213e-39 345 286
0.032184184 0.70599997 -0.056941248 9.7504281e-39 346 286
0.033469379 0.70700002 -0.057021905 1.1041167e-38 347 286
0.034758076 0.708 -0.057102561 1.2692407e-38 348 286
0.036101133 0.70999998 -0.057263866 1.2600211e-38 349 286
0.037398599 0.71100003 -0.057344519 1.2692041e-38 350 286
0.038753927 0.713 -0.057505824 1.1677888e-38 351 286
0.040004052 0.713 -0.057505824 9.1925572e-39 352 286
0.041312039 0.71399999 -0.057586476 1.3710142e-38 353 286
0.042563915 0.71399999 -0.057586476 1.4283839e-38 354 286
0.043938532 0.71600002 -0.057747785 1.8801425e-38 355 286
-0.011203799 0.70999998 -0.058508728 1.0229784e-38 311 287
-0.0099168532 0.70700002 -0.05826151 1.0856445e-38 312 287
-0.008677247 0.70700002 -0.05826151 8.1827717e-39 313 287
-0.0074271196 0.70599997 -0.058179103 5.0567593e-39 314 287
-0.0061717331 0.704 -0.058014292 4.9645622e-39 315 287
-0.0049373866 0.704 -0.058014292 7.5402595e-39 316 287
-0.0037030398 0.704 -0.058014292 9.5685648e-39 317 287
-0.0024686933 0.704 -0.058014292 1.2415437e-38 318 287
-0.0012343467 0.704 -0.058014292 1.2507633e-38 319 287
0 0.704 -0.058014292 1.3331996e-38 320 287
0.0012343467 0.704 -0.058014292 1.3424191e-38 321 287
0.0024686933 0.704 -0.058014292 1.388193e-38 322 287
0.0036977797 0.70300001 -0.057931885 1.388193e-38 323 287
0.0049303733 0.70300001 -0.057931885 1.3699692e-38 324 287
0.0061629666 0.70300001 -0.057931885 1.3699692e-38 325 287
0.0073955595 0.70300001 -0.057931885 1.3607857e-38 326 287
0.0086281532 0.70300001 -0.057931885 1.3423826e-38 327 287
0.0098607466 0.70300001 -0.057931885 1.3422749e-38 328 287
0.01109334 0.70300001 -0.057931885 1.3422749e-38 329 287
0.012343466 0.704 -0.058014292 1.2502964e-38 330 287
0.013577812 0.704 -0.058014292 1.1580649e-38 331 287
0.014812159 0.704 -0.058014292 9.006361e-39 332 287
0.016046507 0.704 -0.058014292 9.0985567e-39 333 287
0.017280852 0.704 -0.058014292 1.3150833e-38 334 287
0.018515198 0.704 -0.058014292 1.3150833e-38 335 287
0.019749546 0.704 -0.058014292 1.388193e-38 336 287
0.020983893 0.704 -0.058014292 1.3974484e-38 337 287
0.022218239 0.704 -0.058014292 1.3974495e-38 338 287
0.023452586 0.704 -0.058014292 1.4159245e-38 339 287
0.024686933 0.704 -0.058014292 1.4803886e-38 340 287
0.02592128 0.704 -0.058014292 1.5818038e-38 341 287
0.027155625 0.704 -0.058014292 1.6187171e-38 342 287
0.028389972 0.704 -0.058014292 1.6371562e-38 343 287
0.029708479 0.70599997 -0.058179103 1.2688425e-38 344 287
0.030946331 0.70599997 -0.058179103 9.3693828e-39 345 287
0.032184184 0.70599997 -0.058179103 9.9351599e-39 346 287
0.033516716 0.708 -0.058343921 1.0856756e-38 347 287
0.034856264 0.70999998 -0.058508728 1.2414748e-38 348 287
0.036151983 0.71100003 -0.058591139 1.2322551e-38 349 287
0.037503798 0.713 -0.058755953 1.2139956e-38 350 287
0.038808275 0.71399999 -0.058838356 1.0941413e-38 351 287
0.040060159 0.71399999 -0.058838356 1.0565423e-38 352 287
0.041427758 0.71600002 -0.059003171 1.7480456e-38 353 287
0.042683143 0.71600002 -0.059003171 1.5850088e-38 354 287
0.043938532 0.71600002 -0.059003171 1.9445719e-38 355 287
-0.012448666 0.70999998 -0.059753593 1.5667884e-38 310 288
-0.011203799 0.70999998 -0.059753593 8.0156472e-39 311 288
-0.0099589331 0.70999998 -0.059753593 5.8868661e-39 312 288
-0.008677247 0.70700002 -0.059501119 3.3979428e-39 313 288
-0.0074271196 0.70599997 -0.059416957 1.4729819e-39 314 288
-0.0061717331 0.704 -0.059248637 4.1466552e-39 315 288
-0.0049373866 0.704 -0.059248637 1.011705e-38 316 288
-0.0037030398 0.704 -0.059248637 1.1499984e-38 317 288
-0.0024686933 0.704 -0.059248637 1.2690592e-38 318 288
-0.0012343467 0.704 -0.059248637 1.2598396e-38 319 288
0 0.704 -0.059248637 1.3331643e-38 320 288
0.0012343467 0.704 -0.059248637 1.3516394e-38 321 288
0.0024651866 0.70300001 -0.059164476 1.3608587e-38 322 288
0.0036977797 0.70300001 -0.059164476 1.3700782e-38 323 288
0.0049303733 0.70300001 -0.059164476 1.3518545e-38 324 288
0.0061629666 0.70300001 -0.059164476 1.3518545e-38 325 288
0.0073955595 0.70300001 -0.059164476 1.3240879e-38 326 288
0.0086281532 0.70300001 -0.059164476 1.3424912e-38 327 288
0.0098607466 0.70300001 -0.059164476 1.3331277e-38 328 288
0.01109334 0.70300001 -0.059164476 1.3239081e-38 329 288
0.012325933 0.70300001 -0.059164476 1.195051e-38 330 288
0.013558527 0.70300001 -0.059164476 1.0106598e-38 331 288
0.014791119 0.70300001 -0.059164476 9.466263e-39 332 288
0.016023712 0.70300001 -0.059164476 1.0572611e-38 333 288
0.017256306 0.70300001 -0.059164476 1.3149753e-38 334 288
0.018515198 0.704 -0.059248637 1.3149753e-38 335 288
0.019749546 0.704 -0.059248637 1.3697536e-38 336 288
0.020983893 0.704 -0.059248637 1.3697536e-38 337 288
0.022218239 0.704 -0.059248637 1.3880132e-38 338 288
0.023452586 0.704 -0.059248637 1.4064882e-38 339 288
0.024686933 0.704 -0.059248637 1.4712769e-38 340 288
0.02592128 0.704 -0.059248637 1.5818757e-38 341 288
0.027155625 0.704 -0.059248637 1.535742e-38 342 288
0.028389972 0.704 -0.059248637 1.4250712e-38 343 288
0.029708479 0.70599997 -0.059416957 1.1675718e-38 344 288
0.030946331 0.70599997 -0.059416957 1.0108751e-38 345 288
0.032229774 0.70700002 -0.059501119 1.039363e-38 346 288
0.033516716 0.708 -0.059585281 1.0762772e-38 347 288
0.034905359 0.71100003 -0.059837762 1.2136722e-38 348 288
0.036253672 0.713 -0.060006075 1.2321113e-38 349 288
0.037556399 0.71399999 -0.060090236 1.1956646e-38 350 288
0.038808275 0.71399999 -0.060090236 1.103433e-38 351 288
0.040060159 0.71399999 -0.060090236 1.1399873e-38 352 288
0.041427758 0.71600002 -0.06025856 1.8683327e-38 353 288
0.042683143 0.71600002 -0.06025856 1.6866055e-38 354 288
0.043938532 0.71600002 -0.06025856 1.9355337e-38 355 288
-0.0124136 0.708 -0.060826641 1.4559739e-38 310 289
-0.01117224 0.708 -0.060826641 6.5387179e-39 311 289
-0.0099308798 0.708 -0.060826641 2.2062337e-39 312 289
-0.008677247 0.70700002 -0.060740728 3.0359944e-39 313 289
-0.0074271196 0.70599997 -0.060654808 5.9765253e-39 314 289
-0.0061717331 0.704 -0.060482983 8.3736117e-39 315 289
-0.0049373866 0.704 -0.060482983 1.2137788e-38 316 289
-0.0037030398 0.704 -0.060482983 1.2690962e-38 317 289
-0.0024686933 0.704 -0.060482983 1.2780995e-38 318 289
-0.0012343467 0.704 -0.060482983 1.2873191e-38 319 289
0 0.70300001 -0.06039707 1.2966104e-38 320 289
0.0012325933 0.70300001 -0.06039707 1.2966104e-38 321 289
0.0024651866 0.70300001 -0.06039707 1.3334519e-38 322 289
0.0036977797 0.70300001 -0.06039707 1.3334519e-38 323 289
0.0049303733 0.70300001 -0.06039707 1.3519983e-38 324 289
0.0061629666 0.70300001 -0.06039707 1.361218e-38 325 289
0.0073955595 0.70300001 -0.06039707 1.351998e-38 326 289
0.0086281532 0.70300001 -0.06039707 1.351998e-38 327 289
0.0098607466 0.70300001 -0.06039707 1.3516741e-38 328 289
0.01109334 0.70300001 -0.06039707 1.3056122e-38 329 289
0.012325933 0.70300001 -0.06039707 1.1856868e-38 330 289
0.013558527 0.70300001 -0.06039707 9.459782e-39 331 289
0.014791119 0.70300001 -0.06039707 1.0111269e-38 332 289
0.016023712 0.70300001 -0.06039707 1.1125063e-38 333 289
0.017256306 0.70300001 -0.06039707 1.3240153e-38 334 289
0.018488899 0.70300001 -0.06039707 1.3332349e-38 335 289
0.019721493 0.70300001 -0.06039707 1.351387e-38 336 289
0.020954086 0.70300001 -0.06039707 1.351387e-38 337 289
0.02218668 0.70300001 -0.06039707 1.3513873e-38 338 289
0.023419274 0.70300001 -0.06039707 1.4528023e-38 339 289
0.024686933 0.704 -0.060482983 1.5263422e-38 340 289
0.02592128 0.704 -0.060482983 1.5355618e-38 341 289
0.027155625 0.704 -0.060482983 1.4251788e-38 342 289
0.028470624 0.70599997 -0.060654808 1.3329832e-38 343 289
0.029708479 0.70599997 -0.060654808 1.1400573e-38 344 289
0.030946331 0.70599997 -0.060654808 1.08474e-38 345 289
0.032229774 0.70700002 -0.060740728 1.057551e-38 346 289
0.033611398 0.70999998 -0.060998458 1.057551e-38 347 289
0.034905359 0.71100003 -0.061084379 1.1583916e-38 348 289
0.036253672 0.713 -0.061256204 1.2229286e-38 349 289
0.037556399 0.71399999 -0.061342116 1.1683299e-38 350 289
0.038808275 0.71399999 -0.061342116 1.1406354e-38 351 289
0.040060159 0.71399999 -0.061342116 1.2233952e-38 352 289
0.041427758 0.71600002 -0.061513945 1.9517407e-38 353 289
0.042683143 0.71600002 -0.061513945 1.7422831e-38 354 289
0.043938532 0.71600002 -0.061513945 1.852882e-38 355 289
-0.01117224 0.708 -0.062068 5.2479805e-39 311 290
-0.0099308798 0.708 -0.062068 2.7624077e-40 312 290
-0.008677247 0.70700002 -0.061980337 3.2261408e-39 313 290
-0.0074271196 0.70599997 -0.061892662 8.1823821e-39 314 290
-0.0061717331 0.704 -0.061717331 1.0026655e-38 315 290
-0.0049373866 0.704 -0.061717331 1.287104e-38 316 290
-0.0037030398 0.704 -0.061717331 1.2963236e-38 317 290
-0.0024686933 0.704 -0.061717331 1.2688444e-38 318 290
-0.0012343467 0.704 -0.061717331 1.2872835e-38 319 290
0 0.70300001 -0.061629668 1.2690243e-38 320 290
0.0012325933 0.70300001 -0.061629668 1.2782439e-38 321 290
0.0024651866 0.70300001 -0.061629668 1.2874634e-38 322 290
0.0036977797 0.70300001 -0.061629668 1.2967189e-38 323 290
0.0049303733 0.70300001 -0.061629668 1.3152297e-38 324 290
0.0061629666 0.70300001 -0.061629668 1.3428883e-38 325 290
0.0073955595 0.70300001 -0.061629668 1.3062255e-38 326 290
0.0086281532 0.70300001 -0.061629668 1.3430678e-38 327 290
0.0098607466 0.70300001 -0.061629668 1.3518911e-38 328 290
0.01109334 0.70300001 -0.061629668 1.2596596e-38 329 290
0.012325933 0.70300001 -0.061629668 1.1121473e-38 330 290
0.013558527 0.70300001 -0.061629668 8.908776e-39 331 290
0.014749039 0.70099998 -0.06145433 1.0572613e-38 332 290
0.015978126 0.70099998 -0.06145433 1.1586767e-38 333 290
0.017256306 0.70300001 -0.061629668 1.3055772e-38 334 290
0.018488899 0.70300001 -0.061629668 1.3055772e-38 335 290
0.019721493 0.70300001 -0.061629668 1.3330201e-38 336 290
0.020954086 0.70300001 -0.061629668 1.3422396e-38 337 290
0.02218668 0.70300001 -0.061629668 1.3700059e-38 338 290
0.023419274 0.70300001 -0.061629668 1.4990798e-38 339 290
0.024651866 0.70300001 -0.061629668 1.5083347e-38 340 290
0.02592128 0.704 -0.061717331 1.4069195e-38 341 290
0.027155625 0.704 -0.061717331 1.3056132e-38 342 290
0.028470624 0.70599997 -0.061892662 1.2410762e-38 343 290
0.029708479 0.70599997 -0.061892662 1.112651e-38 344 290
0.030990168 0.70700002 -0.061980337 1.0942119e-38 345 290
0.03227536 0.708 -0.062068 1.0941413e-38 346 290
0.033658739 0.71100003 -0.062331002 1.0849217e-38 347 290
0.035003547 0.713 -0.062506333 1.140132e-38 348 290
0.036304519 0.71399999 -0.062593997 1.2323278e-38 349 290
0.037556399 0.71399999 -0.062593997 1.2234668e-38 350 290
0.038916986 0.71600002 -0.062769331 1.2696007e-38 351 290
0.040172372 0.71600002 -0.062769331 1.2793607e-38 352 290
0.041312039 0.71399999 -0.062593997 1.9616442e-38 353 290
0.042563915 0.71399999 -0.062593997 1.7610108e-38 354 290
0.043815799 0.71399999 -0.062593997 1.7517911e-38 355 290
-0.01117224 0.708 -0.063309364 4.0490673e-39 311 291
-0.0099308798 0.708 -0.063309364 1.4693721e-39 312 291
-0.008689519 0.708 -0.063309364 5.9865993e-39 313 291
-0.0074376399 0.70700002 -0.063219935 1.1217632e-38 314 291
-0.0061892662 0.70599997 -0.063130513 1.1402024e-38 315 291
-0.0049514128 0.70599997 -0.063130513 1.22271e-38 316 291
-0.0037135598 0.70599997 -0.063130513 1.2503328e-38 317 291
-0.0024686933 0.704 -0.062951677 1.2596248e-38 318 291
-0.0012343467 0.704 -0.062951677 1.2780639e-38 319 291
0 0.704 -0.062951677 1.2505494e-38 320 291
0.0012343467 0.704 -0.062951677 1.2598049e-38 321 291
0.0024686933 0.704 -0.062951677 1.2690965e-38 322 291
0.0036977797 0.70300001 -0.062862262 1.2875356e-38 323 291
0.0049303733 0.70300001 -0.062862262 1.2967552e-38 324 291
0.0061629666 0.70300001 -0.062862262 1.2875356e-38 325 291
0.0073955595 0.70300001 -0.062862262 1.3060473e-38 326 291
0.0086281532 0.70300001 -0.062862262 1.3244864e-38 327 291
0.0098607466 0.70300001 -0.062862262 1.2875356e-38 328 291
0.01109334 0.70300001 -0.062862262 1.1676813e-38 329 291
0.012325933 0.70300001 -0.062862262 1.0388229e-38 330 291
0.013558527 0.70300001 -0.062862262 9.6506641e-39 331 291
0.014749039 0.70099998 -0.062683418 1.1590732e-38 332 291
0.015978126 0.70099998 -0.062683418 1.2051709e-38 333 291
0.017256306 0.70300001 -0.062862262 1.3149052e-38 334 291
0.018488899 0.70300001 -0.062862262 1.2872825e-38 335 291
0.019721493 0.70300001 -0.062862262 1.3331277e-38 336 291
0.020954086 0.70300001 -0.062862262 1.3239081e-38 337 291
0.02218668 0.70300001 -0.062862262 1.3884085e-38 338 291
0.023419274 0.70300001 -0.062862262 1.4437259e-38 339 291
0.024651866 0.70300001 -0.062862262 1.4254306e-38 340 291
0.02592128 0.704 -0.062951677 1.2594784e-38 341 291
0.027155625 0.704 -0.062951677 1.08492e-38 342 291
0.028470624 0.70599997 -0.063130513 1.1217983e-38 343 291
0.029750559 0.70700002 -0.063219935 1.0941766e-38 344 291
0.031034 0.708 -0.063309364 1.0941766e-38 345 291
0.032412119 0.71100003 -0.063577622 1.103109e-38 346 291
0.033753417 0.713 -0.063756458 1.1584264e-38 347 291
0.035052639 0.71399999 -0.063845873 1.1496387e-38 348 291
0.036304519 0.71399999 -0.063845873 1.2141757e-38 349 291
0.037661601 0.71600002 -0.064024724 1.2418701e-38 350 291
0.038916986 0.71600002 -0.064024724 1.3893471e-38 351 291
0.040172372 0.71600002 -0.064024724 1.3445816e-38 352 291
0.041312039 0.71399999 -0.063845873 1.9438532e-38 353 291
0.042563915 0.71399999 -0.063845873 1.7518278e-38 354 291
0.043815799 0.71399999 -0.063845873 1.7149854e-38 355 291
-0.0124662 0.71100003 -0.064824238 1.0226159e-38 310 292
-0.01121958 0.71100003 -0.064824238 4.8784524e-39 311 292
-0.0099589331 0.70999998 -0.064733058 5.5126437e-39 312 292
-0.0087140659 0.70999998 -0.064733058 9.2001102e-39 313 292
-0.0074376399 0.70700002 -0.064459547 1.2228172e-38 314 292
-0.0061980332 0.70700002 -0.064459547 1.2135976e-38 315 292
-0.0049584266 0.70700002 -0.064459547 1.2502964e-38 316 292
-0.0037135598 0.70599997 -0.064368367 1.2502964e-38 317 292
-0.0024686933 0.704 -0.064186029 1.2411861e-38 318 292
-0.0012343467 0.704 -0.064186029 1.2411861e-38 319 292
0 0.704 -0.064186029 1.2320387e-38 320 292
0.0012343467 0.704 -0.064186029 1.2596974e-38 321 292
0.0024686933 0.704 -0.064186029 1.250658e-38 322 292
0.0036977797 0.70300001 -0.064094849 1.2690612e-38 323 292
0.0049303733 0.70300001 -0.064094849 1.2599142e-38 324 292
0.0061629666 0.70300001 -0.064094849 1.2691337e-38 325 292
0.0073955595 0.70300001 -0.064094849 1.287682e-38 326 292
0.0086281532 0.70300001 -0.064094849 1.287682e-38 327 292
0.0098607466 0.70300001 -0.064094849 1.241475e-38 328 292
0.01109334 0.70300001 -0.064094849 1.0755229e-38 329 292
0.012325933 0.70300001 -0.064094849 9.103244e-39 330 292
0.013558527 0.70300001 -0.064094849 1.0025202e-38 331 292
0.014791119 0.70300001 -0.064094849 1.1870562e-38 332 292
0.016023712 0.70300001 -0.064094849 1.1962757e-38 333 292
0.017256306 0.70300001 -0.064094849 1.3150851e-38 334 292
0.018488899 0.70300001 -0.064094849 1.296646e-38 335 292
0.019721493 0.70300001 -0.064094849 1.3241229e-38 336 292
0.020954086 0.70300001 -0.064094849 1.3149034e-38 337 292
0.02218668 0.70300001 -0.064094849 1.3699336e-38 338 292
0.023419274 0.70300001 -0.064094849 1.3791533e-38 339 292
0.024651866 0.70300001 -0.064094849 1.3516394e-38 340 292
0.02592128 0.704 -0.064186029 1.2225655e-38 341 292
0.027232772 0.70599997 -0.064368367 1.0481146e-38 342 292
0.028510952 0.70700002 -0.064459547 1.0665538e-38 343 292
0.02979264 0.708 -0.06455072 1.029856e-38 344 292
0.031121666 0.70999998 -0.064733058 1.029856e-38 345 292
0.032412119 0.71100003 -0.064824238 1.1309825e-38 346 292
0.033800758 0.71399999 -0.065097757 1.204739e-38 347 292
0.035052639 0.71399999 -0.065097757 1.2049911e-38 348 292
0.036304519 0.71399999 -0.065097757 1.2326498e-38 349 292
0.037661601 0.71600002 -0.06528011 1.2694928e-38 350 292
0.038808275 0.71399999 -0.065097757 1.5092374e-38 351 292
0.040060159 0.71399999 -0.065097757 1.4556129e-38 352 292
0.041312039 0.71399999 -0.065097757 1.9073355e-38 353 292
0.042563915 0.71399999 -0.065097757 1.7333169e-38 354 292
-0.01371282 0.71100003 -0.066070862 1.447366e-38 309 293
-0.0124662 0.71100003 -0.066070862 8.8425016e-39 310 293
-0.01121958 0.71100003 -0.066070862 6.4450565e-39 311 293
-0.0099729598 0.71100003 -0.066070862 1.0577282e-38 312 293
-0.0087140659 0.70999998 -0.065977924 1.1499239e-38 313 293
-0.0074481601 0.708 -0.065792084 1.2139571e-38 314 293
-0.0062067998 0.708 -0.065792084 1.1955179e-38 315 293
-0.0049584266 0.70700002 -0.065699153 1.2504036e-38 316 293
-0.0037188199 0.70700002 -0.065699153 1.2504036e-38 317 293
-0.0024686933 0.704 -0.065420374 1.2320372e-38 318 293
-0.0012343467 0.704 -0.065420374 1.2228175e-38 319 293
0 0.704 -0.065420374 1.2503331e-38 320 293
0.0012343467 0.704 -0.065420374 1.2411134e-38 321 293
0.0024686933 0.704 -0.065420374 1.2412936e-38 322 293
0.0037030398 0.704 -0.065420374 1.2505131e-38 323 293
0.0049373866 0.704 -0.065420374 1.2506931e-38 324 293
0.0061629666 0.70300001 -0.065327443 1.2875353e-38 325 293
0.0073955595 0.70300001 -0.065327443 1.2789278e-38 326 293
0.0086281532 0.70300001 -0.065327443 1.297367e-38 327 293
0.0098607466 0.70300001 -0.065327443 1.2695306e-38 328 293
0.01109334 0.70300001 -0.065327443 1.0667002e-38 329 293
0.012325933 0.70300001 -0.065327443 7.452747e-39 330 293
0.013558527 0.70300001 -0.065327443 8.4672577e-39 331 293
0.014791119 0.70300001 -0.065327443 1.1500706e-38 332 293
0.016023712 0.70300001 -0.065327443 1.1592902e-38 333 293
0.017256306 0.70300001 -0.065327443 1.3242694e-38 334 293
0.018488899 0.70300001 -0.065327443 1.3335248e-38 335 293
0.019721493 0.70300001 -0.065327443 1.3426709e-38 336 293
0.020954086 0.70300001 -0.065327443 1.3334514e-38 337 293
0.02218668 0.70300001 -0.065327443 1.360859e-38 338 293
0.023419274 0.70300001 -0.065327443 1.3239447e-38 339 293
0.024651866 0.70300001 -0.065327443 1.3146179e-38 340 293
0.02592128 0.704 -0.065420374 1.2593364e-38 341 293
0.027232772 0.70599997 -0.065606222 1.0758454e-38 342 293
0.02855128 0.708 -0.065792084 1.0481507e-38 343 293
0.029876797 0.70999998 -0.065977924 9.8422552e-39 344 293
0.031121666 0.70999998 -0.065977924 1.0487625e-38 345 293
0.032412119 0.71100003 -0.066070862 1.1313422e-38 346 293
0.033753417 0.713 -0.066256717 1.1958792e-38 347 293
0.035052639 0.71399999 -0.066349633 1.2602366e-38 348 293
0.036304519 0.71399999 -0.066349633 1.3247736e-38 349 293
0.037556399 0.71399999 -0.066349633 1.3252064e-38 350 293
0.038808275 0.71399999 -0.066349633 1.5925737e-38 351 293
0.040060159 0.71399999 -0.066349633 1.5479535e-38 352 293
0.041427758 0.71600002 -0.066535495 1.8337239e-38 353 293
-0.01371282 0.71100003 -0.067317478 1.3735373e-38 309 294
-0.0124662 0.71100003 -0.067317478 8.3768557e-39 310 294
-0.01121958 0.71100003 -0.067317478 8.3768557e-39 311 294
-0.0099729598 0.71100003 -0.067317478 1.159216e-38 312 294
-0.0087140659 0.70999998 -0.067222796 1.1499606e-38 313 294
-0.0074481601 0.708 -0.067033432 1.2967163e-38 314 294
-0.0062067998 0.708 -0.067033432 1.2690576e-38 315 294
-0.0049654399 0.708 -0.067033432 1.2873526e-38 316 294
-0.00372408 0.708 -0.067033432 1.278133e-38 317 294
-0.0024792133 0.70700002 -0.066938758 1.2597305e-38 318 294
-0.0012378532 0.70599997 -0.066844068 1.2320718e-38 319 294
0 0.704 -0.066654719 1.22271e-38 320 294
0.0012343467 0.704 -0.066654719 1.2411131e-38 321 294
0.0024686933 0.704 -0.066654719 1.2319668e-38 322 294
0.0037030398 0.704 -0.066654719 1.2411864e-38 323 294
0.0049373866 0.704 -0.066654719 1.222928e-38 324 294
0.0061717331 0.704 -0.066654719 1.2782454e-38 325 294
0.0073955595 0.70300001 -0.066560037 1.2602382e-38 326 294
0.0086281532 0.70300001 -0.066560037 1.3247751e-38 327 294
0.0098607466 0.70300001 -0.066560037 1.2697842e-38 328 294
0.01109334 0.70300001 -0.066560037 1.085393e-38 329 294
0.012325933 0.70300001 -0.066560037 7.6432718e-39 330 294
0.013558527 0.70300001 -0.066560037 8.1042485e-39 331 294
0.014791119 0.70300001 -0.066560037 1.2143205e-38 332 294
0.016023712 0.70300001 -0.066560037 1.2143205e-38 333 294
0.017256306 0.70300001 -0.066560037 1.2969707e-38 334 294
0.018488899 0.70300001 -0.066560037 1.2969707e-38 335 294
0.019721493 0.70300001 -0.066560037 1.315372e-38 336 294
0.020954086 0.70300001 -0.066560037 1.2785296e-38 337 294
0.02218668 0.70300001 -0.066560037 1.3058656e-38 338 294
0.023419274 0.70300001 -0.066560037 1.2873904e-38 339 294
0.024651866 0.70300001 -0.066560037 1.287139e-38 340 294
0.02592128 0.704 -0.066654719 1.2410412e-38 341 294
0.027271347 0.70700002 -0.066938758 1.1583895e-38 342 294
0.02855128 0.708 -0.067033432 1.0938526e-38 343 294
0.029876797 0.70999998 -0.067222796 9.6578639e-39 344 294
0.031121666 0.70999998 -0.067222796 1.0672375e-38 345 294
0.032412119 0.71100003 -0.067317478 1.1956997e-38 346 294
0.033753417 0.713 -0.067506835 1.2417615e-38 347 294
0.035052639 0.71399999 -0.067601517 1.2878953e-38 348 294
0.036304519 0.71399999 -0.067601517 1.3708354e-38 349 294
0.037556399 0.71399999 -0.067601517 1.3347863e-38 350 294
0.038808275 0.71399999 -0.067601517 1.6113371e-38 351 294
0.040060159 0.71399999 -0.067601517 1.4749168e-38 352 294
-0.0124662 0.71100003 -0.068564095 8.2821392e-39 310 295
-0.01121958 0.71100003 -0.068564095 9.572878e-39 311 295
-0.0099729598 0.71100003 -0.068564095 1.2969701e-38 312 295
-0.0087263398 0.71100003 -0.068564095 1.2600917e-38 313 295
-0.0074691991 0.70999998 -0.068467662 1.2875338e-38 314 295
-0.0062243328 0.70999998 -0.068467662 1.2875338e-38 315 295
-0.0049654399 0.708 -0.068274796 1.2783498e-38 316 295
-0.00372408 0.708 -0.068274796 1.2690942e-38 317 295
-0.00248272 0.708 -0.068274796 1.25991e-38 318 295
-0.0012378532 0.70599997 -0.06808193 1.2230677e-38 319 295
0 0.704 -0.067889065 1.2412915e-38 320 295
0.0012343467 0.704 -0.067889065 1.2136327e-38 321 295
0.0024686933 0.704 -0.067889065 1.2410762e-38 322 295
0.0037030398 0.704 -0.067889065 1.2410762e-38 323 295
0.0049373866 0.704 -0.067889065 1.2411137e-38 324 295
0.0061717331 0.704 -0.067889065 1.2226747e-38 325 295
0.0073955595 0.70300001 -0.067792632 1.2134917e-38 326 295
0.0086281532 0.70300001 -0.067792632 1.2319668e-38 327 295
0.0098607466 0.70300001 -0.067792632 1.1127975e-38 328 295
0.01109334 0.70300001 -0.067792632 9.9294314e-39 329 295
0.012325933 0.70300001 -0.067792632 6.447953e-39 330 295
