# .PCD v.7 - Point Cloud Data file format
FIELDS x y z rgb imX imY
SIZE 4 4 4 4 4 4
TYPE F F F F F F
COUNT 1 1 1 1 1 1
WIDTH 841
HEIGHT 1
VIEWPOINT 0 0 0 1 0 0 0
POINTS 841
DATA ascii
-0.0074797203 0.71100003 -0.028672259 8.5576134e-39 314 263
-0.0062330998 0.71100003 -0.028672259 8.8342017e-39 315 263
-0.0049864799 0.71100003 -0.028672259 8.8367353e-39 316 263
-0.0037398601 0.71100003 -0.028672259 9.8512459e-39 317 263
-0.0024932399 0.71100003 -0.028672259 1.1239582e-38 318 263
-0.0012501266 0.713 -0.028752912 1.2991298e-38 319 263
0 0.71399999 -0.028793238 1.3907112e-38 320 263
0.0012501266 0.713 -0.028752912 1.1601861e-38 321 263
0.0025002533 0.713 -0.028752912 9.9387346e-39 322 263
0.0037503797 0.713 -0.028752912 8.9242225e-39 323 263
0.0050005065 0.713 -0.028752912 7.2751577e-39 324 263
0.0062593995 0.71399999 -0.028793238 1.1055177e-38 325 263
0.00753232 0.71600002 -0.028873893 1.207187e-38 326 263
0.0087877065 0.71600002 -0.028873893 1.1610891e-38 327 263
0.010043093 0.71600002 -0.028873893 1.0509954e-38 328 263
0.01134582 0.71899998 -0.028994869 1.04174e-38 329 263
0.012624 0.72000003 -0.029035201 8.8493511e-39 330 263
0.013924973 0.722 -0.029115854 6.7288517e-39 331 263
0.015211919 0.72299999 -0.029156178 6.7209301e-39 332 263
0.01647958 0.72299999 -0.029156178 5.8911694e-39 333 263
0.017747238 0.72299999 -0.029156178 3.6921636e-39 334 263
0.019014901 0.72299999 -0.029156178 1.0238053e-38 335 263
-0.026510401 0.72000003 -0.0302976 1.7333867e-38 299 264
-0.025248 0.72000003 -0.0302976 1.7426422e-38 300 264
-0.024052227 0.722 -0.030381758 1.7979237e-38 301 264
-0.022596961 0.71600002 -0.03012928 1.5214096e-38 302 264
-0.021341572 0.71600002 -0.03012928 9.2213805e-39 303 264
-0.020030079 0.71399999 -0.030045118 6.174959e-39 304 264
-0.018778199 0.71399999 -0.030045118 7.0969139e-39 305 264
-0.017526319 0.71399999 -0.030045118 9.6697385e-39 306 264
-0.016274439 0.71399999 -0.030045118 8.4711953e-39 307 264
-0.015022559 0.71399999 -0.030045118 9.1997458e-39 308 264
-0.013751393 0.713 -0.030003037 9.0149958e-39 309 264
-0.0124662 0.71100003 -0.029918881 8.3728508e-39 310 264
-0.01121958 0.71100003 -0.029918881 8.2806538e-39 311 264
-0.0099729598 0.71100003 -0.029918881 8.5558099e-39 312 264
-0.0087263398 0.71100003 -0.029918881 8.7405599e-39 313 264
-0.0074797203 0.71100003 -0.029918881 8.5594099e-39 314 264
-0.0062330998 0.71100003 -0.029918881 9.1125823e-39 315 264
-0.0049864799 0.71100003 -0.029918881 9.1147501e-39 316 264
-0.0037398601 0.71100003 -0.029918881 9.3913384e-39 317 264
-0.0024932399 0.71100003 -0.029918881 1.0222192e-38 318 264
-0.00124662 0.71100003 -0.029918881 1.1881715e-38 319 264
0 0.713 -0.030003037 1.363523e-38 320 264
0.00124662 0.71100003 -0.029918881 1.3358643e-38 321 264
0.0024932399 0.71100003 -0.029918881 1.2430177e-38 322 264
0.0037398601 0.71100003 -0.029918881 9.3877216e-39 323 264
0.0049864799 0.71100003 -0.029918881 6.8130809e-39 324 264
0.0062506334 0.713 -0.030003037 1.1330667e-38 325 264
0.00753232 0.71600002 -0.03012928 1.1707396e-38 326 264
0.0087877065 0.71600002 -0.03012928 1.1338615e-38 327 264
0.010043093 0.71600002 -0.03012928 1.0785812e-38 328 264
0.01131426 0.71700001 -0.030171359 1.0232639e-38 329 264
0.012606465 0.71899998 -0.030255521 8.5720454e-39 330 264
0.0138864 0.72000003 -0.0302976 6.6359372e-39 331 264
0.015190879 0.722 -0.030381758 7.1826243e-39 332 264
0.01647958 0.72299999 -0.030423839 6.4450593e-39 333 264
0.017747238 0.72299999 -0.030423839 2.3949438e-39 334 264
0.019014901 0.72299999 -0.030423839 8.2032685e-39 335 264
-0.026510401 0.72000003 -0.03156 1.7426419e-38 299 265
-0.025248 0.72000003 -0.03156 1.7701574e-38 300 265
-0.02388566 0.71700001 -0.031428497 1.7886325e-38 301 265
-0.022596961 0.71600002 -0.031384666 1.3646415e-38 302 265
-0.021341572 0.71600002 -0.031384666 5.9945362e-39 303 265
-0.020030079 0.71399999 -0.031296998 5.8036556e-39 304 265
-0.018778199 0.71399999 -0.031296998 7.8319594e-39 305 265
-0.017501773 0.713 -0.031253166 9.7633663e-39 306 265
-0.016251646 0.713 -0.031253166 8.9336056e-39 307 265
-0.015001519 0.713 -0.031253166 9.1061125e-39 308 265
-0.01371282 0.71100003 -0.031165501 9.1061125e-39 309 265
-0.0124662 0.71100003 -0.031165501 8.2806538e-39 310 265
-0.01121958 0.71100003 -0.031165501 8.1884581e-39 311 265
-0.0099589331 0.70999998 -0.031121666 8.3724949e-39 312 265
-0.0087140659 0.70999998 -0.031121666 8.4650492e-39 313 265
-0.0074797203 0.71100003 -0.031165501 8.8359926e-39 314 265
-0.0062330998 0.71100003 -0.031165501 9.481362e-39 315 265
-0.0049794666 0.70999998 -0.031121666 1.0773901e-38 316 265
-0.0037345996 0.70999998 -0.031121666 1.1603664e-38 317 265
-0.0024932399 0.71100003 -0.031165501 1.0958663e-38 318 265
-0.00124662 0.71100003 -0.031165501 9.8523151e-39 319 265
0 0.71100003 -0.031165501 9.4903863e-39 320 265
0.00124662 0.71100003 -0.031165501 1.1887473e-38 321 265
0.0024932399 0.71100003 -0.031165501 1.4371347e-38 322 265
0.0037398601 0.71100003 -0.031165501 1.2250846e-38 323 265
0.0049864799 0.71100003 -0.031165501 1.0501649e-38 324 265
0.0062330998 0.71100003 -0.031165501 1.1977138e-38 325 265
0.0074797203 0.71100003 -0.031165501 1.0880529e-38 326 265
0.0087263398 0.71100003 -0.031165501 1.106492e-38 327 265
0.010001013 0.713 -0.031253166 1.1705977e-38 328 265
0.011266919 0.71399999 -0.031296998 1.0507433e-38 329 265
0.0125714 0.71700001 -0.031428497 8.1117889e-39 330 265
0.0138864 0.72000003 -0.03156 6.083485e-39 331 265
0.015190879 0.722 -0.031647664 7.0000309e-39 332 265
0.016456785 0.722 -0.031647664 6.1706304e-39 333 265
0.017722692 0.722 -0.031647664 2.8497983e-39 334 265
0.0189886 0.722 -0.031647664 7.4595798e-39 335 265
-0.026510401 0.72000003 -0.0328224 1.7333501e-38 299 266
-0.025248 0.72000003 -0.0328224 1.7794125e-38 300 266
-0.023852346 0.71600002 -0.032640055 1.7240953e-38 301 266
-0.022596961 0.71600002 -0.032640055 1.2538971e-38 302 266
-0.021281958 0.71399999 -0.032548878 4.6101472e-39 303 266
-0.020030079 0.71399999 -0.032548878 8.1931665e-39 304 266
-0.018778199 0.71399999 -0.032548878 1.0590253e-38 305 266
-0.017501773 0.713 -0.032503292 1.1417846e-38 306 266
-0.016251646 0.713 -0.032503292 1.0772476e-38 307 266
-0.015001519 0.713 -0.032503292 8.6476552e-39 308 266
-0.01371282 0.71100003 -0.032412119 8.3714285e-39 309 266
-0.012448666 0.70999998 -0.032366529 8.187033e-39 310 266
-0.011203799 0.70999998 -0.032366529 8.187033e-39 311 266
-0.0099589331 0.70999998 -0.032366529 7.8214945e-39 312 266
-0.0087140659 0.70999998 -0.032366529 8.3746669e-39 313 266
-0.0074691991 0.70999998 -0.032366529 8.1020401e-39 314 266
-0.0062243328 0.70999998 -0.032366529 9.3927789e-39 315 266
-0.0049794666 0.70999998 -0.032366529 1.0868612e-38 316 266
-0.0037345996 0.70999998 -0.032366529 1.1790929e-38 317 266
-0.0024897333 0.70999998 -0.032366529 1.1601859e-38 318 266
-0.0012448666 0.70999998 -0.032366529 9.2051324e-39 319 266
0 0.71100003 -0.032412119 7.4581196e-39 320 266
0.0012448666 0.70999998 -0.032366529 9.9474002e-39 321 266
0.0024897333 0.70999998 -0.032366529 1.234738e-38 322 266
0.0037345996 0.70999998 -0.032366529 1.234738e-38 323 266
0.0049794666 0.70999998 -0.032366529 1.0875491e-38 324 266
0.0062243328 0.70999998 -0.032366529 1.1428665e-38 325 266
0.0074691991 0.70999998 -0.032366529 1.0145126e-38 326 266
0.0087263398 0.71100003 -0.032412119 1.088305e-38 327 266
0.0099729598 0.71100003 -0.032412119 1.1154968e-38 328 266
0.011266919 0.71399999 -0.032548878 1.0048622e-38 329 266
0.0125714 0.71700001 -0.032685637 7.7455273e-39 330 266
0.013867113 0.71899998 -0.032776814 5.5328322e-39 331 266
0.0151488 0.72000003 -0.0328224 6.6312484e-39 332 266
0.0164112 0.72000003 -0.0328224 6.1706304e-39 333 266
0.017673599 0.72000003 -0.0328224 3.9525403e-39 334 266
0.018935999 0.72000003 -0.0328224 6.9949961e-39 335 266
0.020198401 0.72000003 -0.0328224 1.2815565e-38 336 266
-0.026510401 0.72000003 -0.034084801 1.7425703e-38 299 267
-0.025107734 0.71600002 -0.03389544 1.7426066e-38 300 267
-0.023852346 0.71600002 -0.03389544 1.5950936e-38 301 267
-0.022533838 0.71399999 -0.033800758 1.1615575e-38 302 267
-0.021281958 0.71399999 -0.033800758 6.0838354e-39 303 267
-0.020030079 0.71399999 -0.033800758 1.2247974e-38 304 267
-0.018778199 0.71399999 -0.033800758 1.4184082e-38 305 267
-0.017501773 0.713 -0.033753417 1.2891181e-38 306 267
-0.01620606 0.71100003 -0.033658739 1.0032758e-38 307 267
-0.014959441 0.71100003 -0.033658739 8.1873988e-39 308 267
-0.013693533 0.70999998 -0.033611398 8.0952031e-39 309 267
-0.012448666 0.70999998 -0.033611398 8.0948346e-39 310 267
-0.011203799 0.70999998 -0.033611398 8.0948346e-39 311 267
-0.0099589331 0.70999998 -0.033611398 7.9122412e-39 312 267
-0.0087140659 0.70999998 -0.033611398 8.0966339e-39 313 267
-0.0074691991 0.70999998 -0.033611398 7.7332618e-39 314 267
-0.0062243328 0.70999998 -0.033611398 9.2083918e-39 315 267
-0.0049794666 0.70999998 -0.033611398 1.0959391e-38 316 267
-0.0037345996 0.70999998 -0.033611398 1.2157576e-38 317 267
-0.0024897333 0.70999998 -0.033611398 1.160583e-38 318 267
-0.0012448666 0.70999998 -0.033611398 9.7619187e-39 319 267
0 0.70999998 -0.033611398 6.7151624e-39 320 267
0.0012448666 0.70999998 -0.033611398 6.8999138e-39 321 267
0.0024897333 0.70999998 -0.033611398 3.9644275e-39 322 267
0.0037345996 0.70999998 -0.033611398 6.2696784e-39 323 267
0.0049794666 0.70999998 -0.033611398 8.9430139e-39 324 267
0.0062243328 0.70999998 -0.033611398 1.0233753e-38 325 267
0.0074691991 0.70999998 -0.033611398 1.0421018e-38 326 267
0.0087140659 0.70999998 -0.033611398 1.1066387e-38 327 267
0.0099589331 0.70999998 -0.033611398 1.1155334e-38 328 267
0.01121958 0.71100003 -0.033658739 9.4961723e-39 329 267
0.012553867 0.71600002 -0.03389544 7.5604144e-39 330 267
0.013828539 0.71700001 -0.033942781 5.5321105e-39 331 267
0.01512776 0.71899998 -0.03403746 6.3571797e-39 332 267
0.016388407 0.71899998 -0.03403746 5.7118102e-39 333 267
0.017599959 0.71700001 -0.033942781 5.4258725e-39 334 267
0.018857099 0.71700001 -0.033942781 7.3619807e-39 335 267
0.020114239 0.71700001 -0.033942781 1.1523745e-38 336 267
-0.025107734 0.71600002 -0.035150826 1.7793409e-38 300 268
-0.02378572 0.71399999 -0.035052639 1.5304128e-38 301 268
-0.022533838 0.71399999 -0.035052639 1.0600349e-38 302 268
-0.021281958 0.71399999 -0.035052639 5.5295896e-39 303 268
-0.020002026 0.713 -0.035003547 1.1974282e-38 304 268
-0.018751899 0.713 -0.035003547 1.4463564e-38 305 268
-0.017501773 0.713 -0.035003547 1.1137316e-38 306 268
-0.01620606 0.71100003 -0.034905359 8.7398691e-39 307 268
-0.014959441 0.71100003 -0.034905359 7.5445503e-39 308 268
-0.013693533 0.70999998 -0.034856264 7.5445503e-39 309 268
-0.012448666 0.70999998 -0.034856264 7.727494e-39 310 268
-0.011203799 0.70999998 -0.034856264 7.727494e-39 311 268
-0.0099308798 0.708 -0.034758076 7.3608821e-39 312 268
-0.008689519 0.708 -0.034758076 7.4530777e-39 313 268
-0.0074481601 0.708 -0.034758076 7.5456461e-39 314 268
-0.0062243328 0.70999998 -0.034856264 8.7441879e-39 315 268
-0.0049654399 0.708 -0.034758076 9.4853543e-39 316 268
-0.00372408 0.708 -0.034758076 1.0776093e-38 317 268
-0.0024897333 0.70999998 -0.034856264 1.0776446e-38 318 268
-0.0012448666 0.70999998 -0.034856264 9.6697385e-39 319 268
0 0.70999998 -0.034856264 8.0055326e-39 320 268
0.00124136 0.708 -0.034758076 7.913337e-39 321 268
0.00248272 0.708 -0.034758076 5.1539673e-39 322 268
0.00372408 0.708 -0.034758076 6.2606736e-39 323 268
0.0049654399 0.708 -0.034758076 7.6526423e-39 324 268
0.0062067998 0.708 -0.034758076 9.2203267e-39 325 268
0.0074481601 0.708 -0.034758076 1.0326669e-38 326 268
0.008689519 0.708 -0.034758076 1.1709603e-38 327 268
0.0099308798 0.708 -0.034758076 1.0697232e-38 328 268
0.011203799 0.70999998 -0.034856264 8.9455167e-39 329 268
0.012553867 0.71600002 -0.035150826 7.7422805e-39 330 268
0.013828539 0.71700001 -0.035199918 5.8061723e-39 331 268
0.01512776 0.71899998 -0.035298105 6.2646169e-39 332 268
0.016388407 0.71899998 -0.035298105 5.7114431e-39 333 268
0.017599959 0.71700001 -0.035199918 5.1518023e-39 334 268
0.018857099 0.71700001 -0.035199918 6.8113251e-39 335 268
0.020254506 0.722 -0.035445385 1.0785459e-38 336 268
0.021520413 0.722 -0.035445385 1.5487438e-38 337 268
-0.026363119 0.71600002 -0.036406212 1.7793406e-38 299 269
-0.025037598 0.71399999 -0.036304519 1.7885602e-38 300 269
-0.02378572 0.71399999 -0.036304519 1.4566559e-38 301 269
-0.022533838 0.71399999 -0.036304519 9.6773167e-39 302 269
-0.021281958 0.71399999 -0.036304519 4.3299702e-39 303 269
-0.020002026 0.713 -0.036253672 1.086975e-38 304 269
-0.018751899 0.713 -0.036253672 1.40044e-38 305 269
-0.01745268 0.71100003 -0.036151983 9.4763649e-39 306 269
-0.01620606 0.71100003 -0.036151983 6.8948873e-39 307 269
-0.014938398 0.70999998 -0.036101133 7.2690396e-39 308 269
-0.013693533 0.70999998 -0.036101133 7.2690396e-39 309 269
-0.0124136 0.708 -0.03599944 7.727494e-39 310 269
-0.01117224 0.708 -0.03599944 7.5434629e-39 311 269
-0.0099308798 0.708 -0.03599944 7.2686739e-39 312 269
-0.008689519 0.708 -0.03599944 7.2686739e-39 313 269
-0.0074481601 0.708 -0.03599944 7.2704843e-39 314 269
-0.0062067998 0.708 -0.03599944 7.6392669e-39 315 269
-0.0049654399 0.708 -0.03599944 7.9173055e-39 316 269
-0.00372408 0.708 -0.03599944 8.4704793e-39 317 269
-0.00248272 0.708 -0.03599944 8.9314476e-39 318 269
-0.0012448666 0.70999998 -0.036101133 8.4708296e-39 319 269
0 0.708 -0.03599944 8.0048068e-39 320 269
0.00124136 0.708 -0.03599944 8.189198e-39 321 269
0.00248272 0.708 -0.03599944 7.270504e-39 322 269
0.00372408 0.708 -0.03599944 7.1783083e-39 323 269
0.0049654399 0.708 -0.03599944 4.9775046e-39 324 269
0.0061980332 0.70700002 -0.035948593 6.7295803e-39 325 269
0.0074376399 0.70700002 -0.035948593 8.7600548e-39 326 269
0.008677247 0.70700002 -0.035948593 1.1802152e-38 327 269
0.0099168532 0.70700002 -0.035948593 9.9632769e-39 328 269
0.011156459 0.70700002 -0.035948593 8.1193657e-39 329 269
0.012501267 0.713 -0.036253672 7.9245208e-39 330 269
0.013809253 0.71600002 -0.036406212 6.1731639e-39 331 269
0.015085679 0.71700001 -0.036457058 6.3557377e-39 332 269
0.016342819 0.71700001 -0.036457058 5.7103683e-39 333 269
0.017649053 0.71899998 -0.036558751 4.8762916e-39 334 269
0.018909698 0.71899998 -0.036558751 6.6276485e-39 335 269
0.020254506 0.722 -0.03671129 1.0140443e-38 336 269
0.021520413 0.722 -0.03671129 1.5027172e-38 337 269
-0.026363119 0.71600002 -0.037661601 1.7886678e-38 299 270
-0.025037598 0.71399999 -0.037556399 1.7517898e-38 300 270
-0.02378572 0.71399999 -0.037556399 1.3276541e-38 301 270
-0.022502279 0.713 -0.037503798 8.4787736e-39 302 270
-0.021252153 0.713 -0.037503798 3.3158183e-39 303 270
-0.020002026 0.713 -0.037503798 8.3793879e-39 304 270
-0.018751899 0.713 -0.037503798 1.0592443e-38 305 270
-0.01745268 0.71100003 -0.037398599 8.2803399e-39 306 270
-0.016183265 0.70999998 -0.037345998 6.9896011e-39 307 270
-0.014938398 0.70999998 -0.037345998 7.3612352e-39 308 270
-0.013654959 0.708 -0.0372408 7.176844e-39 309 270
-0.0124136 0.708 -0.0372408 7.4519889e-39 310 270
-0.011156459 0.70700002 -0.037188202 7.3594346e-39 311 270
-0.0099168532 0.70700002 -0.037188202 7.1768412e-39 312 270
-0.008677247 0.70700002 -0.037188202 7.2690368e-39 313 270
-0.0074376399 0.70700002 -0.037188202 7.0864462e-39 314 270
-0.0062067998 0.708 -0.0372408 7.2708375e-39 315 270
-0.0049654399 0.708 -0.0372408 7.8218631e-39 316 270
-0.0037188199 0.70700002 -0.037188202 8.0984499e-39 317 270
-0.0024792133 0.70700002 -0.037188202 8.373948e-39 318 270
-0.00124136 0.708 -0.0372408 8.2813937e-39 319 270
0 0.708 -0.0372408 8.0966367e-39 320 270
0.0012396066 0.70700002 -0.037188202 8.0044396e-39 321 270
0.0024792133 0.70700002 -0.037188202 7.0875392e-39 322 270
0.0037188199 0.70700002 -0.037188202 7.2722892e-39 323 270
0.0049584266 0.70700002 -0.037188202 5.7996899e-39 324 270
0.0061980332 0.70700002 -0.037188202 6.0762768e-39 325 270
0.0074376399 0.70700002 -0.037188202 7.7451742e-39 326 270
0.008677247 0.70700002 -0.037188202 1.0511044e-38 327 270
0.0099168532 0.70700002 -0.037188202 9.4039893e-39 328 270
0.011156459 0.70700002 -0.037188202 7.7448267e-39 329 270
0.012396066 0.70700002 -0.037188202 8.0138339e-39 330 270
0.01377068 0.71399999 -0.037556399 6.7230951e-39 331 270
0.01506464 0.71600002 -0.037661601 6.4461355e-39 332 270
0.016342819 0.71700001 -0.037714198 6.0773516e-39 333 270
0.017599959 0.71700001 -0.037714198 5.1517995e-39 334 270
0.018857099 0.71700001 -0.037714198 7.0879078e-39 335 270
0.020254506 0.722 -0.0379772 1.0047526e-38 336 270
0.021520413 0.722 -0.0379772 1.4749862e-38 337 270
-0.026252659 0.713 -0.038753927 1.8254384e-38 299 271
-0.025002534 0.713 -0.038753927 1.7333148e-38 300 271
-0.023685781 0.71100003 -0.038645219 1.2170552e-38 301 271
-0.022439159 0.71100003 -0.038645219 7.8323097e-39 302 271
-0.021192541 0.71100003 -0.038645219 3.4994739e-39 303 271
-0.01994592 0.71100003 -0.038645219 6.7176833e-39 304 271
-0.0186993 0.71100003 -0.038645219 7.732194e-39 305 271
-0.017428132 0.70999998 -0.038590867 7.9133398e-39 306 271
-0.016183265 0.70999998 -0.038590867 7.6363928e-39 307 271
-0.01489632 0.708 -0.038482159 7.2690368e-39 308 271
-0.013635674 0.70700002 -0.038427804 7.2690368e-39 309 271
-0.012396066 0.70700002 -0.038427804 7.2683179e-39 310 271
-0.011156459 0.70700002 -0.038427804 7.2683179e-39 311 271
-0.0099168532 0.70700002 -0.038427804 7.1771971e-39 312 271
-0.008677247 0.70700002 -0.038427804 7.1771971e-39 313 271
-0.0074376399 0.70700002 -0.038427804 6.8098607e-39 314 271
-0.0061980332 0.70700002 -0.038427804 7.0864462e-39 315 271
-0.0049584266 0.70700002 -0.038427804 7.1779356e-39 316 271
-0.0037188199 0.70700002 -0.038427804 7.1779356e-39 317 271
-0.0024792133 0.70700002 -0.038427804 7.3605346e-39 318 271
-0.00124136 0.708 -0.038482159 7.268339e-39 319 271
0 0.708 -0.038482159 7.1761377e-39 320 271
0.0012396066 0.70700002 -0.038427804 7.2683333e-39 321 271
0.0024792133 0.70700002 -0.038427804 6.8120299e-39 322 271
0.0037188199 0.70700002 -0.038427804 7.2730081e-39 323 271
0.0049584266 0.70700002 -0.038427804 6.8149166e-39 324 271
0.0061980332 0.70700002 -0.038427804 7.0915049e-39 325 271
0.0074376399 0.70700002 -0.038427804 7.8352062e-39 326 271
0.008677247 0.70700002 -0.038427804 8.111433e-39 327 271
0.0099028256 0.70599997 -0.038373452 7.5557327e-39 328 271
0.011140679 0.70599997 -0.038373452 7.3709813e-39 329 271
0.012396066 0.70700002 -0.038427804 7.4606363e-39 330 271
0.01371282 0.71100003 -0.038645219 6.7230713e-39 331 271
0.015022559 0.71399999 -0.038808275 6.2606708e-39 332 271
0.016320027 0.71600002 -0.038916986 5.9840839e-39 333 271
0.017599959 0.71700001 -0.038971342 5.5213051e-39 334 271
0.018857099 0.71700001 -0.038971342 7.3652177e-39 335 271
0.020170346 0.71899998 -0.039080046 1.0323392e-38 336 271
0.021520413 0.722 -0.039243106 1.4933174e-38 337 271
0.022786319 0.722 -0.039243106 1.7148758e-38 338 271
-0.026252659 0.713 -0.040004052 1.8069637e-38 299 272
-0.025002534 0.713 -0.040004052 1.7240232e-38 300 272
-0.023685781 0.71100003 -0.039891839 1.1247517e-38 301 272
-0.022439159 0.71100003 -0.039891839 8.2907669e-39 302 272
-0.021192541 0.71100003 -0.039891839 5.1561155e-39 303 272
-0.019917866 0.70999998 -0.039835732 7.3630373e-39 304 272
-0.018672999 0.70999998 -0.039835732 7.7314597e-39 305 272
-0.017428132 0.70999998 -0.039835732 8.0966395e-39 306 272
-0.01613768 0.708 -0.039723519 7.8196924e-39 307 272
-0.01487528 0.70700002 -0.039667413 7.3608695e-39 308 272
-0.013635674 0.70700002 -0.039667413 7.3608695e-39 309 272
-0.012378532 0.70599997 -0.039611302 7.0860805e-39 310 272
-0.011140679 0.70599997 -0.039611302 7.0860805e-39 311 272
-0.0099028256 0.70599997 -0.039611302 6.9935317e-39 312 272
-0.0086649731 0.70599997 -0.039611302 6.9009773e-39 313 272
-0.0074271196 0.70599997 -0.039611302 6.8087831e-39 314 272
-0.0061892662 0.70599997 -0.039611302 6.9009802e-39 315 272
-0.0049514128 0.70599997 -0.039611302 6.9002627e-39 316 272
-0.0037135598 0.70599997 -0.039611302 6.9002627e-39 317 272
-0.0024757064 0.70599997 -0.039611302 6.9002627e-39 318 272
-0.0012396066 0.70700002 -0.039667413 6.8080671e-39 319 272
0 0.70700002 -0.039667413 6.8080643e-39 320 272
0.0012378532 0.70599997 -0.039611302 6.9002599e-39 321 272
0.0024757064 0.70599997 -0.039611302 6.9938946e-39 322 272
0.0037135598 0.70599997 -0.039611302 7.2708403e-39 323 272
0.0049514128 0.70599997 -0.039611302 6.9978603e-39 324 272
0.0061980332 0.70700002 -0.039667413 9.7637292e-39 325 272
0.0074376399 0.70700002 -0.039667413 9.9499408e-39 326 272
0.008677247 0.70700002 -0.039667413 7.0918762e-39 327 272
0.0099028256 0.70599997 -0.039611302 5.0664408e-39 328 272
0.011140679 0.70599997 -0.039611302 4.6976583e-39 329 272
0.012396066 0.70700002 -0.039667413 6.349977e-39 330 272
0.01371282 0.71100003 -0.039891839 6.5343682e-39 331 272
0.015001519 0.713 -0.040004052 5.7978948e-39 332 272
0.016274439 0.71399999 -0.040060159 5.9822847e-39 333 272
0.017575413 0.71600002 -0.040172372 5.981563e-39 334 272
0.018857099 0.71700001 -0.040228479 8.1946183e-39 335 272
0.020170346 0.71899998 -0.040340692 1.0416307e-38 336 272
0.021520413 0.722 -0.040509012 1.4749862e-38 337 272
0.022786319 0.722 -0.040509012 1.7056563e-38 338 272
-0.026179021 0.71100003 -0.041138459 1.8161467e-38 299 273
-0.024932399 0.71100003 -0.041138459 1.6871444e-38 300 273
-0.023685781 0.71100003 -0.041138459 1.0694696e-38 301 273
-0.022439159 0.71100003 -0.041138459 7.9241424e-39 302 273
-0.021162732 0.70999998 -0.041080594 5.5266959e-39 303 273
-0.019917866 0.70999998 -0.041080594 7.0878923e-39 304 273
-0.018672999 0.70999998 -0.041080594 7.0878923e-39 305 273
-0.017428132 0.70999998 -0.041080594 7.3612352e-39 306 273
-0.01613768 0.708 -0.040964879 7.176844e-39 307 273
-0.01487528 0.70700002 -0.040907022 6.9931632e-39 308 273
-0.013635674 0.70700002 -0.040907022 6.9009661e-39 309 273
-0.012378532 0.70599997 -0.040849157 7.0842756e-39 310 273
-0.011140679 0.70599997 -0.040849157 6.7158532e-39 311 273
-0.0099028256 0.70599997 -0.040849157 7.0821092e-39 312 273
-0.0086649731 0.70599997 -0.040849157 7.2668592e-39 313 273
-0.0074271196 0.70599997 -0.040849157 6.6240051e-39 314 273
-0.0061892662 0.70599997 -0.040849157 6.4396124e-39 315 273
-0.0049514128 0.70599997 -0.040849157 6.7158504e-39 316 273
-0.0037135598 0.70599997 -0.040849157 6.9920772e-39 317 273
-0.0024757064 0.70599997 -0.040849157 6.441074e-39 318 273
-0.0012378532 0.70599997 -0.040849157 6.441074e-39 319 273
0 0.70599997 -0.040849157 6.3485252e-39 320 273
0.0012378532 0.70599997 -0.040849157 6.4407209e-39 321 273
0.0024686933 0.704 -0.040733438 6.1659346e-39 322 273
0.0037030398 0.704 -0.040733438 5.9815448e-39 323 273
0.0049514128 0.70599997 -0.040849157 6.1663088e-39 324 273
0.0061892662 0.70599997 -0.040849157 9.761937e-39 325 273
0.0074271196 0.70599997 -0.040849157 9.0279817e-39 326 273
0.0086649731 0.70599997 -0.040849157 6.0780816e-39 327 273
0.0099028256 0.70599997 -0.040849157 5.1554149e-39 328 273
0.011140679 0.70599997 -0.040849157 5.1554149e-39 329 273
0.0124136 0.708 -0.040964879 5.6138721e-39 330 273
0.013693533 0.70999998 -0.041080594 5.7982634e-39 331 273
0.014959441 0.71100003 -0.041138459 5.7989696e-39 332 273
0.016274439 0.71399999 -0.041312039 5.9833623e-39 333 273
0.017575413 0.71600002 -0.041427758 6.99751e-39 334 273
0.018857099 0.71700001 -0.041485619 8.3804444e-39 335 273
0.020114239 0.71700001 -0.041485619 1.0783293e-38 336 273
0.021430992 0.71899998 -0.041601337 1.5208682e-38 337 273
0.022786319 0.722 -0.041774917 1.7424621e-38 338 273
-0.026179021 0.71100003 -0.042385083 1.8069634e-38 299 274
-0.024932399 0.71100003 -0.042385083 1.6688135e-38 300 274
-0.023685781 0.71100003 -0.042385083 1.0142245e-38 301 274
-0.022407599 0.70999998 -0.042325463 7.6471954e-39 302 274
-0.021162732 0.70999998 -0.042325463 5.2504692e-39 303 274
-0.019917866 0.70999998 -0.042325463 6.1673836e-39 304 274
-0.018672999 0.70999998 -0.042325463 5.6142098e-39 305 274
-0.017379038 0.708 -0.042206239 5.8872136e-39 306 274
-0.016114887 0.70700002 -0.042146627 5.9797679e-39 307 274
-0.01487528 0.70700002 -0.042146627 5.5234771e-39 308 274
-0.013616386 0.70599997 -0.042087011 6.5376305e-39 309 274
-0.012378532 0.70599997 -0.042087011 7.3681114e-39 310 274
-0.011140679 0.70599997 -0.042087011 7.6446969e-39 311 274
-0.0099028256 0.70599997 -0.042087011 7.1858739e-39 312 274
-0.0086649731 0.70599997 -0.042087011 7.1858739e-39 313 274
-0.0074271196 0.70599997 -0.042087011 7.0900728e-39 314 274
-0.0061892662 0.70599997 -0.042087011 6.0762796e-39 315 274
-0.0049514128 0.70599997 -0.042087011 5.890068e-39 316 274
-0.0037030398 0.704 -0.041967787 5.4294486e-39 317 274
-0.0024686933 0.704 -0.041967787 5.2439826e-39 318 274
-0.0012343467 0.704 -0.041967787 5.3361782e-39 319 274
0 0.704 -0.041967787 5.6124105e-39 320 274
0.0012343467 0.704 -0.041967787 5.6124105e-39 321 274
0.0024686933 0.704 -0.041967787 6.1627089e-39 322 274
0.0037030398 0.704 -0.041967787 6.5318501e-39 323 274
0.0049373866 0.704 -0.041967787 6.9071094e-39 324 274
0.0061892662 0.70599997 -0.042087011 8.3825996e-39 325 274
0.0074271196 0.70599997 -0.042087011 6.726681e-39 326 274
0.0086649731 0.70599997 -0.042087011 4.1455621e-39 327 274
0.0099028256 0.70599997 -0.042087011 6.1641592e-39 328 274
0.011140679 0.70599997 -0.042087011 6.1641592e-39 329 274
0.0124136 0.708 -0.042206239 5.6160077e-39 330 274
0.013693533 0.70999998 -0.042325463 5.8922358e-39 331 274
0.014959441 0.71100003 -0.042385083 5.8014751e-39 332 274
0.016274439 0.71399999 -0.042563915 6.5390402e-39 333 274
0.017575413 0.71600002 -0.042683143 7.8283469e-39 334 274
0.018857099 0.71700001 -0.042742759 8.8424988e-39 335 274
0.020114239 0.71700001 -0.042742759 1.1243548e-38 336 274
0.021430992 0.71899998 -0.042861983 1.5761134e-38 337 274
0.022691639 0.71899998 -0.042861983 1.7516819e-38 338 274
-0.026179021 0.71100003 -0.043631699 1.788452e-38 299 275
-0.024932399 0.71100003 -0.043631699 1.6503739e-38 300 275
-0.023685781 0.71100003 -0.043631699 9.6816229e-39 301 275
-0.022407599 0.70999998 -0.043570329 7.4624384e-39 302 275
-0.021162732 0.70999998 -0.043570329 5.3415802e-39 303 275
-0.019917866 0.70999998 -0.043570329 5.6206936e-39 304 275
-0.018672999 0.70999998 -0.043570329 5.989116e-39 305 275
-0.017379038 0.708 -0.043447599 5.2584159e-39 306 275
-0.016114887 0.70700002 -0.043386232 6.4569591e-39 307 275
-0.01487528 0.70700002 -0.043386232 7.1956172e-39 308 275
-0.013616386 0.70599997 -0.043324865 8.1175721e-39 309 275
-0.012378532 0.70599997 -0.043324865 9.5905385e-39 310 275
-0.011140679 0.70599997 -0.043324865 9.9589609e-39 311 275
-0.0099028256 0.70599997 -0.043324865 1.0327019e-38 312 275
-0.0086649731 0.70599997 -0.043324865 1.0142986e-38 313 275
-0.0074271196 0.70599997 -0.043324865 9.8663939e-39 314 275
-0.0061892662 0.70599997 -0.043324865 9.2210245e-39 315 275
-0.0049373866 0.704 -0.043202132 8.4816448e-39 316 275
-0.0037030398 0.704 -0.043202132 7.0987104e-39 317 275
-0.0024686933 0.704 -0.043202132 6.90928e-39 318 275
-0.0012343467 0.704 -0.043202132 6.171715e-39 319 275
0 0.704 -0.043202132 6.2610268e-39 320 275
0.0012343467 0.704 -0.043202132 5.2465161e-39 321 275
0.0024686933 0.704 -0.043202132 5.7928529e-39 322 275
0.0037030398 0.704 -0.043202132 7.9133524e-39 323 275
0.0049373866 0.704 -0.043202132 8.6595593e-39 324 275
0.0061717331 0.704 -0.043202132 7.2762647e-39 325 275
0.0074271196 0.70599997 -0.043324865 5.3416082e-39 326 275
0.0086649731 0.70599997 -0.043324865 4.6962388e-39 327 275
0.0099028256 0.70599997 -0.043324865 5.6135064e-39 328 275
0.011140679 0.70599997 -0.043324865 5.705702e-39 329 275
0.0124136 0.708 -0.043447599 5.8003919e-39 330 275
0.013693533 0.70999998 -0.043570329 6.1691759e-39 331 275
0.014959441 0.71100003 -0.043631699 6.079504e-39 332 275
0.016251646 0.713 -0.043754432 6.7248734e-39 333 275
0.017575413 0.71600002 -0.043938532 8.1971322e-39 334 275
0.018857099 0.71700001 -0.043999899 9.3034797e-39 335 275
0.020114239 0.71700001 -0.043999899 1.1888201e-38 336 275
0.021460801 0.72000003 -0.044183999 1.612884e-38 337 275
-0.024932399 0.71100003 -0.044878319 1.6410825e-38 300 276
-0.023685781 0.71100003 -0.044878319 9.6801852e-39 301 276
-0.022407599 0.70999998 -0.044815198 7.5549872e-39 302 276
-0.021162732 0.70999998 -0.044815198 6.0794984e-39 303 276
-0.019917866 0.70999998 -0.044815198 8.2968836e-39 304 276
-0.018672999 0.70999998 -0.044815198 1.0417385e-38 305 276
-0.017354494 0.70700002 -0.044625837 1.0055477e-38 306 276
-0.016092092 0.70599997 -0.044562716 1.1161823e-38 307 276
-0.014854239 0.70599997 -0.044562716 1.1255821e-38 308 276
-0.013616386 0.70599997 -0.044562716 1.1255821e-38 309 276
-0.012378532 0.70599997 -0.044562716 1.153061e-38 310 276
-0.011109119 0.704 -0.044436477 1.1806836e-38 311 276
-0.0098747732 0.704 -0.044436477 1.1990868e-38 312 276
-0.0086404262 0.704 -0.044436477 1.21749e-38 313 276
-0.0074060797 0.704 -0.044436477 1.2451124e-38 314 276
-0.0061717331 0.704 -0.044436477 1.2358928e-38 315 276
-0.0049373866 0.704 -0.044436477 1.2541871e-38 316 276
-0.0037030398 0.704 -0.044436477 1.2080534e-38 317 276
-0.0024686933 0.704 -0.044436477 1.1616672e-38 318 276
-0.0012343467 0.704 -0.044436477 1.0694715e-38 319 276
0 0.704 -0.044436477 9.5861973e-39 320 276
0.0012343467 0.704 -0.044436477 7.2813066e-39 321 276
0.0024686933 0.704 -0.044436477 5.6171189e-39 322 276
0.0037030398 0.704 -0.044436477 7.5532271e-39 323 276
0.0049373866 0.704 -0.044436477 9.121992e-39 324 276
0.0061717331 0.704 -0.044436477 5.4345255e-39 325 276
0.0074060797 0.704 -0.044436477 4.0497764e-39 326 276
0.0086404262 0.704 -0.044436477 5.1557652e-39 327 276
0.0099028256 0.70599997 -0.044562716 5.6138595e-39 328 276
0.011156459 0.70700002 -0.044625837 5.7982507e-39 329 276
0.0124136 0.708 -0.044688959 5.8014751e-39 330 276
0.013693533 0.70999998 -0.044815198 6.1698975e-39 331 276
0.014959441 0.71100003 -0.044878319 6.1720653e-39 332 276
0.016251646 0.713 -0.045004558 6.8174347e-39 333 276
0.017526319 0.71399999 -0.045067675 8.1978511e-39 334 276
0.0188308 0.71600002 -0.045193922 9.3963942e-39 335 276
0.020114239 0.71700001 -0.045257039 1.2810153e-38 336 276
0.021371379 0.71700001 -0.045257039 1.6221392e-38 337 276
-0.023585839 0.708 -0.045930319 9.6798223e-39 301 277
-0.022344479 0.708 -0.045930319 8.9354035e-39 302 277
-0.021103119 0.708 -0.045930319 8.8432078e-39 303 277
-0.019917866 0.70999998 -0.046060063 1.0692898e-38 304 277
-0.018672999 0.70999998 -0.046060063 1.2075832e-38 305 277
-0.017354494 0.70700002 -0.045865446 1.0608293e-38 306 277
-0.016092092 0.70599997 -0.04580057 1.1161467e-38 307 277
-0.014854239 0.70599997 -0.04580057 1.0885606e-38 308 277
-0.013616386 0.70599997 -0.04580057 1.0885606e-38 309 277
-0.012378532 0.70599997 -0.04580057 1.1160754e-38 310 277
-0.011109119 0.704 -0.045670826 1.1252949e-38 311 277
-0.0098747732 0.704 -0.045670826 1.1529175e-38 312 277
-0.0086404262 0.704 -0.045670826 1.1713925e-38 313 277
-0.0074060797 0.704 -0.045670826 1.1806836e-38 314 277
-0.0061717331 0.704 -0.045670826 1.1899032e-38 315 277
-0.0049373866 0.704 -0.045670826 1.1990865e-38 316 277
-0.0036977797 0.70300001 -0.04560595 1.1898669e-38 317 277
-0.0024651866 0.70300001 -0.04560595 1.2264931e-38 318 277
-0.0012325933 0.70300001 -0.04560595 1.1803953e-38 319 277
0 0.704 -0.045670826 1.1067457e-38 320 277
0.0012343467 0.704 -0.045670826 1.0145861e-38 321 277
0.0024686933 0.704 -0.045670826 9.4976198e-39 322 277
0.0037030398 0.704 -0.045670826 9.036283e-39 323 277
0.0049373866 0.704 -0.045670826 9.0340997e-39 324 277
0.0061717331 0.704 -0.045670826 4.0551756e-39 325 277
0.0074060797 0.704 -0.045670826 3.6798995e-39 326 277
0.0086404262 0.704 -0.045670826 5.3390621e-39 327 277
0.0099028256 0.70599997 -0.04580057 5.6145756e-39 328 277
0.011156459 0.70700002 -0.045865446 5.8911638e-39 329 277
0.0124136 0.708 -0.045930319 5.8943896e-39 330 277
0.013693533 0.70999998 -0.046060063 6.1709779e-39 331 277
0.014959441 0.71100003 -0.046124939 6.5397717e-39 332 277
0.016251646 0.713 -0.046254687 7.2773381e-39 333 277
0.017526319 0.71399999 -0.046319555 7.8297888e-39 334 277
0.0188308 0.71600002 -0.046449307 9.6737014e-39 335 277
0.020086186 0.71600002 -0.046449307 1.3457319e-38 336 277
-0.023585839 0.708 -0.047171678 9.6798195e-39 301 278
-0.022344479 0.708 -0.047171678 9.4885899e-39 302 278
-0.021103119 0.708 -0.047171678 1.1055917e-38 303 278
-0.01986176 0.708 -0.047171678 1.1617025e-38 304 278
-0.0186204 0.708 -0.047171678 1.2170199e-38 305 278
-0.017354494 0.70700002 -0.047105055 1.0608296e-38 306 278
-0.016092092 0.70599997 -0.047038425 1.0608296e-38 307 278
-0.014854239 0.70599997 -0.047038425 1.0425351e-38 308 278
-0.013616386 0.70599997 -0.047038425 1.0425351e-38 309 278
-0.012343466 0.704 -0.046905171 1.106748e-38 310 278
-0.011109119 0.704 -0.046905171 1.125187e-38 311 278
-0.0098747732 0.704 -0.046905171 1.1067834e-38 312 278
-0.0086404262 0.704 -0.046905171 1.1436615e-38 313 278
-0.0074060797 0.704 -0.046905171 1.189759e-38 314 278
-0.0061717331 0.704 -0.046905171 1.1989786e-38 315 278
-0.0049303733 0.70300001 -0.046838548 1.1990868e-38 316 278
-0.0036977797 0.70300001 -0.046838548 1.1990868e-38 317 278
-0.0024651866 0.70300001 -0.046838548 1.1806473e-38 318 278
-0.0012325933 0.70300001 -0.046838548 1.1621723e-38 319 278
0 0.70300001 -0.046838548 1.1345495e-38 320 278
0.0012325933 0.70300001 -0.046838548 1.1621723e-38 321 278
0.0024686933 0.704 -0.046905171 1.2449325e-38 322 278
0.0037030398 0.704 -0.046905171 1.1434814e-38 323 278
0.0049373866 0.704 -0.046905171 9.6826921e-39 324 278
0.0061717331 0.704 -0.046905171 4.9803563e-39 325 278
0.0074060797 0.704 -0.046905171 3.4958557e-39 326 278
0.0086404262 0.704 -0.046905171 5.3397683e-39 327 278
0.0099028256 0.70599997 -0.047038425 6.074832e-39 328 278
0.011156459 0.70700002 -0.047105055 6.2592233e-39 329 278
0.0124136 0.708 -0.047171678 6.0787837e-39 330 278
0.013693533 0.70999998 -0.047304932 6.3550118e-39 331 278
0.014959441 0.71100003 -0.047371563 6.7234511e-39 332 278
0.016251646 0.713 -0.047504812 7.2762647e-39 333 278
0.017526319 0.71399999 -0.047571439 8.0134598e-39 334 278
0.0188308 0.71600002 -0.047704693 1.0318352e-38 335 278
0.020086186 0.71600002 -0.047704693 1.4287436e-38 336 278
-0.023585839 0.708 -0.048413038 1.0323743e-38 301 279
-0.022344479 0.708 -0.048413038 9.2148812e-39 302 279
-0.021073313 0.70700002 -0.048344657 1.1427216e-38 303 279
-0.019833706 0.70700002 -0.048344657 1.1617028e-38 304 279
-0.018594101 0.70700002 -0.048344657 1.1893254e-38 305 279
-0.017354494 0.70700002 -0.048344657 1.0700123e-38 306 279
-0.016092092 0.70599997 -0.048276275 1.0239145e-38 307 279
-0.014854239 0.70599997 -0.048276275 1.0236271e-38 308 279
-0.013616386 0.70599997 -0.048276275 9.1299233e-39 309 279
-0.012343466 0.704 -0.048139516 9.3103545e-39 310 279
-0.011109119 0.704 -0.048139516 9.0334089e-39 311 279
-0.0098747732 0.704 -0.048139516 8.6657026e-39 312 279
-0.0086281532 0.70300001 -0.048071139 8.7582569e-39 313 279
-0.0073955595 0.70300001 -0.048071139 8.9448132e-39 314 279
-0.0061717331 0.704 -0.048139516 9.497987e-39 315 279
-0.0049303733 0.70300001 -0.048071139 1.0053677e-38 316 279
-0.0036872597 0.70099998 -0.047934376 1.0975635e-38 317 279
-0.0024581731 0.70099998 -0.047934376 1.180432e-38 318 279
-0.0012290865 0.70099998 -0.047934376 1.1712123e-38 319 279
0 0.70300001 -0.048071139 1.0885243e-38 320 279
0.0012325933 0.70300001 -0.048071139 1.1253665e-38 321 279
0.0024651866 0.70300001 -0.048071139 1.153061e-38 322 279
0.0036977797 0.70300001 -0.048071139 1.088524e-38 323 279
0.0049303733 0.70300001 -0.048071139 9.7770682e-39 324 279
0.0061717331 0.704 -0.048139516 7.5647332e-39 325 279
0.0074060797 0.704 -0.048139516 6.3567971e-39 326 279
0.0086404262 0.704 -0.048139516 4.8813083e-39 327 279
0.0099028256 0.70599997 -0.048276275 6.2609987e-39 328 279
0.011156459 0.70700002 -0.048344657 6.44539e-39 329 279
0.0124136 0.708 -0.048413038 6.3542902e-39 330 279
0.013693533 0.70999998 -0.048549797 6.5390402e-39 331 279
0.015001519 0.713 -0.048754938 6.9071136e-39 332 279
0.016251646 0.713 -0.048754938 7.1837005e-39 333 279
0.017526319 0.71399999 -0.048823316 8.3833185e-39 334 279
0.018778199 0.71399999 -0.048823316 1.133358e-38 335 279
0.020086186 0.71600002 -0.048960082 1.539343e-38 336 279
-0.022344479 0.708 -0.049654398 9.6755049e-39 302 280
-0.021073313 0.70700002 -0.049584266 1.1888201e-38 303 280
-0.019833706 0.70700002 -0.049584266 1.1618114e-38 304 280
-0.018594101 0.70700002 -0.049584266 1.1710309e-38 305 280
-0.017354494 0.70700002 -0.049584266 9.5908889e-39 306 280
-0.016092092 0.70599997 -0.04951413 8.5763768e-39 307 280
-0.014854239 0.70599997 -0.04951413 8.3880241e-39 308 280
-0.013616386 0.70599997 -0.04951413 7.558262e-39 309 280
-0.012343466 0.704 -0.049373865 7.1865872e-39 310 280
-0.011109119 0.704 -0.049373865 6.3568265e-39 311 280
-0.0098747732 0.704 -0.049373865 5.9876839e-39 312 280
-0.0086281532 0.70300001 -0.049303733 5.8029339e-39 313 280
-0.0073955595 0.70300001 -0.049303733 5.619993e-39 314 280
-0.0061629666 0.70300001 -0.049303733 6.9103731e-39 315 280
-0.0049303733 0.70300001 -0.049303733 8.0174493e-39 316 280
-0.0036872597 0.70099998 -0.049163464 8.8468498e-39 317 280
-0.0024581731 0.70099998 -0.049163464 8.7593485e-39 318 280
-0.0012290865 0.70099998 -0.049163464 1.0050087e-38 319 280
0 0.70099998 -0.049163464 1.1343713e-38 320 280
0.0012290865 0.70099998 -0.049163464 1.2081278e-38 321 280
0.0024581731 0.70099998 -0.049163464 1.2172026e-38 322 280
0.0036977797 0.70300001 -0.049303733 1.1158233e-38 323 280
0.0049303733 0.70300001 -0.049303733 9.8703624e-39 324 280
0.0061717331 0.704 -0.049373865 9.224993e-39 325 280
0.0074060797 0.704 -0.049373865 8.848963e-39 326 280
0.0086404262 0.704 -0.049373865 5.345529e-39 327 280
0.0099028256 0.70599997 -0.04951413 5.8947245e-39 328 280
0.011156459 0.70700002 -0.049584266 6.355344e-39 329 280
0.0124136 0.708 -0.049654398 6.1713437e-39 330 280
0.01371282 0.71100003 -0.049864799 6.263898e-39 331 280
0.014959441 0.71100003 -0.049864799 6.8167131e-39 332 280
0.01620606 0.71100003 -0.049864799 7.2776898e-39 333 280
0.01745268 0.71100003 -0.049864799 1.0042844e-38 334 280
0.0186993 0.71100003 -0.049864799 1.2624322e-38 335 280
0.020086186 0.71600002 -0.050215468 1.5210847e-38 336 280
-0.022407599 0.70999998 -0.051039528 1.0505264e-38 302 281
-0.021103119 0.708 -0.050895758 1.1703807e-38 303 281
-0.01986176 0.708 -0.050895758 1.2446428e-38 304 281
-0.0186204 0.708 -0.050895758 1.1985452e-38 305 281
-0.017354494 0.70700002 -0.050823875 5.2562495e-39 306 281
-0.016114887 0.70700002 -0.050823875 2.9509986e-39 307 281
-0.014854239 0.70599997 -0.050751984 3.685677e-39 308 281
-0.013616386 0.70599997 -0.050751984 4.3310464e-39 309 281
-0.012343466 0.704 -0.050608214 5.1539645e-39 310 281
-0.011109119 0.704 -0.050608214 5.1539645e-39 311 281
-0.0098747732 0.704 -0.050608214 5.4291095e-39 312 281
-0.0086281532 0.70300001 -0.050536323 5.4291095e-39 313 281
-0.0073955595 0.70300001 -0.050536323 5.1528813e-39 314 281
-0.0061629666 0.70300001 -0.050536323 4.8759357e-39 315 281
-0.0049163462 0.70099998 -0.050392549 4.8734204e-39 316 281
-0.0036872597 0.70099998 -0.050392549 4.4124422e-39 317 281
-0.0024581731 0.70099998 -0.050392549 3.3983253e-39 318 281
-0.0012290865 0.70099998 -0.050392549 6.0723587e-39 319 281
0 0.70099998 -0.050392549 8.7622324e-39 320 281
0.0012290865 0.70099998 -0.050392549 1.0145526e-38 321 281
0.0024581731 0.70099998 -0.050392549 1.0603977e-38 322 281
0.0036872597 0.70099998 -0.050392549 1.0050803e-38 323 281
0.0049303733 0.70300001 -0.050536323 9.2257147e-39 324 281
0.0061717331 0.704 -0.050608214 9.8710841e-39 325 281
0.0074060797 0.704 -0.050608214 1.0233009e-38 326 281
0.0086404262 0.704 -0.050608214 6.6377378e-39 327 281
0.0099028256 0.70599997 -0.050751984 5.7121592e-39 328 281
0.011156459 0.70700002 -0.050823875 5.7121592e-39 329 281
0.012448666 0.70999998 -0.051039528 6.1709807e-39 330 281
0.01371282 0.71100003 -0.051111419 6.5394031e-39 331 281
0.014959441 0.71100003 -0.051111419 7.0918608e-39 332 281
0.01620606 0.71100003 -0.051111419 8.1978483e-39 333 281
0.01745268 0.71100003 -0.051111419 1.1333946e-38 334 281
0.0186993 0.71100003 -0.051111419 1.290163e-38 335 281
-0.022344479 0.708 -0.052137118 1.2252661e-38 302 282
-0.021103119 0.708 -0.052137118 1.2529608e-38 303 282
-0.01986176 0.708 -0.052137118 1.2170918e-38 304 282
-0.0186204 0.708 -0.052137118 1.1617744e-38 305 282
-0.017354494 0.70700002 -0.05206348 5.1626049e-39 306 282
-0.016114887 0.70700002 -0.05206348 3.410888e-39 307 282
-0.014854239 0.70599997 -0.051989835 5.338346e-39 308 282
-0.013616386 0.70599997 -0.051989835 5.338346e-39 309 282
-0.012343466 0.704 -0.051842559 5.523812e-39 310 282
-0.011109119 0.704 -0.051842559 5.6160077e-39 311 282
-0.0098747732 0.704 -0.051842559 5.8000402e-39 312 282
-0.0086281532 0.70300001 -0.051768921 5.6160077e-39 313 282
-0.0073955595 0.70300001 -0.051768921 5.5238092e-39 314 282
-0.0061454331 0.70099998 -0.051621638 5.2472224e-39 315 282
-0.0049163462 0.70099998 -0.051621638 5.3376159e-39 316 282
-0.0036872597 0.70099998 -0.051621638 4.9691935e-39 317 282
-0.0024581731 0.70099998 -0.051621638 4.3252857e-39 318 282
-0.0012290865 0.70099998 -0.051621638 5.1550463e-39 319 282
0 0.70099998 -0.051621638 7.0994545e-39 320 282
0.0012290865 0.70099998 -0.051621638 7.468237e-39 321 282
0.0024581731 0.70099998 -0.051621638 6.185061e-39 322 282
0.0036872597 0.70099998 -0.051621638 8.397396e-39 323 282
0.0049303733 0.70300001 -0.051768921 9.410829e-39 324 282
0.0061717331 0.704 -0.051842559 9.6874159e-39 325 282
0.0074060797 0.704 -0.051842559 1.0603962e-38 326 282
0.0086649731 0.70599997 -0.051989835 7.7458973e-39 327 282
0.0099028256 0.70599997 -0.051989835 6.6334036e-39 328 282
0.011156459 0.70700002 -0.05206348 5.7110872e-39 329 282
0.0124136 0.708 -0.052137118 6.6298009e-39 330 282
0.013654959 0.708 -0.052137118 6.7219965e-39 331 282
0.014938398 0.70999998 -0.052284397 7.9219872e-39 332 282
0.016183265 0.70999998 -0.052284397 8.752108e-39 333 282
0.017428132 0.70999998 -0.052284397 1.0783296e-38 334 282
0.0186993 0.71100003 -0.052358042 1.2258426e-38 335 282
-0.022344479 0.708 -0.053378478 1.3085664e-38 302 283
-0.021103119 0.708 -0.053378478 1.2071514e-38 303 283
-0.01986176 0.708 -0.053378478 1.2170918e-38 304 283
-0.0186204 0.708 -0.053378478 1.1525548e-38 305 283
-0.017379038 0.708 -0.053378478 6.1753149e-39 306 283
-0.016114887 0.70700002 -0.053303085 5.3451955e-39 307 283
-0.01487528 0.70700002 -0.053303085 6.5350843e-39 308 283
-0.013616386 0.70599997 -0.053227689 6.4428887e-39 309 283
-0.012378532 0.70599997 -0.053227689 5.8918687e-39 310 283
-0.011109119 0.704 -0.053076904 5.7996731e-39 311 283
-0.0098747732 0.704 -0.053076904 5.6160049e-39 312 283
-0.0086281532 0.70300001 -0.053001512 5.6160049e-39 313 283
-0.0073955595 0.70300001 -0.053001512 5.6167279e-39 314 283
-0.0061454331 0.70099998 -0.052850723 5.5245309e-39 315 283
-0.0049163462 0.70099998 -0.052850723 5.616372e-39 316 283
-0.0036872597 0.70099998 -0.052850723 5.801122e-39 317 283
-0.0024581731 0.70099998 -0.052850723 6.079148e-39 318 283
-0.0012290865 0.70099998 -0.052850723 7.4620825e-39 319 283
0 0.70099998 -0.052850723 6.1735143e-39 320 283
0.0012290865 0.70099998 -0.052850723 3.7764279e-39 321 283
0.0024581731 0.70099998 -0.052850723 1.6689114e-39 322 283
0.0036872597 0.70099998 -0.052850723 6.3712473e-39 323 283
0.0049303733 0.70300001 -0.053001512 9.6870628e-39 324 283
0.0061717331 0.704 -0.053076904 9.6870628e-39 325 283
0.0074060797 0.704 -0.053076904 1.0145505e-38 326 283
0.0086649731 0.70599997 -0.053227689 8.4859818e-39 327 283
0.0099168532 0.70700002 -0.053303085 7.4642531e-39 328 283
0.011156459 0.70700002 -0.053303085 4.9749711e-39 329 283
0.0124136 0.708 -0.053378478 6.6298037e-39 330 283
0.013654959 0.708 -0.053378478 7.2751731e-39 331 283
0.014938398 0.70999998 -0.053529263 7.9234362e-39 332 283
0.016183265 0.70999998 -0.053529263 8.8450323e-39 333 283
0.017428132 0.70999998 -0.053529263 9.6794846e-39 334 283
-0.022344479 0.708 -0.054619838 1.3364056e-38 302 284
-0.021103119 0.708 -0.054619838 1.1888567e-38 303 284
-0.01986176 0.708 -0.054619838 1.1802855e-38 304 284
-0.0186204 0.708 -0.054619838 1.1157486e-38 305 284
-0.017379038 0.708 -0.054619838 6.4515389e-39 306 284
-0.01613768 0.708 -0.054619838 5.5299427e-39 307 284
-0.01487528 0.70700002 -0.054542694 6.7209063e-39 308 284
-0.013635674 0.70700002 -0.054542694 6.4443208e-39 309 284
-0.012378532 0.70599997 -0.054465543 5.9844189e-39 310 284
-0.011140679 0.70599997 -0.054465543 5.8922218e-39 311 284
-0.0098747732 0.704 -0.054311249 5.9829853e-39 312 284
-0.0086281532 0.70300001 -0.054234106 5.9829853e-39 313 284
-0.0073955595 0.70300001 -0.054234106 5.6160077e-39 314 284
-0.0061454331 0.70099998 -0.054079808 5.523812e-39 315 284
-0.0049163462 0.70099998 -0.054079808 5.4316262e-39 316 284
-0.0036872597 0.70099998 -0.054079808 5.6163776e-39 317 284
-0.0024581731 0.70099998 -0.054079808 5.7107242e-39 318 284
-0.0012290865 0.70099998 -0.054079808 6.3560937e-39 319 284
0 0.70099998 -0.054079808 6.2592261e-39 320 284
0.0012290865 0.70099998 -0.054079808 5.1528785e-39 321 284
0.0024581731 0.70099998 -0.054079808 3.8682886e-39 322 284
0.0036872597 0.70099998 -0.054079808 7.0951357e-39 323 284
0.0049303733 0.70300001 -0.054234106 8.1208161e-39 324 284
0.0061717331 0.704 -0.054311249 9.3193593e-39 325 284
0.0074060797 0.704 -0.054311249 9.3200627e-39 326 284
0.0086649731 0.70599997 -0.054465543 8.6746933e-39 327 284
0.0099168532 0.70700002 -0.054542694 7.6515282e-39 328 284
0.011156459 0.70700002 -0.054542694 4.6094312e-39 329 284
0.0124136 0.708 -0.054619838 6.3557405e-39 330 284
0.013654959 0.708 -0.054619838 7.1851411e-39 331 284
0.01489632 0.708 -0.054619838 7.4631825e-39 332 284
0.016183265 0.70999998 -0.054774132 8.2007489e-39 333 284
-0.021103119 0.708 -0.055861197 1.1521232e-38 303 285
-0.01986176 0.708 -0.055861197 1.1802139e-38 304 285
-0.018672999 0.70999998 -0.056018997 1.1340801e-38 305 285
-0.017428132 0.70999998 -0.056018997 6.634491e-39 306 285
-0.01613768 0.708 -0.055861197 5.8047318e-39 307 285
-0.01487528 0.70700002 -0.055782299 7.18116e-39 308 285
-0.013635674 0.70700002 -0.055782299 6.7201818e-39 309 285
-0.012396066 0.70700002 -0.055782299 6.5361437e-39 310 285
-0.011140679 0.70599997 -0.055703394 6.2595582e-39 311 285
-0.0098747732 0.704 -0.055545598 6.1670136e-39 312 285
-0.0086281532 0.70300001 -0.0554667 5.9822637e-39 313 285
-0.0073955595 0.70300001 -0.0554667 5.6145727e-39 314 285
-0.0061454331 0.70099998 -0.055308893 5.6145727e-39 315 285
-0.0049163462 0.70099998 -0.055308893 5.4316318e-39 316 285
-0.0036872597 0.70099998 -0.055308893 5.247242e-39 317 285
-0.0024581731 0.70099998 -0.055308893 5.4302039e-39 318 285
-0.0012290865 0.70099998 -0.055308893 5.5227583e-39 319 285
0 0.70099998 -0.055308893 5.7982662e-39 320 285
0.0012273333 0.69999999 -0.055229999 5.7982662e-39 321 285
0.0024546667 0.69999999 -0.055229999 5.1543429e-39 322 285
0.0036872597 0.70099998 -0.055308893 6.9060599e-39 323 285
0.0049303733 0.70300001 -0.0554667 7.471481e-39 324 285
0.0061717331 0.704 -0.055545598 9.8685674e-39 325 285
0.0074271196 0.70599997 -0.055703394 9.6877718e-39 326 285
0.008677247 0.70700002 -0.055782299 9.5030218e-39 327 285
0.0099168532 0.70700002 -0.055782299 7.7451742e-39 328 285
0.01117224 0.708 -0.055861197 4.6105242e-39 329 285
0.0124136 0.708 -0.055861197 6.5405045e-39 330 285
0.013654959 0.708 -0.055861197 7.0011225e-39 331 285
0.01489632 0.708 -0.055861197 6.8196278e-39 332 285
-0.01986176 0.708 -0.057102561 1.1802136e-38 304 286
-0.018672999 0.70999998 -0.057263866 1.1340798e-38 305 286
-0.017428132 0.70999998 -0.057263866 6.45082e-39 306 286
-0.016183265 0.70999998 -0.057263866 5.713255e-39 307 286
-0.01489632 0.708 -0.057102561 6.9996596e-39 308 286
-0.013654959 0.708 -0.057102561 6.4468445e-39 309 286
-0.012396066 0.70700002 -0.057021905 6.4450397e-39 310 286
-0.011140679 0.70599997 -0.056941248 6.2606484e-39 311 286
-0.0098747732 0.704 -0.056779943 6.075181e-39 312 286
-0.0086404262 0.704 -0.056779943 5.9829853e-39 313 286
