# .PCD v.7 - Point Cloud Data file format
FIELDS x y z rgb imX imY
SIZE 4 4 4 4 4 4
TYPE F F F F F F
COUNT 1 1 1 1 1 1
WIDTH 837
HEIGHT 1
VIEWPOINT 0 0 0 1 0 0 0
POINTS 837
DATA ascii
0.0061980332 0.70700002 -0.028510952 1.3234747e-38 325 263
0.0074376399 0.70700002 -0.028510952 1.3143273e-38 326 263
0.008677247 0.70700002 -0.028510952 1.3143273e-38 327 263
0.0099168532 0.70700002 -0.028510952 1.2960324e-38 328 263
0.01117224 0.708 -0.02855128 1.3052519e-38 329 263
0.0124136 0.708 -0.02855128 1.3237266e-38 330 263
0.013693533 0.70999998 -0.028631933 1.3513495e-38 331 263
0.014959441 0.71100003 -0.028672259 1.3056823e-38 332 263
0.01620606 0.71100003 -0.028672259 1.2872431e-38 333 263
0.01745268 0.71100003 -0.028672259 1.1398043e-38 334 263
0.0186993 0.71100003 -0.028672259 8.7243721e-39 335 263
0.01994592 0.71100003 -0.028672259 3.5027347e-39 336 263
0.021192541 0.71100003 -0.028672259 1.1984731e-38 337 263
0.022439159 0.71100003 -0.028672259 1.7332813e-38 338 263
-0.040396802 0.72000003 -0.0302976 1.603231e-38 288 264
-0.039080046 0.71899998 -0.030255521 1.0869714e-38 289 264
-0.037819397 0.71899998 -0.030255521 1.4158864e-38 290 264
-0.036457058 0.71700001 -0.030171359 1.360569e-38 291 264
-0.035150826 0.71600002 -0.03012928 1.3513845e-38 292 264
-0.03389544 0.71600002 -0.03012928 1.2592247e-38 293 264
-0.032548878 0.71399999 -0.030045118 1.2223109e-38 294 264
-0.031253166 0.713 -0.030003037 1.2960674e-38 295 264
-0.029918881 0.71100003 -0.029918881 1.4526191e-38 296 264
-0.028631933 0.70999998 -0.029876797 1.4618388e-38 297 264
-0.027309919 0.708 -0.02979264 1.5168334e-38 298 264
-0.026068559 0.708 -0.02979264 1.5352724e-38 299 264
-0.024792133 0.70700002 -0.029750559 1.5448164e-38 300 264
-0.023552528 0.70700002 -0.029750559 1.6831098e-38 301 264
-0.022312919 0.70700002 -0.029750559 1.7109849e-38 302 264
-0.021073313 0.70700002 -0.029750559 1.7571187e-38 303 264
-0.019805651 0.70599997 -0.029708479 1.4437259e-38 304 264
-0.018567799 0.70599997 -0.029708479 1.1763584e-38 305 264
-0.017329946 0.70599997 -0.029708479 7.4386752e-39 306 264
-0.016092092 0.70599997 -0.029708479 5.7856363e-39 307 264
-0.014812159 0.704 -0.029624319 9.4687867e-39 308 264
-0.013577812 0.704 -0.029624319 1.214246e-38 309 264
-0.012343466 0.704 -0.029624319 1.591707e-38 310 264
-0.011109119 0.704 -0.029624319 1.6378049e-38 311 264
-0.0098747732 0.704 -0.029624319 1.6555578e-38 312 264
-0.0086404262 0.704 -0.029624319 1.5080808e-38 313 264
-0.0074060797 0.704 -0.029624319 1.434215e-38 314 264
-0.0061892662 0.70599997 -0.029708479 1.2774465e-38 315 264
-0.0049514128 0.70599997 -0.029708479 1.10217e-38 316 264
-0.0037135598 0.70599997 -0.029708479 1.0469247e-38 317 264
-0.0024757064 0.70599997 -0.029708479 1.1398406e-38 318 264
-0.0012378532 0.70599997 -0.029708479 1.2412918e-38 319 264
0 0.70599997 -0.029708479 1.3693926e-38 320 264
0.0012378532 0.70599997 -0.029708479 1.3693926e-38 321 264
0.0024757064 0.70599997 -0.029708479 1.3235103e-38 322 264
0.0037135598 0.70599997 -0.029708479 1.3419134e-38 323 264
0.0049514128 0.70599997 -0.029708479 1.3235469e-38 324 264
0.0061892662 0.70599997 -0.029708479 1.3143273e-38 325 264
0.0074376399 0.70700002 -0.029750559 1.2959605e-38 326 264
0.008677247 0.70700002 -0.029750559 1.2959605e-38 327 264
0.0099168532 0.70700002 -0.029750559 1.2868128e-38 328 264
0.01117224 0.708 -0.02979264 1.2868128e-38 329 264
0.0124136 0.708 -0.02979264 1.2959971e-38 330 264
0.013693533 0.70999998 -0.029876797 1.3052166e-38 331 264
0.014959441 0.71100003 -0.029918881 1.2869929e-38 332 264
0.01620606 0.71100003 -0.029918881 1.2962124e-38 333 264
0.01745268 0.71100003 -0.029918881 1.241292e-38 334 264
0.0186993 0.71100003 -0.029918881 1.0292061e-38 335 264
0.01994592 0.71100003 -0.029918881 1.8367239e-39 336 264
0.021192541 0.71100003 -0.029918881 9.4857326e-39 337 264
0.022439159 0.71100003 -0.029918881 1.5398504e-38 338 264
-0.039080046 0.71899998 -0.031516165 1.1515078e-38 289 265
-0.037819397 0.71899998 -0.031516165 1.4253935e-38 290 265
-0.036406212 0.71600002 -0.031384666 1.333198e-38 291 265
-0.035052639 0.71399999 -0.031296998 1.2683367e-38 292 265
-0.033800758 0.71399999 -0.031296998 1.2037997e-38 293 265
-0.032503292 0.713 -0.031253166 1.3422728e-38 294 265
-0.031165501 0.71100003 -0.031165501 1.3883705e-38 295 265
-0.029876797 0.70999998 -0.031121666 1.4891731e-38 296 265
-0.028631933 0.70999998 -0.031121666 1.5167957e-38 297 265
-0.027309919 0.708 -0.031034 1.53538e-38 298 265
-0.026068559 0.708 -0.031034 1.6920767e-38 299 265
-0.024792133 0.70700002 -0.030990168 1.6188956e-38 300 265
-0.023552528 0.70700002 -0.030990168 1.5912009e-38 301 265
-0.022312919 0.70700002 -0.030990168 1.5724381e-38 302 265
-0.021043506 0.70599997 -0.030946331 1.4618034e-38 303 265
-0.019805651 0.70599997 -0.030946331 9.0038457e-39 304 265
-0.018567799 0.70599997 -0.030946331 5.6938008e-39 305 265
-0.017329946 0.70599997 -0.030946331 6.0643811e-39 306 265
-0.016092092 0.70599997 -0.030946331 8.0926864e-39 307 265
-0.014812159 0.704 -0.030858666 1.3796218e-38 308 265
-0.013577812 0.704 -0.030858666 1.4164999e-38 309 265
-0.012343466 0.704 -0.030858666 1.4714211e-38 310 265
-0.011109119 0.704 -0.030858666 1.3607862e-38 311 265
-0.0098747732 0.704 -0.030858666 1.3972315e-38 312 265
-0.0086404262 0.704 -0.030858666 1.4340737e-38 313 265
-0.0074060797 0.704 -0.030858666 1.4248532e-38 314 265
-0.0061892662 0.70599997 -0.030946331 1.3695358e-38 315 265
-0.0049514128 0.70599997 -0.030946331 1.2492864e-38 316 265
-0.0037135598 0.70599997 -0.030946331 1.0561082e-38 317 265
-0.0024757064 0.70599997 -0.030946331 1.0936336e-38 318 265
-0.0012378532 0.70599997 -0.030946331 1.2411466e-38 319 265
0 0.70599997 -0.030946331 1.3507737e-38 320 265
0.0012378532 0.70599997 -0.030946331 1.3876519e-38 321 265
0.0024757064 0.70599997 -0.030946331 1.3325862e-38 322 265
0.0037135598 0.70599997 -0.030946331 1.3325862e-38 323 265
0.0049514128 0.70599997 -0.030946331 1.2868128e-38 324 265
0.0061892662 0.70599997 -0.030946331 1.2868128e-38 325 265
0.0074271196 0.70599997 -0.030946331 1.2684816e-38 326 265
0.008677247 0.70700002 -0.030990168 1.2684816e-38 327 265
0.0099168532 0.70700002 -0.030990168 1.2684816e-38 328 265
0.011156459 0.70700002 -0.030990168 1.2684816e-38 329 265
0.0124136 0.708 -0.031034 1.2684095e-38 330 265
0.013693533 0.70999998 -0.031121666 1.2684095e-38 331 265
0.014959441 0.71100003 -0.031165501 1.2867411e-38 332 265
0.01620606 0.71100003 -0.031165501 1.3051803e-38 333 265
0.01745268 0.71100003 -0.031165501 1.2410046e-38 334 265
0.0186993 0.71100003 -0.031165501 1.1948708e-38 335 265
0.01994592 0.71100003 -0.031165501 6.8876986e-39 336 265
0.021192541 0.71100003 -0.031165501 9.8361665e-39 337 265
0.022439159 0.71100003 -0.031165501 1.1345848e-38 338 265
-0.039080046 0.71899998 -0.032776814 1.2161522e-38 289 266
-0.037819397 0.71899998 -0.032776814 1.41657e-38 290 266
-0.036406212 0.71600002 -0.032640055 1.2598734e-38 291 266
-0.035052639 0.71399999 -0.032548878 1.2132711e-38 292 266
-0.033753417 0.713 -0.032503292 1.1764287e-38 293 266
-0.032412119 0.71100003 -0.032412119 1.3884058e-38 294 266
-0.031165501 0.71100003 -0.032412119 1.3976254e-38 295 266
-0.029876797 0.70999998 -0.032366529 1.4984645e-38 296 266
-0.02855128 0.708 -0.03227536 1.5353428e-38 297 266
-0.027309919 0.708 -0.03227536 1.5354153e-38 298 266
-0.026068559 0.708 -0.03227536 1.5999523e-38 299 266
-0.024792133 0.70700002 -0.032229774 1.5817644e-38 300 266
-0.023519212 0.70599997 -0.032184184 1.4803851e-38 301 266
-0.022281358 0.70599997 -0.032184184 1.3513834e-38 302 266
-0.021043506 0.70599997 -0.032184184 1.1024564e-38 303 266
-0.019805651 0.70599997 -0.032184184 6.9795103e-39 304 266
-0.018567799 0.70599997 -0.032184184 6.7039996e-39 305 266
-0.017329946 0.70599997 -0.032184184 8.9170745e-39 306 266
-0.016092092 0.70599997 -0.032184184 1.0484759e-38 307 266
-0.014812159 0.704 -0.032093015 1.3793347e-38 308 266
-0.013577812 0.704 -0.032093015 1.3885901e-38 309 266
-0.012343466 0.704 -0.032093015 1.3698281e-38 310 266
-0.011109119 0.704 -0.032093015 1.3145466e-38 311 266
-0.0098747732 0.704 -0.032093015 1.3328775e-38 312 266
-0.0086649731 0.70599997 -0.032184184 1.3420971e-38 313 266
-0.0074271196 0.70599997 -0.032184184 1.3329815e-38 314 266
-0.0061892662 0.70599997 -0.032184184 1.2960674e-38 315 266
-0.0049514128 0.70599997 -0.032184184 1.2589355e-38 316 266
-0.0037135598 0.70599997 -0.032184184 1.0745471e-38 317 266
-0.0024757064 0.70599997 -0.032184184 9.8335783e-39 318 266
-0.0012378532 0.70599997 -0.032184184 1.1216513e-38 319 266
0 0.70599997 -0.032184184 1.2501148e-38 320 266
0.0012378532 0.70599997 -0.032184184 1.2501148e-38 321 266
0.0024757064 0.70599997 -0.032184184 1.2959605e-38 322 266
0.0037135598 0.70599997 -0.032184184 1.30518e-38 323 266
0.0049514128 0.70599997 -0.032184184 1.2594418e-38 324 266
0.0061892662 0.70599997 -0.032184184 1.2501864e-38 325 266
0.0074271196 0.70599997 -0.032184184 1.2318557e-38 326 266
0.0086649731 0.70599997 -0.032184184 1.2226003e-38 327 266
0.0099168532 0.70700002 -0.032229774 1.2226005e-38 328 266
0.011156459 0.70700002 -0.032229774 1.2133808e-38 329 266
0.0124136 0.708 -0.03227536 1.2134161e-38 330 266
0.013693533 0.70999998 -0.032366529 1.2134161e-38 331 266
0.014959441 0.71100003 -0.032412119 1.2316399e-38 332 266
0.01620606 0.71100003 -0.032412119 1.250115e-38 333 266
0.017501773 0.713 -0.032503292 1.2225652e-38 334 266
0.018751899 0.713 -0.032503292 1.204126e-38 335 266
0.020002026 0.713 -0.032503292 1.0015149e-38 336 266
0.021252153 0.713 -0.032503292 9.0006381e-39 337 266
0.022502279 0.713 -0.032503292 6.7349823e-39 338 266
-0.039080046 0.71899998 -0.03403746 1.2532825e-38 289 267
-0.037819397 0.71899998 -0.03403746 1.3986707e-38 290 267
-0.036406212 0.71600002 -0.03389544 1.1958402e-38 291 267
-0.035052639 0.71399999 -0.033800758 1.1579169e-38 292 267
-0.033753417 0.713 -0.033753417 1.2132343e-38 293 267
-0.032412119 0.71100003 -0.033658739 1.3701096e-38 294 267
-0.031165501 0.71100003 -0.033658739 1.3701096e-38 295 267
-0.029876797 0.70999998 -0.033611398 1.4891731e-38 296 267
-0.02855128 0.708 -0.033516716 1.5260154e-38 297 267
-0.027309919 0.708 -0.033516716 1.5075764e-38 298 267
-0.026068559 0.708 -0.033516716 1.4246364e-38 299 267
-0.024792133 0.70700002 -0.033469379 1.3785753e-38 300 267
-0.023519212 0.70599997 -0.033422034 1.341661e-38 301 267
-0.022281358 0.70599997 -0.033422034 9.8303568e-39 302 267
-0.021043506 0.70599997 -0.033422034 6.1529782e-39 303 267
-0.019805651 0.70599997 -0.033422034 4.6836131e-39 304 267
-0.018567799 0.70599997 -0.033422034 7.0799834e-39 305 267
-0.017329946 0.70599997 -0.033422034 1.149494e-38 306 267
-0.016092092 0.70599997 -0.033422034 1.149494e-38 307 267
-0.014854239 0.70599997 -0.033422034 1.2868872e-38 308 267
-0.013616386 0.70599997 -0.033422034 1.2868872e-38 309 267
-0.012343466 0.704 -0.03332736 1.3144014e-38 310 267
-0.011109119 0.704 -0.03332736 1.3051819e-38 311 267
-0.0099028256 0.70599997 -0.033422034 1.3052172e-38 312 267
-0.0086649731 0.70599997 -0.033422034 1.2959617e-38 313 267
-0.0074271196 0.70599997 -0.033422034 1.3052166e-38 314 267
-0.0061892662 0.70599997 -0.033422034 1.3052166e-38 315 267
-0.0049514128 0.70599997 -0.033422034 1.1950846e-38 316 267
-0.0037135598 0.70599997 -0.033422034 1.0660108e-38 317 267
-0.0024757064 0.70599997 -0.033422034 8.3613419e-39 318 267
-0.0012378532 0.70599997 -0.033422034 9.5598837e-39 319 267
0 0.70599997 -0.033422034 1.1585674e-38 320 267
0.0012378532 0.70599997 -0.033422034 1.1400924e-38 321 267
0.0024757064 0.70599997 -0.033422034 1.2775212e-38 322 267
0.0037135598 0.70599997 -0.033422034 1.2959605e-38 323 267
0.0049514128 0.70599997 -0.033422034 1.250222e-38 324 267
0.0061892662 0.70599997 -0.033422034 1.2410024e-38 325 267
0.0074271196 0.70599997 -0.033422034 1.2040888e-38 326 267
0.0086649731 0.70599997 -0.033422034 1.1948693e-38 327 267
0.0099168532 0.70700002 -0.033469379 1.2131289e-38 328 267
0.011156459 0.70700002 -0.033469379 1.2223484e-38 329 267
0.0124136 0.708 -0.033516716 1.2224559e-38 330 267
0.013693533 0.70999998 -0.033611398 1.2316755e-38 331 267
0.014959441 0.71100003 -0.033658739 1.2224556e-38 332 267
0.01620606 0.71100003 -0.033658739 1.2316752e-38 333 267
0.017501773 0.713 -0.033753417 1.2317471e-38 334 267
0.018751899 0.713 -0.033753417 1.2317471e-38 335 267
0.020002026 0.713 -0.033753417 1.1307304e-38 336 267
0.021192541 0.71100003 -0.033658739 7.7141873e-39 337 267
0.022439159 0.71100003 -0.033658739 9.3634763e-42 338 267
0.023685781 0.71100003 -0.033658739 1.2180267e-38 339 267
-0.038916986 0.71600002 -0.035150826 1.3272911e-38 289 268
-0.037661601 0.71600002 -0.035150826 1.3805912e-38 290 268
-0.036406212 0.71600002 -0.035150826 1.1592858e-38 291 268
-0.035052639 0.71399999 -0.035052639 1.2230651e-38 292 268
-0.033753417 0.713 -0.035003547 1.269163e-38 293 268
-0.032412119 0.71100003 -0.034905359 1.3608545e-38 294 268
-0.031165501 0.71100003 -0.034905359 1.3608545e-38 295 268
-0.029876797 0.70999998 -0.034856264 1.4524758e-38 296 268
-0.02855128 0.708 -0.034758076 1.4340727e-38 297 268
-0.027309919 0.708 -0.034758076 1.4431488e-38 298 268
-0.02603174 0.70700002 -0.034708988 1.3970869e-38 299 268
-0.024792133 0.70700002 -0.034708988 1.2961403e-38 300 268
-0.023519212 0.70599997 -0.034659892 1.2039446e-38 301 268
-0.022281358 0.70599997 -0.034659892 8.5475535e-39 302 268
-0.021043506 0.70599997 -0.034659892 5.7856363e-39 303 268
-0.019805651 0.70599997 -0.034659892 5.0567172e-39 304 268
-0.018567799 0.70599997 -0.034659892 7.0850211e-39 305 268
-0.017329946 0.70599997 -0.034659892 1.1032518e-38 306 268
-0.016092092 0.70599997 -0.034659892 1.1216911e-38 307 268
-0.014854239 0.70599997 -0.034659892 1.1949088e-38 308 268
-0.013616386 0.70599997 -0.034659892 1.2133119e-38 309 268
-0.012378532 0.70599997 -0.034659892 1.2407542e-38 310 268
-0.011140679 0.70599997 -0.034659892 1.2407542e-38 311 268
-0.0099028256 0.70599997 -0.034659892 1.240897e-38 312 268
-0.0086649731 0.70599997 -0.034659892 1.240897e-38 313 268
-0.0074271196 0.70599997 -0.034659892 1.2501869e-38 314 268
-0.0061892662 0.70599997 -0.034659892 1.2409674e-38 315 268
-0.0049514128 0.70599997 -0.034659892 1.2317471e-38 316 268
-0.0037135598 0.70599997 -0.034659892 1.1949049e-38 317 268
-0.0024757064 0.70599997 -0.034659892 1.0109835e-38 318 268
-0.0012378532 0.70599997 -0.034659892 9.5566607e-39 319 268
0 0.70599997 -0.034659892 1.0942116e-38 320 268
0.0012378532 0.70599997 -0.034659892 1.0942116e-38 321 268
0.0024757064 0.70599997 -0.034659892 1.250007e-38 322 268
0.0037135598 0.70599997 -0.034659892 1.2592266e-38 323 268
0.0049514128 0.70599997 -0.034659892 1.2041607e-38 324 268
0.0061892662 0.70599997 -0.034659892 1.1949412e-38 325 268
0.0074271196 0.70599997 -0.034659892 1.1673188e-38 326 268
0.008677247 0.70700002 -0.034708988 1.1580633e-38 327 268
0.0099168532 0.70700002 -0.034708988 1.1763948e-38 328 268
0.011156459 0.70700002 -0.034708988 1.1763948e-38 329 268
0.0124136 0.708 -0.034758076 1.1948695e-38 330 268
0.013693533 0.70999998 -0.034856264 1.1948695e-38 331 268
0.014959441 0.71100003 -0.034905359 1.1949414e-38 332 268
0.01620606 0.71100003 -0.034905359 1.204161e-38 333 268
0.017501773 0.713 -0.035003547 1.1949412e-38 334 268
0.018751899 0.713 -0.035003547 1.1949412e-38 335 268
0.020002026 0.713 -0.035003547 1.15828e-38 336 268
0.021192541 0.71100003 -0.034905359 8.5407039e-39 337 268
0.022439159 0.71100003 -0.034905359 2.9387359e-39 338 268
0.023685781 0.71100003 -0.034905359 1.5562706e-38 339 268
-0.037661601 0.71600002 -0.036406212 1.3899919e-38 290 269
-0.036304519 0.71399999 -0.036304519 1.1502832e-38 291 269
-0.035052639 0.71399999 -0.036304519 1.2879278e-38 292 269
-0.033753417 0.713 -0.036253672 1.2879278e-38 293 269
-0.032412119 0.71100003 -0.036151983 1.3886576e-38 294 269
-0.031121666 0.70999998 -0.036101133 1.3425598e-38 295 269
-0.029876797 0.70999998 -0.036101133 1.4341441e-38 296 269
-0.02855128 0.708 -0.03599944 1.4157049e-38 297 269
-0.027309919 0.708 -0.03599944 1.3787916e-38 298 269
-0.02603174 0.70700002 -0.035948593 1.351133e-38 299 269
-0.024792133 0.70700002 -0.035948593 1.268446e-38 300 269
-0.023519212 0.70599997 -0.035897743 1.1946893e-38 301 269
-0.022281358 0.70599997 -0.035897743 7.9979698e-39 302 269
-0.021043506 0.70599997 -0.035897743 5.6019653e-39 303 269
-0.019805651 0.70599997 -0.035897743 6.0679811e-39 304 269
-0.018567799 0.70599997 -0.035897743 7.8193393e-39 305 269
-0.017329946 0.70599997 -0.035897743 1.0844887e-38 306 269
-0.016092092 0.70599997 -0.035897743 1.1305506e-38 307 269
-0.014854239 0.70599997 -0.035897743 1.1672131e-38 308 269
-0.013616386 0.70599997 -0.035897743 1.1672131e-38 309 269
-0.012378532 0.70599997 -0.035897743 1.1855796e-38 310 269
-0.011140679 0.70599997 -0.035897743 1.1855796e-38 311 269
-0.0099028256 0.70599997 -0.035897743 1.1947989e-38 312 269
-0.0086649731 0.70599997 -0.035897743 1.1947989e-38 313 269
-0.0074271196 0.70599997 -0.035897743 1.204126e-38 314 269
-0.0061892662 0.70599997 -0.035897743 1.2225652e-38 315 269
-0.0049514128 0.70599997 -0.035897743 1.2043412e-38 316 269
-0.0037135598 0.70599997 -0.035897743 1.1951216e-38 317 269
-0.0024757064 0.70599997 -0.035897743 1.0113788e-38 318 269
-0.0012378532 0.70599997 -0.035897743 8.4539061e-39 319 269
0 0.70599997 -0.035897743 1.0115951e-38 320 269
0.0012378532 0.70599997 -0.035897743 1.0115951e-38 321 269
0.0024757064 0.70599997 -0.035897743 1.2223487e-38 322 269
0.0037135598 0.70599997 -0.035897743 1.2315683e-38 323 269
0.0049514128 0.70599997 -0.035897743 1.2132005e-38 324 269
0.0061892662 0.70599997 -0.035897743 1.2039809e-38 325 269
0.0074271196 0.70599997 -0.035897743 1.1856131e-38 326 269
0.008677247 0.70700002 -0.035948593 1.1763934e-38 327 269
0.0099168532 0.70700002 -0.035948593 1.1947246e-38 328 269
0.01117224 0.708 -0.03599944 1.1947246e-38 329 269
0.0124136 0.708 -0.03599944 1.1855778e-38 330 269
0.013693533 0.70999998 -0.036101133 1.2039809e-38 331 269
0.014959441 0.71100003 -0.036151983 1.1856497e-38 332 269
0.01620606 0.71100003 -0.036151983 1.1948693e-38 333 269
0.017501773 0.713 -0.036253672 1.1856497e-38 334 269
0.018751899 0.713 -0.036253672 1.2040888e-38 335 269
0.020002026 0.713 -0.036253672 1.1490957e-38 336 269
0.021192541 0.71100003 -0.036151983 8.9094795e-39 337 269
0.022439159 0.71100003 -0.036151983 4.7754458e-39 338 269
0.023685781 0.71100003 -0.036151983 1.6569648e-38 339 269
-0.037661601 0.71600002 -0.037661601 1.4362342e-38 290 270
-0.036406212 0.71600002 -0.037661601 1.1688669e-38 291 270
-0.035003547 0.713 -0.037503798 1.343425e-38 292 270
-0.033658739 0.71100003 -0.037398599 1.3249859e-38 293 270
-0.032412119 0.71100003 -0.037398599 1.3980571e-38 294 270
-0.031121666 0.70999998 -0.037345998 1.3519952e-38 295 270
-0.029876797 0.70999998 -0.037345998 1.3976254e-38 296 270
-0.02855128 0.708 -0.0372408 1.3423081e-38 297 270
-0.027271347 0.70700002 -0.037188202 1.3237985e-38 298 270
-0.02603174 0.70700002 -0.037188202 1.2961759e-38 299 270
-0.024792133 0.70700002 -0.037188202 1.2501869e-38 300 270
-0.023519212 0.70599997 -0.037135597 1.18565e-38 301 270
-0.022281358 0.70599997 -0.037135597 8.2723931e-39 302 270
-0.021043506 0.70599997 -0.037135597 6.3366492e-39 303 270
-0.019805651 0.70599997 -0.037135597 7.5366288e-39 304 270
-0.018567799 0.70599997 -0.037135597 8.8273676e-39 305 270
-0.017354494 0.70700002 -0.037188202 1.0752333e-38 306 270
-0.016092092 0.70599997 -0.037135597 1.0752333e-38 307 270
-0.014854239 0.70599997 -0.037135597 1.0936011e-38 308 270
-0.013616386 0.70599997 -0.037135597 1.0843815e-38 309 270
-0.012378532 0.70599997 -0.037135597 1.1303344e-38 310 270
-0.011140679 0.70599997 -0.037135597 1.139554e-38 311 270
-0.0099028256 0.70599997 -0.037135597 1.1304422e-38 312 270
-0.0086649731 0.70599997 -0.037135597 1.1488453e-38 313 270
-0.0074271196 0.70599997 -0.037135597 1.1489532e-38 314 270
-0.0061892662 0.70599997 -0.037135597 1.1582086e-38 315 270
-0.0049514128 0.70599997 -0.037135597 1.15828e-38 316 270
-0.0037135598 0.70599997 -0.037135597 1.15828e-38 317 270
-0.0024757064 0.70599997 -0.037135597 9.8386454e-39 318 270
-0.0012378532 0.70599997 -0.037135597 8.455711e-39 319 270
0 0.70599997 -0.037135597 9.9326389e-39 320 270
0.0012378532 0.70599997 -0.037135597 1.0208867e-38 321 270
0.0024757064 0.70599997 -0.037135597 1.2316755e-38 322 270
0.0037135598 0.70599997 -0.037135597 1.2408951e-38 323 270
0.0049514128 0.70599997 -0.037135597 1.2133437e-38 324 270
0.0061892662 0.70599997 -0.037135597 1.1949046e-38 325 270
0.0074271196 0.70599997 -0.037135597 1.1856131e-38 326 270
0.008677247 0.70700002 -0.037188202 1.2040162e-38 327 270
0.0099168532 0.70700002 -0.037188202 1.1856131e-38 328 270
0.01117224 0.708 -0.0372408 1.2040162e-38 329 270
0.0124136 0.708 -0.0372408 1.1856853e-38 330 270
0.013693533 0.70999998 -0.037345998 1.1949049e-38 331 270
0.014959441 0.71100003 -0.037398599 1.1857213e-38 332 270
0.01620606 0.71100003 -0.037398599 1.1857213e-38 333 270
0.017501773 0.713 -0.037503798 1.1673901e-38 334 270
0.018751899 0.713 -0.037503798 1.1766096e-38 335 270
0.020002026 0.713 -0.037503798 1.1675348e-38 336 270
0.021252153 0.713 -0.037503798 9.6470445e-39 337 270
0.022502279 0.713 -0.037503798 7.1631687e-39 338 270
0.023752406 0.713 -0.037503798 1.905389e-38 339 270
-0.037503798 0.713 -0.038753927 1.4642526e-38 290 271
-0.036253672 0.713 -0.038753927 1.1323482e-38 291 271
-0.035003547 0.713 -0.038753927 1.3895577e-38 292 271
-0.033658739 0.71100003 -0.038645219 1.361935e-38 293 271
-0.032412119 0.71100003 -0.038645219 1.4165669e-38 294 271
-0.031121666 0.70999998 -0.038590867 1.3796526e-38 295 271
-0.029876797 0.70999998 -0.038590867 1.4068807e-38 296 271
-0.02855128 0.708 -0.038482159 1.3515633e-38 297 271
-0.027271347 0.70700002 -0.038427804 1.3513845e-38 298 271
-0.02603174 0.70700002 -0.038427804 1.3145421e-38 299 271
-0.024792133 0.70700002 -0.038427804 1.2685179e-38 300 271
-0.023519212 0.70599997 -0.038373452 1.1855778e-38 301 271
-0.022281358 0.70599997 -0.038373452 8.5475409e-39 302 271
-0.021073313 0.70700002 -0.038427804 7.4408332e-39 303 271
-0.019833706 0.70700002 -0.038427804 9.0059981e-39 304 271
-0.018594101 0.70700002 -0.038427804 9.7435631e-39 305 271
-0.017354494 0.70700002 -0.038427804 1.0842715e-38 306 271
-0.016114887 0.70700002 -0.038427804 1.0750518e-38 307 271
-0.01487528 0.70700002 -0.038427804 1.1208978e-38 308 271
-0.013635674 0.70700002 -0.038427804 1.1301175e-38 309 271
-0.012396066 0.70700002 -0.038427804 1.1301527e-38 310 271
-0.011140679 0.70599997 -0.038373452 1.1485919e-38 311 271
-0.0099028256 0.70599997 -0.038373452 1.1395524e-38 312 271
-0.008677247 0.70700002 -0.038427804 1.148772e-38 313 271
-0.0074376399 0.70700002 -0.038427804 1.1304775e-38 314 271
-0.0061892662 0.70599997 -0.038373452 1.1673197e-38 315 271
-0.0049514128 0.70599997 -0.038373452 1.1582437e-38 316 271
-0.0037135598 0.70599997 -0.038373452 1.1582437e-38 317 271
-0.0024757064 0.70599997 -0.038373452 9.8382895e-39 318 271
-0.0012378532 0.70599997 -0.038373452 8.5475507e-39 319 271
0 0.70599997 -0.038373452 9.656415e-39 320 271
0.0012378532 0.70599997 -0.038373452 1.0025558e-38 321 271
0.0024757064 0.70599997 -0.038373452 1.2134876e-38 322 271
0.0037135598 0.70599997 -0.038373452 1.2227431e-38 323 271
0.0049514128 0.70599997 -0.038373452 1.2135585e-38 324 271
0.0061892662 0.70599997 -0.038373452 1.1951194e-38 325 271
0.0074376399 0.70700002 -0.038427804 1.2041595e-38 326 271
0.008677247 0.70700002 -0.038427804 1.2041595e-38 327 271
0.0099308798 0.708 -0.038482159 1.2132714e-38 328 271
0.01117224 0.708 -0.038482159 1.222491e-38 329 271
0.012448666 0.70999998 -0.038590867 1.2041595e-38 330 271
0.013693533 0.70999998 -0.038590867 1.2041595e-38 331 271
0.014959441 0.71100003 -0.038645219 1.2042311e-38 332 271
0.01620606 0.71100003 -0.038645219 1.1950115e-38 333 271
0.017501773 0.713 -0.038753927 1.1949762e-38 334 271
0.018751899 0.713 -0.038753927 1.2134512e-38 335 271
0.020030079 0.71399999 -0.038808275 1.1677148e-38 336 271
0.021281958 0.71399999 -0.038808275 9.9254293e-39 337 271
0.022596961 0.71600002 -0.038916986 8.0869285e-39 338 271
0.023852346 0.71600002 -0.038916986 1.9611382e-38 339 271
-0.039080046 0.71899998 -0.040340692 1.723986e-38 289 272
-0.037714198 0.71700001 -0.040228479 1.4830511e-38 290 272
-0.036253672 0.713 -0.040004052 1.105049e-38 291 272
-0.035003547 0.713 -0.040004052 1.3989572e-38 292 272
-0.033658739 0.71100003 -0.039891839 1.3621149e-38 293 272
-0.032412119 0.71100003 -0.039891839 1.4165331e-38 294 272
-0.031121666 0.70999998 -0.039835732 1.3796909e-38 295 272
-0.029876797 0.70999998 -0.039835732 1.3978422e-38 296 272
-0.02855128 0.708 -0.039723519 1.3517445e-38 297 272
-0.027309919 0.708 -0.039723519 1.3423453e-38 298 272
-0.02603174 0.70700002 -0.039667413 1.3146867e-38 299 272
-0.024792133 0.70700002 -0.039667413 1.3145439e-38 300 272
-0.023519212 0.70599997 -0.039611302 1.1670311e-38 301 272
-0.022281358 0.70599997 -0.039611302 8.1809164e-39 302 272
-0.021073313 0.70700002 -0.039667413 7.9046882e-39 303 272
-0.019833706 0.70700002 -0.039667413 1.0661925e-38 304 272
-0.018594101 0.70700002 -0.039667413 1.1307295e-38 305 272
-0.017354494 0.70700002 -0.039667413 1.2226371e-38 306 272
-0.016114887 0.70700002 -0.039667413 1.2134176e-38 307 272
-0.01487528 0.70700002 -0.039667413 1.2133452e-38 308 272
-0.013635674 0.70700002 -0.039667413 1.1949061e-38 309 272
-0.012396066 0.70700002 -0.039667413 1.1949058e-38 310 272
-0.011140679 0.70599997 -0.039611302 1.2226005e-38 311 272
-0.0099028256 0.70599997 -0.039611302 1.1582434e-38 312 272
-0.008677247 0.70700002 -0.039667413 1.1766465e-38 313 272
-0.0074376399 0.70700002 -0.039667413 1.158315e-38 314 272
-0.0061980332 0.70700002 -0.039667413 1.1675704e-38 315 272
-0.0049584266 0.70700002 -0.039667413 1.1675704e-38 316 272
-0.0037135598 0.70599997 -0.039611302 1.2044128e-38 317 272
-0.0024757064 0.70599997 -0.039611302 1.0389664e-38 318 272
-0.0012378532 0.70599997 -0.039611302 8.6379471e-39 319 272
0 0.70599997 -0.039611302 9.3801882e-39 320 272
0.0012378532 0.70599997 -0.039611302 9.933362e-39 321 272
0.0024757064 0.70599997 -0.039611302 1.1951211e-38 322 272
0.0037135598 0.70599997 -0.039611302 1.2412188e-38 323 272
0.0049514128 0.70599997 -0.039611302 1.2136674e-38 324 272
0.0061980332 0.70700002 -0.039667413 1.2044478e-38 325 272
0.0074376399 0.70700002 -0.039667413 1.2134876e-38 326 272
0.008689519 0.708 -0.039723519 1.2227431e-38 327 272
0.0099308798 0.708 -0.039723519 1.2135232e-38 328 272
0.011203799 0.70999998 -0.039835732 1.2135232e-38 329 272
0.012448666 0.70999998 -0.039835732 1.2135232e-38 330 272
0.013693533 0.70999998 -0.039835732 1.2227428e-38 331 272
0.014959441 0.71100003 -0.039891839 1.2044834e-38 332 272
0.01620606 0.71100003 -0.039891839 1.1768249e-38 333 272
0.017501773 0.713 -0.040004052 1.1952639e-38 334 272
0.018751899 0.713 -0.040004052 1.2044834e-38 335 272
0.020086186 0.71600002 -0.040172372 1.1863687e-38 336 272
0.021371379 0.71700001 -0.040228479 9.4666007e-39 337 272
0.02262852 0.71700001 -0.040228479 8.1845191e-39 338 272
0.02388566 0.71700001 -0.040228479 1.9247635e-38 339 272
-0.039080046 0.71899998 -0.041601337 1.8254016e-38 289 273
-0.037714198 0.71700001 -0.041485619 1.6218477e-38 290 273
-0.036304519 0.71399999 -0.041312039 1.1885643e-38 291 273
-0.035052639 0.71399999 -0.041312039 1.3899174e-38 292 273
-0.033658739 0.71100003 -0.041138459 1.3714783e-38 293 273
-0.032412119 0.71100003 -0.041138459 1.4442994e-38 294 273
-0.031121666 0.70999998 -0.041080594 1.3982375e-38 295 273
-0.029876797 0.70999998 -0.041080594 1.4163516e-38 296 273
-0.02855128 0.708 -0.040964879 1.3702898e-38 297 273
-0.027309919 0.708 -0.040964879 1.3701096e-38 298 273
-0.02603174 0.70700002 -0.040907022 1.3147922e-38 299 273
-0.024792133 0.70700002 -0.040907022 1.3145424e-38 300 273
-0.023519212 0.70599997 -0.040849157 1.1669935e-38 301 273
-0.022281358 0.70599997 -0.040849157 8.1805464e-39 302 273
-0.021073313 0.70700002 -0.040907022 9.0106672e-39 303 273
-0.019833706 0.70700002 -0.040907022 1.1033222e-38 304 273
-0.0186204 0.708 -0.040964879 1.1678591e-38 305 273
-0.017354494 0.70700002 -0.040907022 1.2780271e-38 306 273
-0.016114887 0.70700002 -0.040907022 1.2872825e-38 307 273
-0.01487528 0.70700002 -0.040907022 1.2322523e-38 308 273
-0.013635674 0.70700002 -0.040907022 1.2506554e-38 309 273
-0.012396066 0.70700002 -0.040907022 1.241399e-38 310 273
-0.011156459 0.70700002 -0.040907022 1.2321794e-38 311 273
-0.0099168532 0.70700002 -0.040907022 1.2228872e-38 312 273
-0.008677247 0.70700002 -0.040907022 1.2044481e-38 313 273
-0.0074376399 0.70700002 -0.040907022 1.204376e-38 314 273
-0.0061980332 0.70700002 -0.040907022 1.204376e-38 315 273
-0.0049584266 0.70700002 -0.040907022 1.2136661e-38 316 273
-0.0037188199 0.70700002 -0.040907022 1.2228857e-38 317 273
-0.0024792133 0.70700002 -0.040907022 1.0665147e-38 318 273
-0.0012396066 0.70700002 -0.040907022 8.8212341e-39 319 273
0 0.70700002 -0.040907022 9.6553276e-39 320 273
0.0012396066 0.70700002 -0.040907022 1.0208501e-38 321 273
0.0024792133 0.70700002 -0.040907022 1.1861535e-38 322 273
0.0037188199 0.70700002 -0.040907022 1.195373e-38 323 273
0.0049584266 0.70700002 -0.040907022 1.2229228e-38 324 273
0.0061980332 0.70700002 -0.040907022 1.2229228e-38 325 273
0.0074481601 0.708 -0.040964879 1.2319621e-38 326 273
0.008689519 0.708 -0.040964879 1.2412175e-38 327 273
0.0099589331 0.70999998 -0.041080594 1.2412172e-38 328 273
0.011203799 0.70999998 -0.041080594 1.2412172e-38 329 273
0.012448666 0.70999998 -0.041080594 1.2228504e-38 330 273
0.013693533 0.70999998 -0.041080594 1.2412894e-38 331 273
0.014959441 0.71100003 -0.041138459 1.2229223e-38 332 273
0.01620606 0.71100003 -0.041138459 1.2044832e-38 333 273
0.017501773 0.713 -0.041254178 1.2229223e-38 334 273
0.018778199 0.71399999 -0.041312039 1.2321777e-38 335 273
0.020086186 0.71600002 -0.041427758 1.195588e-38 336 273
0.021371379 0.71700001 -0.041485619 1.0204522e-38 337 273
0.02262852 0.71700001 -0.041485619 9.7532825e-39 338 273
0.02388566 0.71700001 -0.041485619 1.9710412e-38 339 273
-0.039080046 0.71899998 -0.042861983 1.8622444e-38 289 274
-0.037661601 0.71600002 -0.042683143 1.7971291e-38 290 274
-0.036304519 0.71399999 -0.042563915 1.4283467e-38 291 274
-0.035052639 0.71399999 -0.042563915 1.4176852e-38 292 274
-0.033800758 0.71399999 -0.042563915 1.362368e-38 293 274
-0.032503292 0.713 -0.042504307 1.4352246e-38 294 274
-0.031165501 0.71100003 -0.042385083 1.3983105e-38 295 274
-0.029876797 0.70999998 -0.042325463 1.3889826e-38 296 274
-0.028631933 0.70999998 -0.042325463 1.3336652e-38 297 274
-0.027309919 0.708 -0.042206239 1.351852e-38 298 274
-0.026068559 0.708 -0.042206239 1.3425964e-38 299 274
-0.024792133 0.70700002 -0.042146627 1.2872444e-38 300 274
-0.023519212 0.70599997 -0.042087011 1.1028531e-38 301 274
-0.022281358 0.70599997 -0.042087011 8.1823611e-39 302 274
-0.021073313 0.70700002 -0.042146627 9.4730999e-39 303 274
-0.019833706 0.70700002 -0.042146627 1.2784605e-38 304 274
-0.0186204 0.708 -0.042206239 1.3614726e-38 305 274
-0.017354494 0.70700002 -0.042146627 1.3062984e-38 306 274
-0.016114887 0.70700002 -0.042146627 1.2786757e-38 307 274
-0.01487528 0.70700002 -0.042146627 1.2418674e-38 308 274
-0.013635674 0.70700002 -0.042146627 1.1957696e-38 309 274
-0.012396066 0.70700002 -0.042146627 1.2323955e-38 310 274
-0.011156459 0.70700002 -0.042146627 1.2139924e-38 311 274
-0.0099168532 0.70700002 -0.042146627 1.2413271e-38 312 274
-0.008677247 0.70700002 -0.042146627 1.2413271e-38 313 274
-0.0074376399 0.70700002 -0.042146627 1.22278e-38 314 274
-0.0061980332 0.70700002 -0.042146627 1.22278e-38 315 274
-0.0049584266 0.70700002 -0.042146627 1.2228154e-38 316 274
-0.0037188199 0.70700002 -0.042146627 1.2504739e-38 317 274
-0.0024792133 0.70700002 -0.042146627 1.10325e-38 318 274
-0.0012396066 0.70700002 -0.042146627 9.4651742e-39 319 274
0 0.708 -0.042206239 9.7464442e-39 320 274
0.00124136 0.708 -0.042206239 1.0299617e-38 321 274
0.00248272 0.708 -0.042206239 1.1951935e-38 322 274
0.00372408 0.708 -0.042206239 1.2320718e-38 323 274
0.0049654399 0.708 -0.042206239 1.2412185e-38 324 274
0.0062067998 0.708 -0.042206239 1.2412185e-38 325 274
0.0074481601 0.708 -0.042206239 1.2412185e-38 326 274
0.0087140659 0.70999998 -0.042325463 1.2412185e-38 327 274
0.0099589331 0.70999998 -0.042325463 1.2412188e-38 328 274
0.011203799 0.70999998 -0.042325463 1.2412188e-38 329 274
0.012448666 0.70999998 -0.042325463 1.2228519e-38 330 274
0.01371282 0.71100003 -0.042385083 1.2321074e-38 331 274
0.014959441 0.71100003 -0.042385083 1.2229594e-38 332 274
0.016251646 0.713 -0.042504307 1.2321791e-38 333 274
0.017501773 0.713 -0.042504307 1.2138476e-38 334 274
0.018778199 0.71399999 -0.042563915 1.2323226e-38 335 274
0.020086186 0.71600002 -0.042683143 1.1771484e-38 336 274
0.021371379 0.71700001 -0.042742759 1.1679289e-38 337 274
0.02262852 0.71700001 -0.042742759 1.1604382e-38 338 274
0.02388566 0.71700001 -0.042742759 1.925698e-38 339 274
-0.037503798 0.713 -0.043754432 1.8711024e-38 290 275
-0.036101133 0.70999998 -0.043570329 1.6221742e-38 291 275
-0.034856264 0.70999998 -0.043570329 1.5101333e-38 292 275
-0.033753417 0.713 -0.043754432 1.3349617e-38 293 275
-0.032503292 0.713 -0.043754432 1.4354761e-38 294 275
-0.031253166 0.713 -0.043754432 1.3801946e-38 295 275
-0.029918881 0.71100003 -0.043631699 1.4255729e-38 296 275
-0.028631933 0.70999998 -0.043570329 1.3887305e-38 297 275
-0.027309919 0.708 -0.043447599 1.3702898e-38 298 275
-0.026068559 0.708 -0.043447599 1.3425951e-38 299 275
-0.024827199 0.708 -0.043447599 1.351493e-38 300 275
-0.023519212 0.70599997 -0.043324865 1.1578821e-38 301 275
-0.022281358 0.70599997 -0.043324865 8.4578746e-39 302 275
-0.021073313 0.70700002 -0.043386232 1.0301787e-38 303 275
-0.019833706 0.70700002 -0.043386232 1.2876452e-38 304 275
-0.0186204 0.708 -0.043447599 1.3429624e-38 305 275
-0.017379038 0.708 -0.043447599 1.2876802e-38 306 275
-0.016114887 0.70700002 -0.043386232 1.2600214e-38 307 275
-0.01487528 0.70700002 -0.043386232 1.2507277e-38 308 275
-0.013635674 0.70700002 -0.043386232 1.2415081e-38 309 275
-0.012396066 0.70700002 -0.043386232 1.2688425e-38 310 275
-0.011156459 0.70700002 -0.043386232 1.259623e-38 311 275
-0.0099168532 0.70700002 -0.043386232 1.2686979e-38 312 275
-0.008677247 0.70700002 -0.043386232 1.2686979e-38 313 275
-0.0074481601 0.708 -0.043447599 1.2594781e-38 314 275
-0.0062067998 0.708 -0.043447599 1.2594781e-38 315 275
-0.0049654399 0.708 -0.043447599 1.2595131e-38 316 275
-0.00372408 0.708 -0.043447599 1.2595131e-38 317 275
-0.00248272 0.708 -0.043447599 1.1123251e-38 318 275
-0.00124136 0.708 -0.043447599 9.7403163e-39 319 275
0 0.70999998 -0.043570329 9.3783862e-39 320 275
0.0012448666 0.70999998 -0.043570329 1.0023756e-38 321 275
0.0024897333 0.70999998 -0.043570329 1.2044857e-38 322 275
0.0037345996 0.70999998 -0.043570329 1.2044857e-38 323 275
0.0049794666 0.70999998 -0.043570329 1.2412188e-38 324 275
0.0062243328 0.70999998 -0.043570329 1.2412188e-38 325 275
0.0074691991 0.70999998 -0.043570329 1.2503667e-38 326 275
0.0087140659 0.70999998 -0.043570329 1.2411471e-38 327 275
0.0099589331 0.70999998 -0.043570329 1.2503664e-38 328 275
0.01121958 0.71100003 -0.043631699 1.2503664e-38 329 275
0.0124662 0.71100003 -0.043631699 1.2321071e-38 330 275
0.01371282 0.71100003 -0.043631699 1.2321071e-38 331 275
0.014959441 0.71100003 -0.043631699 1.2413987e-38 332 275
0.016251646 0.713 -0.043754432 1.2413987e-38 333 275
0.017526319 0.71399999 -0.043815799 1.2506538e-38 334 275
0.0188308 0.71600002 -0.043938532 1.2414343e-38 335 275
0.020086186 0.71600002 -0.043938532 1.0943879e-38 336 275
0.021371379 0.71700001 -0.043999899 1.407817e-38 337 275
0.02262852 0.71700001 -0.043999899 1.4742275e-38 338 275
-0.037503798 0.713 -0.045004558 1.9172731e-38 290 276
-0.036101133 0.70999998 -0.044815198 1.815822e-38 291 276
-0.034856264 0.70999998 -0.044815198 1.648859e-38 292 276
-0.033753417 0.713 -0.045004558 1.3630165e-38 293 276
-0.032503292 0.713 -0.045004558 1.4264364e-38 294 276
-0.031253166 0.713 -0.045004558 1.3711549e-38 295 276
-0.029918881 0.71100003 -0.044878319 1.4073138e-38 296 276
-0.028631933 0.70999998 -0.044815198 1.3796553e-38 297 276
-0.027309919 0.708 -0.044688959 1.3519599e-38 298 276
-0.026068559 0.708 -0.044688959 1.3427403e-38 299 276
-0.024827199 0.708 -0.044688959 1.3517097e-38 300 276
-0.023519212 0.70599997 -0.044562716 1.1304042e-38 301 276
-0.022281358 0.70599997 -0.044562716 8.6408211e-39 302 276
-0.021073313 0.70700002 -0.044625837 1.0300703e-38 303 276
-0.019833706 0.70700002 -0.044625837 1.2505131e-38 304 276
-0.018594101 0.70700002 -0.044625837 1.2412936e-38 305 276
-0.017379038 0.708 -0.044688959 1.2686279e-38 306 276
-0.01613768 0.708 -0.044688959 1.2778476e-38 307 276
-0.01487528 0.70700002 -0.044625837 1.259588e-38 308 276
-0.013635674 0.70700002 -0.044625837 1.2688075e-38 309 276
-0.0124136 0.708 -0.044688959 1.2595156e-38 310 276
-0.01117224 0.708 -0.044688959 1.2502961e-38 311 276
-0.0099308798 0.708 -0.044688959 1.259623e-38 312 276
-0.008689519 0.708 -0.044688959 1.259623e-38 313 276
-0.0074481601 0.708 -0.044688959 1.2686979e-38 314 276
-0.0062067998 0.708 -0.044688959 1.2594784e-38 315 276
-0.0049654399 0.708 -0.044688959 1.2595137e-38 316 276
-0.00372408 0.708 -0.044688959 1.2410747e-38 317 276
-0.00248272 0.708 -0.044688959 1.1215449e-38 318 276
-0.00124136 0.708 -0.044688959 1.0016906e-38 319 276
0 0.70999998 -0.044815198 9.2861905e-39 320 276
0.0012448666 0.70999998 -0.044815198 1.0023756e-38 321 276
0.0024897333 0.70999998 -0.044815198 1.195338e-38 322 276
0.0037345996 0.70999998 -0.044815198 1.1861184e-38 323 276
0.0049794666 0.70999998 -0.044815198 1.2411471e-38 324 276
0.0062243328 0.70999998 -0.044815198 1.2503667e-38 325 276
0.0074691991 0.70999998 -0.044815198 1.2227803e-38 326 276
0.0087140659 0.70999998 -0.044815198 1.2227803e-38 327 276
0.0099729598 0.71100003 -0.044878319 1.241219e-38 328 276
0.01121958 0.71100003 -0.044878319 1.2504386e-38 329 276
0.0124662 0.71100003 -0.044878319 1.2504739e-38 330 276
0.01371282 0.71100003 -0.044878319 1.2596936e-38 331 276
0.015001519 0.713 -0.045004558 1.2413987e-38 332 276
0.016274439 0.71399999 -0.045067675 1.2413987e-38 333 276
0.017526319 0.71399999 -0.045067675 1.2415787e-38 334 276
0.0188308 0.71600002 -0.045193922 1.2046646e-38 335 276
0.020086186 0.71600002 -0.045193922 1.0667677e-38 336 276
0.021371379 0.71700001 -0.045257039 1.610722e-38 337 276
-0.036101133 0.70999998 -0.046060063 1.871212e-38 291 277
-0.034856264 0.70999998 -0.046060063 1.8060973e-38 292 277
-0.033753417 0.713 -0.046254687 1.4741572e-38 293 277
-0.032503292 0.713 -0.046254687 1.4450925e-38 294 277
-0.031253166 0.713 -0.046254687 1.371336e-38 295 277
-0.029918881 0.71100003 -0.046124939 1.3983459e-38 296 277
-0.028631933 0.70999998 -0.046060063 1.3614678e-38 297 277
-0.027309919 0.708 -0.045930319 1.3795828e-38 298 277
-0.026068559 0.708 -0.045930319 1.3427047e-38 299 277
-0.024827199 0.708 -0.045930319 1.360929e-38 300 277
-0.023552528 0.70700002 -0.045865446 1.1857213e-38 301 277
-0.022312919 0.70700002 -0.045865446 9.6510116e-39 302 277
-0.021103119 0.708 -0.045930319 1.0757358e-38 303 277
-0.019833706 0.70700002 -0.045865446 1.2318572e-38 304 277
-0.018594101 0.70700002 -0.045865446 1.2502964e-38 305 277
-0.017379038 0.708 -0.045930319 1.2778103e-38 306 277
-0.01613768 0.708 -0.045930319 1.2778103e-38 307 277
-0.01489632 0.708 -0.045930319 1.2595866e-38 308 277
-0.013654959 0.708 -0.045930319 1.2595866e-38 309 277
-0.0124136 0.708 -0.045930319 1.259551e-38 310 277
-0.01117224 0.708 -0.045930319 1.259551e-38 311 277
-0.0099308798 0.708 -0.045930319 1.2595866e-38 312 277
-0.008689519 0.708 -0.045930319 1.2595866e-38 313 277
-0.0074481601 0.708 -0.045930319 1.2686982e-38 314 277
-0.0062067998 0.708 -0.045930319 1.2686982e-38 315 277
-0.0049654399 0.708 -0.045930319 1.2778812e-38 316 277
-0.00372408 0.708 -0.045930319 1.2686258e-38 317 277
-0.00248272 0.708 -0.045930319 1.1490957e-38 318 277
-0.0012448666 0.70999998 -0.046060063 1.0292414e-38 319 277
0 0.70999998 -0.046060063 8.9184842e-39 320 277
0.00124662 0.71100003 -0.046124939 9.7482449e-39 321 277
0.0024897333 0.70999998 -0.046060063 1.1862263e-38 322 277
0.0037345996 0.70999998 -0.046060063 1.1770068e-38 323 277
0.0049864799 0.71100003 -0.046124939 1.2503667e-38 324 277
0.0062330998 0.71100003 -0.046124939 1.2503667e-38 325 277
0.0074797203 0.71100003 -0.046124939 1.2411471e-38 326 277
0.0087263398 0.71100003 -0.046124939 1.2411471e-38 327 277
0.0099729598 0.71100003 -0.046124939 1.2594781e-38 328 277
0.01121958 0.71100003 -0.046124939 1.2686977e-38 329 277
0.012501267 0.713 -0.046254687 1.2780251e-38 330 277
0.013751393 0.713 -0.046254687 1.2872447e-38 331 277
0.015022559 0.71399999 -0.046319555 1.2689497e-38 332 277
0.016274439 0.71399999 -0.046319555 1.2966443e-38 333 277
0.017575413 0.71600002 -0.046449307 1.1682551e-38 334 277
0.0188308 0.71600002 -0.046449307 1.1682551e-38 335 277
0.020114239 0.71700001 -0.046514176 1.2151095e-38 336 277
0.021371379 0.71700001 -0.046514176 1.7221854e-38 337 277
-0.035003547 0.713 -0.047504812 1.8340815e-38 292 278
-0.033753417 0.713 -0.047504812 1.6496904e-38 293 278
-0.032548878 0.71399999 -0.047571439 1.4640727e-38 294 278
-0.031253166 0.713 -0.047504812 1.3073043e-38 295 278
-0.030003037 0.713 -0.047504812 1.3984184e-38 296 278
-0.028672259 0.71100003 -0.047371563 1.3431369e-38 297 278
-0.027387066 0.70999998 -0.047304932 1.3795472e-38 298 278
-0.026068559 0.708 -0.047171678 1.342705e-38 299 278
-0.024827199 0.708 -0.047171678 1.3425248e-38 300 278
-0.023552528 0.70700002 -0.047105055 1.2226706e-38 301 278
-0.022312919 0.70700002 -0.047105055 1.047825e-38 302 278
-0.021103119 0.708 -0.047171678 1.1215815e-38 303 278
-0.01986176 0.708 -0.047171678 1.1860115e-38 304 278
-0.0186204 0.708 -0.047171678 1.2228539e-38 305 278
-0.017379038 0.708 -0.047171678 1.2595866e-38 306 278
-0.01613768 0.708 -0.047171678 1.2595866e-38 307 278
-0.01489632 0.708 -0.047171678 1.2686979e-38 308 278
-0.013654959 0.708 -0.047171678 1.2686979e-38 309 278
-0.0124136 0.708 -0.047171678 1.2595866e-38 310 278
-0.01117224 0.708 -0.047171678 1.2503311e-38 311 278
-0.0099308798 0.708 -0.047171678 1.2686626e-38 312 278
-0.008689519 0.708 -0.047171678 1.2686626e-38 313 278
-0.0074691991 0.70999998 -0.047304932 1.2686626e-38 314 278
-0.0062243328 0.70999998 -0.047304932 1.2594431e-38 315 278
-0.0049794666 0.70999998 -0.047304932 1.2595137e-38 316 278
-0.0037345996 0.70999998 -0.047304932 1.2595137e-38 317 278
-0.0024897333 0.70999998 -0.047304932 1.1582784e-38 318 278
-0.0012448666 0.70999998 -0.047304932 1.0568631e-38 319 278
0 0.71100003 -0.047371563 9.0103141e-39 320 278
0.00124662 0.71100003 -0.047371563 9.9319103e-39 321 278
0.0024932399 0.71100003 -0.047371563 1.1678588e-38 322 278
0.0037503797 0.713 -0.047504812 1.1678588e-38 323 278
0.0050005065 0.713 -0.047504812 1.2228154e-38 324 278
0.0062330998 0.71100003 -0.047371563 1.2412185e-38 325 278
0.0074797203 0.71100003 -0.047371563 1.2412185e-38 326 278
0.0087263398 0.71100003 -0.047371563 1.2412185e-38 327 278
0.0099729598 0.71100003 -0.047371563 1.2503664e-38 328 278
0.011251139 0.713 -0.047504812 1.2503664e-38 329 278
0.012501267 0.713 -0.047504812 1.2413271e-38 330 278
0.01377068 0.71399999 -0.047571439 1.2689497e-38 331 278
0.015022559 0.71399999 -0.047571439 1.2598749e-38 332 278
0.016320027 0.71600002 -0.047704693 1.2783142e-38 333 278
0.017575413 0.71600002 -0.047704693 1.0394378e-38 334 278
0.0188308 0.71600002 -0.047704693 1.1961704e-38 335 278
0.020114239 0.71700001 -0.04777132 1.4004047e-38 336 278
-0.033753417 0.713 -0.048754938 1.65909e-38 293 279
-0.031253166 0.713 -0.048754938 1.3171358e-38 295 279
-0.030003037 0.713 -0.048754938 1.4262566e-38 296 279
-0.028672259 0.71100003 -0.048618179 1.3248773e-38 297 279
-0.027387066 0.70999998 -0.048549797 1.3795828e-38 298 279
-0.026142199 0.70999998 -0.048549797 1.3795828e-38 299 279
-0.024827199 0.708 -0.048413038 1.3425968e-38 300 279
-0.023585839 0.708 -0.048413038 1.2504371e-38 301 279
-0.022344479 0.708 -0.048413038 1.1216518e-38 302 279
-0.021162732 0.70999998 -0.048549797 1.1308714e-38 303 279
-0.01986176 0.708 -0.048413038 1.2134529e-38 304 279
-0.0186204 0.708 -0.048413038 1.2872094e-38 305 279
-0.017379038 0.708 -0.048413038 1.2872447e-38 306 279
-0.016183265 0.70999998 -0.048549797 1.259586e-38 307 279
-0.01489632 0.708 -0.048413038 1.259586e-38 308 279
-0.013654959 0.708 -0.048413038 1.2503664e-38 309 279
-0.012448666 0.70999998 -0.048549797 1.259551e-38 310 279
-0.011203799 0.70999998 -0.048549797 1.2503314e-38 311 279
-0.0099589331 0.70999998 -0.048549797 1.2686626e-38 312 279
-0.0087140659 0.70999998 -0.048549797 1.2686626e-38 313 279
-0.0074691991 0.70999998 -0.048549797 1.2594784e-38 314 279
-0.0062243328 0.70999998 -0.048549797 1.2594784e-38 315 279
-0.0049794666 0.70999998 -0.048549797 1.2594784e-38 316 279
-0.0037345996 0.70999998 -0.048549797 1.2594784e-38 317 279
-0.0024897333 0.70999998 -0.048549797 1.139984e-38 318 279
-0.00124662 0.71100003 -0.048618179 1.0477525e-38 319 279
0 0.71100003 -0.048618179 9.011749e-39 320 279
0.0012501266 0.713 -0.048754938 9.2886946e-39 321 279
0.0025002533 0.713 -0.048754938 1.1770415e-38 322 279
0.0037556398 0.71399999 -0.048823316 1.167822e-38 323 279
0.0050005065 0.713 -0.048754938 1.2411822e-38 324 279
0.0062506334 0.713 -0.048754938 1.2411822e-38 325 279
0.0075007593 0.713 -0.048754938 1.2319623e-38 326 279
0.0087508867 0.713 -0.048754938 1.2319623e-38 327 279
0.010001013 0.713 -0.048754938 1.2411822e-38 328 279
0.011251139 0.713 -0.048754938 1.2504017e-38 329 279
0.012518799 0.71399999 -0.048823316 1.2595863e-38 330 279
0.01377068 0.71399999 -0.048823316 1.2595863e-38 331 279
0.01506464 0.71600002 -0.048960082 1.2325407e-38 332 279
0.016320027 0.71600002 -0.048960082 1.3155167e-38 333 279
0.017575413 0.71600002 -0.048960082 1.2896958e-38 334 279
0.0188308 0.71600002 -0.048960082 1.538624e-38 335 279
0.020114239 0.71700001 -0.04902846 1.5674705e-38 336 279
-0.030003037 0.713 -0.050005067 1.4269048e-38 296 280
-0.028672259 0.71100003 -0.049864799 1.2609887e-38 297 280
-0.027387066 0.70999998 -0.049794663 1.3798699e-38 298 280
-0.026142199 0.70999998 -0.049794663 1.3337721e-38 299 280
-0.024897331 0.70999998 -0.049794663 1.3792586e-38 300 280
-0.023652466 0.70999998 -0.049794663 1.3147216e-38 301 280
-0.022407599 0.70999998 -0.049794663 1.2134879e-38 302 280
-0.021162732 0.70999998 -0.049794663 1.1766096e-38 303 280
-0.019917866 0.70999998 -0.049794663 1.2043778e-38 304 280
-0.018672999 0.70999998 -0.049794663 1.2596952e-38 305 280
-0.017428132 0.70999998 -0.049794663 1.2780251e-38 306 280
-0.016183265 0.70999998 -0.049794663 1.2780251e-38 307 280
-0.014938398 0.70999998 -0.049794663 1.2779525e-38 308 280
-0.013693533 0.70999998 -0.049794663 1.2779525e-38 309 280
-0.012448666 0.70999998 -0.049794663 1.2779175e-38 310 280
-0.011203799 0.70999998 -0.049794663 1.2686979e-38 311 280
-0.0099589331 0.70999998 -0.049794663 1.2686982e-38 312 280
-0.0087140659 0.70999998 -0.049794663 1.2594428e-38 313 280
-0.0074691991 0.70999998 -0.049794663 1.2686263e-38 314 280
-0.0062243328 0.70999998 -0.049794663 1.2593709e-38 315 280
-0.0049794666 0.70999998 -0.049794663 1.2594062e-38 316 280
-0.0037345996 0.70999998 -0.049794663 1.2501866e-38 317 280
-0.0024932399 0.71100003 -0.049864799 1.1490954e-38 318 280
-0.00124662 0.71100003 -0.049864799 1.0753389e-38 319 280
0 0.713 -0.050005067 9.1010776e-39 320 280
0.0012501266 0.713 -0.050005067 9.746447e-39 321 280
0.0025037599 0.71399999 -0.050075196 1.1677869e-38 322 280
0.0037556398 0.71399999 -0.050075196 1.1770065e-38 323 280
0.0050075199 0.71399999 -0.050075196 1.2044481e-38 324 280
0.0062593995 0.71399999 -0.050075196 1.2136677e-38 325 280
0.0075112795 0.71399999 -0.050075196 1.2135958e-38 326 280
0.0087631596 0.71399999 -0.050075196 1.2135958e-38 327 280
0.01001504 0.71399999 -0.050075196 1.2135608e-38 328 280
0.011266919 0.71399999 -0.050075196 1.2227803e-38 329 280
0.012553867 0.71600002 -0.050215468 1.204486e-38 330 280
