# .PCD v.7 - Point Cloud Data file format
FIELDS x y z rgb imX imY
SIZE 4 4 4 4 4 4
TYPE F F F F F F
COUNT 1 1 1 1 1 1
WIDTH 837
HEIGHT 1
VIEWPOINT 0 0 0 1 0 0 0
POINTS 837
DATA ascii
0.020477179 0.68699998 -0.040954359 1.2693819e-38 337 274
0.021681719 0.68699998 -0.040954359 1.2510151e-38 338 274
0.022886258 0.68699998 -0.040954359 1.2510151e-38 339 274
0.024090799 0.68699998 -0.040954359 1.2692747e-38 340 274
0.025295338 0.68699998 -0.040954359 1.2692747e-38 341 274
0.026499879 0.68699998 -0.040954359 1.2600914e-38 342 274
0.027583439 0.68400002 -0.040775519 1.2600914e-38 343 274
0.02878272 0.68400002 -0.040775519 1.2601999e-38 344 274
0.029982001 0.68400002 -0.040775519 1.2786032e-38 345 274
0.031135695 0.68300003 -0.040715907 1.2419403e-38 346 274
0.032333218 0.68300003 -0.040715907 1.2419403e-38 347 274
0.033530746 0.68300003 -0.040715907 1.2052778e-38 348 274
0.034728274 0.68300003 -0.040715907 1.1223378e-38 349 274
0.035925802 0.68300003 -0.040715907 8.3728886e-39 350 274
0.037177678 0.68400002 -0.040775519 5.9758023e-39 351 274
0.038376961 0.68400002 -0.040775519 4.7761899e-39 352 274
0.039749816 0.68699998 -0.040954359 6.25132e-39 353 274
0.040954359 0.68699998 -0.040954359 9.1972417e-39 354 274
0.042220265 0.68800002 -0.041013971 1.1225546e-38 355 274
0.043552797 0.69 -0.041133199 1.2234287e-38 356 274
0.044827472 0.69099998 -0.041192811 1.2234287e-38 357 274
0.046039023 0.69099998 -0.041192811 1.2052413e-38 358 274
0.047250576 0.69099998 -0.041192811 1.2420836e-38 359 274
0.048602402 0.69300002 -0.041312039 1.2421918e-38 360 274
0.050033119 0.69599998 -0.041490879 1.2882896e-38 361 274
0.051327083 0.69700003 -0.041550495 1.2700303e-38 362 274
0.052624546 0.69800001 -0.041610107 1.2792499e-38 363 274
0.054079808 0.70099998 -0.041788943 1.2792499e-38 364 274
0.055308893 0.70099998 -0.041788943 1.2792499e-38 365 274
0.056699295 0.70300001 -0.041908171 1.2792145e-38 366 274
0.058014292 0.704 -0.041967787 1.2146776e-38 367 274
0.060763516 0.722 -0.043040827 9.9416409e-39 368 274
0.062029421 0.722 -0.043040827 9.2962715e-39 369 274
0.063558333 0.72500002 -0.043219667 1.0955426e-38 370 274
0.064829499 0.72500002 -0.043219667 1.2522391e-38 371 274
0.066100664 0.72500002 -0.043219667 1.3165597e-38 372 274
0.067557678 0.727 -0.043338891 1.3165597e-38 373 274
0.068927035 0.72799999 -0.043398503 1.4182283e-38 374 274
0.070203468 0.72799999 -0.043398503 1.7778272e-38 375 274
-0.030003037 0.713 -0.043754432 1.2054565e-38 296 275
-0.028672259 0.71100003 -0.043631699 9.2886946e-39 297 275
-0.027425639 0.71100003 -0.043631699 6.9016836e-39 298 275
-0.026179021 0.71100003 -0.043631699 9.5753569e-39 299 275
-0.024932399 0.71100003 -0.043631699 1.34321e-38 300 275
-0.023652466 0.70999998 -0.043570329 1.3063678e-38 301 275
-0.022407599 0.70999998 -0.043570329 1.3339173e-38 302 275
-0.021162732 0.70999998 -0.043570329 1.3339173e-38 303 275
-0.01986176 0.708 -0.043447599 1.3429937e-38 304 275
-0.018594101 0.70700002 -0.043386232 1.3429937e-38 305 275
-0.017354494 0.70700002 -0.043386232 1.3337385e-38 306 275
-0.016092092 0.70599997 -0.043324865 1.3337385e-38 307 275
-0.014854239 0.70599997 -0.043324865 1.3337388e-38 308 275
-0.013577812 0.704 -0.043202132 1.3337388e-38 309 275
-0.012343466 0.704 -0.043202132 1.3061523e-38 310 275
-0.01109334 0.70300001 -0.043140765 1.3061523e-38 311 275
-0.0098607466 0.70300001 -0.043140765 1.3061523e-38 312 275
-0.0086036054 0.70099998 -0.043018032 1.2969327e-38 313 275
-0.0073745195 0.70099998 -0.043018032 1.3060801e-38 314 275
-0.0061454331 0.70099998 -0.043018032 1.287641e-38 315 275
-0.0049093333 0.69999999 -0.042956665 1.2325038e-38 316 275
-0.0036819996 0.69999999 -0.042956665 1.1587472e-38 317 275
-0.0024476533 0.69800001 -0.042833932 5.9754463e-39 318 275
-0.0012238267 0.69800001 -0.042833932 4.040773e-39 319 275
0 0.69700003 -0.042772565 2.9452477e-39 320 275
0.0012220733 0.69700003 -0.042772565 4.6044089e-39 321 275
0.0024406398 0.69599998 -0.042711195 1.150035e-38 322 275
0.0036504399 0.69400001 -0.042588469 1.1592904e-38 323 275
0.0048672534 0.69400001 -0.042588469 1.260127e-38 324 275
0.0060840664 0.69400001 -0.042588469 1.2693466e-38 325 275
0.0073008798 0.69400001 -0.042588469 1.2693819e-38 326 275
0.0085176928 0.69400001 -0.042588469 1.2786015e-38 327 275
0.0097204801 0.69300002 -0.042527102 1.2693813e-38 328 275
0.010935539 0.69300002 -0.042527102 1.2693813e-38 329 275
0.012115533 0.69099998 -0.042404365 1.2785649e-38 330 275
0.0133078 0.69 -0.042342998 1.2785649e-38 331 275
0.014517599 0.69 -0.042342998 1.2693816e-38 332 275
0.015727401 0.69 -0.042342998 1.2693816e-38 333 275
0.0169372 0.69 -0.042342998 1.2693816e-38 334 275
0.0180944 0.68800002 -0.042220265 1.2693816e-38 335 275
0.019300694 0.68800002 -0.042220265 1.2601265e-38 336 275
0.020506985 0.68800002 -0.042220265 1.2601265e-38 337 275
0.021681719 0.68699998 -0.042158898 1.2417599e-38 338 275
0.022886258 0.68699998 -0.042158898 1.2417599e-38 339 275
0.024090799 0.68699998 -0.042158898 1.2417599e-38 340 275
0.025295338 0.68699998 -0.042158898 1.2325404e-38 341 275
0.026499879 0.68699998 -0.042158898 1.2325407e-38 342 275
0.027664091 0.68599999 -0.042097531 1.2417602e-38 343 275
0.02878272 0.68400002 -0.041974798 1.2233937e-38 344 275
0.029982001 0.68400002 -0.041974798 1.2417968e-38 345 275
0.03118128 0.68400002 -0.041974798 1.2235377e-38 346 275
0.032380559 0.68400002 -0.041974798 1.2235377e-38 347 275
0.033530746 0.68300003 -0.041913435 1.2052427e-38 348 275
0.034728274 0.68300003 -0.041913435 1.0946438e-38 349 275
0.035925802 0.68300003 -0.041913435 6.532583e-39 350 275
0.037286382 0.68599999 -0.042097531 4.965616e-39 351 275
0.03848917 0.68599999 -0.042097531 3.0356189e-39 352 275
0.039807681 0.68800002 -0.042220265 5.6170965e-39 353 275
0.041013971 0.68800002 -0.042220265 1.0118106e-38 354 275
0.042342998 0.69 -0.042342998 1.1408845e-38 355 275
0.043615919 0.69099998 -0.042404365 1.1868021e-38 356 275
0.044827472 0.69099998 -0.042404365 1.2052413e-38 357 275
0.04617228 0.69300002 -0.042527102 1.2236805e-38 358 275
0.047387339 0.69300002 -0.042527102 1.2605586e-38 359 275
0.048672531 0.69400001 -0.042588469 1.2514833e-38 360 275
0.050105009 0.69700003 -0.042772565 1.2607388e-38 361 275
0.051400717 0.69800001 -0.042833932 1.2699947e-38 362 275
0.052775331 0.69999999 -0.042956665 1.2792143e-38 363 275
0.054079808 0.70099998 -0.043018032 1.2792499e-38 364 275
0.0554667 0.70300001 -0.043140765 1.2792499e-38 365 275
0.056699295 0.70300001 -0.043140765 1.2975814e-38 366 275
0.058014292 0.704 -0.043202132 1.1961663e-38 367 275
0.060763516 0.722 -0.044306733 9.2069457e-39 368 275
0.062029421 0.722 -0.044306733 9.2991427e-39 369 275
0.063558333 0.72500002 -0.044490833 1.169119e-38 370 275
0.064829499 0.72500002 -0.044490833 1.2889733e-38 371 275
0.066100664 0.72500002 -0.044490833 1.3165597e-38 372 275
0.067650609 0.72799999 -0.044674929 1.3073043e-38 373 275
0.068927035 0.72799999 -0.044674929 1.5109637e-38 374 275
0.070396334 0.73000002 -0.044797666 1.7691114e-38 375 275
-0.028752912 0.713 -0.045004558 1.0581952e-38 297 276
-0.027425639 0.71100003 -0.044878319 5.1542854e-39 298 276
-0.026179021 0.71100003 -0.044878319 8.1967412e-39 299 276
-0.024932399 0.71100003 -0.044878319 1.3065123e-38 300 276
-0.023652466 0.70999998 -0.044815198 1.2695981e-38 301 276
-0.022407599 0.70999998 -0.044815198 1.3339536e-38 302 276
-0.021162732 0.70999998 -0.044815198 1.324734e-38 303 276
-0.01986176 0.708 -0.044688959 1.3429937e-38 304 276
-0.0186204 0.708 -0.044688959 1.3429937e-38 305 276
-0.017354494 0.70700002 -0.044625837 1.3246624e-38 306 276
-0.016092092 0.70599997 -0.044562716 1.3246624e-38 307 276
-0.014854239 0.70599997 -0.044562716 1.3337385e-38 308 276
-0.013616386 0.70599997 -0.044562716 1.3153352e-38 309 276
-0.012343466 0.704 -0.044436477 1.3061523e-38 310 276
-0.01109334 0.70300001 -0.04437336 1.2969327e-38 311 276
-0.0098607466 0.70300001 -0.04437336 1.3060807e-38 312 276
-0.0086281532 0.70300001 -0.04437336 1.2968611e-38 313 276
-0.0073745195 0.70099998 -0.044247117 1.3151918e-38 314 276
-0.0061454331 0.70099998 -0.044247117 1.2967886e-38 315 276
-0.0049093333 0.69999999 -0.044183996 1.2509069e-38 316 276
-0.0036819996 0.69999999 -0.044183996 1.140308e-38 317 276
-0.0024546667 0.69999999 -0.044183996 5.8825304e-39 318 276
-0.0012238267 0.69800001 -0.04405776 4.2244454e-39 319 276
0 0.69800001 -0.04405776 3.1281872e-39 320 276
0.0012220733 0.69700003 -0.043994639 4.6033159e-39 321 276
0.0024406398 0.69599998 -0.043931518 1.1225548e-38 322 276
0.0036609597 0.69599998 -0.043931518 1.1317744e-38 323 276
0.0048672534 0.69400001 -0.043805279 1.2509069e-38 324 276
0.0060840664 0.69400001 -0.043805279 1.2601265e-38 325 276
0.0073008798 0.69400001 -0.043805279 1.2601618e-38 326 276
0.0085176928 0.69400001 -0.043805279 1.2601618e-38 327 276
0.0097204801 0.69300002 -0.043742158 1.2601618e-38 328 276
0.010935539 0.69300002 -0.043742158 1.2601618e-38 329 276
0.012115533 0.69099998 -0.043615919 1.2693097e-38 330 276
0.013327086 0.69099998 -0.043615919 1.2693097e-38 331 276
0.014538639 0.69099998 -0.043615919 1.2601265e-38 332 276
0.015727401 0.69 -0.043552797 1.2601265e-38 333 276
0.0169372 0.69 -0.043552797 1.2601265e-38 334 276
0.018146999 0.69 -0.043552797 1.2601265e-38 335 276
0.019356798 0.69 -0.043552797 1.2600549e-38 336 276
0.020506985 0.68800002 -0.043426562 1.2600549e-38 337 276
0.021713281 0.68800002 -0.043426562 1.2509072e-38 338 276
0.022886258 0.68699998 -0.043363437 1.2509072e-38 339 276
0.024090799 0.68699998 -0.043363437 1.232576e-38 340 276
0.025295338 0.68699998 -0.043363437 1.232576e-38 341 276
0.026499879 0.68699998 -0.043363437 1.2324685e-38 342 276
0.027664091 0.68599999 -0.043300316 1.2508716e-38 343 276
0.02886688 0.68599999 -0.043300316 1.2325051e-38 344 276
0.029982001 0.68400002 -0.043174081 1.2417605e-38 345 276
0.03118128 0.68400002 -0.043174081 1.2142104e-38 346 276
0.032380559 0.68400002 -0.043174081 1.2234658e-38 347 276
0.033579841 0.68400002 -0.043174081 1.1778369e-38 348 276
0.03477912 0.68400002 -0.043174081 1.0395076e-38 349 276
0.035978399 0.68400002 -0.043174081 4.5997244e-39 350 276
0.037286382 0.68599999 -0.043300316 3.6777667e-39 351 276
0.038545277 0.68699998 -0.043363437 2.2094539e-39 352 276
0.039807681 0.68800002 -0.043426562 5.989116e-39 353 276
0.041013971 0.68800002 -0.043426562 1.1038981e-38 354 276
0.042342998 0.69 -0.043552797 1.168435e-38 355 276
0.043615919 0.69099998 -0.043615919 1.1685422e-38 356 276
0.044827472 0.69099998 -0.043615919 1.1962369e-38 357 276
0.04617228 0.69300002 -0.043742158 1.223788e-38 358 276
0.047387339 0.69300002 -0.043742158 1.2514467e-38 359 276
0.048812799 0.69599998 -0.043931518 1.2698504e-38 360 276
0.050176892 0.69800001 -0.04405776 1.2882896e-38 361 276
0.051400717 0.69800001 -0.04405776 1.2699228e-38 362 276
0.052775331 0.69999999 -0.044183996 1.2975814e-38 363 276
0.054234106 0.70300001 -0.04437336 1.2792499e-38 364 276
0.0554667 0.70300001 -0.04437336 1.2700303e-38 365 276
0.056699295 0.70300001 -0.04437336 1.2975458e-38 366 276
0.057931885 0.70300001 -0.04437336 1.1684719e-38 367 276
0.059164476 0.70300001 -0.04437336 8.9310847e-39 368 276
0.062458992 0.727 -0.045888241 9.8526822e-39 369 276
0.06373366 0.727 -0.045888241 1.2243295e-38 370 276
0.065008335 0.727 -0.045888241 1.3164891e-38 371 276
0.06628301 0.727 -0.045888241 1.288938e-38 372 276
0.067650609 0.72799999 -0.045951359 1.3350357e-38 373 276
0.069116399 0.73000002 -0.046077598 1.6217426e-38 374 276
0.070396334 0.73000002 -0.046077598 1.8061339e-38 375 276
-0.026179021 0.71100003 -0.046124939 7.000719e-39 299 277
-0.024932399 0.71100003 -0.046124939 1.2054209e-38 300 277
-0.023652466 0.70999998 -0.046060063 1.1962013e-38 301 277
-0.022407599 0.70999998 -0.046060063 1.3248422e-38 302 277
-0.021162732 0.70999998 -0.046060063 1.3156227e-38 303 277
-0.019917866 0.70999998 -0.046060063 1.3522132e-38 304 277
-0.0186204 0.708 -0.045930319 1.3522132e-38 305 277
-0.017379038 0.708 -0.045930319 1.3247343e-38 306 277
-0.016114887 0.70700002 -0.045865446 1.3062953e-38 307 277
-0.014854239 0.70599997 -0.04580057 1.3429581e-38 308 277
-0.013616386 0.70599997 -0.04580057 1.3337385e-38 309 277
-0.012343466 0.704 -0.045670826 1.3152999e-38 310 277
-0.011109119 0.704 -0.045670826 1.3152999e-38 311 277
-0.0098747732 0.704 -0.045670826 1.3244119e-38 312 277
-0.0086281532 0.70300001 -0.04560595 1.3244119e-38 313 277
-0.0073745195 0.70099998 -0.045476202 1.2968605e-38 314 277
-0.0061454331 0.70099998 -0.045476202 1.2968605e-38 315 277
-0.0049093333 0.69999999 -0.04541133 1.2509425e-38 316 277
-0.0036819996 0.69999999 -0.04541133 1.1403077e-38 317 277
-0.0024546667 0.69999999 -0.04541133 6.1573195e-39 318 277
-0.0012238267 0.69800001 -0.045281585 4.5917874e-39 319 277
0 0.69800001 -0.045281585 2.9445148e-39 320 277
0.0012220733 0.69700003 -0.045216713 4.4196449e-39 321 277
0.0024406398 0.69599998 -0.045151837 1.1133347e-38 322 277
0.0036609597 0.69599998 -0.045151837 1.1225543e-38 323 277
0.0048812795 0.69599998 -0.045151837 1.2509425e-38 324 277
0.0061015999 0.69599998 -0.045151837 1.2601621e-38 325 277
0.0073008798 0.69400001 -0.045022093 1.2693095e-38 326 277
0.0085176928 0.69400001 -0.045022093 1.2693095e-38 327 277
0.0097345067 0.69400001 -0.045022093 1.287641e-38 328 277
0.010935539 0.69300002 -0.044957221 1.287641e-38 329 277
0.012150601 0.69300002 -0.044957221 1.2783861e-38 330 277
0.013327086 0.69099998 -0.044827472 1.2876057e-38 331 277
0.014538639 0.69099998 -0.044827472 1.26931e-38 332 277
0.015727401 0.69 -0.0447626 1.26931e-38 333 277
0.0169372 0.69 -0.0447626 1.26931e-38 334 277
0.018146999 0.69 -0.0447626 1.2600546e-38 335 277
0.019356798 0.69 -0.0447626 1.2600549e-38 336 277
0.020506985 0.68800002 -0.044632856 1.2600549e-38 337 277
0.021713281 0.68800002 -0.044632856 1.2509069e-38 338 277
0.022919573 0.68800002 -0.044632856 1.2509069e-38 339 277
0.024125867 0.68800002 -0.044632856 1.2325757e-38 340 277
0.025295338 0.68699998 -0.044567976 1.2233561e-38 341 277
0.026499879 0.68699998 -0.044567976 1.2233205e-38 342 277
0.027664091 0.68599999 -0.044503104 1.232576e-38 343 277
0.02886688 0.68599999 -0.044503104 1.2142094e-38 344 277
0.030069664 0.68599999 -0.044503104 1.2142094e-38 345 277
0.031272452 0.68599999 -0.044503104 1.2050262e-38 346 277
0.032475237 0.68599999 -0.044503104 1.2327207e-38 347 277
0.033678025 0.68599999 -0.044503104 1.1225911e-38 348 277
0.034880809 0.68599999 -0.044503104 8.9213807e-39 349 277
0.036083598 0.68599999 -0.044503104 3.0338406e-39 350 277
0.037340738 0.68699998 -0.044567976 3.0338406e-39 351 277
0.038545277 0.68699998 -0.044567976 4.9692089e-39 352 277
0.0399234 0.69 -0.0447626 8.2882516e-39 353 277
0.041133199 0.69 -0.0447626 1.1776899e-38 354 277
0.042404365 0.69099998 -0.044827472 1.1776899e-38 355 277
0.043742158 0.69300002 -0.044957221 1.2053482e-38 356 277
0.044957221 0.69300002 -0.044957221 1.2330429e-38 357 277
0.04617228 0.69300002 -0.044957221 1.2422274e-38 358 277
0.047455717 0.69400001 -0.045022093 1.2698501e-38 359 277
0.048882935 0.69700003 -0.045216713 1.2607032e-38 360 277
0.050176892 0.69800001 -0.045281585 1.2699228e-38 361 277
0.051547997 0.69999999 -0.04541133 1.2792143e-38 362 277
0.052850723 0.70099998 -0.045476202 1.2792143e-38 363 277
0.054311249 0.704 -0.045670826 1.2609186e-38 364 277
0.055545598 0.704 -0.045670826 1.2609186e-38 365 277
0.056941248 0.70599997 -0.04580057 1.2699953e-38 366 277
0.058179103 0.70599997 -0.04580057 1.1040433e-38 367 277
0.060763516 0.722 -0.046838548 8.838889e-39 368 277
0.062458992 0.727 -0.047162913 1.0498052e-38 369 277
0.06373366 0.727 -0.047162913 1.2611354e-38 370 277
0.065008335 0.727 -0.047162913 1.3256723e-38 371 277
0.06628301 0.727 -0.047162913 1.2798266e-38 372 277
0.067836471 0.73000002 -0.047357533 1.3719862e-38 373 277
0.069211073 0.73100001 -0.047422405 1.7049355e-38 374 277
-0.026252659 0.713 -0.047504812 6.9056353e-39 299 278
-0.024932399 0.71100003 -0.047371563 1.0494069e-38 300 278
-0.023685781 0.71100003 -0.047371563 1.1231634e-38 301 278
-0.022439159 0.71100003 -0.047371563 1.3431381e-38 302 278
-0.021162732 0.70999998 -0.047304932 1.3339186e-38 303 278
-0.019917866 0.70999998 -0.047304932 1.3431016e-38 304 278
-0.0186204 0.708 -0.047171678 1.3431016e-38 305 278
-0.017379038 0.708 -0.047171678 1.3247343e-38 306 278
-0.016114887 0.70700002 -0.047105055 1.2970758e-38 307 278
-0.014854239 0.70599997 -0.047038425 1.3154073e-38 308 278
-0.013616386 0.70599997 -0.047038425 1.3154073e-38 309 278
-0.012378532 0.70599997 -0.047038425 1.3060801e-38 310 278
-0.011109119 0.704 -0.046905171 1.3060801e-38 311 278
-0.0098747732 0.704 -0.046905171 1.3060804e-38 312 278
-0.0086281532 0.70300001 -0.046838548 1.2968608e-38 313 278
-0.0073745195 0.70099998 -0.046705291 1.296968e-38 314 278
-0.0061454331 0.70099998 -0.046705291 1.2693095e-38 315 278
-0.0049093333 0.69999999 -0.046638668 1.2508706e-38 316 278
-0.0036819996 0.69999999 -0.046638668 1.1770781e-38 317 278
-0.0024546667 0.69999999 -0.046638668 6.2498738e-39 318 278
-0.0012238267 0.69800001 -0.046505414 4.3162767e-39 319 278
0 0.69800001 -0.046505414 3.2196598e-39 320 278
0.0012238267 0.69800001 -0.046505414 4.6025942e-39 321 278
0.0024441467 0.69700003 -0.046438783 1.1041505e-38 322 278
0.00366622 0.69700003 -0.046438783 1.1502123e-38 323 278
0.0048812795 0.69599998 -0.046372157 1.2509422e-38 324 278
0.0061015999 0.69599998 -0.046372157 1.2601618e-38 325 278
0.0073219193 0.69599998 -0.046372157 1.2876766e-38 326 278
0.0085176928 0.69400001 -0.046238903 1.2876766e-38 327 278
0.0097345067 0.69400001 -0.046238903 1.26931e-38 328 278
0.010935539 0.69300002 -0.04617228 1.26931e-38 329 278
0.012150601 0.69300002 -0.04617228 1.2692744e-38 330 278
0.01336566 0.69300002 -0.04617228 1.2692744e-38 331 278
0.014538639 0.69099998 -0.046039023 1.2601265e-38 332 278
0.015750192 0.69099998 -0.046039023 1.2601265e-38 333 278
0.0169372 0.69 -0.045972396 1.2601265e-38 334 278
0.018146999 0.69 -0.045972396 1.2601265e-38 335 278
0.019356798 0.69 -0.045972396 1.2600546e-38 336 278
0.020566599 0.69 -0.045972396 1.2600546e-38 337 278
0.021713281 0.68800002 -0.045839146 1.2509425e-38 338 278
0.022919573 0.68800002 -0.045839146 1.2509425e-38 339 278
0.024125867 0.68800002 -0.045839146 1.2325038e-38 340 278
0.02533216 0.68800002 -0.045839146 1.2325038e-38 341 278
0.026499879 0.68699998 -0.045772515 1.2049893e-38 342 278
0.027664091 0.68599999 -0.045705888 1.2049893e-38 343 278
0.02886688 0.68599999 -0.045705888 1.1958419e-38 344 278
0.030069664 0.68599999 -0.045705888 1.2050615e-38 345 278
0.031272452 0.68599999 -0.045705888 1.1684356e-38 346 278
0.032475237 0.68599999 -0.045705888 1.1776552e-38 347 278
0.033678025 0.68599999 -0.045705888 9.1097306e-39 348 278
0.034931656 0.68699998 -0.045772515 7.358015e-39 349 278
0.036136195 0.68699998 -0.045772515 4.4131625e-39 350 278
0.037340738 0.68699998 -0.045772515 5.3354775e-39 351 278
0.038601387 0.68800002 -0.045839146 8.1870456e-39 352 278
0.0399234 0.69 -0.045972396 1.0492297e-38 353 278
0.041192811 0.69099998 -0.046039023 1.2512666e-38 354 278
0.042404365 0.69099998 -0.046039023 1.2328274e-38 355 278
0.043742158 0.69300002 -0.04617228 1.2237158e-38 356 278
0.044957221 0.69300002 -0.04617228 1.2605939e-38 357 278
0.04617228 0.69300002 -0.04617228 1.2422993e-38 358 278
0.047455717 0.69400001 -0.046238903 1.2607386e-38 359 278
0.048882935 0.69700003 -0.046438783 1.27003e-38 360 278
0.050176892 0.69800001 -0.046505414 1.2792496e-38 361 278
0.051547997 0.69999999 -0.046638668 1.2700303e-38 362 278
0.053001512 0.70300001 -0.046838548 1.2792499e-38 363 278
0.054311249 0.704 -0.046905171 1.2884691e-38 364 278
0.055703394 0.70599997 -0.047038425 1.27003e-38 365 278
0.056941248 0.70599997 -0.047038425 1.2607035e-38 366 278
0.058179103 0.70599997 -0.047038425 1.1039349e-38 367 278
0.060763516 0.722 -0.048104454 8.5630252e-39 368 278
0.062029421 0.722 -0.048104454 1.1052307e-38 369 278
0.063295327 0.722 -0.048104454 1.3164175e-38 370 278
0.064829499 0.72500002 -0.048304334 1.3348566e-38 371 278
0.066100664 0.72500002 -0.048304334 1.3074143e-38 372 278
0.067650609 0.72799999 -0.048504211 1.4733665e-38 373 278
0.069116399 0.73000002 -0.048637468 1.788056e-38 374 278
-0.024932399 0.71100003 -0.048618179 9.4802774e-39 300 279
-0.023685781 0.71100003 -0.048618179 1.1416386e-38 301 279
-0.022407599 0.70999998 -0.048549797 1.3707972e-38 302 279
-0.021162732 0.70999998 -0.048549797 1.3431384e-38 303 279
-0.019917866 0.70999998 -0.048549797 1.3431379e-38 304 279
-0.0186204 0.708 -0.048413038 1.3246987e-38 305 279
-0.017379038 0.708 -0.048413038 1.3338464e-38 306 279
-0.016114887 0.70700002 -0.048344657 1.3338464e-38 307 279
-0.014854239 0.70599997 -0.048276275 1.3062959e-38 308 279
-0.013616386 0.70599997 -0.048276275 1.2970405e-38 309 279
-0.012378532 0.70599997 -0.048276275 1.3061523e-38 310 279
-0.011109119 0.704 -0.048139516 1.3061523e-38 311 279
-0.0098747732 0.704 -0.048139516 1.306152e-38 312 279
-0.0086281532 0.70300001 -0.048071139 1.306152e-38 313 279
-0.0073955595 0.70300001 -0.048071139 1.2786009e-38 314 279
-0.0061454331 0.70099998 -0.047934376 1.2601618e-38 315 279
-0.0049093333 0.69999999 -0.047865998 1.2049893e-38 316 279
-0.0036819996 0.69999999 -0.047865998 1.1312327e-38 317 279
-0.0024546667 0.69999999 -0.047865998 6.3409905e-39 318 279
-0.0012273333 0.69999999 -0.047865998 4.6836229e-39 319 279
0 0.69800001 -0.047729239 3.2189409e-39 320 279
0.0012238267 0.69800001 -0.047729239 4.6018754e-39 321 279
0.0024476533 0.69800001 -0.047729239 1.1225896e-38 322 279
0.0036714801 0.69800001 -0.047729239 1.1318092e-38 323 279
0.0048882933 0.69700003 -0.047660861 1.2600899e-38 324 279
0.0061103669 0.69700003 -0.047660861 1.2693095e-38 325 279
0.00733244 0.69700003 -0.047660861 1.2785293e-38 326 279
0.0085422397 0.69599998 -0.047592476 1.2693097e-38 327 279
0.0097345067 0.69400001 -0.047455717 1.278494e-38 328 279
0.01095132 0.69400001 -0.047455717 1.278494e-38 329 279
0.012150601 0.69300002 -0.047387339 1.260127e-38 330 279
0.01336566 0.69300002 -0.047387339 1.260127e-38 331 279
0.014580719 0.69300002 -0.047387339 1.2601268e-38 332 279
0.015750192 0.69099998 -0.047250576 1.2601268e-38 333 279
0.016961746 0.69099998 -0.047250576 1.2601621e-38 334 279
0.018146999 0.69 -0.047182199 1.2509425e-38 335 279
0.019356798 0.69 -0.047182199 1.2509425e-38 336 279
0.020566599 0.69 -0.047182199 1.2509425e-38 337 279
0.021713281 0.68800002 -0.047045439 1.2509069e-38 338 279
0.022919573 0.68800002 -0.047045439 1.2509069e-38 339 279
0.024125867 0.68800002 -0.047045439 1.2325038e-38 340 279
0.02533216 0.68800002 -0.047045439 1.2509069e-38 341 279
0.026538454 0.68800002 -0.047045439 1.2050968e-38 342 279
0.027664091 0.68599999 -0.046908677 1.2050968e-38 343 279
0.02886688 0.68599999 -0.046908677 1.1867297e-38 344 279
0.030069664 0.68599999 -0.046908677 1.1775101e-38 345 279
0.031272452 0.68599999 -0.046908677 1.1777268e-38 346 279
0.032475237 0.68599999 -0.046908677 1.0486529e-38 347 279
0.033678025 0.68599999 -0.046908677 4.4153163e-39 348 279
0.034880809 0.68599999 -0.046908677 3.7699469e-39 349 279
0.036293998 0.69 -0.047182199 6.2538353e-39 350 279
0.037503798 0.69 -0.047182199 8.7431159e-39 351 279
0.038713597 0.69 -0.047182199 1.1593602e-38 352 279
0.0399234 0.69 -0.047182199 1.2238972e-38 353 279
0.041192811 0.69099998 -0.047250576 1.2145328e-38 354 279
0.042404365 0.69099998 -0.047250576 1.2237524e-38 355 279
0.043742158 0.69300002 -0.047387339 1.2513388e-38 356 279
0.044957221 0.69300002 -0.047387339 1.2697779e-38 357 279
0.04617228 0.69300002 -0.047387339 1.2515189e-38 358 279
0.047455717 0.69400001 -0.047455717 1.2791777e-38 359 279
0.048882935 0.69700003 -0.047660861 1.260883e-38 360 279
0.050320663 0.69999999 -0.047865998 1.260883e-38 361 279
0.051768921 0.70300001 -0.048071139 1.2699947e-38 362 279
0.053076904 0.704 -0.048139516 1.2792143e-38 363 279
0.054542694 0.70700002 -0.048344657 1.2609905e-38 364 279
0.055782299 0.70700002 -0.048344657 1.2609905e-38 365 279
0.057021905 0.70700002 -0.048344657 1.1964899e-38 366 279
0.058508728 0.70999998 -0.048549797 1.0028792e-38 367 279
0.060763516 0.722 -0.04937036 8.3815038e-39 368 279
0.062029421 0.722 -0.04937036 1.1055177e-38 369 279
0.063295327 0.722 -0.04937036 1.3348566e-38 370 279
0.064829499 0.72500002 -0.0495755 1.3532597e-38 371 279
0.066100664 0.72500002 -0.0495755 1.4181932e-38 372 279
0.067557678 0.727 -0.049712259 1.6210236e-38 373 279
0.068927035 0.72799999 -0.049780637 1.8250068e-38 374 279
-0.024932399 0.71100003 -0.049864799 8.6461937e-39 300 280
-0.023685781 0.71100003 -0.049864799 1.2149629e-38 301 280
-0.022407599 0.70999998 -0.049794663 1.3616849e-38 302 280
-0.021162732 0.70999998 -0.049794663 1.3432097e-38 303 280
-0.019917866 0.70999998 -0.049794663 1.3431013e-38 304 280
-0.018672999 0.70999998 -0.049794663 1.3431013e-38 305 280
-0.017379038 0.708 -0.049654398 1.3431013e-38 306 280
-0.01613768 0.708 -0.049654398 1.3338817e-38 307 280
-0.01487528 0.70700002 -0.049584266 1.333882e-38 308 280
-0.013616386 0.70599997 -0.04951413 1.3246624e-38 309 280
-0.012378532 0.70599997 -0.04951413 1.3154073e-38 310 280
-0.011109119 0.704 -0.049373865 1.3061876e-38 311 280
-0.0098747732 0.704 -0.049373865 1.3061876e-38 312 280
-0.0086404262 0.704 -0.049373865 1.3061876e-38 313 280
-0.0073955595 0.70300001 -0.049303733 1.2969677e-38 314 280
-0.0061629666 0.70300001 -0.049303733 1.2693451e-38 315 280
-0.0049163462 0.70099998 -0.049163464 1.2508706e-38 316 280
-0.0036872597 0.70099998 -0.049163464 1.1863337e-38 317 280
-0.0024581731 0.70099998 -0.049163464 6.7097744e-39 318 280
-0.0012273333 0.69999999 -0.049093332 4.591786e-39 319 280
0 0.69999999 -0.049093332 2.6701028e-39 320 280
0.0012238267 0.69800001 -0.048953064 4.2370683e-39 321 280
0.0024476533 0.69800001 -0.048953064 1.1132644e-38 322 280
0.0036714801 0.69800001 -0.048953064 1.1501425e-38 323 280
0.0048953067 0.69800001 -0.048953064 1.2418308e-38 324 280
0.0061103669 0.69700003 -0.048882935 1.2510504e-38 325 280
0.00733244 0.69700003 -0.048882935 1.2601621e-38 326 280
0.0085545136 0.69700003 -0.048882935 1.2693816e-38 327 280
0.0097625591 0.69599998 -0.048812799 1.2693819e-38 328 280
0.01095132 0.69400001 -0.048672531 1.2693819e-38 329 280
0.012168133 0.69400001 -0.048672531 1.2601268e-38 330 280
0.013384946 0.69400001 -0.048672531 1.2601268e-38 331 280
0.01460176 0.69400001 -0.048672531 1.2601621e-38 332 280
0.015795778 0.69300002 -0.048602402 1.2601621e-38 333 280
0.01701084 0.69300002 -0.048602402 1.2601618e-38 334 280
0.0181733 0.69099998 -0.04846213 1.2509422e-38 335 280
0.019384852 0.69099998 -0.04846213 1.2509425e-38 336 280
0.020566599 0.69 -0.048391998 1.2509425e-38 337 280
0.021776399 0.69 -0.048391998 1.2509069e-38 338 280
0.022919573 0.68800002 -0.048251733 1.2325038e-38 339 280
0.024125867 0.68800002 -0.048251733 1.250835e-38 340 280
0.02533216 0.68800002 -0.048251733 1.2600546e-38 341 280
0.026538454 0.68800002 -0.048251733 1.2050249e-38 342 280
0.027744746 0.68800002 -0.048251733 1.2050249e-38 343 280
0.028908957 0.68699998 -0.048181597 1.1592145e-38 344 280
0.030113498 0.68699998 -0.048181597 1.1868372e-38 345 280
0.031318039 0.68699998 -0.048181597 1.0303217e-38 346 280
0.032522578 0.68699998 -0.048181597 8.8280864e-39 347 280
0.033727121 0.68699998 -0.048181597 3.585906e-39 348 280
0.034931656 0.68699998 -0.048181597 4.4156666e-39 349 280
0.036293998 0.69 -0.048391998 9.0150112e-39 350 280
0.037503798 0.69 -0.048391998 1.0397946e-38 351 280
0.038713597 0.69 -0.048391998 1.2145328e-38 352 280
0.039981257 0.69099998 -0.04846213 1.2145328e-38 353 280
0.041192811 0.69099998 -0.04846213 1.2145684e-38 354 280
0.042527102 0.69300002 -0.048602402 1.223788e-38 355 280
0.043742158 0.69300002 -0.048602402 1.260523e-38 356 280
0.044957221 0.69300002 -0.048602402 1.278998e-38 357 280
0.04617228 0.69300002 -0.048602402 1.2607388e-38 358 280
0.047592476 0.69599998 -0.048812799 1.279178e-38 359 280
0.049093332 0.69999999 -0.049093332 1.260883e-38 360 280
0.050392549 0.70099998 -0.049163464 1.2516635e-38 361 280
0.051768921 0.70300001 -0.049303733 1.2792143e-38 362 280
0.053076904 0.704 -0.049373865 1.2792143e-38 363 280
0.054542694 0.70700002 -0.049584266 1.2884344e-38 364 280
0.055782299 0.70700002 -0.049584266 1.2699953e-38 365 280
0.057263866 0.70999998 -0.049794663 1.1047621e-38 366 280
0.058508728 0.70999998 -0.049794663 9.7568825e-39 367 280
0.060847677 0.72299999 -0.050706398 1.058628e-38 368 280
0.062115334 0.72299999 -0.050706398 1.270714e-38 369 280
0.063382991 0.72299999 -0.050706398 1.3348563e-38 370 280
0.064650662 0.72299999 -0.050706398 1.3348563e-38 371 280
0.066100664 0.72500002 -0.050846666 1.492382e-38 372 280
0.067557678 0.727 -0.050986931 1.6675177e-38 373 280
0.068927035 0.72799999 -0.051057063 1.7606508e-38 374 280
-0.023652466 0.70999998 -0.051039528 1.2698498e-38 301 281
-0.022407599 0.70999998 -0.051039528 1.3158407e-38 302 281
-0.021162732 0.70999998 -0.051039528 1.288218e-38 303 281
-0.019917866 0.70999998 -0.051039528 1.3432097e-38 304 281
-0.018672999 0.70999998 -0.051039528 1.3248066e-38 305 281
-0.017428132 0.70999998 -0.051039528 1.3432097e-38 306 281
-0.01613768 0.708 -0.050895758 1.3155871e-38 307 281
-0.01487528 0.70700002 -0.050823875 1.3155871e-38 308 281
-0.013635674 0.70700002 -0.050823875 1.3155871e-38 309 281
-0.012378532 0.70599997 -0.050751984 1.3062953e-38 310 281
-0.011140679 0.70599997 -0.050751984 1.2970758e-38 311 281
-0.0098747732 0.704 -0.050608214 1.2970758e-38 312 281
-0.0086404262 0.704 -0.050608214 1.2970758e-38 313 281
-0.0073955595 0.70300001 -0.050536323 1.3062229e-38 314 281
-0.0061629666 0.70300001 -0.050536323 1.2785643e-38 315 281
-0.0049163462 0.70099998 -0.050392549 1.2692372e-38 316 281
-0.0036872597 0.70099998 -0.050392549 1.1862611e-38 317 281
-0.0024581731 0.70099998 -0.050392549 7.0781842e-39 318 281
-0.0012273333 0.69999999 -0.050320663 4.9591196e-39 319 281
0 0.69999999 -0.050320663 2.669723e-39 320 281
0.0012238267 0.69800001 -0.050176892 3.6842351e-39 321 281
0.0024476533 0.69800001 -0.050176892 1.1041154e-38 322 281
0.0036714801 0.69800001 -0.050176892 1.1317741e-38 323 281
0.0048953067 0.69800001 -0.050176892 1.2509422e-38 324 281
0.0061103669 0.69700003 -0.050105009 1.2601618e-38 325 281
0.00733244 0.69700003 -0.050105009 1.2693816e-38 326 281
0.0085545136 0.69700003 -0.050105009 1.2693816e-38 327 281
0.0097625591 0.69599998 -0.050033119 1.2785296e-38 328 281
0.01095132 0.69400001 -0.049889345 1.2785296e-38 329 281
0.012168133 0.69400001 -0.049889345 1.2601265e-38 330 281
0.013384946 0.69400001 -0.049889345 1.2693819e-38 331 281
0.01460176 0.69400001 -0.049889345 1.2510148e-38 332 281
0.015795778 0.69300002 -0.049817458 1.2510148e-38 333 281
0.01701084 0.69300002 -0.049817458 1.2510148e-38 334 281
0.018225901 0.69300002 -0.049817458 1.2325757e-38 335 281
0.01944096 0.69300002 -0.049817458 1.2418308e-38 336 281
0.020596405 0.69099998 -0.049673684 1.2325754e-38 337 281
0.021807959 0.69099998 -0.049673684 1.2509425e-38 338 281
0.022986198 0.69 -0.049601797 1.2509425e-38 339 281
0.024195999 0.69 -0.049601797 1.2325038e-38 340 281
0.025405798 0.69 -0.049601797 1.2509069e-38 341 281
0.026538454 0.68800002 -0.049458027 1.1775101e-38 342 281
0.027744746 0.68800002 -0.049458027 1.1867297e-38 343 281
0.028908957 0.68699998 -0.049386136 1.1775823e-38 344 281
0.030113498 0.68699998 -0.049386136 1.1960214e-38 345 281
0.031318039 0.68699998 -0.049386136 7.9090238e-39 346 281
0.032522578 0.68699998 -0.049386136 5.3275462e-39 347 281
0.033727121 0.68699998 -0.049386136 4.5078623e-39 348 281
0.035135046 0.69099998 -0.049673684 6.7201972e-39 349 281
0.036346599 0.69099998 -0.049673684 1.1684719e-38 350 281
0.037503798 0.69 -0.049601797 1.1684719e-38 351 281
0.038713597 0.69 -0.049601797 1.205241e-38 352 281
0.039981257 0.69099998 -0.049673684 1.205241e-38 353 281
0.041312039 0.69300002 -0.049817458 1.2420473e-38 354 281
0.042527102 0.69300002 -0.049817458 1.2604865e-38 355 281
0.043742158 0.69300002 -0.049817458 1.2514114e-38 356 281
0.045022093 0.69400001 -0.049889345 1.2698504e-38 357 281
0.046238903 0.69400001 -0.049889345 1.2882896e-38 358 281
0.047660861 0.69700003 -0.050105009 1.3067288e-38 359 281
0.049093332 0.69999999 -0.050320663 1.2792143e-38 360 281
0.050536323 0.70300001 -0.050536323 1.2792143e-38 361 281
0.051842559 0.704 -0.050608214 1.2792145e-38 362 281
0.053303085 0.70700002 -0.050823875 1.2884341e-38 363 281
0.054619838 0.708 -0.050895758 1.2884344e-38 364 281
0.055861197 0.708 -0.050895758 1.2331171e-38 365 281
0.057263866 0.70999998 -0.051039528 9.6686497e-39 366 281
0.058508728 0.70999998 -0.051039528 9.6686497e-39 367 281
0.060763516 0.722 -0.051902171 1.1783033e-38 368 281
0.062029421 0.722 -0.051902171 1.3166326e-38 369 281
0.063295327 0.722 -0.051902171 1.3256733e-38 370 281
0.064650662 0.72299999 -0.051974058 1.3809907e-38 371 281
0.06628301 0.727 -0.052261602 1.584866e-38 372 281
0.067557678 0.727 -0.052261602 1.7416345e-38 373 281
-0.023652466 0.70999998 -0.052284397 9.6614246e-39 301 282
-0.022407599 0.70999998 -0.052284397 1.0952919e-38 302 282
-0.021162732 0.70999998 -0.052284397 1.2059265e-38 303 282
-0.019917866 0.70999998 -0.052284397 1.3616498e-38 304 282
-0.018672999 0.70999998 -0.052284397 1.3523944e-38 305 282
-0.017428132 0.70999998 -0.052284397 1.3523933e-38 306 282
-0.016183265 0.70999998 -0.052284397 1.3431379e-38 307 282
-0.01489632 0.708 -0.052137118 1.3339183e-38 308 282
-0.013635674 0.70700002 -0.05206348 1.3339183e-38 309 282
-0.012396066 0.70700002 -0.05206348 1.3062953e-38 310 282
-0.011140679 0.70599997 -0.051989835 1.3062953e-38 311 282
-0.0099028256 0.70599997 -0.051989835 1.3337738e-38 312 282
-0.0086404262 0.704 -0.051842559 1.3337738e-38 313 282
-0.0073955595 0.70300001 -0.051768921 1.3062226e-38 314 282
-0.0061629666 0.70300001 -0.051768921 1.2785999e-38 315 282
-0.0049163462 0.70099998 -0.051621638 1.2509056e-38 316 282
-0.0036872597 0.70099998 -0.051621638 1.1955883e-38 317 282
-0.0024581731 0.70099998 -0.051621638 7.0785401e-39 318 282
-0.0012273333 0.69999999 -0.051547997 4.9591168e-39 319 282
0 0.69999999 -0.051547997 2.3949438e-39 320 282
0.0012238267 0.69800001 -0.051400717 3.408737e-39 321 282
0.0024476533 0.69800001 -0.051400717 1.0948606e-38 322 282
0.0036714801 0.69800001 -0.051400717 1.1501778e-38 323 282
0.0048953067 0.69800001 -0.051400717 1.2418306e-38 324 282
0.006119133 0.69800001 -0.051400717 1.2510501e-38 325 282
0.00733244 0.69700003 -0.051327083 1.2510501e-38 326 282
0.0085545136 0.69700003 -0.051327083 1.2510501e-38 327 282
0.0097765867 0.69700003 -0.051327083 1.2785293e-38 328 282
0.010982879 0.69599998 -0.051253434 1.2785293e-38 329 282
0.012168133 0.69400001 -0.051106159 1.2693816e-38 330 282
0.013384946 0.69400001 -0.051106159 1.2693816e-38 331 282
0.01460176 0.69400001 -0.051106159 1.2510504e-38 332 282
0.015818574 0.69400001 -0.051106159 1.2510504e-38 333 282
0.01701084 0.69300002 -0.051032521 1.2601621e-38 334 282
0.018225901 0.69300002 -0.051032521 1.2693816e-38 335 282
0.01944096 0.69300002 -0.051032521 1.2510504e-38 336 282
0.020656019 0.69300002 -0.051032521 1.2325754e-38 337 282
0.021807959 0.69099998 -0.050885238 1.2325754e-38 338 282
0.023019511 0.69099998 -0.050885238 1.2325754e-38 339 282
0.024231065 0.69099998 -0.050885238 1.2233561e-38 340 282
0.025405798 0.69 -0.050811596 1.2233561e-38 341 282
0.026615599 0.69 -0.050811596 1.2049893e-38 342 282
0.027825398 0.69 -0.050811596 1.2049893e-38 343 282
0.028951041 0.68800002 -0.050664321 1.1313773e-38 344 282
0.030157333 0.68800002 -0.050664321 1.0760958e-38 345 282
0.031363625 0.68800002 -0.050664321 5.2425476e-39 346 282
0.032569919 0.68800002 -0.050664321 3.3989938e-39 347 282
0.033776212 0.68800002 -0.050664321 7.5442e-39 348 282
0.035389278 0.69599998 -0.051253434 8.9271344e-39 349 282
0.036346599 0.69099998 -0.050885238 1.1867665e-38 350 282
0.03755815 0.69099998 -0.050885238 1.1867665e-38 351 282
0.038769703 0.69099998 -0.050885238 1.2051691e-38 352 282
0.039981257 0.69099998 -0.050885238 1.2328276e-38 353 282
0.041312039 0.69300002 -0.051032521 1.2421192e-38 354 282
0.042527102 0.69300002 -0.051032521 1.2513388e-38 355 282
0.043742158 0.69300002 -0.051032521 1.251447e-38 356 282
0.045022093 0.69400001 -0.051106159 1.2790698e-38 357 282
0.046372157 0.69599998 -0.051253434 1.279178e-38 358 282
0.047729239 0.69800001 -0.051400717 1.2699584e-38 359 282
0.049093332 0.69999999 -0.051547997 1.2792143e-38 360 282
0.050536323 0.70300001 -0.051768921 1.2792143e-38 361 282
0.051842559 0.704 -0.051842559 1.2792864e-38 362 282
0.053303085 0.70700002 -0.05206348 1.2792864e-38 363 282
0.054619838 0.708 -0.052137118 1.2608477e-38 364 282
0.055861197 0.708 -0.052137118 1.1778717e-38 365 282
0.057263866 0.70999998 -0.052284397 9.7575999e-39 366 282
0.058508728 0.70999998 -0.052284397 1.123273e-38 367 282
0.060763516 0.722 -0.053168077 1.2612067e-38 368 282
0.062029421 0.722 -0.053168077 1.3534382e-38 369 282
0.063295327 0.722 -0.053168077 1.3628395e-38 370 282
0.064650662 0.72299999 -0.053241719 1.4642189e-38 371 282
-0.023652466 0.70999998 -0.053529263 6.8076733e-39 301 283
-0.022407599 0.70999998 -0.053529263 8.1942231e-39 302 283
-0.021162732 0.70999998 -0.053529263 1.123632e-38 303 283
-0.019917866 0.70999998 -0.053529263 1.3435714e-38 304 283
-0.018672999 0.70999998 -0.053529263 1.3159486e-38 305 283
-0.017428132 0.70999998 -0.053529263 1.3709044e-38 306 283
-0.016183265 0.70999998 -0.053529263 1.3432097e-38 307 283
-0.014938398 0.70999998 -0.053529263 1.3707242e-38 308 283
-0.013693533 0.70999998 -0.053529263 1.3615047e-38 309 283
-0.012396066 0.70700002 -0.053303085 1.3431013e-38 310 283
-0.011140679 0.70599997 -0.053227689 1.3431013e-38 311 283
-0.0099028256 0.70599997 -0.053227689 1.3429934e-38 312 283
-0.0086649731 0.70599997 -0.053227689 1.3429934e-38 313 283
-0.0074060797 0.704 -0.053076904 1.3246622e-38 314 283
-0.0061717331 0.704 -0.053076904 1.3062229e-38 315 283
-0.0049303733 0.70300001 -0.053001512 1.2693816e-38 316 283
-0.0036977797 0.70300001 -0.053001512 1.2232838e-38 317 283
-0.0024651866 0.70300001 -0.053001512 7.4458947e-39 318 283
-0.0012290865 0.70099998 -0.052850723 5.4183069e-39 319 283
0 0.69999999 -0.052775331 2.5782532e-39 320 283
0.0012273333 0.69999999 -0.052775331 3.5924052e-39 321 283
0.0024476533 0.69800001 -0.052624546 1.0947885e-38 322 283
0.0036714801 0.69800001 -0.052624546 1.1593255e-38 323 283
0.0048953067 0.69800001 -0.052624546 1.2510501e-38 324 283
0.006119133 0.69800001 -0.052624546 1.2510501e-38 325 283
0.00733244 0.69700003 -0.052549154 1.2693813e-38 326 283
0.0085545136 0.69700003 -0.052549154 1.2786009e-38 327 283
0.0097765867 0.69700003 -0.052549154 1.2786365e-38 328 283
0.010982879 0.69599998 -0.052473757 1.2694169e-38 329 283
0.0122032 0.69599998 -0.052473757 1.2786009e-38 330 283
0.013384946 0.69400001 -0.052322973 1.2693813e-38 331 283
0.01460176 0.69400001 -0.052322973 1.2693816e-38 332 283
0.015818574 0.69400001 -0.052322973 1.2693816e-38 333 283
0.01701084 0.69300002 -0.05224758 1.2693816e-38 334 283
0.018225901 0.69300002 -0.05224758 1.2693816e-38 335 283
0.01944096 0.69300002 -0.05224758 1.2510504e-38 336 283
0.020656019 0.69300002 -0.05224758 1.2418308e-38 337 283
0.021871079 0.69300002 -0.05224758 1.2417952e-38 338 283
0.023019511 0.69099998 -0.052096792 1.2325757e-38 339 283
0.024231065 0.69099998 -0.052096792 1.232576e-38 340 283
0.025442619 0.69099998 -0.052096792 1.232576e-38 341 283
0.026654173 0.69099998 -0.052096792 1.2050249e-38 342 283
0.027865725 0.69099998 -0.052096792 1.2142445e-38 343 283
0.029035198 0.69 -0.052021399 1.048581e-38 344 283
0.030244999 0.69 -0.052021399 8.8262886e-39 345 283
0.031454802 0.69 -0.052021399 4.3234682e-39 346 283
0.03280662 0.69300002 -0.05224758 4.2312726e-39 347 283
0.034168959 0.69599998 -0.052473757 9.6618142e-39 348 283
0.035389278 0.69599998 -0.052473757 1.0491215e-38 349 283
0.036451802 0.69300002 -0.05224758 1.1775467e-38 350 283
0.037666857 0.69300002 -0.05224758 1.1960217e-38 351 283
0.03888192 0.69300002 -0.05224758 1.2236081e-38 352 283
0.04009698 0.69300002 -0.05224758 1.2420473e-38 353 283
0.041312039 0.69300002 -0.05224758 1.2604865e-38 354 283
0.042527102 0.69300002 -0.05224758 1.288145e-38 355 283
0.043742158 0.69300002 -0.05224758 1.2698501e-38 356 283
0.045022093 0.69400001 -0.052322973 1.2790698e-38 357 283
0.046438783 0.69700003 -0.052549154 1.2791777e-38 358 283
0.047729239 0.69800001 -0.052624546 1.2791777e-38 359 283
0.049303733 0.70300001 -0.053001512 1.2975811e-38 360 283
0.050751984 0.70599997 -0.053227689 1.3068006e-38 361 283
0.05206348 0.70700002 -0.053303085 1.2792864e-38 362 283
0.053378478 0.708 -0.053378478 1.288506e-38 363 283
0.054619838 0.708 -0.053378478 1.2608127e-38 364 283
0.055861197 0.708 -0.053378478 1.1593975e-38 365 283
0.057263866 0.70999998 -0.053529263 1.0124959e-38 366 283
0.058508728 0.70999998 -0.053529263 1.2245458e-38 367 283
0.059753593 0.70999998 -0.053529263 1.3257086e-38 368 283
0.066239186 0.77100003 -0.058128256 1.3626229e-38 369 283
-0.022407599 0.70999998 -0.054774132 5.8007268e-39 302 284
-0.021162732 0.70999998 -0.054774132 8.8431826e-39 303 284
-0.019917866 0.70999998 -0.054774132 1.2702465e-38 304 284
-0.018672999 0.70999998 -0.054774132 1.2795019e-38 305 284
-0.017428132 0.70999998 -0.054774132 1.3709763e-38 306 284
-0.016183265 0.70999998 -0.054774132 1.3433537e-38 307 284
-0.014938398 0.70999998 -0.054774132 1.361613e-38 308 284
-0.013693533 0.70999998 -0.054774132 1.3523933e-38 309 284
-0.012448666 0.70999998 -0.054774132 1.3523933e-38 310 284
-0.011156459 0.70700002 -0.054542694 1.3431379e-38 311 284
-0.0099028256 0.70599997 -0.054465543 1.3338464e-38 312 284
-0.0086649731 0.70599997 -0.054465543 1.3338464e-38 313 284
-0.0074271196 0.70599997 -0.054465543 1.333882e-38 314 284
-0.0061717331 0.704 -0.054311249 1.315407e-38 315 284
-0.0049373866 0.704 -0.054311249 1.2786734e-38 316 284
-0.0037030398 0.704 -0.054311249 1.2510148e-38 317 284
-0.0024686933 0.704 -0.054311249 8.1816605e-39 318 284
-0.0012325933 0.70300001 -0.054234106 5.6938134e-39 319 284
0 0.70099998 -0.054079808 2.3034614e-39 320 284
0.0012273333 0.69999999 -0.054002665 3.0410265e-39 321 284
0.0024546667 0.69999999 -0.054002665 1.0672738e-38 322 284
0.0036714801 0.69800001 -0.053848371 1.1225911e-38 323 284
0.0048953067 0.69800001 -0.053848371 1.2510504e-38 324 284
0.006119133 0.69800001 -0.053848371 1.26027e-38 325 284
0.0073429602 0.69800001 -0.053848371 1.2786012e-38 326 284
0.0085545136 0.69700003 -0.053771228 1.2786012e-38 327 284
0.0097765867 0.69700003 -0.053771228 1.2786365e-38 328 284
0.010982879 0.69599998 -0.053694077 1.2786365e-38 329 284
0.0122032 0.69599998 -0.053694077 1.2602697e-38 330 284
0.013423519 0.69599998 -0.053694077 1.2602697e-38 331 284
0.014643839 0.69599998 -0.053694077 1.26027e-38 332 284
0.015818574 0.69400001 -0.053539783 1.26027e-38 333 284
0.017035386 0.69400001 -0.053539783 1.2602702e-38 334 284
0.018225901 0.69300002 -0.053462639 1.2510148e-38 335 284
0.01944096 0.69300002 -0.053462639 1.2601265e-38 336 284
0.020656019 0.69300002 -0.053462639 1.2693819e-38 337 284
0.021871079 0.69300002 -0.053462639 1.2417952e-38 338 284
0.02308614 0.69300002 -0.053462639 1.2417952e-38 339 284
0.024231065 0.69099998 -0.053308345 1.2417955e-38 340 284
0.025442619 0.69099998 -0.053308345 1.2417955e-38 341 284
0.026654173 0.69099998 -0.053308345 1.18673e-38 342 284
0.027865725 0.69099998 -0.053308345 1.1959495e-38 343 284
0.029035198 0.69 -0.053231198 8.4618277e-39 344 284
0.030244999 0.69 -0.053231198 5.7877957e-39 345 284
0.031500384 0.69099998 -0.053308345 4.9663167e-39 346 284
0.03280662 0.69300002 -0.053462639 6.7180336e-39 347 284
0.034168959 0.69599998 -0.053694077 1.1042577e-38 348 284
0.035287585 0.69400001 -0.053539783 1.1134772e-38 349 284
0.036451802 0.69300002 -0.053462639 1.1868372e-38 350 284
0.037666857 0.69300002 -0.053462639 1.2052763e-38 351 284
0.03888192 0.69300002 -0.053462639 1.2328629e-38 352 284
0.04009698 0.69300002 -0.053462639 1.2513022e-38 353 284
0.041312039 0.69300002 -0.053462639 1.2513388e-38 354 284
0.042588469 0.69400001 -0.053539783 1.2697779e-38 355 284
0.043805279 0.69400001 -0.053539783 1.278998e-38 356 284
0.045022093 0.69400001 -0.053539783 1.2974373e-38 357 284
0.046505414 0.69800001 -0.053848371 1.2882893e-38 358 284
0.048071139 0.70300001 -0.054234106 1.2975089e-38 359 284
0.049373865 0.704 -0.054311249 1.279178e-38 360 284
0.050823875 0.70700002 -0.054542694 1.3068006e-38 361 284
0.052137118 0.708 -0.054619838 1.2608833e-38 362 284
0.053378478 0.708 -0.054619838 1.2792864e-38 363 284
0.054774132 0.70999998 -0.054774132 1.2148228e-38 364 284
0.056018997 0.70999998 -0.054774132 1.1318107e-38 365 284
0.057263866 0.70999998 -0.054774132 1.0584861e-38 366 284
0.058508728 0.70999998 -0.054774132 1.2705362e-38 367 284
0.064719036 0.76899999 -0.059325781 1.3349285e-38 368 284
-0.021162732 0.70999998 -0.056018997 8.466494e-39 303 285
-0.019917866 0.70999998 -0.056018997 1.1321331e-38 304 285
-0.018672999 0.70999998 -0.056018997 1.2519875e-38 305 285
-0.01745268 0.71100003 -0.056097899 1.3619015e-38 306 285
-0.01620606 0.71100003 -0.056097899 1.352682e-38 307 285
-0.014959441 0.71100003 -0.056097899 1.3709042e-38 308 285
-0.01371282 0.71100003 -0.056097899 1.3616846e-38 309 285
-0.0124662 0.71100003 -0.056097899 1.352393e-38 310 285
-0.011156459 0.70700002 -0.055782299 1.3431734e-38 311 285
-0.0099168532 0.70700002 -0.055782299 1.3615047e-38 312 285
-0.008677247 0.70700002 -0.055782299 1.3431016e-38 313 285
-0.0074271196 0.70599997 -0.055703394 1.3431013e-38 314 285
-0.0061892662 0.70599997 -0.055703394 1.3246622e-38 315 285
-0.0049514128 0.70599997 -0.055703394 1.2970761e-38 316 285
-0.0037135598 0.70599997 -0.055703394 1.2970761e-38 317 285
-0.0024686933 0.704 -0.055545598 8.6440707e-39 318 285
-0.0012325933 0.70300001 -0.0554667 5.6019723e-39 319 285
0 0.70099998 -0.055308893 2.5789763e-39 320 285
0.0012273333 0.69999999 -0.055229999 3.5009326e-39 321 285
0.0024546667 0.69999999 -0.055229999 1.0489072e-38 322 285
0.0036714801 0.69800001 -0.0550722 1.1318833e-38 323 285
0.0048953067 0.69800001 -0.0550722 1.2327555e-38 324 285
0.006119133 0.69800001 -0.0550722 1.2327555e-38 325 285
0.0073429602 0.69800001 -0.0550722 1.2786728e-38 326 285
0.0085667865 0.69800001 -0.0550722 1.2786728e-38 327 285
0.0097906133 0.69800001 -0.0550722 1.2878561e-38 328 285
0.01101444 0.69800001 -0.0550722 1.2878561e-38 329 285
0.012238266 0.69800001 -0.0550722 1.2787084e-38 330 285
0.013423519 0.69599998 -0.054914396 1.2603053e-38 331 285
0.014643839 0.69599998 -0.054914396 1.2786731e-38 332 285
0.015818574 0.69400001 -0.054756597 1.26027e-38 333 285
0.017035386 0.69400001 -0.054756597 1.2786731e-38 334 285
0.0182522 0.69400001 -0.054756597 1.26027e-38 335 285
0.019469013 0.69400001 -0.054756597 1.2693816e-38 336 285
0.020685827 0.69400001 -0.054756597 1.2693816e-38 337 285
0.021871079 0.69300002 -0.054677699 1.2417952e-38 338 285
0.02308614 0.69300002 -0.054677699 1.2417952e-38 339 285
0.024301201 0.69300002 -0.054677699 1.2601621e-38 340 285
0.025442619 0.69099998 -0.054519895 1.2509425e-38 341 285
0.026654173 0.69099998 -0.054519895 1.2050615e-38 342 285
0.027865725 0.69099998 -0.054519895 1.1589637e-38 343 285
0.029077278 0.69099998 -0.054519895 6.7137176e-39 344 285
0.030288832 0.69099998 -0.054519895 4.3166313e-39 345 285
0.031500384 0.69099998 -0.054519895 6.0730173e-39 346 285
0.03280662 0.69300002 -0.054677699 7.9169299e-39 347 285
0.034168959 0.69599998 -0.054914396 1.1777255e-38 348 285
0.035287585 0.69400001 -0.054756597 1.1777255e-38 349 285
0.036504399 0.69400001 -0.054756597 1.232898e-38 350 285
0.037666857 0.69300002 -0.054677699 1.2421177e-38 351 285
0.03888192 0.69300002 -0.054677699 1.2513019e-38 352 285
0.04009698 0.69300002 -0.054677699 1.2697769e-38 353 285
0.041312039 0.69300002 -0.054677699 1.2697779e-38 354 285
0.042588469 0.69400001 -0.054756597 1.2790334e-38 355 285
0.043805279 0.69400001 -0.054756597 1.278998e-38 356 285
0.045281585 0.69800001 -0.0550722 1.2974373e-38 357 285
0.046705291 0.70099998 -0.055308893 1.288254e-38 358 285
0.048071139 0.70300001 -0.0554667 1.288254e-38 359 285
