# .PCD v.7 - Point Cloud Data file format
FIELDS x y z rgb imX imY
SIZE 4 4 4 4 4 4
TYPE F F F F F F
COUNT 1 1 1 1 1 1
WIDTH 842
HEIGHT 1
VIEWPOINT 0 0 0 1 0 0 0
POINTS 842
DATA ascii
-0.0075743999 0.72000003 -0.058070403 7.6403487e-39 314 286
-0.0063032326 0.71899998 -0.057989739 7.5477943e-39 315 286
-0.0050285598 0.71700001 -0.057828441 6.1677718e-39 316 286
-0.00376616 0.71600002 -0.057747785 8.6570538e-39 317 286
-0.0025107733 0.71600002 -0.057747785 1.2634086e-38 318 286
-0.00125188 0.71399999 -0.057586476 1.4109216e-38 319 286
0 0.71399999 -0.057586476 1.3555314e-38 320 286
0.0012501266 0.713 -0.057505824 1.3186891e-38 321 286
0.0024932399 0.71100003 -0.057344519 1.1892889e-38 322 286
0.0037345996 0.70999998 -0.057263866 7.2831072e-39 323 286
0.0049794666 0.70999998 -0.057263866 7.8218603e-39 324 286
0.0062243328 0.70999998 -0.057263866 8.0984471e-39 325 286
0.0074691991 0.70999998 -0.057263866 6.7209063e-39 326 286
0.0087140659 0.70999998 -0.057263866 6.4443208e-39 327 286
0.0099589331 0.70999998 -0.057263866 7.1786573e-39 328 286
0.011203799 0.70999998 -0.057263866 6.9024305e-39 329 286
0.012448666 0.70999998 -0.057263866 6.4428915e-39 330 286
0.013693533 0.70999998 -0.057263866 6.2588604e-39 331 286
0.014938398 0.70999998 -0.057263866 6.4421698e-39 332 286
0.016183265 0.70999998 -0.057263866 6.2577772e-39 333 286
0.017428132 0.70999998 -0.057263866 6.0751838e-39 334 286
0.018672999 0.70999998 -0.057263866 5.9829881e-39 335 286
0.019917866 0.70999998 -0.057263866 6.0744649e-39 336 286
0.021192541 0.71100003 -0.057344519 5.9822693e-39 337 286
0.022439159 0.71100003 -0.057344519 5.9822693e-39 338 286
0.023685781 0.71100003 -0.057344519 5.9822693e-39 339 286
0.024932399 0.71100003 -0.057344519 5.9822665e-39 340 286
0.026179021 0.71100003 -0.057344519 6.0744621e-39 341 286
0.027425639 0.71100003 -0.057344519 5.9829881e-39 342 286
0.028752912 0.713 -0.057505824 5.9829881e-39 343 286
0.030003037 0.713 -0.057505824 5.891517e-39 344 286
0.031253166 0.713 -0.057505824 5.891517e-39 345 286
0.032503292 0.713 -0.057505824 5.8922386e-39 346 286
0.033753417 0.713 -0.057505824 5.800043e-39 347 286
0.035052639 0.71399999 -0.057586476 5.8000402e-39 348 286
0.036304519 0.71399999 -0.057586476 5.6160077e-39 349 286
0.037556399 0.71399999 -0.057586476 5.523812e-39 350 286
0.038808275 0.71399999 -0.057586476 5.3390621e-39 351 286
0.040060159 0.71399999 -0.057586476 5.7064026e-39 352 286
0.041427758 0.71600002 -0.057747785 4.4156638e-39 353 286
0.042742759 0.71700001 -0.057828441 5.3448326e-39 354 286
0.044368099 0.72299999 -0.058312356 1.2166949e-38 355 286
0.04563576 0.72299999 -0.058312356 1.0884142e-38 356 286
0.047162913 0.727 -0.058634974 7.4729033e-39 357 286
0.048504211 0.72799999 -0.058715623 2.6823249e-39 358 286
0.049780637 0.72799999 -0.058715623 6.7389326e-39 359 286
0.051267464 0.73100001 -0.058957584 1.7150205e-38 360 286
0.052549154 0.73100001 -0.058957584 1.7795574e-38 361 286
-0.01140894 0.72299999 -0.059580017 4.237406e-39 311 287
-0.010127253 0.722 -0.059497613 6.6269198e-39 312 287
-0.0088367993 0.72000003 -0.059332799 7.4563203e-39 313 287
-0.0075638802 0.71899998 -0.059250388 7.548516e-39 314 287
-0.0063032326 0.71899998 -0.059250388 7.7329086e-39 315 287
-0.0050215465 0.71600002 -0.059003171 6.625866e-39 316 287
-0.00376616 0.71600002 -0.059003171 6.2567234e-39 317 287
-0.0025037599 0.71399999 -0.058838356 1.032775e-38 318 287
-0.00125188 0.71399999 -0.058838356 1.392302e-38 319 287
0 0.71399999 -0.058838356 1.309614e-38 320 287
0.0012501266 0.713 -0.058755953 1.3280171e-38 321 287
0.0024932399 0.71100003 -0.058591139 1.281738e-38 322 287
0.0037345996 0.70999998 -0.058508728 7.470032e-39 323 287
0.0049794666 0.70999998 -0.058508728 6.1666801e-39 324 287
0.0062067998 0.708 -0.058343921 6.9042452e-39 325 287
0.0074481601 0.708 -0.058343921 6.8113251e-39 326 287
0.0087140659 0.70999998 -0.058508728 6.719128e-39 327 287
0.0099589331 0.70999998 -0.058508728 6.1688283e-39 328 287
0.011203799 0.70999998 -0.058508728 6.0766327e-39 329 287
0.012448666 0.70999998 -0.058508728 5.9844315e-39 330 287
0.013693533 0.70999998 -0.058508728 5.8922358e-39 331 287
0.014938398 0.70999998 -0.058508728 6.1673808e-39 332 287
0.016183265 0.70999998 -0.058508728 6.0751838e-39 333 287
0.017428132 0.70999998 -0.058508728 5.9822693e-39 334 287
0.018672999 0.70999998 -0.058508728 6.0744649e-39 335 287
0.019917866 0.70999998 -0.058508728 5.9822693e-39 336 287
0.021192541 0.71100003 -0.058591139 6.0744649e-39 337 287
0.022439159 0.71100003 -0.058591139 6.0744621e-39 338 287
0.023685781 0.71100003 -0.058591139 6.0744621e-39 339 287
0.024932399 0.71100003 -0.058591139 6.0744621e-39 340 287
0.026179021 0.71100003 -0.058591139 6.0744621e-39 341 287
0.027502786 0.713 -0.058755953 5.8003891e-39 342 287
0.028752912 0.713 -0.058755953 5.8925862e-39 343 287
0.030003037 0.713 -0.058755953 5.6167237e-39 344 287
0.031253166 0.713 -0.058755953 5.6167237e-39 345 287
0.032503292 0.713 -0.058755953 5.5234589e-39 346 287
0.033800758 0.71399999 -0.058838356 5.4312633e-39 347 287
0.035052639 0.71399999 -0.058838356 5.4309074e-39 348 287
0.036304519 0.71399999 -0.058838356 5.3387117e-39 349 287
0.037556399 0.71399999 -0.058838356 5.2468692e-39 350 287
0.038916986 0.71600002 -0.059003171 5.3390649e-39 351 287
0.040172372 0.71600002 -0.059003171 5.4316164e-39 352 287
0.041427758 0.71600002 -0.059003171 4.601497e-39 353 287
0.042742759 0.71700001 -0.059085581 5.6181881e-39 354 287
0.044306733 0.722 -0.059497613 1.1426513e-38 355 287
0.04563576 0.72299999 -0.059580017 1.0883791e-38 356 287
0.047162913 0.727 -0.059909642 9.0398801e-39 357 287
0.048504211 0.72799999 -0.059992049 5.7179395e-39 358 287
0.049780637 0.72799999 -0.059992049 8.6685598e-39 359 287
0.051267464 0.73100001 -0.06023927 1.7426419e-38 360 287
0.052549154 0.73100001 -0.06023927 1.7887397e-38 361 287
-0.01140894 0.72299999 -0.060847677 4.4207043e-39 311 288
-0.010099201 0.72000003 -0.060595199 7.7307408e-39 312 288
-0.0088367993 0.72000003 -0.060595199 8.0073263e-39 313 288
-0.0075638802 0.71899998 -0.060511041 7.4566735e-39 314 288
-0.0063032326 0.71899998 -0.060511041 7.4566735e-39 315 288
-0.0050215465 0.71600002 -0.06025856 7.3601787e-39 316 288
-0.00376616 0.71600002 -0.06025856 6.6226136e-39 317 288
-0.0025037599 0.71399999 -0.060090236 8.3905436e-39 318 288
-0.00125188 0.71399999 -0.060090236 1.1801783e-38 319 288
0 0.713 -0.060006075 1.2634799e-38 320 288
0.00124662 0.71100003 -0.059837762 1.2911746e-38 321 288
0.0024932399 0.71100003 -0.059837762 1.2541875e-38 322 288
0.0037345996 0.70999998 -0.059753593 7.1941682e-39 323 288
0.0049794666 0.70999998 -0.059753593 4.9728187e-39 324 288
0.0062067998 0.708 -0.059585281 5.8951351e-39 325 288
0.0074481601 0.708 -0.059585281 6.4450565e-39 326 288
0.0087140659 0.70999998 -0.059753593 6.4450565e-39 327 288
0.0099589331 0.70999998 -0.059753593 5.8943994e-39 328 288
0.011203799 0.70999998 -0.059753593 5.7103683e-39 329 288
0.012448666 0.70999998 -0.059753593 5.8014849e-39 330 288
0.013693533 0.70999998 -0.059753593 5.7092893e-39 331 288
0.014938398 0.70999998 -0.059753593 5.891517e-39 332 288
0.016183265 0.70999998 -0.059753593 5.7993199e-39 333 288
0.017428132 0.70999998 -0.059753593 5.9826322e-39 334 288
0.018672999 0.70999998 -0.059753593 5.9826322e-39 335 288
0.019917866 0.70999998 -0.059753593 5.9826322e-39 336 288
0.021162732 0.70999998 -0.059753593 6.0748292e-39 337 288
0.022439159 0.71100003 -0.059837762 5.891517e-39 338 288
0.023685781 0.71100003 -0.059837762 5.891517e-39 339 288
0.024932399 0.71100003 -0.059837762 5.8925918e-39 340 288
0.026179021 0.71100003 -0.059837762 5.9847874e-39 341 288
0.027502786 0.713 -0.060006075 5.5263274e-39 342 288
0.028752912 0.713 -0.060006075 5.5263274e-39 343 288
0.030003037 0.713 -0.060006075 5.4334157e-39 344 288
0.031253166 0.713 -0.060006075 5.1564687e-39 345 288
0.032503292 0.713 -0.060006075 5.6138539e-39 346 288
0.033753417 0.713 -0.060006075 5.4294626e-39 347 288
0.035052639 0.71399999 -0.060090236 5.1539505e-39 348 288
0.036304519 0.71399999 -0.060090236 5.1539505e-39 349 288
0.037556399 0.71399999 -0.060090236 5.2465035e-39 350 288
0.038916986 0.71600002 -0.06025856 5.2465035e-39 351 288
0.040172372 0.71600002 -0.06025856 5.6145629e-39 352 288
0.041427758 0.71600002 -0.06025856 4.9691935e-39 353 288
0.042742759 0.71700001 -0.060342718 5.8933331e-39 354 288
0.044306733 0.722 -0.060763516 1.0964093e-38 355 288
0.045888241 0.727 -0.061184317 1.0240577e-38 356 288
0.047162913 0.727 -0.061184317 9.9636301e-39 357 288
0.048504211 0.72799999 -0.061268479 8.4798428e-39 358 288
0.049780637 0.72799999 -0.061268479 1.1430463e-38 359 288
0.051267464 0.73100001 -0.06152096 1.8070343e-38 360 288
0.052549154 0.73100001 -0.06152096 1.8070343e-38 361 288
-0.01139316 0.722 -0.062029421 4.5114552e-39 311 289
-0.010099201 0.72000003 -0.061857603 8.0066046e-39 312 289
-0.0088245263 0.71899998 -0.061771683 8.0066046e-39 313 289
-0.0075638802 0.71899998 -0.061771683 7.2722864e-39 314 289
-0.0062857 0.71700001 -0.061599858 7.0878952e-39 315 289
-0.0050215465 0.71600002 -0.061513945 6.4418223e-39 316 289
-0.00376616 0.71600002 -0.061513945 5.5195059e-39 317 289
-0.0025037599 0.71399999 -0.061342116 7.1927207e-39 318 289
-0.00125188 0.71399999 -0.061342116 1.0972742e-38 319 289
0 0.713 -0.061256204 1.2451487e-38 320 289
0.00124662 0.71100003 -0.061084379 1.1990868e-38 321 289
0.0024932399 0.71100003 -0.061084379 1.0149826e-38 322 289
0.0037345996 0.70999998 -0.060998458 5.2630991e-39 323 289
0.0049794666 0.70999998 -0.060998458 3.5027305e-39 324 289
0.0062067998 0.708 -0.060826641 4.609078e-39 325 289
0.0074481601 0.708 -0.060826641 5.8933302e-39 326 289
0.0087140659 0.70999998 -0.060998458 5.8933302e-39 327 289
0.0099589331 0.70999998 -0.060998458 5.6188944e-39 328 289
0.011203799 0.70999998 -0.060998458 5.6188944e-39 329 289
0.012448666 0.70999998 -0.060998458 5.8014849e-39 330 289
0.013693533 0.70999998 -0.060998458 5.7092893e-39 331 289
0.014938398 0.70999998 -0.060998458 5.7089264e-39 332 289
0.016183265 0.70999998 -0.060998458 5.7089264e-39 333 289
0.017428132 0.70999998 -0.060998458 5.6174468e-39 334 289
0.018672999 0.70999998 -0.060998458 5.7096424e-39 335 289
0.019917866 0.70999998 -0.060998458 5.7089264e-39 336 289
0.021162732 0.70999998 -0.060998458 5.801122e-39 337 289
0.022439159 0.71100003 -0.061084379 5.801122e-39 338 289
0.023685781 0.71100003 -0.061084379 5.8933176e-39 339 289
0.024932399 0.71100003 -0.061084379 5.8940365e-39 340 289
0.026252659 0.713 -0.061256204 5.9862321e-39 341 289
0.027502786 0.713 -0.061256204 5.7107214e-39 342 289
0.028752912 0.713 -0.061256204 5.5263302e-39 343 289
0.030003037 0.713 -0.061256204 5.4319766e-39 344 289
0.031253166 0.713 -0.061256204 5.0635542e-39 345 289
0.032503292 0.713 -0.061256204 5.1532317e-39 346 289
0.033753417 0.713 -0.061256204 5.1532317e-39 347 289
0.035052639 0.71399999 -0.061342116 4.8784398e-39 348 289
0.036304519 0.71399999 -0.061342116 4.8784398e-39 349 289
0.037556399 0.71399999 -0.061342116 4.9706355e-39 350 289
0.038916986 0.71600002 -0.061513945 5.154668e-39 351 289
0.040172372 0.71600002 -0.061513945 5.6149259e-39 352 289
0.041427758 0.71600002 -0.061513945 5.1539477e-39 353 289
0.042742759 0.71700001 -0.061599858 6.0784446e-39 354 289
0.044306733 0.722 -0.062029421 1.0780422e-38 355 289
0.04563576 0.72299999 -0.062115334 1.0239139e-38 356 289
0.047033165 0.72500002 -0.062287167 1.0423889e-38 357 289
0.048437584 0.727 -0.062458992 1.1156037e-38 358 289
0.049712259 0.727 -0.062458992 1.3184341e-38 359 289
0.051057063 0.72799999 -0.062544905 1.7978871e-38 360 289
0.052477267 0.73000002 -0.06271673 1.7886675e-38 361 289
-0.01139316 0.722 -0.063295327 5.0635542e-39 311 290
-0.010099201 0.72000003 -0.06312 6.9045801e-39 312 290
-0.0088245263 0.71899998 -0.063032329 7.2730025e-39 313 290
-0.0075638802 0.71899998 -0.063032329 6.995345e-39 314 290
-0.0062857 0.71700001 -0.062856995 6.810595e-39 315 290
-0.0050215465 0.71600002 -0.062769331 5.9815658e-39 316 290
-0.00376616 0.71600002 -0.062769331 5.2440008e-39 317 290
-0.0025037599 0.71399999 -0.062593997 7.1923704e-39 318 290
-0.00125188 0.71399999 -0.062593997 1.1248978e-38 319 290
0 0.713 -0.062506333 1.1715367e-38 320 290
0.00124662 0.71100003 -0.062331002 1.0977802e-38 321 290
0.0024932399 0.71100003 -0.062331002 8.9502012e-39 322 290
0.0037345996 0.70999998 -0.062243331 4.3404197e-39 323 290
0.0049794666 0.70999998 -0.062243331 3.2261408e-39 324 290
0.0062067998 0.708 -0.062068 4.5168796e-39 325 290
0.0074481601 0.708 -0.062068 5.8014905e-39 326 290
0.0087140659 0.70999998 -0.062243331 5.8014905e-39 327 290
0.0099589331 0.70999998 -0.062243331 5.4352262e-39 328 290
0.011203799 0.70999998 -0.062243331 5.4352262e-39 329 290
0.012448666 0.70999998 -0.062243331 5.7103739e-39 330 290
0.013693533 0.70999998 -0.062243331 5.6178196e-39 331 290
0.014938398 0.70999998 -0.062243331 5.6185286e-39 332 290
0.016183265 0.70999998 -0.062243331 5.7107242e-39 333 290
0.017428132 0.70999998 -0.062243331 5.4359324e-39 334 290
0.018672999 0.70999998 -0.062243331 5.4359324e-39 335 290
0.019917866 0.70999998 -0.062243331 5.7110872e-39 336 290
0.021192541 0.71100003 -0.062331002 5.7110872e-39 337 290
0.022439159 0.71100003 -0.062331002 5.803287e-39 338 290
0.023685781 0.71100003 -0.062331002 5.9876783e-39 339 290
0.024932399 0.71100003 -0.062331002 5.8050849e-39 340 290
0.026252659 0.713 -0.062506333 5.7128892e-39 341 290
0.027502786 0.713 -0.062506333 5.6188915e-39 342 290
0.028752912 0.713 -0.062506333 5.1579148e-39 343 290
0.030003037 0.713 -0.062506333 5.3390649e-39 344 290
0.031253166 0.713 -0.062506333 4.8780867e-39 345 290
0.032503292 0.713 -0.062506333 5.2443455e-39 346 290
0.033800758 0.71399999 -0.062593997 5.2443455e-39 347 290
0.035052639 0.71399999 -0.062593997 4.9699096e-39 348 290
0.036304519 0.71399999 -0.062593997 5.1543009e-39 349 290
0.037661601 0.71600002 -0.062769331 4.9709886e-39 350 290
0.038916986 0.71600002 -0.062769331 5.2472168e-39 351 290
0.040172372 0.71600002 -0.062769331 5.5245281e-39 352 290
0.041485619 0.71700001 -0.062856995 5.4323325e-39 353 290
0.042861983 0.71899998 -0.063032329 6.2653568e-39 354 290
0.044368099 0.72299999 -0.063382991 1.0322323e-38 355 290
0.04563576 0.72299999 -0.063382991 1.0238422e-38 356 290
0.047033165 0.72500002 -0.063558333 1.06994e-38 357 290
0.048304334 0.72500002 -0.063558333 1.3000678e-38 358 290
0.049712259 0.727 -0.06373366 1.4844591e-38 359 290
0.051057063 0.72799999 -0.063821331 1.7886325e-38 360 290
0.052333489 0.72799999 -0.063821331 1.7794128e-38 361 290
-0.01139316 0.722 -0.064561233 4.6043543e-39 311 291
-0.010099201 0.72000003 -0.064382397 5.3415662e-39 312 291
-0.0088245263 0.71899998 -0.064292975 6.4479137e-39 313 291
-0.0075638802 0.71899998 -0.064292975 6.6276513e-39 314 291
-0.0062857 0.71700001 -0.064114138 6.4436202e-39 315 291
-0.0050215465 0.71600002 -0.064024724 5.7993368e-39 316 291
-0.00376616 0.71600002 -0.064024724 5.3383586e-39 317 291
-0.0025037599 0.71399999 -0.063845873 7.5593578e-39 318 291
-0.00125188 0.71399999 -0.063845873 1.08784e-38 319 291
0 0.713 -0.063756458 1.0610461e-38 320 291
0.00124662 0.71100003 -0.063577622 1.0242039e-38 321 291
0.0024932399 0.71100003 -0.063577622 9.6859684e-39 322 291
0.0037345996 0.70999998 -0.063488193 5.1683825e-39 323 291
0.0049794666 0.70999998 -0.063488193 4.0537435e-39 324 291
0.0062243328 0.70999998 -0.063488193 5.0675353e-39 325 291
0.0074691991 0.70999998 -0.063488193 5.7089362e-39 326 291
0.0087140659 0.70999998 -0.063488193 5.7089362e-39 327 291
0.0099589331 0.70999998 -0.063488193 5.5266987e-39 328 291
0.011203799 0.70999998 -0.063488193 5.5266987e-39 329 291
0.012448666 0.70999998 -0.063488193 5.8014877e-39 330 291
0.013693533 0.70999998 -0.063488193 5.8936834e-39 331 291
0.014938398 0.70999998 -0.063488193 5.7110872e-39 332 291
0.016183265 0.70999998 -0.063488193 5.7110872e-39 333 291
0.017428132 0.70999998 -0.063488193 5.5284924e-39 334 291
0.018672999 0.70999998 -0.063488193 5.6210467e-39 335 291
0.019917866 0.70999998 -0.063488193 5.6206936e-39 336 291
0.021192541 0.71100003 -0.063577622 5.989116e-39 337 291
0.022439159 0.71100003 -0.063577622 5.8980022e-39 338 291
0.023752406 0.713 -0.063756458 6.266426e-39 339 291
0.025002534 0.713 -0.063756458 5.898005e-39 340 291
0.026252659 0.713 -0.063756458 5.5288637e-39 341 291
0.027502786 0.713 -0.063756458 5.6167434e-39 342 291
0.028752912 0.713 -0.063756458 5.1557652e-39 343 291
0.030003037 0.713 -0.063756458 5.2457944e-39 344 291
0.031296998 0.71399999 -0.063845873 4.9692061e-39 345 291
0.032548878 0.71399999 -0.063845873 4.9695593e-39 346 291
0.033800758 0.71399999 -0.063845873 4.9695593e-39 347 291
0.035052639 0.71399999 -0.063845873 4.8784426e-39 348 291
0.036406212 0.71600002 -0.064024724 4.9706383e-39 349 291
0.037661601 0.71600002 -0.064024724 5.2468664e-39 350 291
0.038916986 0.71600002 -0.064024724 5.4316164e-39 351 291
0.040228479 0.71700001 -0.064114138 5.7096424e-39 352 291
0.041485619 0.71700001 -0.064114138 5.7096424e-39 353 291
0.042861983 0.71899998 -0.064292975 6.4508228e-39 354 291
0.044306733 0.722 -0.064561233 1.0230844e-38 355 291
0.04563576 0.72299999 -0.064650662 9.6859684e-39 356 291
0.046903417 0.72299999 -0.064650662 1.0331338e-38 357 291
0.048304334 0.72500002 -0.064829499 1.438398e-38 358 291
0.0495755 0.72500002 -0.064829499 1.6504838e-38 359 291
0.051057063 0.72799999 -0.065097757 1.7701579e-38 360 291
0.052333489 0.72799999 -0.065097757 1.7517548e-38 361 291
-0.01140894 0.72299999 -0.065918319 7.5517025e-39 311 292
-0.010099201 0.72000003 -0.065644801 5.8918281e-39 312 292
-0.0088245263 0.71899998 -0.065553628 6.9063387e-39 313 292
-0.0075638802 0.71899998 -0.065553628 6.2599422e-39 314 292
-0.0062857 0.71700001 -0.065371275 6.3521378e-39 315 292
-0.0050215465 0.71600002 -0.06528011 6.0759264e-39 316 292
-0.00376616 0.71600002 -0.06528011 5.9837308e-39 317 292
-0.0025107733 0.71600002 -0.06528011 7.6508304e-39 318 292
-0.00125188 0.71399999 -0.065097757 9.8635255e-39 319 292
0 0.71399999 -0.065097757 1.005729e-38 320 292
0.0012501266 0.713 -0.065006584 9.8728988e-39 321 292
0.0024932399 0.71100003 -0.064824238 1.0423902e-38 322 292
0.0037345996 0.70999998 -0.064733058 5.9985117e-39 323 292
0.0049794666 0.70999998 -0.064733058 4.4221686e-39 324 292
0.0062243328 0.70999998 -0.064733058 4.9753424e-39 325 292
0.0074691991 0.70999998 -0.064733058 5.8926114e-39 326 292
0.0087140659 0.70999998 -0.064733058 5.7082201e-39 327 292
0.0099589331 0.70999998 -0.064733058 5.6167406e-39 328 292
0.011203799 0.70999998 -0.064733058 5.6167406e-39 329 292
0.012448666 0.70999998 -0.064733058 5.5256267e-39 330 292
0.013693533 0.70999998 -0.064733058 5.6178224e-39 331 292
0.014938398 0.70999998 -0.064733058 5.3437522e-39 332 292
0.016183265 0.70999998 -0.064733058 5.3437522e-39 333 292
0.017428132 0.70999998 -0.064733058 5.1600868e-39 334 292
0.018672999 0.70999998 -0.064733058 5.2522824e-39 335 292
0.019917866 0.70999998 -0.064733058 5.2526496e-39 336 292
0.021192541 0.71100003 -0.064824238 5.5292365e-39 337 292
0.022439159 0.71100003 -0.064824238 5.6225097e-39 338 292
0.023685781 0.71100003 -0.064824238 5.899098e-39 339 292
0.025002534 0.713 -0.065006584 5.8043814e-39 340 292
0.026252659 0.713 -0.065006584 5.159012e-39 341 292
0.027502786 0.713 -0.065006584 5.4316318e-39 342 292
0.028752912 0.713 -0.065006584 4.9706551e-39 343 292
0.030045118 0.71399999 -0.065097757 5.1539533e-39 344 292
0.031296998 0.71399999 -0.065097757 5.061399e-39 345 292
0.032548878 0.71399999 -0.065097757 5.1535848e-39 346 292
0.033800758 0.71399999 -0.065097757 5.3376159e-39 347 292
0.035052639 0.71399999 -0.065097757 5.2465035e-39 348 292
0.036406212 0.71600002 -0.06528011 5.3386991e-39 349 292
0.037661601 0.71600002 -0.06528011 5.4323325e-39 350 292
0.038971342 0.71700001 -0.065371275 5.6167237e-39 351 292
0.040228479 0.71700001 -0.065371275 5.7114431e-39 352 292
0.041601337 0.71899998 -0.065553628 5.7114431e-39 353 292
0.042921603 0.72000003 -0.065644801 6.4508256e-39 354 292
0.044306733 0.722 -0.065827139 1.0415238e-38 355 292
0.045572639 0.722 -0.065827139 1.0146579e-38 356 292
0.046903417 0.72299999 -0.065918319 1.1344764e-38 357 292
0.048304334 0.72500002 -0.066100664 1.5674003e-38 358 292
0.0495755 0.72500002 -0.066100664 1.7702306e-38 359 292
0.051057063 0.72799999 -0.066374183 1.7240971e-38 360 292
-0.01140894 0.72299999 -0.067185976 1.2623208e-38 311 293
-0.010099201 0.72000003 -0.066907197 8.1949265e-39 312 293
-0.0088245263 0.71899998 -0.066814266 7.5495571e-39 313 293
-0.0075638802 0.71899998 -0.066814266 6.4454054e-39 314 293
-0.0062857 0.71700001 -0.066628419 6.5379612e-39 315 293
-0.0050215465 0.71600002 -0.066535495 6.1691969e-39 316 293
-0.00376616 0.71600002 -0.066535495 6.1691969e-39 317 293
-0.0025107733 0.71600002 -0.066535495 7.4667964e-39 318 293
-0.00125188 0.71399999 -0.066349633 9.3107076e-39 319 293
0 0.71399999 -0.066349633 1.0333154e-38 320 293
0.0012501266 0.713 -0.066256717 1.0425351e-38 321 293
0.0024932399 0.71100003 -0.066070862 1.0701568e-38 322 293
0.0037398601 0.71100003 -0.066070862 6.6453203e-39 323 293
0.0049794666 0.70999998 -0.065977924 4.424321e-39 324 293
0.0062243328 0.70999998 -0.065977924 4.5165167e-39 325 293
0.0074691991 0.70999998 -0.065977924 5.8922386e-39 326 293
0.0087140659 0.70999998 -0.065977924 5.800043e-39 327 293
0.0099589331 0.70999998 -0.065977924 5.6163748e-39 328 293
0.011203799 0.70999998 -0.065977924 5.5241778e-39 329 293
0.012448666 0.70999998 -0.065977924 5.7996871e-39 330 293
0.013693533 0.70999998 -0.065977924 5.6156546e-39 331 293
0.014938398 0.70999998 -0.065977924 5.6153014e-39 332 293
0.016183265 0.70999998 -0.065977924 5.5231058e-39 333 293
0.017428132 0.70999998 -0.065977924 5.5227527e-39 334 293
0.0186993 0.71100003 -0.066070862 5.5227527e-39 335 293
0.01994592 0.71100003 -0.066070862 5.5227583e-39 336 293
0.021192541 0.71100003 -0.066070862 5.7989864e-39 337 293
0.022439159 0.71100003 -0.066070862 5.6160371e-39 338 293
0.023685781 0.71100003 -0.066070862 5.6160371e-39 339 293
0.025002534 0.713 -0.066256717 5.6153182e-39 340 293
0.026252659 0.713 -0.066256717 5.1546988e-39 341 293
0.02754136 0.71399999 -0.066349633 5.1532443e-39 342 293
0.028793238 0.71399999 -0.066349633 5.2458e-39 343 293
0.030045118 0.71399999 -0.066349633 4.9706355e-39 344 293
0.031296998 0.71399999 -0.066349633 5.2472224e-39 345 293
0.032548878 0.71399999 -0.066349633 5.0635514e-39 346 293
0.033800758 0.71399999 -0.066349633 5.1561057e-39 347 293
0.035150826 0.71600002 -0.066535495 5.2479482e-39 348 293
0.036406212 0.71600002 -0.066535495 5.524175e-39 349 293
0.037661601 0.71600002 -0.066535495 5.4341346e-39 350 293
0.038971342 0.71700001 -0.066628419 5.7107214e-39 351 293
0.040340692 0.71899998 -0.066814266 5.8036359e-39 352 293
0.041601337 0.71899998 -0.066814266 5.3430179e-39 353 293
0.042921603 0.72000003 -0.066907197 6.6334162e-39 354 293
0.044306733 0.722 -0.067093052 1.0966611e-38 355 293
0.045572639 0.722 -0.067093052 1.1434797e-38 356 293
0.047033165 0.72500002 -0.067371838 1.327871e-38 357 293
0.048304334 0.72500002 -0.067371838 1.6410487e-38 358 293
0.049712259 0.727 -0.067557678 1.7424999e-38 359 293
-0.010127253 0.722 -0.068358958 1.1055162e-38 312 294
-0.0088245263 0.71899998 -0.068074919 6.9059996e-39 313 294
-0.0075638802 0.71899998 -0.068074919 6.629061e-39 314 294
-0.0063032326 0.71899998 -0.068074919 7.0900405e-39 315 294
-0.0050285598 0.71700001 -0.067885563 6.721649e-39 316 294
-0.00376616 0.71600002 -0.067790881 6.6294534e-39 317 294
-0.0025107733 0.71600002 -0.067790881 6.9121905e-39 318 294
-0.00125188 0.71399999 -0.067601517 9.1252444e-39 319 294
0 0.71399999 -0.067601517 1.0792338e-38 320 294
0.0012501266 0.713 -0.067506835 1.0792338e-38 321 294
0.0025002533 0.713 -0.067506835 1.0610451e-38 322 294
0.0037398601 0.71100003 -0.067317478 7.4757998e-39 323 294
0.0049794666 0.70999998 -0.067222796 5.1618861e-39 324 294
0.0062243328 0.70999998 -0.067222796 4.5165167e-39 325 294
0.0074691991 0.70999998 -0.067222796 6.2602981e-39 326 294
0.0087140659 0.70999998 -0.067222796 5.891517e-39 327 294
0.0099589331 0.70999998 -0.067222796 5.7993227e-39 328 294
0.01121958 0.71100003 -0.067317478 5.7067684e-39 329 294
0.0124662 0.71100003 -0.067317478 5.7067684e-39 330 294
0.01371282 0.71100003 -0.067317478 5.7067684e-39 331 294
0.014959441 0.71100003 -0.067317478 5.6138595e-39 332 294
0.01620606 0.71100003 -0.067317478 5.6138595e-39 333 294
0.01745268 0.71100003 -0.067317478 5.3376425e-39 334 294
0.0186993 0.71100003 -0.067317478 5.3376425e-39 335 294
0.01994592 0.71100003 -0.067317478 5.2458126e-39 336 294
0.021192541 0.71100003 -0.067317478 5.2458126e-39 337 294
0.022439159 0.71100003 -0.067317478 5.3380083e-39 338 294
0.023752406 0.713 -0.067506835 5.4302039e-39 339 294
0.025002534 0.713 -0.067506835 5.6142224e-39 340 294
0.026252659 0.713 -0.067506835 5.4301913e-39 341 294
0.02754136 0.71399999 -0.067601517 5.5220114e-39 342 294
0.028793238 0.71399999 -0.067601517 5.614207e-39 343 294
0.030045118 0.71399999 -0.067601517 5.4319611e-39 344 294
0.031296998 0.71399999 -0.067601517 5.5245155e-39 345 294
0.032548878 0.71399999 -0.067601517 5.5241596e-39 346 294
0.03389544 0.71600002 -0.067790881 5.5241596e-39 347 294
0.035150826 0.71600002 -0.067790881 5.8003919e-39 348 294
0.036406212 0.71600002 -0.067790881 5.892589e-39 349 294
0.037714198 0.71700001 -0.067885563 5.8943896e-39 350 294
0.039080046 0.71899998 -0.068074919 5.9865853e-39 351 294
0.040396802 0.72000003 -0.068169601 5.8958386e-39 352 294
0.041659199 0.72000003 -0.068169601 5.3426648e-39 353 294
0.043040827 0.722 -0.068358958 6.5408675e-39 354 294
0.044306733 0.722 -0.068358958 1.0782225e-38 355 294
0.045572639 0.722 -0.068358958 1.1711388e-38 356 294
0.046903417 0.72299999 -0.06845364 1.4015919e-38 357 294
0.048304334 0.72500002 -0.068643004 1.5674724e-38 358 294
-0.0088367993 0.72000003 -0.069432005 6.8166612e-39 313 295
-0.0075743999 0.72000003 -0.069432005 5.9858216e-39 314 295
-0.0063032326 0.71899998 -0.069335558 7.0921691e-39 315 295
-0.0050285598 0.71700001 -0.069142699 6.6294505e-39 316 295
-0.0037714199 0.71700001 -0.069142699 6.4450593e-39 317 295
-0.0025107733 0.71600002 -0.069046266 6.2664568e-39 318 295
-0.00125188 0.71399999 -0.068853401 9.1241626e-39 319 295
0 0.71399999 -0.068853401 1.0977088e-38 320 295
0.0012501266 0.713 -0.068756968 1.0700143e-38 321 295
0.0025002533 0.713 -0.068756968 1.0518619e-38 322 295
0.0037398601 0.71100003 -0.068564095 8.1215321e-39 323 295
0.0049864799 0.71100003 -0.068564095 5.899098e-39 324 295
0.0062243328 0.70999998 -0.068467662 4.6083592e-39 325 295
0.0074691991 0.70999998 -0.068467662 6.3521406e-39 326 295
0.0087263398 0.71100003 -0.068564095 6.259945e-39 327 295
0.0099729598 0.71100003 -0.068564095 5.8925918e-39 328 295
0.01121958 0.71100003 -0.068564095 5.8925918e-39 329 295
0.0124662 0.71100003 -0.068564095 5.6170769e-39 330 295
0.01371282 0.71100003 -0.068564095 5.5248812e-39 331 295
0.014959441 0.71100003 -0.068564095 5.7074746e-39 332 295
0.01620606 0.71100003 -0.068564095 5.615279e-39 333 295
0.01745268 0.71100003 -0.068564095 5.4323297e-39 334 295
0.0186993 0.71100003 -0.068564095 5.2482986e-39 335 295
0.01994592 0.71100003 -0.068564095 5.2482986e-39 336 295
0.021192541 0.71100003 -0.068564095 5.2482986e-39 337 295
0.022439159 0.71100003 -0.068564095 5.4316108e-39 338 295
0.023752406 0.713 -0.068756968 5.5238064e-39 339 295
0.025002534 0.713 -0.068756968 5.5245253e-39 340 295
0.026252659 0.713 -0.068756968 5.5245253e-39 341 295
0.02754136 0.71399999 -0.068853401 5.5245253e-39 342 295
0.028793238 0.71399999 -0.068853401 5.5245253e-39 343 295
0.030045118 0.71399999 -0.068853401 5.4337646e-39 344 295
0.031296998 0.71399999 -0.068853401 5.4337646e-39 345 295
0.032640055 0.71600002 -0.069046266 5.4334087e-39 346 295
0.03389544 0.71600002 -0.069046266 5.6177999e-39 347 295
0.035150826 0.71600002 -0.069046266 5.800036e-39 348 295
0.036457058 0.71700001 -0.069142699 5.9847874e-39 349 295
0.037714198 0.71700001 -0.069142699 6.1688255e-39 350 295
0.039080046 0.71899998 -0.069335558 6.1688255e-39 351 295
0.040396802 0.72000003 -0.069432005 6.078076e-39 352 295
0.041774917 0.722 -0.069624864 5.8014877e-39 353 295
0.043040827 0.722 -0.069624864 6.4501068e-39 354 295
0.044368099 0.72299999 -0.069721296 1.0690746e-38 355 295
0.04563576 0.72299999 -0.069721296 1.1804306e-38 356 295
0.046903417 0.72299999 -0.069721296 1.4108838e-38 357 295
-0.0088367993 0.72000003 -0.070694394 9.5810952e-39 313 296
-0.0075743999 0.72000003 -0.070694394 5.9865278e-39 314 296
-0.0063032326 0.71899998 -0.070596211 6.6318972e-39 315 296
-0.0050285598 0.71700001 -0.070399836 6.8141949e-39 316 296
-0.0037714199 0.71700001 -0.070399836 6.4454124e-39 317 296
-0.0025107733 0.71600002 -0.070301652 5.6218048e-39 318 296
-0.00125188 0.71399999 -0.070105277 8.8486505e-39 319 296
0 0.71399999 -0.070105277 1.1252593e-38 320 296
0.00125188 0.71399999 -0.070105277 1.1160398e-38 321 296
0.0025002533 0.713 -0.070007093 1.0794845e-38 322 296
0.0037398601 0.71100003 -0.069810718 8.7661827e-39 323 296
0.0049864799 0.71100003 -0.069810718 6.6355868e-39 324 296
0.0062330998 0.71100003 -0.069810718 4.7916742e-39 325 296
0.0074797203 0.71100003 -0.069810718 6.6276485e-39 326 296
0.0087263398 0.71100003 -0.069810718 6.4436174e-39 327 296
0.0099729598 0.71100003 -0.069810718 6.076983e-39 328 296
0.01121958 0.71100003 -0.069810718 6.076983e-39 329 296
0.0124662 0.71100003 -0.069810718 5.892589e-39 330 296
0.01371282 0.71100003 -0.069810718 5.892589e-39 331 296
0.014959441 0.71100003 -0.069810718 5.8918659e-39 332 296
0.01620606 0.71100003 -0.069810718 5.7996703e-39 333 296
0.01745268 0.71100003 -0.069810718 5.6170769e-39 334 296
0.0186993 0.71100003 -0.069810718 5.5248812e-39 335 296
0.020002026 0.713 -0.070007093 5.341213e-39 336 296
0.021252153 0.713 -0.070007093 5.4334087e-39 337 296
0.022502279 0.713 -0.070007093 5.5245253e-39 338 296
0.023752406 0.713 -0.070007093 5.7092767e-39 339 296
0.025002534 0.713 -0.070007093 5.8925918e-39 340 296
0.026252659 0.713 -0.070007093 5.8925918e-39 341 296
0.02754136 0.71399999 -0.070105277 5.8925918e-39 342 296
0.028793238 0.71399999 -0.070105277 5.8925918e-39 343 296
0.030045118 0.71399999 -0.070105277 5.7092767e-39 344 296
0.031296998 0.71399999 -0.070105277 5.7092767e-39 345 296
0.032640055 0.71600002 -0.070301652 5.7092767e-39 346 296
0.03389544 0.71600002 -0.070301652 5.8014723e-39 347 296
0.035199918 0.71700001 -0.070399836 5.8925918e-39 348 296
0.036457058 0.71700001 -0.070399836 5.8925918e-39 349 296
0.037819397 0.71899998 -0.070596211 6.0766299e-39 350 296
0.039134402 0.72000003 -0.070694394 6.1688255e-39 351 296
0.040509012 0.722 -0.070890769 6.0791508e-39 352 296
0.041774917 0.722 -0.070890769 5.9869552e-39 353 296
0.043040827 0.722 -0.070890769 6.8178103e-39 354 296
0.044490833 0.72500002 -0.071185336 1.0690027e-38 355 296
0.045761999 0.72500002 -0.071185336 1.1527363e-38 356 296
-0.0088245263 0.71899998 -0.071856856 1.3087071e-38 313 297
-0.0075638802 0.71899998 -0.071856856 8.655546e-39 314 297
-0.0063032326 0.71899998 -0.071856856 7.1804145e-39 315 297
-0.0050285598 0.71700001 -0.07165698 6.9067437e-39 316 297
-0.00376616 0.71600002 -0.071557038 6.9067437e-39 317 297
-0.0025107733 0.71600002 -0.071557038 5.5292421e-39 318 297
-0.0012553866 0.71600002 -0.071557038 8.7560891e-39 319 297
0 0.71399999 -0.071357153 1.1620654e-38 320 297
0.00125188 0.71399999 -0.071357153 1.1344066e-38 321 297
0.0025037599 0.71399999 -0.071357153 1.0978876e-38 322 297
0.0037503797 0.713 -0.071257219 9.0427682e-39 323 297
0.0050005065 0.713 -0.071257219 6.8199753e-39 324 297
0.0062330998 0.71100003 -0.071057342 4.6072802e-39 325 297
0.0074797203 0.71100003 -0.071057342 6.5368892e-39 326 297
0.0087263398 0.71100003 -0.071057342 6.4446921e-39 327 297
0.0099729598 0.71100003 -0.071057342 6.1699003e-39 328 297
0.011251139 0.713 -0.071257219 6.077346e-39 329 297
0.012501267 0.713 -0.071257219 6.076983e-39 330 297
0.013751393 0.713 -0.071257219 5.9847874e-39 331 297
0.014959441 0.71100003 -0.071057342 5.8925918e-39 332 297
0.01620606 0.71100003 -0.071057342 5.9847874e-39 333 297
0.017501773 0.713 -0.071257219 5.8014751e-39 334 297
0.018751899 0.713 -0.071257219 5.8014751e-39 335 297
0.020002026 0.713 -0.071257219 5.7096396e-39 336 297
0.021252153 0.713 -0.071257219 5.7096396e-39 337 297
0.022502279 0.713 -0.071257219 5.801122e-39 338 297
0.023752406 0.713 -0.071257219 5.801122e-39 339 297
0.025002534 0.713 -0.071257219 5.9844371e-39 340 297
0.026289478 0.71399999 -0.071357153 5.9844371e-39 341 297
0.02754136 0.71399999 -0.071357153 5.9844343e-39 342 297
0.028793238 0.71399999 -0.071357153 5.9844343e-39 343 297
0.030045118 0.71399999 -0.071357153 5.9847874e-39 344 297
0.031384666 0.71600002 -0.071557038 5.8925918e-39 345 297
0.032640055 0.71600002 -0.071557038 5.9847874e-39 346 297
0.033942781 0.71700001 -0.07165698 5.8925918e-39 347 297
0.035199918 0.71700001 -0.07165698 5.9844315e-39 348 297
0.036558751 0.71899998 -0.071856856 6.0766271e-39 349 297
0.037871998 0.72000003 -0.071956798 5.9862321e-39 350 297
0.039134402 0.72000003 -0.071956798 6.0784292e-39 351 297
0.040509012 0.722 -0.072156675 5.8958358e-39 352 297
0.041774917 0.722 -0.072156675 5.9880314e-39 353 297
0.043040827 0.722 -0.072156675 7.2784325e-39 354 297
0.044368099 0.72299999 -0.072256617 1.050528e-38 355 297
0.04563576 0.72299999 -0.072256617 1.1249703e-38 356 297
-0.0088245263 0.71899998 -0.073117502 1.6685967e-38 313 298
-0.0075428397 0.71700001 -0.072914116 1.3814911e-38 314 298
-0.0062857 0.71700001 -0.072914116 7.0846287e-39 315 298
-0.0050215465 0.71600002 -0.072812423 6.2624309e-39 316 298
-0.00376616 0.71600002 -0.072812423 7.3687784e-39 317 298
-0.0025107733 0.71600002 -0.072812423 5.8051031e-39 318 298
-0.0012553866 0.71600002 -0.072812423 8.9397545e-39 319 298
0 0.71399999 -0.072609037 1.1896515e-38 320 298
0.00125188 0.71399999 -0.072609037 1.1528092e-38 321 298
0.0025037599 0.71399999 -0.072609037 1.0794845e-38 322 298
0.0037503797 0.713 -0.072507344 9.0427682e-39 323 298
0.0050005065 0.713 -0.072507344 6.9121737e-39 324 298
0.0062506334 0.713 -0.072507344 4.6994786e-39 325 298
0.0075007593 0.713 -0.072507344 6.5365333e-39 326 298
0.0087263398 0.71100003 -0.072303966 6.5365333e-39 327 298
0.0099729598 0.71100003 -0.072303966 6.1699003e-39 328 298
0.011251139 0.713 -0.072507344 6.1699003e-39 329 298
0.012501267 0.713 -0.072507344 6.077346e-39 330 298
0.013751393 0.713 -0.072507344 5.8933148e-39 331 298
0.015001519 0.713 -0.072507344 5.801122e-39 332 298
0.016251646 0.713 -0.072507344 5.801122e-39 333 298
0.017501773 0.713 -0.072507344 5.8007661e-39 334 298
0.018751899 0.713 -0.072507344 5.8007661e-39 335 298
0.020002026 0.713 -0.072507344 5.801122e-39 336 298
0.021252153 0.713 -0.072507344 5.801122e-39 337 298
0.022502279 0.713 -0.072507344 5.8014849e-39 338 298
0.023752406 0.713 -0.072507344 5.8014849e-39 339 298
0.025037598 0.71399999 -0.072609037 5.8929645e-39 340 298
0.026289478 0.71399999 -0.072609037 5.8929645e-39 341 298
0.02754136 0.71399999 -0.072609037 6.0759138e-39 342 298
0.028793238 0.71399999 -0.072609037 6.0759138e-39 343 298
0.03012928 0.71600002 -0.072812423 5.9844315e-39 344 298
0.031384666 0.71600002 -0.072812423 5.9844315e-39 345 298
0.032685637 0.71700001 -0.072914116 5.8933148e-39 346 298
0.033942781 0.71700001 -0.072914116 5.8011192e-39 347 298
0.035298105 0.71899998 -0.073117502 5.8933176e-39 348 298
0.036558751 0.71899998 -0.073117502 6.1695444e-39 349 298
0.037871998 0.72000003 -0.073219202 5.9862321e-39 350 298
0.039134402 0.72000003 -0.073219202 5.9862321e-39 351 298
0.040509012 0.722 -0.073422581 6.0791508e-39 352 298
0.041774917 0.722 -0.073422581 6.1713465e-39 353 298
0.043040827 0.722 -0.073422581 7.6464948e-39 354 298
0.044306733 0.722 -0.073422581 1.0504561e-38 355 298
0.04563576 0.72299999 -0.073524274 1.0788723e-38 356 298
-0.0075428397 0.71700001 -0.07417126 1.686313e-38 314 299
-0.0062857 0.71700001 -0.07417126 9.1186975e-39 315 299
-0.0050215465 0.71600002 -0.074067809 6.534329e-39 316 299
-0.00376616 0.71600002 -0.074067809 7.4562867e-39 317 299
-0.0025107733 0.71600002 -0.074067809 5.6225041e-39 318 299
-0.0012553866 0.71600002 -0.074067809 8.9415482e-39 319 299
0 0.71600002 -0.074067809 1.1896871e-38 320 299
0.0012553866 0.71600002 -0.074067809 1.1804676e-38 321 299
0.0025107733 0.71600002 -0.074067809 1.1253665e-38 322 299
0.0037556398 0.71399999 -0.073860914 9.2253616e-39 323 299
0.0050075199 0.71399999 -0.073860914 6.7281454e-39 324 299
0.0062506334 0.713 -0.07375747 4.7923959e-39 325 299
0.0075007593 0.713 -0.07375747 6.5372549e-39 326 299
0.0087508867 0.713 -0.07375747 6.4450593e-39 327 299
0.010001013 0.713 -0.07375747 5.9869482e-39 328 299
0.011251139 0.713 -0.07375747 5.8947526e-39 329 299
0.012501267 0.713 -0.07375747 6.1691815e-39 330 299
0.01377068 0.71399999 -0.073860914 6.1691815e-39 331 299
0.015022559 0.71399999 -0.073860914 5.9844343e-39 332 299
0.016274439 0.71399999 -0.073860914 5.9844343e-39 333 299
0.017501773 0.713 -0.07375747 5.9844371e-39 334 299
0.018751899 0.713 -0.07375747 5.9844371e-39 335 299
0.020030079 0.71399999 -0.073860914 5.8007661e-39 336 299
0.021281958 0.71399999 -0.073860914 5.8007661e-39 337 299
0.022533838 0.71399999 -0.073860914 5.8014849e-39 338 299
0.02378572 0.71399999 -0.073860914 5.8014849e-39 339 299
0.025037598 0.71399999 -0.073860914 5.8933204e-39 340 299
0.026289478 0.71399999 -0.073860914 5.8933204e-39 341 299
0.027618507 0.71600002 -0.074067809 5.9844343e-39 342 299
0.028873893 0.71600002 -0.074067809 6.0766299e-39 343 299
0.03012928 0.71600002 -0.074067809 5.8933176e-39 344 299
0.031384666 0.71600002 -0.074067809 5.8933176e-39 345 299
0.032685637 0.71700001 -0.07417126 6.077346e-39 346 299
0.03403746 0.71899998 -0.074378148 5.8933148e-39 347 299
0.035347197 0.72000003 -0.074481606 5.9862293e-39 348 299
0.036609601 0.72000003 -0.074481606 5.9862293e-39 349 299
0.037871998 0.72000003 -0.074481606 5.9869552e-39 350 299
0.039243106 0.722 -0.074688487 5.9869552e-39 351 299
0.040509012 0.722 -0.074688487 5.8962043e-39 352 299
0.041774917 0.722 -0.074688487 6.3568237e-39 353 299
0.043040827 0.722 -0.074688487 7.7394135e-39 354 299
0.044306733 0.722 -0.074688487 1.0320891e-38 355 299
-0.0062857 0.71700001 -0.075428396 1.3549518e-38 315 300
-0.0050215465 0.71600002 -0.075323202 9.6690028e-39 316 300
-0.00376616 0.71600002 -0.075323202 5.8886219e-39 317 300
-0.0025107733 0.71600002 -0.075323202 5.3484185e-39 318 300
-0.0012553866 0.71600002 -0.075323202 9.1284393e-39 319 300
0 0.71600002 -0.075323202 1.1988711e-38 320 300
0.0012553866 0.71600002 -0.075323202 1.1712123e-38 321 300
0.0025107733 0.71600002 -0.075323202 1.1346584e-38 322 300
0.00376616 0.71600002 -0.075323202 9.1342477e-39 323 300
0.0050075199 0.71399999 -0.075112797 6.4519186e-39 324 300
0.0062593995 0.71399999 -0.075112797 4.7923959e-39 325 300
0.0075112795 0.71399999 -0.075112797 6.2610268e-39 326 300
0.0087631596 0.71399999 -0.075112797 6.4450593e-39 327 300
0.01001504 0.71399999 -0.075112797 5.9869524e-39 328 300
0.011266919 0.71399999 -0.075112797 5.9869524e-39 329 300
0.012518799 0.71399999 -0.075112797 5.8940365e-39 330 300
0.01377068 0.71399999 -0.075112797 5.8018409e-39 331 300
0.015022559 0.71399999 -0.075112797 5.9844371e-39 332 300
0.016274439 0.71399999 -0.075112797 5.9844371e-39 333 300
0.017526319 0.71399999 -0.075112797 5.9844371e-39 334 300
0.018778199 0.71399999 -0.075112797 5.9844371e-39 335 300
0.020030079 0.71399999 -0.075112797 5.8011192e-39 336 300
0.021281958 0.71399999 -0.075112797 5.8933148e-39 337 300
0.022533838 0.71399999 -0.075112797 5.8933148e-39 338 300
0.02378572 0.71399999 -0.075112797 5.8933148e-39 339 300
0.025037598 0.71399999 -0.075112797 5.8014849e-39 340 300
0.026289478 0.71399999 -0.075112797 5.8014849e-39 341 300
0.027618507 0.71600002 -0.075323202 5.8933204e-39 342 300
0.028873893 0.71600002 -0.075323202 5.8933204e-39 343 300
0.030171359 0.71700001 -0.075428396 5.8933176e-39 344 300
0.031428497 0.71700001 -0.075428396 5.8933176e-39 345 300
0.032776814 0.71899998 -0.075638793 5.8933204e-39 346 300
0.03403746 0.71899998 -0.075638793 6.1695472e-39 347 300
0.035347197 0.72000003 -0.075743996 5.9862349e-39 348 300
0.036609601 0.72000003 -0.075743996 6.078432e-39 349 300
0.0379772 0.722 -0.0759544 5.9869524e-39 350 300
0.039243106 0.722 -0.0759544 5.9869524e-39 351 300
0.040509012 0.722 -0.0759544 6.3546587e-39 352 300
0.041774917 0.722 -0.0759544 6.53905e-39 353 300
0.043040827 0.722 -0.0759544 7.558262e-39 354 300
0.044306733 0.722 -0.0759544 9.5865673e-39 355 300
-0.00376616 0.71600002 -0.076578587 7.8312433e-39 317 301
-0.0025037599 0.71399999 -0.076364681 7.1005251e-39 318 301
-0.00125188 0.71399999 -0.076364681 9.4057745e-39 319 301
0 0.71600002 -0.076578587 1.1345145e-38 320 301
0.0012553866 0.71600002 -0.076578587 1.1621373e-38 321 301
0.0025107733 0.71600002 -0.076578587 1.1438783e-38 322 301
0.00376616 0.71600002 -0.076578587 8.5807194e-39 323 301
0.0050215465 0.71600002 -0.076578587 5.9902174e-39 324 301
0.0062769335 0.71600002 -0.076578587 4.7916742e-39 325 301
0.00753232 0.71600002 -0.076578587 6.537608e-39 326 301
0.0087877065 0.71600002 -0.076578587 6.537608e-39 327 301
0.010043093 0.71600002 -0.076578587 6.0787809e-39 328 301
0.01129848 0.71600002 -0.076578587 5.9865853e-39 329 301
0.012553867 0.71600002 -0.076578587 6.077346e-39 330 301
0.013809253 0.71600002 -0.076578587 5.8933148e-39 331 301
0.01506464 0.71600002 -0.076578587 5.8933176e-39 332 301
0.016320027 0.71600002 -0.076578587 5.8933176e-39 333 301
0.017575413 0.71600002 -0.076578587 5.801122e-39 334 301
0.0188308 0.71600002 -0.076578587 5.801122e-39 335 301
0.020086186 0.71600002 -0.076578587 5.801122e-39 336 301
0.021281958 0.71399999 -0.076364681 5.8933176e-39 337 301
0.022533838 0.71399999 -0.076364681 5.7096452e-39 338 301
0.02378572 0.71399999 -0.076364681 5.8018409e-39 339 301
0.025037598 0.71399999 -0.076364681 5.8014849e-39 340 301
0.026363119 0.71600002 -0.076578587 5.8014849e-39 341 301
0.027657079 0.71700001 -0.076685533 5.8933176e-39 342 301
0.028914221 0.71700001 -0.076685533 5.801122e-39 343 301
0.030255521 0.71899998 -0.076899439 5.8933176e-39 344 301
0.031516165 0.71899998 -0.076899439 5.8933176e-39 345 301
0.0328224 0.72000003 -0.0770064 5.8014849e-39 346 301
0.034084801 0.72000003 -0.0770064 5.8940393e-39 347 301
0.035347197 0.72000003 -0.0770064 5.8944022e-39 348 301
0.036609601 0.72000003 -0.0770064 5.8944022e-39 349 301
0.0379772 0.722 -0.077220306 5.9858818e-39 350 301
0.039243106 0.722 -0.077220306 5.9858818e-39 351 301
0.040396802 0.72000003 -0.0770064 5.4359478e-39 352 301
0.041659199 0.72000003 -0.0770064 7.0032749e-39 353 301
0.042921603 0.72000003 -0.0770064 7.4703852e-39 354 301
0.044183999 0.72000003 -0.0770064 8.9455167e-39 355 301
-0.0025037599 0.71399999 -0.07761655 1.1340451e-38 318 302
-0.00125188 0.71399999 -0.07761655 1.0879472e-38 319 302
0 0.71399999 -0.07761655 1.0516828e-38 320 302
0.00125188 0.71399999 -0.07761655 1.0977804e-38 321 302
0.0025107733 0.71600002 -0.077833973 1.1622455e-38 322 302
0.0037714199 0.71700001 -0.077942684 8.119021e-39 323 302
0.0050285598 0.71700001 -0.077942684 5.2533783e-39 324 302
0.0062769335 0.71600002 -0.077833973 4.9764326e-39 325 302
0.00753232 0.71600002 -0.077833973 6.2617442e-39 326 302
0.0087877065 0.71600002 -0.077833973 6.3539399e-39 327 302
0.010043093 0.71600002 -0.077833973 6.2620932e-39 328 302
0.01129848 0.71600002 -0.077833973 6.1698975e-39 329 302
0.012553867 0.71600002 -0.077833973 6.077346e-39 330 302
0.013809253 0.71600002 -0.077833973 5.8933148e-39 331 302
0.01506464 0.71600002 -0.077833973 5.8933176e-39 332 302
0.016320027 0.71600002 -0.077833973 5.8933176e-39 333 302
0.017575413 0.71600002 -0.077833973 5.8933176e-39 334 302
0.0188308 0.71600002 -0.077833973 5.801122e-39 335 302
0.020086186 0.71600002 -0.077833973 5.8011192e-39 336 302
0.021341572 0.71600002 -0.077833973 5.8011192e-39 337 302
0.022596961 0.71600002 -0.077833973 5.8936708e-39 338 302
0.023852346 0.71600002 -0.077833973 5.8936708e-39 339 302
0.025107734 0.71600002 -0.077833973 5.8018409e-39 340 302
0.02639994 0.71700001 -0.077942684 5.8018409e-39 341 302
0.027657079 0.71700001 -0.077942684 5.8018409e-39 342 302
0.028994869 0.71899998 -0.078160092 5.8018409e-39 343 302
0.030255521 0.71899998 -0.078160092 5.8933148e-39 344 302
0.031516165 0.71899998 -0.078160092 5.8933148e-39 345 302
0.0328224 0.72000003 -0.078268804 5.8940365e-39 346 302
0.034084801 0.72000003 -0.078268804 5.8940365e-39 347 302
0.035347197 0.72000003 -0.078268804 5.8944022e-39 348 302
0.036609601 0.72000003 -0.078268804 5.8944022e-39 349 302
0.0379772 0.722 -0.078486212 5.8944022e-39 350 302
0.039243106 0.722 -0.078486212 5.4334255e-39 351 302
0.040396802 0.72000003 -0.078268804 5.3433991e-39 352 302
0.041659199 0.72000003 -0.078268804 8.201465e-39 353 302
0.042921603 0.72000003 -0.078268804 7.8413369e-39 354 302
0.044183999 0.72000003 -0.078268804 8.8554874e-39 355 302
-0.00125188 0.71399999 -0.078868434 1.1063868e-38 319 303
0 0.71399999 -0.078868434 1.0238439e-38 320 303
0.00125188 0.71399999 -0.078868434 1.0515384e-38 321 303
0.0025107733 0.71600002 -0.079089358 1.0976004e-38 322 303
0.0037714199 0.71700001 -0.079199821 7.1037873e-39 323 303
0.0050285598 0.71700001 -0.079199821 5.0661129e-39 324 303
0.0062857 0.71700001 -0.079199821 5.5270911e-39 325 303
0.0075428397 0.71700001 -0.079199821 6.261747e-39 326 303
0.0087999795 0.71700001 -0.079199821 6.261747e-39 327 303
0.01005712 0.71700001 -0.079199821 6.2613743e-39 328 303
0.01131426 0.71700001 -0.079199821 6.1691787e-39 329 303
0.0125714 0.71700001 -0.079199821 6.1691815e-39 330 303
0.013828539 0.71700001 -0.079199821 6.1691815e-39 331 303
0.015085679 0.71700001 -0.079199821 6.077346e-39 332 303
0.016342819 0.71700001 -0.079199821 6.077346e-39 333 303
0.017599959 0.71700001 -0.079199821 5.8933148e-39 334 303
0.0188308 0.71600002 -0.079089358 5.8933148e-39 335 303
0.020086186 0.71600002 -0.079089358 5.9844343e-39 336 303
0.021371379 0.71700001 -0.079199821 5.8922386e-39 337 303
0.02262852 0.71700001 -0.079199821 5.9844343e-39 338 303
0.02388566 0.71700001 -0.079199821 6.0766299e-39 339 303
0.0251428 0.71700001 -0.079199821 5.8933176e-39 340 303
0.02647358 0.71899998 -0.07942073 5.8933176e-39 341 303
0.027734226 0.71899998 -0.07942073 5.8933176e-39 342 303
0.028994869 0.71899998 -0.07942073 6.0773488e-39 343 303
0.030255521 0.71899998 -0.07942073 5.8933148e-39 344 303
0.03156 0.72000003 -0.0795312 5.8933148e-39 345 303
0.0328224 0.72000003 -0.0795312 5.8933204e-39 346 303
0.034084801 0.72000003 -0.0795312 6.0773516e-39 347 303
0.035445385 0.722 -0.079752117 6.0770012e-39 348 303
0.03671129 0.722 -0.079752117 5.8926114e-39 349 303
0.0379772 0.722 -0.079752117 5.3419585e-39 350 303
0.039243106 0.722 -0.079752117 5.9873279e-39 351 303
0.040509012 0.722 -0.079752117 5.9001826e-39 352 303
0.041774917 0.722 -0.079752117 8.6664116e-39 353 303
0.043040827 0.722 -0.079752117 8.5774726e-39 354 303
0 0.71399999 -0.080120318 1.0235908e-38 320 304
0.00125188 0.71399999 -0.080120318 9.9589609e-39 321 304
0.0025107733 0.71600002 -0.080344744 9.222828e-39 322 304
0.0037819401 0.71899998 -0.080681384 5.9037853e-39 323 304
0.0050425865 0.71899998 -0.080681384 4.8806231e-39 324 304
0.0063032326 0.71899998 -0.080681384 5.6181881e-39 325 304
0.0075638802 0.71899998 -0.080681384 6.4450565e-39 326 304
0.0088245263 0.71899998 -0.080681384 6.261024e-39 327 304
0.010085173 0.71899998 -0.080681384 6.3524937e-39 328 304
0.01134582 0.71899998 -0.080681384 6.3524937e-39 329 304
0.012606465 0.71899998 -0.080681384 6.077346e-39 330 304
0.013867113 0.71899998 -0.080681384 6.077346e-39 331 304
0.01512776 0.71899998 -0.080681384 6.077346e-39 332 304
0.016388407 0.71899998 -0.080681384 6.077346e-39 333 304
0.017599959 0.71700001 -0.080456957 6.077346e-39 334 304
0.018857099 0.71700001 -0.080456957 6.077346e-39 335 304
0.020114239 0.71700001 -0.080456957 6.1688255e-39 336 304
0.021371379 0.71700001 -0.080456957 6.0766299e-39 337 304
0.02262852 0.71700001 -0.080456957 5.8933176e-39 338 304
0.02388566 0.71700001 -0.080456957 5.8933176e-39 339 304
