# .PCD v.7 - Point Cloud Data file format
FIELDS x y z rgb imX imY
SIZE 4 4 4 4 4 4
TYPE F F F F F F
COUNT 1 1 1 1 1 1
WIDTH 854
HEIGHT 1
VIEWPOINT 0 0 0 1 0 0 0
POINTS 854
DATA ascii
0.023385961 0.741 0.025984399 1.628945e-38 338 220
0.024718491 0.74199998 0.026019465 1.4537373e-38 339 220
0.026019465 0.74199998 0.026019465 1.11294e-38 340 220
0.027320439 0.74199998 0.026019465 7.7185215e-39 341 220
0.028775707 0.74599999 0.026159734 3.1411352e-39 342 220
0.030325651 0.75199997 0.02637013 8.7654274e-39 343 220
0.03172832 0.75400001 0.026440267 1.5279278e-38 344 220
0.033050332 0.75400001 0.026440267 1.4818301e-38 345 220
0.034417931 0.755 0.026475333 1.57352e-38 346 220
0.036025736 0.76099998 0.026685731 1.57352e-38 347 220
0.037409119 0.76200002 0.0267208 1.5369292e-38 348 220
0.038745161 0.76200002 0.0267208 1.518454e-38 349 220
0.040081199 0.76200002 0.0267208 1.4447002e-38 350 220
0.041525945 0.764 0.026790932 1.5921772e-38 351 220
0.042865492 0.764 0.026790932 1.4376795e-38 352 220
0.04420504 0.764 0.026790932 2.0738294e-38 353 220
-0.064434998 0.75 0.024984999 1.9549104e-38 271 221
-0.06312 0.75 0.024984999 2.0009005e-38 272 221
-0.061804999 0.75 0.024984999 1.6229343e-38 273 221
-0.060409348 0.74900001 0.024951685 1.4928837e-38 274 221
-0.059096102 0.74900001 0.024951685 1.0964425e-38 275 221
-0.057628557 0.74699998 0.024885058 1.7480764e-38 276 221
-0.056243423 0.74599999 0.024851745 1.8126133e-38 277 221
-0.054935437 0.74599999 0.024851745 1.8124708e-38 278 221
-0.05348368 0.74400002 0.02478512 1.8401294e-38 279 221
-0.052179199 0.74400002 0.02478512 1.8400941e-38 280 221
-0.050737958 0.74199998 0.024718491 1.8585333e-38 281 221
-0.049436983 0.74199998 0.024718491 1.8586049e-38 282 221
-0.048071139 0.741 0.024685178 1.8770799e-38 283 221
-0.046771921 0.741 0.024685178 1.8864797e-38 284 221
-0.045472696 0.741 0.024685178 1.9141024e-38 285 221
-0.044173479 0.741 0.024685178 1.9233222e-38 286 221
-0.042758539 0.73900002 0.024618553 1.9233222e-38 287 221
-0.041406717 0.73799998 0.024585238 1.9508367e-38 288 221
-0.040004052 0.736 0.024518613 1.9508367e-38 289 221
-0.038713597 0.736 0.024518613 1.9325049e-38 290 221
-0.037423145 0.736 0.024518613 1.950908e-38 291 221
-0.036034506 0.73400003 0.024451986 1.9325052e-38 292 221
-0.03474756 0.73400003 0.024451986 1.9232856e-38 293 221
-0.033460613 0.73400003 0.024451986 1.9416169e-38 294 221
-0.032173667 0.73400003 0.024451986 1.9323973e-38 295 221
-0.030886721 0.73400003 0.024451986 1.9231409e-38 296 221
-0.029599773 0.73400003 0.024451986 1.94158e-38 297 221
-0.028274251 0.73299998 0.024418673 1.9417968e-38 298 221
-0.026989058 0.73299998 0.024418673 1.6191121e-38 299 221
-0.025703866 0.73299998 0.024418673 1.0673444e-38 300 221
-0.024418673 0.73299998 0.024418673 5.1427878e-39 301 221
-0.021758866 0.73000002 0.024318734 6.0755313e-39 303 221
-0.020478934 0.73000002 0.024318734 1.4815022e-38 304 221
-0.019199001 0.73000002 0.024318734 1.8410293e-38 305 221
-0.017869972 0.72799999 0.024252106 1.9048106e-38 306 221
-0.016593546 0.72799999 0.024252106 1.9232856e-38 307 221
-0.01531712 0.72799999 0.024252106 1.9417615e-38 308 221
-0.014040692 0.72799999 0.024252106 1.9602006e-38 309 221
-0.012764266 0.72799999 0.024252106 1.951233e-38 310 221
-0.01148784 0.72799999 0.024252106 1.9604527e-38 311 221
-0.010211413 0.72799999 0.024252106 1.9788558e-38 312 221
-0.0089349858 0.72799999 0.024252106 1.9880754e-38 313 221
-0.0076585598 0.72799999 0.024252106 1.9971858e-38 314 221
-0.0063821329 0.72799999 0.024252106 1.969563e-38 315 221
-0.0051057064 0.72799999 0.024252106 1.9602712e-38 316 221
-0.0038292799 0.72799999 0.024252106 1.923357e-38 317 221
-0.0025528532 0.72799999 0.024252106 1.9047738e-38 318 221
-0.0012764266 0.72799999 0.024252106 1.8678954e-38 319 221
0 0.72799999 0.024252106 1.8492039e-38 320 221
0.0012764266 0.72799999 0.024252106 1.8308008e-38 321 221
0.0025528532 0.72799999 0.024252106 1.8216531e-38 322 221
0.0038292799 0.72799999 0.024252106 1.7940303e-38 323 221
0.0051057064 0.72799999 0.024252106 1.7847749e-38 324 221
0.0063821329 0.72799999 0.024252106 1.7755553e-38 325 221
0.0076585598 0.72799999 0.024252106 1.7848473e-38 326 221
0.0089349858 0.72799999 0.024252106 1.8125061e-38 327 221
0.010239467 0.73000002 0.024318734 1.5270607e-38 328 221
0.011519399 0.73000002 0.024318734 8.4488656e-39 329 221
0.012799333 0.73000002 0.024318734 3.4911866e-39 330 221
0.01554856 0.73900002 0.024618553 1.3442576e-38 332 221
0.016844273 0.73900002 0.024618553 1.5009901e-38 333 221
0.018139986 0.73900002 0.024618553 1.6472412e-38 334 221
0.0194357 0.73900002 0.024618553 1.6380216e-38 335 221
0.020731414 0.73900002 0.024618553 1.6287648e-38 336 221
0.02208674 0.741 0.024685178 1.6103257e-38 337 221
0.023385961 0.741 0.024685178 1.6012859e-38 338 221
0.024718491 0.74199998 0.024718491 1.536749e-38 339 221
0.026019465 0.74199998 0.024718491 1.3522171e-38 340 221
0.027320439 0.74199998 0.024718491 8.7279973e-39 341 221
0.028775707 0.74599999 0.024851745 2.4910925e-39 342 221
0.030124018 0.74699998 0.024885058 8.0231904e-39 343 221
0.03172832 0.75400001 0.025118252 1.3716639e-38 344 221
0.033050332 0.75400001 0.025118252 1.3808835e-38 345 221
0.034691449 0.76099998 0.025351444 1.518419e-38 346 221
0.036025736 0.76099998 0.025351444 1.5276387e-38 347 221
0.037360024 0.76099998 0.025351444 1.5001231e-38 348 221
0.038694311 0.76099998 0.025351444 1.5001231e-38 349 221
0.040028598 0.76099998 0.025351444 1.463354e-38 350 221
0.041417241 0.76200002 0.02538476 1.4725735e-38 351 221
0.042753279 0.76200002 0.02538476 1.2990624e-38 352 221
0.04420504 0.764 0.025451386 1.8891144e-38 353 221
0.045544583 0.764 0.025451386 1.8260909e-38 354 221
0.046884131 0.764 0.025451386 1.8353106e-38 355 221
-0.064434998 0.75 0.023669999 1.9733497e-38 271 222
-0.06312 0.75 0.023669999 2.0008286e-38 272 222
-0.061804999 0.75 0.023669999 1.4753135e-38 273 222
-0.060409348 0.74900001 0.02363844 1.372346e-38 274 222
-0.059096102 0.74900001 0.02363844 1.2248329e-38 275 222
-0.057628557 0.74699998 0.023575317 1.7573678e-38 276 222
-0.056243423 0.74599999 0.023543758 1.7758071e-38 277 222
-0.054935437 0.74599999 0.023543758 1.8216178e-38 278 222
-0.05348368 0.74400002 0.023480639 1.8308374e-38 279 222
-0.05203893 0.74199998 0.023417519 1.8491689e-38 280 222
-0.050737958 0.74199998 0.023417519 1.867608e-38 281 222
-0.049436983 0.74199998 0.023417519 1.8402369e-38 282 222
-0.048071139 0.741 0.023385961 1.8586758e-38 283 222
-0.046771921 0.741 0.023385961 1.8771152e-38 284 222
-0.045349967 0.73900002 0.023322839 1.8863348e-38 285 222
-0.044054255 0.73900002 0.023322839 1.9231419e-38 286 222
-0.042700678 0.73799998 0.023291279 1.9231419e-38 287 222
-0.041406717 0.73799998 0.023291279 1.9323973e-38 288 222
-0.040004052 0.736 0.023228159 1.9231419e-38 289 222
-0.038713597 0.736 0.023228159 1.9231772e-38 290 222
-0.037423145 0.736 0.023228159 1.9047741e-38 291 222
-0.036034506 0.73400003 0.023165042 1.9414368e-38 292 222
-0.03474756 0.73400003 0.023165042 1.9414368e-38 293 222
-0.033460613 0.73400003 0.023165042 1.9231056e-38 294 222
-0.032173667 0.73400003 0.023165042 1.9138859e-38 295 222
-0.030886721 0.73400003 0.023165042 1.922961e-38 296 222
-0.029599773 0.73400003 0.023165042 1.9506198e-38 297 222
-0.028312827 0.73400003 0.023165042 1.9234668e-38 298 222
-0.02702588 0.73400003 0.023165042 1.4717082e-38 299 222
-0.025738932 0.73400003 0.023165042 7.4512855e-39 300 222
-0.024451986 0.73400003 0.023165042 4.1326015e-39 301 222
-0.021758866 0.73000002 0.023038799 8.6537733e-39 303 222
-0.020478934 0.73000002 0.023038799 1.6472022e-38 304 222
-0.019199001 0.73000002 0.023038799 1.8684719e-38 305 222
-0.017869972 0.72799999 0.022975679 1.8955546e-38 306 222
-0.016593546 0.72799999 0.022975679 1.9231775e-38 307 222
-0.01531712 0.72799999 0.022975679 1.9141027e-38 308 222
-0.014040692 0.72799999 0.022975679 1.9141027e-38 309 222
-0.012764266 0.72799999 0.022975679 1.9325421e-38 310 222
-0.01148784 0.72799999 0.022975679 1.978604e-38 311 222
-0.010211413 0.72799999 0.022975679 1.9327939e-38 312 222
-0.0089349858 0.72799999 0.022975679 1.9235743e-38 313 222
-0.0076585598 0.72799999 0.022975679 1.950981e-38 314 222
-0.0063821329 0.72799999 0.022975679 1.9325418e-38 315 222
-0.0051057064 0.72799999 0.022975679 1.9232854e-38 316 222
-0.0038397999 0.73000002 0.023038799 1.8863711e-38 317 222
-0.0025528532 0.72799999 0.022975679 1.8768996e-38 318 222
-0.0012764266 0.72799999 0.022975679 1.8492768e-38 319 222
0 0.72799999 0.022975679 1.8216178e-38 320 222
0.0012764266 0.72799999 0.022975679 1.8123982e-38 321 222
0.0025528532 0.72799999 0.022975679 1.7939594e-38 322 222
0.0038292799 0.72799999 0.022975679 1.7755203e-38 323 222
0.0051057064 0.72799999 0.022975679 1.7845966e-38 324 222
0.0063821329 0.72799999 0.022975679 1.7661935e-38 325 222
0.0076585598 0.72799999 0.022975679 1.7570105e-38 326 222
0.0089349858 0.72799999 0.022975679 1.830767e-38 327 222
0.010211413 0.72799999 0.022975679 1.63766e-38 328 222
0.01148784 0.72799999 0.022975679 1.0568275e-38 329 222
0.012764266 0.72799999 0.022975679 4.5917748e-39 330 222
0.01554856 0.73900002 0.023322839 1.1877765e-38 332 222
0.016844273 0.73900002 0.023322839 1.4459242e-38 333 222
0.018139986 0.73900002 0.023322839 1.6287663e-38 334 222
0.0194357 0.73900002 0.023322839 1.6287663e-38 335 222
0.020731414 0.73900002 0.023322839 1.6195818e-38 336 222
0.02208674 0.741 0.023385961 1.5919591e-38 337 222
0.023385961 0.741 0.023385961 1.57352e-38 338 222
0.024718491 0.74199998 0.023417519 1.5919591e-38 339 222
0.026019465 0.74199998 0.023417519 1.5456468e-38 340 222
0.027320439 0.74199998 0.023417519 9.9243699e-39 341 222
0.02869856 0.74400002 0.023480639 3.4051244e-39 342 222
0.030124018 0.74699998 0.023575317 7.2773409e-39 343 222
0.031644158 0.75199997 0.023733119 1.2245108e-38 344 222
0.032962665 0.75199997 0.023733119 1.3258901e-38 345 222
0.034509107 0.75700003 0.02389092 1.5091997e-38 346 222
0.03583638 0.75700003 0.02389092 1.5091997e-38 347 222
0.03726184 0.759 0.023954039 1.5091994e-38 348 222
0.038694311 0.76099998 0.024017159 1.518419e-38 349 222
0.040028598 0.76099998 0.024017159 1.4726103e-38 350 222
0.041417241 0.76200002 0.02404872 1.4633906e-38 351 222
0.042753279 0.76200002 0.02404872 1.2523879e-38 352 222
0.04420504 0.764 0.024111839 1.6580487e-38 353 222
0.045544583 0.764 0.024111839 1.6416623e-38 354 222
0.047006864 0.76599997 0.024174958 1.862932e-38 355 222
0.048413042 0.76700002 0.024206521 1.8904462e-38 356 222
-0.064434998 0.75 0.022355 1.9733497e-38 271 223
-0.06312 0.75 0.022355 1.9640934e-38 272 223
-0.061804999 0.75 0.022355 1.2725903e-38 273 223
-0.060409348 0.74900001 0.022325192 1.4632821e-38 274 223
-0.059096102 0.74900001 0.022325192 1.4909048e-38 275 223
-0.057628557 0.74699998 0.022265578 1.7391086e-38 276 223
-0.056243423 0.74599999 0.022235774 1.7391086e-38 277 223
-0.054788161 0.74400002 0.022176161 1.7757358e-38 278 223
-0.05348368 0.74400002 0.022176161 1.7941389e-38 279 223
-0.05203893 0.74199998 0.022116546 1.8215825e-38 280 223
-0.050737958 0.74199998 0.022116546 1.830802e-38 281 223
-0.049370356 0.741 0.02208674 1.8216904e-38 282 223
-0.048071139 0.741 0.02208674 1.8401294e-38 283 223
-0.046771921 0.741 0.02208674 1.8585684e-38 284 223
-0.045349967 0.73900002 0.022027127 1.8585684e-38 285 223
-0.044054255 0.73900002 0.022027127 1.9045944e-38 286 223
-0.042700678 0.73799998 0.021997318 1.895339e-38 287 223
-0.041294504 0.736 0.021937706 1.8862995e-38 288 223
-0.040004052 0.736 0.021937706 1.8770799e-38 289 223
-0.038713597 0.736 0.021937706 1.8862629e-38 290 223
-0.037321456 0.73400003 0.021878093 1.8862629e-38 291 223
-0.036034506 0.73400003 0.021878093 1.9045944e-38 292 223
-0.03474756 0.73400003 0.021878093 1.9045944e-38 293 223
-0.033460613 0.73400003 0.021878093 1.8953393e-38 294 223
-0.032173667 0.73400003 0.021878093 1.8861197e-38 295 223
-0.030886721 0.73400003 0.021878093 1.8860831e-38 296 223
-0.029599773 0.73400003 0.021878093 1.9045223e-38 297 223
-0.028274251 0.73299998 0.021848286 1.849927e-38 298 223
-0.026989058 0.73299998 0.021848286 1.2598749e-38 299 223
-0.025738932 0.73400003 0.021878093 2.1169024e-39 300 223
-0.024451986 0.73400003 0.021878093 1.1953062e-39 301 223
-0.02307036 0.73100001 0.021788673 4.7804793e-39 302 223
-0.021699252 0.72799999 0.021699252 1.0220023e-38 303 223
-0.020422826 0.72799999 0.021699252 1.6931203e-38 304 223
-0.0191464 0.72799999 0.021699252 1.8590724e-38 305 223
-0.017869972 0.72799999 0.021699252 1.8862276e-38 306 223
-0.016593546 0.72799999 0.021699252 1.9046307e-38 307 223
-0.01531712 0.72799999 0.021699252 1.8862645e-38 308 223
-0.014040692 0.72799999 0.021699252 1.9047037e-38 309 223
-0.012764266 0.72799999 0.021699252 1.8864444e-38 310 223
-0.01148784 0.72799999 0.021699252 1.895664e-38 311 223
-0.010211413 0.72799999 0.021699252 1.9140671e-38 312 223
-0.0089349858 0.72799999 0.021699252 1.9232866e-38 313 223
-0.0076585598 0.72799999 0.021699252 1.904991e-38 314 223
-0.0063821329 0.72799999 0.021699252 1.8957356e-38 315 223
-0.0051057064 0.72799999 0.021699252 1.8955911e-38 316 223
-0.0038397999 0.73000002 0.021758866 1.8494933e-38 317 223
-0.0025528532 0.72799999 0.021699252 1.849277e-38 318 223
-0.0012764266 0.72799999 0.021699252 1.830802e-38 319 223
0 0.72799999 0.021699252 1.8216181e-38 320 223
0.0012764266 0.72799999 0.021699252 1.7939594e-38 321 223
0.0025528532 0.72799999 0.021699252 1.7847401e-38 322 223
0.0038292799 0.72799999 0.021699252 1.7662651e-38 323 223
0.0051057064 0.72799999 0.021699252 1.7570461e-38 324 223
0.0063821329 0.72799999 0.021699252 1.7477907e-38 325 223
0.0076585598 0.72799999 0.021699252 1.7477912e-38 326 223
0.0089349858 0.72799999 0.021699252 1.7662304e-38 327 223
0.010211413 0.72799999 0.021699252 1.6378036e-38 328 223
0.01148784 0.72799999 0.021699252 1.2782046e-38 329 223
0.012764266 0.72799999 0.021699252 7.4415619e-39 330 223
0.014021406 0.727 0.021669446 4.8672813e-39 331 223
0.016844273 0.73900002 0.022027127 1.399934e-38 333 223
0.018139986 0.73900002 0.022027127 1.5922475e-38 334 223
0.0194357 0.73900002 0.022027127 1.5554051e-38 335 223
0.020731414 0.73900002 0.022027127 1.5920307e-38 336 223
0.022027127 0.73900002 0.022027127 1.5644081e-38 337 223
0.023322839 0.73900002 0.022027127 1.5551888e-38 338 223
0.024718491 0.74199998 0.022116546 1.5644083e-38 339 223
0.026019465 0.74199998 0.022116546 1.5367858e-38 340 223
0.027320439 0.74199998 0.022116546 1.1587839e-38 341 223
0.02869856 0.74400002 0.022176161 7.354062e-39 342 223
0.030124018 0.74699998 0.022265578 7.6310076e-39 343 223
0.03156 0.75 0.022355 1.0221483e-38 344 223
0.033050332 0.75400001 0.022474226 1.2526734e-38 345 223
0.034372345 0.75400001 0.022474226 1.4815414e-38 346 223
0.03583638 0.75700003 0.022563647 1.4815414e-38 347 223
0.03726184 0.759 0.02262326 1.4999801e-38 348 223
0.038694311 0.76099998 0.022682872 1.5091997e-38 349 223
0.040028598 0.76099998 0.022682872 1.4634983e-38 350 223
0.041525945 0.764 0.022772292 1.4634983e-38 351 223
0.042865492 0.764 0.022772292 1.3715216e-38 352 223
0.04420504 0.764 0.022772292 1.5466933e-38 353 223
0.045663811 0.76599997 0.022831906 1.5951677e-38 354 223
0.047006864 0.76599997 0.022831906 1.9823893e-38 355 223
0.048413042 0.76700002 0.022861714 1.9180689e-38 356 223
0.049757849 0.76700002 0.022861714 1.8812267e-38 357 223
-0.064434998 0.75 0.02104 1.9732774e-38 271 224
-0.06312 0.75 0.02104 1.8813322e-38 272 224
-0.061804999 0.75 0.02104 1.0976693e-38 273 224
-0.060409348 0.74900001 0.021011947 1.5914556e-38 274 224
-0.059096102 0.74900001 0.021011947 1.6836153e-38 275 224
-0.057628557 0.74699998 0.020955838 1.7665871e-38 276 224
-0.056243423 0.74599999 0.020927785 1.7665871e-38 277 224
-0.054788161 0.74400002 0.02087168 1.7665525e-38 278 224
-0.053339902 0.74199998 0.020815572 1.7757721e-38 279 224
-0.05203893 0.74199998 0.020815572 1.794032e-38 280 224
-0.050737958 0.74199998 0.020815572 1.8124711e-38 281 224
-0.049370356 0.741 0.020787518 1.8033231e-38 282 224
-0.048071139 0.741 0.020787518 1.8125427e-38 283 224
-0.046771921 0.741 0.020787518 1.8217623e-38 284 224
-0.045349967 0.73900002 0.020731414 1.8125427e-38 285 224
-0.043994635 0.73799998 0.020703359 1.8493136e-38 286 224
-0.042700678 0.73799998 0.020703359 1.8493136e-38 287 224
-0.041294504 0.736 0.020647252 1.8677529e-38 288 224
-0.040004052 0.736 0.020647252 1.8585333e-38 289 224
-0.038608398 0.73400003 0.020591147 1.8585689e-38 290 224
-0.037321456 0.73400003 0.020591147 1.8585689e-38 291 224
-0.036034506 0.73400003 0.020591147 1.8585689e-38 292 224
-0.03474756 0.73400003 0.020591147 1.8585689e-38 293 224
-0.033460613 0.73400003 0.020591147 1.8768646e-38 294 224
-0.032129832 0.73299998 0.020563092 1.8584613e-38 295 224
-0.030844638 0.73299998 0.020563092 1.8492415e-38 296 224
-0.029559445 0.73299998 0.020563092 1.8769001e-38 297 224
-0.028274251 0.73299998 0.020563092 1.7211778e-38 298 224
-0.026989058 0.73299998 0.020563092 1.0204551e-38 299 224
-0.025703866 0.73299998 0.020563092 1.4012985e-45 300 224
-0.024352046 0.73100001 0.020506985 3.6027384e-42 301 224
-0.02307036 0.73100001 0.020506985 5.6084393e-39 302 224
-0.021699252 0.72799999 0.020422826 1.1878102e-38 303 224
-0.020422826 0.72799999 0.020422826 1.7482932e-38 304 224
-0.0191464 0.72799999 0.020422826 1.8220497e-38 305 224
-0.017869972 0.72799999 0.020422826 1.8585333e-38 306 224
-0.016593546 0.72799999 0.020422826 1.8769725e-38 307 224
-0.01531712 0.72799999 0.020422826 1.8677897e-38 308 224
-0.014040692 0.72799999 0.020422826 1.8770093e-38 309 224
-0.012764266 0.72799999 0.020422826 1.8678979e-38 310 224
-0.01148784 0.72799999 0.020422826 1.8678979e-38 311 224
-0.010211413 0.72799999 0.020422826 1.8955563e-38 312 224
-0.0089349858 0.72799999 0.020422826 1.9047759e-38 313 224
-0.0076585598 0.72799999 0.020422826 1.8865513e-38 314 224
-0.0063996664 0.73000002 0.020478934 1.8681122e-38 315 224
-0.0051197335 0.73000002 0.020478934 1.8680036e-38 316 224
-0.0038292799 0.72799999 0.020422826 1.8310895e-38 317 224
-0.0025493465 0.727 0.020394772 1.8401288e-38 318 224
-0.0012746733 0.727 0.020394772 1.8032866e-38 319 224
0 0.727 0.020394772 1.812398e-38 320 224
0.0012746733 0.727 0.020394772 1.7847751e-38 321 224
0.0025493465 0.727 0.020394772 1.7571888e-38 322 224
0.0038240198 0.727 0.020394772 1.7479692e-38 323 224
0.0050986931 0.727 0.020394772 1.7570811e-38 324 224
0.0063733663 0.727 0.020394772 1.7478616e-38 325 224
0.0076480396 0.727 0.020394772 1.7295301e-38 326 224
0.0089227129 0.727 0.020394772 1.7295301e-38 327 224
0.010197386 0.727 0.020394772 1.6561696e-38 328 224
0.01147206 0.727 0.020394772 1.4718142e-38 329 224
0.012746733 0.727 0.020394772 9.5563104e-39 330 224
0.014021406 0.727 0.020394772 4.9591168e-39 331 224
0.01531712 0.72799999 0.020422826 8.9300281e-39 332 224
0.016844273 0.73900002 0.020731414 1.3355418e-38 333 224
0.018139986 0.73900002 0.020731414 1.564697e-38 334 224
0.0194357 0.73900002 0.020731414 1.5278188e-38 335 224
0.020731414 0.73900002 0.020731414 1.5828112e-38 336 224
0.022027127 0.73900002 0.020731414 1.5551885e-38 337 224
0.023322839 0.73900002 0.020731414 1.5459685e-38 338 224
0.024718491 0.74199998 0.020815572 1.5275294e-38 339 224
0.026089599 0.74400002 0.02087168 1.5367492e-38 340 224
0.027394081 0.74400002 0.02087168 1.3339188e-38 341 224
0.028775707 0.74599999 0.020927785 9.9305062e-39 342 224
0.030204674 0.74900001 0.021011947 6.7958547e-39 343 224
0.03156 0.75 0.02104 9.0204287e-39 344 224
0.033050332 0.75400001 0.021152213 1.2892645e-38 345 224
0.034372345 0.75400001 0.021152213 1.4631386e-38 346 224
0.035741698 0.755 0.021180267 1.4816136e-38 347 224
0.03726184 0.759 0.02129248 1.4632821e-38 348 224
0.038592618 0.759 0.02129248 1.4816852e-38 349 224
0.040028598 0.76099998 0.021348584 1.4542788e-38 350 224
0.041525945 0.764 0.021432746 1.4727538e-38 351 224
0.042977702 0.76599997 0.021488851 1.39918e-38 352 224
0.044320758 0.76599997 0.021488851 1.500631e-38 353 224
0.045663811 0.76599997 0.021488851 1.631722e-38 354 224
0.047068235 0.76700002 0.021516906 2.0373827e-38 355 224
0.048413042 0.76700002 0.021516906 1.8996661e-38 356 224
0.049757849 0.76700002 0.021516906 1.8812269e-38 357 224
-0.063035838 0.74900001 0.0196987 1.7430382e-38 272 225
-0.061722592 0.74900001 0.0196987 9.7785045e-39 273 225
-0.060409348 0.74900001 0.0196987 1.7477556e-38 274 225
-0.059096102 0.74900001 0.0196987 1.7846698e-38 275 225
-0.057628557 0.74699998 0.019646099 1.7757707e-38 276 225
-0.056243423 0.74599999 0.019619798 1.7757707e-38 277 225
-0.054788161 0.74400002 0.019567199 1.7848473e-38 278 225
-0.053339902 0.74199998 0.0195146 1.794067e-38 279 225
-0.05203893 0.74199998 0.0195146 1.8123629e-38 280 225
-0.050737958 0.74199998 0.0195146 1.8123629e-38 281 225
-0.049370356 0.741 0.019488299 1.7940317e-38 282 225
-0.048071139 0.741 0.019488299 1.8032513e-38 283 225
-0.046645679 0.73900002 0.0194357 1.8125061e-38 284 225
-0.045349967 0.73900002 0.0194357 1.8032866e-38 285 225
-0.043994635 0.73799998 0.019409399 1.8491686e-38 286 225
-0.042584959 0.736 0.019356798 1.8491686e-38 287 225
-0.041294504 0.736 0.019356798 1.8583887e-38 288 225
-0.040004052 0.736 0.019356798 1.8676083e-38 289 225
-0.038608398 0.73400003 0.019304199 1.849277e-38 290 225
-0.037321456 0.73400003 0.019304199 1.849277e-38 291 225
-0.036034506 0.73400003 0.019304199 1.849277e-38 292 225
-0.034700219 0.73299998 0.019277899 1.849277e-38 293 225
-0.033415023 0.73299998 0.019277899 1.8583887e-38 294 225
-0.032129832 0.73299998 0.019277899 1.8491691e-38 295 225
-0.030844638 0.73299998 0.019277899 1.8308026e-38 296 225
-0.029559445 0.73299998 0.019277899 1.8308026e-38 297 225
-0.028197108 0.73100001 0.019225299 1.5554064e-38 298 225
-0.026915418 0.73100001 0.019225299 7.7174355e-39 299 225
-0.025633732 0.73100001 0.019225299 8.4077908e-45 300 225
-0.024318734 0.73000002 0.019199001 3.69521e-40 301 225
-0.023038799 0.73000002 0.019199001 6.4360517e-39 302 225
-0.021699252 0.72799999 0.0191464 1.3812061e-38 303 225
-0.020422826 0.72799999 0.0191464 1.8218695e-38 304 225
-0.0191464 0.72799999 0.0191464 1.8034664e-38 305 225
-0.017869972 0.72799999 0.0191464 1.849277e-38 306 225
-0.016593546 0.72799999 0.0191464 1.8768999e-38 307 225
-0.01531712 0.72799999 0.0191464 1.8585333e-38 308 225
-0.014040692 0.72799999 0.0191464 1.8585333e-38 309 225
-0.012764266 0.72799999 0.0191464 1.8677532e-38 310 225
-0.01148784 0.72799999 0.0191464 1.8769727e-38 311 225
-0.010211413 0.72799999 0.0191464 1.8679327e-38 312 225
-0.0089349858 0.72799999 0.0191464 1.8863717e-38 313 225
-0.0076585598 0.72799999 0.0191464 1.8680399e-38 314 225
-0.0063996664 0.73000002 0.019199001 1.8496007e-38 315 225
-0.0051057064 0.72799999 0.0191464 1.8678954e-38 316 225
-0.0038292799 0.72799999 0.0191464 1.8217976e-38 317 225
-0.0025493465 0.727 0.019120099 1.8126133e-38 318 225
-0.0012746733 0.727 0.019120099 1.7757352e-38 319 225
0 0.727 0.019120099 1.7757707e-38 320 225
0.0012746733 0.727 0.019120099 1.7480761e-38 321 225
0.0025493465 0.727 0.019120099 1.7572241e-38 322 225
0.0038240198 0.727 0.019120099 1.7572241e-38 323 225
0.0050986931 0.727 0.019120099 1.7480764e-38 324 225
0.0063733663 0.727 0.019120099 1.7388568e-38 325 225
0.0076480396 0.727 0.019120099 1.7204897e-38 326 225
0.0089227129 0.727 0.019120099 1.7204897e-38 327 225
0.010197386 0.727 0.019120099 1.7114505e-38 328 225
0.01147206 0.727 0.019120099 1.6745364e-38 329 225
0.012746733 0.727 0.019120099 1.1579935e-38 330 225
0.014021406 0.727 0.019120099 5.8774718e-39 331 225
0.01531712 0.72799999 0.0191464 7.8254728e-39 332 225
0.016661927 0.73100001 0.019225299 1.1882081e-38 333 225
0.017943613 0.73100001 0.019225299 1.5371469e-38 334 225
0.019409399 0.73799998 0.019409399 1.5095241e-38 335 225
0.020731414 0.73900002 0.0194357 1.5828117e-38 336 225
0.022027127 0.73900002 0.0194357 1.5551532e-38 337 225
0.023385961 0.741 0.019488299 1.5367136e-38 338 225
0.024685178 0.741 0.019488299 1.5274941e-38 339 225
0.026019465 0.74199998 0.0195146 1.5367136e-38 340 225
0.027394081 0.74400002 0.019567199 1.4629571e-38 341 225
0.028775707 0.74599999 0.019619798 1.1586063e-38 342 225
0.030124018 0.74699998 0.019646099 7.0713472e-39 343 225
0.031644158 0.75199997 0.0197776 8.1888659e-39 344 225
0.033050332 0.75400001 0.019830201 1.2245474e-38 345 225
0.034372345 0.75400001 0.019830201 1.4080736e-38 346 225
0.035741698 0.755 0.0198565 1.4172932e-38 347 225
0.037163652 0.75700003 0.019909101 1.4631742e-38 348 225
0.038592618 0.759 0.0199617 1.4723938e-38 349 225
0.040028598 0.76099998 0.020014299 1.4450944e-38 350 225
0.041417241 0.76200002 0.0200406 1.4543141e-38 351 225
0.042977702 0.76599997 0.020145798 1.3899952e-38 352 225
0.044320758 0.76599997 0.020145798 1.5744223e-38 353 225
0.045723427 0.76700002 0.020172099 1.6960424e-38 354 225
0.047068235 0.76700002 0.020172099 2.0740086e-38 355 225
0.048413042 0.76700002 0.020172099 1.8904462e-38 356 225
0.049757849 0.76700002 0.020172099 1.8812267e-38 357 225
-0.064349085 0.74900001 0.018385453 1.8718272e-38 271 226
-0.063035838 0.74900001 0.018385453 1.7330981e-38 272 226
-0.061722592 0.74900001 0.018385453 1.0785091e-38 273 226
-0.060409348 0.74900001 0.018385453 1.8123629e-38 274 226
-0.058938295 0.74699998 0.018336359 1.8215825e-38 275 226
-0.057628557 0.74699998 0.018336359 1.7757707e-38 276 226
-0.056243423 0.74599999 0.018311813 1.7757707e-38 277 226
-0.054788161 0.74400002 0.01826272 1.7664802e-38 278 226
-0.053339902 0.74199998 0.018213626 1.7757358e-38 279 226
-0.05203893 0.74199998 0.018213626 1.7664452e-38 280 226
-0.050669577 0.741 0.018189078 1.7756649e-38 281 226
-0.049370356 0.741 0.018189078 1.7756649e-38 282 226
-0.047941394 0.73900002 0.018139986 1.7941039e-38 283 226
-0.046645679 0.73900002 0.018139986 1.7941036e-38 284 226
-0.045349967 0.73900002 0.018139986 1.7941036e-38 285 226
-0.043875411 0.736 0.018066347 1.8215828e-38 286 226
-0.042584959 0.736 0.018066347 1.8215828e-38 287 226
-0.041294504 0.736 0.018066347 1.7940686e-38 288 226
-0.039895348 0.73400003 0.018017253 1.8125077e-38 289 226
-0.038608398 0.73400003 0.018017253 1.7941765e-38 290 226
-0.037321456 0.73400003 0.018017253 1.7849569e-38 291 226
-0.036034506 0.73400003 0.018017253 1.8032525e-38 292 226
-0.034700219 0.73299998 0.017992707 1.8032525e-38 293 226
-0.033415023 0.73299998 0.017992707 1.8032878e-38 294 226
-0.032129832 0.73299998 0.017992707 1.7940683e-38 295 226
-0.03076048 0.73100001 0.017943613 1.8032525e-38 296 226
-0.029478792 0.73100001 0.017943613 1.7571906e-38 297 226
-0.028197108 0.73100001 0.017943613 1.4170058e-38 298 226
-0.026915418 0.73100001 0.017943613 6.9795159e-39 299 226
-0.025633732 0.73100001 0.017943613 0 300 226
-0.024318734 0.73000002 0.017919067 1.2900228e-39 301 226
-0.023038799 0.73000002 0.017919067 9.1932732e-39 302 226
-0.021699252 0.72799999 0.017869972 1.620014e-38 303 226
-0.020422826 0.72799999 0.017869972 1.785172e-38 304 226
-0.0191464 0.72799999 0.017869972 1.766697e-38 305 226
-0.017869972 0.72799999 0.017869972 1.812543e-38 306 226
-0.016593546 0.72799999 0.017869972 1.8217626e-38 307 226
-0.01531712 0.72799999 0.017869972 1.8217628e-38 308 226
-0.014040692 0.72799999 0.017869972 1.8309824e-38 309 226
-0.012764266 0.72799999 0.017869972 1.8402024e-38 310 226
-0.01148784 0.72799999 0.017869972 1.8402024e-38 311 226
-0.010211413 0.72799999 0.017869972 1.8494938e-38 312 226
-0.0089349858 0.72799999 0.017869972 1.8494938e-38 313 226
-0.0076585598 0.72799999 0.017869972 1.8494933e-38 314 226
-0.0063821329 0.72799999 0.017869972 1.8402737e-38 315 226
-0.0051057064 0.72799999 0.017869972 1.8310171e-38 316 226
-0.0038292799 0.72799999 0.017869972 1.8217976e-38 317 226
-0.0025493465 0.727 0.017845426 1.8126131e-38 318 226
-0.0012746733 0.727 0.017845426 1.7941739e-38 319 226
0 0.727 0.017845426 1.794065e-38 320 226
0.0012746733 0.727 0.017845426 1.7848455e-38 321 226
0.0025493465 0.727 0.017845426 1.7939569e-38 322 226
0.0038240198 0.727 0.017845426 1.7939569e-38 323 226
0.0050986931 0.727 0.017845426 1.7756259e-38 324 226
0.0063733663 0.727 0.017845426 1.7756259e-38 325 226
0.0076480396 0.727 0.017845426 1.7572944e-38 326 226
0.0089349858 0.72799999 0.017869972 1.7572944e-38 327 226
0.010197386 0.727 0.017845426 1.7756628e-38 328 226
0.01147206 0.727 0.017845426 1.8125412e-38 329 226
0.012746733 0.727 0.017845426 1.342564e-38 330 226
0.014021406 0.727 0.017845426 6.3366492e-39 331 226
0.01531712 0.72799999 0.017869972 6.6290876e-39 332 226
0.016661927 0.73100001 0.017943613 1.0500945e-38 333 226
0.017943613 0.73100001 0.017943613 1.5280358e-38 334 226
0.019356798 0.736 0.018066347 1.5003411e-38 335 226
0.020703359 0.73799998 0.018115439 1.5551179e-38 336 226
0.022027127 0.73900002 0.018139986 1.5458982e-38 337 226
0.023322839 0.73900002 0.018139986 1.5183827e-38 338 226
0.024685178 0.741 0.018189078 1.4999077e-38 339 226
0.026019465 0.74199998 0.018213626 1.4999067e-38 340 226
0.027394081 0.74400002 0.01826272 1.5275294e-38 341 226
0.028775707 0.74599999 0.018311813 1.2326851e-38 342 226
0.030124018 0.74699998 0.018336359 7.5326785e-39 343 226
0.031644158 0.75199997 0.018459093 6.5350899e-39 344 226
0.033050332 0.75400001 0.018508185 1.0130721e-38 345 226
0.034372345 0.75400001 0.018508185 1.3438964e-38 346 226
0.035741698 0.755 0.018532733 1.3531159e-38 347 226
0.037163652 0.75700003 0.018581826 1.4264759e-38 348 226
0.038592618 0.759 0.01863092 1.444879e-38 349 226
0.040028598 0.76099998 0.018680012 1.4267275e-38 350 226
0.041417241 0.76200002 0.01870456 1.4267275e-38 351 226
0.042977702 0.76599997 0.018802745 1.3624079e-38 352 226
0.044320758 0.76599997 0.018802745 1.6113003e-38 353 226
0.045723427 0.76700002 0.018827293 1.7053693e-38 354 226
0.047068235 0.76700002 0.018827293 2.0649323e-38 355 226
0.048413042 0.76700002 0.018827293 1.9180326e-38 356 226
-0.064349085 0.74900001 0.017072206 1.7794871e-38 271 227
-0.063035838 0.74900001 0.017072206 1.7140459e-38 272 227
-0.061722592 0.74900001 0.017072206 1.2345926e-38 273 227
-0.060409348 0.74900001 0.017072206 1.8217257e-38 274 227
-0.058938295 0.74699998 0.017026618 1.8125061e-38 275 227
-0.057628557 0.74699998 0.017026618 1.7757707e-38 276 227
-0.056243423 0.74599999 0.017003827 1.7665511e-38 277 227
-0.054788161 0.74400002 0.016958239 1.7756628e-38 278 227
-0.053339902 0.74199998 0.016912652 1.7848823e-38 279 227
-0.05203893 0.74199998 0.016912652 1.7756272e-38 280 227
-0.050669577 0.741 0.016889861 1.7848467e-38 281 227
-0.049370356 0.741 0.016889861 1.7756275e-38 282 227
-0.047941394 0.73900002 0.016844273 1.7940667e-38 283 227
-0.046645679 0.73900002 0.016844273 1.784847e-38 284 227
-0.0452886 0.73799998 0.016821479 1.7756275e-38 285 227
-0.043875411 0.736 0.016775893 1.793995e-38 286 227
-0.042584959 0.736 0.016775893 1.7847754e-38 287 227
-0.041294504 0.736 0.016775893 1.7941389e-38 288 227
-0.039895348 0.73400003 0.016730307 1.7941389e-38 289 227
-0.038608398 0.73400003 0.016730307 1.7757005e-38 290 227
-0.037321456 0.73400003 0.016730307 1.7664808e-38 291 227
-0.035985414 0.73299998 0.016707512 1.7939244e-38 292 227
-0.034700219 0.73299998 0.016707512 1.7847048e-38 293 227
-0.033415023 0.73299998 0.016707512 1.7847398e-38 294 227
-0.032042164 0.73100001 0.016661927 1.7939594e-38 295 227
-0.03076048 0.73100001 0.016661927 1.7849213e-38 296 227
-0.029478792 0.73100001 0.016661927 1.6558474e-38 297 227
-0.028197108 0.73100001 0.016661927 1.2604177e-38 298 227
-0.026915418 0.73100001 0.016661927 6.244832e-39 299 227
-0.025598666 0.73000002 0.016639132 0 300 227
-0.024318734 0.73000002 0.016639132 3.1324836e-39 301 227
-0.023038799 0.73000002 0.016639132 1.158999e-38 302 227
-0.021699252 0.72799999 0.016593546 1.6568554e-38 303 227
-0.020422826 0.72799999 0.016593546 1.7757724e-38 304 227
-0.0191464 0.72799999 0.016593546 1.7665528e-38 305 227
-0.017869972 0.72799999 0.016593546 1.812398e-38 306 227
-0.016593546 0.72799999 0.016593546 1.830873e-38 307 227
-0.01531712 0.72799999 0.016593546 1.8492042e-38 308 227
-0.014040692 0.72799999 0.016593546 1.8584237e-38 309 227
-0.012764266 0.72799999 0.016593546 1.8400569e-38 310 227
-0.01148784 0.72799999 0.016593546 1.8400569e-38 311 227
-0.010211413 0.72799999 0.016593546 1.8492415e-38 312 227
-0.0089349858 0.72799999 0.016593546 1.8492415e-38 313 227
-0.0076585598 0.72799999 0.016593546 1.8493133e-38 314 227
-0.0063821329 0.72799999 0.016593546 1.8493133e-38 315 227
-0.0051057064 0.72799999 0.016593546 1.8493489e-38 316 227
-0.0038292799 0.72799999 0.016593546 1.8216904e-38 317 227
-0.0025493465 0.727 0.016570752 1.812578e-38 318 227
-0.0012711667 0.72500002 0.016525166 1.8033585e-38 319 227
0 0.72500002 0.016525166 1.7941739e-38 320 227
0.0012746733 0.727 0.016570752 1.7757707e-38 321 227
0.0025493465 0.727 0.016570752 1.7941016e-38 322 227
0.0038240198 0.727 0.016570752 1.7941016e-38 323 227
0.0050986931 0.727 0.016570752 1.7941369e-38 324 227
0.0063733663 0.727 0.016570752 1.7941369e-38 325 227
0.0076480396 0.727 0.016570752 1.7756972e-38 326 227
0.0089227129 0.727 0.016570752 1.7849527e-38 327 227
0.010211413 0.72799999 0.016593546 1.7758427e-38 328 227
0.01147206 0.727 0.016570752 1.8403796e-38 329 227
0.012746733 0.727 0.016570752 1.4625984e-38 330 227
0.014040692 0.72799999 0.016593546 8.0815293e-39 331 227
0.0153592 0.73000002 0.016639132 5.7996899e-39 332 227
0.016661927 0.73100001 0.016661927 9.4878738e-39 333 227
0.017943613 0.73100001 0.016661927 1.5098128e-38 334 227
0.019304199 0.73400003 0.016730307 1.463715e-38 335 227
0.020703359 0.73799998 0.016821479 1.5643733e-38 336 227
0.022027127 0.73900002 0.016844273 1.5458982e-38 337 227
0.023322839 0.73900002 0.016844273 1.5183824e-38 338 227
0.024718491 0.74199998 0.016912652 1.4999433e-38 339 227
0.026089599 0.74400002 0.016958239 1.4907232e-38 340 227
0.027394081 0.74400002 0.016958239 1.5368208e-38 341 227
0.028775707 0.74599999 0.017003827 1.3434994e-38 342 227
0.030124018 0.74699998 0.017026618 8.8252124e-39 343 227
0.031644158 0.75199997 0.017140586 5.1564715e-39 344 227
0.033050332 0.75400001 0.017186172 8.014536e-39 345 227
0.034372345 0.75400001 0.017186172 1.2889027e-38 346 227
0.03583638 0.75700003 0.017254554 1.3165973e-38 347 227
0.03726184 0.759 0.017300138 1.4355508e-38 348 227
0.038592618 0.759 0.017300138 1.4631736e-38 349 227
0.040028598 0.76099998 0.017345725 1.4358745e-38 350 227
0.041417241 0.76200002 0.01736852 1.426655e-38 351 227
0.042977702 0.76599997 0.017459691 1.371484e-38 352 227
0.044320758 0.76599997 0.017459691 1.6573263e-38 353 227
0.045723427 0.76700002 0.017482487 1.7329201e-38 354 227
0.047068235 0.76700002 0.017482487 2.0925189e-38 355 227
0.048413042 0.76700002 0.017482487 1.9455471e-38 356 227
-0.065749995 0.75 0.01578 1.9731695e-38 270 228
-0.064434998 0.75 0.01578 1.687399e-38 271 228
-0.063035838 0.74900001 0.01575896 1.6490768e-38 272 228
-0.061722592 0.74900001 0.01575896 1.2526356e-38 273 228
-0.060409348 0.74900001 0.01575896 1.7757352e-38 274 228
-0.058938295 0.74699998 0.015716879 1.7757352e-38 275 228
-0.057628557 0.74699998 0.015716879 1.7573676e-38 276 228
-0.056243423 0.74599999 0.015695838 1.7389645e-38 277 228
-0.054788161 0.74400002 0.015653761 1.7297452e-38 278 228
-0.053339902 0.74199998 0.015611678 1.7297452e-38 279 228
-0.051968798 0.741 0.01559064 1.7480411e-38 280 228
-0.050669577 0.741 0.01559064 1.7480411e-38 281 228
-0.049237106 0.73900002 0.01554856 1.7480058e-38 282 228
-0.047941394 0.73900002 0.01554856 1.7572253e-38 283 228
-0.046582557 0.73799998 0.015527519 1.7480058e-38 284 228
-0.0452886 0.73799998 0.015527519 1.7480058e-38 285 228
-0.043875411 0.736 0.015485439 1.7388941e-38 286 228
-0.042584959 0.736 0.015485439 1.7296745e-38 287 228
-0.041294504 0.736 0.015485439 1.7572975e-38 288 228
-0.039895348 0.73400003 0.01544336 1.7388944e-38 289 228
-0.038608398 0.73400003 0.01544336 1.7297114e-38 290 228
-0.037321456 0.73400003 0.01544336 1.7297114e-38 291 228
-0.035985414 0.73299998 0.015422319 1.7296395e-38 292 228
-0.034700219 0.73299998 0.015422319 1.7388591e-38 293 228
-0.033323854 0.73100001 0.01538024 1.7388944e-38 294 228
-0.032042164 0.73100001 0.01538024 1.7296748e-38 295 228
-0.03076048 0.73100001 0.01538024 1.7390756e-38 296 228
-0.029478792 0.73100001 0.01538024 1.5362452e-38 297 228
-0.028197108 0.73100001 0.01538024 1.0119934e-38 298 228
-0.026878599 0.73000002 0.0153592 4.9591308e-39 299 228
-0.025598666 0.73000002 0.0153592 0 300 228
-0.024318734 0.73000002 0.0153592 5.2508195e-39 301 228
-0.023038799 0.73000002 0.0153592 1.3247343e-38 302 228
-0.021699252 0.72799999 0.01531712 1.6750777e-38 303 228
-0.020422826 0.72799999 0.01531712 1.7756654e-38 304 228
-0.0191464 0.72799999 0.01531712 1.7571903e-38 305 228
-0.017869972 0.72799999 0.01531712 1.7847764e-38 306 228
-0.016593546 0.72799999 0.01531712 1.794032e-38 307 228
-0.01531712 0.72799999 0.01531712 1.803251e-38 308 228
-0.014040692 0.72799999 0.01531712 1.8125064e-38 309 228
-0.012764266 0.72799999 0.01531712 1.8216907e-38 310 228
-0.01148784 0.72799999 0.01531712 1.8216907e-38 311 228
-0.010211413 0.72799999 0.01531712 1.8217628e-38 312 228
-0.0089349858 0.72799999 0.01531712 1.8125074e-38 313 228
-0.0076585598 0.72799999 0.01531712 1.8400938e-38 314 228
-0.0063821329 0.72799999 0.01531712 1.8400938e-38 315 228
-0.0051057064 0.72799999 0.01531712 1.8401291e-38 316 228
-0.0038292799 0.72799999 0.01531712 1.821726e-38 317 228
-0.0025493465 0.727 0.015296079 1.8126133e-38 318 228
-0.0012711667 0.72500002 0.015254001 1.8126133e-38 319 228
0 0.72500002 0.015254001 1.8126484e-38 320 228
0.0012711667 0.72500002 0.015254001 1.8034288e-38 321 228
0.0025423334 0.72500002 0.015254001 1.8033566e-38 322 228
0.0038135003 0.72500002 0.015254001 1.8125762e-38 323 228
0.0050846669 0.72500002 0.015254001 1.8216514e-38 324 228
0.0063733663 0.727 0.015296079 1.8216514e-38 325 228
0.0076480396 0.727 0.015296079 1.7941004e-38 326 228
0.0089227129 0.727 0.015296079 1.7941004e-38 327 228
0.010197386 0.727 0.015296079 1.7756272e-38 328 228
0.01147206 0.727 0.015296079 1.8401641e-38 329 228
0.012764266 0.72799999 0.01531712 1.5180224e-38 330 228
0.014040692 0.72799999 0.01531712 9.3718995e-39 331 228
0.01531712 0.72799999 0.01531712 6.8930768e-39 332 228
0.016639132 0.73000002 0.0153592 1.0672738e-38 333 228
0.017943613 0.73100001 0.01538024 1.4729349e-38 334 228
0.019277899 0.73299998 0.015422319 1.4637154e-38 335 228
0.020647252 0.736 0.015485439 1.5459338e-38 336 228
0.022027127 0.73900002 0.01554856 1.5366783e-38 337 228
0.023322839 0.73900002 0.01554856 1.5274941e-38 338 228
0.024718491 0.74199998 0.015611678 1.4906518e-38 339 228
0.026089599 0.74400002 0.015653761 1.4906516e-38 340 228
0.027394081 0.74400002 0.015653761 1.5274938e-38 341 228
0.028775707 0.74599999 0.015695838 1.3804127e-38 342 228
0.030124018 0.74699998 0.015716879 1.0116302e-38 343 228
0.031644158 0.75199997 0.015822079 6.8051916e-39 344 228
0.033050332 0.75400001 0.01586416 8.4647115e-39 345 228
0.034372345 0.75400001 0.01586416 1.2338004e-38 346 228
0.03583638 0.75700003 0.015927281 1.2798982e-38 347 228
0.03726184 0.759 0.015969358 1.3988524e-38 348 228
0.038592618 0.759 0.015969358 1.4172916e-38 349 228
0.040028598 0.76099998 0.016011439 1.4265843e-38 350 228
0.041417241 0.76200002 0.01603248 1.4358398e-38 351 228
0.042865492 0.764 0.016074561 1.3714487e-38 352 228
0.044320758 0.76599997 0.016116638 1.703353e-38 353 228
0.045723427 0.76700002 0.01613768 1.7512873e-38 354 228
0.047068235 0.76700002 0.01613768 2.1016306e-38 355 228
0.048413042 0.76700002 0.01613768 1.908813e-38 356 228
-0.065749995 0.75 0.014465 1.9549104e-38 270 229
-0.064434998 0.75 0.014465 1.5676888e-38 271 229
-0.063035838 0.74900001 0.014445714 1.5655618e-38 272 229
-0.061722592 0.74900001 0.014445714 1.3258533e-38 273 229
-0.060248036 0.74699998 0.014407139 1.7482213e-38 274 229
-0.058938295 0.74699998 0.014407139 1.7390016e-38 275 229
-0.057551414 0.74599999 0.014387853 1.7297815e-38 276 229
-0.056092639 0.74400002 0.01434928 1.7205619e-38 277 229
-0.054640878 0.74199998 0.014310705 1.7204903e-38 278 229
-0.053268019 0.741 0.01429142 1.7204903e-38 279 229
-0.051968798 0.741 0.01429142 1.7295666e-38 280 229
-0.050669577 0.741 0.01429142 1.7387862e-38 281 229
-0.049237106 0.73900002 0.014252847 1.7387865e-38 282 229
-0.047941394 0.73900002 0.014252847 1.748006e-38 283 229
-0.046582557 0.73799998 0.014233559 1.7295669e-38 284 229
-0.0452886 0.73799998 0.014233559 1.7387865e-38 285 229
-0.043994635 0.73799998 0.014233559 1.7204197e-38 286 229
-0.042584959 0.736 0.014194986 1.7112001e-38 287 229
-0.041294504 0.736 0.014194986 1.7387512e-38 288 229
-0.039895348 0.73400003 0.014156413 1.7387512e-38 289 229
-0.038608398 0.73400003 0.014156413 1.7204199e-38 290 229
-0.037321456 0.73400003 0.014156413 1.7296395e-38 291 229
-0.035985414 0.73299998 0.014137126 1.720455e-38 292 229
-0.034700219 0.73299998 0.014137126 1.7296745e-38 293 229
-0.033323854 0.73100001 0.014098554 1.7204903e-38 294 229
-0.032042164 0.73100001 0.014098554 1.7112707e-38 295 229
-0.03076048 0.73100001 0.014098554 1.7206362e-38 296 229
-0.029478792 0.73100001 0.014098554 1.4624884e-38 297 229
-0.028197108 0.73100001 0.014098554 6.9903199e-39 298 229
-0.026878599 0.73000002 0.014079267 3.3979204e-39 299 229
-0.025598666 0.73000002 0.014079267 2.7550649e-40 300 229
-0.024318734 0.73000002 0.014079267 6.6337567e-39 301 229
-0.023038799 0.73000002 0.014079267 1.4259697e-38 302 229
-0.021699252 0.72799999 0.014040692 1.6841175e-38 303 229
-0.020422826 0.72799999 0.014040692 1.7571537e-38 304 229
-0.0191464 0.72799999 0.014040692 1.7479342e-38 305 229
-0.017869972 0.72799999 0.014040692 1.7755205e-38 306 229
-0.016593546 0.72799999 0.014040692 1.7939597e-38 307 229
-0.01531712 0.72799999 0.014040692 1.7940317e-38 308 229
-0.014040692 0.72799999 0.014040692 1.7940317e-38 309 229
-0.012764266 0.72799999 0.014040692 1.7941036e-38 310 229
-0.01148784 0.72799999 0.014040692 1.7941036e-38 311 229
-0.010211413 0.72799999 0.014040692 1.8033229e-38 312 229
-0.0089349858 0.72799999 0.014040692 1.8033229e-38 313 229
-0.0076585598 0.72799999 0.014040692 1.8125783e-38 314 229
-0.0063821329 0.72799999 0.014040692 1.8125783e-38 315 229
-0.0051057064 0.72799999 0.014040692 1.8217976e-38 316 229
-0.0038292799 0.72799999 0.014040692 1.8217976e-38 317 229
-0.0025423334 0.72500002 0.013982833 1.8035017e-38 318 229
-0.0012711667 0.72500002 0.013982833 1.8035017e-38 319 229
0 0.72500002 0.013982833 1.803537e-38 320 229
0.0012711667 0.72500002 0.013982833 1.803537e-38 321 229
0.0025423334 0.72500002 0.013982833 1.8126131e-38 322 229
0.0038135003 0.72500002 0.013982833 1.8126131e-38 323 229
0.0050846669 0.72500002 0.013982833 1.8033213e-38 324 229
0.0063733663 0.727 0.014021406 1.7941016e-38 325 229
0.0076480396 0.727 0.014021406 1.7940297e-38 326 229
0.0089227129 0.727 0.014021406 1.7755906e-38 327 229
0.010197386 0.727 0.014021406 1.7480411e-38 328 229
0.01147206 0.727 0.014021406 1.8033585e-38 329 229
0.012746733 0.727 0.014021406 1.5457168e-38 330 229
0.014040692 0.72799999 0.014040692 1.2045929e-38 331 229
0.01531712 0.72799999 0.014040692 7.8089165e-39 332 229
0.016639132 0.73000002 0.014079267 1.0206001e-38 333 229
0.017943613 0.73100001 0.014098554 1.4270162e-38 334 229
0.019277899 0.73299998 0.014137126 1.4362358e-38 335 229
0.020591147 0.73400003 0.014156413 1.5367139e-38 336 229
0.021997318 0.73799998 0.014233559 1.5274944e-38 337 229
0.023322839 0.73900002 0.014252847 1.4998711e-38 338 229
0.024685178 0.741 0.01429142 1.4906516e-38 339 229
0.026089599 0.74400002 0.01434928 1.4723919e-38 340 229
0.027394081 0.74400002 0.01434928 1.4723919e-38 341 229
0.028775707 0.74599999 0.014387853 1.3895603e-38 342 229
0.030124018 0.74699998 0.014407139 1.1775104e-38 343 229
0.03156 0.75 0.014465 8.0898151e-39 344 229
0.032962665 0.75199997 0.014503572 7.9976195e-39 345 229
0.034372345 0.75400001 0.014542146 1.1693354e-38 346 229
0.035741698 0.755 0.014561433 1.2799701e-38 347 229
0.03726184 0.759 0.014638579 1.3895972e-38 348 229
0.038592618 0.759 0.014638579 1.4080363e-38 349 229
0.040028598 0.76099998 0.014677152 1.4266196e-38 350 229
0.041417241 0.76200002 0.01469644 1.4082165e-38 351 229
0.042865492 0.764 0.014735013 1.3623724e-38 352 229
0.044320758 0.76599997 0.014773586 1.749594e-38 353 229
0.045723427 0.76700002 0.014792874 1.733028e-38 354 229
0.047068235 0.76700002 0.014792874 2.0649323e-38 355 229
-0.065662332 0.74900001 0.013132467 1.9363635e-38 270 230
-0.064349085 0.74900001 0.013132467 1.3832256e-38 271 230
-0.063035838 0.74900001 0.013132467 1.5095614e-38 272 230
-0.061722592 0.74900001 0.013132467 1.4726831e-38 273 230
-0.060248036 0.74699998 0.013097399 1.7114515e-38 274 230
-0.058938295 0.74699998 0.013097399 1.6930124e-38 275 230
-0.057551414 0.74599999 0.013079867 1.6929758e-38 276 230
-0.05594185 0.74199998 0.013009733 1.6837562e-38 277 230
-0.054640878 0.74199998 0.013009733 1.7112351e-38 278 230
-0.053268019 0.741 0.0129922 1.7112351e-38 279 230
-0.051968798 0.741 0.0129922 1.7111998e-38 280 230
-0.050669577 0.741 0.0129922 1.7019803e-38 281 230
-0.049237106 0.73900002 0.012957133 1.7204199e-38 282 230
-0.047941394 0.73900002 0.012957133 1.7112004e-38 283 230
-0.046582557 0.73799998 0.012939599 1.7019452e-38 284 230
-0.0452886 0.73799998 0.012939599 1.7019452e-38 285 230
-0.043994635 0.73799998 0.012939599 1.683614e-38 286 230
-0.042584959 0.736 0.012904533 1.683614e-38 287 230
-0.041294504 0.736 0.012904533 1.6835787e-38 288 230
-0.039895348 0.73400003 0.012869466 1.6835787e-38 289 230
-0.038608398 0.73400003 0.012869466 1.6835787e-38 290 230
-0.037321456 0.73400003 0.012869466 1.6835787e-38 291 230
-0.035985414 0.73299998 0.012851933 1.6836493e-38 292 230
-0.034700219 0.73299998 0.012851933 1.6928689e-38 293 230
-0.033323854 0.73100001 0.012816866 1.7020159e-38 294 230
-0.032042164 0.73100001 0.012816866 1.7020159e-38 295 230
-0.03076048 0.73100001 0.012816866 1.7022699e-38 296 230
-0.029478792 0.73100001 0.012816866 1.3703656e-38 297 230
-0.028197108 0.73100001 0.012816866 3.8607104e-39 298 230
-0.026878599 0.73000002 0.012799333 2.112222e-39 299 230
-0.025598666 0.73000002 0.012799333 1.8367099e-40 300 230
-0.024318734 0.73000002 0.012799333 7.7401141e-39 301 230
-0.023038799 0.73000002 0.012799333 1.5088382e-38 302 230
-0.021758866 0.73000002 0.012799333 1.6655707e-38 303 230
-0.020422826 0.72799999 0.012764266 1.7112001e-38 304 230
-0.0191464 0.72799999 0.012764266 1.7204197e-38 305 230
-0.017869972 0.72799999 0.012764266 1.7662657e-38 306 230
-0.016593546 0.72799999 0.012764266 1.7754852e-38 307 230
-0.01531712 0.72799999 0.012764266 1.7755571e-38 308 230
-0.014040692 0.72799999 0.012764266 1.7847767e-38 309 230
-0.012764266 0.72799999 0.012764266 1.7757005e-38 310 230
-0.01148784 0.72799999 0.012764266 1.7757005e-38 311 230
-0.010211413 0.72799999 0.012764266 1.7757721e-38 312 230
-0.0089227129 0.727 0.012746733 1.7757721e-38 313 230
-0.0076480396 0.727 0.012746733 1.8033229e-38 314 230
-0.0063733663 0.727 0.012746733 1.8033229e-38 315 230
-0.0050986931 0.727 0.012746733 1.7850272e-38 316 230
-0.0038240198 0.727 0.012746733 1.7942468e-38 317 230
-0.0025423334 0.72500002 0.012711667 1.8035017e-38 318 230
-0.0012711667 0.72500002 0.012711667 1.8219048e-38 319 230
0 0.72500002 0.012711667 1.8401997e-38 320 230
0.0012711667 0.72500002 0.012711667 1.8401997e-38 321 230
0.0025423334 0.72500002 0.012711667 1.8126133e-38 322 230
0.0038135003 0.72500002 0.012711667 1.8033938e-38 323 230
0.0050846669 0.72500002 0.012711667 1.8216175e-38 324 230
0.0063733663 0.727 0.012746733 1.7939947e-38 325 230
0.0076480396 0.727 0.012746733 1.7663004e-38 326 230
0.0089227129 0.727 0.012746733 1.7663004e-38 327 230
0.010197386 0.727 0.012746733 1.7112354e-38 328 230
0.01147206 0.727 0.012746733 1.7388941e-38 329 230
0.012746733 0.727 0.012746733 1.5642279e-38 330 230
0.014040692 0.72799999 0.012764266 1.3337388e-38 331 230
0.01531712 0.72799999 0.012764266 7.7174425e-39 332 230
0.016639132 0.73000002 0.012799333 8.3628119e-39 333 230
0.017943613 0.73100001 0.012816866 1.3901384e-38 334 230
0.019277899 0.73299998 0.012851933 1.4177969e-38 335 230
0.020591147 0.73400003 0.012869466 1.5274944e-38 336 230
