# .PCD v.7 - Point Cloud Data file format
FIELDS x y z rgb imX imY
SIZE 4 4 4 4 4 4
TYPE F F F F F F
COUNT 1 1 1 1 1 1
WIDTH 844
HEIGHT 1
VIEWPOINT 0 0 0 1 0 0 0
POINTS 844
DATA ascii
-0.010043093 0.71600002 -0.01506464 1.5768674e-38 312 252
-0.0087877065 0.71600002 -0.01506464 1.5308055e-38 313 252
-0.00753232 0.71600002 -0.01506464 1.4938562e-38 314 252
-0.0062769335 0.71600002 -0.01506464 1.4016607e-38 315 252
-0.0050075199 0.71399999 -0.015022559 1.3641688e-38 316 252
-0.0037556398 0.71399999 -0.015022559 1.0599591e-38 317 252
-0.0025037599 0.71399999 -0.015022559 7.5520753e-39 318 252
-0.00125188 0.71399999 -0.015022559 3.5876828e-39 319 252
0 0.722 -0.015190879 1.4349296e-42 320 252
0.0012659066 0.722 -0.015190879 3.5873241e-43 321 252
0.0025318132 0.722 -0.015190879 6.1657132e-44 322 252
0.0037977197 0.722 -0.015190879 1.873536e-42 323 252
0.0050636264 0.722 -0.015190879 1.6783127e-39 324 252
0.0063295332 0.722 -0.015190879 7.6710287e-39 325 252
0.0075954394 0.722 -0.015190879 1.3827587e-38 326 252
0.0088613462 0.722 -0.015190879 1.2997827e-38 327 252
0.010127253 0.722 -0.015190879 1.2455062e-38 328 252
0.01139316 0.722 -0.015190879 1.5128735e-38 329 252
-0.040845651 0.72799999 -0.016593546 1.4939307e-38 288 253
-0.039569225 0.72799999 -0.016593546 1.5492122e-38 289 253
-0.038292799 0.72799999 -0.016593546 1.5403895e-38 290 253
-0.036965527 0.727 -0.016570752 1.614146e-38 291 253
-0.035592668 0.72500002 -0.016525166 1.7427515e-38 292 253
-0.03422682 0.72299999 -0.01647958 1.7243122e-38 293 253
-0.032913569 0.722 -0.016456785 1.6230762e-38 294 253
-0.031647664 0.722 -0.016456785 1.6322958e-38 295 253
-0.030381758 0.722 -0.016456785 1.7335332e-38 296 253
-0.029115854 0.722 -0.016456785 1.8995212e-38 297 253
-0.027772799 0.72000003 -0.0164112 1.9550185e-38 298 253
-0.026510401 0.72000003 -0.0164112 1.4295034e-38 299 253
-0.025212931 0.71899998 -0.016388407 7.3763693e-39 300 253
-0.023952285 0.71899998 -0.016388407 3.6986152e-40 301 253
-0.022691639 0.71899998 -0.016388407 9.5808177e-41 302 253
-0.021371379 0.71700001 -0.016342819 4.3368072e-39 303 253
-0.020114239 0.71700001 -0.016342819 5.913153e-39 304 253
-0.018909698 0.71899998 -0.016388407 7.9414569e-39 305 253
-0.017649053 0.71899998 -0.016388407 1.1439112e-38 306 253
-0.016388407 0.71899998 -0.016388407 1.355997e-38 307 253
-0.015085679 0.71700001 -0.016342819 1.4668829e-38 308 253
-0.013828539 0.71700001 -0.016342819 1.6604937e-38 309 253
-0.012553867 0.71600002 -0.016320027 1.8904789e-38 310 253
-0.01129848 0.71600002 -0.016320027 1.8720758e-38 311 253
-0.01001504 0.71399999 -0.016274439 1.9635868e-38 312 253
-0.0087631596 0.71399999 -0.016274439 1.8990499e-38 313 253
-0.0075112795 0.71399999 -0.016274439 1.7979943e-38 314 253
-0.0062593995 0.71399999 -0.016274439 1.761116e-38 315 253
-0.0050075199 0.71399999 -0.016274439 1.7701914e-38 316 253
-0.0037556398 0.71399999 -0.016274439 1.6964349e-38 317 253
-0.0025037599 0.71399999 -0.016274439 1.65898e-38 318 253
-0.00125188 0.71399999 -0.016274439 1.3731734e-38 319 253
0 0.71399999 -0.016274439 6.1796281e-39 320 253
0.0012624001 0.72000003 -0.0164112 8.1157364e-39 321 253
0.0025248001 0.72000003 -0.0164112 1.0521123e-38 322 253
0.0037872 0.72000003 -0.0164112 1.2364676e-38 323 253
0.0050496003 0.72000003 -0.0164112 1.5029705e-38 324 253
0.0063120001 0.72000003 -0.0164112 1.5121901e-38 325 253
0.0075743999 0.72000003 -0.0164112 1.484242e-38 326 253
0.0088245263 0.71899998 -0.016388407 1.3459486e-38 327 253
0.010085173 0.71899998 -0.016388407 1.2083391e-38 328 253
0.01134582 0.71899998 -0.016388407 1.3097544e-38 329 253
0.012606465 0.71899998 -0.016388407 1.6137848e-38 330 253
-0.042122077 0.72799999 -0.017869972 1.3555651e-38 287 254
-0.040845651 0.72799999 -0.017869972 1.3741857e-38 288 254
-0.039514873 0.727 -0.017845426 1.4571616e-38 289 254
-0.038240198 0.727 -0.017845426 1.4941119e-38 290 254
-0.036965527 0.727 -0.017845426 1.5586489e-38 291 254
-0.035592668 0.72500002 -0.017796334 1.6414084e-38 292 254
-0.03422682 0.72299999 -0.017747238 1.6782867e-38 293 254
-0.032913569 0.722 -0.017722692 1.6230046e-38 294 254
-0.03156 0.72000003 -0.017673599 1.6230046e-38 295 254
-0.0302976 0.72000003 -0.017673599 1.6689243e-38 296 254
-0.029035201 0.72000003 -0.017673599 1.8256928e-38 297 254
-0.027772799 0.72000003 -0.017673599 1.6517806e-38 298 254
-0.02647358 0.71899998 -0.017649053 9.0495995e-39 299 254
-0.025212931 0.71899998 -0.017649053 1.0292705e-39 300 254
-0.023952285 0.71899998 -0.017649053 2.8740632e-42 301 254
-0.022691639 0.71899998 -0.017649053 0 302 254
-0.021371379 0.71700001 -0.017599959 0 303 254
-0.020114239 0.71700001 -0.017599959 1.821688e-44 304 254
-0.018909698 0.71899998 -0.017649053 5.5823807e-40 305 254
-0.017599959 0.71700001 -0.017599959 6.559579e-39 306 254
-0.016342819 0.71700001 -0.017599959 1.0708382e-38 307 254
-0.015085679 0.71700001 -0.017599959 1.6138201e-38 308 254
-0.013809253 0.71600002 -0.017575413 1.7981755e-38 309 254
-0.012518799 0.71399999 -0.017526319 1.9824594e-38 310 254
-0.011266919 0.71399999 -0.017526319 2.0101541e-38 311 254
-0.01001504 0.71399999 -0.017526319 2.065291e-38 312 254
-0.0087631596 0.71399999 -0.017526319 2.0284488e-38 313 254
-0.0075112795 0.71399999 -0.017526319 2.0189044e-38 314 254
-0.0062593995 0.71399999 -0.017526319 1.9174893e-38 315 254
-0.0050075199 0.71399999 -0.017526319 1.8069267e-38 316 254
-0.0037503797 0.713 -0.017501773 1.7516095e-38 317 254
-0.0025002533 0.713 -0.017501773 1.769904e-38 318 254
-0.00125188 0.71399999 -0.017526319 1.6684888e-38 319 254
0 0.71399999 -0.017526319 1.262756e-38 320 254
0.0012553866 0.71600002 -0.017575413 1.2904148e-38 321 254
0.0025107733 0.71600002 -0.017575413 1.4941107e-38 322 254
0.0037714199 0.71700001 -0.017599959 1.5678672e-38 323 254
0.0050285598 0.71700001 -0.017599959 1.6411921e-38 324 254
0.0062857 0.71700001 -0.017599959 1.5950582e-38 325 254
0.0075743999 0.72000003 -0.017673599 1.5580343e-38 326 254
0.0088245263 0.71899998 -0.017649053 1.4565831e-38 327 254
0.010085173 0.71899998 -0.017649053 1.3184331e-38 328 254
0.01134582 0.71899998 -0.017649053 1.281519e-38 329 254
0.012606465 0.71899998 -0.017649053 1.4110976e-38 330 254
-0.043517731 0.73000002 -0.019199001 1.6597387e-38 286 255
-0.0422378 0.73000002 -0.019199001 1.3093594e-38 287 255
-0.040845651 0.72799999 -0.0191464 1.3097563e-38 288 255
-0.039514873 0.727 -0.019120099 1.4296106e-38 289 255
-0.038240198 0.727 -0.019120099 1.4939323e-38 290 255
-0.036965527 0.727 -0.019120099 1.5123715e-38 291 255
-0.035592668 0.72500002 -0.0190675 1.5216986e-38 292 255
-0.03422682 0.72299999 -0.019014901 1.5401377e-38 293 255
-0.032913569 0.722 -0.0189886 1.5861268e-38 294 255
-0.03156 0.72000003 -0.018935999 1.5769071e-38 295 255
-0.0302976 0.72000003 -0.018935999 1.6043507e-38 296 255
-0.029035201 0.72000003 -0.018935999 1.49368e-38 297 255
-0.027734226 0.71899998 -0.018909698 1.207765e-38 298 255
-0.02647358 0.71899998 -0.018909698 6.084934e-39 299 255
-0.025107734 0.71600002 -0.0188308 5.8147917e-39 300 255
-0.023852346 0.71600002 -0.0188308 4.7080854e-39 301 255
-0.022691639 0.71899998 -0.018909698 5.065708e-39 302 255
-0.021371379 0.71700001 -0.018857099 3.4058279e-39 303 255
-0.020114239 0.71700001 -0.018857099 5.6051939e-45 304 255
-0.018909698 0.71899998 -0.018909698 4.2038954e-45 305 255
-0.017575413 0.71600002 -0.0188308 8.0303903e-39 306 255
-0.016320027 0.71600002 -0.0188308 1.3009314e-38 307 255
-0.015022559 0.71399999 -0.018778199 1.7887772e-38 308 255
-0.01377068 0.71399999 -0.018778199 1.9454738e-38 309 255
-0.012518799 0.71399999 -0.018778199 2.1205736e-38 310 255
-0.011266919 0.71399999 -0.018778199 2.1205736e-38 311 255
-0.010001013 0.713 -0.018751899 2.0839462e-38 312 255
-0.0087508867 0.713 -0.018751899 2.1207884e-38 313 255
-0.0075007593 0.713 -0.018751899 2.1388317e-38 314 255
-0.0062506334 0.713 -0.018751899 2.0005022e-38 315 255
-0.0050005065 0.713 -0.018751899 1.770266e-38 316 255
-0.0037503797 0.713 -0.018751899 1.6411921e-38 317 255
-0.0025002533 0.713 -0.018751899 1.6779977e-38 318 255
-0.00125188 0.71399999 -0.018778199 1.6595586e-38 319 255
0 0.71399999 -0.018778199 1.4288898e-38 320 255
0.0012553866 0.71600002 -0.0188308 1.5671832e-38 321 255
0.0025107733 0.71600002 -0.0188308 1.5771589e-38 322 255
0.0037714199 0.71700001 -0.018857099 1.5494643e-38 323 255
0.0050285598 0.71700001 -0.018857099 1.5216615e-38 324 255
0.0062857 0.71700001 -0.018857099 1.5124419e-38 325 255
0.0075638802 0.71899998 -0.018909698 1.5398115e-38 326 255
0.0088245263 0.71899998 -0.018909698 1.4937137e-38 327 255
0.010085173 0.71899998 -0.018909698 1.4565831e-38 328 255
0.01134582 0.71899998 -0.018909698 1.3367287e-38 329 255
0.012606465 0.71899998 -0.018909698 1.3464525e-38 330 255
0.013867113 0.71899998 -0.018909698 1.567722e-38 331 255
-0.043517731 0.73000002 -0.020478934 1.6594866e-38 286 256
-0.0422378 0.73000002 -0.020478934 1.3552051e-38 287 256
-0.040845651 0.72799999 -0.020422826 1.3005367e-38 288 256
-0.039569225 0.72799999 -0.020422826 1.4111354e-38 289 256
-0.038240198 0.727 -0.020394772 1.4571261e-38 290 256
-0.036965527 0.727 -0.020394772 1.4663456e-38 291 256
-0.035445385 0.722 -0.020254506 1.493932e-38 292 256
-0.034179479 0.722 -0.020254506 1.5123713e-38 293 256
-0.0328224 0.72000003 -0.020198401 1.5583605e-38 294 256
-0.03156 0.72000003 -0.020198401 1.5583605e-38 295 256
-0.030255521 0.71899998 -0.020170346 1.5216615e-38 296 256
-0.028994869 0.71899998 -0.020170346 9.5930399e-39 297 256
-0.027734226 0.71899998 -0.020170346 3.5117128e-39 298 256
-0.026363119 0.71600002 -0.020086186 3.5117128e-39 299 256
-0.025107734 0.71600002 -0.020086186 7.7447804e-39 300 256
-0.023852346 0.71600002 -0.020086186 8.1139217e-39 301 256
-0.022596961 0.71600002 -0.020086186 8.3793472e-39 302 256
-0.021371379 0.71700001 -0.020114239 6.0748152e-39 303 256
-0.020114239 0.71700001 -0.020114239 4.6527873e-40 304 256
-0.0188308 0.71600002 -0.020086186 0 305 256
-0.017526319 0.71399999 -0.020030079 1.0604668e-38 306 256
-0.016274439 0.71399999 -0.020030079 1.521445e-38 307 256
-0.015001519 0.713 -0.020002026 1.7979615e-38 308 256
-0.013751393 0.713 -0.020002026 1.9085963e-38 309 256
-0.012501267 0.713 -0.020002026 2.0101191e-38 310 256
-0.011251139 0.713 -0.020002026 2.0193386e-38 311 256
-0.010001013 0.713 -0.020002026 2.0284853e-38 312 256
-0.0087508867 0.713 -0.020002026 2.0469245e-38 313 256
-0.0075007593 0.713 -0.020002026 2.000719e-38 314 256
-0.0062506334 0.713 -0.020002026 1.8348029e-38 315 256
-0.0050005065 0.713 -0.020002026 1.6140016e-38 316 256
-0.0037503797 0.713 -0.020002026 1.5125864e-38 317 256
-0.0025002533 0.713 -0.020002026 1.5952027e-38 318 256
-0.0012501266 0.713 -0.020002026 1.5767636e-38 319 256
0 0.71399999 -0.020030079 1.3095039e-38 320 256
0.0012553866 0.71600002 -0.020086186 1.4293582e-38 321 256
0.0025107733 0.71600002 -0.020086186 1.5032949e-38 322 256
0.0037714199 0.71700001 -0.020114239 1.4848556e-38 323 256
0.0050285598 0.71700001 -0.020114239 1.4756358e-38 324 256
0.0062857 0.71700001 -0.020114239 1.4664162e-38 325 256
0.0075428397 0.71700001 -0.020114239 1.5029702e-38 326 256
0.0087999795 0.71700001 -0.020114239 1.4937507e-38 327 256
0.010085173 0.71899998 -0.020170346 1.4752746e-38 328 256
0.01134582 0.71899998 -0.020170346 1.3831149e-38 329 256
0.012606465 0.71899998 -0.020170346 1.3186859e-38 330 256
0.0138864 0.72000003 -0.020198401 1.4477598e-38 331 256
0.0151488 0.72000003 -0.020198401 1.6966164e-38 332 256
-0.043517731 0.73000002 -0.021758866 1.5952012e-38 286 257
-0.0422378 0.73000002 -0.021758866 1.3186143e-38 287 257
-0.040957868 0.73000002 -0.021758866 1.2822405e-38 288 257
-0.039569225 0.72799999 -0.021699252 1.3467774e-38 289 257
-0.038240198 0.727 -0.021669446 1.392697e-38 290 257
-0.036965527 0.727 -0.021669446 1.411136e-38 291 257
-0.035445385 0.722 -0.021520413 1.42954e-38 292 257
-0.034084801 0.72000003 -0.021460801 1.4387595e-38 293 257
-0.0328224 0.72000003 -0.021460801 1.5121916e-38 294 257
-0.031516165 0.71899998 -0.021430992 1.4937885e-38 295 257
-0.030255521 0.71899998 -0.021430992 1.374148e-38 296 257
-0.028914221 0.71700001 -0.021371379 4.7988643e-39 297 257
-0.027618507 0.71600002 -0.021341572 0 298 257
-0.026363119 0.71600002 -0.021341572 2.1276895e-39 299 257
-0.025107734 0.71600002 -0.021341572 6.2729e-39 300 257
-0.023852346 0.71600002 -0.021341572 8.6696262e-39 301 257
-0.022596961 0.71600002 -0.021341572 9.9463254e-39 302 257
-0.021341572 0.71600002 -0.021341572 7.5495992e-39 303 257
-0.020086186 0.71600002 -0.021341572 7.4294042e-40 304 257
-0.0188308 0.71600002 -0.021341572 0 305 257
-0.017501773 0.713 -0.021252153 1.1617741e-38 306 257
-0.016251646 0.713 -0.021252153 1.6227522e-38 307 257
-0.015001519 0.713 -0.021252153 1.7334969e-38 308 257
-0.013751393 0.713 -0.021252153 1.7795587e-38 309 257
-0.012501267 0.713 -0.021252153 1.8349839e-38 310 257
-0.011251139 0.713 -0.021252153 1.8718622e-38 311 257
-0.0099729598 0.71100003 -0.021192541 1.9178155e-38 312 257
-0.0087263398 0.71100003 -0.021192541 1.908596e-38 313 257
-0.0075007593 0.713 -0.021252153 1.8072881e-38 314 257
-0.0062506334 0.713 -0.021252153 1.659775e-38 315 257
-0.0050005065 0.713 -0.021252153 1.475816e-38 316 257
-0.0037503797 0.713 -0.021252153 1.4389017e-38 317 257
-0.0025002533 0.713 -0.021252153 1.4664165e-38 318 257
-0.0012501266 0.713 -0.021252153 1.4295384e-38 319 257
0 0.71399999 -0.021281958 1.2453265e-38 320 257
0.00125188 0.71399999 -0.021281958 1.319083e-38 321 257
0.0025107733 0.71600002 -0.021341572 1.3835849e-38 322 257
0.00376616 0.71600002 -0.021341572 1.3835849e-38 323 257
0.0050215465 0.71600002 -0.021341572 1.4386149e-38 324 257
0.0062857 0.71700001 -0.021371379 1.4293953e-38 325 257
0.0075428397 0.71700001 -0.021371379 1.4294304e-38 326 257
0.0087999795 0.71700001 -0.021371379 1.4110273e-38 327 257
0.010085173 0.71899998 -0.021430992 1.4386131e-38 328 257
0.01134582 0.71899998 -0.021430992 1.4293935e-38 329 257
0.012624 0.72000003 -0.021460801 1.3648203e-38 330 257
0.0138864 0.72000003 -0.021460801 1.3463453e-38 331 257
0.015190879 0.722 -0.021520413 1.5952733e-38 332 257
0.016456785 0.722 -0.021520413 1.7427865e-38 333 257
-0.042295661 0.73100001 -0.02307036 1.3096111e-38 287 258
-0.040957868 0.73000002 -0.023038799 1.3098635e-38 288 258
-0.039569225 0.72799999 -0.022975679 1.3375223e-38 289 258
-0.038240198 0.727 -0.022944121 1.3743298e-38 290 258
-0.036762137 0.72299999 -0.02281788 1.3835493e-38 291 258
-0.035347197 0.72000003 -0.022723202 1.4203557e-38 292 258
-0.034084801 0.72000003 -0.022723202 1.411136e-38 293 258
-0.032776814 0.71899998 -0.022691639 1.3740777e-38 294 258
-0.031428497 0.71700001 -0.02262852 1.3187604e-38 295 258
-0.03012928 0.71600002 -0.022596961 1.2085909e-38 296 258
-0.028873893 0.71600002 -0.022596961 4.2492806e-39 297 258
-0.02754136 0.71399999 -0.022533838 1.793662e-42 298 258
-0.026252659 0.713 -0.022502279 1.114611e-39 299 258
-0.025002534 0.713 -0.022502279 3.1450827e-39 300 258
-0.023752406 0.713 -0.022502279 6.4641254e-39 301 258
-0.022407599 0.70999998 -0.022407599 9.6729825e-39 302 258
-0.021162732 0.70999998 -0.022407599 7.460286e-39 303 258
-0.019917866 0.70999998 -0.022407599 6.464386e-40 304 258
-0.018751899 0.713 -0.022502279 0 305 258
-0.017501773 0.713 -0.022502279 1.1527347e-38 306 258
-0.016251646 0.713 -0.022502279 1.5860182e-38 307 258
-0.014959441 0.71100003 -0.022439159 1.6138945e-38 308 258
-0.01371282 0.71100003 -0.022439159 1.6323338e-38 309 258
-0.0124662 0.71100003 -0.022439159 1.6874712e-38 310 258
-0.01121958 0.71100003 -0.022439159 1.6966908e-38 311 258
-0.0099729598 0.71100003 -0.022439159 1.724205e-38 312 258
-0.0087263398 0.71100003 -0.022439159 1.6504485e-38 313 258
-0.0074797203 0.71100003 -0.022439159 1.5307014e-38 314 258
-0.0062330998 0.71100003 -0.022439159 1.3924079e-38 315 258
-0.0050005065 0.713 -0.022502279 1.1994089e-38 316 258
-0.0037503797 0.713 -0.022502279 1.2362511e-38 317 258
-0.0025002533 0.713 -0.022502279 1.3282676e-38 318 258
-0.0012501266 0.713 -0.022502279 1.3374873e-38 319 258
0 0.71399999 -0.022533838 1.2822415e-38 320 258
0.00125188 0.71399999 -0.022533838 1.309936e-38 321 258
0.0025037599 0.71399999 -0.022533838 1.3741857e-38 322 258
0.00376616 0.71600002 -0.022596961 1.3926247e-38 323 258
0.0050215465 0.71600002 -0.022596961 1.4017724e-38 324 258
0.0062769335 0.71600002 -0.022596961 1.3832974e-38 325 258
0.0075428397 0.71700001 -0.02262852 1.3558185e-38 326 258
0.0087999795 0.71700001 -0.02262852 1.3005011e-38 327 258
0.010085173 0.71899998 -0.022691639 1.2638021e-38 328 258
0.01134582 0.71899998 -0.022691639 1.2822771e-38 329 258
0.012624 0.72000003 -0.022723202 1.3924076e-38 330 258
0.0138864 0.72000003 -0.022723202 1.364785e-38 331 258
0.0151488 0.72000003 -0.022723202 1.512262e-38 332 258
0.0164112 0.72000003 -0.022723202 1.6782142e-38 333 258
0.017673599 0.72000003 -0.022723202 1.8069634e-38 334 258
-0.042411376 0.73299998 -0.024418673 1.3463103e-38 287 259
-0.040957868 0.73000002 -0.024318734 1.2085929e-38 288 259
-0.039569225 0.72799999 -0.024252106 1.2639103e-38 289 259
-0.038240198 0.727 -0.024218792 1.3559264e-38 290 259
-0.03671129 0.722 -0.024052227 1.3928045e-38 291 259
-0.035347197 0.72000003 -0.0239856 1.383513e-38 292 259
-0.03403746 0.71899998 -0.023952285 1.365038e-38 293 259
-0.032776814 0.71899998 -0.023952285 1.2820618e-38 294 259
-0.031428497 0.71700001 -0.02388566 1.2636587e-38 295 259
-0.03012928 0.71600002 -0.023852346 1.3374465e-38 296 259
-0.028873893 0.71600002 -0.023852346 9.1331057e-39 297 259
-0.027502786 0.713 -0.023752406 3.0424236e-39 298 259
-0.026252659 0.713 -0.023752406 2.0279143e-39 299 259
-0.024932399 0.71100003 -0.023685781 1.1494851e-41 300 259
-0.023652466 0.70999998 -0.023652466 4.806748e-39 301 259
-0.022407599 0.70999998 -0.023652466 7.743714e-39 302 259
-0.021162732 0.70999998 -0.023652466 6.1760282e-39 303 259
-0.019917866 0.70999998 -0.023652466 1.0146802e-41 304 259
-0.0186993 0.71100003 -0.023685781 6.5440638e-42 305 259
-0.01745268 0.71100003 -0.023685781 1.1801841e-38 306 259
-0.01620606 0.71100003 -0.023685781 1.47521e-38 307 259
-0.014959441 0.71100003 -0.023685781 1.5126235e-38 308 259
-0.01371282 0.71100003 -0.023685781 1.5679409e-38 309 259
-0.012448666 0.70999998 -0.023652466 1.6046396e-38 310 259
-0.011203799 0.70999998 -0.023652466 1.6046396e-38 311 259
-0.0099589331 0.70999998 -0.023652466 1.5769085e-38 312 259
-0.0087263398 0.71100003 -0.023685781 1.4386149e-38 313 259
-0.0074797203 0.71100003 -0.023685781 1.3373073e-38 314 259
-0.0062330998 0.71100003 -0.023685781 1.2727704e-38 315 259
-0.0049864799 0.71100003 -0.023685781 1.1531676e-38 316 259
-0.0037398601 0.71100003 -0.023685781 1.162423e-38 317 259
-0.0024932399 0.71100003 -0.023685781 1.2546554e-38 318 259
-0.0012501266 0.713 -0.023752406 1.3099728e-38 319 259
0 0.71399999 -0.02378572 1.3190127e-38 320 259
0.00125188 0.71399999 -0.02378572 1.3374519e-38 321 259
0.0025037599 0.71399999 -0.02378572 1.3374517e-38 322 259
0.0037556398 0.71399999 -0.02378572 1.3374517e-38 323 259
0.0050075199 0.71399999 -0.02378572 1.3465636e-38 324 259
0.0062769335 0.71600002 -0.023852346 1.3189408e-38 325 259
0.0075428397 0.71700001 -0.02388566 1.3465639e-38 326 259
0.0087999795 0.71700001 -0.02388566 1.2359291e-38 327 259
0.01005712 0.71700001 -0.02388566 1.0614039e-38 328 259
0.01134582 0.71899998 -0.023952285 1.1443799e-38 329 259
0.012624 0.72000003 -0.0239856 1.3648934e-38 330 259
0.0138864 0.72000003 -0.0239856 1.3833327e-38 331 259
0.0151488 0.72000003 -0.0239856 1.4110989e-38 332 259
0.0164112 0.72000003 -0.0239856 1.5309532e-38 333 259
0.017673599 0.72000003 -0.0239856 1.7426066e-38 334 259
-0.0422378 0.73000002 -0.025598666 1.3093244e-38 287 260
-0.040957868 0.73000002 -0.025598666 6.8390526e-39 288 260
-0.039569225 0.72799999 -0.025528532 4.3497706e-39 289 260
-0.038029801 0.72299999 -0.025353199 1.0795914e-38 290 260
-0.036609601 0.72000003 -0.025248 1.2547273e-38 291 260
-0.035347197 0.72000003 -0.025248 1.2543683e-38 292 260
-0.03403746 0.71899998 -0.025212931 1.2267096e-38 293 260
-0.032776814 0.71899998 -0.025212931 1.319048e-38 294 260
-0.031428497 0.71700001 -0.0251428 1.4112438e-38 295 260
-0.03012928 0.71600002 -0.025107734 1.5768342e-38 296 260
-0.028793238 0.71399999 -0.025037598 1.4293214e-38 297 260
-0.027502786 0.713 -0.025002534 1.1793835e-38 298 260
-0.026179021 0.71100003 -0.024932399 1.8367099e-39 299 260
-0.024897331 0.70999998 -0.024897331 0 300 260
-0.023652466 0.70999998 -0.024897331 6.3632963e-39 301 260
-0.022407599 0.70999998 -0.024897331 1.1251849e-38 302 260
-0.021162732 0.70999998 -0.024897331 1.3833327e-38 303 260
-0.019917866 0.70999998 -0.024897331 1.3928039e-38 304 260
-0.0186993 0.71100003 -0.024932399 1.4389017e-38 305 260
-0.017428132 0.70999998 -0.024897331 1.5214818e-38 306 260
-0.016183265 0.70999998 -0.024897331 1.4569449e-38 307 260
-0.014959441 0.71100003 -0.024932399 1.3099728e-38 308 260
-0.01371282 0.71100003 -0.024932399 1.4298269e-38 309 260
-0.012448666 0.70999998 -0.024897331 1.5034039e-38 310 260
-0.011203799 0.70999998 -0.024897331 1.420428e-38 311 260
-0.0099589331 0.70999998 -0.024897331 1.3927696e-38 312 260
-0.0087140659 0.70999998 -0.024897331 1.3282327e-38 313 260
-0.0074797203 0.71100003 -0.024932399 1.3099012e-38 314 260
-0.0062330998 0.71100003 -0.024932399 1.3283043e-38 315 260
-0.0049864799 0.71100003 -0.024932399 1.2544036e-38 316 260
-0.0037398601 0.71100003 -0.024932399 1.1714275e-38 317 260
-0.0024932399 0.71100003 -0.024932399 1.2179213e-38 318 260
-0.00124662 0.71100003 -0.024932399 1.2917137e-38 319 260
0 0.71100003 -0.024932399 1.3189771e-38 320 260
0.0012501266 0.713 -0.025002534 1.3189771e-38 321 260
0.0025002533 0.713 -0.025002534 1.3281606e-38 322 260
0.0037503797 0.713 -0.025002534 1.3189052e-38 323 260
0.0050075199 0.71399999 -0.025037598 1.3280169e-38 324 260
0.0062593995 0.71399999 -0.025037598 1.3464919e-38 325 260
0.00753232 0.71600002 -0.025107734 1.3097931e-38 326 260
0.0087999795 0.71700001 -0.0251428 1.1438411e-38 327 260
0.01005712 0.71700001 -0.0251428 9.8793504e-39 328 260
0.01131426 0.71700001 -0.0251428 1.1077894e-38 329 260
0.012606465 0.71899998 -0.025212931 1.3372352e-38 330 260
0.013867113 0.71899998 -0.025212931 1.3648937e-38 331 260
0.0151488 0.72000003 -0.025248 1.2545108e-38 332 260
0.016388407 0.71899998 -0.025212931 1.3467065e-38 333 260
0.017649053 0.71899998 -0.025212931 1.6689947e-38 334 260
0.018909698 0.71899998 -0.025212931 1.7427512e-38 335 260
-0.042122077 0.72799999 -0.026804959 1.2447153e-38 287 261
-0.039569225 0.72799999 -0.026804959 1.0238952e-39 289 261
-0.0379772 0.722 -0.026584039 4.5287836e-39 290 261
-0.036609601 0.72000003 -0.026510401 8.1240531e-39 291 261
-0.035347197 0.72000003 -0.026510401 1.107359e-38 292 261
-0.03403746 0.71899998 -0.02647358 1.1811155e-38 293 261
-0.032776814 0.71899998 -0.02647358 1.4018793e-38 294 261
-0.031428497 0.71700001 -0.02639994 1.4664162e-38 295 261
-0.03012928 0.71600002 -0.026363119 1.5491406e-38 296 261
-0.028793238 0.71399999 -0.026289478 1.5583602e-38 297 261
-0.027502786 0.713 -0.026252659 1.5115372e-38 298 261
-0.026179021 0.71100003 -0.026179021 8.2932557e-39 299 261
-0.024897331 0.70999998 -0.026142199 2.0390784e-39 300 261
-0.023652466 0.70999998 -0.026142199 9.6916745e-39 301 261
-0.022344479 0.708 -0.026068559 1.4200335e-38 302 261
-0.021103119 0.708 -0.026068559 1.5675466e-38 303 261
-0.01986176 0.708 -0.026068559 1.5861999e-38 304 261
-0.018672999 0.70999998 -0.026142199 1.6138945e-38 305 261
-0.017428132 0.70999998 -0.026142199 1.6228971e-38 306 261
-0.016183265 0.70999998 -0.026142199 1.5307014e-38 307 261
-0.014938398 0.70999998 -0.026142199 1.3283029e-38 308 261
-0.013693533 0.70999998 -0.026142199 1.3283029e-38 309 261
-0.012448666 0.70999998 -0.026142199 1.3835496e-38 310 261
-0.011203799 0.70999998 -0.026142199 1.3927692e-38 311 261
-0.0099589331 0.70999998 -0.026142199 1.3835143e-38 312 261
-0.0087140659 0.70999998 -0.026142199 1.3558916e-38 313 261
-0.0074691991 0.70999998 -0.026142199 1.3466362e-38 314 261
-0.0062243328 0.70999998 -0.026142199 1.3558916e-38 315 261
-0.0049864799 0.71100003 -0.026179021 1.2544401e-38 316 261
-0.0037398601 0.71100003 -0.026179021 1.0977436e-38 317 261
-0.0024932399 0.71100003 -0.026179021 1.144273e-38 318 261
-0.00124662 0.71100003 -0.026179021 1.2549078e-38 319 261
0 0.71100003 -0.026179021 1.2730951e-38 320 261
0.0012501266 0.713 -0.026252659 1.2730951e-38 321 261
0.0025002533 0.713 -0.026252659 1.2913544e-38 322 261
0.0037503797 0.713 -0.026252659 1.2913544e-38 323 261
0.0050005065 0.713 -0.026252659 1.2729872e-38 324 261
0.0062593995 0.71399999 -0.026289478 1.2822067e-38 325 261
0.00753232 0.71600002 -0.026363119 1.2820618e-38 326 261
0.0087877065 0.71600002 -0.026363119 1.0700479e-38 327 261
0.01005712 0.71700001 -0.02639994 1.0060862e-38 328 261
0.01131426 0.71700001 -0.02639994 1.1904775e-38 329 261
0.012606465 0.71899998 -0.02647358 1.3189761e-38 330 261
0.013867113 0.71899998 -0.02647358 1.3281957e-38 331 261
0.0151488 0.72000003 -0.026510401 1.2637306e-38 332 261
0.016388407 0.71899998 -0.02647358 1.2452556e-38 333 261
0.017649053 0.71899998 -0.02647358 1.5676516e-38 334 261
0.018909698 0.71899998 -0.02647358 1.705981e-38 335 261
-0.037819397 0.71899998 -0.027734226 7.9425597e-42 290 262
-0.036558751 0.71899998 -0.027734226 2.9592831e-39 291 262
-0.035298105 0.71899998 -0.027734226 1.0705528e-38 292 262
-0.033942781 0.71700001 -0.027657079 1.3010779e-38 293 262
-0.032685637 0.71700001 -0.027657079 1.4110636e-38 294 262
-0.031428497 0.71700001 -0.027657079 1.4110636e-38 295 262
-0.03012928 0.71600002 -0.027618507 1.466309e-38 296 262
-0.028793238 0.71399999 -0.02754136 1.530846e-38 297 262
-0.027502786 0.713 -0.027502786 1.6223541e-38 298 262
-0.026179021 0.71100003 -0.027425639 1.3642064e-38 299 262
-0.024897331 0.70999998 -0.027387066 1.1538471e-38 300 262
-0.023652466 0.70999998 -0.027387066 1.4396896e-38 301 262
-0.022344479 0.708 -0.027309919 1.6413734e-38 302 262
-0.021103119 0.708 -0.027309919 1.6137147e-38 303 262
-0.01986176 0.708 -0.027309919 1.5493576e-38 304 262
-0.018672999 0.70999998 -0.027387066 1.5493576e-38 305 262
-0.017428132 0.70999998 -0.027387066 1.6044949e-38 306 262
-0.016183265 0.70999998 -0.027387066 1.5768362e-38 307 262
-0.014938398 0.70999998 -0.027387066 1.4203557e-38 308 262
-0.013693533 0.70999998 -0.027387066 1.3465991e-38 309 262
-0.012448666 0.70999998 -0.027387066 1.3283045e-38 310 262
-0.011203799 0.70999998 -0.027387066 1.3467437e-38 311 262
-0.0099589331 0.70999998 -0.027387066 1.3558913e-38 312 262
-0.0087140659 0.70999998 -0.027387066 1.3466718e-38 313 262
-0.0074691991 0.70999998 -0.027387066 1.3283045e-38 314 262
-0.0062243328 0.70999998 -0.027387066 1.3283045e-38 315 262
-0.0049864799 0.71100003 -0.027425639 1.263732e-38 316 262
-0.0037398601 0.71100003 -0.027425639 1.116255e-38 317 262
-0.0024932399 0.71100003 -0.027425639 1.1165783e-38 318 262
-0.00124662 0.71100003 -0.027425639 1.2088099e-38 319 262
0 0.71100003 -0.027425639 1.291426e-38 320 262
0.0012501266 0.713 -0.027502786 1.2729869e-38 321 262
0.0025002533 0.713 -0.027502786 1.272915e-38 322 262
0.0037503797 0.713 -0.027502786 1.272915e-38 323 262
0.0050005065 0.713 -0.027502786 1.2636957e-38 324 262
0.0062593995 0.71399999 -0.02754136 1.2544401e-38 325 262
0.00753232 0.71600002 -0.027618507 1.1809345e-38 326 262
0.0087877065 0.71600002 -0.027618507 1.0057628e-38 327 262
0.01005712 0.71700001 -0.027657079 1.0704069e-38 328 262
0.01131426 0.71700001 -0.027657079 1.2363592e-38 329 262
0.012606465 0.71899998 -0.027734226 1.3373073e-38 330 262
0.013867113 0.71899998 -0.027734226 1.3373073e-38 331 262
0.0151488 0.72000003 -0.027772799 1.3187607e-38 332 262
0.016388407 0.71899998 -0.027734226 1.2357845e-38 333 262
0.017649053 0.71899998 -0.027734226 1.4018796e-38 334 262
0.018909698 0.71899998 -0.027734226 1.5678319e-38 335 262
0.020170346 0.71899998 -0.027734226 1.8162189e-38 336 262
-0.037819397 0.71899998 -0.028994869 1.4805405e-39 290 263
-0.036457058 0.71700001 -0.028914221 4.2464094e-39 291 263
-0.035199918 0.71700001 -0.028914221 1.2817733e-38 292 263
-0.033942781 0.71700001 -0.028914221 1.4753841e-38 293 263
-0.032685637 0.71700001 -0.028914221 1.3742213e-38 294 263
-0.031428497 0.71700001 -0.028914221 1.401844e-38 295 263
-0.03012928 0.71600002 -0.028873893 1.4295031e-38 296 263
-0.028793238 0.71399999 -0.028793238 1.4387227e-38 297 263
-0.027502786 0.713 -0.028752912 1.4110986e-38 298 263
-0.026179021 0.71100003 -0.028672259 1.3558171e-38 299 263
-0.024897331 0.70999998 -0.028631933 1.401879e-38 300 263
-0.023652466 0.70999998 -0.028631933 1.5217333e-38 301 263
-0.022344479 0.708 -0.02855128 1.5400661e-38 302 263
-0.021103119 0.708 -0.02855128 1.5308107e-38 303 263
-0.01986176 0.708 -0.02855128 1.5033318e-38 304 263
-0.018672999 0.70999998 -0.028631933 1.5033318e-38 305 263
-0.017428132 0.70999998 -0.028631933 1.4848571e-38 306 263
-0.016183265 0.70999998 -0.028631933 1.4572342e-38 307 263
-0.014938398 0.70999998 -0.028631933 1.3651831e-38 308 263
-0.013693533 0.70999998 -0.028631933 1.3467081e-38 309 263
-0.012448666 0.70999998 -0.028631933 1.3191573e-38 310 263
-0.011203799 0.70999998 -0.028631933 1.3099377e-38 311 263
-0.0099589331 0.70999998 -0.028631933 1.328269e-38 312 263
-0.0087140659 0.70999998 -0.028631933 1.3098658e-38 313 263
-0.0074691991 0.70999998 -0.028631933 1.3006461e-38 314 263
-0.0062243328 0.70999998 -0.028631933 1.2914266e-38 315 263
-0.0049794666 0.70999998 -0.028631933 1.2913544e-38 316 263
-0.0037345996 0.70999998 -0.028631933 1.2083783e-38 317 263
-0.0024897333 0.70999998 -0.028631933 1.0149473e-38 318 263
-0.00124662 0.71100003 -0.028672259 1.0978874e-38 319 263
0 0.71100003 -0.028672259 1.2361809e-38 320 263
0.0012501266 0.713 -0.028752912 1.2546559e-38 321 263
0.0025002533 0.713 -0.028752912 1.2637676e-38 322 263
0.0037503797 0.713 -0.028752912 1.2637676e-38 323 263
0.0050005065 0.713 -0.028752912 1.2728797e-38 324 263
0.0062593995 0.71399999 -0.028793238 1.1899035e-38 325 263
0.00753232 0.71600002 -0.028873893 9.8789972e-39 326 263
0.0087877065 0.71600002 -0.028873893 9.7868016e-39 327 263
0.01005712 0.71700001 -0.028914221 1.1899022e-38 328 263
0.01131426 0.71700001 -0.028914221 1.2820618e-38 329 263
0.012606465 0.71899998 -0.028994869 1.3005014e-38 330 263
0.013867113 0.71899998 -0.028994869 1.3005014e-38 331 263
0.0151488 0.72000003 -0.029035201 1.2912099e-38 332 263
0.016388407 0.71899998 -0.028994869 1.2081979e-38 333 263
0.017649053 0.71899998 -0.028994869 1.2452193e-38 334 263
0.018909698 0.71899998 -0.028994869 1.4848921e-38 335 263
0.020170346 0.71899998 -0.028994869 1.8161833e-38 336 263
-0.037871998 0.72000003 -0.0302976 2.9531468e-39 290 264
-0.036457058 0.71700001 -0.030171359 6.1799939e-39 291 264
-0.035199918 0.71700001 -0.030171359 1.327871e-38 292 264
-0.03389544 0.71600002 -0.03012928 1.4569449e-38 293 264
-0.032640055 0.71600002 -0.03012928 1.383333e-38 294 264
-0.031428497 0.71700001 -0.030171359 1.4017721e-38 295 264
-0.03012928 0.71600002 -0.03012928 1.4110638e-38 296 264
-0.028793238 0.71399999 -0.030045118 1.3926247e-38 297 264
-0.027502786 0.713 -0.030003037 1.2730222e-38 298 264
-0.026179021 0.71100003 -0.029918881 1.3099363e-38 299 264
-0.024897331 0.70999998 -0.029876797 1.4570542e-38 300 264
-0.023652466 0.70999998 -0.029876797 1.4662737e-38 301 264
-0.022344479 0.708 -0.02979264 1.438867e-38 302 264
-0.021103119 0.708 -0.02979264 1.4573061e-38 303 264
-0.01986176 0.708 -0.02979264 1.5032965e-38 304 264
-0.018672999 0.70999998 -0.029876797 1.5032965e-38 305 264
-0.017379038 0.708 -0.02979264 1.3651831e-38 306 264
-0.01613768 0.708 -0.02979264 1.3559635e-38 307 264
-0.01489632 0.708 -0.02979264 1.3191576e-38 308 264
-0.013693533 0.70999998 -0.029876797 1.309938e-38 309 264
-0.0124136 0.708 -0.02979264 1.3006829e-38 310 264
-0.01117224 0.708 -0.02979264 1.2914631e-38 311 264
-0.0099308798 0.708 -0.02979264 1.291391e-38 312 264
-0.0087140659 0.70999998 -0.029876797 1.291391e-38 313 264
-0.0074691991 0.70999998 -0.029876797 1.2638399e-38 314 264
-0.0062243328 0.70999998 -0.029876797 1.2546204e-38 315 264
-0.0049794666 0.70999998 -0.029876797 1.3189408e-38 316 264
-0.0037345996 0.70999998 -0.029876797 1.2820267e-38 317 264
-0.0024897333 0.70999998 -0.029876797 9.2246455e-39 318 264
-0.00124662 0.71100003 -0.029918881 7.6569611e-39 319 264
0 0.71100003 -0.029918881 9.9665293e-39 320 264
0.0012501266 0.713 -0.030003037 1.1533496e-38 321 264
0.0025002533 0.713 -0.030003037 1.2729153e-38 322 264
0.0037503797 0.713 -0.030003037 1.3097575e-38 323 264
0.0050005065 0.713 -0.030003037 1.3096856e-38 324 264
0.0062593995 0.71399999 -0.030045118 1.1160748e-38 325 264
0.00753232 0.71600002 -0.03012928 8.2209178e-39 326 264
0.0087877065 0.71600002 -0.03012928 1.0525809e-38 327 264
0.010043093 0.71600002 -0.03012928 1.2636234e-38 328 264
0.01131426 0.71700001 -0.030171359 1.2544038e-38 329 264
0.012606465 0.71899998 -0.030255521 1.2820267e-38 330 264
0.013867113 0.71899998 -0.030255521 1.2820267e-38 331 264
0.01512776 0.71899998 -0.030255521 1.2819546e-38 332 264
0.016388407 0.71899998 -0.030255521 1.2451124e-38 333 264
0.017649053 0.71899998 -0.030255521 1.1991582e-38 334 264
0.018909698 0.71899998 -0.030255521 1.4665255e-38 335 264
0.020170346 0.71899998 -0.030255521 1.7978523e-38 336 264
-0.037871998 0.72000003 -0.03156 3.3219111e-39 290 265
-0.036457058 0.71700001 -0.031428497 6.3643655e-39 291 265
-0.035199918 0.71700001 -0.031428497 1.3371259e-38 292 265
-0.03389544 0.71600002 -0.031384666 1.4569443e-38 293 265
-0.032640055 0.71600002 -0.031384666 1.374113e-38 294 265
-0.031428497 0.71700001 -0.031428497 1.3925523e-38 295 265
-0.03012928 0.71600002 -0.031384666 1.3926244e-38 296 265
-0.028793238 0.71399999 -0.031296998 1.2912451e-38 297 265
-0.027502786 0.713 -0.031253166 1.2727704e-38 298 265
-0.026179021 0.71100003 -0.031165501 1.3926247e-38 299 265
-0.024897331 0.70999998 -0.031121666 1.4203557e-38 300 265
-0.023652466 0.70999998 -0.031121666 1.4203557e-38 301 265
-0.022407599 0.70999998 -0.031121666 1.4388667e-38 302 265
-0.021103119 0.708 -0.031034 1.4573058e-38 303 265
-0.01986176 0.708 -0.031034 1.4204999e-38 304 265
-0.018672999 0.70999998 -0.031121666 1.355963e-38 305 265
-0.017379038 0.708 -0.031034 1.2178497e-38 306 265
-0.01613768 0.708 -0.031034 1.2639474e-38 307 265
-0.01489632 0.708 -0.031034 1.3283769e-38 308 265
-0.013693533 0.70999998 -0.031121666 1.3099377e-38 309 265
-0.0124136 0.708 -0.031034 1.3006105e-38 310 265
-0.01117224 0.708 -0.031034 1.291391e-38 311 265
-0.0099308798 0.708 -0.031034 1.2821714e-38 312 265
-0.008689519 0.708 -0.031034 1.2821714e-38 313 265
-0.0074691991 0.70999998 -0.031121666 1.2729516e-38 314 265
-0.0062243328 0.70999998 -0.031121666 1.2821711e-38 315 265
-0.0049794666 0.70999998 -0.031121666 1.2544404e-38 316 265
-0.0037345996 0.70999998 -0.031121666 1.0700493e-38 317 265
-0.0024897333 0.70999998 -0.031121666 2.9538979e-39 318 265
-0.00124662 0.71100003 -0.031165501 2.9175034e-42 319 265
0 0.71100003 -0.031165501 8.3521312e-40 320 265
0.00124662 0.71100003 -0.031165501 4.4308427e-39 321 265
0.0024932399 0.71100003 -0.031165501 6.281958e-39 322 265
0.0037398601 0.71100003 -0.031165501 8.4946531e-39 323 265
0.0050005065 0.713 -0.031253166 1.0242036e-38 324 265
0.0062506334 0.713 -0.031253166 9.688862e-39 325 265
0.0075112795 0.71399999 -0.031296998 1.0242386e-38 326 265
0.0087631596 0.71399999 -0.031296998 1.2086297e-38 327 265
0.010043093 0.71600002 -0.031384666 1.2268891e-38 328 265
0.01129848 0.71600002 -0.031384666 1.2176695e-38 329 265
0.0125714 0.71700001 -0.031428497 1.2636231e-38 330 265
0.013867113 0.71899998 -0.031516165 1.2544036e-38 331 265
0.01512776 0.71899998 -0.031516165 1.2727348e-38 332 265
0.016388407 0.71899998 -0.031516165 1.2451121e-38 333 265
0.017649053 0.71899998 -0.031516165 1.1623156e-38 334 265
0.018909698 0.71899998 -0.031516165 1.4112438e-38 335 265
0.020170346 0.71899998 -0.031516165 1.7794128e-38 336 265
-0.0379772 0.722 -0.032913569 3.3226146e-39 290 266
-0.036609601 0.72000003 -0.0328224 5.7196996e-39 291 266
-0.035298105 0.71899998 -0.032776814 1.3278341e-38 292 266
-0.03389544 0.71600002 -0.032640055 1.4845307e-38 293 266
-0.032640055 0.71600002 -0.032640055 1.374113e-38 294 266
-0.031428497 0.71700001 -0.032685637 1.3833327e-38 295 266
-0.03012928 0.71600002 -0.032640055 1.3557113e-38 296 266
-0.028793238 0.71399999 -0.032548878 1.2911743e-38 297 266
-0.027502786 0.713 -0.032503292 1.263408e-38 298 266
-0.026179021 0.71100003 -0.032412119 1.3832624e-38 299 266
-0.024897331 0.70999998 -0.032366529 1.3834777e-38 300 266
-0.023652466 0.70999998 -0.032366529 1.4203201e-38 301 266
-0.022407599 0.70999998 -0.032366529 1.4205002e-38 302 266
-0.021103119 0.708 -0.03227536 1.448159e-38 303 266
-0.01986176 0.708 -0.03227536 1.374438e-38 304 266
-0.018672999 0.70999998 -0.032366529 1.1992304e-38 305 266
-0.017428132 0.70999998 -0.032366529 1.0337104e-38 306 266
-0.01613768 0.708 -0.03227536 1.1074671e-38 307 266
-0.01489632 0.708 -0.03227536 1.227034e-38 308 266
-0.013693533 0.70999998 -0.032366529 1.2731316e-38 309 266
-0.0124136 0.708 -0.03227536 1.2546925e-38 310 266
-0.01117224 0.708 -0.03227536 1.2362894e-38 311 266
-0.0099308798 0.708 -0.03227536 1.208667e-38 312 266
-0.008689519 0.708 -0.03227536 1.2178866e-38 313 266
-0.0074481601 0.708 -0.03227536 1.2270696e-38 314 266
-0.0062243328 0.70999998 -0.032366529 1.2731314e-38 315 266
-0.0049794666 0.70999998 -0.032366529 1.0610464e-38 316 266
-0.0037345996 0.70999998 -0.032366529 6.6460517e-39 317 266
-0.0024897333 0.70999998 -0.032366529 3.7134129e-40 318 266
-0.0012448666 0.70999998 -0.032366529 1.4012985e-44 319 266
0 0.71100003 -0.032412119 1.1210388e-44 320 266
0.00124662 0.71100003 -0.032412119 2.6624671e-44 321 266
0.0024932399 0.71100003 -0.032412119 1.1573324e-41 322 266
0.0037398601 0.71100003 -0.032412119 2.1349525e-39 323 266
0.0050005065 0.713 -0.032503292 4.7185811e-39 324 266
0.0062506334 0.713 -0.032503292 8.1298208e-39 325 266
0.0075112795 0.71399999 -0.032548878 1.1898313e-38 326 266
0.0087631596 0.71399999 -0.032548878 1.2543683e-38 327 266
0.010043093 0.71600002 -0.032640055 1.1808636e-38 328 266
0.01129848 0.71600002 -0.032640055 1.1993386e-38 329 266
0.0125714 0.71700001 -0.032685637 1.2268175e-38 330 266
0.013867113 0.71899998 -0.032776814 1.2268175e-38 331 266
0.01512776 0.71899998 -0.032776814 1.2267096e-38 332 266
0.016388407 0.71899998 -0.032776814 1.21749e-38 333 266
0.017649053 0.71899998 -0.032776814 1.1346202e-38 334 266
0.018909698 0.71899998 -0.032776814 1.3650734e-38 335 266
0.020254506 0.722 -0.032913569 1.8068914e-38 336 266
-0.0379772 0.722 -0.034179479 4.6126135e-39 290 267
-0.036609601 0.72000003 -0.034084801 4.8892004e-39 291 267
-0.035347197 0.72000003 -0.034084801 1.3093928e-38 292 267
-0.03403746 0.71899998 -0.03403746 1.5030036e-38 293 267
-0.032685637 0.71700001 -0.033942781 1.374113e-38 294 267
-0.031428497 0.71700001 -0.033942781 1.3833327e-38 295 267
-0.03012928 0.71600002 -0.03389544 1.3465991e-38 296 267
-0.028793238 0.71399999 -0.033800758 1.2544036e-38 297 267
-0.027502786 0.713 -0.033753417 1.2266377e-38 298 267
-0.026179021 0.71100003 -0.033658739 1.3557116e-38 299 267
-0.024897331 0.70999998 -0.033611398 1.355963e-38 300 267
-0.023652466 0.70999998 -0.033611398 1.3836577e-38 301 267
-0.022407599 0.70999998 -0.033611398 1.4205355e-38 302 267
-0.021103119 0.708 -0.033516716 1.4297551e-38 303 267
-0.01986176 0.708 -0.033516716 1.3191929e-38 304 267
-0.018672999 0.70999998 -0.033611398 1.2269612e-38 305 267
-0.017379038 0.708 -0.033516716 9.4165898e-39 306 267
-0.01613768 0.708 -0.033516716 9.3243941e-39 307 267
-0.01489632 0.708 -0.033516716 9.3243969e-39 308 267
-0.013693533 0.70999998 -0.033611398 9.7850163e-39 309 267
-0.0124136 0.708 -0.033516716 1.0796654e-38 310 267
-0.01117224 0.708 -0.033516716 1.1534578e-38 311 267
-0.0099308798 0.708 -0.033516716 1.227034e-38 312 267
-0.008689519 0.708 -0.033516716 1.2546925e-38 313 267
-0.0074481601 0.708 -0.033516716 1.2821711e-38 314 267
-0.0062243328 0.70999998 -0.033611398 1.2268896e-38 315 267
-0.0049794666 0.70999998 -0.033611398 4.9036898e-39 316 267
-0.0037345996 0.70999998 -0.033611398 1.0118776e-41 317 267
-0.0024897333 0.70999998 -0.033611398 3.6377708e-42 318 267
-0.0012448666 0.70999998 -0.033611398 1.9271077e-40 319 267
0 0.70999998 -0.033611398 2.3949606e-39 320 267
0.00124662 0.71100003 -0.033658739 1.9339825e-39 321 267
0.0024932399 0.71100003 -0.033658739 2.2098477e-42 322 267
0.0037398601 0.71100003 -0.033658739 4.4841551e-44 323 267
0.0050005065 0.713 -0.033753417 1.5522183e-41 324 267
0.0062506334 0.713 -0.033753417 7.9479463e-39 325 267
0.0075112795 0.71399999 -0.033800758 1.2911749e-38 326 267
0.0087631596 0.71399999 -0.033800758 1.2358575e-38 327 267
0.010043093 0.71600002 -0.03389544 1.2083781e-38 328 267
0.01129848 0.71600002 -0.03389544 1.2175976e-38 329 267
0.0125714 0.71700001 -0.033942781 1.2267449e-38 330 267
0.013828539 0.71700001 -0.033942781 1.2267449e-38 331 267
0.01512776 0.71899998 -0.03403746 1.2450042e-38 332 267
0.016388407 0.71899998 -0.03403746 1.1989064e-38 333 267
0.017649053 0.71899998 -0.03403746 1.1622783e-38 334 267
0.018909698 0.71899998 -0.03403746 1.3743282e-38 335 267
0.020254506 0.722 -0.034179479 1.8252935e-38 336 267
0.021520413 0.722 -0.034179479 1.797635e-38 337 267
-0.039243106 0.722 -0.035445385 1.2904125e-38 289 268
-0.0379772 0.722 -0.035445385 7.9269717e-39 290 268
-0.036609601 0.72000003 -0.035347197 7.0046552e-39 291 268
-0.035347197 0.72000003 -0.035347197 1.3277943e-38 292 268
-0.03403746 0.71899998 -0.035298105 1.5306607e-38 293 268
-0.032685637 0.71700001 -0.035199918 1.4110273e-38 294 268
-0.031428497 0.71700001 -0.035199918 1.4018077e-38 295 268
-0.03012928 0.71600002 -0.035150826 1.3740777e-38 296 268
-0.028752912 0.713 -0.035003547 1.2819181e-38 297 268
-0.027425639 0.71100003 -0.034905359 1.2725553e-38 298 268
-0.026179021 0.71100003 -0.034905359 1.3832261e-38 299 268
-0.024897331 0.70999998 -0.034856264 1.3834777e-38 300 268
-0.023652466 0.70999998 -0.034856264 1.4203201e-38 301 268
-0.022344479 0.708 -0.034758076 1.4020608e-38 302 268
-0.021103119 0.708 -0.034758076 1.4020608e-38 303 268
-0.01986176 0.708 -0.034758076 1.3191573e-38 304 268
-0.0186204 0.708 -0.034758076 1.2638399e-38 305 268
-0.017379038 0.708 -0.034758076 1.2271059e-38 306 268
-0.01613768 0.708 -0.034758076 1.1533494e-38 307 268
-0.01489632 0.708 -0.034758076 1.0795205e-38 308 268
-0.013693533 0.70999998 -0.034856264 1.0334587e-38 309 268
-0.0124136 0.708 -0.034758076 9.5999048e-39 310 268
-0.01117224 0.708 -0.034758076 9.8764931e-39 311 268
-0.0099308798 0.708 -0.034758076 1.1530622e-38 312 268
-0.008689519 0.708 -0.034758076 1.1807569e-38 313 268
-0.0074481601 0.708 -0.034758076 1.1165786e-38 314 268
-0.0062243328 0.70999998 -0.034856264 9.1374819e-39 315 268
-0.0049794666 0.70999998 -0.034856264 2.1370853e-39 316 268
-0.0037345996 0.70999998 -0.034856264 3.9810889e-42 317 268
-0.0024897333 0.70999998 -0.034856264 7.3939513e-40 318 268
-0.0012448666 0.70999998 -0.034856264 1.4769602e-39 319 268
0 0.70999998 -0.034856264 1.2936479e-39 320 268
0.00124662 0.71100003 -0.034905359 1.2936479e-39 321 268
0.0024932399 0.71100003 -0.034905359 2.8022186e-40 322 268
0.0037503797 0.713 -0.035003547 2.9427268e-44 323 268
0.0050005065 0.713 -0.035003547 1.5727585e-39 324 268
0.0062506334 0.713 -0.035003547 1.0423539e-38 325 268
0.0075112795 0.71399999 -0.035052639 1.272915e-38 326 268
0.0087877065 0.71600002 -0.035150826 1.1899388e-38 327 268
0.010043093 0.71600002 -0.035150826 1.1808273e-38 328 268
0.01131426 0.71700001 -0.035199918 1.1808273e-38 329 268
0.0125714 0.71700001 -0.035199918 1.1899032e-38 330 268
0.013828539 0.71700001 -0.035199918 1.1899032e-38 331 268
0.01512776 0.71899998 -0.035298105 1.1807192e-38 332 268
0.016388407 0.71899998 -0.035298105 1.1530607e-38 333 268
0.017649053 0.71899998 -0.035298105 1.235783e-38 334 268
0.018909698 0.71899998 -0.035298105 1.4478329e-38 335 268
0.020254506 0.722 -0.035445385 1.8437681e-38 336 268
0.021520413 0.722 -0.035445385 1.7054747e-38 337 268
-0.039243106 0.722 -0.03671129 1.5301228e-38 289 269
-0.0379772 0.722 -0.03671129 1.1797413e-38 290 269
-0.03671129 0.722 -0.03671129 1.0967292e-38 291 269
-0.035445385 0.722 -0.03671129 1.3741815e-38 292 269
-0.03403746 0.71899998 -0.036558751 1.4940358e-38 293 269
-0.032776814 0.71899998 -0.036558751 1.475456e-38 294 269
-0.031428497 0.71700001 -0.036457058 1.4385778e-38 295 269
-0.030045118 0.71399999 -0.036304519 1.2820616e-38 296 269
-0.028752912 0.713 -0.036253672 1.1899019e-38 297 269
-0.027425639 0.71100003 -0.036151983 1.2818828e-38 298 269
-0.026142199 0.70999998 -0.036101133 1.3925175e-38 299 269
-0.024897331 0.70999998 -0.036101133 1.411136e-38 300 269
-0.023585839 0.708 -0.03599944 1.4203557e-38 301 269
-0.022344479 0.708 -0.03599944 1.3837295e-38 302 269
-0.021103119 0.708 -0.03599944 1.3560348e-38 303 269
-0.01986176 0.708 -0.03599944 1.3099377e-38 304 269
-0.0186204 0.708 -0.03599944 1.2914985e-38 305 269
-0.017379038 0.708 -0.03599944 1.3008982e-38 306 269
-0.01613768 0.708 -0.03599944 1.2916428e-38 307 269
-0.01489632 0.708 -0.03599944 1.3281253e-38 308 269
-0.013693533 0.70999998 -0.036101133 1.2819916e-38 309 269
-0.0124136 0.708 -0.03599944 1.1440578e-38 310 269
-0.01117224 0.708 -0.03599944 1.0242036e-38 311 269
-0.0099308798 0.708 -0.03599944 9.5037533e-39 312 269
-0.008689519 0.708 -0.03599944 9.6877844e-39 313 269
-0.0074691991 0.70999998 -0.036101133 8.3102226e-39 314 269
-0.0062243328 0.70999998 -0.036101133 3.4238556e-39 315 269
-0.0049654399 0.708 -0.03599944 5.585884e-40 316 269
-0.00372408 0.708 -0.03599944 2.8936813e-42 317 269
-0.0024897333 0.70999998 -0.036101133 1.1096098e-39 318 269
-0.00124662 0.71100003 -0.036151983 1.294001e-39 319 269
0 0.71100003 -0.036151983 1.2943542e-39 320 269
0.00124662 0.71100003 -0.036151983 1.2021585e-39 321 269
0.0025002533 0.713 -0.036253672 8.3302429e-40 322 269
0.0037503797 0.713 -0.036253672 3.2622228e-42 323 269
0.0050075199 0.71399999 -0.036304519 2.8642148e-39 324 269
0.0062593995 0.71399999 -0.036304519 1.0700843e-38 325 269
0.00753232 0.71600002 -0.036406212 1.2361445e-38 326 269
0.0087877065 0.71600002 -0.036406212 1.143913e-38 327 269
0.010043093 0.71600002 -0.036406212 1.1531329e-38 328 269
0.01131426 0.71700001 -0.036457058 1.1623524e-38 329 269
0.0125714 0.71700001 -0.036457058 1.1899032e-38 330 269
0.013867113 0.71899998 -0.036558751 1.1806836e-38 331 269
0.01512776 0.71899998 -0.036558751 1.1898669e-38 332 269
0.016388407 0.71899998 -0.036558751 1.1714278e-38 333 269
0.017673599 0.72000003 -0.036609601 1.3002124e-38 334 269
0.018935999 0.72000003 -0.036609601 1.5307014e-38 335 269
0.020254506 0.722 -0.03671129 1.8346209e-38 336 269
0.021550218 0.72299999 -0.036762137 1.6041317e-38 337 269
-0.039243106 0.722 -0.0379772 1.6594488e-38 289 270
-0.0379772 0.722 -0.0379772 1.493424e-38 290 270
-0.03671129 0.722 -0.0379772 1.410484e-38 291 270
-0.035494477 0.72299999 -0.038029801 1.5030409e-38 292 270
-0.034084801 0.72000003 -0.037871998 1.52148e-38 293 270
-0.032776814 0.71899998 -0.037819397 1.3553496e-38 294 270
-0.031428497 0.71700001 -0.037714198 1.0787627e-38 295 270
-0.030045118 0.71399999 -0.037556399 4.1682632e-39 296 270
-0.028752912 0.713 -0.037503798 6.4727938e-39 297 270
-0.027387066 0.70999998 -0.037345998 1.1715723e-38 298 270
-0.026142199 0.70999998 -0.037345998 1.3559635e-38 299 270
-0.024897331 0.70999998 -0.037345998 1.411136e-38 300 270
-0.023585839 0.708 -0.0372408 1.411136e-38 301 270
-0.022344479 0.708 -0.0372408 1.3651831e-38 302 270
-0.021103119 0.708 -0.0372408 1.328269e-38 303 270
-0.01986176 0.708 -0.0372408 1.2914631e-38 304 270
-0.0186204 0.708 -0.0372408 1.3006829e-38 305 270
-0.017379038 0.708 -0.0372408 1.2823879e-38 306 270
-0.01613768 0.708 -0.0372408 1.2731684e-38 307 270
-0.01489632 0.708 -0.0372408 1.2914278e-38 308 270
-0.013693533 0.70999998 -0.037345998 1.2730247e-38 309 270
-0.0124136 0.708 -0.0372408 1.2361459e-38 310 270
-0.01117224 0.708 -0.0372408 1.1808285e-38 311 270
-0.0099589331 0.70999998 -0.037345998 1.0888124e-38 312 270
