# .PCD v.7 - Point Cloud Data file format
FIELDS x y z rgb imX imY
SIZE 4 4 4 4 4 4
TYPE F F F F F F
COUNT 1 1 1 1 1 1
WIDTH 829
HEIGHT 1
VIEWPOINT 0 0 0 1 0 0 0
POINTS 829
DATA ascii
0.023915464 0.68199998 -0.045439381 1.2084149e-38 340 278
0.02514806 0.68300003 -0.045506012 1.1807922e-38 341 278
0.026345588 0.68300003 -0.045506012 1.1807922e-38 342 278
0.027583439 0.68400002 -0.045572639 1.1715367e-38 343 278
0.028908957 0.68699998 -0.045772515 1.1623171e-38 344 278
0.030113498 0.68699998 -0.045772515 1.1623171e-38 345 278
0.031318039 0.68699998 -0.045772515 1.1348379e-38 346 278
0.032569919 0.68800002 -0.045839146 1.1256184e-38 347 278
0.033776212 0.68800002 -0.045839146 1.1347663e-38 348 278
0.03498251 0.68800002 -0.045839146 1.1347663e-38 349 278
0.036293998 0.69 -0.045972396 1.134766e-38 350 278
0.03755815 0.69099998 -0.046039023 1.134766e-38 351 278
0.038769703 0.69099998 -0.046039023 1.1348735e-38 352 278
0.04009698 0.69300002 -0.04617228 1.1440931e-38 353 278
0.041312039 0.69300002 -0.04617228 1.1533128e-38 354 278
0.042588469 0.69400001 -0.046238903 1.1625323e-38 355 278
0.043931518 0.69599998 -0.046372157 1.1808636e-38 356 278
0.045216713 0.69700003 -0.046438783 1.190119e-38 357 278
0.046638668 0.69999999 -0.046638668 1.2176698e-38 358 278
0.047934376 0.70099998 -0.046705291 1.2176698e-38 359 278
0.049373865 0.704 -0.046905171 1.2452206e-38 360 278
0.050751984 0.70599997 -0.047038425 1.2544401e-38 361 278
0.05206348 0.70700002 -0.047105055 1.3187607e-38 362 278
0.053303085 0.70700002 -0.047105055 1.3832977e-38 363 278
0.054619838 0.708 -0.047171678 1.5857668e-38 364 278
0.056018997 0.70999998 -0.047304932 1.7424994e-38 365 278
0.057263866 0.70999998 -0.047304932 1.8253666e-38 366 278
-0.041312039 0.71399999 -0.048823316 1.9173097e-38 287 279
-0.040060159 0.71399999 -0.048823316 1.8066751e-38 288 279
-0.038808275 0.71399999 -0.048823316 1.5854054e-38 289 279
-0.037556399 0.71399999 -0.048823316 1.447508e-38 290 279
-0.036253672 0.713 -0.048754938 1.4106657e-38 291 279
-0.034758076 0.708 -0.048413038 1.3646765e-38 292 279
-0.033516716 0.708 -0.048413038 1.3186146e-38 293 279
-0.031910665 0.69999999 -0.047865998 1.3369458e-38 294 279
-0.030683333 0.69999999 -0.047865998 1.3553849e-38 295 279
-0.029371841 0.69800001 -0.047729239 1.3553133e-38 296 279
-0.028067358 0.69599998 -0.047592476 1.3460938e-38 297 279
-0.026769891 0.69400001 -0.047455717 1.2910285e-38 298 279
-0.02551626 0.69300002 -0.047387339 1.300248e-38 299 279
-0.024231065 0.69099998 -0.047250576 1.2727335e-38 300 279
-0.023019511 0.69099998 -0.047250576 1.2727335e-38 301 279
-0.021713281 0.68800002 -0.047045439 1.2726982e-38 302 279
-0.020477179 0.68699998 -0.046977058 1.2819178e-38 303 279
-0.019272638 0.68699998 -0.046977058 1.3094689e-38 304 279
-0.018068098 0.68699998 -0.046977058 1.3186884e-38 305 279
-0.016839013 0.68599999 -0.046908677 1.3003215e-38 306 279
-0.015636226 0.68599999 -0.046908677 1.3003215e-38 307 279
-0.01439136 0.68400002 -0.046771921 1.2911743e-38 308 279
-0.013172794 0.68300003 -0.04670354 1.2911743e-38 309 279
-0.011975267 0.68300003 -0.04670354 1.2636234e-38 310 279
-0.010761959 0.68199998 -0.046635158 1.2820267e-38 311 279
-0.009566186 0.68199998 -0.046635158 1.2636957e-38 312 279
-0.0083704125 0.68199998 -0.046635158 1.2636957e-38 313 279
-0.0071535995 0.68000001 -0.046498399 1.2637673e-38 314 279
-0.0059613334 0.68000001 -0.046498399 1.2729869e-38 315 279
-0.0047690663 0.68000001 -0.046498399 1.2821346e-38 316 279
-0.0035767998 0.68000001 -0.046498399 1.2821346e-38 317 279
-0.0023845332 0.68000001 -0.046498399 1.3004661e-38 318 279
-0.0011922666 0.68000001 -0.046498399 1.3004661e-38 319 279
0 0.68000001 -0.046498399 1.263732e-38 320 279
0.0011922666 0.68000001 -0.046498399 1.263732e-38 321 279
0.0023845332 0.68000001 -0.046498399 1.2729516e-38 322 279
0.0035767998 0.68000001 -0.046498399 1.2729516e-38 323 279
0.0047690663 0.68000001 -0.046498399 1.263732e-38 324 279
0.0059613334 0.68000001 -0.046498399 1.2729516e-38 325 279
0.0071535995 0.68000001 -0.046498399 1.263732e-38 326 279
0.0083458666 0.68000001 -0.046498399 1.263732e-38 327 279
0.0095381327 0.68000001 -0.046498399 1.2637676e-38 328 279
0.0107304 0.68000001 -0.046498399 1.2637676e-38 329 279
0.011922667 0.68000001 -0.046498399 1.2637676e-38 330 279
0.013114933 0.68000001 -0.046498399 1.2453286e-38 331 279
0.014307199 0.68000001 -0.046498399 1.2269259e-38 332 279
0.015499466 0.68000001 -0.046498399 1.2085228e-38 333 279
0.016691733 0.68000001 -0.046498399 1.2269262e-38 334 279
0.017936599 0.68199998 -0.046635158 1.2269262e-38 335 279
0.019132372 0.68199998 -0.046635158 1.2269259e-38 336 279
0.020328145 0.68199998 -0.046635158 1.2085228e-38 337 279
0.021523919 0.68199998 -0.046635158 1.1993033e-38 338 279
0.022719691 0.68199998 -0.046635158 1.1900837e-38 339 279
0.023915464 0.68199998 -0.046635158 1.1808641e-38 340 279
0.02514806 0.68300003 -0.04670354 1.1716087e-38 341 279
0.026345588 0.68300003 -0.04670354 1.1807922e-38 342 279
0.027664091 0.68599999 -0.046908677 1.1715367e-38 343 279
0.028908957 0.68699998 -0.046977058 1.1439859e-38 344 279
0.030113498 0.68699998 -0.046977058 1.1439859e-38 345 279
0.031318039 0.68699998 -0.046977058 1.1256184e-38 346 279
0.032569919 0.68800002 -0.047045439 1.1256184e-38 347 279
0.033776212 0.68800002 -0.047045439 1.1348016e-38 348 279
0.03498251 0.68800002 -0.047045439 1.1348016e-38 349 279
0.036293998 0.69 -0.047182199 1.1348016e-38 350 279
0.03755815 0.69099998 -0.047250576 1.1440212e-38 351 279
0.038769703 0.69099998 -0.047250576 1.162424e-38 352 279
0.04009698 0.69300002 -0.047387339 1.162424e-38 353 279
0.041312039 0.69300002 -0.047387339 1.1716796e-38 354 279
0.042588469 0.69400001 -0.047455717 1.1808992e-38 355 279
0.043931518 0.69599998 -0.047592476 1.1901187e-38 356 279
0.045216713 0.69700003 -0.047660861 1.1993383e-38 357 279
0.046638668 0.69999999 -0.047865998 1.2176695e-38 358 279
0.047934376 0.70099998 -0.047934376 1.2268891e-38 359 279
0.049373865 0.704 -0.048139516 1.2544757e-38 360 279
0.050751984 0.70599997 -0.048276275 1.272915e-38 361 279
0.052137118 0.708 -0.048413038 1.3187604e-38 362 279
0.053378478 0.708 -0.048413038 1.4109919e-38 363 279
0.054774132 0.70999998 -0.048549797 1.6318645e-38 364 279
0.056018997 0.70999998 -0.048549797 1.7517548e-38 365 279
-0.040060159 0.71399999 -0.050075196 1.8619927e-38 288 280
-0.038808275 0.71399999 -0.050075196 1.6499067e-38 289 280
-0.037556399 0.71399999 -0.050075196 1.5026816e-38 290 280
-0.036253672 0.713 -0.050005067 1.4658032e-38 291 280
-0.035003547 0.713 -0.050005067 1.3647121e-38 292 280
-0.033753417 0.713 -0.050005067 1.2632969e-38 293 280
-0.032503292 0.713 -0.050005067 1.0699748e-38 294 280
-0.030727165 0.70099998 -0.049163464 1.106889e-38 295 280
-0.02932976 0.69700003 -0.048882935 1.2817736e-38 296 280
-0.028107686 0.69700003 -0.048882935 1.3002127e-38 297 280
-0.026847038 0.69599998 -0.048812799 1.3185439e-38 298 280
-0.025553079 0.69400001 -0.048672531 1.3093244e-38 299 280
-0.024301201 0.69300002 -0.048602402 1.2542235e-38 300 280
-0.023019511 0.69099998 -0.04846213 1.2542235e-38 301 280
-0.021776399 0.69 -0.048391998 1.2359644e-38 302 280
-0.020477179 0.68699998 -0.048181597 1.245184e-38 303 280
-0.019272638 0.68699998 -0.048181597 1.2544038e-38 304 280
-0.018068098 0.68699998 -0.048181597 1.2544038e-38 305 280
-0.01686356 0.68699998 -0.048181597 1.2452206e-38 306 280
-0.015636226 0.68599999 -0.048111461 1.2544401e-38 307 280
-0.01439136 0.68400002 -0.0479712 1.2636237e-38 308 280
-0.013172794 0.68300003 -0.047901068 1.2636237e-38 309 280
-0.011975267 0.68300003 -0.047901068 1.2361092e-38 310 280
-0.010761959 0.68199998 -0.047830928 1.2361092e-38 311 280
-0.009566186 0.68199998 -0.047830928 1.2361092e-38 312 280
-0.0083704125 0.68199998 -0.047830928 1.2361092e-38 313 280
-0.0071535995 0.68000001 -0.047690667 1.2453289e-38 314 280
-0.0059613334 0.68000001 -0.047690667 1.2453289e-38 315 280
-0.0047690663 0.68000001 -0.047690667 1.2728797e-38 316 280
-0.0035767998 0.68000001 -0.047690667 1.2728797e-38 317 280
-0.0023845332 0.68000001 -0.047690667 1.2821351e-38 318 280
-0.0011922666 0.68000001 -0.047690667 1.2728797e-38 319 280
0 0.68000001 -0.047690667 1.2729872e-38 320 280
0.0011922666 0.68000001 -0.047690667 1.2729872e-38 321 280
0.0023845332 0.68000001 -0.047690667 1.2454008e-38 322 280
0.0035767998 0.68000001 -0.047690667 1.2454008e-38 323 280
0.0047690663 0.68000001 -0.047690667 1.2454011e-38 324 280
0.0059613334 0.68000001 -0.047690667 1.2454011e-38 325 280
0.0071535995 0.68000001 -0.047690667 1.227034e-38 326 280
0.0083458666 0.68000001 -0.047690667 1.2178144e-38 327 280
0.0095381327 0.68000001 -0.047690667 1.2360736e-38 328 280
0.0107304 0.68000001 -0.047690667 1.2360736e-38 329 280
0.011922667 0.68000001 -0.047690667 1.2086667e-38 330 280
0.013114933 0.68000001 -0.047690667 1.1902635e-38 331 280
0.014307199 0.68000001 -0.047690667 1.1810083e-38 332 280
0.015499466 0.68000001 -0.047690667 1.1810083e-38 333 280
0.016691733 0.68000001 -0.047690667 1.2085231e-38 334 280
0.017936599 0.68199998 -0.047830928 1.1993035e-38 335 280
0.019132372 0.68199998 -0.047830928 1.1810083e-38 336 280
0.020328145 0.68199998 -0.047830928 1.1625692e-38 337 280
0.021523919 0.68199998 -0.047830928 1.1624973e-38 338 280
0.022719691 0.68199998 -0.047830928 1.1624973e-38 339 280
0.023915464 0.68199998 -0.047830928 1.1716087e-38 340 280
0.02514806 0.68300003 -0.047901068 1.1716087e-38 341 280
0.02638416 0.68400002 -0.0479712 1.1624246e-38 342 280
0.027664091 0.68599999 -0.048111461 1.1624246e-38 343 280
0.028908957 0.68699998 -0.048181597 1.1439856e-38 344 280
0.030113498 0.68699998 -0.048181597 1.134766e-38 345 280
0.031318039 0.68699998 -0.048181597 1.134766e-38 346 280
0.032569919 0.68800002 -0.048251733 1.134766e-38 347 280
0.033776212 0.68800002 -0.048251733 1.134766e-38 348 280
0.03498251 0.68800002 -0.048251733 1.134766e-38 349 280
0.036293998 0.69 -0.048391998 1.1348016e-38 350 280
0.03755815 0.69099998 -0.04846213 1.1440212e-38 351 280
0.03888192 0.69300002 -0.048602402 1.1623524e-38 352 280
0.04009698 0.69300002 -0.048602402 1.171572e-38 353 280
0.041371655 0.69400001 -0.048672531 1.1533131e-38 354 280
0.042588469 0.69400001 -0.048672531 1.1809357e-38 355 280
0.043931518 0.69599998 -0.048812799 1.2084502e-38 356 280
0.045281585 0.69800001 -0.048953064 1.2084502e-38 357 280
0.046638668 0.69999999 -0.049093332 1.2176695e-38 358 280
0.048071139 0.70300001 -0.049303733 1.2176695e-38 359 280
0.049373865 0.704 -0.049373865 1.2544757e-38 360 280
0.050751984 0.70599997 -0.04951413 1.272915e-38 361 280
0.052137118 0.708 -0.049654398 1.346455e-38 362 280
0.053378478 0.708 -0.049654398 1.4570898e-38 363 280
0.054851279 0.71100003 -0.049864799 1.7238084e-38 364 280
-0.040172372 0.71600002 -0.051470853 1.8436612e-38 288 281
-0.038916986 0.71600002 -0.051470853 1.6961122e-38 289 281
-0.037556399 0.71399999 -0.05132708 1.5394878e-38 290 281
-0.036304519 0.71399999 -0.05132708 1.4749509e-38 291 281
-0.035003547 0.713 -0.051255193 1.3647121e-38 292 281
-0.033753417 0.713 -0.051255193 1.134223e-38 293 281
-0.032503292 0.713 -0.051255193 1.332775e-41 294 281
-0.030551834 0.69700003 -0.050105009 1.771167e-39 295 281
-0.02932976 0.69700003 -0.050105009 8.7647379e-39 296 281
-0.028107686 0.69700003 -0.050105009 1.0793042e-38 297 281
-0.026885614 0.69700003 -0.050105009 1.2999972e-38 298 281
-0.025626717 0.69599998 -0.050033119 1.346095e-38 299 281
-0.024301201 0.69300002 -0.049817458 1.2726985e-38 300 281
-0.023019511 0.69099998 -0.049673684 1.2726985e-38 301 281
-0.021776399 0.69 -0.049601797 1.2817746e-38 302 281
-0.020506985 0.68800002 -0.049458027 1.29103e-38 303 281
-0.019272638 0.68699998 -0.049386136 1.2635152e-38 304 281
-0.018068098 0.68699998 -0.049386136 1.2451121e-38 305 281
-0.01686356 0.68699998 -0.049386136 1.2727351e-38 306 281
-0.015636226 0.68599999 -0.049314249 1.2727351e-38 307 281
-0.01439136 0.68400002 -0.049170479 1.2727351e-38 308 281
-0.01319208 0.68400002 -0.049170479 1.2727351e-38 309 281
-0.011975267 0.68300003 -0.049098592 1.2452562e-38 310 281
-0.01077774 0.68300003 -0.049098592 1.2452562e-38 311 281
-0.009566186 0.68199998 -0.049026705 1.2544757e-38 312 281
-0.0083704125 0.68199998 -0.049026705 1.2544757e-38 313 281
-0.00717464 0.68199998 -0.049026705 1.2544401e-38 314 281
-0.0059613334 0.68000001 -0.048882935 1.2636957e-38 315 281
-0.0047690663 0.68000001 -0.048882935 1.2819914e-38 316 281
-0.0035767998 0.68000001 -0.048882935 1.2912468e-38 317 281
-0.0023845332 0.68000001 -0.048882935 1.2821351e-38 318 281
-0.0011922666 0.68000001 -0.048882935 1.2821351e-38 319 281
0 0.68000001 -0.048882935 1.27288e-38 320 281
0.0011922666 0.68000001 -0.048882935 1.27288e-38 321 281
0.0023845332 0.68000001 -0.048882935 1.2454011e-38 322 281
0.0035767998 0.68000001 -0.048882935 1.2454011e-38 323 281
0.0047690663 0.68000001 -0.048882935 1.2178144e-38 324 281
0.0059613334 0.68000001 -0.048882935 1.2178144e-38 325 281
0.0071535995 0.68000001 -0.048882935 1.2269615e-38 326 281
0.0083335936 0.67900002 -0.048811045 1.2361812e-38 327 281
0.009524107 0.67900002 -0.048811045 1.2085944e-38 328 281
0.0107304 0.68000001 -0.048882935 1.2085944e-38 329 281
0.011922667 0.68000001 -0.048882935 1.2085944e-38 330 281
0.013114933 0.68000001 -0.048882935 1.2085944e-38 331 281
0.014307199 0.68000001 -0.048882935 1.1993751e-38 332 281
0.015545053 0.68199998 -0.049026705 1.1901556e-38 333 281
0.016740825 0.68199998 -0.049026705 1.2085231e-38 334 281
0.017936599 0.68199998 -0.049026705 1.1993035e-38 335 281
0.019132372 0.68199998 -0.049026705 1.1993033e-38 336 281
0.020328145 0.68199998 -0.049026705 1.1900837e-38 337 281
0.021523919 0.68199998 -0.049026705 1.1808285e-38 338 281
0.022719691 0.68199998 -0.049026705 1.171609e-38 339 281
0.023950534 0.68300003 -0.049098592 1.1715369e-38 340 281
0.02514806 0.68300003 -0.049098592 1.1715369e-38 341 281
0.02638416 0.68400002 -0.049170479 1.1440578e-38 342 281
0.027704418 0.68699998 -0.049386136 1.1440578e-38 343 281
0.028908957 0.68699998 -0.049386136 1.134766e-38 344 281
0.030113498 0.68699998 -0.049386136 1.134766e-38 345 281
0.031318039 0.68699998 -0.049386136 1.1899032e-38 346 281
0.032569919 0.68800002 -0.049458027 1.1899032e-38 347 281
0.033776212 0.68800002 -0.049458027 1.1899388e-38 348 281
0.03498251 0.68800002 -0.049458027 1.1807192e-38 349 281
0.036293998 0.69 -0.049601797 1.1807192e-38 350 281
0.03755815 0.69099998 -0.049673684 1.1622802e-38 351 281
0.03888192 0.69300002 -0.049817458 1.1440212e-38 352 281
0.04009698 0.69300002 -0.049817458 1.1624243e-38 353 281
0.041371655 0.69400001 -0.049889345 1.1808636e-38 354 281
0.042588469 0.69400001 -0.049889345 1.190119e-38 355 281
0.043931518 0.69599998 -0.050033119 1.2175979e-38 356 281
0.045281585 0.69800001 -0.050176892 1.2268175e-38 357 281
0.046638668 0.69999999 -0.050320663 1.2176698e-38 358 281
0.048071139 0.70300001 -0.050536323 1.2361089e-38 359 281
0.04951413 0.70599997 -0.050751984 1.2636954e-38 360 281
0.050823875 0.70700002 -0.050823875 1.2821346e-38 361 281
0.052137118 0.708 -0.050895758 1.383333e-38 362 281
0.053378478 0.708 -0.050895758 1.5124069e-38 363 281
0.054619838 0.708 -0.050895758 1.7883454e-38 364 281
-0.038916986 0.71600002 -0.052726239 1.7514296e-38 289 282
-0.037556399 0.71399999 -0.052578956 1.5855134e-38 290 282
-0.036304519 0.71399999 -0.052578956 1.5117568e-38 291 282
-0.035003547 0.713 -0.052505318 1.4015178e-38 292 282
-0.033753417 0.713 -0.052505318 1.1525896e-38 293 282
-0.032503292 0.713 -0.052505318 5.6362606e-40 294 282
-0.030551834 0.69700003 -0.051327083 1.1164411e-39 295 282
-0.02932976 0.69700003 -0.051327083 5.1662329e-39 296 282
-0.028107686 0.69700003 -0.051327083 6.5491688e-39 297 282
-0.026885614 0.69700003 -0.051327083 7.9339011e-39 298 282
-0.025626717 0.69599998 -0.051253434 9.8700093e-39 299 282
-0.024301201 0.69300002 -0.051032521 1.1252221e-38 300 282
-0.023019511 0.69099998 -0.050885238 1.1713559e-38 301 282
-0.021776399 0.69 -0.050811596 1.2357845e-38 302 282
-0.020506985 0.68800002 -0.050664321 1.2726629e-38 303 282
-0.019300694 0.68800002 -0.050664321 1.2450768e-38 304 282
-0.018068098 0.68699998 -0.050590675 1.2266377e-38 305 282
-0.01686356 0.68699998 -0.050590675 1.2359294e-38 306 282
-0.015636226 0.68599999 -0.050517038 1.2359294e-38 307 282
-0.01443344 0.68599999 -0.050517038 1.2450768e-38 308 282
-0.01319208 0.68400002 -0.050369758 1.2634799e-38 309 282
-0.0119928 0.68400002 -0.050369758 1.2268175e-38 310 282
-0.01077774 0.68300003 -0.05029612 1.2452206e-38 311 282
-0.009566186 0.68199998 -0.050222475 1.2268891e-38 312 282
-0.0083704125 0.68199998 -0.050222475 1.2268891e-38 313 282
-0.00717464 0.68199998 -0.050222475 1.2452206e-38 314 282
-0.005978866 0.68199998 -0.050222475 1.2544401e-38 315 282
-0.004783093 0.68199998 -0.050222475 1.2361092e-38 316 282
-0.0035767998 0.68000001 -0.050075196 1.2361092e-38 317 282
-0.0023845332 0.68000001 -0.050075196 1.2453292e-38 318 282
-0.0011922666 0.68000001 -0.050075196 1.2453292e-38 319 282
0 0.68000001 -0.050075196 1.2452936e-38 320 282
0.0011922666 0.68000001 -0.050075196 1.2452936e-38 321 282
0.0023845332 0.68000001 -0.050075196 1.2361456e-38 322 282
0.0035767998 0.68000001 -0.050075196 1.2361456e-38 323 282
0.0047690663 0.68000001 -0.050075196 1.2361456e-38 324 282
0.0059613334 0.68000001 -0.050075196 1.2269259e-38 325 282
0.0071535995 0.68000001 -0.050075196 1.2269259e-38 326 282
0.0083335936 0.67900002 -0.050001562 1.2085228e-38 327 282
0.009524107 0.67900002 -0.050001562 1.1993751e-38 328 282
0.0107304 0.68000001 -0.050075196 1.1993751e-38 329 282
0.011922667 0.68000001 -0.050075196 1.1718244e-38 330 282
0.013114933 0.68000001 -0.050075196 1.1810439e-38 331 282
0.014307199 0.68000001 -0.050075196 1.1717888e-38 332 282
0.015545053 0.68199998 -0.050222475 1.1717888e-38 333 282
0.016740825 0.68199998 -0.050222475 1.2176348e-38 334 282
0.017936599 0.68199998 -0.050222475 1.2084152e-38 335 282
0.019132372 0.68199998 -0.050222475 1.1901556e-38 336 282
0.020328145 0.68199998 -0.050222475 1.162497e-38 337 282
0.021523919 0.68199998 -0.050222475 1.1716087e-38 338 282
0.022753006 0.68300003 -0.05029612 1.1716087e-38 339 282
0.023950534 0.68300003 -0.05029612 1.1716087e-38 340 282
0.025184879 0.68400002 -0.050369758 1.162389e-38 341 282
0.02638416 0.68400002 -0.050369758 1.1624246e-38 342 282
0.027704418 0.68699998 -0.050590675 1.1624246e-38 343 282
0.028908957 0.68699998 -0.050590675 1.1255821e-38 344 282
0.030113498 0.68699998 -0.050590675 1.1163266e-38 345 282
0.031318039 0.68699998 -0.050590675 1.1896871e-38 346 282
0.032569919 0.68800002 -0.050664321 1.1528089e-38 347 282
0.033776212 0.68800002 -0.050664321 1.0515379e-38 348 282
0.03498251 0.68800002 -0.050664321 1.0423183e-38 349 282
0.036346599 0.69099998 -0.050885238 1.033495e-38 350 282
0.037666857 0.69300002 -0.051032521 1.098032e-38 351 282
0.03888192 0.69300002 -0.051032521 1.0890278e-38 352 282
0.040154841 0.69400001 -0.051106159 1.1074671e-38 353 282
0.041371655 0.69400001 -0.051106159 1.1625323e-38 354 282
0.042711195 0.69599998 -0.051253434 1.1809355e-38 355 282
0.043994639 0.69700003 -0.051327083 1.2084502e-38 356 282
0.045281585 0.69800001 -0.051400717 1.2176698e-38 357 282
0.046638668 0.69999999 -0.051547997 1.2268894e-38 358 282
0.048139516 0.704 -0.051842559 1.2361089e-38 359 282
0.049584266 0.70700002 -0.05206348 1.2729153e-38 360 282
0.050895758 0.708 -0.052137118 1.2913544e-38 361 282
0.052284397 0.70999998 -0.052284397 1.4108838e-38 362 282
0.053604662 0.71100003 -0.052358042 1.5676522e-38 363 282
-0.037556399 0.71399999 -0.053830836 1.6500148e-38 290 283
-0.036304519 0.71399999 -0.053830836 1.5485995e-38 291 283
-0.035003547 0.713 -0.053755447 1.4382884e-38 292 283
-0.033753417 0.713 -0.053755447 1.2170549e-38 293 283
-0.032503292 0.713 -0.053755447 5.071138e-39 294 283
-0.030551834 0.69700003 -0.052549154 4.6097997e-39 295 283
-0.02932976 0.69700003 -0.052549154 4.1481069e-39 296 283
-0.028107686 0.69700003 -0.052549154 2.5804211e-39 297 283
-0.026885614 0.69700003 -0.052549154 8.384277e-40 298 283
-0.025626717 0.69599998 -0.052473757 3.512101e-39 299 283
-0.024301201 0.69300002 -0.05224758 6.5513324e-39 300 283
-0.023019511 0.69099998 -0.052096792 8.4874406e-39 301 283
-0.021807959 0.69099998 -0.052096792 1.0145876e-38 302 283
-0.020566599 0.69 -0.052021399 1.1251865e-38 303 283
-0.019300694 0.68800002 -0.051870614 1.1530607e-38 304 283
-0.018068098 0.68699998 -0.051795214 1.1899388e-38 305 283
-0.01686356 0.68699998 -0.051795214 1.2359291e-38 306 283
-0.015636226 0.68599999 -0.051719822 1.2451487e-38 307 283
-0.01443344 0.68599999 -0.051719822 1.2267093e-38 308 283
-0.01319208 0.68400002 -0.051569041 1.2267093e-38 309 283
-0.0119928 0.68400002 -0.051569041 1.1901187e-38 310 283
-0.01079352 0.68400002 -0.051569041 1.1901187e-38 311 283
-0.0095802136 0.68300003 -0.051493648 1.2084499e-38 312 283
-0.0083704125 0.68199998 -0.051418249 1.2084499e-38 313 283
-0.00717464 0.68199998 -0.051418249 1.2176698e-38 314 283
-0.005978866 0.68199998 -0.051418249 1.2176698e-38 315 283
-0.004783093 0.68199998 -0.051418249 1.2176342e-38 316 283
-0.00358732 0.68199998 -0.051418249 1.2176342e-38 317 283
-0.0023915465 0.68199998 -0.051418249 1.2085231e-38 318 283
-0.0011957732 0.68199998 -0.051418249 1.2085231e-38 319 283
0 0.68199998 -0.051418249 1.2268906e-38 320 283
0.0011922666 0.68000001 -0.051267464 1.2268906e-38 321 283
0.0023845332 0.68000001 -0.051267464 1.2269262e-38 322 283
0.0035767998 0.68000001 -0.051267464 1.2361459e-38 323 283
0.0047690663 0.68000001 -0.051267464 1.2269259e-38 324 283
0.0059613334 0.68000001 -0.051267464 1.2085228e-38 325 283
0.0071535995 0.68000001 -0.051267464 1.2085231e-38 326 283
0.0083458666 0.68000001 -0.051267464 1.1993035e-38 327 283
0.0095381327 0.68000001 -0.051267464 1.19012e-38 328 283
0.0107304 0.68000001 -0.051267464 1.1809004e-38 329 283
0.011922667 0.68000001 -0.051267464 1.1625695e-38 330 283
0.013114933 0.68000001 -0.051267464 1.1625695e-38 331 283
0.014307199 0.68000001 -0.051267464 1.171789e-38 332 283
0.015545053 0.68199998 -0.051418249 1.1625695e-38 333 283
0.016740825 0.68199998 -0.051418249 1.180936e-38 334 283
0.017936599 0.68199998 -0.051418249 1.180936e-38 335 283
0.019132372 0.68199998 -0.051418249 1.2176342e-38 336 283
0.020328145 0.68199998 -0.051418249 1.2084146e-38 337 283
0.02155548 0.68300003 -0.051493648 1.2450768e-38 338 283
0.022753006 0.68300003 -0.051493648 1.2450768e-38 339 283
0.0239856 0.68400002 -0.051569041 1.2451124e-38 340 283
0.025184879 0.68400002 -0.051569041 1.2451124e-38 341 283
0.026461305 0.68599999 -0.051719822 1.226673e-38 342 283
0.027704418 0.68699998 -0.051795214 1.1989783e-38 343 283
0.028908957 0.68699998 -0.051795214 1.1619556e-38 344 283
0.030157333 0.68800002 -0.051870614 1.0789795e-38 345 283
0.031363625 0.68800002 -0.051870614 1.0327372e-38 346 283
0.032569919 0.68800002 -0.051870614 9.0366333e-39 347 283
0.0338744 0.69 -0.052021399 5.7251562e-39 348 283
0.035135046 0.69099998 -0.052096792 5.5407636e-39 349 283
0.036451802 0.69300002 -0.05224758 6.7454346e-39 350 283
0.037721213 0.69400001 -0.052322973 9.5113035e-39 351 283
0.038938027 0.69400001 -0.052322973 1.1533849e-38 352 283
0.040270556 0.69599998 -0.052473757 1.1441295e-38 353 283
0.041550495 0.69700003 -0.052549154 1.190119e-38 354 283
0.042772565 0.69700003 -0.052549154 1.190119e-38 355 283
0.04405776 0.69800001 -0.052624546 1.2175979e-38 356 283
0.04541133 0.69999999 -0.052775331 1.2268175e-38 357 283
0.046705291 0.70099998 -0.052850723 1.2452206e-38 358 283
0.048139516 0.704 -0.053076904 1.2544401e-38 359 283
0.049584266 0.70700002 -0.053303085 1.3096493e-38 360 283
0.050895758 0.708 -0.053378478 1.3464916e-38 361 283
0.052284397 0.70999998 -0.053529263 1.4844959e-38 362 283
0.053529263 0.70999998 -0.053529263 1.6227895e-38 363 283
-0.036304519 0.71399999 -0.05508272 1.6130645e-38 291 284
-0.035052639 0.71399999 -0.05508272 1.4659112e-38 292 284
-0.033800758 0.71399999 -0.05508272 1.2907035e-38 293 284
-0.032548878 0.71399999 -0.05508272 5.6246621e-39 294 284
-0.030551834 0.69700003 -0.053771228 4.9792927e-39 295 284
-0.02932976 0.69700003 -0.053771228 5.5299455e-39 296 284
-0.028107686 0.69700003 -0.053771228 4.5154335e-39 297 284
-0.026885614 0.69700003 -0.053771228 3.3190581e-39 298 284
-0.025663542 0.69700003 -0.053771228 3.3190581e-39 299 284
-0.0244064 0.69599998 -0.053694077 3.2276108e-39 300 284
-0.023119451 0.69400001 -0.053539783 3.5963933e-39 301 284
-0.021871079 0.69300002 -0.053462639 3.4120146e-39 302 284
-0.020596405 0.69099998 -0.053308345 4.4265267e-39 303 284
-0.019300694 0.68800002 -0.053076908 5.4525476e-39 304 284
-0.018068098 0.68699998 -0.052999757 8.4028078e-39 305 284
-0.01686356 0.68699998 -0.052999757 1.2175626e-38 306 284
-0.015659019 0.68699998 -0.052999757 1.2267822e-38 307 284
-0.01443344 0.68599999 -0.05292261 1.2174897e-38 308 284
-0.013230653 0.68599999 -0.05292261 1.2267093e-38 309 284
-0.012027865 0.68599999 -0.05292261 1.1992304e-38 310 284
-0.01079352 0.68400002 -0.05276832 1.1992304e-38 311 284
-0.0095802136 0.68300003 -0.052691177 1.2084137e-38 312 284
-0.0083704125 0.68199998 -0.052614026 1.2176332e-38 313 284
-0.00717464 0.68199998 -0.052614026 1.2175976e-38 314 284
-0.005978866 0.68199998 -0.052614026 1.2268172e-38 315 284
-0.004783093 0.68199998 -0.052614026 1.2084146e-38 316 284
-0.00358732 0.68199998 -0.052614026 1.2084146e-38 317 284
-0.0023915465 0.68199998 -0.052614026 1.1900481e-38 318 284
-0.0011957732 0.68199998 -0.052614026 1.1993035e-38 319 284
0 0.68199998 -0.052614026 1.2268543e-38 320 284
0.0011922666 0.68000001 -0.052459732 1.2268543e-38 321 284
0.0023845332 0.68000001 -0.052459732 1.2360739e-38 322 284
0.0035767998 0.68000001 -0.052459732 1.2360739e-38 323 284
0.0047690663 0.68000001 -0.052459732 1.2269262e-38 324 284
0.0059613334 0.68000001 -0.052459732 1.2085231e-38 325 284
0.0071535995 0.68000001 -0.052459732 1.2085231e-38 326 284
0.0083458666 0.68000001 -0.052459732 1.1993035e-38 327 284
0.0095381327 0.68000001 -0.052459732 1.19012e-38 328 284
0.0107304 0.68000001 -0.052459732 1.1809004e-38 329 284
0.011922667 0.68000001 -0.052459732 1.1625695e-38 330 284
0.013114933 0.68000001 -0.052459732 1.1625695e-38 331 284
0.014307199 0.68000001 -0.052459732 1.1625692e-38 332 284
0.015545053 0.68199998 -0.052614026 1.1717888e-38 333 284
0.016740825 0.68199998 -0.052614026 1.1718238e-38 334 284
0.017936599 0.68199998 -0.052614026 1.0980673e-38 335 284
0.019132372 0.68199998 -0.052614026 1.097671e-38 336 284
0.020328145 0.68199998 -0.052614026 1.0700123e-38 337 284
0.02155548 0.68300003 -0.052691177 1.0789079e-38 338 284
0.022753006 0.68300003 -0.052691177 1.0235905e-38 339 284
0.0239856 0.68400002 -0.05276832 9.498703e-39 340 284
0.025258519 0.68599999 -0.05292261 8.5771055e-39 341 284
0.026461305 0.68599999 -0.05292261 7.927783e-39 342 284
0.027744746 0.68800002 -0.053076908 6.3608174e-39 343 284
0.028951041 0.68800002 -0.053076908 5.0686339e-39 344 284
0.030157333 0.68800002 -0.053076908 4.3310688e-39 345 284
0.031363625 0.68800002 -0.053076908 3.781118e-39 346 284
0.032664597 0.69 -0.053231198 3.5041724e-39 347 284
0.0338744 0.69 -0.053231198 1.406203e-41 348 284
0.035236739 0.69300002 -0.053462639 1.6735834e-39 349 284
0.036504399 0.69400001 -0.053539783 5.2703045e-39 350 284
0.037721213 0.69400001 -0.053539783 9.5113035e-39 351 284
0.039050236 0.69599998 -0.053694077 1.2452206e-38 352 284
0.040328421 0.69700003 -0.053771228 1.2083783e-38 353 284
0.041550495 0.69700003 -0.053771228 1.2175979e-38 354 284
0.042833932 0.69800001 -0.053848371 1.2175979e-38 355 284
0.044183996 0.69999999 -0.054002665 1.2268175e-38 356 284
0.045476202 0.70099998 -0.054079808 1.2452206e-38 357 284
0.046838548 0.70300001 -0.054234106 1.2636234e-38 358 284
0.048276275 0.70599997 -0.054465543 1.2820267e-38 359 284
0.04951413 0.70599997 -0.054465543 1.3187604e-38 360 284
0.050823875 0.70700002 -0.054542694 1.3648581e-38 361 284
0.052284397 0.70999998 -0.054774132 1.5857668e-38 362 284
0.053529263 0.70999998 -0.054774132 1.6687429e-38 363 284
-0.030551834 0.69700003 -0.054993302 4.9785612e-39 295 285
-0.02932976 0.69700003 -0.054993302 6.1738604e-39 296 285
-0.028107686 0.69700003 -0.054993302 5.9894691e-39 297 285
-0.026885614 0.69700003 -0.054993302 5.3444767e-39 298 285
-0.025663542 0.69700003 -0.054993302 4.8834971e-39 299 285
-0.024441468 0.69700003 -0.054993302 3.3179861e-39 300 285
-0.023186078 0.69599998 -0.054914396 2.2119987e-39 301 285
-0.021965759 0.69599998 -0.054914396 4.6173205e-40 302 285
-0.020656019 0.69300002 -0.054677699 3.5032462e-44 303 285
-0.019356798 0.69 -0.054440998 1.3724317e-41 304 285
-0.018068098 0.68699998 -0.054204296 4.5338311e-39 305 285
-0.01686356 0.68699998 -0.054204296 1.1715372e-38 306 285
-0.015659019 0.68699998 -0.054204296 1.2360742e-38 307 285
-0.014454478 0.68699998 -0.054204296 1.1991585e-38 308 285
-0.013230653 0.68599999 -0.054125395 1.1991585e-38 309 285
-0.012027865 0.68599999 -0.054125395 1.1991585e-38 310 285
-0.01079352 0.68400002 -0.053967599 1.1991585e-38 311 285
-0.0095802136 0.68300003 -0.053888701 1.1992307e-38 312 285
-0.0083826864 0.68300003 -0.053888701 1.1992307e-38 313 285
-0.0071851597 0.68300003 -0.053888701 1.1992307e-38 314 285
-0.005978866 0.68199998 -0.053809796 1.1992307e-38 315 285
-0.004783093 0.68199998 -0.053809796 1.1808638e-38 316 285
-0.00358732 0.68199998 -0.053809796 1.1808638e-38 317 285
-0.0023915465 0.68199998 -0.053809796 1.1808285e-38 318 285
-0.0011957732 0.68199998 -0.053809796 1.1900481e-38 319 285
0 0.68199998 -0.053809796 1.1900484e-38 320 285
0.0011957732 0.68199998 -0.053809796 1.1900484e-38 321 285
0.0023845332 0.68000001 -0.053652 1.1901203e-38 322 285
0.0035767998 0.68000001 -0.053652 1.1993398e-38 323 285
0.0047690663 0.68000001 -0.053652 1.1993398e-38 324 285
0.0059613334 0.68000001 -0.053652 1.1901203e-38 325 285
0.0071535995 0.68000001 -0.053652 1.1992679e-38 326 285
0.0083458666 0.68000001 -0.053652 1.1900484e-38 327 285
0.0095381327 0.68000001 -0.053652 1.1809004e-38 328 285
0.0107304 0.68000001 -0.053652 1.1809004e-38 329 285
0.011922667 0.68000001 -0.053652 1.1625695e-38 330 285
0.013114933 0.68000001 -0.053652 1.1625695e-38 331 285
0.014307199 0.68000001 -0.053652 1.153314e-38 332 285
0.015545053 0.68199998 -0.053809796 1.1810086e-38 333 285
0.016740825 0.68199998 -0.053809796 1.15342e-38 334 285
0.017936599 0.68199998 -0.053809796 9.7824828e-39 335 285
0.019132372 0.68199998 -0.053809796 8.7636393e-39 336 285
0.020328145 0.68199998 -0.053809796 8.2104655e-39 337 285
0.02155548 0.68300003 -0.053888701 8.0231904e-39 338 285
0.022753006 0.68300003 -0.053888701 6.3633089e-39 339 285
0.0239856 0.68400002 -0.053967599 4.6119521e-39 340 285
0.025258519 0.68599999 -0.054125395 2.9524308e-39 341 285
0.026461305 0.68599999 -0.054125395 1.8421343e-39 342 285
0.027704418 0.68699998 -0.054204296 9.2017665e-40 343 285
0.028951041 0.68800002 -0.054283202 4.5991877e-40 344 285
0.030157333 0.68800002 -0.054283202 8.2906002e-40 345 285
0.031454802 0.69 -0.054440998 1.1056441e-39 346 285
0.032664597 0.69 -0.054440998 1.4744266e-39 347 285
0.033923492 0.69099998 -0.054519895 7.5796234e-42 348 285
0.035287585 0.69400001 -0.054756597 1.025693e-39 349 285
0.036609598 0.69599998 -0.054914396 5.4518147e-39 350 285
0.037884273 0.69700003 -0.054993302 1.0061596e-38 351 285
0.039106347 0.69700003 -0.054993302 1.2544757e-38 352 285
0.040386278 0.69800001 -0.0550722 1.2175976e-38 353 285
0.041610107 0.69800001 -0.0550722 1.2175976e-38 354 285
0.042956665 0.69999999 -0.055229999 1.2268172e-38 355 285
0.044183996 0.69999999 -0.055229999 1.2451843e-38 356 285
0.04560595 0.70300001 -0.0554667 1.2544038e-38 357 285
0.046838548 0.70300001 -0.0554667 1.2912099e-38 358 285
0.048276275 0.70599997 -0.055703394 1.3096491e-38 359 285
0.04951413 0.70599997 -0.055703394 1.3187237e-38 360 285
0.050823875 0.70700002 -0.055782299 1.3832607e-38 361 285
0.05206348 0.70700002 -0.055782299 1.6777459e-38 362 285
-0.030551834 0.69700003 -0.056215372 5.2551481e-39 295 286
-0.02932976 0.69700003 -0.056215372 5.8058037e-39 296 286
-0.028107686 0.69700003 -0.056215372 5.8979994e-39 297 286
-0.026885614 0.69700003 -0.056215372 5.1625993e-39 298 286
-0.025663542 0.69700003 -0.056215372 4.7941756e-39 299 286
-0.024441468 0.69700003 -0.056215372 4.3324855e-39 300 286
-0.023219392 0.69700003 -0.056215372 3.8718661e-39 301 286
-0.02199732 0.69700003 -0.056215372 3.5938499e-39 302 286
-0.020775247 0.69700003 -0.056215372 3.0406775e-39 303 286
-0.019300694 0.68800002 -0.055489492 3.6503825e-42 304 286
-0.0180944 0.68800002 -0.055489492 2.6784026e-39 305 286
-0.01686356 0.68699998 -0.055408835 1.0609395e-38 306 286
-0.015659019 0.68699998 -0.055408835 1.2360753e-38 307 286
-0.014454478 0.68699998 -0.055408835 1.2267096e-38 308 286
-0.013249939 0.68699998 -0.055408835 1.1990868e-38 309 286
-0.012027865 0.68599999 -0.055328183 1.1991585e-38 310 286
-0.010825079 0.68599999 -0.055328183 1.1991585e-38 311 286
-0.0095942402 0.68400002 -0.055166878 1.1991588e-38 312 286
-0.0083949603 0.68400002 -0.055166878 1.2083783e-38 313 286
-0.0071851597 0.68300003 -0.055086225 1.1992307e-38 314 286
-0.0059876335 0.68300003 -0.055086225 1.1992307e-38 315 286
-0.0047901068 0.68300003 -0.055086225 1.1807917e-38 316 286
-0.0035925799 0.68300003 -0.055086225 1.1992307e-38 317 286
-0.0023950534 0.68300003 -0.055086225 1.1808638e-38 318 286
-0.0011957732 0.68199998 -0.055005573 1.1808638e-38 319 286
0 0.68199998 -0.055005573 1.1808638e-38 320 286
0.0011957732 0.68199998 -0.055005573 1.1900834e-38 321 286
0.0023845332 0.68000001 -0.054844268 1.2084149e-38 322 286
0.0035767998 0.68000001 -0.054844268 1.2176345e-38 323 286
0.0047690663 0.68000001 -0.054844268 1.2176345e-38 324 286
0.0059613334 0.68000001 -0.054844268 1.2176345e-38 325 286
0.0071535995 0.68000001 -0.054844268 1.1900837e-38 326 286
0.0083458666 0.68000001 -0.054844268 1.1900837e-38 327 286
0.0095381327 0.68000001 -0.054844268 1.1808641e-38 328 286
0.0107304 0.68000001 -0.054844268 1.1900837e-38 329 286
0.011922667 0.68000001 -0.054844268 1.1532777e-38 330 286
0.013114933 0.68000001 -0.054844268 1.1532777e-38 331 286
0.014307199 0.68000001 -0.054844268 1.1624976e-38 332 286
0.015545053 0.68199998 -0.055005573 1.1624976e-38 333 286
0.016740825 0.68199998 -0.055005573 9.9697607e-39 334 286
0.017936599 0.68199998 -0.055005573 4.8993612e-39 335 286
0.019132372 0.68199998 -0.055005573 2.183223e-42 336 286
0.020357953 0.68300003 -0.055086225 1.8909542e-40 337 286
0.02155548 0.68300003 -0.055086225 8.3409629e-40 338 286
0.022786319 0.68400002 -0.055166878 7.4190066e-40 339 286
0.024055731 0.68599999 -0.055328183 2.119073e-39 340 286
0.025258519 0.68599999 -0.055328183 2.2112686e-39 341 286
0.026499879 0.68699998 -0.055408835 4.1401868e-39 342 286
0.027704418 0.68699998 -0.055408835 4.1401868e-39 343 286
0.029035198 0.69 -0.055650797 3.0392342e-39 344 286
0.030244999 0.69 -0.055650797 3.2236255e-39 345 286
0.031500384 0.69099998 -0.055731449 2.7655186e-39 346 286
0.032711938 0.69099998 -0.055731449 3.0417467e-39 347 286
0.034218054 0.69700003 -0.056215372 2.306711e-39 348 286
0.035490975 0.69800001 -0.056296028 3.3205042e-39 349 286
0.0367148 0.69800001 -0.056296028 6.2765307e-39 350 286
0.037938625 0.69800001 -0.056296028 1.0794117e-38 351 286
0.039162453 0.69800001 -0.056296028 1.2452559e-38 352 286
0.040502001 0.69999999 -0.056457333 1.2084137e-38 353 286
0.041729331 0.69999999 -0.056457333 1.2359642e-38 354 286
0.043018032 0.70099998 -0.056537982 1.2451837e-38 355 286
0.04437336 0.70300001 -0.056699295 1.2544392e-38 356 286
0.04560595 0.70300001 -0.056699295 1.2636587e-38 357 286
0.046905171 0.704 -0.056779943 1.2912813e-38 358 286
0.048276275 0.70599997 -0.056941248 1.3189758e-38 359 286
0.049584266 0.70700002 -0.057021905 1.3832963e-38 360 286
0.050823875 0.70700002 -0.057021905 1.4846756e-38 361 286
-0.030595668 0.69800001 -0.057519849 7.0968985e-39 295 287
-0.029371841 0.69800001 -0.057519849 5.8983553e-39 296 287
-0.028148014 0.69800001 -0.057519849 5.8983553e-39 297 287
-0.026924185 0.69800001 -0.057519849 5.9894719e-39 298 287
-0.025700359 0.69800001 -0.057519849 5.5284952e-39 299 287
-0.024441468 0.69700003 -0.05743745 5.3441025e-39 300 287
-0.023219392 0.69700003 -0.05743745 4.8831258e-39 301 287
-0.016888106 0.68800002 -0.056695789 7.9364346e-39 306 287
-0.015681813 0.68800002 -0.056695789 1.162462e-38 307 287
-0.014475521 0.68800002 -0.056695789 1.2359291e-38 308 287
-0.013249939 0.68699998 -0.056613375 1.21749e-38 309 287
-0.012045399 0.68699998 -0.056613375 1.1807917e-38 310 287
-0.010825079 0.68599999 -0.056530971 1.1807917e-38 311 287
-0.0096222926 0.68599999 -0.056530971 1.1991232e-38 312 287
-0.0083949603 0.68400002 -0.056366164 1.1899035e-38 313 287
-0.0071956799 0.68400002 -0.056366164 1.180792e-38 314 287
-0.0059964 0.68400002 -0.056366164 1.180792e-38 315 287
-0.0047901068 0.68300003 -0.056283753 1.1716443e-38 316 287
-0.0035925799 0.68300003 -0.056283753 1.1716443e-38 317 287
-0.0023950534 0.68300003 -0.056283753 1.1716087e-38 318 287
-0.0011975267 0.68300003 -0.056283753 1.1716087e-38 319 287
0 0.68199998 -0.056201346 1.1716087e-38 320 287
0.0011957732 0.68199998 -0.056201346 1.1716087e-38 321 287
0.0023915465 0.68199998 -0.056201346 1.171609e-38 322 287
0.0035767998 0.68000001 -0.056036532 1.1808285e-38 323 287
0.0047690663 0.68000001 -0.056036532 1.1624973e-38 324 287
0.0059613334 0.68000001 -0.056036532 1.1624973e-38 325 287
0.0071535995 0.68000001 -0.056036532 1.1624973e-38 326 287
0.0083458666 0.68000001 -0.056036532 1.1624973e-38 327 287
0.0095381327 0.68000001 -0.056036532 1.1533496e-38 328 287
0.0107304 0.68000001 -0.056036532 1.1441301e-38 329 287
0.011922667 0.68000001 -0.056036532 1.1440945e-38 330 287
0.013114933 0.68000001 -0.056036532 1.1440945e-38 331 287
0.01434928 0.68199998 -0.056201346 1.1532422e-38 332 287
0.015545053 0.68199998 -0.056201346 1.1624976e-38 333 287
0.016740825 0.68199998 -0.056201346 8.3091632e-39 334 287
0.017936599 0.68199998 -0.056201346 3.5153506e-39 335 287
0.019132372 0.68199998 -0.056201346 1.9618179e-44 336 287
0.020357953 0.68300003 -0.056283753 2.9090956e-42 337 287
0.02155548 0.68300003 -0.056283753 1.2929094e-39 338 287
0.022852944 0.68599999 -0.056530971 1.6616919e-39 339 287
0.024055731 0.68599999 -0.056530971 2.7640892e-39 340 287
0.025258519 0.68599999 -0.056530971 2.9484805e-39 341 287
0.026499879 0.68699998 -0.056613375 2.5822231e-39 342 287
0.027704418 0.68699998 -0.056613375 2.4900261e-39 343 287
0.029077278 0.69099998 -0.056942999 2.7658857e-39 344 287
0.030288832 0.69099998 -0.056942999 2.7658857e-39 345 287
0.031591557 0.69300002 -0.057107817 2.8591561e-39 346 287
0.03280662 0.69300002 -0.057107817 2.9513518e-39 347 287
0.034218054 0.69700003 -0.05743745 2.9502826e-39 348 287
0.035490975 0.69800001 -0.057519849 3.595652e-39 349 287
0.036819998 0.69999999 -0.05768466 6.2740098e-39 350 287
0.038047329 0.69999999 -0.05768466 1.1068184e-38 351 287
0.039330769 0.70099998 -0.057767071 1.2451837e-38 352 287
0.040559858 0.70099998 -0.057767071 1.2267446e-38 353 287
0.041908171 0.70300001 -0.057931885 1.2084137e-38 354 287
0.043140765 0.70300001 -0.057931885 1.2268528e-38 355 287
0.044436477 0.704 -0.058014292 1.2452556e-38 356 287
0.045670826 0.704 -0.058014292 1.2637306e-38 357 287
0.046905171 0.704 -0.058014292 1.3005367e-38 358 287
0.048276275 0.70599997 -0.058179103 1.3189758e-38 359 287
0.049794663 0.70999998 -0.058508728 1.5212301e-38 360 287
0.051039528 0.70999998 -0.058508728 1.6042062e-38 361 287
-0.030595668 0.69800001 -0.058743682 9.3992599e-39 295 288
-0.029371841 0.69800001 -0.058743682 6.3578789e-39 296 288
-0.028107686 0.69700003 -0.05865952 6.5426303e-39 297 288
-0.026885614 0.69700003 -0.05865952 5.9905523e-39 298 288
-0.025700359 0.69800001 -0.058743682 5.7136053e-39 299 288
-0.024476532 0.69800001 -0.058743682 5.3448298e-39 300 288
-0.016961746 0.69099998 -0.058154557 5.079805e-39 306 288
-0.015681813 0.68800002 -0.057902083 9.5970322e-39 307 288
-0.014475521 0.68800002 -0.057902083 1.2175626e-38 308 288
-0.013249939 0.68699998 -0.057817914 1.1991235e-38 309 288
-0.012045399 0.68699998 -0.057817914 1.1991585e-38 310 288
-0.010825079 0.68599999 -0.057733759 1.1991585e-38 311 288
-0.0096222926 0.68599999 -0.057733759 1.1808273e-38 312 288
-0.0084195063 0.68599999 -0.057733759 1.1808273e-38 313 288
-0.0071956799 0.68400002 -0.057565439 1.1807917e-38 314 288
-0.0059964 0.68400002 -0.057565439 1.1807917e-38 315 288
-0.0047971201 0.68400002 -0.057565439 1.1807917e-38 316 288
-0.00359784 0.68400002 -0.057565439 1.1807917e-38 317 288
-0.0023985601 0.68400002 -0.057565439 1.180792e-38 318 288
-0.0011975267 0.68300003 -0.057481278 1.1715723e-38 319 288
0 0.68300003 -0.057481278 1.1716443e-38 320 288
0.0011957732 0.68199998 -0.05739712 1.1716443e-38 321 288
0.0023915465 0.68199998 -0.05739712 1.180792e-38 322 288
0.00358732 0.68199998 -0.05739712 1.180792e-38 323 288
0.0047690663 0.68000001 -0.057228796 1.1716443e-38 324 288
0.0059613334 0.68000001 -0.057228796 1.1716443e-38 325 288
0.0071535995 0.68000001 -0.057228796 1.1533131e-38 326 288
0.0083458666 0.68000001 -0.057228796 1.1533131e-38 327 288
0.0095381327 0.68000001 -0.057228796 1.1440578e-38 328 288
0.0107304 0.68000001 -0.057228796 1.1532775e-38 329 288
0.011922667 0.68000001 -0.057228796 1.1257265e-38 330 288
0.013114933 0.68000001 -0.057228796 1.1257265e-38 331 288
0.01434928 0.68199998 -0.05739712 1.1808285e-38 332 288
0.015545053 0.68199998 -0.05739712 1.171609e-38 333 288
0.016740825 0.68199998 -0.05739712 6.0053543e-39 334 288
0.017936599 0.68199998 -0.05739712 2.3175305e-39 335 288
0.019160427 0.68300003 -0.057481278 7.3867627e-40 336 288
0.020357953 0.68300003 -0.057481278 1.9372195e-39 337 288
0.02155548 0.68300003 -0.057481278 2.3059824e-39 338 288
0.022886258 0.68699998 -0.057817914 2.3059824e-39 339 288
0.024090799 0.68699998 -0.057817914 2.5814902e-39 340 288
0.025295338 0.68699998 -0.057817914 2.5814902e-39 341 288
0.026499879 0.68699998 -0.057817914 2.5814902e-39 342 288
0.027744746 0.68800002 -0.057902083 2.6740446e-39 343 288
0.029077278 0.69099998 -0.058154557 2.857717e-39 344 288
0.030288832 0.69099998 -0.058154557 2.857717e-39 345 288
0.031637147 0.69400001 -0.058407038 2.9502798e-39 346 288
0.032948639 0.69599998 -0.058575355 3.0424754e-39 347 288
0.034218054 0.69700003 -0.05865952 2.6744216e-39 348 288
0.035490975 0.69800001 -0.058743682 3.319791e-39 349 288
0.036819998 0.69999999 -0.058911994 6.2747287e-39 350 288
0.038047329 0.69999999 -0.058911994 1.1068903e-38 351 288
0.039330769 0.70099998 -0.058996156 1.2727704e-38 352 288
0.040559858 0.70099998 -0.058996156 1.2358923e-38 353 288
0.041908171 0.70300001 -0.059164476 1.2176329e-38 354 288
0.043140765 0.70300001 -0.059164476 1.2452556e-38 355 288
0.044436477 0.704 -0.059248637 1.2636587e-38 356 288
0.04580057 0.70599997 -0.059416957 1.2912815e-38 357 288
0.047038425 0.70599997 -0.059416957 1.3280153e-38 358 288
0.048276275 0.70599997 -0.059416957 1.3833327e-38 359 288
0.049794663 0.70999998 -0.059753593 1.6317923e-38 360 288
-0.029371841 0.69800001 -0.059967503 7.8312013e-39 296 289
-0.028107686 0.69700003 -0.05988159 6.8170508e-39 297 289
-0.026885614 0.69700003 -0.05988159 6.8170662e-39 298 289
-0.025700359 0.69800001 -0.059967503 6.5404779e-39 299 289
-0.024476532 0.69800001 -0.059967503 5.5292169e-39 300 289
-0.016961746 0.69099998 -0.059366114 9.3279674e-40 306 289
-0.015727401 0.69 -0.059280202 6.2801433e-39 307 289
-0.014517599 0.69 -0.059280202 1.1898685e-38 308 289
-0.013249939 0.68699998 -0.059022456 1.2175273e-38 309 289
-0.012045399 0.68699998 -0.059022456 1.1991585e-38 310 289
-0.010840859 0.68699998 -0.059022456 1.1991585e-38 311 289
-0.0096222926 0.68599999 -0.058936544 1.1991588e-38 312 289
-0.0084195063 0.68599999 -0.058936544 1.1991588e-38 313 289
-0.0072167199 0.68599999 -0.058936544 1.1991588e-38 314 289
-0.0059964 0.68400002 -0.058764715 1.1991588e-38 315 289
-0.0047971201 0.68400002 -0.058764715 1.21749e-38 316 289
-0.00359784 0.68400002 -0.058764715 1.21749e-38 317 289
-0.0023985601 0.68400002 -0.058764715 1.1715723e-38 318 289
-0.0011975267 0.68300003 -0.05867881 1.1715723e-38 319 289
0 0.68300003 -0.05867881 1.1440575e-38 320 289
0.0011975267 0.68300003 -0.05867881 1.1440575e-38 321 289
0.0023915465 0.68199998 -0.058592889 1.162389e-38 322 289
0.00358732 0.68199998 -0.058592889 1.1716087e-38 323 289
0.004783093 0.68199998 -0.058592889 1.1440578e-38 324 289
0.0059613334 0.68000001 -0.058421064 1.1440578e-38 325 289
0.0071535995 0.68000001 -0.058421064 1.1440578e-38 326 289
0.0083458666 0.68000001 -0.058421064 1.1440578e-38 327 289
0.0095381327 0.68000001 -0.058421064 1.1256909e-38 328 289
0.0107304 0.68000001 -0.058421064 1.1256909e-38 329 289
0.011957732 0.68199998 -0.058592889 1.1348385e-38 330 289
0.013153506 0.68199998 -0.058592889 1.1348385e-38 331 289
0.01434928 0.68199998 -0.058592889 1.1993033e-38 332 289
0.015545053 0.68199998 -0.058592889 1.1347663e-38 333 289
0.016740825 0.68199998 -0.058592889 2.5058776e-39 334 289
0.017936599 0.68199998 -0.058592889 1.4793508e-41 335 289
0.019132372 0.68199998 -0.058592889 4.6640818e-40 336 289
0.020328145 0.68199998 -0.058592889 1.2961688e-39 337 289
0.022986198 0.69 -0.059280202 2.6733257e-39 339 289
0.024195999 0.69 -0.059280202 2.6733257e-39 340 289
0.02533216 0.68800002 -0.059108373 2.6733257e-39 341 289
0.026538454 0.68800002 -0.059108373 2.5814902e-39 342 289
0.027744746 0.68800002 -0.059108373 2.7662402e-39 343 289
0.029161438 0.69300002 -0.05953794 2.7662402e-39 344 289
0.030420333 0.69400001 -0.059623852 2.8584373e-39 345 289
0.031728316 0.69599998 -0.059795678 2.9513546e-39 346 289
0.032948639 0.69599998 -0.059795678 3.0435502e-39 347 289
0.034218054 0.69700003 -0.05988159 2.9506455e-39 348 289
0.035490975 0.69800001 -0.059967503 3.6885693e-39 349 289
0.036819998 0.69999999 -0.060139328 6.5505981e-39 350 289
0.038101684 0.70099998 -0.060225245 1.1252215e-38 351 289
0.039330769 0.70099998 -0.060225245 1.2636231e-38 352 289
0.040675577 0.70300001 -0.06039707 1.2359644e-38 353 289
0.041967787 0.704 -0.060482983 1.2176332e-38 354 289
0.043202132 0.704 -0.060482983 1.2452559e-38 355 289
0.044562716 0.70599997 -0.060654808 1.254511e-38 356 289
0.04580057 0.70599997 -0.060654808 1.2637306e-38 357 289
0.047038425 0.70599997 -0.060654808 1.3924079e-38 358 289
0.048276275 0.70599997 -0.060654808 1.4476894e-38 359 289
-0.016961746 0.69099998 -0.060577665 4.0007071e-42 306 290
-0.015750192 0.69099998 -0.060577665 2.406129e-39 307 290
-0.014517599 0.69 -0.060489997 1.0148416e-38 308 290
-0.0133078 0.69 -0.060489997 1.1807938e-38 309 290
-0.012062933 0.68800002 -0.060314666 1.2451487e-38 310 290
-0.010840859 0.68699998 -0.060226995 1.21749e-38 311 290
-0.0096222926 0.68599999 -0.060139328 1.1991588e-38 312 290
-0.0084195063 0.68599999 -0.060139328 1.1991588e-38 313 290
-0.0072167199 0.68599999 -0.060139328 1.1991588e-38 314 290
-0.0060139326 0.68599999 -0.060139328 1.1991588e-38 315 290
-0.0047971201 0.68400002 -0.059964001 1.1991588e-38 316 290
-0.00359784 0.68400002 -0.059964001 1.1991588e-38 317 290
-0.0023985601 0.68400002 -0.059964001 1.1715723e-38 318 290
-0.0011975267 0.68300003 -0.059876334 1.1715723e-38 319 290
0 0.68300003 -0.059876334 1.1715723e-38 320 290
0.0011975267 0.68300003 -0.059876334 1.180792e-38 321 290
0.0023950534 0.68300003 -0.059876334 1.1716443e-38 322 290
0.00358732 0.68199998 -0.059788663 1.1716443e-38 323 290
0.004783093 0.68199998 -0.059788663 1.1532775e-38 324 290
0.005978866 0.68199998 -0.059788663 1.1440578e-38 325 290
0.00717464 0.68199998 -0.059788663 1.162389e-38 326 290
0.0083704125 0.68199998 -0.059788663 1.162389e-38 327 290
0.009566186 0.68199998 -0.059788663 1.1440578e-38 328 290
0.010761959 0.68199998 -0.059788663 1.1440578e-38 329 290
0.011975267 0.68300003 -0.059876334 1.1348382e-38 330 290
0.013153506 0.68199998 -0.059788663 1.1348382e-38 331 290
0.01434928 0.68199998 -0.059788663 1.1900837e-38 332 290
0.015545053 0.68199998 -0.059788663 1.0425348e-38 333 290
0.016740825 0.68199998 -0.059788663 1.335017e-41 334 290
0.017936599 0.68199998 -0.059788663 9.3872984e-42 335 290
