# .PCD v.7 - Point Cloud Data file format
FIELDS x y z rgb imX imY
SIZE 4 4 4 4 4 4
TYPE F F F F F F
COUNT 1 1 1 1 1 1
WIDTH 838
HEIGHT 1
VIEWPOINT 0 0 0 1 0 0 0
POINTS 838
DATA ascii
0.012553867 0.71600002 -0.022596961 1.4201371e-38 330 258
0.013828539 0.71700001 -0.02262852 1.3832228e-38 331 258
0.015085679 0.71700001 -0.02262852 1.3648553e-38 332 258
0.016342819 0.71700001 -0.02262852 1.3556358e-38 333 258
0.017649053 0.71899998 -0.022691639 1.373967e-38 334 258
0.018909698 0.71899998 -0.022691639 1.3554918e-38 335 258
0.020198401 0.72000003 -0.022723202 1.2820237e-38 336 258
0.021460801 0.72000003 -0.022723202 1.3465607e-38 337 258
0.02281788 0.72299999 -0.02281788 1.4941104e-38 338 258
0.024085538 0.72299999 -0.02281788 1.6508069e-38 339 258
-0.035298105 0.71899998 -0.023952285 1.7978518e-38 292 259
-0.03403746 0.71899998 -0.023952285 1.7978518e-38 293 259
-0.032776814 0.71899998 -0.023952285 1.5949861e-38 294 259
-0.031516165 0.71899998 -0.023952285 1.5397046e-38 295 259
-0.030171359 0.71700001 -0.02388566 1.5581806e-38 296 259
-0.028873893 0.71600002 -0.023852346 1.548961e-38 297 259
-0.027618507 0.71600002 -0.023852346 1.4665258e-38 298 259
-0.026289478 0.71399999 -0.02378572 1.484965e-38 299 259
-0.025037598 0.71399999 -0.02378572 1.5310981e-38 300 259
-0.02378572 0.71399999 -0.02378572 1.5495372e-38 301 259
-0.022533838 0.71399999 -0.02378572 1.567904e-38 302 259
-0.021252153 0.713 -0.023752406 1.5586845e-38 303 259
-0.020002026 0.713 -0.023752406 1.5403176e-38 304 259
-0.018751899 0.713 -0.023752406 1.5403176e-38 305 259
-0.01745268 0.71100003 -0.023685781 1.53117e-38 306 259
-0.01620606 0.71100003 -0.023685781 1.53117e-38 307 259
-0.014959441 0.71100003 -0.023685781 1.53117e-38 308 259
-0.013693533 0.70999998 -0.023652466 1.5403895e-38 309 259
-0.012448666 0.70999998 -0.023652466 1.5679756e-38 310 259
-0.011203799 0.70999998 -0.023652466 1.5679756e-38 311 259
-0.0099308798 0.708 -0.023585839 1.5679756e-38 312 259
-0.008689519 0.708 -0.023585839 1.5679756e-38 313 259
-0.0074481601 0.708 -0.023585839 1.5771236e-38 314 259
-0.0062067998 0.708 -0.023585839 1.5863431e-38 315 259
-0.0049654399 0.708 -0.023585839 1.5863785e-38 316 259
-0.0037188199 0.70700002 -0.023552528 1.5863785e-38 317 259
-0.0024792133 0.70700002 -0.023552528 1.6229678e-38 318 259
-0.0012396066 0.70700002 -0.023552528 1.5768339e-38 319 259
0 0.708 -0.023585839 1.7329183e-38 320 259
0.0012396066 0.70700002 -0.023552528 1.7236986e-38 321 259
0.0024792133 0.70700002 -0.023552528 1.6866758e-38 322 259
0.0037188199 0.70700002 -0.023552528 1.6866758e-38 323 259
0.0049654399 0.708 -0.023585839 1.6500504e-38 324 259
0.0062243328 0.70999998 -0.023652466 1.5670383e-38 325 259
0.0074691991 0.70999998 -0.023652466 1.5211575e-38 326 259
0.0087263398 0.71100003 -0.023685781 1.511938e-38 327 259
0.0099729598 0.71100003 -0.023685781 1.4569799e-38 328 259
0.01121958 0.71100003 -0.023685781 1.4477603e-38 329 259
0.012518799 0.71399999 -0.02378572 1.3833313e-38 330 259
0.013809253 0.71600002 -0.023852346 1.3556367e-38 331 259
0.015085679 0.71700001 -0.02388566 1.3371973e-38 332 259
0.016342819 0.71700001 -0.02388566 1.3371973e-38 333 259
0.017649053 0.71899998 -0.023952285 1.3096464e-38 334 259
0.018909698 0.71899998 -0.023952285 1.3096464e-38 335 259
0.020198401 0.72000003 -0.0239856 1.2728042e-38 336 259
0.021609833 0.72500002 -0.024152167 1.2728042e-38 337 259
0.02281788 0.72299999 -0.024085538 1.3191183e-38 338 259
0.024085538 0.72299999 -0.024085538 1.5126933e-38 339 259
0.025353199 0.72299999 -0.024085538 1.7058362e-38 340 259
-0.036609601 0.72000003 -0.025248 1.761081e-38 291 260
-0.035298105 0.71899998 -0.025212931 1.7703007e-38 292 260
-0.03403746 0.71899998 -0.025212931 1.6781049e-38 293 260
-0.032776814 0.71899998 -0.025212931 1.521085e-38 294 260
-0.031516165 0.71899998 -0.025212931 1.5026818e-38 295 260
-0.030171359 0.71700001 -0.0251428 1.4752395e-38 296 260
-0.028873893 0.71600002 -0.025107734 1.4752395e-38 297 260
-0.027618507 0.71600002 -0.025107734 1.4571616e-38 298 260
-0.026289478 0.71399999 -0.025037598 1.5032596e-38 299 260
-0.025037598 0.71399999 -0.025037598 1.5034039e-38 300 260
-0.02378572 0.71399999 -0.025037598 1.5034039e-38 301 260
-0.022502279 0.713 -0.025002534 1.4850724e-38 302 260
-0.021252153 0.713 -0.025002534 1.494292e-38 303 260
-0.01994592 0.71100003 -0.024932399 1.5310261e-38 304 260
-0.0186993 0.71100003 -0.024932399 1.5310261e-38 305 260
-0.01745268 0.71100003 -0.024932399 1.5310258e-38 306 260
-0.01620606 0.71100003 -0.024932399 1.5310258e-38 307 260
-0.014938398 0.70999998 -0.024897331 1.549429e-38 308 260
-0.013693533 0.70999998 -0.024897331 1.549429e-38 309 260
-0.0124136 0.708 -0.024827199 1.5495725e-38 310 260
-0.01117224 0.708 -0.024827199 1.5495725e-38 311 260
-0.0099308798 0.708 -0.024827199 1.5679393e-38 312 260
-0.008689519 0.708 -0.024827199 1.5679393e-38 313 260
-0.0074481601 0.708 -0.024827199 1.5862706e-38 314 260
-0.0062067998 0.708 -0.024827199 1.5862706e-38 315 260
-0.0049584266 0.70700002 -0.024792133 1.6046375e-38 316 260
-0.0037135598 0.70599997 -0.024757065 1.6046375e-38 317 260
-0.0024757064 0.70599997 -0.024757065 1.659523e-38 318 260
-0.0012396066 0.70700002 -0.024792133 1.6410838e-38 319 260
0 0.70700002 -0.024792133 1.6870725e-38 320 260
0.0012396066 0.70700002 -0.024792133 1.6225356e-38 321 260
0.0024792133 0.70700002 -0.024792133 1.6223191e-38 322 260
0.0037188199 0.70700002 -0.024792133 1.6960756e-38 323 260
0.0049654399 0.708 -0.024827199 1.6683819e-38 324 260
0.0062067998 0.708 -0.024827199 1.539308e-38 325 260
0.0074691991 0.70999998 -0.024897331 1.4291417e-38 326 260
0.0087140659 0.70999998 -0.024897331 1.4659841e-38 327 260
0.0099589331 0.70999998 -0.024897331 1.4477603e-38 328 260
0.011203799 0.70999998 -0.024897331 1.4201018e-38 329 260
0.0124662 0.71100003 -0.024932399 1.3465251e-38 330 260
0.01377068 0.71399999 -0.025037598 1.3280859e-38 331 260
0.01506464 0.71600002 -0.025107734 1.3187944e-38 332 260
0.016342819 0.71700001 -0.0251428 1.3095748e-38 333 260
0.017649053 0.71899998 -0.025212931 1.3370534e-38 334 260
0.018935999 0.72000003 -0.025248 1.3278339e-38 335 260
0.020198401 0.72000003 -0.025248 1.3186862e-38 336 260
0.021550218 0.72299999 -0.025353199 1.2541492e-38 337 260
0.02281788 0.72299999 -0.025353199 1.1716776e-38 338 260
0.024085538 0.72299999 -0.025353199 1.3375939e-38 339 260
0.025353199 0.72299999 -0.025353199 1.5861621e-38 340 260
0.026620859 0.72299999 -0.025353199 1.6875413e-38 341 260
-0.036609601 0.72000003 -0.026510401 1.7794478e-38 291 261
-0.035347197 0.72000003 -0.026510401 1.7609365e-38 292 261
-0.03403746 0.71899998 -0.02647358 1.6595213e-38 293 261
-0.032776814 0.71899998 -0.02647358 1.5763658e-38 294 261
-0.031516165 0.71899998 -0.02647358 1.5302679e-38 295 261
-0.030171359 0.71700001 -0.02639994 1.4752746e-38 296 261
-0.028873893 0.71600002 -0.026363119 1.447616e-38 297 261
-0.027618507 0.71600002 -0.026363119 1.4110986e-38 298 261
-0.026289478 0.71399999 -0.026289478 1.4941107e-38 299 261
-0.025037598 0.71399999 -0.026289478 1.4390464e-38 300 261
-0.023752406 0.713 -0.026252659 1.4483018e-38 301 261
-0.022502279 0.713 -0.026252659 1.4665977e-38 302 261
-0.021192541 0.71100003 -0.026179021 1.4850368e-38 303 261
-0.01994592 0.71100003 -0.026179021 1.5033683e-38 304 261
-0.018672999 0.70999998 -0.026142199 1.5033683e-38 305 261
-0.017428132 0.70999998 -0.026142199 1.4850371e-38 306 261
-0.016183265 0.70999998 -0.026142199 1.4850371e-38 307 261
-0.014938398 0.70999998 -0.026142199 1.4942923e-38 308 261
-0.013693533 0.70999998 -0.026142199 1.4942923e-38 309 261
-0.0124136 0.708 -0.026068559 1.5035116e-38 310 261
-0.01117224 0.708 -0.026068559 1.5127313e-38 311 261
-0.0099308798 0.708 -0.026068559 1.5127669e-38 312 261
-0.008677247 0.70700002 -0.02603174 1.5127669e-38 313 261
-0.0074376399 0.70700002 -0.02603174 1.5127666e-38 314 261
-0.0061980332 0.70700002 -0.02603174 1.5311697e-38 315 261
-0.0049514128 0.70599997 -0.025994917 1.5586845e-38 316 261
-0.0037135598 0.70599997 -0.025994917 1.549429e-38 317 261
-0.0024757064 0.70599997 -0.025994917 1.5583955e-38 318 261
-0.0012378532 0.70599997 -0.025994917 1.5767986e-38 319 261
0 0.70599997 -0.025994917 1.5857651e-38 320 261
0.0012378532 0.70599997 -0.025994917 1.5765456e-38 321 261
0.0024757064 0.70599997 -0.025994917 1.6226078e-38 322 261
0.0037135598 0.70599997 -0.025994917 1.6226078e-38 323 261
0.0049584266 0.70700002 -0.02603174 1.5856222e-38 324 261
0.0061980332 0.70700002 -0.02603174 1.4749874e-38 325 261
0.0074481601 0.708 -0.026068559 1.4107026e-38 326 261
0.008689519 0.708 -0.026068559 1.4383614e-38 327 261
0.0099589331 0.70999998 -0.026142199 1.392551e-38 328 261
0.011203799 0.70999998 -0.026142199 1.392551e-38 329 261
0.012448666 0.70999998 -0.026142199 1.3649282e-38 330 261
0.013751393 0.713 -0.026252659 1.3280859e-38 331 261
0.01506464 0.71600002 -0.026363119 1.2819884e-38 332 261
0.016342819 0.71700001 -0.02639994 1.2819884e-38 333 261
0.017649053 0.71899998 -0.02647358 1.2727688e-38 334 261
0.018935999 0.72000003 -0.026510401 1.2727688e-38 335 261
0.020254506 0.722 -0.026584039 1.263549e-38 336 261
0.021550218 0.72299999 -0.026620859 1.2451097e-38 337 261
0.02281788 0.72299999 -0.026620859 1.1531666e-38 338 261
0.024152167 0.72500002 -0.026694499 1.2453262e-38 339 261
0.025423333 0.72500002 -0.026694499 1.4664516e-38 340 261
0.026768139 0.727 -0.026768139 1.6785015e-38 341 261
0.028042812 0.727 -0.026768139 1.7425697e-38 342 261
-0.036609601 0.72000003 -0.027772799 1.7703007e-38 291 262
-0.035347197 0.72000003 -0.027772799 1.7423898e-38 292 262
-0.03403746 0.71899998 -0.027734226 1.6501942e-38 293 262
-0.032776814 0.71899998 -0.027734226 1.6131361e-38 294 262
-0.031516165 0.71899998 -0.027734226 1.5855134e-38 295 262
-0.030171359 0.71700001 -0.027657079 1.5030058e-38 296 262
-0.028873893 0.71600002 -0.027618507 1.4937504e-38 297 262
-0.027618507 0.71600002 -0.027618507 1.4571967e-38 298 262
-0.026289478 0.71399999 -0.02754136 1.4756358e-38 299 262
-0.025002534 0.713 -0.027502786 1.4390102e-38 300 262
-0.023752406 0.713 -0.027502786 1.4390102e-38 301 262
-0.022439159 0.71100003 -0.027425639 1.4481946e-38 302 262
-0.021192541 0.71100003 -0.027425639 1.4481946e-38 303 262
-0.019917866 0.70999998 -0.027387066 1.4665261e-38 304 262
-0.018672999 0.70999998 -0.027387066 1.4665261e-38 305 262
-0.017428132 0.70999998 -0.027387066 1.4757457e-38 306 262
-0.016183265 0.70999998 -0.027387066 1.4757457e-38 307 262
-0.014938398 0.70999998 -0.027387066 1.4758173e-38 308 262
-0.013693533 0.70999998 -0.027387066 1.4758173e-38 309 262
-0.0124136 0.708 -0.027309919 1.494292e-38 310 262
-0.01117224 0.708 -0.027309919 1.494292e-38 311 262
-0.0099168532 0.70700002 -0.027271347 1.4942917e-38 312 262
-0.008677247 0.70700002 -0.027271347 1.4942917e-38 313 262
-0.0074376399 0.70700002 -0.027271347 1.5126585e-38 314 262
-0.0061980332 0.70700002 -0.027271347 1.5126585e-38 315 262
-0.0049514128 0.70599997 -0.027232772 1.540173e-38 316 262
-0.0037030398 0.704 -0.027155625 1.5309535e-38 317 262
-0.0024686933 0.704 -0.027155625 1.4386134e-38 318 262
-0.0012343467 0.704 -0.027155625 1.3556373e-38 319 262
0 0.704 -0.027155625 1.4934633e-38 320 262
0.0012378532 0.70599997 -0.027232772 1.5764752e-38 321 262
0.0024686933 0.704 -0.027155625 1.5307014e-38 322 262
0.0037030398 0.704 -0.027155625 1.4938233e-38 323 262
0.0049584266 0.70700002 -0.027271347 1.5028983e-38 324 262
0.0061980332 0.70700002 -0.027271347 1.4107026e-38 325 262
0.0074376399 0.70700002 -0.027271347 1.3830796e-38 326 262
0.008677247 0.70700002 -0.027271347 1.4291414e-38 327 262
0.0099308798 0.708 -0.027309919 1.3833313e-38 328 262
0.01117224 0.708 -0.027309919 1.3833313e-38 329 262
0.012448666 0.70999998 -0.027387066 1.3281581e-38 330 262
0.01371282 0.71100003 -0.027425639 1.2912799e-38 331 262
0.015022559 0.71399999 -0.02754136 1.2267432e-38 332 262
0.016320027 0.71600002 -0.027618507 1.2451825e-38 333 262
0.017599959 0.71700001 -0.027657079 1.2542938e-38 334 262
0.018909698 0.71899998 -0.027734226 1.2542938e-38 335 262
0.020254506 0.722 -0.027849946 1.2451097e-38 336 262
0.021550218 0.72299999 -0.02788852 1.2174512e-38 337 262
0.02281788 0.72299999 -0.02788852 1.1898288e-38 338 262
0.024152167 0.72500002 -0.027965667 1.1714257e-38 339 262
0.025423333 0.72500002 -0.027965667 1.346597e-38 340 262
0.026768139 0.727 -0.028042812 1.6600621e-38 341 262
0.028042812 0.727 -0.028042812 1.7425697e-38 342 262
-0.036609601 0.72000003 -0.029035201 1.7978518e-38 291 263
-0.035347197 0.72000003 -0.029035201 1.696329e-38 292 263
-0.03403746 0.71899998 -0.028994869 1.5765105e-38 293 263
-0.032776814 0.71899998 -0.028994869 1.5025386e-38 294 263
-0.031516165 0.71899998 -0.028994869 1.5301973e-38 295 263
-0.030171359 0.71700001 -0.028914221 1.4476534e-38 296 263
-0.028873893 0.71600002 -0.028873893 1.4844957e-38 297 263
-0.02754136 0.71399999 -0.028793238 1.4112438e-38 298 263
-0.026289478 0.71399999 -0.028793238 1.4388664e-38 299 263
-0.025002534 0.713 -0.028752912 1.4204999e-38 300 263
-0.023752406 0.713 -0.028752912 1.4204999e-38 301 263
-0.022439159 0.71100003 -0.028672259 1.4297197e-38 302 263
-0.021192541 0.71100003 -0.028672259 1.4297197e-38 303 263
-0.019917866 0.70999998 -0.028631933 1.4297197e-38 304 263
-0.018672999 0.70999998 -0.028631933 1.4389393e-38 305 263
-0.017428132 0.70999998 -0.028631933 1.4297916e-38 306 263
-0.016183265 0.70999998 -0.028631933 1.4297916e-38 307 263
-0.014938398 0.70999998 -0.028631933 1.4481946e-38 308 263
-0.013693533 0.70999998 -0.028631933 1.4481946e-38 309 263
-0.0124136 0.708 -0.02855128 1.4482665e-38 310 263
-0.011156459 0.70700002 -0.028510952 1.457486e-38 311 263
-0.0099168532 0.70700002 -0.028510952 1.4758529e-38 312 263
-0.0086649731 0.70599997 -0.028470624 1.4758529e-38 313 263
-0.0074271196 0.70599997 -0.028470624 1.4665974e-38 314 263
-0.0061892662 0.70599997 -0.028470624 1.4665974e-38 315 263
-0.0049514128 0.70599997 -0.028470624 1.4483018e-38 316 263
-0.0037030398 0.704 -0.028389972 1.4390464e-38 317 263
-0.0024686933 0.704 -0.028389972 1.4478696e-38 318 263
-0.0012343467 0.704 -0.028389972 1.374113e-38 319 263
0 0.704 -0.028389972 1.4754563e-38 320 263
0.0012378532 0.70599997 -0.028470624 1.438578e-38 321 263
0.0024686933 0.704 -0.028389972 1.4014124e-38 322 263
0.0037030398 0.704 -0.028389972 1.3830093e-38 323 263
0.0049514128 0.70599997 -0.028470624 1.3741127e-38 324 263
0.0061892662 0.70599997 -0.028470624 1.3648932e-38 325 263
0.0074271196 0.70599997 -0.028470624 1.3555651e-38 326 263
0.0086649731 0.70599997 -0.028470624 1.3924074e-38 327 263
0.0099168532 0.70700002 -0.028510952 1.3740764e-38 328 263
0.011156459 0.70700002 -0.028510952 1.3648569e-38 329 263
0.0124136 0.708 -0.02855128 1.3097194e-38 330 263
0.01371282 0.71100003 -0.028672259 1.2820606e-38 331 263
0.015022559 0.71399999 -0.028793238 1.2450744e-38 332 263
0.016320027 0.71600002 -0.028873893 1.2542941e-38 333 263
0.017599959 0.71700001 -0.028914221 1.2450744e-38 334 263
0.018909698 0.71899998 -0.028994869 1.2358549e-38 335 263
0.020198401 0.72000003 -0.029035201 1.2175236e-38 336 263
0.021550218 0.72299999 -0.029156178 1.1990486e-38 337 263
0.02281788 0.72299999 -0.029156178 1.2080884e-38 338 263
0.024152167 0.72500002 -0.029236834 1.152771e-38 339 263
0.025423333 0.72500002 -0.029236834 1.2359982e-38 340 263
0.026768139 0.727 -0.029317487 1.5955252e-38 341 263
0.028042812 0.727 -0.029317487 1.7243107e-38 342 263
-0.035347197 0.72000003 -0.0302976 1.6411565e-38 292 264
-0.03403746 0.71899998 -0.030255521 1.5489607e-38 293 264
-0.032776814 0.71899998 -0.030255521 1.4565856e-38 294 264
-0.031428497 0.71700001 -0.030171359 1.5026834e-38 295 264
-0.03012928 0.71600002 -0.03012928 1.4291784e-38 296 264
-0.028873893 0.71600002 -0.03012928 1.4660925e-38 297 264
-0.02754136 0.71399999 -0.030045118 1.429575e-38 298 264
-0.026289478 0.71399999 -0.030045118 1.4387945e-38 299 264
-0.025002534 0.713 -0.030003037 1.4112803e-38 300 264
-0.023752406 0.713 -0.030003037 1.4112803e-38 301 264
-0.022439159 0.71100003 -0.029918881 1.4112806e-38 302 264
-0.021162732 0.70999998 -0.029876797 1.4205002e-38 303 264
-0.019917866 0.70999998 -0.029876797 1.4205002e-38 304 264
-0.018672999 0.70999998 -0.029876797 1.4297197e-38 305 264
-0.017428132 0.70999998 -0.029876797 1.4205721e-38 306 264
-0.016183265 0.70999998 -0.029876797 1.4205721e-38 307 264
-0.014938398 0.70999998 -0.029876797 1.4389393e-38 308 264
-0.013693533 0.70999998 -0.029876797 1.4389393e-38 309 264
-0.0124136 0.708 -0.02979264 1.4390469e-38 310 264
-0.011156459 0.70700002 -0.029750559 1.4390469e-38 311 264
-0.0099168532 0.70700002 -0.029750559 1.448159e-38 312 264
-0.0086649731 0.70599997 -0.029708479 1.4389393e-38 313 264
-0.0074271196 0.70599997 -0.029708479 1.4389393e-38 314 264
-0.0061892662 0.70599997 -0.029708479 1.4297197e-38 315 264
-0.0049373866 0.704 -0.029624319 1.4206074e-38 316 264
-0.0037030398 0.704 -0.029624319 1.4022043e-38 317 264
-0.0024686933 0.704 -0.029624319 1.4663809e-38 318 264
-0.0012343467 0.704 -0.029624319 1.4387583e-38 319 264
0 0.704 -0.029624319 1.4293582e-38 320 264
0.0012343467 0.704 -0.029624319 1.3371626e-38 321 264
0.0024686933 0.704 -0.029624319 1.2815934e-38 322 264
0.0037030398 0.704 -0.029624319 1.3092522e-38 323 264
0.0049514128 0.70599997 -0.029708479 1.3280153e-38 324 264
0.0061892662 0.70599997 -0.029708479 1.374113e-38 325 264
0.0074271196 0.70599997 -0.029708479 1.3831531e-38 326 264
0.0086649731 0.70599997 -0.029708479 1.3647499e-38 327 264
0.0099028256 0.70599997 -0.029708479 1.3372708e-38 328 264
0.011140679 0.70599997 -0.029708479 1.3280153e-38 329 264
0.012396066 0.70700002 -0.029750559 1.2912801e-38 330 264
0.01371282 0.71100003 -0.029918881 1.2728051e-38 331 264
0.015022559 0.71399999 -0.030045118 1.2542218e-38 332 264
0.016320027 0.71600002 -0.03012928 1.2450023e-38 333 264
0.017599959 0.71700001 -0.030171359 1.2174517e-38 334 264
0.018909698 0.71899998 -0.030255521 1.2081963e-38 335 264
0.020170346 0.71899998 -0.030255521 1.2081966e-38 336 264
0.021550218 0.72299999 -0.030423839 1.1897575e-38 337 264
0.02281788 0.72299999 -0.030423839 1.1896852e-38 338 264
0.024152167 0.72500002 -0.030508002 1.1251482e-38 339 264
0.025423333 0.72500002 -0.030508002 1.1807527e-38 340 264
0.026768139 0.727 -0.030592158 1.5494992e-38 341 264
0.028081384 0.72799999 -0.030634239 1.7150555e-38 342 264
0.029438468 0.73000002 -0.030718399 1.7058359e-38 343 264
-0.036609601 0.72000003 -0.03156 1.8071067e-38 291 265
-0.035347197 0.72000003 -0.03156 1.6043857e-38 292 265
-0.03403746 0.71899998 -0.031516165 1.493751e-38 293 265
-0.032685637 0.71700001 -0.031428497 1.3646418e-38 294 265
-0.031428497 0.71700001 -0.031428497 1.4476178e-38 295 265
-0.03012928 0.71600002 -0.031384666 1.4477976e-38 296 265
-0.028873893 0.71600002 -0.031384666 1.4570173e-38 297 265
-0.02754136 0.71399999 -0.031296998 1.411244e-38 298 265
-0.026289478 0.71399999 -0.031296998 1.411244e-38 299 265
-0.025002534 0.713 -0.031253166 1.4020608e-38 300 265
-0.023752406 0.713 -0.031253166 1.4020608e-38 301 265
-0.022439159 0.71100003 -0.031165501 1.383694e-38 302 265
-0.021162732 0.70999998 -0.031121666 1.3929494e-38 303 265
-0.019917866 0.70999998 -0.031121666 1.4020611e-38 304 265
-0.018672999 0.70999998 -0.031121666 1.4020611e-38 305 265
-0.017428132 0.70999998 -0.031121666 1.4112806e-38 306 265
-0.016183265 0.70999998 -0.031121666 1.4112806e-38 307 265
-0.01489632 0.708 -0.031034 1.420428e-38 308 265
-0.013654959 0.708 -0.031034 1.438867e-38 309 265
-0.012396066 0.70700002 -0.030990168 1.4205355e-38 310 265
-0.011156459 0.70700002 -0.030990168 1.4205355e-38 311 265
-0.0099028256 0.70599997 -0.030946331 1.4204999e-38 312 265
-0.0086649731 0.70599997 -0.030946331 1.4204999e-38 313 265
-0.0074271196 0.70599997 -0.030946331 1.420428e-38 314 265
-0.0061892662 0.70599997 -0.030946331 1.420428e-38 315 265
-0.0049373866 0.704 -0.030858666 1.4112084e-38 316 265
-0.0037030398 0.704 -0.030858666 1.3927692e-38 317 265
-0.0024686933 0.704 -0.030858666 1.365038e-38 318 265
-0.0012343467 0.704 -0.030858666 1.3189761e-38 319 265
0 0.704 -0.030858666 1.2542588e-38 320 265
0.0012343467 0.704 -0.030858666 1.3003565e-38 321 265
0.0024686933 0.704 -0.030858666 1.3648569e-38 322 265
0.0037030398 0.704 -0.030858666 1.3740764e-38 323 265
0.0049514128 0.70599997 -0.030946331 1.3831528e-38 324 265
0.0061892662 0.70599997 -0.030946331 1.337055e-38 325 265
0.0074271196 0.70599997 -0.030946331 1.3369836e-38 326 265
0.0086649731 0.70599997 -0.030946331 1.3277641e-38 327 265
0.0099028256 0.70599997 -0.030946331 1.318724e-38 328 265
0.011140679 0.70599997 -0.030946331 1.318724e-38 329 265
0.012396066 0.70700002 -0.030990168 1.282025e-38 330 265
0.01371282 0.71100003 -0.031165501 1.2451827e-38 331 265
0.015022559 0.71399999 -0.031296998 1.2267432e-38 332 265
0.016320027 0.71600002 -0.031384666 1.2082682e-38 333 265
0.017599959 0.71700001 -0.031428497 1.2081963e-38 334 265
0.018857099 0.71700001 -0.031428497 1.1989767e-38 335 265
0.020170346 0.71899998 -0.031516165 1.2173083e-38 336 265
0.021520413 0.722 -0.031647664 1.1896854e-38 337 265
0.02281788 0.72299999 -0.031691495 1.1896852e-38 338 265
0.024152167 0.72500002 -0.031779166 1.152771e-38 339 265
0.025423333 0.72500002 -0.031779166 1.1990839e-38 340 265
0.026804959 0.72799999 -0.031910665 1.5309882e-38 341 265
0.028081384 0.72799999 -0.031910665 1.6965443e-38 342 265
0.029357811 0.72799999 -0.031910665 1.705764e-38 343 265
-0.036609601 0.72000003 -0.0328224 1.8163618e-38 291 266
-0.035347197 0.72000003 -0.0328224 1.5952015e-38 292 266
-0.03403746 0.71899998 -0.032776814 1.4292135e-38 293 266
-0.032685637 0.71700001 -0.032685637 1.3369833e-38 294 266
-0.031428497 0.71700001 -0.032685637 1.3830812e-38 295 266
-0.03012928 0.71600002 -0.032640055 1.4571261e-38 296 266
-0.028873893 0.71600002 -0.032640055 1.4663456e-38 297 266
-0.02754136 0.71399999 -0.032548878 1.3837295e-38 298 266
-0.026289478 0.71399999 -0.032548878 1.3837295e-38 299 266
-0.025002534 0.713 -0.032503292 1.3836579e-38 300 266
-0.023752406 0.713 -0.032503292 1.3836579e-38 301 266
-0.022439159 0.71100003 -0.032412119 1.3561434e-38 302 266
-0.021162732 0.70999998 -0.032366529 1.3561434e-38 303 266
-0.019917866 0.70999998 -0.032366529 1.3561079e-38 304 266
-0.018672999 0.70999998 -0.032366529 1.3561079e-38 305 266
-0.017428132 0.70999998 -0.032366529 1.3561079e-38 306 266
-0.016183265 0.70999998 -0.032366529 1.3561079e-38 307 266
-0.01489632 0.708 -0.03227536 1.3469958e-38 308 266
-0.013654959 0.708 -0.03227536 1.3562153e-38 309 266
-0.012396066 0.70700002 -0.032229774 1.3654349e-38 310 266
-0.011156459 0.70700002 -0.032229774 1.3562153e-38 311 266
-0.0099028256 0.70599997 -0.032184184 1.3836942e-38 312 266
-0.0086649731 0.70599997 -0.032184184 1.3744747e-38 313 266
-0.0074271196 0.70599997 -0.032184184 1.3652551e-38 314 266
-0.0061892662 0.70599997 -0.032184184 1.3560354e-38 315 266
-0.0049373866 0.704 -0.032093015 1.3377039e-38 316 266
-0.0037030398 0.704 -0.032093015 1.3192289e-38 317 266
-0.0024686933 0.704 -0.032093015 1.2638024e-38 318 266
-0.0012343467 0.704 -0.032093015 1.162423e-38 319 266
0 0.704 -0.032093015 1.1623509e-38 320 266
0.0012343467 0.704 -0.032093015 1.2822052e-38 321 266
0.0024651866 0.70300001 -0.032047424 1.3925523e-38 322 266
0.0036977797 0.70300001 -0.032047424 1.3648934e-38 323 266
0.0049514128 0.70599997 -0.032184184 1.383009e-38 324 266
0.0061892662 0.70599997 -0.032184184 1.3553502e-38 325 266
0.0074271196 0.70599997 -0.032184184 1.3092893e-38 326 266
0.0086649731 0.70599997 -0.032184184 1.3092893e-38 327 266
0.0099028256 0.70599997 -0.032184184 1.245184e-38 328 266
0.011140679 0.70599997 -0.032184184 1.2544036e-38 329 266
0.012396066 0.70700002 -0.032229774 1.2268878e-38 330 266
0.013693533 0.70999998 -0.032366529 1.2084487e-38 331 266
0.015001519 0.713 -0.032503292 1.2083038e-38 332 266
0.016320027 0.71600002 -0.032640055 1.1990842e-38 333 266
0.017575413 0.71600002 -0.032640055 1.1714976e-38 334 266
0.018857099 0.71700001 -0.032685637 1.1714976e-38 335 266
0.020170346 0.71899998 -0.032776814 1.171426e-38 336 266
0.021520413 0.722 -0.032913569 1.171426e-38 337 266
0.022880999 0.72500002 -0.033050332 1.1990123e-38 338 266
0.024152167 0.72500002 -0.033050332 1.1897569e-38 339 266
0.025423333 0.72500002 -0.033050332 1.2541495e-38 340 266
0.026768139 0.727 -0.033141505 1.4938583e-38 341 266
0.028081384 0.72799999 -0.033187091 1.6596658e-38 342 266
0.029357811 0.72799999 -0.033187091 1.7242028e-38 343 266
-0.036609601 0.72000003 -0.034084801 1.8164337e-38 291 267
-0.035347197 0.72000003 -0.034084801 1.5582509e-38 292 267
-0.033942781 0.71700001 -0.033942781 1.4014825e-38 293 267
-0.032685637 0.71700001 -0.033942781 1.4108472e-38 294 267
-0.031428497 0.71700001 -0.033942781 1.4200668e-38 295 267
-0.03012928 0.71600002 -0.03389544 1.3927326e-38 296 267
-0.028873893 0.71600002 -0.03389544 1.4111357e-38 297 267
-0.02754136 0.71399999 -0.033800758 1.3927692e-38 298 267
-0.026289478 0.71399999 -0.033800758 1.4019889e-38 299 267
-0.025002534 0.713 -0.033753417 1.3652548e-38 300 267
-0.023752406 0.713 -0.033753417 1.3652548e-38 301 267
-0.022439159 0.71100003 -0.033658739 1.3652548e-38 302 267
-0.021162732 0.70999998 -0.033611398 1.3652548e-38 303 267
-0.019917866 0.70999998 -0.033611398 1.3744025e-38 304 267
-0.018672999 0.70999998 -0.033611398 1.3744025e-38 305 267
-0.017428132 0.70999998 -0.033611398 1.3652548e-38 306 267
-0.01613768 0.708 -0.033516716 1.3652548e-38 307 267
-0.01489632 0.708 -0.033516716 1.3744744e-38 308 267
-0.013654959 0.708 -0.033516716 1.3744744e-38 309 267
-0.012396066 0.70700002 -0.033469379 1.3652903e-38 310 267
-0.011156459 0.70700002 -0.033469379 1.37451e-38 311 267
-0.0099028256 0.70599997 -0.033422034 1.3651828e-38 312 267
-0.0086649731 0.70599997 -0.033422034 1.3651828e-38 313 267
-0.0074271196 0.70599997 -0.033422034 1.3375964e-38 314 267
-0.0061892662 0.70599997 -0.033422034 1.3283769e-38 315 267
-0.0049373866 0.704 -0.03332736 1.3284124e-38 316 267
-0.0037030398 0.704 -0.03332736 1.3099374e-38 317 267
-0.0024686933 0.704 -0.03332736 1.2363244e-38 318 267
-0.0012343467 0.704 -0.03332736 1.2547275e-38 319 267
0 0.704 -0.03332736 1.3282676e-38 320 267
0.0012343467 0.704 -0.03332736 1.2913894e-38 321 267
0.0024651866 0.70300001 -0.033280019 1.3004648e-38 322 267
0.0036977797 0.70300001 -0.033280019 1.2359279e-38 323 267
0.0049514128 0.70599997 -0.033422034 1.3093247e-38 324 267
0.0061717331 0.704 -0.03332736 1.3185442e-38 325 267
0.0074060797 0.704 -0.03332736 1.3000695e-38 326 267
0.0086649731 0.70599997 -0.033422034 1.3000695e-38 327 267
0.0099028256 0.70599997 -0.033422034 1.2359279e-38 328 267
0.011140679 0.70599997 -0.033422034 1.2359279e-38 329 267
0.012396066 0.70700002 -0.033469379 1.2084487e-38 330 267
0.013693533 0.70999998 -0.033611398 1.199229e-38 331 267
0.015001519 0.713 -0.033753417 1.1807174e-38 332 267
0.016274439 0.71399999 -0.033800758 1.1622783e-38 333 267
0.017575413 0.71600002 -0.03389544 1.162278e-38 334 267
0.018857099 0.71700001 -0.033942781 1.162278e-38 335 267
0.020114239 0.71700001 -0.033942781 1.1897572e-38 336 267
0.021430992 0.71899998 -0.03403746 1.1897572e-38 337 267
0.02281788 0.72299999 -0.03422682 1.2082319e-38 338 267
0.024085538 0.72299999 -0.03422682 1.2358546e-38 339 267
0.025423333 0.72500002 -0.034321502 1.2818439e-38 340 267
0.026694499 0.72500002 -0.034321502 1.4293569e-38 341 267
0.028081384 0.72799999 -0.034463517 1.6044563e-38 342 267
0.029357811 0.72799999 -0.034463517 1.7243107e-38 343 267
-0.036609601 0.72000003 -0.035347197 1.7794475e-38 291 268
-0.035347197 0.72000003 -0.035347197 1.5029332e-38 292 268
-0.033942781 0.71700001 -0.035199918 1.318578e-38 293 268
-0.032685637 0.71700001 -0.035199918 1.3924079e-38 294 268
-0.031428497 0.71700001 -0.035199918 1.4108472e-38 295 268
-0.03012928 0.71600002 -0.035150826 1.3558911e-38 296 268
-0.028873893 0.71600002 -0.035150826 1.3835496e-38 297 268
-0.02754136 0.71399999 -0.035052639 1.3560354e-38 298 268
-0.026289478 0.71399999 -0.035052639 1.3560354e-38 299 268
-0.025002534 0.713 -0.035003547 1.3560354e-38 300 268
-0.023752406 0.713 -0.035003547 1.3560354e-38 301 268
-0.022439159 0.71100003 -0.034905359 1.328449e-38 302 268
-0.021162732 0.70999998 -0.034856264 1.328449e-38 303 268
-0.019917866 0.70999998 -0.034856264 1.328449e-38 304 268
-0.018672999 0.70999998 -0.034856264 1.328449e-38 305 268
-0.017428132 0.70999998 -0.034856264 1.3376686e-38 306 268
-0.01613768 0.708 -0.034758076 1.328449e-38 307 268
-0.01489632 0.708 -0.034758076 1.3101178e-38 308 268
-0.013654959 0.708 -0.034758076 1.3101178e-38 309 268
-0.012396066 0.70700002 -0.034708988 1.3101175e-38 310 268
-0.011156459 0.70700002 -0.034708988 1.3101175e-38 311 268
-0.0099028256 0.70599997 -0.034659892 1.3008982e-38 312 268
-0.0086649731 0.70599997 -0.034659892 1.2916428e-38 313 268
-0.0074271196 0.70599997 -0.034659892 1.2916428e-38 314 268
-0.0061892662 0.70599997 -0.034659892 1.2824232e-38 315 268
-0.0049373866 0.704 -0.034561705 1.2824232e-38 316 268
-0.0037030398 0.704 -0.034561705 1.2548004e-38 317 268
-0.0024686933 0.704 -0.034561705 1.2639118e-38 318 268
-0.0012343467 0.704 -0.034561705 1.2731314e-38 319 268
0 0.704 -0.034561705 1.3007179e-38 320 268
0.0012343467 0.704 -0.034561705 1.2638755e-38 321 268
0.0024651866 0.70300001 -0.034512613 1.2726629e-38 322 268
0.0036977797 0.70300001 -0.034512613 1.2542238e-38 323 268
0.0049514128 0.70599997 -0.034659892 1.3001777e-38 324 268
0.0061717331 0.704 -0.034561705 1.2909581e-38 325 268
0.0074060797 0.704 -0.034561705 1.2631915e-38 326 268
0.0086649731 0.70599997 -0.034659892 1.2724111e-38 327 268
0.0099028256 0.70599997 -0.034659892 1.1991218e-38 328 268
0.011140679 0.70599997 -0.034659892 1.217525e-38 329 268
0.012396066 0.70700002 -0.034708988 1.1899738e-38 330 268
0.013693533 0.70999998 -0.034856264 1.1807543e-38 331 268
0.015001519 0.713 -0.035003547 1.1531666e-38 332 268
0.016274439 0.71399999 -0.035052639 1.1531666e-38 333 268
0.017575413 0.71600002 -0.035150826 1.1714613e-38 334 268
0.0188308 0.71600002 -0.035150826 1.1898644e-38 335 268
0.020114239 0.71700001 -0.035199918 1.1714257e-38 336 268
0.021430992 0.71899998 -0.035298105 1.1990842e-38 337 268
0.022786319 0.722 -0.035445385 1.2175234e-38 338 268
0.024085538 0.72299999 -0.035494477 1.2451822e-38 339 268
0.025353199 0.72299999 -0.035494477 1.3278339e-38 340 268
0.026620859 0.72299999 -0.035494477 1.4384686e-38 341 268
0.027965667 0.72500002 -0.035592668 1.6135677e-38 342 268
0.029357811 0.72799999 -0.035739943 1.7426416e-38 343 268
-0.038240198 0.727 -0.036965527 1.7702277e-38 290 269
-0.036863834 0.72500002 -0.036863834 1.7056908e-38 291 269
-0.035347197 0.72000003 -0.036609601 1.4844944e-38 292 269
-0.03403746 0.71899998 -0.036558751 1.4199575e-38 293 269
-0.032685637 0.71700001 -0.036457058 1.3924804e-38 294 269
-0.031428497 0.71700001 -0.036457058 1.3924804e-38 295 269
-0.03012928 0.71600002 -0.036406212 1.346779e-38 296 269
-0.028873893 0.71600002 -0.036406212 1.3559985e-38 297 269
-0.02754136 0.71399999 -0.036304519 1.3376317e-38 298 269
-0.026289478 0.71399999 -0.036304519 1.3560348e-38 299 269
-0.025002534 0.713 -0.036253672 1.337632e-38 300 269
-0.023752406 0.713 -0.036253672 1.3284124e-38 301 269
-0.022439159 0.71100003 -0.036151983 1.3192292e-38 302 269
-0.021162732 0.70999998 -0.036101133 1.3192292e-38 303 269
-0.019917866 0.70999998 -0.036101133 1.3192292e-38 304 269
-0.018672999 0.70999998 -0.036101133 1.3192292e-38 305 269
-0.017428132 0.70999998 -0.036101133 1.3192295e-38 306 269
-0.01613768 0.708 -0.03599944 1.3192295e-38 307 269
-0.01489632 0.708 -0.03599944 1.3192295e-38 308 269
-0.013654959 0.708 -0.03599944 1.3192295e-38 309 269
-0.012396066 0.70700002 -0.035948593 1.2916428e-38 310 269
-0.011156459 0.70700002 -0.035948593 1.3008982e-38 311 269
-0.0099028256 0.70599997 -0.035897743 1.3008263e-38 312 269
-0.0086649731 0.70599997 -0.035897743 1.2915709e-38 313 269
-0.0074271196 0.70599997 -0.035897743 1.2732037e-38 314 269
-0.0061892662 0.70599997 -0.035897743 1.2732037e-38 315 269
-0.0049373866 0.704 -0.035796054 1.2732037e-38 316 269
-0.0037030398 0.704 -0.035796054 1.2548004e-38 317 269
-0.0024686933 0.704 -0.035796054 1.2455809e-38 318 269
-0.0012343467 0.704 -0.035796054 1.2455809e-38 319 269
0 0.704 -0.035796054 1.2177791e-38 320 269
0.0012343467 0.704 -0.035796054 1.2546572e-38 321 269
0.0024651866 0.70300001 -0.035745207 1.3557118e-38 322 269
0.0036977797 0.70300001 -0.035745207 1.3280171e-38 323 269
0.0049373866 0.704 -0.035796054 1.2818102e-38 324 269
0.0061717331 0.704 -0.035796054 1.2725906e-38 325 269
0.0074060797 0.704 -0.035796054 1.2450394e-38 326 269
0.0086649731 0.70599997 -0.035897743 1.2173808e-38 327 269
0.0099028256 0.70599997 -0.035897743 1.1990136e-38 328 269
0.011140679 0.70599997 -0.035897743 1.2082332e-38 329 269
0.012396066 0.70700002 -0.035948593 1.1807543e-38 330 269
0.013693533 0.70999998 -0.036101133 1.1623512e-38 331 269
0.014959441 0.71100003 -0.036151983 1.1807177e-38 332 269
0.016274439 0.71399999 -0.036304519 1.1714623e-38 333 269
0.017575413 0.71600002 -0.036406212 1.1898288e-38 334 269
0.0188308 0.71600002 -0.036406212 1.1990842e-38 335 269
0.020114239 0.71700001 -0.036457058 1.1898288e-38 336 269
0.021371379 0.71700001 -0.036457058 1.2083038e-38 337 269
0.022723202 0.72000003 -0.036609601 1.2450741e-38 338 269
0.024052227 0.722 -0.03671129 1.2727688e-38 339 269
0.025353199 0.72299999 -0.036762137 1.3554921e-38 340 269
0.026620859 0.72299999 -0.036762137 1.4569433e-38 341 269
0.02788852 0.72299999 -0.036762137 1.5952721e-38 342 269
-0.038240198 0.727 -0.038240198 1.7977069e-38 290 270
-0.036863834 0.72500002 -0.038135 1.7147308e-38 291 270
-0.035347197 0.72000003 -0.037871998 1.4291417e-38 292 270
-0.03403746 0.71899998 -0.037819397 1.4199221e-38 293 270
-0.032685637 0.71700001 -0.037714198 1.383333e-38 294 270
-0.031428497 0.71700001 -0.037714198 1.4017721e-38 295 270
-0.03012928 0.71600002 -0.037661601 1.346779e-38 296 270
-0.028873893 0.71600002 -0.037661601 1.346779e-38 297 270
-0.02754136 0.71399999 -0.037556399 1.337632e-38 298 270
-0.026289478 0.71399999 -0.037556399 1.337632e-38 299 270
-0.025037598 0.71399999 -0.037556399 1.3467437e-38 300 270
-0.023752406 0.713 -0.037503798 1.3375241e-38 301 270
-0.022439159 0.71100003 -0.037398599 1.3099377e-38 302 270
-0.021192541 0.71100003 -0.037398599 1.3099377e-38 303 270
-0.019917866 0.70999998 -0.037345998 1.2916065e-38 304 270
-0.018672999 0.70999998 -0.037345998 1.2916065e-38 305 270
-0.017428132 0.70999998 -0.037345998 1.2916428e-38 306 270
-0.01613768 0.708 -0.0372408 1.2824232e-38 307 270
-0.01489632 0.708 -0.0372408 1.2916428e-38 308 270
-0.013654959 0.708 -0.0372408 1.2824232e-38 309 270
-0.012396066 0.70700002 -0.037188202 1.2824232e-38 310 270
-0.011156459 0.70700002 -0.037188202 1.2824232e-38 311 270
-0.0099028256 0.70599997 -0.037135597 1.2824232e-38 312 270
-0.0086649731 0.70599997 -0.037135597 1.2732037e-38 313 270
-0.0074271196 0.70599997 -0.037135597 1.2547648e-38 314 270
-0.0061892662 0.70599997 -0.037135597 1.2547648e-38 315 270
-0.0049514128 0.70599997 -0.037135597 1.2456171e-38 316 270
-0.0037030398 0.704 -0.037030395 1.2456171e-38 317 270
-0.0024686933 0.704 -0.037030395 1.2456174e-38 318 270
-0.0012343467 0.704 -0.037030395 1.2456174e-38 319 270
0 0.704 -0.037030395 1.3377056e-38 320 270
0.0012343467 0.704 -0.037030395 1.3193023e-38 321 270
0.0024651866 0.70300001 -0.036977798 1.3191576e-38 322 270
0.0036977797 0.70300001 -0.036977798 1.2085228e-38 323 270
0.0049373866 0.704 -0.037030395 1.208126e-38 324 270
0.0061717331 0.704 -0.037030395 1.2357845e-38 325 270
0.0074060797 0.704 -0.037030395 1.2357489e-38 326 270
0.0086649731 0.70599997 -0.037135597 1.1989067e-38 327 270
0.0099028256 0.70599997 -0.037135597 1.1714278e-38 328 270
0.011140679 0.70599997 -0.037135597 1.1806473e-38 329 270
0.012396066 0.70700002 -0.037188202 1.153096e-38 330 270
0.013693533 0.70999998 -0.037345998 1.153096e-38 331 270
0.014959441 0.71100003 -0.037398599 1.1897938e-38 332 270
0.016274439 0.71399999 -0.037556399 1.1897938e-38 333 270
0.017575413 0.71600002 -0.037661601 1.2081966e-38 334 270
0.0188308 0.71600002 -0.037661601 1.2174162e-38 335 270
0.020114239 0.71700001 -0.037714198 1.2082682e-38 336 270
0.021371379 0.71700001 -0.037714198 1.2175236e-38 337 270
0.022723202 0.72000003 -0.037871998 1.2451097e-38 338 270
0.024052227 0.722 -0.0379772 1.3188664e-38 339 270
0.025353199 0.72299999 -0.038029801 1.4107373e-38 340 270
0.026620859 0.72299999 -0.038029801 1.5582862e-38 341 270
0.02788852 0.72299999 -0.038029801 1.6412977e-38 342 270
-0.038240198 0.727 -0.039514873 1.806962e-38 290 271
-0.036863834 0.72500002 -0.039406165 1.723986e-38 291 271
-0.035347197 0.72000003 -0.039134402 1.3923711e-38 292 271
-0.03403746 0.71899998 -0.039080046 1.3923711e-38 293 271
-0.032685637 0.71700001 -0.038971342 1.3925525e-38 294 271
-0.031428497 0.71700001 -0.038971342 1.4017721e-38 295 271
-0.03012928 0.71600002 -0.038916986 1.3743298e-38 296 271
-0.028873893 0.71600002 -0.038916986 1.3743298e-38 297 271
-0.02754136 0.71399999 -0.038808275 1.355963e-38 298 271
-0.026289478 0.71399999 -0.038808275 1.3467434e-38 299 271
-0.025037598 0.71399999 -0.038808275 1.3375241e-38 300 271
-0.023752406 0.713 -0.038753927 1.3283045e-38 301 271
-0.022502279 0.713 -0.038753927 1.3006826e-38 302 271
-0.021192541 0.71100003 -0.038645219 1.3006826e-38 303 271
-0.01994592 0.71100003 -0.038645219 1.2823513e-38 304 271
-0.018672999 0.70999998 -0.038590867 1.2823513e-38 305 271
-0.017428132 0.70999998 -0.038590867 1.2915709e-38 306 271
-0.01613768 0.708 -0.038482159 1.2823513e-38 307 271
-0.01489632 0.708 -0.038482159 1.2824232e-38 308 271
-0.013654959 0.708 -0.038482159 1.2732037e-38 309 271
-0.012396066 0.70700002 -0.038427804 1.2732037e-38 310 271
-0.011156459 0.70700002 -0.038427804 1.2732037e-38 311 271
-0.0099028256 0.70599997 -0.038373452 1.2732037e-38 312 271
-0.0086649731 0.70599997 -0.038373452 1.2548004e-38 313 271
-0.0074271196 0.70599997 -0.038373452 1.2547648e-38 314 271
-0.0061892662 0.70599997 -0.038373452 1.2547648e-38 315 271
-0.0049373866 0.704 -0.038264744 1.2456171e-38 316 271
-0.0037030398 0.704 -0.038264744 1.2456171e-38 317 271
-0.0024686933 0.704 -0.038264744 1.2548737e-38 318 271
-0.0012343467 0.704 -0.038264744 1.2825683e-38 319 271
0 0.704 -0.038264744 1.4483406e-38 320 271
0.0012325933 0.70300001 -0.038210396 1.4022069e-38 321 271
0.0024651866 0.70300001 -0.038210396 1.1625326e-38 322 271
0.0036977797 0.70300001 -0.038210396 1.0795205e-38 323 271
0.0049373866 0.704 -0.038264744 1.1896871e-38 324 271
0.0061717331 0.704 -0.038264744 1.1989067e-38 325 271
0.0074060797 0.704 -0.038264744 1.2172382e-38 326 271
0.0086649731 0.70599997 -0.038373452 1.2172382e-38 327 271
0.0099028256 0.70599997 -0.038373452 1.1989786e-38 328 271
0.011140679 0.70599997 -0.038373452 1.1989786e-38 329 271
0.012396066 0.70700002 -0.038427804 1.1623156e-38 330 271
0.013693533 0.70999998 -0.038590867 1.1623156e-38 331 271
0.014959441 0.71100003 -0.038645219 1.1990133e-38 332 271
0.016274439 0.71399999 -0.038808275 1.1990133e-38 333 271
0.017575413 0.71600002 -0.038916986 1.2082682e-38 334 271
0.018857099 0.71700001 -0.038971342 1.2082682e-38 335 271
0.020114239 0.71700001 -0.038971342 1.2175236e-38 336 271
0.021430992 0.71899998 -0.039080046 1.2267432e-38 337 271
0.022723202 0.72000003 -0.039134402 1.2818439e-38 338 271
0.024052227 0.722 -0.039243106 1.3924427e-38 339 271
0.025318133 0.722 -0.039243106 1.4753099e-38 340 271
0.026620859 0.72299999 -0.039297458 1.6412621e-38 341 271
-0.038240198 0.727 -0.040789545 1.7979227e-38 290 272
-0.036863834 0.72500002 -0.040677335 1.7333857e-38 291 272
-0.035347197 0.72000003 -0.040396802 1.3831515e-38 292 272
-0.03403746 0.71899998 -0.040340692 1.3739319e-38 293 272
-0.032776814 0.71899998 -0.040340692 1.3925879e-38 294 272
-0.031428497 0.71700001 -0.040228479 1.411027e-38 295 272
-0.030171359 0.71700001 -0.040228479 1.3743651e-38 296 272
-0.028873893 0.71600002 -0.040172372 1.3743651e-38 297 272
-0.027618507 0.71600002 -0.040172372 1.355963e-38 298 272
-0.026289478 0.71399999 -0.040060159 1.3467434e-38 299 272
-0.025037598 0.71399999 -0.040060159 1.3191929e-38 300 272
-0.023752406 0.713 -0.040004052 1.3191929e-38 301 272
-0.022502279 0.713 -0.040004052 1.3099377e-38 302 272
-0.021192541 0.71100003 -0.039891839 1.3007182e-38 303 272
-0.01994592 0.71100003 -0.039891839 1.2914629e-38 304 272
-0.0186993 0.71100003 -0.039891839 1.2914629e-38 305 272
-0.017428132 0.70999998 -0.039835732 1.2823513e-38 306 272
-0.01613768 0.708 -0.039723519 1.2731316e-38 307 272
-0.01489632 0.708 -0.039723519 1.2914629e-38 308 272
-0.013654959 0.708 -0.039723519 1.2730598e-38 309 272
-0.012396066 0.70700002 -0.039667413 1.2731314e-38 310 272
-0.011156459 0.70700002 -0.039667413 1.2731314e-38 311 272
-0.0099028256 0.70599997 -0.039611302 1.2548004e-38 312 272
-0.0086649731 0.70599997 -0.039611302 1.2548004e-38 313 272
-0.0074376399 0.70700002 -0.039667413 1.2455809e-38 314 272
-0.0061892662 0.70599997 -0.039611302 1.2548004e-38 315 272
-0.0049373866 0.704 -0.039499093 1.2731684e-38 316 272
-0.0037030398 0.704 -0.039499093 1.2916434e-38 317 272
-0.0024686933 0.704 -0.039499093 1.3746563e-38 318 272
-0.0012343467 0.704 -0.039499093 1.383876e-38 319 272
0 0.704 -0.039499093 1.3381019e-38 320 272
0.0012325933 0.70300001 -0.039442986 1.227503e-38 321 272
0.0024651866 0.70300001 -0.039442986 1.1255112e-38 322 272
0.0036977797 0.70300001 -0.039442986 1.1623893e-38 323 272
0.0049373866 0.704 -0.039499093 1.2357845e-38 324 272
0.0061717331 0.704 -0.039499093 1.2173814e-38 325 272
0.0074271196 0.70599997 -0.039611302 1.2082334e-38 326 272
0.0086649731 0.70599997 -0.039611302 1.2082334e-38 327 272
0.0099028256 0.70599997 -0.039611302 1.1897587e-38 328 272
0.011140679 0.70599997 -0.039611302 1.1897587e-38 329 272
0.0124136 0.708 -0.039723519 1.1623156e-38 330 272
0.013693533 0.70999998 -0.039835732 1.1807187e-38 331 272
0.014959441 0.71100003 -0.039891839 1.1899017e-38 332 272
0.016251646 0.713 -0.040004052 1.1899017e-38 333 272
0.017575413 0.71600002 -0.040172372 1.1899373e-38 334 272
0.018857099 0.71700001 -0.040228479 1.1991568e-38 335 272
0.020170346 0.71899998 -0.040340692 1.2267432e-38 336 272
0.021430992 0.71899998 -0.040340692 1.2359629e-38 337 272
0.022723202 0.72000003 -0.040396802 1.2910998e-38 338 272
0.0239856 0.72000003 -0.040396802 1.4478682e-38 339 272
0.025248 0.72000003 -0.040396802 1.5949847e-38 340 272
0.026510401 0.72000003 -0.040396802 1.7516814e-38 341 272
-0.038240198 0.727 -0.042064216 1.8071067e-38 290 273
-0.036863834 0.72500002 -0.041948501 1.7886675e-38 291 273
-0.035494477 0.72299999 -0.041832779 1.5489594e-38 292 273
-0.034084801 0.72000003 -0.041659199 1.4106301e-38 293 273
-0.0328224 0.72000003 -0.041659199 1.4475813e-38 294 273
-0.031516165 0.71899998 -0.041601337 1.4752039e-38 295 273
-0.030171359 0.71700001 -0.041485619 1.3927323e-38 296 273
-0.028873893 0.71600002 -0.041427758 1.3927323e-38 297 273
-0.027618507 0.71600002 -0.041427758 1.3743298e-38 298 273
-0.026289478 0.71399999 -0.041312039 1.3559267e-38 299 273
-0.025037598 0.71399999 -0.041312039 1.3467434e-38 300 273
-0.02378572 0.71399999 -0.041312039 1.3375238e-38 301 273
-0.022502279 0.713 -0.041254178 1.3099374e-38 302 273
-0.021252153 0.713 -0.041254178 1.3007179e-38 303 273
-0.01994592 0.71100003 -0.041138459 1.2823869e-38 304 273
-0.0186993 0.71100003 -0.041138459 1.2731314e-38 305 273
-0.017428132 0.70999998 -0.041080594 1.2731314e-38 306 273
-0.016183265 0.70999998 -0.041080594 1.2731314e-38 307 273
-0.01489632 0.708 -0.040964879 1.2730598e-38 308 273
-0.013654959 0.708 -0.040964879 1.2730598e-38 309 273
-0.012396066 0.70700002 -0.040907022 1.2546569e-38 310 273
-0.011156459 0.70700002 -0.040907022 1.2638765e-38 311 273
-0.0099028256 0.70599997 -0.040849157 1.2455453e-38 312 273
-0.0086649731 0.70599997 -0.040849157 1.2455453e-38 313 273
-0.0074376399 0.70700002 -0.040907022 1.2363979e-38 314 273
-0.0061892662 0.70599997 -0.040849157 1.2363979e-38 315 273
-0.0049373866 0.704 -0.040733438 1.2365428e-38 316 273
-0.0037030398 0.704 -0.040733438 1.2826046e-38 317 273
-0.0024686933 0.704 -0.040733438 1.3930605e-38 318 273
-0.0012343467 0.704 -0.040733438 1.4391223e-38 319 273
0 0.704 -0.040733438 1.3745494e-38 320 273
0.0012325933 0.70300001 -0.040675577 1.2823179e-38 321 273
0.0024651866 0.70300001 -0.040675577 1.2636254e-38 322 273
0.0036977797 0.70300001 -0.040675577 1.2451502e-38 323 273
0.0049373866 0.704 -0.040733438 1.2357489e-38 324 273
0.0061892662 0.70599997 -0.040849157 1.2542241e-38 325 273
0.0074271196 0.70599997 -0.040849157 1.2632634e-38 326 273
0.0086649731 0.70599997 -0.040849157 1.2264212e-38 327 273
0.0099168532 0.70700002 -0.040907022 1.1896868e-38 328 273
0.011156459 0.70700002 -0.040907022 1.1989064e-38 329 273
0.0124136 0.708 -0.040964879 1.1807543e-38 330 273
0.013693533 0.70999998 -0.041080594 1.1807543e-38 331 273
0.014959441 0.71100003 -0.041138459 1.1991568e-38 332 273
0.016251646 0.713 -0.041254178 1.1899373e-38 333 273
0.017575413 0.71600002 -0.041427758 1.2082682e-38 334 273
0.018857099 0.71700001 -0.041485619 1.2267432e-38 335 273
0.020170346 0.71899998 -0.041601337 1.2359629e-38 336 273
0.021430992 0.71899998 -0.041601337 1.2635856e-38 337 273
0.022691639 0.71899998 -0.041601337 1.3831159e-38 338 273
0.023952285 0.71899998 -0.041601337 1.5398844e-38 339 273
0.025248 0.72000003 -0.041659199 1.6871447e-38 340 273
-0.036965527 0.727 -0.043338891 1.7796277e-38 291 274
-0.035592668 0.72500002 -0.043219667 1.7147308e-38 292 274
-0.03422682 0.72299999 -0.043100435 1.5395591e-38 293 274
-0.032913569 0.722 -0.043040827 1.392191e-38 294 274
-0.03156 0.72000003 -0.042921603 1.4659475e-38 295 274
-0.030255521 0.71899998 -0.042861983 1.401844e-38 296 274
-0.028914221 0.71700001 -0.042742759 1.4110636e-38 297 274
-0.027618507 0.71600002 -0.042683143 1.3559985e-38 298 274
-0.026363119 0.71600002 -0.042683143 1.3559985e-38 299 274
-0.025037598 0.71399999 -0.042563915 1.3284122e-38 300 274
-0.02378572 0.71399999 -0.042563915 1.3284122e-38 301 274
-0.022533838 0.71399999 -0.042563915 1.3008258e-38 302 274
-0.021252153 0.713 -0.042504307 1.2916062e-38 303 274
-0.01994592 0.71100003 -0.042385083 1.2824588e-38 304 274
-0.0186993 0.71100003 -0.042385083 1.2732034e-38 305 274
-0.017428132 0.70999998 -0.042325463 1.2823867e-38 306 274
-0.016183265 0.70999998 -0.042325463 1.2823867e-38 307 274
-0.01489632 0.708 -0.042206239 1.2548001e-38 308 274
-0.013654959 0.708 -0.042206239 1.2455806e-38 309 274
-0.0124136 0.708 -0.042206239 1.2362894e-38 310 274
-0.011156459 0.70700002 -0.042146627 1.2546925e-38 311 274
-0.0099168532 0.70700002 -0.042146627 1.2363257e-38 312 274
-0.008677247 0.70700002 -0.042146627 1.2363257e-38 313 274
-0.0074376399 0.70700002 -0.042146627 1.2271061e-38 314 274
-0.0061980332 0.70700002 -0.042146627 1.2178866e-38 315 274
-0.0049373866 0.704 -0.041967787 1.1902999e-38 316 274
-0.0037030398 0.704 -0.041967787 1.1995553e-38 317 274
-0.0024686933 0.704 -0.041967787 1.1719339e-38 318 274
-0.0012343467 0.704 -0.041967787 1.2087762e-38 319 274
0 0.704 -0.041967787 1.3283787e-38 320 274
0.0012343467 0.704 -0.041967787 1.3375982e-38 321 274
0.0024651866 0.70300001 -0.041908171 1.2911393e-38 322 274
0.0036977797 0.70300001 -0.041908171 1.1989435e-38 323 274
0.0049514128 0.70599997 -0.042087011 1.2262424e-38 324 274
0.0061892662 0.70599997 -0.042087011 1.2539369e-38 325 274
0.0074271196 0.70599997 -0.042087011 1.2356054e-38 326 274
0.0086649731 0.70599997 -0.042087011 1.2263859e-38 327 274
0.0099168532 0.70700002 -0.042146627 1.208126e-38 328 274
0.011156459 0.70700002 -0.042146627 1.208126e-38 329 274
0.0124136 0.708 -0.042206239 1.180754e-38 330 274
0.013693533 0.70999998 -0.042325463 1.1899735e-38 331 274
0.014959441 0.71100003 -0.042385083 1.1991568e-38 332 274
0.016251646 0.713 -0.042504307 1.1991568e-38 333 274
0.017575413 0.71600002 -0.042683143 1.1991568e-38 334 274
0.018857099 0.71700001 -0.042742759 1.1991568e-38 335 274
0.020114239 0.71700001 -0.042742759 1.2450741e-38 336 274
0.021430992 0.71899998 -0.042861983 1.3188308e-38 337 274
