# .PCD v.7 - Point Cloud Data file format
FIELDS x y z rgb imX imY
SIZE 4 4 4 4 4 4
TYPE F F F F F F
COUNT 1 1 1 1 1 1
WIDTH 839
HEIGHT 1
VIEWPOINT 0 0 0 1 0 0 0
POINTS 839
DATA ascii
0 0.70999998 -0.024897331 1.4521166e-38 320 260
0.00124662 0.71100003 -0.024932399 1.442897e-38 321 260
0.0024932399 0.71100003 -0.024932399 1.3970866e-38 322 260
0.0037398601 0.71100003 -0.024932399 1.4708431e-38 323 260
0.0049864799 0.71100003 -0.024932399 1.3795472e-38 324 260
0.0062330998 0.71100003 -0.024932399 1.3703277e-38 325 260
0.0075112795 0.71399999 -0.025037598 1.3606419e-38 326 260
0.0087877065 0.71600002 -0.025107734 1.3145439e-38 327 260
0.010043093 0.71600002 -0.025107734 1.2866701e-38 328 260
0.01129848 0.71600002 -0.025107734 1.268231e-38 329 260
0.0125714 0.71700001 -0.0251428 1.167103e-38 330 260
0.0138864 0.72000003 -0.025248 1.1578834e-38 331 260
0.015190879 0.722 -0.025318133 1.0387847e-38 332 260
0.016525166 0.72500002 -0.025423333 1.0387847e-38 333 260
0.017796334 0.72500002 -0.025423333 1.0942099e-38 334 260
0.0191464 0.72799999 -0.025528532 1.1034296e-38 335 260
0.020478934 0.73000002 -0.025598666 1.1767901e-38 336 260
0.021758866 0.73000002 -0.025598666 1.2136324e-38 337 260
0.023038799 0.73000002 -0.025598666 1.2139195e-38 338 260
0.024318734 0.73000002 -0.025598666 1.0940652e-38 339 260
0.025598666 0.73000002 -0.025598666 1.1867668e-38 340 260
0.026878599 0.73000002 -0.025598666 1.9335514e-38 341 260
0.028158534 0.73000002 -0.025598666 1.7516095e-38 342 260
0.029438468 0.73000002 -0.025598666 1.8254019e-38 343 260
-0.039243106 0.722 -0.026584039 1.6779977e-38 289 261
-0.0379772 0.722 -0.026584039 1.2889377e-38 290 261
-0.03671129 0.722 -0.026584039 7.7267808e-39 291 261
-0.035445385 0.722 -0.026584039 1.4340725e-38 292 261
-0.034179479 0.722 -0.026584039 1.4616951e-38 293 261
-0.032913569 0.722 -0.026584039 1.4523324e-38 294 261
-0.03156 0.72000003 -0.026510401 1.4338574e-38 295 261
-0.0302976 0.72000003 -0.026510401 1.4521889e-38 296 261
-0.028994869 0.71899998 -0.02647358 1.4521889e-38 297 261
-0.027734226 0.71899998 -0.02647358 1.4430042e-38 298 261
-0.02647358 0.71899998 -0.02647358 1.4246011e-38 299 261
-0.025212931 0.71899998 -0.02647358 1.4338925e-38 300 261
-0.023952285 0.71899998 -0.02647358 1.3140383e-38 301 261
-0.02262852 0.71700001 -0.02639994 1.0934171e-38 302 261
-0.021341572 0.71600002 -0.026363119 1.1026366e-38 303 261
-0.020086186 0.71600002 -0.026363119 1.3142903e-38 304 261
-0.0188308 0.71600002 -0.026363119 1.4156696e-38 305 261
-0.017526319 0.71399999 -0.026289478 1.4889948e-38 306 261
-0.016274439 0.71399999 -0.026289478 1.4982144e-38 307 261
-0.015001519 0.713 -0.026252659 1.4981793e-38 308 261
-0.01371282 0.71100003 -0.026179021 1.5073989e-38 309 261
-0.0124662 0.71100003 -0.026179021 1.5074705e-38 310 261
-0.01121958 0.71100003 -0.026179021 1.5443848e-38 311 261
-0.0099729598 0.71100003 -0.026179021 1.5079011e-38 312 261
-0.0087263398 0.71100003 -0.026179021 1.5079011e-38 313 261
-0.0074797203 0.71100003 -0.026179021 1.5171574e-38 314 261
-0.0062330998 0.71100003 -0.026179021 1.3420216e-38 315 261
-0.0049864799 0.71100003 -0.026179021 9.006361e-39 316 261
-0.0037345996 0.70999998 -0.026142199 5.7856363e-39 317 261
-0.0024897333 0.70999998 -0.026142199 9.1982983e-39 318 261
-0.0012448666 0.70999998 -0.026142199 1.2240394e-38 319 261
0 0.70999998 -0.026142199 1.4431122e-38 320 261
0.0012448666 0.70999998 -0.026142199 1.424673e-38 321 261
0.0024897333 0.70999998 -0.026142199 1.3788988e-38 322 261
0.0037345996 0.70999998 -0.026142199 1.4619109e-38 323 261
0.0049864799 0.71100003 -0.026179021 1.3794759e-38 324 261
0.0062330998 0.71100003 -0.026179021 1.3241585e-38 325 261
0.0075007593 0.713 -0.026252659 1.3512427e-38 326 261
0.0087631596 0.71399999 -0.026289478 1.305145e-38 327 261
0.010043093 0.71600002 -0.026363119 1.2591544e-38 328 261
0.01129848 0.71600002 -0.026363119 1.2314957e-38 329 261
0.0125714 0.71700001 -0.02639994 1.1856131e-38 330 261
0.0138864 0.72000003 -0.026510401 1.1856131e-38 331 261
0.015190879 0.722 -0.026584039 1.0479676e-38 332 261
0.016525166 0.72500002 -0.026694499 1.0387481e-38 333 261
0.017796334 0.72500002 -0.026694499 1.1127214e-38 334 261
0.0191464 0.72799999 -0.026804959 1.1035018e-38 335 261
0.020422826 0.72799999 -0.026804959 1.1768267e-38 336 261
0.021758866 0.73000002 -0.026878599 1.1952658e-38 337 261
0.023038799 0.73000002 -0.026878599 1.1680387e-38 338 261
0.024318734 0.73000002 -0.026878599 1.1495995e-38 339 261
0.025598666 0.73000002 -0.026878599 1.2054227e-38 340 261
0.026878599 0.73000002 -0.026878599 1.8784508e-38 341 261
0.028158534 0.73000002 -0.026878599 1.7056557e-38 342 261
0.029438468 0.73000002 -0.026878599 1.7886678e-38 343 261
-0.040509012 0.722 -0.027849946 1.8069637e-38 288 262
-0.039243106 0.722 -0.027849946 1.5580355e-38 289 262
-0.0379772 0.722 -0.027849946 1.2428758e-38 290 262
-0.03671129 0.722 -0.027849946 8.7405725e-39 291 262
-0.035445385 0.722 -0.027849946 1.4342159e-38 292 262
-0.034179479 0.722 -0.027849946 1.4065933e-38 293 262
-0.032913569 0.722 -0.027849946 1.4339643e-38 294 262
-0.03156 0.72000003 -0.027772799 1.4063415e-38 295 262
-0.0302976 0.72000003 -0.027772799 1.4246011e-38 296 262
-0.028994869 0.71899998 -0.027734226 1.4246011e-38 297 262
-0.027734226 0.71899998 -0.027734226 1.4246008e-38 298 262
-0.02647358 0.71899998 -0.027734226 1.4246008e-38 299 262
-0.0251428 0.71700001 -0.027657079 1.4063782e-38 300 262
-0.02388566 0.71700001 -0.027657079 1.2404619e-38 301 262
-0.02262852 0.71700001 -0.027657079 9.64955e-39 302 262
-0.021341572 0.71600002 -0.027618507 1.0940289e-38 303 262
-0.020086186 0.71600002 -0.027618507 1.3786119e-38 304 262
-0.018778199 0.71399999 -0.02754136 1.4247097e-38 305 262
-0.017526319 0.71399999 -0.02754136 1.4797385e-38 306 262
-0.016251646 0.713 -0.027502786 1.4889582e-38 307 262
-0.015001519 0.713 -0.027502786 1.4705911e-38 308 262
-0.01371282 0.71100003 -0.027425639 1.4613714e-38 309 262
-0.0124662 0.71100003 -0.027425639 1.4798829e-38 310 262
-0.01121958 0.71100003 -0.027425639 1.4891024e-38 311 262
-0.0099729598 0.71100003 -0.027425639 1.4892099e-38 312 262
-0.0087263398 0.71100003 -0.027425639 1.4892099e-38 313 262
-0.0074797203 0.71100003 -0.027425639 1.4525489e-38 314 262
-0.0062330998 0.71100003 -0.027425639 1.3695726e-38 315 262
-0.0049864799 0.71100003 -0.027425639 8.9141682e-39 316 262
-0.0037345996 0.70999998 -0.027387066 5.4182943e-39 317 262
-0.0024897333 0.70999998 -0.027387066 9.1064684e-39 318 262
-0.0012448666 0.70999998 -0.027387066 1.2333315e-38 319 262
0 0.70999998 -0.027387066 1.4246377e-38 320 262
0.0012448666 0.70999998 -0.027387066 1.3877954e-38 321 262
0.0024897333 0.70999998 -0.027387066 1.360568e-38 322 262
0.0037345996 0.70999998 -0.027387066 1.4619472e-38 323 262
0.0049794666 0.70999998 -0.027387066 1.3794403e-38 324 262
0.0062330998 0.71100003 -0.027425639 1.3149034e-38 325 262
0.0075007593 0.713 -0.027502786 1.332803e-38 326 262
0.0087631596 0.71399999 -0.02754136 1.2867411e-38 327 262
0.010043093 0.71600002 -0.027618507 1.2316389e-38 328 262
0.01129848 0.71600002 -0.027618507 1.2223835e-38 329 262
0.0125714 0.71700001 -0.027657079 1.1857922e-38 330 262
0.0138864 0.72000003 -0.027772799 1.1857922e-38 331 262
0.015190879 0.722 -0.027849946 1.0665147e-38 332 262
0.01647958 0.72299999 -0.02788852 1.0204169e-38 333 262
0.017796334 0.72500002 -0.027965667 1.1220128e-38 334 262
0.0191464 0.72799999 -0.028081384 1.1035737e-38 335 262
0.020422826 0.72799999 -0.028081384 1.167715e-38 336 262
0.021758866 0.73000002 -0.028158534 1.1861182e-38 337 262
0.023038799 0.73000002 -0.028158534 1.1862984e-38 338 262
0.024318734 0.73000002 -0.028158534 1.232396e-38 339 262
0.025598666 0.73000002 -0.028158534 1.1964553e-38 340 262
0.026878599 0.73000002 -0.028158534 1.814166e-38 341 262
0.028158534 0.73000002 -0.028158534 1.6872882e-38 342 262
0.029438468 0.73000002 -0.028158534 1.7978871e-38 343 262
-0.039243106 0.722 -0.029115854 1.4472563e-38 289 263
-0.0379772 0.722 -0.029115854 1.2608104e-38 290 263
-0.03671129 0.722 -0.029115854 9.6578443e-39 291 263
-0.035445385 0.722 -0.029115854 1.406593e-38 292 263
-0.034179479 0.722 -0.029115854 1.406593e-38 293 263
-0.0328224 0.72000003 -0.029035201 1.4156686e-38 294 263
-0.03156 0.72000003 -0.029035201 1.4064131e-38 295 263
-0.030255521 0.71899998 -0.028994869 1.4246727e-38 296 263
-0.028914221 0.71700001 -0.028914221 1.4246727e-38 297 263
-0.027657079 0.71700001 -0.028914221 1.4154528e-38 298 263
-0.02639994 0.71700001 -0.028914221 1.4154528e-38 299 263
-0.0251428 0.71700001 -0.028914221 1.3880469e-38 300 263
-0.02388566 0.71700001 -0.028914221 1.1575219e-38 301 263
-0.02262852 0.71700001 -0.028914221 8.4567606e-39 302 263
-0.021341572 0.71600002 -0.028873893 1.0669816e-38 303 263
-0.020086186 0.71600002 -0.028873893 1.3879389e-38 304 263
-0.018778199 0.71399999 -0.028793238 1.4063782e-38 305 263
-0.017526319 0.71399999 -0.028793238 1.4522593e-38 306 263
-0.01620606 0.71100003 -0.028672259 1.461479e-38 307 263
-0.014959441 0.71100003 -0.028672259 1.4338925e-38 308 263
-0.01371282 0.71100003 -0.028672259 1.4338925e-38 309 263
-0.0124662 0.71100003 -0.028672259 1.4431125e-38 310 263
-0.01121958 0.71100003 -0.028672259 1.4431125e-38 311 263
-0.0099729598 0.71100003 -0.028672259 1.4614435e-38 312 263
-0.0087140659 0.70999998 -0.028631933 1.4614435e-38 313 263
-0.0074691991 0.70999998 -0.028631933 1.4339295e-38 314 263
-0.0062243328 0.70999998 -0.028631933 1.360173e-38 315 263
-0.0049864799 0.71100003 -0.028672259 8.6386561e-39 316 263
-0.0037345996 0.70999998 -0.028631933 5.3264588e-39 317 263
-0.0024897333 0.70999998 -0.028631933 8.8280836e-39 318 263
-0.0012448666 0.70999998 -0.028631933 1.1870539e-38 319 263
0 0.70999998 -0.028631933 1.3968715e-38 320 263
0.0012448666 0.70999998 -0.028631933 1.3968715e-38 321 263
0.0024897333 0.70999998 -0.028631933 1.3698239e-38 322 263
0.0037345996 0.70999998 -0.028631933 1.4251413e-38 323 263
0.0049794666 0.70999998 -0.028631933 1.3607494e-38 324 263
0.0062330998 0.71100003 -0.028672259 1.305432e-38 325 263
0.0074797203 0.71100003 -0.028672259 1.2959973e-38 326 263
0.0087508867 0.713 -0.028752912 1.2591191e-38 327 263
0.01001504 0.71399999 -0.028793238 1.2132361e-38 328 263
0.011266919 0.71399999 -0.028793238 1.2132361e-38 329 263
0.012606465 0.71899998 -0.028994869 1.1767522e-38 330 263
0.013924973 0.722 -0.029115854 1.1491295e-38 331 263
0.015211919 0.72299999 -0.029156178 1.0848456e-38 332 263
0.01647958 0.72299999 -0.029156178 1.0480032e-38 333 263
0.017796334 0.72500002 -0.029236834 1.0761308e-38 334 263
0.019120099 0.727 -0.029317487 1.0761308e-38 335 263
0.020422826 0.72799999 -0.029357811 1.1861182e-38 336 263
0.021758866 0.73000002 -0.029438468 1.2045573e-38 337 263
0.023038799 0.73000002 -0.029438468 1.1955545e-38 338 263
0.024318734 0.73000002 -0.029438468 1.2324688e-38 339 263
0.025633732 0.73100001 -0.029478792 1.1965276e-38 340 263
0.026878599 0.73000002 -0.029438468 1.795835e-38 341 263
0.028158534 0.73000002 -0.029438468 1.6963999e-38 342 263
0.029438468 0.73000002 -0.029438468 1.8162183e-38 343 263
-0.040565118 0.72299999 -0.030423839 1.7975624e-38 288 264
-0.039243106 0.722 -0.030381758 1.2904864e-38 289 264
-0.0379772 0.722 -0.030381758 1.2692018e-38 290 264
-0.03671129 0.722 -0.030381758 1.1217247e-38 291 264
-0.035445385 0.722 -0.030381758 1.3974456e-38 292 264
-0.034179479 0.722 -0.030381758 1.3974456e-38 293 264
-0.0328224 0.72000003 -0.0302976 1.3973021e-38 294 264
-0.03156 0.72000003 -0.0302976 1.3880465e-38 295 264
-0.030255521 0.71899998 -0.030255521 1.4064133e-38 296 264
-0.028914221 0.71700001 -0.030171359 1.4064133e-38 297 264
-0.027657079 0.71700001 -0.030171359 1.378827e-38 298 264
-0.02639994 0.71700001 -0.030171359 1.3973021e-38 299 264
-0.0251428 0.71700001 -0.030171359 1.3604974e-38 300 264
-0.02388566 0.71700001 -0.030171359 1.0470323e-38 301 264
-0.022596961 0.71600002 -0.03012928 7.0781491e-39 302 264
-0.021341572 0.71600002 -0.03012928 1.0397189e-38 303 264
-0.020030079 0.71399999 -0.030045118 1.3972665e-38 304 264
-0.018778199 0.71399999 -0.030045118 1.3880469e-38 305 264
-0.017501773 0.713 -0.030003037 1.4247449e-38 306 264
-0.01620606 0.71100003 -0.029918881 1.4247449e-38 307 264
-0.014959441 0.71100003 -0.029918881 1.4247446e-38 308 264
-0.01371282 0.71100003 -0.029918881 1.4339643e-38 309 264
-0.012448666 0.70999998 -0.029876797 1.4063415e-38 310 264
-0.011203799 0.70999998 -0.029876797 1.4063415e-38 311 264
-0.0099589331 0.70999998 -0.029876797 1.4338922e-38 312 264
-0.0087140659 0.70999998 -0.029876797 1.4154531e-38 313 264
-0.0074691991 0.70999998 -0.029876797 1.4063061e-38 314 264
-0.0062243328 0.70999998 -0.029876797 1.304891e-38 315 264
-0.0049794666 0.70999998 -0.029876797 8.3609916e-39 316 264
-0.0037345996 0.70999998 -0.029876797 5.7856363e-39 317 264
-0.0024897333 0.70999998 -0.029876797 7.724257e-39 318 264
-0.0012448666 0.70999998 -0.029876797 1.0674516e-38 319 264
0 0.70999998 -0.029876797 1.3510258e-38 320 264
0.0012448666 0.70999998 -0.029876797 1.3879039e-38 321 264
0.0024897333 0.70999998 -0.029876797 1.3698245e-38 322 264
0.0037345996 0.70999998 -0.029876797 1.3882636e-38 323 264
0.0049794666 0.70999998 -0.029876797 1.342203e-38 324 264
0.0062243328 0.70999998 -0.029876797 1.2868857e-38 325 264
0.0074797203 0.71100003 -0.029918881 1.2682307e-38 326 264
0.0087508867 0.713 -0.030003037 1.2682307e-38 327 264
0.01001504 0.71399999 -0.030045118 1.2041244e-38 328 264
0.011266919 0.71399999 -0.030045118 1.2041244e-38 329 264
0.012606465 0.71899998 -0.030255521 1.1859717e-38 330 264
0.013924973 0.722 -0.030381758 1.158349e-38 331 264
0.015211919 0.72299999 -0.030423839 1.0848456e-38 332 264
0.01647958 0.72299999 -0.030423839 1.0387837e-38 333 264
0.017796334 0.72500002 -0.030508002 1.0945342e-38 334 264
0.019120099 0.727 -0.030592158 1.1037538e-38 335 264
0.020422826 0.72799999 -0.030634239 1.1862261e-38 336 264
0.021758866 0.73000002 -0.030718399 1.2231043e-38 337 264
0.023038799 0.73000002 -0.030718399 1.2141014e-38 338 264
0.024318734 0.73000002 -0.030718399 1.2233211e-38 339 264
0.025633732 0.73100001 -0.03076048 1.1782682e-38 340 264
0.026915418 0.73100001 -0.03076048 1.7959788e-38 341 264
0.028197108 0.73100001 -0.03076048 1.7331699e-38 342 264
-0.040565118 0.72299999 -0.031691495 1.7975258e-38 288 265
-0.039297458 0.72299999 -0.031691495 1.2535715e-38 289 265
-0.0379772 0.722 -0.031647664 1.2689851e-38 290 265
-0.03671129 0.722 -0.031647664 1.1675699e-38 291 265
-0.035445385 0.722 -0.031647664 1.3791863e-38 292 265
-0.034084801 0.72000003 -0.03156 1.3515277e-38 293 265
-0.0328224 0.72000003 -0.03156 1.3880469e-38 294 265
-0.03156 0.72000003 -0.03156 1.3880469e-38 295 265
-0.030255521 0.71899998 -0.031516165 1.3788993e-38 296 265
-0.028914221 0.71700001 -0.031428497 1.3788993e-38 297 265
-0.027657079 0.71700001 -0.031428497 1.360568e-38 298 265
-0.02639994 0.71700001 -0.031428497 1.3513125e-38 299 265
-0.0251428 0.71700001 -0.031428497 1.3330551e-38 300 265
-0.02388566 0.71700001 -0.031428497 9.8274771e-39 301 265
-0.022596961 0.71600002 -0.031384666 6.6168206e-39 302 265
-0.021341572 0.71600002 -0.031384666 1.0489037e-38 303 265
-0.020030079 0.71399999 -0.031296998 1.3787922e-38 304 265
-0.018751899 0.713 -0.031253166 1.3787922e-38 305 265
-0.017501773 0.713 -0.031253166 1.3971587e-38 306 265
-0.016251646 0.713 -0.031253166 1.4063785e-38 307 265
-0.014959441 0.71100003 -0.031165501 1.4064136e-38 308 265
-0.01371282 0.71100003 -0.031165501 1.3971582e-38 309 265
-0.012448666 0.70999998 -0.031121666 1.3971216e-38 310 265
-0.011203799 0.70999998 -0.031121666 1.3971216e-38 311 265
-0.0099589331 0.70999998 -0.031121666 1.3971935e-38 312 265
-0.0087140659 0.70999998 -0.031121666 1.3879739e-38 313 265
-0.0074691991 0.70999998 -0.031121666 1.3879386e-38 314 265
-0.0062243328 0.70999998 -0.031121666 1.2773399e-38 315 265
-0.0049794666 0.70999998 -0.031121666 8.2684429e-39 316 265
-0.00372408 0.708 -0.031034 5.3264588e-39 317 265
-0.00248272 0.708 -0.031034 5.8857548e-39 318 265
-0.00124136 0.708 -0.031034 9.1126019e-39 319 265
0 0.708 -0.031034 1.3145437e-38 320 265
0.00124136 0.708 -0.031034 1.3329829e-38 321 265
0.00248272 0.708 -0.031034 1.3607122e-38 322 265
0.00372408 0.708 -0.031034 1.3791512e-38 323 265
0.0049794666 0.70999998 -0.031121666 1.3145434e-38 324 265
0.0062243328 0.70999998 -0.031121666 1.2684816e-38 325 265
0.0074797203 0.71100003 -0.031165501 1.2223487e-38 326 265
0.0087263398 0.71100003 -0.031165501 1.2131292e-38 327 265
0.010001013 0.713 -0.031253166 1.2041963e-38 328 265
0.011251139 0.713 -0.031253166 1.2041963e-38 329 265
0.012624 0.72000003 -0.03156 1.1951917e-38 330 265
0.01394426 0.72299999 -0.031691495 1.185972e-38 331 265
0.015211919 0.72299999 -0.031691495 1.0575465e-38 332 265
0.01647958 0.72299999 -0.031691495 9.9300956e-39 333 265
0.017796334 0.72500002 -0.031779166 1.1130451e-38 334 265
0.019120099 0.727 -0.03186683 1.1315201e-38 335 265
0.020422826 0.72799999 -0.031910665 1.1772586e-38 336 265
0.021758866 0.73000002 -0.031998333 1.2141008e-38 337 265
0.023038799 0.73000002 -0.031998333 1.2143163e-38 338 265
0.024352046 0.73100001 -0.032042164 1.1497794e-38 339 265
0.025633732 0.73100001 -0.032042164 1.2058899e-38 340 265
0.026989058 0.73299998 -0.032129832 1.8789182e-38 341 265
0.028274251 0.73299998 -0.032129832 1.8067469e-38 342 265
-0.039297458 0.72299999 -0.032959159 1.2997047e-38 289 266
-0.0379772 0.722 -0.032913569 1.3518164e-38 290 266
-0.03671129 0.722 -0.032913569 1.1951197e-38 291 266
-0.035445385 0.722 -0.032913569 1.3790778e-38 292 266
-0.034084801 0.72000003 -0.0328224 1.3790778e-38 293 266
-0.0328224 0.72000003 -0.0328224 1.360568e-38 294 266
-0.03156 0.72000003 -0.0328224 1.3697876e-38 295 266
-0.030255521 0.71899998 -0.032776814 1.3606043e-38 296 266
-0.028914221 0.71700001 -0.032685637 1.3606043e-38 297 266
-0.027657079 0.71700001 -0.032685637 1.3330882e-38 298 266
-0.02639994 0.71700001 -0.032685637 1.3238686e-38 299 266
-0.0251428 0.71700001 -0.032685637 1.3057188e-38 300 266
-0.023852346 0.71600002 -0.032640055 9.3697317e-39 301 266
-0.022596961 0.71600002 -0.032640055 6.7990581e-39 302 266
-0.021341572 0.71600002 -0.032640055 1.0763829e-38 303 266
-0.020030079 0.71399999 -0.032548878 1.3513144e-38 304 266
-0.018751899 0.713 -0.032503292 1.3513144e-38 305 266
-0.017501773 0.713 -0.032503292 1.3513497e-38 306 266
-0.016251646 0.713 -0.032503292 1.3513497e-38 307 266
-0.014959441 0.71100003 -0.032412119 1.3605327e-38 308 266
-0.01371282 0.71100003 -0.032412119 1.3605327e-38 309 266
-0.012448666 0.70999998 -0.032366529 1.3513125e-38 310 266
-0.011203799 0.70999998 -0.032366529 1.3513125e-38 311 266
-0.0099589331 0.70999998 -0.032366529 1.3696071e-38 312 266
-0.0087140659 0.70999998 -0.032366529 1.3603876e-38 313 266
-0.0074691991 0.70999998 -0.032366529 1.3694273e-38 314 266
-0.0062243328 0.70999998 -0.032366529 1.3048904e-38 315 266
-0.0049654399 0.708 -0.03227536 8.6361492e-39 316 266
-0.00372408 0.708 -0.03227536 5.6938008e-39 317 266
-0.00248272 0.708 -0.03227536 4.5986258e-39 318 266
-0.00124136 0.708 -0.03227536 7.1801034e-39 319 266
0 0.708 -0.03227536 1.2688425e-38 320 266
0.00124136 0.708 -0.03227536 1.2873175e-38 321 266
0.00248272 0.708 -0.03227536 1.3423453e-38 322 266
0.00372408 0.708 -0.03227536 1.3146867e-38 323 266
0.0049794666 0.70999998 -0.032366529 1.2776655e-38 324 266
0.0062243328 0.70999998 -0.032366529 1.2500067e-38 325 266
0.0074797203 0.71100003 -0.032412119 1.2041607e-38 326 266
0.0087263398 0.71100003 -0.032412119 1.2134161e-38 327 266
0.010001013 0.713 -0.032503292 1.1951917e-38 328 266
0.011251139 0.713 -0.032503292 1.2044113e-38 329 266
0.012624 0.72000003 -0.0328224 1.1862586e-38 330 266
0.01394426 0.72299999 -0.032959159 1.1862586e-38 331 266
0.015211919 0.72299999 -0.032959159 1.0851323e-38 332 266
0.01647958 0.72299999 -0.032959159 1.0205954e-38 333 266
0.017796334 0.72500002 -0.033050332 1.1407393e-38 334 266
0.019120099 0.727 -0.033141505 1.1499589e-38 335 266
0.020422826 0.72799999 -0.033187091 1.18655e-38 336 266
0.021758866 0.73000002 -0.033278264 1.2049893e-38 337 266
0.023038799 0.73000002 -0.033278264 1.2052059e-38 338 266
0.024418673 0.73299998 -0.033415023 1.1314494e-38 339 266
0.025703866 0.73299998 -0.033415023 1.18756e-38 340 266
0.026989058 0.73299998 -0.033415023 1.9251251e-38 341 266
-0.039297458 0.72299999 -0.03422682 1.4840254e-38 289 267
-0.0379772 0.722 -0.034179479 1.4354414e-38 290 267
-0.03671129 0.722 -0.034179479 1.1680741e-38 291 267
-0.035445385 0.722 -0.034179479 1.34274e-38 292 267
-0.034179479 0.722 -0.034179479 1.3150812e-38 293 267
-0.0328224 0.72000003 -0.034084801 1.3516002e-38 294 267
-0.03156 0.72000003 -0.034084801 1.3331252e-38 295 267
-0.030255521 0.71899998 -0.03403746 1.3422728e-38 296 267
-0.028994869 0.71899998 -0.03403746 1.3330533e-38 297 267
-0.027657079 0.71700001 -0.033942781 1.3330535e-38 298 267
-0.02639994 0.71700001 -0.033942781 1.3146143e-38 299 267
-0.0251428 0.71700001 -0.033942781 1.2504386e-38 300 267
-0.023852346 0.71600002 -0.03389544 9.2775403e-39 301 267
-0.022596961 0.71600002 -0.03389544 6.799414e-39 302 267
-0.021341572 0.71600002 -0.03389544 1.0579433e-38 303 267
-0.020030079 0.71399999 -0.033800758 1.3512061e-38 304 267
-0.018751899 0.713 -0.033753417 1.3512061e-38 305 267
-0.017501773 0.713 -0.033753417 1.3512061e-38 306 267
-0.016251646 0.713 -0.033753417 1.3696092e-38 307 267
-0.014959441 0.71100003 -0.033658739 1.3696089e-38 308 267
-0.01371282 0.71100003 -0.033658739 1.3696089e-38 309 267
-0.012448666 0.70999998 -0.033611398 1.3513125e-38 310 267
-0.011203799 0.70999998 -0.033611398 1.3513125e-38 311 267
-0.0099589331 0.70999998 -0.033611398 1.3512409e-38 312 267
-0.0087140659 0.70999998 -0.033611398 1.3328017e-38 313 267
-0.0074691991 0.70999998 -0.033611398 1.286956e-38 314 267
-0.0062243328 0.70999998 -0.033611398 1.2592613e-38 315 267
-0.0049654399 0.708 -0.033516716 9.005289e-39 316 267
-0.0037188199 0.70700002 -0.033469379 6.1529782e-39 317 267
-0.0024792133 0.70700002 -0.033469379 3.4029594e-39 318 267
-0.0012396066 0.70700002 -0.033469379 5.7996871e-39 319 267
0 0.708 -0.033516716 1.1957343e-38 320 267
0.00124136 0.708 -0.033516716 1.1957343e-38 321 267
0.00248272 0.708 -0.033516716 1.3145071e-38 322 267
0.00372408 0.708 -0.033516716 1.3052875e-38 323 267
0.0049794666 0.70999998 -0.033611398 1.2500064e-38 324 267
0.0062243328 0.70999998 -0.033611398 1.2316033e-38 325 267
0.0074797203 0.71100003 -0.033658739 1.1859014e-38 326 267
0.0087263398 0.71100003 -0.033658739 1.2043765e-38 327 267
0.010001013 0.713 -0.033753417 1.1954081e-38 328 267
0.011266919 0.71399999 -0.033800758 1.2046276e-38 329 267
0.012624 0.72000003 -0.034084801 1.1773289e-38 330 267
0.01394426 0.72299999 -0.03422682 1.1957681e-38 331 267
0.015211919 0.72299999 -0.03422682 1.0669112e-38 332 267
0.016525166 0.72500002 -0.034321502 1.0484362e-38 333 267
0.017845426 0.727 -0.03441618 1.1499595e-38 334 267
0.0191464 0.72799999 -0.034463517 1.1591792e-38 335 267
0.020422826 0.72799999 -0.034463517 1.1957699e-38 336 267
0.021758866 0.73000002 -0.034558199 1.2049896e-38 337 267
0.023038799 0.73000002 -0.034558199 1.2326851e-38 338 267
0.024418673 0.73299998 -0.034700219 1.1404895e-38 339 267
0.025703866 0.73299998 -0.034700219 1.1597935e-38 340 267
0.026989058 0.73299998 -0.034700219 1.989554e-38 341 267
-0.0379772 0.722 -0.035445385 1.4450931e-38 290 268
-0.03671129 0.722 -0.035445385 1.1224084e-38 291 268
-0.035445385 0.722 -0.035445385 1.3795813e-38 292 268
-0.034179479 0.722 -0.035445385 1.3611063e-38 293 268
-0.0328224 0.72000003 -0.035347197 1.3609264e-38 294 268
-0.03156 0.72000003 -0.035347197 1.3333037e-38 295 268
-0.0302976 0.72000003 -0.035347197 1.3515277e-38 296 268
-0.028994869 0.71899998 -0.035298105 1.3515277e-38 297 268
-0.027657079 0.71700001 -0.035199918 1.3423081e-38 298 268
-0.02639994 0.71700001 -0.035199918 1.3238689e-38 299 268
-0.0251428 0.71700001 -0.035199918 1.2596213e-38 300 268
-0.02388566 0.71700001 -0.035199918 9.5534027e-39 301 268
-0.022596961 0.71600002 -0.035150826 7.1678322e-39 302 268
-0.021281958 0.71399999 -0.035052639 1.0855293e-38 303 268
-0.020030079 0.71399999 -0.035052639 1.3329465e-38 304 268
-0.018751899 0.713 -0.035003547 1.3237269e-38 305 268
-0.017501773 0.713 -0.035003547 1.3329112e-38 306 268
-0.01620606 0.71100003 -0.034905359 1.3236916e-38 307 268
-0.014959441 0.71100003 -0.034905359 1.3420226e-38 308 268
-0.01371282 0.71100003 -0.034905359 1.3420226e-38 309 268
-0.012448666 0.70999998 -0.034856264 1.3237266e-38 310 268
-0.011203799 0.70999998 -0.034856264 1.3329462e-38 311 268
-0.0099589331 0.70999998 -0.034856264 1.3237264e-38 312 268
-0.0087140659 0.70999998 -0.034856264 1.3237264e-38 313 268
-0.0074691991 0.70999998 -0.034856264 1.2870629e-38 314 268
-0.0062243328 0.70999998 -0.034856264 1.2686238e-38 315 268
-0.0049654399 0.708 -0.034758076 1.0293137e-38 316 268
-0.0037188199 0.70700002 -0.034708988 7.4386752e-39 317 268
-0.0024792133 0.70700002 -0.034708988 2.6675552e-39 318 268
-0.0012396066 0.70700002 -0.034708988 4.050491e-39 319 268
0 0.70700002 -0.034708988 1.0760967e-38 320 268
0.00124136 0.708 -0.034758076 1.0945719e-38 321 268
0.00248272 0.708 -0.034758076 1.2591191e-38 322 268
0.00372408 0.708 -0.034758076 1.2591191e-38 323 268
0.0049794666 0.70999998 -0.034856264 1.2224559e-38 324 268
0.0062243328 0.70999998 -0.034856264 1.2408951e-38 325 268
0.0074797203 0.71100003 -0.034905359 1.1861166e-38 326 268
0.0087508867 0.713 -0.035003547 1.2229947e-38 327 268
0.010001013 0.713 -0.035003547 1.186404e-38 328 268
0.01129848 0.71600002 -0.035150826 1.2048431e-38 329 268
0.012659066 0.722 -0.035445385 1.1865482e-38 330 268
0.01394426 0.72299999 -0.035494477 1.1773287e-38 331 268
0.015254001 0.72500002 -0.035592668 1.0761305e-38 332 268
0.016525166 0.72500002 -0.035592668 1.0576914e-38 333 268
0.017845426 0.727 -0.035690852 1.1407762e-38 334 268
0.0191464 0.72799999 -0.035739943 1.1407762e-38 335 268
0.020422826 0.72799999 -0.035739943 1.1957343e-38 336 268
0.021758866 0.73000002 -0.035838135 1.2142094e-38 337 268
0.023038799 0.73000002 -0.035838135 1.2144611e-38 338 268
0.024418673 0.73299998 -0.035985414 1.1222296e-38 339 268
0.025703866 0.73299998 -0.035985414 1.1687966e-38 340 268
0.026989058 0.73299998 -0.035985414 1.9985572e-38 341 268
-0.0379772 0.722 -0.03671129 1.4727505e-38 290 269
-0.03671129 0.722 -0.03671129 1.0947845e-38 291 269
-0.035445385 0.722 -0.03671129 1.3705062e-38 292 269
-0.034179479 0.722 -0.03671129 1.3428116e-38 293 269
-0.0328224 0.72000003 -0.036609601 1.361035e-38 294 269
-0.03156 0.72000003 -0.036609601 1.3517794e-38 295 269
-0.0302976 0.72000003 -0.036609601 1.3608547e-38 296 269
-0.029035201 0.72000003 -0.036609601 1.3608547e-38 297 269
-0.027657079 0.71700001 -0.036457058 1.3332684e-38 298 269
-0.02639994 0.71700001 -0.036457058 1.3240488e-38 299 269
-0.0251428 0.71700001 -0.036457058 1.2963193e-38 300 269
-0.02388566 0.71700001 -0.036457058 1.0013298e-38 301 269
-0.022596961 0.71600002 -0.036406212 7.353657e-39 302 269
-0.021281958 0.71399999 -0.036304519 1.0857091e-38 303 269
-0.020030079 0.71399999 -0.036304519 1.3422378e-38 304 269
-0.018751899 0.713 -0.036253672 1.3237985e-38 305 269
-0.017501773 0.713 -0.036253672 1.3420579e-38 306 269
-0.01620606 0.71100003 -0.036151983 1.3328383e-38 307 269
-0.014959441 0.71100003 -0.036151983 1.3144002e-38 308 269
-0.01371282 0.71100003 -0.036151983 1.3144002e-38 309 269
-0.012448666 0.70999998 -0.036101133 1.314472e-38 310 269
-0.011203799 0.70999998 -0.036101133 1.314472e-38 311 269
-0.0099589331 0.70999998 -0.036101133 1.305432e-38 312 269
-0.0087140659 0.70999998 -0.036101133 1.305432e-38 313 269
-0.0074691991 0.70999998 -0.036101133 1.2504017e-38 314 269
-0.0062243328 0.70999998 -0.036101133 1.2504017e-38 315 269
-0.0049654399 0.708 -0.03599944 1.0755204e-38 316 269
-0.0037188199 0.70700002 -0.035948593 7.9896952e-39 317 269
-0.0024792133 0.70700002 -0.035948593 2.6686412e-39 318 269
-0.0012396066 0.70700002 -0.035948593 2.944868e-39 319 269
0 0.70700002 -0.035948593 9.6571465e-39 320 269
0.0012396066 0.70700002 -0.035948593 1.0117766e-38 321 269
0.00248272 0.708 -0.03599944 1.222384e-38 322 269
0.00372408 0.708 -0.03599944 1.222384e-38 323 269
0.0049794666 0.70999998 -0.036101133 1.1950844e-38 324 269
0.0062243328 0.70999998 -0.036101133 1.2319626e-38 325 269
0.0074797203 0.71100003 -0.036151983 1.1771487e-38 326 269
0.0087508867 0.713 -0.036253672 1.2048434e-38 327 269
0.01001504 0.71399999 -0.036304519 1.1865485e-38 328 269
0.01129848 0.71600002 -0.036406212 1.1957681e-38 329 269
0.012676599 0.72299999 -0.036762137 1.1957327e-38 330 269
0.01394426 0.72299999 -0.036762137 1.1865132e-38 331 269
0.015296079 0.727 -0.036965527 1.0760955e-38 332 269
0.016570752 0.727 -0.036965527 1.0391814e-38 333 269
0.017845426 0.727 -0.036965527 1.1223731e-38 334 269
0.0191464 0.72799999 -0.037016369 1.1407762e-38 335 269
0.020422826 0.72799999 -0.037016369 1.2233205e-38 336 269
0.021758866 0.73000002 -0.037118066 1.232576e-38 337 269
0.023038799 0.73000002 -0.037118066 1.2144964e-38 338 269
0.024451986 0.73400003 -0.037321456 1.1222649e-38 339 269
0.025703866 0.73299998 -0.037270606 1.1870189e-38 340 269
0.026989058 0.73299998 -0.037270606 2.0352187e-38 341 269
-0.0379772 0.722 -0.0379772 1.5100225e-38 290 270
-0.03671129 0.722 -0.0379772 1.0951062e-38 291 270
-0.035445385 0.722 -0.0379772 1.3887633e-38 292 270
-0.034179479 0.722 -0.0379772 1.3979829e-38 293 270
-0.0328224 0.72000003 -0.037871998 1.379546e-38 294 270
-0.03156 0.72000003 -0.037871998 1.3518514e-38 295 270
-0.0302976 0.72000003 -0.037871998 1.3792939e-38 296 270
-0.029035201 0.72000003 -0.037871998 1.3700743e-38 297 270
-0.027734226 0.71899998 -0.037819397 1.3425598e-38 298 270
-0.02647358 0.71899998 -0.037819397 1.3333403e-38 299 270
-0.0251428 0.71700001 -0.037714198 1.2964274e-38 300 270
-0.02388566 0.71700001 -0.037714198 1.0198404e-38 301 270
-0.022596961 0.71600002 -0.037661601 7.2625404e-39 302 270
-0.021341572 0.71600002 -0.037661601 1.085781e-38 303 270
-0.020030079 0.71399999 -0.037556399 1.3515646e-38 304 270
-0.018778199 0.71399999 -0.037556399 1.3331254e-38 305 270
-0.017501773 0.713 -0.037503798 1.3330535e-38 306 270
-0.01620606 0.71100003 -0.037398599 1.3146143e-38 307 270
-0.014959441 0.71100003 -0.037398599 1.3052522e-38 308 270
-0.01371282 0.71100003 -0.037398599 1.2960326e-38 309 270
-0.012448666 0.70999998 -0.037345998 1.2868854e-38 310 270
-0.011203799 0.70999998 -0.037345998 1.296105e-38 311 270
-0.0099589331 0.70999998 -0.037345998 1.2962124e-38 312 270
-0.0087140659 0.70999998 -0.037345998 1.2962124e-38 313 270
-0.0074691991 0.70999998 -0.037345998 1.2504017e-38 314 270
-0.0062243328 0.70999998 -0.037345998 1.2319626e-38 315 270
-0.0049654399 0.708 -0.0372408 1.1122176e-38 316 270
-0.0037188199 0.70700002 -0.037188202 9.1860677e-39 317 270
-0.0024792133 0.70700002 -0.037188202 3.9572122e-39 318 270
-0.0012396066 0.70700002 -0.037188202 3.1270928e-39 319 270
0 0.70700002 -0.037188202 9.6560647e-39 320 270
0.0012396066 0.70700002 -0.037188202 1.0301434e-38 321 270
0.0024792133 0.70700002 -0.037188202 1.2040165e-38 322 270
0.00372408 0.708 -0.0372408 1.2316752e-38 323 270
0.0049794666 0.70999998 -0.037345998 1.1861166e-38 324 270
0.0062243328 0.70999998 -0.037345998 1.2322144e-38 325 270
0.0074797203 0.71100003 -0.037398599 1.1773287e-38 326 270
0.0087508867 0.713 -0.037503798 1.1957678e-38 327 270
0.01001504 0.71399999 -0.037556399 1.2141714e-38 328 270
0.011361601 0.72000003 -0.037871998 1.2141714e-38 329 270
0.012676599 0.72299999 -0.038029801 1.2141714e-38 330 270
0.01394426 0.72299999 -0.038029801 1.1772933e-38 331 270
0.015296079 0.727 -0.038240198 1.0668756e-38 332 270
0.016570752 0.727 -0.038240198 1.0392168e-38 333 270
0.017869972 0.72799999 -0.038292799 1.1407046e-38 334 270
0.0191464 0.72799999 -0.038292799 1.1499242e-38 335 270
0.020478934 0.73000002 -0.038398001 1.2141008e-38 336 270
0.021758866 0.73000002 -0.038398001 1.2141008e-38 337 270
0.02307036 0.73100001 -0.038450599 1.1774737e-38 338 270
0.024451986 0.73400003 -0.038608398 1.0944617e-38 339 270
0.025738932 0.73400003 -0.038608398 1.2516632e-38 340 270
0.02702588 0.73400003 -0.038608398 2.1091184e-38 341 270
-0.03671129 0.722 -0.039243106 1.169437e-38 291 271
-0.035445385 0.722 -0.039243106 1.3980529e-38 292 271
-0.034179479 0.722 -0.039243106 1.3704302e-38 293 271
-0.032913569 0.722 -0.039243106 1.3979125e-38 294 271
-0.03156 0.72000003 -0.039134402 1.3702898e-38 295 271
-0.0302976 0.72000003 -0.039134402 1.3885136e-38 296 271
-0.029035201 0.72000003 -0.039134402 1.3885136e-38 297 271
-0.027734226 0.71899998 -0.039080046 1.3701459e-38 298 271
-0.02647358 0.71899998 -0.039080046 1.3609264e-38 299 271
-0.025212931 0.71899998 -0.039080046 1.3059344e-38 300 271
-0.023952285 0.71899998 -0.039080046 1.0108723e-38 301 271
-0.02262852 0.71700001 -0.038971342 7.4483722e-39 302 271
-0.021341572 0.71600002 -0.038916986 1.0490829e-38 303 271
-0.020086186 0.71600002 -0.038916986 1.3332333e-38 304 271
-0.018778199 0.71399999 -0.038808275 1.3240138e-38 305 271
-0.017526319 0.71399999 -0.038808275 1.34238e-38 306 271
-0.016251646 0.713 -0.038753927 1.3055377e-38 307 271
-0.014959441 0.71100003 -0.038645219 1.3328733e-38 308 271
-0.01371282 0.71100003 -0.038645219 1.3144702e-38 309 271
-0.012448666 0.70999998 -0.038590867 1.2960677e-38 310 271
-0.011203799 0.70999998 -0.038590867 1.2960677e-38 311 271
-0.0099589331 0.70999998 -0.038590867 1.2777727e-38 312 271
-0.0087140659 0.70999998 -0.038590867 1.2777727e-38 313 271
-0.0074691991 0.70999998 -0.038590867 1.2778083e-38 314 271
-0.0062243328 0.70999998 -0.038590867 1.2409301e-38 315 271
-0.0049654399 0.708 -0.038482159 1.1489142e-38 316 271
-0.0037188199 0.70700002 -0.038427804 1.0382796e-38 317 271
-0.0024792133 0.70700002 -0.038427804 5.2436056e-39 318 271
-0.0012396066 0.70700002 -0.038427804 3.399707e-39 319 271
0 0.70700002 -0.038427804 9.1979452e-39 320 271
0.0012396066 0.70700002 -0.038427804 9.8433146e-39 321 271
0.0024792133 0.70700002 -0.038427804 1.1949762e-38 322 271
0.00372408 0.708 -0.038482159 1.2318904e-38 323 271
0.0049794666 0.70999998 -0.038590867 1.1770768e-38 324 271
0.0062243328 0.70999998 -0.038590867 1.2231747e-38 325 271
0.0074797203 0.71100003 -0.038645219 1.1865488e-38 326 271
0.0087508867 0.713 -0.038753927 1.1957683e-38 327 271
0.01001504 0.71399999 -0.038808275 1.1957327e-38 328 271
0.011361601 0.72000003 -0.039134402 1.1957327e-38 329 271
0.012676599 0.72299999 -0.039297458 1.1957683e-38 330 271
0.01394426 0.72299999 -0.039297458 1.1772933e-38 331 271
0.015296079 0.727 -0.039514873 1.1127933e-38 332 271
0.016570752 0.727 -0.039514873 1.1127933e-38 333 271
0.017869972 0.72799999 -0.039569225 1.1313773e-38 334 271
0.019199001 0.73000002 -0.039677933 1.1590358e-38 335 271
0.020478934 0.73000002 -0.039677933 1.2140292e-38 336 271
0.021758866 0.73000002 -0.039677933 1.2048097e-38 337 271
0.02307036 0.73100001 -0.039732285 1.1496695e-38 338 271
0.024451986 0.73400003 -0.039895348 1.1588892e-38 339 271
0.025738932 0.73400003 -0.039895348 1.4177938e-38 340 271
0.02702588 0.73400003 -0.039895348 2.173762e-38 341 271
-0.036762137 0.72299999 -0.040565118 1.4465315e-38 291 272
-0.035445385 0.722 -0.040509012 1.4166022e-38 292 272
-0.034179479 0.722 -0.040509012 1.3243705e-38 293 272
-0.032913569 0.722 -0.040509012 1.4347185e-38 294 272
-0.031647664 0.722 -0.040509012 1.4254989e-38 295 272
-0.030381758 0.722 -0.040509012 1.3886226e-38 296 272
-0.029115854 0.722 -0.040509012 1.3886226e-38 297 272
-0.027772799 0.72000003 -0.040396802 1.3609996e-38 298 272
-0.026510401 0.72000003 -0.040396802 1.3517799e-38 299 272
-0.025248 0.72000003 -0.040396802 1.3335217e-38 300 272
-0.023952285 0.71899998 -0.040340692 1.0477513e-38 301 272
-0.02262852 0.71700001 -0.040228479 8.0015432e-39 302 272
-0.021371379 0.71700001 -0.040228479 1.039899e-38 303 272
-0.020086186 0.71600002 -0.040172372 1.3332333e-38 304 272
-0.0188308 0.71600002 -0.040172372 1.3424529e-38 305 272
-0.017526319 0.71399999 -0.040060159 1.3332331e-38 306 272
-0.016251646 0.713 -0.040004052 1.3147939e-38 307 272
-0.014959441 0.71100003 -0.039891839 1.3330533e-38 308 272
-0.01371282 0.71100003 -0.039891839 1.314614e-38 309 272
-0.012448666 0.70999998 -0.039835732 1.2962106e-38 310 272
-0.011203799 0.70999998 -0.039835732 1.3146137e-38 311 272
-0.0099589331 0.70999998 -0.039835732 1.2962109e-38 312 272
-0.0087140659 0.70999998 -0.039835732 1.2962109e-38 313 272
-0.0074691991 0.70999998 -0.039835732 1.2778083e-38 314 272
-0.0062243328 0.70999998 -0.039835732 1.2501498e-38 315 272
-0.0049794666 0.70999998 -0.039835732 1.2135608e-38 316 272
-0.0037188199 0.70700002 -0.039667413 1.1582434e-38 317 272
-0.0024792133 0.70700002 -0.039667413 6.9006298e-39 318 272
-0.0012396066 0.70700002 -0.039667413 4.4113478e-39 319 272
0 0.70700002 -0.039667413 8.6465861e-39 320 272
0.0012396066 0.70700002 -0.039667413 9.2919555e-39 321 272
0.0024792133 0.70700002 -0.039667413 1.204161e-38 322 272
0.00372408 0.708 -0.039723519 1.2686979e-38 323 272
0.0049794666 0.70999998 -0.039835732 1.1864053e-38 324 272
0.0062243328 0.70999998 -0.039835732 1.1956248e-38 325 272
0.0074797203 0.71100003 -0.039891839 1.204845e-38 326 272
0.0087631596 0.71399999 -0.040060159 1.2140645e-38 327 272
0.01005712 0.71700001 -0.040228479 1.2050249e-38 328 272
0.01139316 0.722 -0.040509012 1.2050249e-38 329 272
0.012676599 0.72299999 -0.040565118 1.1682185e-38 330 272
0.01394426 0.72299999 -0.040565118 1.1405598e-38 331 272
0.015296079 0.727 -0.040789545 1.1128663e-38 332 272
0.016593546 0.72799999 -0.040845651 1.1312694e-38 333 272
0.017869972 0.72799999 -0.040845651 1.1588565e-38 334 272
0.019199001 0.73000002 -0.040957868 1.1957347e-38 335 272
0.020478934 0.73000002 -0.040957868 1.2324685e-38 336 272
0.021758866 0.73000002 -0.040957868 1.1402727e-38 337 272
0.02307036 0.73100001 -0.041013971 1.1123614e-38 338 272
0.024451986 0.73400003 -0.041182294 1.5364973e-38 339 272
0.025738932 0.73400003 -0.041182294 1.6304209e-38 340 272
-0.035494477 0.72299999 -0.041832779 1.5094105e-38 292 273
-0.03422682 0.72299999 -0.041832779 1.1959453e-38 293 273
-0.032913569 0.722 -0.041774917 1.4166375e-38 294 273
-0.031647664 0.722 -0.041774917 1.4074179e-38 295 273
-0.030381758 0.722 -0.041774917 1.4254283e-38 296 273
-0.029115854 0.722 -0.041774917 1.3978056e-38 297 273
-0.027849946 0.722 -0.041774917 1.3886208e-38 298 273
-0.026584039 0.722 -0.041774917 1.3701815e-38 299 273
-0.025248 0.72000003 -0.041659199 1.3883339e-38 300 273
-0.0239856 0.72000003 -0.041659199 1.2223459e-38 301 273
-0.022691639 0.71899998 -0.041601337 8.8284213e-39 302 273
-0.021371379 0.71700001 -0.041485619 1.0948561e-38 303 273
-0.020114239 0.71700001 -0.041485619 1.3333055e-38 304 273
-0.0188308 0.71600002 -0.041427758 1.3333055e-38 305 273
-0.017575413 0.71600002 -0.041427758 1.3424885e-38 306 273
-0.016274439 0.71399999 -0.041312039 1.3332331e-38 307 273
-0.015001519 0.713 -0.041254178 1.3424156e-38 308 273
-0.01371282 0.71100003 -0.041138459 1.3331602e-38 309 273
-0.012448666 0.70999998 -0.041080594 1.3239042e-38 310 273
-0.011203799 0.70999998 -0.041080594 1.3146488e-38 311 273
-0.0099589331 0.70999998 -0.041080594 1.3145774e-38 312 273
-0.0087140659 0.70999998 -0.041080594 1.323797e-38 313 273
-0.0074691991 0.70999998 -0.041080594 1.2870629e-38 314 273
-0.0062243328 0.70999998 -0.041080594 1.2686238e-38 315 273
-0.0049794666 0.70999998 -0.041080594 1.222745e-38 316 273
-0.00372408 0.708 -0.040964879 1.2596233e-38 317 273
-0.0024792133 0.70700002 -0.040907022 7.1776049e-39 318 273
-0.0012396066 0.70700002 -0.040907022 5.2414966e-39 319 273
0 0.70700002 -0.040907022 8.5540527e-39 320 273
0.0012396066 0.70700002 -0.040907022 8.9231954e-39 321 273
0.00248272 0.708 -0.040964879 1.1584599e-38 322 273
0.00372408 0.708 -0.040964879 1.2045576e-38 323 273
0.0049794666 0.70999998 -0.041080594 1.1955179e-38 324 273
0.0062330998 0.71100003 -0.041138459 1.2139571e-38 325 273
0.0075007593 0.713 -0.041254178 1.1957333e-38 326 273
0.0087631596 0.71399999 -0.041312039 1.2233561e-38 327 273
0.01005712 0.71700001 -0.041485619 1.2233914e-38 328 273
0.01139316 0.722 -0.041774917 1.2141359e-38 329 273
0.012676599 0.72299999 -0.041832779 1.1865853e-38 330 273
0.013982833 0.72500002 -0.041948501 1.1497072e-38 331 273
0.015296079 0.727 -0.042064216 1.1129737e-38 332 273
0.016593546 0.72799999 -0.042122077 1.1221933e-38 333 273
0.017919067 0.73000002 -0.0422378 1.2141011e-38 334 273
0.019199001 0.73000002 -0.0422378 1.2233208e-38 335 273
0.020563092 0.73299998 -0.042411376 1.2234287e-38 336 273
0.021848286 0.73299998 -0.042411376 1.1404526e-38 337 273
0.023133477 0.73299998 -0.042411376 1.2591561e-38 338 273
0.024451986 0.73400003 -0.042469237 1.996757e-38 339 273
-0.034321502 0.72500002 -0.043219667 1.2706742e-38 293 274
-0.032959159 0.72299999 -0.043100435 1.3798314e-38 294 274
-0.031691495 0.72299999 -0.043100435 1.3798314e-38 295 274
-0.030423839 0.72299999 -0.043100435 1.4163533e-38 296 274
-0.029115854 0.722 -0.043040827 1.4071336e-38 297 274
-0.027849946 0.722 -0.043040827 1.3794753e-38 298 274
-0.026584039 0.722 -0.043040827 1.3794753e-38 299 274
-0.025318133 0.722 -0.043040827 1.388587e-38 300 274
-0.024052227 0.722 -0.043040827 1.24111e-38 301 274
-0.022723202 0.72000003 -0.042921603 1.030032e-38 302 274
-0.021371379 0.71700001 -0.042742759 1.1407028e-38 303 274
-0.020114239 0.71700001 -0.042742759 1.2873523e-38 304 274
-0.0188308 0.71600002 -0.042683143 1.3150108e-38 305 274
-0.017575413 0.71600002 -0.042683143 1.3424895e-38 306 274
-0.016274439 0.71399999 -0.042563915 1.3424895e-38 307 274
-0.015022559 0.71399999 -0.042563915 1.3333055e-38 308 274
-0.013751393 0.713 -0.042504307 1.3240501e-38 309 274
-0.0124662 0.71100003 -0.042385083 1.305647e-38 310 274
-0.01121958 0.71100003 -0.042385083 1.2964274e-38 311 274
-0.0099589331 0.70999998 -0.042325463 1.2872078e-38 312 274
-0.0087140659 0.70999998 -0.042325463 1.2964274e-38 313 274
-0.0074691991 0.70999998 -0.042325463 1.2596566e-38 314 274
-0.0062243328 0.70999998 -0.042325463 1.2596566e-38 315 274
-0.0049794666 0.70999998 -0.042325463 1.1953014e-38 316 274
-0.00372408 0.708 -0.042206239 1.1676069e-38 317 274
-0.00248272 0.708 -0.042206239 7.2661824e-39 318 274
-0.00124136 0.708 -0.042206239 5.053846e-39 319 274
0 0.708 -0.042206239 8.1870512e-39 320 274
0.0012448666 0.70999998 -0.042325463 8.5558352e-39 321 274
0.0024897333 0.70999998 -0.042325463 1.1584599e-38 322 274
0.0037345996 0.70999998 -0.042325463 1.2229968e-38 323 274
0.0049864799 0.71100003 -0.042385083 1.1955901e-38 324 274
0.0062330998 0.71100003 -0.042385083 1.2048097e-38 325 274
0.0075007593 0.713 -0.042504307 1.2141364e-38 326 274
0.0087631596 0.71399999 -0.042563915 1.2233561e-38 327 274
0.01005712 0.71700001 -0.042742759 1.2143161e-38 328 274
0.01140894 0.72299999 -0.043100435 1.1958769e-38 329 274
0.012676599 0.72299999 -0.043100435 1.1407046e-38 330 274
0.013982833 0.72500002 -0.043219667 1.0853874e-38 331 274
0.01531712 0.72799999 -0.043398503 1.1037189e-38 332 274
0.016639132 0.73000002 -0.043517731 1.1590002e-38 333 274
0.017919067 0.73000002 -0.043517731 1.2142089e-38 334 274
0.019304199 0.73400003 -0.043756187 1.2603065e-38 335 274
0.020591147 0.73400003 -0.043756187 1.1686871e-38 336 274
0.021878093 0.73400003 -0.043756187 1.3530782e-38 337 274
0.023165042 0.73400003 -0.043756187 1.4551075e-38 338 274
-0.032913569 0.722 -0.044306733 1.4632035e-38 294 275
-0.031647664 0.722 -0.044306733 1.2972514e-38 295 275
-0.030381758 0.722 -0.044306733 1.3979125e-38 296 275
-0.029156178 0.72299999 -0.044368099 1.4255713e-38 297 275
-0.027849946 0.722 -0.044306733 1.4071689e-38 298 275
-0.026584039 0.722 -0.044306733 1.3795462e-38 299 275
-0.025353199 0.72299999 -0.044368099 1.3793309e-38 300 275
-0.024085538 0.72299999 -0.044368099 1.2963547e-38 301 275
-0.022723202 0.72000003 -0.044183999 1.0850978e-38 302 275
-0.021430992 0.71899998 -0.044122629 1.1680741e-38 303 275
-0.020114239 0.71700001 -0.043999899 1.2599103e-38 304 275
-0.018857099 0.71700001 -0.043999899 1.2783495e-38 305 275
-0.017575413 0.71600002 -0.043938532 1.3425618e-38 306 275
-0.016274439 0.71399999 -0.043815799 1.3425618e-38 307 275
-0.015022559 0.71399999 -0.043815799 1.3241936e-38 308 275
-0.013751393 0.713 -0.043754432 1.314974e-38 309 275
-0.012501267 0.713 -0.043754432 1.342345e-38 310 275
-0.01121958 0.71100003 -0.043631699 1.342345e-38 311 275
-0.0099729598 0.71100003 -0.043631699 1.3147942e-38 312 275
-0.0087263398 0.71100003 -0.043631699 1.3147942e-38 313 275
-0.0074797203 0.71100003 -0.043631699 1.3055744e-38 314 275
-0.0062330998 0.71100003 -0.043631699 1.2779515e-38 315 275
-0.0049794666 0.70999998 -0.043570329 1.2595134e-38 316 275
-0.0037345996 0.70999998 -0.043570329 1.2134156e-38 317 275
-0.0024897333 0.70999998 -0.043570329 8.4571529e-39 318 275
-0.0012448666 0.70999998 -0.043570329 5.8774718e-39 319 275
0 0.70999998 -0.043570329 8.369995e-39 320 275
0.00124662 0.71100003 -0.043631699 9.0153644e-39 321 275
0.0024932399 0.71100003 -0.043631699 1.1402008e-38 322 275
0.0037398601 0.71100003 -0.043631699 1.1862628e-38 323 275
0.0049864799 0.71100003 -0.043631699 1.1955545e-38 324 275
0.0062506334 0.713 -0.043754432 1.2140295e-38 325 275
0.0075007593 0.713 -0.043754432 1.2233561e-38 326 275
0.0087877065 0.71600002 -0.043938532 1.2325757e-38 327 275
0.01005712 0.71700001 -0.043999899 1.232611e-38 328 275
0.01140894 0.72299999 -0.044368099 1.2418306e-38 329 275
0.012676599 0.72299999 -0.044368099 1.1682551e-38 330 275
0.014021406 0.727 -0.044613566 1.0944986e-38 331 275
0.01531712 0.72799999 -0.044674929 1.1130103e-38 332 275
0.016639132 0.73000002 -0.044797666 1.1498887e-38 333 275
0.017943613 0.73100001 -0.044859033 1.2327555e-38 334 275
0.019304199 0.73400003 -0.045043133 1.2880728e-38 335 275
0.020591147 0.73400003 -0.045043133 1.3159839e-38 336 275
0.021878093 0.73400003 -0.045043133 1.6201936e-38 337 275
-0.031647664 0.722 -0.045572639 1.3072272e-38 295 276
-0.030381758 0.722 -0.045572639 1.3793995e-38 296 276
-0.029236834 0.72500002 -0.045761999 1.4162419e-38 297 276
-0.027849946 0.722 -0.045572639 1.3704712e-38 298 276
-0.026584039 0.722 -0.045572639 1.3612516e-38 299 276
-0.025353199 0.72299999 -0.04563576 1.3701839e-38 300 276
-0.024085538 0.72299999 -0.04563576 1.305647e-38 301 276
-0.022723202 0.72000003 -0.045446403 1.1771137e-38 302 276
-0.021430992 0.71899998 -0.045383278 1.195553e-38 303 276
-0.020114239 0.71700001 -0.045257039 1.2598384e-38 304 276
-0.018857099 0.71700001 -0.045257039 1.3059003e-38 305 276
-0.017599959 0.71700001 -0.045257039 1.3517813e-38 306 276
-0.016320027 0.71600002 -0.045193922 1.3425618e-38 307 276
-0.01506464 0.71600002 -0.045193922 1.3424895e-38 308 276
-0.01377068 0.71399999 -0.045067675 1.3332699e-38 309 276
-0.012501267 0.713 -0.045004558 1.3515292e-38 310 276
-0.011251139 0.713 -0.045004558 1.3515292e-38 311 276
-0.0099729598 0.71100003 -0.044878319 1.3239782e-38 312 276
-0.0087263398 0.71100003 -0.044878319 1.3147586e-38 313 276
-0.0074797203 0.71100003 -0.044878319 1.3146867e-38 314 276
-0.0062330998 0.71100003 -0.044878319 1.3146867e-38 315 276
-0.0049864799 0.71100003 -0.044878319 1.2596566e-38 316 276
-0.0037398601 0.71100003 -0.044878319 1.2319621e-38 317 276
-0.0024932399 0.71100003 -0.044878319 9.2840227e-39 318 276
-0.00124662 0.71100003 -0.044878319 6.1529782e-39 319 276
0 0.71100003 -0.044878319 8.0026418e-39 320 276
0.00124662 0.71100003 -0.044878319 8.7402068e-39 321 276
0.0024932399 0.71100003 -0.044878319 1.1677148e-38 322 276
0.0037398601 0.71100003 -0.044878319 1.2138126e-38 323 276
0.0050005065 0.713 -0.045004558 1.1955898e-38 324 276
0.0062506334 0.713 -0.045004558 1.2232485e-38 325 276
0.0075112795 0.71399999 -0.045067675 1.2142089e-38 326 276
0.0087877065 0.71600002 -0.045193922 1.2234643e-38 327 276
0.010085173 0.71899998 -0.045383278 1.2234643e-38 328 276
0.01140894 0.72299999 -0.04563576 1.2142089e-38 329 276
0.012676599 0.72299999 -0.04563576 1.140669e-38 330 276
0.013982833 0.72500002 -0.045761999 1.0669125e-38 331 276
0.015296079 0.727 -0.045888241 1.11301e-38 332 276
