# .PCD v.7 - Point Cloud Data file format
FIELDS x y z rgb imX imY
SIZE 4 4 4 4 4 4
TYPE F F F F F F
COUNT 1 1 1 1 1 1
WIDTH 835
HEIGHT 1
VIEWPOINT 0 0 0 1 0 0 0
POINTS 835
DATA ascii
-0.0088981669 0.72500002 -0.016525166 8.7423088e-39 313 253
-0.0076270006 0.72500002 -0.016525166 8.4614213e-39 314 253
-0.0063558333 0.72500002 -0.016525166 7.6316732e-39 315 253
-0.0050846669 0.72500002 -0.016525166 7.4426212e-39 316 253
-0.0038135003 0.72500002 -0.016525166 7.2582328e-39 317 253
-0.0025423334 0.72500002 -0.016525166 6.4338713e-39 318 253
-0.0012676599 0.72299999 -0.01647958 8.8309577e-39 319 253
0 0.72299999 -0.01647958 9.3088649e-39 320 253
-0.013982833 0.72500002 -0.017796334 1.1148424e-38 309 254
-0.012711667 0.72500002 -0.017796334 8.754189e-39 310 254
-0.0114405 0.72500002 -0.017796334 7.1868647e-39 311 254
-0.010169334 0.72500002 -0.017796334 9.2840045e-39 312 254
-0.0088981669 0.72500002 -0.017796334 8.3620524e-39 313 254
-0.0076270006 0.72500002 -0.017796334 7.4404773e-39 314 254
-0.0063558333 0.72500002 -0.017796334 6.8876622e-39 315 254
-0.0050706398 0.72299999 -0.017747238 6.7976204e-39 316 254
-0.0038029798 0.72299999 -0.017747238 7.535177e-39 317 254
-0.0025423334 0.72500002 -0.017796334 8.2802824e-39 318 254
-0.0012676599 0.72299999 -0.017747238 8.9256518e-39 319 254
0 0.72299999 -0.017747238 8.9274693e-39 320 254
0.0012676599 0.72299999 -0.017747238 8.8352737e-39 321 254
0.0038240198 0.727 -0.017845426 1.3089984e-38 323 254
0.0050986931 0.727 -0.017845426 1.4660925e-38 324 254
0.0063733663 0.727 -0.017845426 1.4937154e-38 325 254
0.0076270006 0.72500002 -0.017796334 1.5212645e-38 326 254
0.0088981669 0.72500002 -0.017796334 1.3922266e-38 327 254
0.010169334 0.72500002 -0.017796334 1.2812672e-38 328 254
0.0114405 0.72500002 -0.017796334 1.2259498e-38 329 254
-0.018935999 0.72000003 -0.018935999 8.8384967e-39 305 255
-0.017673599 0.72000003 -0.018935999 8.0865459e-39 306 255
-0.0164112 0.72000003 -0.018935999 7.5337393e-39 307 255
-0.0151488 0.72000003 -0.018935999 6.3434652e-39 308 255
-0.01394426 0.72299999 -0.019014901 7.2654074e-39 309 255
-0.012676599 0.72299999 -0.019014901 7.6529183e-39 310 255
-0.01140894 0.72299999 -0.019014901 1.4014417e-38 311 255
-0.01014128 0.72299999 -0.019014901 1.7965903e-38 312 255
-0.0088736191 0.72299999 -0.019014901 1.7043588e-38 313 255
-0.0076059597 0.72299999 -0.019014901 1.5287908e-38 314 255
-0.0063382997 0.72299999 -0.019014901 1.0585931e-38 315 255
-0.0050706398 0.72299999 -0.019014901 9.1104285e-39 316 255
-0.0038029798 0.72299999 -0.019014901 9.2029828e-39 317 255
-0.0025353199 0.72299999 -0.019014901 1.141603e-38 318 255
-0.0012659066 0.722 -0.0189886 1.2337985e-38 319 255
0 0.722 -0.0189886 1.2524178e-38 320 255
0.0012659066 0.722 -0.0189886 1.1048688e-38 321 255
0.0025353199 0.72299999 -0.019014901 8.9357734e-39 322 255
0.0038135003 0.72500002 -0.0190675 1.3637751e-38 323 255
0.0050846669 0.72500002 -0.0190675 1.4385778e-38 324 255
0.0063558333 0.72500002 -0.0190675 1.4109191e-38 325 255
0.0076270006 0.72500002 -0.0190675 1.3923711e-38 326 255
0.0088981669 0.72500002 -0.0190675 1.014369e-38 327 255
0.010169334 0.72500002 -0.0190675 7.1775881e-39 328 255
0.0114405 0.72500002 -0.0190675 2.846906e-39 329 255
0.012676599 0.72299999 -0.019014901 3.6053588e-39 330 255
0.01394426 0.72299999 -0.019014901 1.0335641e-38 331 255
-0.025248 0.72000003 -0.020198401 1.5387277e-38 300 256
-0.0239856 0.72000003 -0.020198401 1.2529213e-38 301 256
-0.022691639 0.71899998 -0.020170346 1.1790181e-38 302 256
-0.021430992 0.71899998 -0.020170346 1.0683833e-38 303 256
-0.020170346 0.71899998 -0.020170346 9.2969357e-39 304 256
-0.018935999 0.72000003 -0.020198401 7.4530245e-39 305 256
-0.017673599 0.72000003 -0.020198401 7.5430733e-39 306 256
-0.016388407 0.71899998 -0.020170346 8.0958884e-39 307 256
-0.01512776 0.71899998 -0.020170346 7.9097245e-39 308 256
-0.0138864 0.72000003 -0.020198401 9.7536357e-39 309 256
-0.012624 0.72000003 -0.020198401 1.1977153e-38 310 256
-0.01139316 0.722 -0.020254506 1.6494739e-38 311 256
-0.010127253 0.722 -0.020254506 1.870493e-38 312 256
-0.0088613462 0.722 -0.020254506 1.8520539e-38 313 256
-0.0075954394 0.722 -0.020254506 1.6765565e-38 314 256
-0.0063295332 0.722 -0.020254506 1.0219675e-38 315 256
-0.0050636264 0.722 -0.020254506 8.4668639e-39 316 256
-0.0037977197 0.722 -0.020254506 8.4668639e-39 317 256
-0.0025318132 0.722 -0.020254506 9.4777718e-39 318 256
-0.0012659066 0.722 -0.020254506 1.0030946e-38 319 256
0 0.722 -0.020254506 1.0033097e-38 320 256
0.0012659066 0.722 -0.020254506 9.3877272e-39 321 256
0.0025318132 0.722 -0.020254506 7.6443087e-39 322 256
0.0038029798 0.72299999 -0.020282559 1.3452633e-38 323 256
0.0050706398 0.72299999 -0.020282559 1.4844954e-38 324 256
0.0063382997 0.72299999 -0.020282559 1.4476531e-38 325 256
0.0076059597 0.72299999 -0.020282559 1.3924074e-38 326 256
0.0088736191 0.72299999 -0.020282559 9.5912392e-39 327 256
0.01014128 0.72299999 -0.020282559 5.5299399e-39 328 256
0.01140894 0.72299999 -0.020282559 7.3576717e-40 329 256
0.012676599 0.72299999 -0.020282559 2.117645e-39 330 256
0.01394426 0.72299999 -0.020282559 6.5430353e-39 331 256
0.015211919 0.72299999 -0.020282559 8.9556186e-39 332 256
-0.026584039 0.722 -0.021520413 1.1795961e-38 299 257
-0.025248 0.72000003 -0.021460801 9.5692262e-39 300 257
-0.0239856 0.72000003 -0.021460801 7.633118e-39 301 257
-0.022691639 0.71899998 -0.021430992 7.5430733e-39 302 257
-0.021430992 0.71899998 -0.021430992 8.1884427e-39 303 257
-0.020170346 0.71899998 -0.021430992 8.0969632e-39 304 257
-0.018935999 0.72000003 -0.021460801 8.4657471e-39 305 257
-0.017673599 0.72000003 -0.021460801 8.7423522e-39 306 257
-0.016388407 0.71899998 -0.021430992 9.1111347e-39 307 257
-0.01512776 0.71899998 -0.021430992 9.1097124e-39 308 257
-0.0138864 0.72000003 -0.021460801 1.0123863e-38 309 257
-0.012624 0.72000003 -0.021460801 1.1971388e-38 310 257
-0.01139316 0.722 -0.021520413 1.4184085e-38 311 257
-0.010099201 0.72000003 -0.021460801 1.4739056e-38 312 257
-0.0088367993 0.72000003 -0.021460801 1.4001491e-38 313 257
-0.0075743999 0.72000003 -0.021460801 1.2707471e-38 314 257
-0.0063120001 0.72000003 -0.021460801 9.4806249e-39 315 257
-0.0050496003 0.72000003 -0.021460801 8.7390928e-39 316 257
-0.0037872 0.72000003 -0.021460801 9.2922666e-39 317 257
-0.0025248001 0.72000003 -0.021460801 8.4661184e-39 318 257
-0.0012624001 0.72000003 -0.021460801 8.1895329e-39 319 257
0 0.72000003 -0.021460801 8.4632444e-39 320 257
0.0012624001 0.72000003 -0.021460801 7.817875e-39 321 257
0.0025248001 0.72000003 -0.021460801 5.9844343e-39 322 257
0.0037872 0.72000003 -0.021460801 1.2806911e-38 323 257
0.0050636264 0.722 -0.021520413 1.4660925e-38 324 257
0.0063295332 0.722 -0.021520413 1.438398e-38 325 257
0.0075954394 0.722 -0.021520413 1.3832234e-38 326 257
0.0088736191 0.72299999 -0.021550218 9.5912364e-39 327 257
0.01014128 0.72299999 -0.021550218 7.7347093e-39 328 257
0.01140894 0.72299999 -0.021550218 4.9688404e-39 329 257
0.012659066 0.722 -0.021520413 4.6911745e-39 330 257
0.013924973 0.722 -0.021520413 4.0458051e-39 331 257
0.015211919 0.72299999 -0.021550218 6.6267124e-40 332 257
0.01647958 0.72299999 -0.021550218 6.1947692e-39 333 257
-0.027734226 0.71899998 -0.022691639 9.1132703e-39 298 258
-0.02647358 0.71899998 -0.022691639 8.651932e-39 299 258
-0.025212931 0.71899998 -0.022691639 8.6487146e-39 300 258
-0.023952285 0.71899998 -0.022691639 8.8331059e-39 301 258
-0.022691639 0.71899998 -0.022691639 9.1097152e-39 302 258
-0.021430992 0.71899998 -0.022691639 9.2019108e-39 303 258
-0.020170346 0.71899998 -0.022691639 9.018586e-39 304 258
-0.018909698 0.71899998 -0.022691639 9.018586e-39 305 258
-0.017673599 0.72000003 -0.022723202 8.9274665e-39 306 258
-0.016388407 0.71899998 -0.022691639 8.8352709e-39 307 258
-0.01512776 0.71899998 -0.022691639 8.9253211e-39 308 258
-0.0138864 0.72000003 -0.022723202 8.5565386e-39 309 258
-0.012624 0.72000003 -0.022723202 8.4639927e-39 310 258
-0.011361601 0.72000003 -0.022723202 7.8186233e-39 311 258
-0.010085173 0.71899998 -0.022691639 7.6342292e-39 312 258
-0.0088245263 0.71899998 -0.022691639 8.2795986e-39 313 258
-0.0075638802 0.71899998 -0.022691639 8.5658699e-39 314 258
-0.0063032326 0.71899998 -0.022691639 9.1194038e-39 315 258
-0.0050496003 0.72000003 -0.022723202 9.8483312e-39 316 258
-0.0037872 0.72000003 -0.022723202 9.7561356e-39 317 258
-0.0025248001 0.72000003 -0.022723202 9.483513e-39 318 258
-0.0012624001 0.72000003 -0.022723202 9.7601013e-39 319 258
0 0.72000003 -0.022723202 1.0308236e-38 320 258
0.0012624001 0.72000003 -0.022723202 8.8331059e-39 321 258
0.0025248001 0.72000003 -0.022723202 6.1666647e-39 322 258
0.0037872 0.72000003 -0.022723202 1.1882434e-38 323 258
0.0050496003 0.72000003 -0.022723202 1.4199587e-38 324 258
0.0063120001 0.72000003 -0.022723202 1.4015556e-38 325 258
0.0075954394 0.722 -0.022786319 1.3923708e-38 326 258
0.0088613462 0.722 -0.022786319 1.0144046e-38 327 258
0.010127253 0.722 -0.022786319 8.9310819e-39 328 258
0.01139316 0.722 -0.022786319 5.6120392e-39 329 258
0.012659066 0.722 -0.022786319 6.7169378e-39 330 258
0.0138864 0.72000003 -0.022723202 6.2559611e-39 331 258
0.0151488 0.72000003 -0.022723202 9.2377659e-40 332 258
0.0164112 0.72000003 -0.022723202 3.5052542e-39 333 258
0.017722692 0.722 -0.022786319 9.8750498e-39 334 258
-0.031910665 0.72799999 -0.024252106 1.281336e-38 295 259
-0.030592158 0.727 -0.024218792 8.0065864e-39 296 259
-0.029156178 0.72299999 -0.024085538 6.2548681e-39 297 259
-0.027734226 0.71899998 -0.023952285 7.084263e-39 298 259
-0.02647358 0.71899998 -0.023952285 8.3750018e-39 299 259
-0.025212931 0.71899998 -0.023952285 9.2044318e-39 300 259
-0.023952285 0.71899998 -0.023952285 9.2044318e-39 301 259
-0.022691639 0.71899998 -0.023952285 9.2955456e-39 302 259
-0.021430992 0.71899998 -0.023952285 9.1115131e-39 303 259
-0.020170346 0.71899998 -0.023952285 9.5713926e-39 304 259
-0.018909698 0.71899998 -0.023952285 9.6635896e-39 305 259
-0.017649053 0.71899998 -0.023952285 9.3869985e-39 306 259
-0.016388407 0.71899998 -0.023952285 9.110413e-39 307 259
-0.01512776 0.71899998 -0.023952285 9.293375e-39 308 259
-0.013867113 0.71899998 -0.023952285 9.0171468e-39 309 259
-0.0125714 0.71700001 -0.02388566 7.8196924e-39 310 259
-0.01131426 0.71700001 -0.02388566 7.0821274e-39 311 259
-0.01005712 0.71700001 -0.02388566 6.7169196e-39 312 259
-0.0087999795 0.71700001 -0.02388566 9.114006e-39 313 259
-0.0075638802 0.71899998 -0.023952285 1.0953975e-38 314 259
-0.0063032326 0.71899998 -0.023952285 1.2797887e-38 315 259
-0.0050285598 0.71700001 -0.02388566 1.243092e-38 316 259
-0.0037714199 0.71700001 -0.02388566 1.1140181e-38 317 259
-0.0025142799 0.71700001 -0.02388566 1.095718e-38 318 259
-0.00125714 0.71700001 -0.02388566 1.1325961e-38 319 259
0 0.71700001 -0.02388566 1.1140827e-38 320 259
0.00125714 0.71700001 -0.02388566 9.4813045e-39 321 259
0.0025142799 0.71700001 -0.02388566 6.8033769e-39 322 259
0.0037819401 0.71899998 -0.023952285 1.1413158e-38 323 259
0.0050425865 0.71899998 -0.023952285 1.3185793e-38 324 259
0.0063032326 0.71899998 -0.023952285 1.4199584e-38 325 259
0.0075638802 0.71899998 -0.023952285 1.3924783e-38 326 259
0.0088613462 0.722 -0.024052227 1.0974524e-38 327 259
0.010127253 0.722 -0.024052227 9.5796785e-39 328 259
0.01139316 0.722 -0.024052227 4.9695382e-39 329 259
0.012659066 0.722 -0.024052227 7.0846287e-39 330 259
0.0138864 0.72000003 -0.0239856 7.2690214e-39 331 259
0.0151488 0.72000003 -0.0239856 4.5075091e-39 332 259
0.016456785 0.722 -0.024052227 3.032379e-39 333 259
0.017722692 0.722 -0.024052227 5.356717e-39 334 259
0.0189886 0.722 -0.024052227 1.2547976e-38 335 259
-0.033141505 0.727 -0.025493465 1.0846681e-38 294 260
-0.03186683 0.727 -0.025493465 9.0031268e-39 295 260
-0.030508002 0.72500002 -0.025423333 6.8984438e-39 296 260
-0.029115854 0.722 -0.025318133 8.3732137e-39 297 260
-0.027657079 0.71700001 -0.0251428 8.8367212e-39 298 260
-0.02639994 0.71700001 -0.0251428 8.9289183e-39 299 260
-0.0251428 0.71700001 -0.0251428 9.1118774e-39 300 260
-0.02388566 0.71700001 -0.0251428 9.1118774e-39 301 260
-0.022691639 0.71899998 -0.025212931 9.479218e-39 302 260
-0.021371379 0.71700001 -0.0251428 1.0124587e-38 303 260
-0.020114239 0.71700001 -0.0251428 1.1695153e-38 304 260
-0.018857099 0.71700001 -0.0251428 1.2248327e-38 305 260
-0.017599959 0.71700001 -0.0251428 1.0953622e-38 306 260
-0.016342819 0.71700001 -0.0251428 1.0216056e-38 307 260
-0.015085679 0.71700001 -0.0251428 9.0232551e-39 308 260
-0.013828539 0.71700001 -0.0251428 8.9310595e-39 309 260
-0.012553867 0.71600002 -0.025107734 9.117271e-39 310 260
-0.01129848 0.71600002 -0.025107734 1.0960825e-38 311 260
-0.010043093 0.71600002 -0.025107734 1.1424701e-38 312 260
-0.0087877065 0.71600002 -0.025107734 1.1516898e-38 313 260
-0.00753232 0.71600002 -0.025107734 1.2622888e-38 314 260
-0.0062769335 0.71600002 -0.025107734 1.4005823e-38 315 260
-0.0050285598 0.71700001 -0.0251428 1.4647226e-38 316 260
-0.0037714199 0.71700001 -0.0251428 1.2157944e-38 317 260
-0.0025142799 0.71700001 -0.0251428 1.2242559e-38 318 260
-0.00125714 0.71700001 -0.0251428 1.2242559e-38 319 260
0 0.71700001 -0.0251428 1.1050843e-38 320 260
0.00125714 0.71700001 -0.0251428 1.0866093e-38 321 260
0.0025142799 0.71700001 -0.0251428 9.1129746e-39 322 260
0.0037714199 0.71700001 -0.0251428 1.0495909e-38 323 260
0.0050285598 0.71700001 -0.0251428 1.2263127e-38 324 260
0.0062857 0.71700001 -0.0251428 1.4199234e-38 325 260
0.0075638802 0.71899998 -0.025212931 1.4108472e-38 326 260
0.0088367993 0.72000003 -0.025248 1.2541145e-38 327 260
0.010099201 0.72000003 -0.025248 1.0225789e-38 328 260
0.01139316 0.722 -0.025318133 5.1546708e-39 329 260
0.012659066 0.722 -0.025318133 6.8102166e-39 330 260
0.013924973 0.722 -0.025318133 7.0864434e-39 331 260
0.015190879 0.722 -0.025318133 6.9921094e-39 332 260
0.016456785 0.722 -0.025318133 5.6091749e-39 333 260
0.017722692 0.722 -0.025318133 2.2137839e-39 334 260
0.0189886 0.722 -0.025318133 1.115712e-38 335 260
0.020254506 0.722 -0.025318133 1.8161836e-38 336 260
-0.03441618 0.727 -0.026768139 9.1266513e-39 293 261
-0.033141505 0.727 -0.026768139 6.2538115e-39 294 261
-0.03186683 0.727 -0.026768139 6.3460071e-39 295 261
-0.030423839 0.72299999 -0.026620859 7.8218476e-39 296 261
-0.029115854 0.722 -0.026584039 8.6516083e-39 297 261
-0.027657079 0.71700001 -0.02639994 9.1129494e-39 298 261
-0.02639994 0.71700001 -0.02639994 9.1129494e-39 299 261
-0.0251428 0.71700001 -0.02639994 9.3873783e-39 300 261
-0.02388566 0.71700001 -0.02639994 9.2026269e-39 301 261
-0.02262852 0.71700001 -0.02639994 9.5746562e-39 302 261
-0.021341572 0.71600002 -0.026363119 1.0865395e-38 303 261
-0.020086186 0.71600002 -0.026363119 1.1330333e-38 304 261
-0.0188308 0.71600002 -0.026363119 1.2252648e-38 305 261
-0.017575413 0.71600002 -0.026363119 1.0589884e-38 306 261
-0.016320027 0.71600002 -0.026363119 1.0036711e-38 307 261
-0.01506464 0.71600002 -0.026363119 1.012888e-38 308 261
-0.013809253 0.71600002 -0.026363119 1.0036684e-38 309 261
-0.012553867 0.71600002 -0.026363119 9.9499155e-39 310 261
-0.011266919 0.71399999 -0.026289478 1.1701993e-38 311 261
-0.01001504 0.71399999 -0.026289478 1.2440675e-38 312 261
-0.0087631596 0.71399999 -0.026289478 1.299349e-38 313 261
-0.00753232 0.71600002 -0.026363119 1.3088908e-38 314 261
-0.0062769335 0.71600002 -0.026363119 1.4471844e-38 315 261
-0.0050215465 0.71600002 -0.026363119 1.3269338e-38 316 261
-0.00376616 0.71600002 -0.026363119 9.8580983e-39 317 261
-0.0025107733 0.71600002 -0.026363119 1.0133947e-38 318 261
-0.0012553866 0.71600002 -0.026363119 1.0594566e-38 319 261
0 0.71600002 -0.026363119 1.1144856e-38 320 261
0.0012553866 0.71600002 -0.026363119 1.1144856e-38 321 261
0.0025107733 0.71600002 -0.026363119 8.0120375e-39 322 261
0.00376616 0.71600002 -0.026363119 9.2105807e-39 323 261
0.0050215465 0.71600002 -0.026363119 1.1066034e-38 324 261
0.0062857 0.71700001 -0.02639994 1.3094338e-38 325 261
0.0075428397 0.71700001 -0.02639994 1.3372717e-38 326 261
0.0088245263 0.71899998 -0.02647358 1.2451121e-38 327 261
0.010085173 0.71899998 -0.02647358 1.0137206e-38 328 261
0.011361601 0.72000003 -0.026510401 4.6976639e-39 329 261
0.012624 0.72000003 -0.026510401 6.717312e-39 330 261
0.013924973 0.722 -0.026584039 7.0860931e-39 331 261
0.015190879 0.722 -0.026584039 7.0853896e-39 332 261
0.016456785 0.722 -0.026584039 6.1637935e-39 333 261
0.017722692 0.722 -0.026584039 1.5623091e-39 334 261
0.0189886 0.722 -0.026584039 9.0297963e-39 335 261
0.020254506 0.722 -0.026584039 1.72406e-38 336 261
-0.035690852 0.727 -0.028042812 6.1720653e-39 292 262
-0.03441618 0.727 -0.028042812 3.3143609e-39 293 262
-0.033050332 0.72500002 -0.027965667 7.5441972e-39 294 262
-0.031779166 0.72500002 -0.027965667 8.3739578e-39 295 262
-0.030423839 0.72299999 -0.02788852 9.0189643e-39 296 262
-0.029035201 0.72000003 -0.027772799 9.5721381e-39 297 262
-0.027657079 0.71700001 -0.027657079 9.5746366e-39 298 262
-0.026363119 0.71600002 -0.027618507 9.482441e-39 299 262
-0.025107734 0.71600002 -0.027618507 9.2962504e-39 300 262
-0.023852346 0.71600002 -0.027618507 9.3884475e-39 301 262
-0.022596961 0.71600002 -0.027618507 1.0131776e-38 302 262
-0.021341572 0.71600002 -0.027618507 1.1238124e-38 303 262
-0.020086186 0.71600002 -0.027618507 1.0504875e-38 304 262
-0.0188308 0.71600002 -0.027618507 1.059707e-38 305 262
-0.017575413 0.71600002 -0.027618507 1.0132512e-38 306 262
-0.016320027 0.71600002 -0.027618507 9.7637292e-39 307 262
-0.01506464 0.71600002 -0.027618507 1.0686783e-38 308 262
-0.013809253 0.71600002 -0.027618507 1.1332152e-38 309 262
-0.012518799 0.71399999 -0.02754136 1.1890016e-38 310 262
-0.011251139 0.713 -0.027502786 1.4194905e-38 311 262
-0.010001013 0.713 -0.027502786 1.4106673e-38 312 262
-0.0087631596 0.71399999 -0.02754136 1.4475815e-38 313 262
-0.0075112795 0.71399999 -0.02754136 1.475239e-38 314 262
-0.0062593995 0.71399999 -0.02754136 1.5029337e-38 315 262
-0.0050075199 0.71399999 -0.02754136 1.1524101e-38 316 262
-0.0037556398 0.71399999 -0.02754136 5.9001672e-39 317 262
-0.0025037599 0.71399999 -0.02754136 7.5585969e-39 318 262
-0.00125188 0.71399999 -0.02754136 9.2181182e-39 319 262
0 0.71600002 -0.027618507 1.0684597e-38 320 262
0.00125188 0.71399999 -0.02754136 9.670086e-39 321 262
0.0025037599 0.71399999 -0.02754136 6.0762768e-39 322 262
0.00376616 0.71600002 -0.027618507 7.6439626e-39 323 262
0.0050215465 0.71600002 -0.027618507 8.9476831e-39 324 262
0.0062769335 0.71600002 -0.027618507 1.1621358e-38 325 262
0.00753232 0.71600002 -0.027618507 1.2173458e-38 326 262
0.0087999795 0.71700001 -0.027657079 1.2357489e-38 327 262
0.01005712 0.71700001 -0.027657079 1.0230841e-38 328 262
0.01134582 0.71899998 -0.027734226 4.2381249e-39 329 262
0.012624 0.72000003 -0.027772799 6.2581275e-39 330 262
0.0138864 0.72000003 -0.027772799 6.8113013e-39 331 262
0.015190879 0.722 -0.027849946 6.8098761e-39 332 262
0.0164112 0.72000003 -0.027772799 6.8098761e-39 333 262
0.017673599 0.72000003 -0.027772799 1.6530656e-39 334 262
0.0189886 0.722 -0.027849946 7.1840845e-39 335 262
0.020282559 0.72299999 -0.02788852 1.6319372e-38 336 262
-0.036609601 0.72000003 -0.029035201 1.0695785e-38 291 263
-0.035494477 0.72299999 -0.029156178 4.3281527e-39 292 263
-0.03422682 0.72299999 -0.029156178 4.3281527e-39 293 263
-0.032959159 0.72299999 -0.029156178 8.5561855e-39 294 263
-0.031691495 0.72299999 -0.029156178 9.8469243e-39 295 263
-0.030255521 0.71899998 -0.028994869 1.0680278e-38 296 263
-0.028914221 0.71700001 -0.028914221 1.0772474e-38 297 263
-0.027618507 0.71600002 -0.028873893 9.7629907e-39 298 263
-0.026363119 0.71600002 -0.028873893 9.6707951e-39 299 263
-0.025107734 0.71600002 -0.028873893 1.022254e-38 300 263
-0.023852346 0.71600002 -0.028873893 1.1144856e-38 301 263
-0.022533838 0.71399999 -0.028793238 1.1515802e-38 302 263
-0.021281958 0.71399999 -0.028793238 1.1515802e-38 303 263
-0.020030079 0.71399999 -0.028793238 1.0508487e-38 304 263
-0.018778199 0.71399999 -0.028793238 1.1153857e-38 305 263
-0.017526319 0.71399999 -0.028793238 1.0694343e-38 306 263
-0.016274439 0.71399999 -0.028793238 1.0233006e-38 307 263
-0.015022559 0.71399999 -0.028793238 1.1886422e-38 308 263
-0.013751393 0.713 -0.028752912 1.2163009e-38 309 263
-0.012501267 0.713 -0.028752912 1.1984734e-38 310 263
-0.011251139 0.713 -0.028752912 1.2998527e-38 311 263
-0.010001013 0.713 -0.028752912 1.2449322e-38 312 263
-0.0087508867 0.713 -0.028752912 1.2817746e-38 313 263
-0.0075007593 0.713 -0.028752912 1.281773e-38 314 263
-0.0062506334 0.713 -0.028752912 1.281773e-38 315 263
-0.0050005065 0.713 -0.028752912 1.0332038e-38 316 263
-0.0037556398 0.71399999 -0.028793238 5.6300599e-39 317 263
-0.0025037599 0.71399999 -0.028793238 7.2773381e-39 318 263
-0.00125188 0.71399999 -0.028793238 8.6602725e-39 319 263
0 0.71600002 -0.028873893 9.1194332e-39 320 263
0.00125188 0.71399999 -0.028793238 7.6446619e-39 321 263
0.0025037599 0.71399999 -0.028793238 4.5089511e-39 322 263
0.0037556398 0.71399999 -0.028793238 6.2610268e-39 323 263
0.0050075199 0.71399999 -0.028793238 7.656947e-39 324 263
0.0062593995 0.71399999 -0.028793238 1.079124e-38 325 263
0.00753232 0.71600002 -0.028873893 1.0793408e-38 326 263
0.0087877065 0.71600002 -0.028873893 1.1346581e-38 327 263
0.010043093 0.71600002 -0.028873893 9.7749046e-39 328 263
0.01131426 0.71700001 -0.028914221 3.5056017e-39 329 263
0.012606465 0.71899998 -0.028994869 5.5216414e-39 330 263
0.0138864 0.72000003 -0.029035201 6.1670108e-39 331 263
0.015190879 0.722 -0.029115854 6.7176805e-39 332 263
0.0164112 0.72000003 -0.029035201 6.6254849e-39 333 263
0.017673599 0.72000003 -0.029035201 2.846927e-39 334 263
0.019014901 0.72299999 -0.029156178 6.9932192e-39 335 263
0.020282559 0.72299999 -0.029156178 1.5397056e-38 336 263
0.021550218 0.72299999 -0.029156178 1.7425718e-38 337 263
-0.036609601 0.72000003 -0.0302976 6.6406035e-39 291 264
-0.035347197 0.72000003 -0.0302976 4.6922437e-39 292 264
-0.034084801 0.72000003 -0.0302976 5.9829825e-39 293 264
-0.0328224 0.72000003 -0.0302976 9.1125963e-39 294 264
-0.031516165 0.71899998 -0.030255521 1.0772476e-38 295 264
-0.03012928 0.71600002 -0.03012928 1.1882065e-38 296 264
-0.028873893 0.71600002 -0.03012928 1.1605477e-38 297 264
-0.02754136 0.71399999 -0.030045118 9.3978278e-39 298 264
-0.026289478 0.71399999 -0.030045118 1.0503815e-38 299 264
-0.025037598 0.71399999 -0.030045118 1.1062404e-38 300 264
-0.02378572 0.71399999 -0.030045118 1.1984e-38 301 264
-0.022533838 0.71399999 -0.030045118 1.2441035e-38 302 264
-0.021252153 0.713 -0.030003037 1.1611274e-38 303 264
-0.020002026 0.713 -0.030003037 1.0696879e-38 304 264
-0.0186993 0.71100003 -0.029918881 1.1526641e-38 305 264
-0.01745268 0.71100003 -0.029918881 1.1895775e-38 306 264
-0.016183265 0.70999998 -0.029876797 1.1895775e-38 307 264
-0.014938398 0.70999998 -0.029876797 1.1891088e-38 308 264
-0.01371282 0.71100003 -0.029918881 1.1798892e-38 309 264
-0.0124662 0.71100003 -0.029918881 1.051392e-38 310 264
-0.01121958 0.71100003 -0.029918881 1.0790148e-38 311 264
-0.0099729598 0.71100003 -0.029918881 1.033099e-38 312 264
-0.0087263398 0.71100003 -0.029918881 1.0883805e-38 313 264
-0.0075007593 0.713 -0.030003037 1.1617038e-38 314 264
-0.0062506334 0.713 -0.030003037 1.115642e-38 315 264
-0.0050005065 0.713 -0.030003037 1.0695429e-38 316 264
-0.0037503797 0.713 -0.030003037 8.4830938e-39 317 264
-0.0025037599 0.71399999 -0.030045118 7.6436095e-39 318 264
-0.00125188 0.71399999 -0.030045118 8.2889789e-39 319 264
0 0.71399999 -0.030045118 8.1978483e-39 320 264
0.0012501266 0.713 -0.030003037 6.9071094e-39 321 264
0.0025002533 0.713 -0.030003037 4.6004432e-39 322 264
0.0037503797 0.713 -0.030003037 6.1681277e-39 323 264
0.0050005065 0.713 -0.030003037 7.5618788e-39 324 264
0.0062593995 0.71399999 -0.030045118 1.1249703e-38 325 264
0.0075112795 0.71399999 -0.030045118 1.0978158e-38 326 264
0.0087631596 0.71399999 -0.030045118 1.1531331e-38 327 264
0.01001504 0.71399999 -0.030045118 1.0054015e-38 328 264
0.01129848 0.71600002 -0.03012928 4.3378862e-39 329 264
0.012606465 0.71899998 -0.030255521 5.1539477e-39 330 264
0.013867113 0.71899998 -0.030255521 5.7993171e-39 331 264
0.0151488 0.72000003 -0.0302976 6.4421698e-39 332 264
0.0164112 0.72000003 -0.0302976 6.4421698e-39 333 264
0.017673599 0.72000003 -0.0302976 3.0305896e-39 334 264
0.018935999 0.72000003 -0.0302976 6.8091755e-39 335 264
0.020282559 0.72299999 -0.030423839 1.521085e-38 336 264
0.021550218 0.72299999 -0.030423839 1.75161e-38 337 264
-0.039134402 0.72000003 -0.03156 1.6412274e-38 289 265
-0.037871998 0.72000003 -0.03156 1.2634041e-38 290 265
-0.036609601 0.72000003 -0.03156 7.4710858e-39 291 265
-0.035347197 0.72000003 -0.03156 6.5311214e-39 292 265
-0.03403746 0.71899998 -0.031516165 7.2686865e-39 293 265
-0.032685637 0.71700001 -0.031428497 1.1236698e-38 294 265
-0.031428497 0.71700001 -0.031428497 1.2250849e-38 295 265
-0.030045118 0.71399999 -0.031296998 1.1794557e-38 296 265
-0.028793238 0.71399999 -0.031296998 1.1517611e-38 297 265
-0.027502786 0.713 -0.031253166 1.1794569e-38 298 265
-0.026252659 0.713 -0.031253166 1.3362255e-38 299 265
-0.025002534 0.713 -0.031253166 1.1804659e-38 300 265
-0.023752406 0.713 -0.031253166 1.2080887e-38 301 265
-0.022502279 0.713 -0.031253166 1.2078016e-38 302 265
-0.021252153 0.713 -0.031253166 1.1617038e-38 303 265
-0.01994592 0.71100003 -0.031165501 1.0975988e-38 304 265
-0.018672999 0.70999998 -0.031121666 1.0975988e-38 305 265
-0.017428132 0.70999998 -0.031121666 1.125113e-38 306 265
-0.016183265 0.70999998 -0.031121666 1.1066738e-38 307 265
-0.014938398 0.70999998 -0.031121666 1.1339366e-38 308 265
-0.01371282 0.71100003 -0.031165501 1.0693997e-38 309 265
-0.0124662 0.71100003 -0.031165501 8.6743402e-39 310 265
-0.01121958 0.71100003 -0.031165501 9.5041008e-39 311 265
-0.0099729598 0.71100003 -0.031165501 9.9625609e-39 312 265
-0.0087263398 0.71100003 -0.031165501 9.9625609e-39 313 265
-0.0074797203 0.71100003 -0.031165501 1.234452e-38 314 265
-0.0062506334 0.713 -0.031253166 1.151512e-38 315 265
-0.0049864799 0.71100003 -0.031165501 1.1336118e-38 316 265
-0.0037398601 0.71100003 -0.031165501 1.004538e-38 317 265
-0.0025002533 0.713 -0.031253166 7.9198264e-39 318 265
-0.0012501266 0.713 -0.031253166 7.8272707e-39 319 265
0 0.713 -0.031253166 8.0112892e-39 320 265
0.0012501266 0.713 -0.031253166 6.7205504e-39 321 265
0.0025002533 0.713 -0.031253166 5.428762e-39 322 265
0.0037503797 0.713 -0.031253166 6.166327e-39 323 265
0.0050005065 0.713 -0.031253166 7.6497556e-39 324 265
0.0062506334 0.713 -0.031253166 1.2444287e-38 325 265
0.0075007593 0.713 -0.031253166 1.1348013e-38 326 265
0.0087631596 0.71399999 -0.031296998 1.1440209e-38 327 265
0.01001504 0.71399999 -0.031296998 1.0699029e-38 328 265
0.01129848 0.71600002 -0.031384666 6.0892472e-39 329 265
0.012606465 0.71899998 -0.031516165 5.8915198e-39 330 265
0.013867113 0.71899998 -0.031516165 5.7993227e-39 331 265
0.0151488 0.72000003 -0.03156 6.1673808e-39 332 265
0.0164112 0.72000003 -0.03156 6.1673808e-39 333 265
0.017649053 0.71899998 -0.031516165 3.4912048e-39 334 265
0.018909698 0.71899998 -0.031516165 7.5478125e-39 335 265
0.020282559 0.72299999 -0.031691495 1.5853698e-38 336 265
0.021550218 0.72299999 -0.031691495 1.8158949e-38 337 265
-0.040396802 0.72000003 -0.0328224 1.7058009e-38 288 266
-0.039134402 0.72000003 -0.0328224 1.493751e-38 289 266
-0.037871998 0.72000003 -0.0328224 1.2724091e-38 290 266
-0.036609601 0.72000003 -0.0328224 9.4972443e-39 291 266
-0.035298105 0.71899998 -0.032776814 6.5325718e-39 292 266
-0.033942781 0.71700001 -0.032685637 6.6247688e-39 293 266
-0.032640055 0.71600002 -0.032640055 1.1604772e-38 294 266
-0.031384666 0.71600002 -0.032640055 1.2711118e-38 295 266
-0.030045118 0.71399999 -0.032548878 1.0965169e-38 296 266
-0.028752912 0.713 -0.032503292 1.1426147e-38 297 266
-0.027425639 0.71100003 -0.032412119 1.2443191e-38 298 266
-0.026179021 0.71100003 -0.032412119 1.354918e-38 299 266
-0.024932399 0.71100003 -0.032412119 1.171212e-38 300 266
-0.023685781 0.71100003 -0.032412119 1.1343697e-38 301 266
-0.022502279 0.713 -0.032503292 1.106675e-38 302 266
-0.021192541 0.71100003 -0.032412119 1.1159306e-38 303 266
-0.01994592 0.71100003 -0.032412119 1.1344769e-38 304 266
-0.018672999 0.70999998 -0.032366529 1.1252215e-38 305 266
-0.017428132 0.70999998 -0.032366529 1.1433725e-38 306 266
-0.016183265 0.70999998 -0.032366529 1.1064584e-38 307 266
-0.014938398 0.70999998 -0.032366529 9.8667653e-39 308 266
-0.01371282 0.71100003 -0.032412119 9.5905385e-39 309 266
-0.0124662 0.71100003 -0.032412119 8.9484257e-39 310 266
-0.01121958 0.71100003 -0.032412119 9.778185e-39 311 266
-0.0099729598 0.71100003 -0.032412119 1.1707423e-38 312 266
-0.0087263398 0.71100003 -0.032412119 1.1062053e-38 313 266
-0.0074797203 0.71100003 -0.032412119 1.2162601e-38 314 266
-0.0062330998 0.71100003 -0.032412119 1.0871862e-38 315 266
-0.0049864799 0.71100003 -0.032412119 9.6773041e-39 316 266
-0.0037398601 0.71100003 -0.032412119 8.7549877e-39 317 266
-0.0024932399 0.71100003 -0.032412119 7.5506838e-39 318 266
-0.00124662 0.71100003 -0.032412119 7.274457e-39 319 266
0 0.71100003 -0.032412119 6.7219839e-39 320 266
0.00124662 0.71100003 -0.032412119 5.7074718e-39 321 266
0.0024932399 0.71100003 -0.032412119 5.8886485e-39 322 266
0.0037503797 0.713 -0.032503292 5.9808441e-39 323 266
0.0050005065 0.713 -0.032503292 6.7274321e-39 324 266
0.0062506334 0.713 -0.032503292 1.1982583e-38 325 266
0.0075007593 0.713 -0.032503292 1.1899032e-38 326 266
0.0087631596 0.71399999 -0.032548878 1.1253663e-38 327 266
0.01001504 0.71399999 -0.032548878 1.0330972e-38 328 266
0.01129848 0.71600002 -0.032640055 6.9197323e-39 329 266
0.0125714 0.71700001 -0.032685637 6.0769984e-39 330 266
0.013867113 0.71899998 -0.032776814 5.2475979e-39 331 266
0.0151488 0.72000003 -0.0328224 5.7089264e-39 332 266
0.0164112 0.72000003 -0.0328224 5.7089264e-39 333 266
0.017649053 0.71899998 -0.032776814 3.5870004e-39 334 266
0.018909698 0.71899998 -0.032776814 7.1822712e-39 335 266
0.020170346 0.71899998 -0.032776814 1.4935339e-38 336 266
-0.040396802 0.72000003 -0.034084801 1.5584674e-38 288 267
-0.039080046 0.71899998 -0.03403746 1.3464175e-38 289 267
-0.037819397 0.71899998 -0.03403746 1.2172714e-38 290 267
-0.036457058 0.71700001 -0.033942781 9.8678219e-39 291 267
-0.035199918 0.71700001 -0.033942781 6.6269198e-39 292 267
-0.03389544 0.71600002 -0.03389544 5.888996e-39 293 267
-0.032548878 0.71399999 -0.033800758 1.0589531e-38 294 267
-0.031296998 0.71399999 -0.033800758 1.2064661e-38 295 267
-0.030003037 0.713 -0.033753417 1.1055216e-38 296 267
-0.028672259 0.71100003 -0.033658739 1.1792781e-38 297 267
-0.027387066 0.70999998 -0.033611398 1.2076946e-38 298 267
-0.026142199 0.70999998 -0.033611398 1.2906707e-38 299 267
-0.024897331 0.70999998 -0.033611398 1.143554e-38 300 267
-0.023652466 0.70999998 -0.033611398 1.0790171e-38 301 267
-0.022439159 0.71100003 -0.033658739 1.0880568e-38 302 267
-0.021192541 0.71100003 -0.033658739 1.1341545e-38 303 267
-0.019917866 0.70999998 -0.033611398 1.1895419e-38 304 267
-0.018672999 0.70999998 -0.033611398 1.1987615e-38 305 267
-0.017428132 0.70999998 -0.033611398 1.0507082e-38 306 267
-0.016183265 0.70999998 -0.033611398 1.0507082e-38 307 267
-0.014938398 0.70999998 -0.033611398 9.6827314e-39 308 267
-0.013693533 0.70999998 -0.033611398 9.6827314e-39 309 267
-0.012448666 0.70999998 -0.033611398 1.0414901e-38 310 267
-0.01121958 0.71100003 -0.033658739 8.8479344e-39 311 267
-0.0099729598 0.71100003 -0.033658739 9.4842529e-39 312 267
-0.0087263398 0.71100003 -0.033658739 7.1793607e-39 313 267
-0.0074797203 0.71100003 -0.033658739 7.4584531e-39 314 267
-0.0062330998 0.71100003 -0.033658739 7.1818662e-39 315 267
-0.0049864799 0.71100003 -0.033658739 4.7880617e-39 316 267
-0.0037398601 0.71100003 -0.033658739 4.8802573e-39 317 267
-0.0024932399 0.71100003 -0.033658739 6.0766271e-39 318 267
-0.00124662 0.71100003 -0.033658739 6.5376052e-39 319 267
0 0.71100003 -0.033658739 6.7180308e-39 320 267
0.00124662 0.71100003 -0.033658739 6.1652158e-39 321 267
0.0024932399 0.71100003 -0.033658739 6.3478218e-39 322 267
0.0037398601 0.71100003 -0.033658739 5.7024524e-39 323 267
0.0049864799 0.71100003 -0.033658739 3.8711627e-39 324 267
0.0062506334 0.713 -0.033753417 9.586933e-39 325 267
0.0075007593 0.713 -0.033753417 1.0883808e-38 326 267
0.0087631596 0.71399999 -0.033800758 1.0699776e-38 327 267
0.01001504 0.71399999 -0.033800758 9.5952077e-39 328 267
0.01129848 0.71600002 -0.03389544 7.1977612e-39 329 267
0.0125714 0.71700001 -0.033942781 5.8032898e-39 330 267
0.013867113 0.71899998 -0.03403746 4.235604e-39 331 267
0.0151488 0.72000003 -0.034084801 5.7986039e-39 332 267
0.0164112 0.72000003 -0.034084801 6.074832e-39 333 267
0.017673599 0.72000003 -0.034084801 4.0458205e-39 334 267
0.018935999 0.72000003 -0.034084801 7.2726676e-39 335 267
0.020254506 0.722 -0.034179479 1.4014106e-38 336 267
-0.040340692 0.71899998 -0.035298105 1.4111705e-38 288 268
-0.039080046 0.71899998 -0.035298105 1.3097913e-38 289 268
-0.037714198 0.71700001 -0.035199918 1.2632969e-38 290 268
-0.036406212 0.71600002 -0.035150826 1.0420274e-38 291 268
-0.035150826 0.71600002 -0.035150826 6.4432418e-39 292 268
-0.033800758 0.71399999 -0.035052639 5.7056768e-39 293 268
-0.032548878 0.71399999 -0.035052639 9.9455869e-39 294 268
-0.031253166 0.713 -0.035003547 1.114377e-38 295 268
-0.029918881 0.71100003 -0.034905359 1.0227254e-38 296 268
-0.028672259 0.71100003 -0.034905359 1.1333601e-38 297 268
-0.027387066 0.70999998 -0.034856264 1.2625451e-38 298 268
-0.026142199 0.70999998 -0.034856264 1.2902038e-38 299 268
-0.024897331 0.70999998 -0.034856264 1.0515382e-38 300 268
-0.023652466 0.70999998 -0.034856264 9.7778165e-39 301 268
-0.022407599 0.70999998 -0.034856264 9.2278769e-39 302 268
-0.021192541 0.71100003 -0.034905359 9.8732463e-39 303 268
-0.019917866 0.70999998 -0.034856264 1.2073667e-38 304 268
-0.018672999 0.70999998 -0.034856264 1.1704526e-38 305 268
-0.017428132 0.70999998 -0.034856264 1.0779679e-38 306 268
-0.016183265 0.70999998 -0.034856264 9.9499183e-39 307 268
-0.014938398 0.70999998 -0.034856264 8.4805882e-39 308 268
-0.013693533 0.70999998 -0.034856264 7.6508276e-39 309 268
-0.012448666 0.70999998 -0.034856264 8.3840584e-39 310 268
-0.011203799 0.70999998 -0.034856264 7.4621007e-39 311 268
-0.0099729598 0.71100003 -0.034905359 7.7343141e-39 312 268
-0.0087263398 0.71100003 -0.034905359 6.5357723e-39 313 268
-0.0074797203 0.71100003 -0.034905359 6.6268918e-39 314 268
-0.0062330998 0.71100003 -0.034905359 6.258468e-39 315 268
-0.0049864799 0.71100003 -0.034905359 5.2446986e-39 316 268
-0.0037398601 0.71100003 -0.034905359 5.5216442e-39 317 268
-0.0024932399 0.71100003 -0.034905359 5.9851405e-39 318 268
-0.00124662 0.71100003 -0.034905359 6.1695318e-39 319 268
0 0.71100003 -0.034905359 5.7989542e-39 320 268
0.00124662 0.71100003 -0.034905359 5.6145629e-39 321 268
0.0024932399 0.71100003 -0.034905359 5.7049593e-39 322 268
0.0037398601 0.71100003 -0.034905359 5.0595913e-39 323 268
0.0049864799 0.71100003 -0.034905359 4.4135338e-39 324 268
0.0062506334 0.713 -0.035003547 9.7608804e-39 325 268
0.0075007593 0.713 -0.035003547 1.0147319e-38 326 268
0.0087631596 0.71399999 -0.035052639 1.05161e-38 327 268
0.01001504 0.71399999 -0.035052639 1.0238422e-38 328 268
0.01129848 0.71600002 -0.035150826 8.6710962e-39 329 268
0.0125714 0.71700001 -0.035199918 5.7125389e-39 330 268
0.013867113 0.71899998 -0.035298105 3.6842351e-39 331 268
0.0151488 0.72000003 -0.035347197 5.4316262e-39 332 268
0.0164112 0.72000003 -0.035347197 5.8007689e-39 333 268
0.017673599 0.72000003 -0.035347197 3.7721119e-39 334 268
0.018935999 0.72000003 -0.035347197 6.3535895e-39 335 268
0.020254506 0.722 -0.035445385 1.3093228e-38 336 268
0.021550218 0.72299999 -0.035494477 1.6596302e-38 337 268
-0.041601337 0.71899998 -0.036558751 1.3095392e-38 287 269
-0.040228479 0.71700001 -0.036457058 1.2634784e-38 288 269
-0.038971342 0.71700001 -0.036457058 1.3464903e-38 289 269
-0.037714198 0.71700001 -0.036457058 1.3277985e-38 290 269
-0.036406212 0.71600002 -0.036406212 1.106529e-38 291 269
-0.035150826 0.71600002 -0.036406212 6.4428887e-39 292 269
-0.033800758 0.71399999 -0.036304519 5.9822693e-39 293 269
-0.032503292 0.713 -0.036253672 9.3938551e-39 294 269
-0.031165501 0.71100003 -0.036151983 1.0315811e-38 295 269
-0.029918881 0.71100003 -0.036151983 9.028332e-39 296 269
-0.028631933 0.70999998 -0.036101133 9.5815058e-39 297 269
-0.027387066 0.70999998 -0.036101133 1.0503863e-38 298 269
-0.026142199 0.70999998 -0.036101133 1.0503863e-38 299 269
-0.024897331 0.70999998 -0.036101133 7.750607e-39 300 269
-0.023652466 0.70999998 -0.036101133 8.1190308e-39 301 269
-0.022407599 0.70999998 -0.036101133 9.0395326e-39 302 269
-0.021162732 0.70999998 -0.036101133 9.407955e-39 303 269
-0.019917866 0.70999998 -0.036101133 9.6726294e-39 304 269
-0.018672999 0.70999998 -0.036101133 8.4744449e-39 305 269
-0.017428132 0.70999998 -0.036101133 8.0109417e-39 306 269
-0.016183265 0.70999998 -0.036101133 6.6276485e-39 307 269
-0.014938398 0.70999998 -0.036101133 6.169571e-39 308 269
-0.013693533 0.70999998 -0.036101133 5.6160371e-39 309 269
-0.012448666 0.70999998 -0.036101133 6.2592387e-39 310 269
-0.011203799 0.70999998 -0.036101133 6.4439887e-39 311 269
-0.0099729598 0.71100003 -0.036151983 6.5376052e-39 312 269
-0.0087263398 0.71100003 -0.036151983 6.7219965e-39 313 269
-0.0074797203 0.71100003 -0.036151983 6.7198343e-39 314 269
-0.0062330998 0.71100003 -0.036151983 6.5350843e-39 315 269
-0.0049864799 0.71100003 -0.036151983 6.2595764e-39 316 269
-0.0037398601 0.71100003 -0.036151983 6.2595764e-39 317 269
-0.0024932399 0.71100003 -0.036151983 5.8014695e-39 318 269
-0.00124662 0.71100003 -0.036151983 5.5248812e-39 319 269
0 0.71100003 -0.036151983 5.7971535e-39 320 269
0.00124662 0.71100003 -0.036151983 5.6127609e-39 321 269
0.0024932399 0.71100003 -0.036151983 5.7049537e-39 322 269
0.0037398601 0.71100003 -0.036151983 5.2443357e-39 323 269
0.0049864799 0.71100003 -0.036151983 4.8737889e-39 324 269
0.0062506334 0.713 -0.036253672 8.930398e-39 325 269
0.0075007593 0.713 -0.036253672 8.8572993e-39 326 269
0.0087631596 0.71399999 -0.036304519 1.0424984e-38 327 269
0.01001504 0.71399999 -0.036304519 1.0607927e-38 328 269
0.01129848 0.71600002 -0.036406212 9.4093843e-39 329 269
0.0125714 0.71700001 -0.036457058 5.8983721e-39 330 269
0.013867113 0.71899998 -0.036558751 3.3168945e-39 331 269
0.01512776 0.71899998 -0.036558751 5.4319822e-39 332 269
0.0164112 0.72000003 -0.036609601 5.8007661e-39 333 269
0.017673599 0.72000003 -0.036609601 3.6806197e-39 334 269
0.0189886 0.722 -0.03671129 5.5245309e-39 335 269
0.020282559 0.72299999 -0.036762137 1.2538956e-38 336 269
0.021550218 0.72299999 -0.036762137 1.6318977e-38 337 269
-0.041601337 0.71899998 -0.037819397 8.6714465e-39 287 270
-0.040228479 0.71700001 -0.037714198 1.097671e-38 288 270
-0.038971342 0.71700001 -0.037714198 1.3465991e-38 289 270
-0.037714198 0.71700001 -0.037714198 1.392336e-38 290 270
-0.036406212 0.71600002 -0.037661601 1.1802502e-38 291 270
-0.035052639 0.71399999 -0.037556399 8.5626749e-39 292 270
-0.033753417 0.713 -0.037503798 7.6403585e-39 293 270
-0.032412119 0.71100003 -0.037398599 9.0247222e-39 294 270
-0.031165501 0.71100003 -0.037398599 8.6559397e-39 295 270
-0.029876797 0.70999998 -0.037345998 6.538687e-39 296 270
-0.028631933 0.70999998 -0.037345998 5.8933176e-39 297 270
-0.027387066 0.70999998 -0.037345998 7.1902026e-39 298 270
-0.026142199 0.70999998 -0.037345998 9.2185064e-39 299 270
-0.024897331 0.70999998 -0.037345998 7.6537269e-39 300 270
-0.023652466 0.70999998 -0.037345998 7.5611725e-39 301 270
-0.022407599 0.70999998 -0.037345998 8.8446848e-39 302 270
-0.021162732 0.70999998 -0.037345998 8.4759037e-39 303 270
-0.019917866 0.70999998 -0.037345998 6.8152697e-39 304 270
-0.018672999 0.70999998 -0.037345998 6.354293e-39 305 270
-0.017428132 0.70999998 -0.037345998 6.8145509e-39 306 270
-0.01613768 0.708 -0.0372408 5.8922358e-39 307 270
-0.01489632 0.708 -0.0372408 6.7173274e-39 308 270
-0.013693533 0.70999998 -0.037345998 6.6251317e-39 309 270
-0.012448666 0.70999998 -0.037345998 6.719484e-39 310 270
-0.011203799 0.70999998 -0.037345998 6.719484e-39 311 270
-0.0099589331 0.70999998 -0.037345998 6.3514217e-39 312 270
-0.0087140659 0.70999998 -0.037345998 6.1670305e-39 313 270
-0.0074797203 0.71100003 -0.037398599 6.2574268e-39 314 270
-0.0062330998 0.71100003 -0.037398599 6.2574268e-39 315 270
-0.0049864799 0.71100003 -0.037398599 6.0741118e-39 316 270
-0.0037398601 0.71100003 -0.037398599 6.0741118e-39 317 270
-0.0024932399 0.71100003 -0.037398599 5.7064054e-39 318 270
-0.00124662 0.71100003 -0.037398599 5.4294598e-39 319 270
0 0.71100003 -0.037398599 5.6124077e-39 320 270
0.00124662 0.71100003 -0.037398599 5.7046048e-39 321 270
0.0024932399 0.71100003 -0.037398599 5.5223645e-39 322 270
0.0037398601 0.71100003 -0.037398599 5.3376131e-39 323 270
0.0049864799 0.71100003 -0.037398599 4.9677838e-39 324 270
0.0062330998 0.71100003 -0.037398599 8.1024352e-39 325 270
0.0075007593 0.713 -0.037503798 7.7513105e-39 326 270
0.0087631596 0.71399999 -0.037556399 1.0240592e-38 327 270
0.01001504 0.71399999 -0.037556399 1.0239868e-38 328 270
0.01129848 0.71600002 -0.037661601 9.502303e-39 329 270
0.0125714 0.71700001 -0.037714198 6.5444674e-39 330 270
0.013867113 0.71899998 -0.037819397 3.5938471e-39 331 270
0.01512776 0.71899998 -0.037819397 5.3412299e-39 332 270
0.0164112 0.72000003 -0.037871998 5.3412299e-39 333 270
0.017722692 0.722 -0.0379772 2.9412498e-39 334 270
0.0189886 0.722 -0.0379772 5.4308919e-39 335 270
0.020282559 0.72299999 -0.038029801 1.2998485e-38 336 270
0.021550218 0.72299999 -0.038029801 1.6594475e-38 337 270
-0.041601337 0.71899998 -0.039080046 6.5495205e-39 287 271
-0.040340692 0.71899998 -0.039080046 1.125043e-38 288 271
-0.038971342 0.71700001 -0.038971342 1.4108134e-38 289 271
-0.037714198 0.71700001 -0.038971342 1.3647146e-38 290 271
-0.036406212 0.71600002 -0.038916986 1.1987265e-38 291 271
-0.035052639 0.71399999 -0.038808275 8.4755268e-39 292 271
-0.033753417 0.713 -0.038753927 7.6461262e-39 293 271
-0.032412119 0.71100003 -0.038645219 8.100615e-39 294 271
-0.031165501 0.71100003 -0.038645219 7.2708543e-39 295 271
-0.029876797 0.70999998 -0.038590867 5.8911638e-39 296 271
-0.028631933 0.70999998 -0.038590867 4.785175e-39 297 271
-0.027387066 0.70999998 -0.038590867 5.1615456e-39 298 271
-0.026142199 0.70999998 -0.038590867 7.4667964e-39 299 271
-0.024897331 0.70999998 -0.038590867 7.7405051e-39 300 271
-0.023652466 0.70999998 -0.038590867 6.7267133e-39 301 271
-0.022407599 0.70999998 -0.038590867 7.0886084e-39 302 271
-0.021162732 0.70999998 -0.038590867 5.7978696e-39 303 271
-0.019917866 0.70999998 -0.038590867 6.2552604e-39 304 271
-0.018672999 0.70999998 -0.038590867 6.9928255e-39 305 271
-0.017428132 0.70999998 -0.038590867 6.3535923e-39 306 271
-0.01613768 0.708 -0.038482159 6.3535923e-39 307 271
-0.01489632 0.708 -0.038482159 6.719128e-39 308 271
-0.013693533 0.70999998 -0.038590867 6.4425412e-39 309 271
-0.012448666 0.70999998 -0.038590867 6.5329361e-39 310 271
-0.011203799 0.70999998 -0.038590867 6.256708e-39 311 271
-0.0099589331 0.70999998 -0.038590867 6.3478246e-39 312 271
-0.0087140659 0.70999998 -0.038590867 6.0715978e-39 313 271
-0.0074797203 0.71100003 -0.038645219 5.9797651e-39 314 271
-0.0062330998 0.71100003 -0.038645219 5.8875695e-39 315 271
-0.0049864799 0.71100003 -0.038645219 5.7049761e-39 316 271
-0.0037398601 0.71100003 -0.038645219 5.5205863e-39 317 271
-0.0024932399 0.71100003 -0.038645219 5.5209422e-39 318 271
-0.00124662 0.71100003 -0.038645219 5.4287452e-39 319 271
0 0.71100003 -0.038645219 5.4298157e-39 320 271
0.00124662 0.71100003 -0.038645219 5.4298157e-39 321 271
0.0024932399 0.71100003 -0.038645219 5.4308947e-39 322 271
0.0037398601 0.71100003 -0.038645219 5.3386991e-39 323 271
0.0049864799 0.71100003 -0.038645219 4.9692328e-39 324 271
0.0062330998 0.71100003 -0.038645219 6.813144e-39 325 271
0.0075007593 0.713 -0.038753927 6.9204778e-39 326 271
0.0087631596 0.71399999 -0.038808275 1.0423552e-38 327 271
0.01001504 0.71399999 -0.038808275 1.0330987e-38 328 271
0.01129848 0.71600002 -0.038916986 9.5934224e-39 329 271
0.0125714 0.71700001 -0.038971342 6.0867319e-39 330 271
0.013867113 0.71899998 -0.039080046 3.136113e-39 331 271
0.01512776 0.71899998 -0.039080046 5.0653702e-39 332 271
0.0164112 0.72000003 -0.039134402 4.8806203e-39 333 271
0.017722692 0.722 -0.039243106 2.0203809e-39 334 271
0.019014901 0.72299999 -0.039297458 5.7986011e-39 335 271
0.020282559 0.72299999 -0.039297458 1.4380701e-38 336 271
0.021550218 0.72299999 -0.039297458 1.714693e-38 337 271
-0.042921603 0.72000003 -0.040396802 1.134692e-38 286 272
-0.041601337 0.71899998 -0.040340692 7.3821496e-39 287 272
-0.040340692 0.71899998 -0.040340692 1.253972e-38 288 272
-0.038971342 0.71700001 -0.040228479 1.4660219e-38 289 272
-0.037714198 0.71700001 -0.040228479 1.2081984e-38 290 272
-0.036406212 0.71600002 -0.040172372 9.6848992e-39 291 272
-0.035052639 0.71399999 -0.040060159 3.9651338e-39 292 272
-0.033753417 0.713 -0.040004052 3.3197643e-39 293 272
-0.032412119 0.71100003 -0.039891839 6.1648627e-39 294 272
-0.031165501 0.71100003 -0.039891839 6.6254821e-39 295 272
-0.029876797 0.70999998 -0.039835732 6.2592233e-39 296 272
-0.028631933 0.70999998 -0.039835732 6.2592233e-39 297 272
-0.027309919 0.708 -0.039723519 5.8922639e-39 298 272
-0.026068559 0.708 -0.039723519 6.1684906e-39 299 272
-0.024897331 0.70999998 -0.039835732 7.0908225e-39 300 272
-0.023652466 0.70999998 -0.039835732 6.6298457e-39 301 272
-0.022407599 0.70999998 -0.039835732 7.0886336e-39 302 272
-0.021162732 0.70999998 -0.039835732 6.6276541e-39 303 272
-0.019917866 0.70999998 -0.039835732 6.8098789e-39 304 272
-0.018672999 0.70999998 -0.039835732 6.8098789e-39 305 272
-0.017379038 0.708 -0.039723519 6.3514245e-39 306 272
-0.01613768 0.708 -0.039723519 6.0744789e-39 307 272
-0.01489632 0.708 -0.039723519 6.5325718e-39 308 272
-0.013693533 0.70999998 -0.039835732 6.4400174e-39 309 272
-0.012448666 0.70999998 -0.039835732 6.5307711e-39 310 272
-0.011203799 0.70999998 -0.039835732 6.4385755e-39 311 272
-0.0099589331 0.70999998 -0.039835732 5.9797483e-39 312 272
-0.0087140659 0.70999998 -0.039835732 5.8875527e-39 313 272
-0.0074691991 0.70999998 -0.039835732 5.5202093e-39 314 272
-0.0062330998 0.71100003 -0.039891839 5.5202093e-39 315 272
-0.0049864799 0.71100003 -0.039891839 5.3368999e-39 316 272
-0.0037398601 0.71100003 -0.039891839 5.3368999e-39 317 272
-0.0024932399 0.71100003 -0.039891839 5.1532317e-39 318 272
-0.00124662 0.71100003 -0.039891839 5.3372628e-39 319 272
0 0.71100003 -0.039891839 5.2461476e-39 320 272
0.0012448666 0.70999998 -0.039835732 5.3383432e-39 321 272
0.0024897333 0.70999998 -0.039835732 5.5216583e-39 322 272
0.0037398601 0.71100003 -0.039891839 5.4294626e-39 323 272
0.0049864799 0.71100003 -0.039891839 4.785559e-39 324 272
0.0062330998 0.71100003 -0.039891839 4.9699516e-39 325 272
0.0075007593 0.713 -0.040004052 5.9960006e-39 326 272
0.0087631596 0.71399999 -0.040060159 1.0605782e-38 327 272
0.01001504 0.71399999 -0.040060159 1.0145876e-38 328 272
0.01129848 0.71600002 -0.040172372 9.4083109e-39 329 272
0.0125714 0.71700001 -0.040228479 4.431874e-39 330 272
0.013867113 0.71899998 -0.040340692 1.205027e-39 331 272
0.01512776 0.71899998 -0.040340692 4.3303023e-39 332 272
0.016388407 0.71899998 -0.040340692 3.6849329e-39 333 272
0.017747238 0.72299999 -0.040565118 1.0101905e-39 334 272
0.019014901 0.72299999 -0.040565118 6.8149012e-39 335 272
0.020282559 0.72299999 -0.040565118 1.6867465e-38 336 272
0.021550218 0.72299999 -0.040565118 1.8434792e-38 337 272
-0.042921603 0.72000003 -0.041659199 9.8724882e-39 286 273
-0.041601337 0.71899998 -0.041601337 9.5037071e-39 287 273
-0.040340692 0.71899998 -0.041601337 1.2173436e-38 288 273
-0.038971342 0.71700001 -0.041485619 1.3740761e-38 289 273
-0.037661601 0.71600002 -0.041427758 1.1713553e-38 290 273
-0.036406212 0.71600002 -0.041427758 8.7632918e-39 291 273
