# .PCD v.7 - Point Cloud Data file format
FIELDS x y z rgb imX imY
SIZE 4 4 4 4 4 4
TYPE F F F F F F
COUNT 1 1 1 1 1 1
WIDTH 858
HEIGHT 1
VIEWPOINT 0 0 0 1 0 0 0
POINTS 858
DATA ascii
0.026440267 0.75400001 0.043626439 1.659238e-38 340 207
0.027762281 0.75400001 0.043626439 1.9635196e-38 341 207
-0.057374325 0.76099998 0.042697169 1.760759e-38 277 208
-0.055892758 0.759 0.042584959 1.6935557e-38 278 208
-0.054418206 0.75700003 0.042472746 1.5368232e-38 279 208
-0.052950665 0.755 0.042360533 1.8310171e-38 280 208
-0.051626898 0.755 0.042360533 1.8402369e-38 281 208
-0.050236505 0.75400001 0.042304426 1.8953728e-38 282 208
-0.048914492 0.75400001 0.042304426 1.9045923e-38 283 208
-0.04759248 0.75400001 0.042304426 1.923031e-38 284 208
-0.045963634 0.74900001 0.042023893 1.9322506e-38 285 208
-0.044650383 0.74900001 0.042023893 1.9874964e-38 286 208
-0.043221418 0.74699998 0.041911677 1.9967159e-38 287 208
-0.041911677 0.74699998 0.041911677 2.0060793e-38 288 208
-0.040601939 0.74699998 0.041911677 2.0060793e-38 289 208
-0.039292198 0.74699998 0.041911677 2.0244822e-38 290 208
-0.037728224 0.74199998 0.041631144 2.0244822e-38 291 208
-0.036427252 0.74199998 0.041631144 2.024482e-38 292 208
-0.03512628 0.74199998 0.041631144 2.024482e-38 293 208
-0.033779722 0.741 0.041575037 2.0244822e-38 294 208
-0.032480497 0.741 0.041575037 2.0244822e-38 295 208
-0.03118128 0.741 0.041575037 2.0152269e-38 296 208
-0.029882059 0.741 0.041575037 1.9967878e-38 297 208
-0.028582839 0.741 0.041575037 1.9874608e-38 298 208
-0.027283618 0.741 0.041575037 1.9874608e-38 299 208
-0.025984399 0.741 0.041575037 1.9691295e-38 300 208
-0.024685178 0.741 0.041575037 2.0336665e-38 301 208
-0.023385961 0.741 0.041575037 1.7946052e-38 302 208
-0.02208674 0.741 0.041575037 1.3797609e-38 303 208
-0.020787518 0.741 0.041575037 7.9043099e-39 304 208
-0.019488299 0.741 0.041575037 5.5101298e-39 305 208
-0.018189078 0.741 0.041575037 4.3263423e-39 306 208
-0.016775893 0.736 0.041294504 5.8014723e-39 307 208
-0.01554856 0.73900002 0.041462827 1.4820449e-38 308 208
-0.014252847 0.73900002 0.041462827 1.7217536e-38 309 208
-0.012939599 0.73799998 0.041406717 1.9883608e-38 310 208
-0.011645639 0.73799998 0.041406717 1.9238239e-38 311 208
-0.010351679 0.73799998 0.041406717 1.978456e-38 312 208
-0.0090577193 0.73799998 0.041406717 1.9692365e-38 313 208
-0.0077637597 0.73799998 0.041406717 1.9600172e-38 314 208
-0.0064697997 0.73799998 0.041406717 1.9692367e-38 315 208
-0.0051758396 0.73799998 0.041406717 1.9511233e-38 316 208
-0.0038818798 0.73799998 0.041406717 2.0064407e-38 317 208
-0.0025809065 0.736 0.041294504 1.6935904e-38 318 208
-0.0012904532 0.736 0.041294504 1.2787461e-38 319 208
0.0025984398 0.741 0.041575037 1.2702118e-38 322 208
0.0038976599 0.741 0.041575037 1.4914813e-38 323 208
0.0052038929 0.74199998 0.041631144 1.8128298e-38 324 208
0.0065048663 0.74199998 0.041631144 1.7575125e-38 325 208
0.0078268806 0.74400002 0.04174336 1.8033922e-38 326 208
0.0091313599 0.74400002 0.04174336 1.8126118e-38 327 208
0.010463892 0.74599999 0.04185557 1.7664058e-38 328 208
0.011787659 0.74699998 0.041911677 1.3791842e-38 329 208
0.013097399 0.74699998 0.041911677 7.6227049e-39 330 208
0.014407139 0.74699998 0.041911677 5.4182943e-39 331 208
0.015716879 0.74699998 0.041911677 9.300956e-39 332 208
0.017095 0.75 0.04208 1.3265368e-38 333 208
0.018459093 0.75199997 0.04219221 1.6841175e-38 334 208
0.0197776 0.75199997 0.04219221 1.6656784e-38 335 208
0.021152213 0.75400001 0.042304426 1.7848823e-38 336 208
0.022474226 0.75400001 0.042304426 1.5727965e-38 337 208
0.02379624 0.75400001 0.042304426 1.2596586e-38 338 208
0.025118252 0.75400001 0.042304426 1.4163911e-38 339 208
0.026440267 0.75400001 0.042304426 1.4467546e-38 340 208
0.027762281 0.75400001 0.042304426 1.9077328e-38 341 208
0.029084291 0.75400001 0.042304426 1.9085625e-38 342 208
-0.058554318 0.759 0.041254178 1.9072989e-38 276 209
-0.05722354 0.759 0.041254178 1.5661751e-38 277 209
-0.055892758 0.759 0.041254178 1.7479707e-38 278 209
-0.054418206 0.75700003 0.041145474 1.7295316e-38 279 209
-0.052950665 0.755 0.041036766 1.8403071e-38 280 209
-0.051558517 0.75400001 0.040982414 1.8587462e-38 281 209
-0.050236505 0.75400001 0.040982414 1.8862251e-38 282 209
-0.048914492 0.75400001 0.040982414 1.8954446e-38 283 209
-0.047339998 0.75 0.040764999 1.922996e-38 284 209
-0.045963634 0.74900001 0.040710647 1.9414351e-38 285 209
-0.044650383 0.74900001 0.040710647 1.9691298e-38 286 209
-0.043221418 0.74699998 0.040601939 1.9875329e-38 287 209
-0.04185557 0.74599999 0.040547583 1.978421e-38 288 209
-0.040438879 0.74400002 0.040438879 1.9876406e-38 289 209
-0.039134398 0.74400002 0.040438879 2.0152272e-38 290 209
-0.037728224 0.74199998 0.040330172 2.0244469e-38 291 209
-0.036427252 0.74199998 0.040330172 2.0244466e-38 292 209
-0.03512628 0.74199998 0.040330172 2.0244466e-38 293 209
-0.033779722 0.741 0.04027582 2.0427779e-38 294 209
-0.032480497 0.741 0.04027582 2.0335582e-38 295 209
-0.03118128 0.741 0.04027582 2.0243386e-38 296 209
-0.029882059 0.741 0.04027582 2.0059355e-38 297 209
-0.028582839 0.741 0.04027582 1.9966809e-38 298 209
-0.027283618 0.741 0.04027582 2.0059005e-38 299 209
-0.025984399 0.741 0.04027582 1.9326121e-38 300 209
-0.024685178 0.741 0.04027582 1.7205622e-38 301 209
-0.023385961 0.741 0.04027582 1.2331495e-38 302 209
-0.02208674 0.741 0.04027582 8.1830519e-39 303 209
-0.020787518 0.741 0.04027582 4.0461428e-39 304 209
-0.019488299 0.741 0.04027582 3.4926187e-39 305 209
-0.018066347 0.736 0.040004052 1.0397595e-38 306 209
-0.016775893 0.736 0.040004052 1.325602e-38 307 209
-0.015485439 0.736 0.040004052 1.8225208e-38 308 209
-0.014194986 0.736 0.040004052 1.9054608e-38 309 209
-0.012939599 0.73799998 0.040112756 2.0339535e-38 310 209
-0.011645639 0.73799998 0.040112756 1.9970393e-38 311 209
-0.010323626 0.736 0.040004052 2.0060424e-38 312 209
-0.0090331733 0.736 0.040004052 1.9968228e-38 313 209
-0.0077427197 0.736 0.040004052 1.9691298e-38 314 209
-0.0064697997 0.73799998 0.040112756 1.9506547e-38 315 209
-0.0051758396 0.73799998 0.040112756 1.9323249e-38 316 209
-0.0038818798 0.73799998 0.040112756 2.052179e-38 317 209
-0.0025738934 0.73400003 0.039895348 1.8781615e-38 318 209
-0.0012869467 0.73400003 0.039895348 1.6384888e-38 319 209
0 0.73400003 0.039895348 3.5815928e-39 320 209
0.0012869467 0.73400003 0.039895348 3.0305714e-39 321 209
0.0025914267 0.73900002 0.040167112 8.0077033e-39 322 209
0.00388714 0.73900002 0.040167112 1.2064311e-38 323 209
0.0051828534 0.73900002 0.040167112 1.7671286e-38 324 209
0.0064960998 0.741 0.04027582 1.6933721e-38 325 209
0.0078058392 0.74199998 0.040330172 1.8125762e-38 326 209
0.0090945391 0.741 0.04027582 1.8125762e-38 327 209
0.010393759 0.741 0.04027582 1.8034288e-38 328 209
0.01170876 0.74199998 0.040330172 1.6282571e-38 329 209
0.013079867 0.74599999 0.040547583 1.1763228e-38 330 209
0.014407139 0.74699998 0.040601939 6.4284847e-39 331 209
0.015716879 0.74699998 0.040601939 6.4450425e-39 332 209
0.017026618 0.74699998 0.040601939 1.1423248e-38 333 209
0.018409999 0.75 0.040764999 1.6293039e-38 334 209
0.0197776 0.75199997 0.040873703 1.5924258e-38 335 209
0.021096105 0.75199997 0.040873703 1.739001e-38 336 209
0.022414612 0.75199997 0.040873703 1.6744641e-38 337 209
0.023733119 0.75199997 0.040873703 1.5357388e-38 338 209
0.025051624 0.75199997 0.040873703 1.4804573e-38 339 209
0.02637013 0.75199997 0.040873703 1.1329616e-38 340 209
0.027762281 0.75400001 0.040982414 1.6676964e-38 341 209
0.029084291 0.75400001 0.040982414 1.8162227e-38 342 209
0.030406307 0.75400001 0.040982414 1.9637358e-38 343 209
-0.060121801 0.76200002 0.040081199 1.6871841e-38 275 210
-0.058785759 0.76200002 0.040081199 1.7309025e-38 276 210
-0.05722354 0.759 0.0399234 1.4266929e-38 277 210
-0.055745479 0.75700003 0.039818201 1.8123615e-38 278 210
-0.054274432 0.755 0.039712999 1.8768985e-38 279 210
-0.052880533 0.75400001 0.039660402 1.8494187e-38 280 210
-0.051558517 0.75400001 0.039660402 1.8586742e-38 281 210
-0.050103247 0.75199997 0.039555199 1.8770051e-38 282 210
-0.048655 0.75 0.039449997 1.8954802e-38 283 210
-0.047339998 0.75 0.039449997 1.9229957e-38 284 210
-0.045963634 0.74900001 0.0393974 1.9414348e-38 285 210
-0.044531155 0.74699998 0.039292198 1.941615e-38 286 210
-0.043221418 0.74699998 0.039292198 1.941615e-38 287 210
-0.04185557 0.74599999 0.039239597 1.9692017e-38 288 210
-0.040438879 0.74400002 0.039134398 1.9784213e-38 289 210
-0.0390292 0.74199998 0.0390292 1.9876408e-38 290 210
-0.037728224 0.74199998 0.0390292 2.006044e-38 291 210
-0.036378156 0.741 0.038976599 2.0151916e-38 292 210
-0.035078939 0.741 0.038976599 2.0244113e-38 293 210
-0.033779722 0.741 0.038976599 2.0244469e-38 294 210
-0.032480497 0.741 0.038976599 2.0244469e-38 295 210
-0.03118128 0.741 0.038976599 2.0152987e-38 296 210
-0.029882059 0.741 0.038976599 1.9876759e-38 297 210
-0.028582839 0.741 0.038976599 2.024341e-38 298 210
-0.027283618 0.741 0.038976599 1.9690595e-38 299 210
-0.025984399 0.741 0.038976599 1.7031677e-38 300 210
-0.024685178 0.741 0.038976599 1.1592495e-38 301 210
-0.023385961 0.741 0.038976599 6.2541492e-39 302 210
-0.02208674 0.741 0.038976599 4.0411206e-39 303 210
-0.020787518 0.741 0.038976599 4.3220192e-39 304 210
-0.019356798 0.736 0.038713597 6.2581275e-39 305 210
-0.018066347 0.736 0.038713597 1.5464005e-38 306 210
-0.016775893 0.736 0.038713597 1.832171e-38 307 210
-0.015485439 0.736 0.038713597 2.0159122e-38 308 210
-0.014194986 0.736 0.038713597 1.9882895e-38 309 210
-0.012904533 0.736 0.038713597 2.0430649e-38 310 210
-0.01161408 0.736 0.038713597 2.0062226e-38 311 210
-0.010323626 0.736 0.038713597 2.024482e-38 312 210
-0.0090331733 0.736 0.038713597 2.0060427e-38 313 210
-0.0077427197 0.736 0.038713597 1.9875329e-38 314 210
-0.0064522666 0.736 0.038713597 1.9598744e-38 315 210
-0.005161813 0.736 0.038713597 1.9230683e-38 316 210
-0.0038713599 0.736 0.038713597 1.9599466e-38 317 210
-0.0025738934 0.73400003 0.038608398 1.8776169e-38 318 210
-0.0012869467 0.73400003 0.038608398 1.6379441e-38 319 210
0 0.73400003 0.038608398 6.5203202e-39 320 210
0.0012869467 0.73400003 0.038608398 4.3162683e-39 321 210
0.0025809065 0.736 0.038713597 3.4958711e-39 322 210
0.0038713599 0.736 0.038713597 8.6588264e-39 323 210
0.0051758396 0.73799998 0.038818799 1.693661e-38 324 210
0.0064960998 0.741 0.038976599 1.6567828e-38 325 210
0.0077953199 0.741 0.038976599 1.8033932e-38 326 210
0.0090945391 0.741 0.038976599 1.7941736e-38 327 210
0.010393759 0.741 0.038976599 1.8126837e-38 328 210
0.01169298 0.741 0.038976599 1.7942087e-38 329 210
0.013079867 0.74599999 0.039239597 1.4529072e-38 330 210
0.014387853 0.74599999 0.039239597 8.3570302e-39 331 210
0.015695838 0.74599999 0.039239597 4.967376e-39 332 210
0.017003827 0.74599999 0.039239597 8.6548425e-39 333 210
0.018336359 0.74699998 0.039292198 1.5190661e-38 334 210
0.019724999 0.75 0.039449997 1.5466888e-38 335 210
0.021096105 0.75199997 0.039555199 1.7023026e-38 336 210
0.022414612 0.75199997 0.039555199 1.693083e-38 337 210
0.023733119 0.75199997 0.039555199 1.711124e-38 338 210
0.025051624 0.75199997 0.039555199 1.5359523e-38 339 210
0.02637013 0.75199997 0.039555199 1.0857462e-38 340 210
0.027762281 0.75400001 0.039660402 1.5006267e-38 341 210
0.029084291 0.75400001 0.039660402 1.6131036e-38 342 210
0.030406307 0.75400001 0.039660402 1.9818861e-38 343 210
-0.060042895 0.76099998 0.038694311 1.3090723e-38 275 211
-0.058708608 0.76099998 0.038694311 1.7208531e-38 276 211
-0.05722354 0.759 0.038592618 1.6470966e-38 277 211
-0.055598196 0.755 0.038389232 1.8584944e-38 278 211
-0.054274432 0.755 0.038389232 1.8677139e-38 279 211
-0.052880533 0.75400001 0.038338386 1.8677137e-38 280 211
-0.051558517 0.75400001 0.038338386 1.8769332e-38 281 211
-0.050103247 0.75199997 0.038236689 1.8769688e-38 282 211
-0.048655 0.75 0.038135 1.8954081e-38 283 211
-0.047276881 0.74900001 0.038084153 1.9045926e-38 284 211
-0.045840897 0.74699998 0.03798246 1.9322153e-38 285 211
-0.044531155 0.74699998 0.03798246 1.9507267e-38 286 211
-0.04316356 0.74599999 0.03793161 1.9507267e-38 287 211
-0.04174336 0.74400002 0.037829921 1.9692014e-38 288 211
-0.040330172 0.74199998 0.037728224 1.9692014e-38 289 211
-0.0390292 0.74199998 0.037728224 1.9967525e-38 290 211
-0.037728224 0.74199998 0.037728224 2.0059721e-38 291 211
-0.036378156 0.741 0.037677377 2.0243036e-38 292 211
-0.035078939 0.741 0.037677377 2.0427428e-38 293 211
-0.033779722 0.741 0.037677377 2.0151916e-38 294 211
-0.032480497 0.741 0.037677377 2.0336668e-38 295 211
-0.03118128 0.741 0.037677377 2.0061876e-38 296 211
-0.029882059 0.741 0.037677377 2.0338103e-38 297 211
-0.028582839 0.741 0.037677377 2.0339198e-38 298 211
-0.027283618 0.741 0.037677377 1.7112351e-38 299 211
-0.025984399 0.741 0.037677377 1.0585546e-38 300 211
-0.024685178 0.741 0.037677377 5.5144346e-39 301 211
-0.023322839 0.73900002 0.037575684 2.4838632e-39 302 211
-0.022027127 0.73900002 0.037575684 3.0370286e-39 303 211
-0.020703359 0.73799998 0.037524838 9.7532797e-39 304 211
-0.019356798 0.736 0.037423145 1.3994639e-38 305 211
-0.018066347 0.736 0.037423145 1.8869116e-38 306 211
-0.016775893 0.736 0.037423145 1.9421931e-38 307 211
-0.015485439 0.736 0.037423145 2.0064404e-38 308 211
-0.014194986 0.736 0.037423145 2.0064404e-38 309 211
-0.012904533 0.736 0.037423145 2.0247705e-38 310 211
-0.01161408 0.736 0.037423145 2.0247705e-38 311 211
-0.010323626 0.736 0.037423145 2.0154071e-38 312 211
-0.0090331733 0.736 0.037423145 2.0061876e-38 313 211
-0.0077427197 0.736 0.037423145 1.969238e-38 314 211
-0.0064522666 0.736 0.037423145 1.9416153e-38 315 211
-0.005161813 0.736 0.037423145 1.9414348e-38 316 211
-0.0038713599 0.736 0.037423145 1.9229957e-38 317 211
-0.0025738934 0.73400003 0.037321456 1.8679286e-38 318 211
-0.0012869467 0.73400003 0.037321456 1.7573297e-38 319 211
0 0.73400003 0.037321456 9.827833e-39 320 211
0.0012869467 0.73400003 0.037321456 6.5203202e-39 321 211
0.0025738934 0.73400003 0.037321456 6.4571973e-40 322 211
0.0038608401 0.73400003 0.037321456 4.6101318e-39 323 211
0.0051477868 0.73400003 0.037321456 1.5278906e-38 324 211
0.0064960998 0.741 0.037677377 1.6385254e-38 325 211
0.0077953199 0.741 0.037677377 1.8034661e-38 326 211
0.0090699932 0.73900002 0.037575684 1.7758074e-38 327 211
0.010365707 0.73900002 0.037575684 1.794209e-38 328 211
0.01169298 0.741 0.037677377 1.8126481e-38 329 211
0.0129922 0.741 0.037677377 1.6283293e-38 330 211
0.01434928 0.74400002 0.037829921 1.2318881e-38 331 211
0.015653761 0.74400002 0.037829921 6.5271417e-39 332 211
0.016958239 0.74400002 0.037829921 6.1583606e-39 333 211
0.018311813 0.74599999 0.03793161 1.3625143e-38 334 211
0.019646099 0.74699998 0.03798246 1.5008436e-38 335 211
0.02104 0.75 0.038135 1.7024119e-38 336 211
0.022355 0.75 0.038135 1.6839726e-38 337 211
0.023669999 0.75 0.038135 1.7205972e-38 338 211
0.025051624 0.75199997 0.038236689 1.6007429e-38 339 211
0.02637013 0.75199997 0.038236689 1.3246271e-38 340 211
0.027762281 0.75400001 0.038338386 1.3891641e-38 341 211
0.029084291 0.75400001 0.038338386 1.455542e-38 342 211
0.030406307 0.75400001 0.038338386 1.8704582e-38 343 211
-0.060121801 0.76200002 0.037409119 1.0508487e-38 275 212
-0.058554318 0.759 0.03726184 1.7387496e-38 276 212
-0.05722354 0.759 0.03726184 1.8401288e-38 277 212
-0.055598196 0.755 0.037065465 1.8400922e-38 278 212
-0.054202545 0.75400001 0.037016369 1.8400922e-38 279 212
-0.052880533 0.75400001 0.037016369 1.8584591e-38 280 212
-0.051421758 0.75199997 0.036918186 1.8676786e-38 281 212
-0.050103247 0.75199997 0.036918186 1.8768982e-38 282 212
-0.048655 0.75 0.036819998 1.8861177e-38 283 212
-0.047276881 0.74900001 0.036770906 1.8953377e-38 284 212
-0.045840897 0.74699998 0.036672719 1.93218e-38 285 212
-0.044531155 0.74699998 0.036672719 1.9231402e-38 286 212
-0.04316356 0.74599999 0.036623627 1.9323958e-38 287 212
-0.04174336 0.74400002 0.036525439 1.9416153e-38 288 212
-0.040330172 0.74199998 0.036427252 1.9416153e-38 289 212
-0.0390292 0.74199998 0.036427252 1.9692383e-38 290 212
-0.037677377 0.741 0.036378156 1.9784578e-38 291 212
-0.036378156 0.741 0.036378156 2.0060086e-38 292 212
-0.035078939 0.741 0.036378156 2.0152283e-38 293 212
-0.033779722 0.741 0.036378156 2.0061523e-38 294 212
-0.032480497 0.741 0.036378156 2.0153718e-38 295 212
-0.03118128 0.741 0.036378156 1.9971122e-38 296 212
-0.029882059 0.741 0.036378156 1.9971122e-38 297 212
-0.028582839 0.741 0.036378156 1.785927e-38 298 212
-0.027283618 0.741 0.036378156 1.3249489e-38 299 212
-0.025914267 0.73900002 0.036279973 5.7038621e-39 300 212
-0.024618553 0.73900002 0.036279973 3.9521549e-39 301 212
-0.023291279 0.73799998 0.036230877 4.3216507e-39 302 212
-0.021937706 0.736 0.036132693 7.3641065e-39 303 212
-0.020647252 0.736 0.036132693 1.490722e-38 304 212
-0.019356798 0.736 0.036132693 1.8226265e-38 305 212
-0.018017253 0.73400003 0.036034506 1.997221e-38 306 212
-0.016730307 0.73400003 0.036034506 1.9788178e-38 307 212
-0.015485439 0.736 0.036132693 2.0247349e-38 308 212
-0.014194986 0.736 0.036132693 2.04321e-38 309 212
-0.012904533 0.736 0.036132693 2.0432453e-38 310 212
-0.01161408 0.736 0.036132693 2.0339899e-38 311 212
-0.010323626 0.736 0.036132693 2.0338456e-38 312 212
-0.0090331733 0.736 0.036132693 2.006187e-38 313 212
-0.0077427197 0.736 0.036132693 1.9876759e-38 314 212
-0.0064522666 0.736 0.036132693 1.9600172e-38 315 212
-0.005161813 0.736 0.036132693 1.9690563e-38 316 212
-0.0038713599 0.736 0.036132693 1.9229945e-38 317 212
-0.0025738934 0.73400003 0.036034506 1.9139191e-38 318 212
-0.0012869467 0.73400003 0.036034506 1.89548e-38 319 212
0 0.73400003 0.036034506 1.3144699e-38 320 212
0.0012869467 0.73400003 0.036034506 9.5508916e-39 321 212
0.0025738934 0.73400003 0.036034506 1.7455919e-39 322 212
0.0038555798 0.73299998 0.035985414 3.9582786e-39 323 212
0.005140773 0.73299998 0.035985414 1.2424089e-38 324 212
0.0064259665 0.73299998 0.035985414 1.5189958e-38 325 212
0.0077742799 0.73900002 0.036279973 1.8128296e-38 326 212
0.0090577193 0.73799998 0.036230877 1.7483285e-38 327 212
0.010351679 0.73799998 0.036230877 1.7941367e-38 328 212
0.01166142 0.73900002 0.036279973 1.8033922e-38 329 212
0.012957133 0.73900002 0.036279973 1.702301e-38 330 212
0.01434928 0.74400002 0.036525439 1.4625924e-38 331 212
0.015611678 0.74199998 0.036427252 9.3744177e-39 332 212
0.016912652 0.74199998 0.036427252 6.2448137e-39 333 212
0.01826272 0.74400002 0.036525439 1.104871e-38 334 212
0.019619798 0.74599999 0.036623627 1.3353601e-38 335 212
0.020955838 0.74699998 0.036672719 1.6934089e-38 336 212
0.022355 0.75 0.036819998 1.6565667e-38 337 212
0.023669999 0.75 0.036819998 1.7206701e-38 338 212
0.025051624 0.75199997 0.036918186 1.6745364e-38 339 212
0.02637013 0.75199997 0.036918186 1.5363874e-38 340 212
0.027688639 0.75199997 0.036918186 1.3151539e-38 341 212
0.029084291 0.75400001 0.037016369 1.2520253e-38 342 212
0.030406307 0.75400001 0.037016369 1.7130034e-38 343 212
0.03172832 0.75400001 0.037016369 1.7791646e-38 344 212
-0.060121801 0.76200002 0.036073081 1.3533303e-38 275 213
-0.058554318 0.759 0.035931058 1.8124331e-38 276 213
-0.057072755 0.75700003 0.03583638 1.8401278e-38 277 213
-0.055598196 0.755 0.035741698 1.8492039e-38 278 213
-0.054202545 0.75400001 0.035694357 1.8492039e-38 279 213
-0.052740261 0.75199997 0.035599679 1.8676067e-38 280 213
-0.051421758 0.75199997 0.035599679 1.8768263e-38 281 213
-0.050103247 0.75199997 0.035599679 1.8951931e-38 282 213
-0.048655 0.75 0.035505001 1.9044127e-38 283 213
-0.047276881 0.74900001 0.03545766 1.904449e-38 284 213
-0.045840897 0.74699998 0.035362978 1.9229241e-38 285 213
-0.044531155 0.74699998 0.035362978 1.9230683e-38 286 213
-0.04316356 0.74599999 0.03531564 1.9230683e-38 287 213
-0.04174336 0.74400002 0.035220962 1.950727e-38 288 213
-0.040330172 0.74199998 0.03512628 1.950727e-38 289 213
-0.0390292 0.74199998 0.03512628 1.9690942e-38 290 213
-0.037677377 0.741 0.035078939 1.9874973e-38 291 213
-0.036378156 0.741 0.035078939 1.9967169e-38 292 213
-0.035078939 0.741 0.035078939 2.0244116e-38 293 213
-0.033779722 0.741 0.035078939 1.9970046e-38 294 213
-0.032480497 0.741 0.035078939 2.0338828e-38 295 213
-0.03118128 0.741 0.035078939 2.0158403e-38 296 213
-0.029882059 0.741 0.035078939 1.7576925e-38 297 213
-0.028505694 0.73900002 0.034984261 1.1594659e-38 298 213
-0.027209979 0.73900002 0.034984261 5.9703834e-39 299 213
-0.025879199 0.73799998 0.034936916 6.4715326e-40 300 213
-0.024518613 0.736 0.034842238 2.2148237e-39 301 213
-0.023228159 0.736 0.034842238 9.2933806e-39 302 213
-0.021937706 0.736 0.034842238 1.5193901e-38 303 213
-0.020647252 0.736 0.034842238 1.8962028e-38 304 213
-0.019304199 0.73400003 0.03474756 1.8962028e-38 305 213
-0.018017253 0.73400003 0.03474756 1.9968971e-38 306 213
-0.016730307 0.73400003 0.03474756 2.0153721e-38 307 213
-0.015485439 0.736 0.034842238 2.0429945e-38 308 213
-0.014194986 0.736 0.034842238 2.0799088e-38 309 213
-0.012904533 0.736 0.034842238 2.0524662e-38 310 213
-0.01161408 0.736 0.034842238 2.0432466e-38 311 213
-0.010295574 0.73400003 0.03474756 2.0339905e-38 312 213
-0.0090086265 0.73400003 0.03474756 2.04321e-38 313 213
-0.0077216802 0.73400003 0.03474756 2.0152987e-38 314 213
-0.006434733 0.73400003 0.03474756 1.9784563e-38 315 213
-0.0051477868 0.73400003 0.03474756 1.9600172e-38 316 213
-0.0038608401 0.73400003 0.03474756 1.941542e-38 317 213
-0.0025703865 0.73299998 0.034700219 1.9689849e-38 318 213
-0.0012851933 0.73299998 0.034700219 2.0058273e-38 319 213
0 0.73299998 0.034700219 1.6463367e-38 320 213
0.0012851933 0.73299998 0.034700219 1.2868096e-38 321 213
0.0025703865 0.73299998 0.034700219 3.8570908e-39 322 213
0.0038555798 0.73299998 0.034700219 4.0407618e-39 323 213
0.005140773 0.73299998 0.034700219 7.5459964e-39 324 213
0.0064259665 0.73299998 0.034700219 1.2801147e-38 325 213
0.0077742799 0.73900002 0.034984261 1.8222297e-38 326 213
0.0090577193 0.73799998 0.034936916 1.6931559e-38 327 213
0.010351679 0.73799998 0.034936916 1.7941736e-38 328 213
0.01166142 0.73900002 0.034984261 1.7941736e-38 329 213
0.012957133 0.73900002 0.034984261 1.7759146e-38 330 213
0.014252847 0.73900002 0.034984261 1.7205972e-38 331 213
0.01559064 0.741 0.035078939 1.2040891e-38 332 213
0.016889861 0.741 0.035078939 6.7039912e-39 333 213
0.018189078 0.741 0.035078939 6.0773362e-39 334 213
0.019619798 0.74599999 0.03531564 1.0226139e-38 335 213
0.020927785 0.74599999 0.03531564 1.629269e-38 336 213
0.022355 0.75 0.035505001 1.5831712e-38 337 213
0.023669999 0.75 0.035505001 1.7114152e-38 338 213
0.025051624 0.75199997 0.035599679 1.739038e-38 339 213
0.02637013 0.75199997 0.035599679 1.6837546e-38 340 213
0.027688639 0.75199997 0.035599679 1.3425948e-38 341 213
0.029007144 0.75199997 0.035599679 1.0949655e-38 342 213
0.030325651 0.75199997 0.035599679 1.4729676e-38 343 213
0.031644158 0.75199997 0.035599679 1.5849409e-38 344 213
0.032962665 0.75199997 0.035599679 1.8799667e-38 345 213
-0.058554318 0.759 0.034600276 1.794354e-38 276 214
-0.057072755 0.75700003 0.034509107 1.775879e-38 277 214
-0.055598196 0.755 0.034417931 1.8032863e-38 278 214
-0.054202545 0.75400001 0.034372345 1.8125059e-38 279 214
-0.052740261 0.75199997 0.034281172 1.8400922e-38 280 214
-0.051421758 0.75199997 0.034281172 1.8493118e-38 281 214
-0.049969997 0.75 0.034189999 1.8400922e-38 282 214
-0.048590127 0.74900001 0.034144413 1.8585314e-38 283 214
-0.047276881 0.74900001 0.034144413 1.8678588e-38 284 214
-0.045840897 0.74699998 0.034053236 1.8770784e-38 285 214
-0.044471547 0.74599999 0.034007654 1.9047011e-38 286 214
-0.04316356 0.74599999 0.034007654 1.9139206e-38 287 214
-0.04174336 0.74400002 0.033916477 1.9231402e-38 288 214
-0.040330172 0.74199998 0.033825304 1.9323958e-38 289 214
-0.0390292 0.74199998 0.033825304 1.950692e-38 290 214
-0.037677377 0.741 0.033779722 1.9599115e-38 291 214
-0.036378156 0.741 0.033779722 1.9507999e-38 292 214
-0.035078939 0.741 0.033779722 1.9876422e-38 293 214
-0.033779722 0.741 0.033779722 1.9787822e-38 294 214
-0.032480497 0.741 0.033779722 1.9971854e-38 295 214
-0.03109712 0.73900002 0.033688545 1.7308633e-38 296 214
-0.029801406 0.73900002 0.033688545 1.3344221e-38 297 214
-0.028505694 0.73900002 0.033688545 6.4407237e-39 298 214
-0.027173158 0.73799998 0.033642959 4.6890081e-39 299 214
-0.025809066 0.736 0.033551786 3.6795239e-39 300 214
-0.024451986 0.73400003 0.033460613 8.1971098e-39 301 214
-0.023165042 0.73400003 0.033460613 1.545572e-38 302 214
-0.021878093 0.73400003 0.033460613 1.8682567e-38 303 214
-0.020591147 0.73400003 0.033460613 1.9693462e-38 304 214
-0.019304199 0.73400003 0.033460613 1.9509071e-38 305 214
-0.018017253 0.73400003 0.033460613 1.9876777e-38 306 214
-0.016730307 0.73400003 0.033460613 2.0153365e-38 307 214
-0.01544336 0.73400003 0.033460613 2.0247001e-38 308 214
-0.014156413 0.73400003 0.033460613 2.0431394e-38 309 214
-0.012869466 0.73400003 0.033460613 2.0524662e-38 310 214
-0.011566739 0.73299998 0.033415023 2.0524662e-38 311 214
-0.010281546 0.73299998 0.033415023 2.0617198e-38 312 214
-0.0089963535 0.73299998 0.033415023 2.0432448e-38 313 214
-0.0077111595 0.73299998 0.033415023 2.0430999e-38 314 214
-0.0064259665 0.73299998 0.033415023 1.9878184e-38 315 214
-0.0051477868 0.73400003 0.033460613 1.9968579e-38 316 214
-0.0038608401 0.73400003 0.033460613 1.9600156e-38 317 214
-0.0025703865 0.73299998 0.033415023 1.9690553e-38 318 214
-0.0012851933 0.73299998 0.033415023 1.9966781e-38 319 214
0 0.73299998 0.033415023 1.8309433e-38 320 214
0.0012851933 0.73299998 0.033415023 1.4990032e-38 321 214
0.0025633732 0.73100001 0.033323854 6.0611427e-39 322 214
0.00384506 0.73100001 0.033323854 4.4999393e-39 323 214
0.005140773 0.73299998 0.033415023 3.6780988e-39 324 214
0.0064259665 0.73299998 0.033415023 1.059277e-38 325 214
0.0077427197 0.736 0.033551786 1.7671291e-38 326 214
0.0090331733 0.736 0.033551786 1.6748976e-38 327 214
0.010323626 0.736 0.033551786 1.7575109e-38 328 214
0.011645639 0.73799998 0.033642959 1.7482912e-38 329 214
0.012939599 0.73799998 0.033642959 1.7758424e-38 330 214
0.014233559 0.73799998 0.033642959 1.8219401e-38 331 214
0.01554856 0.73900002 0.033688545 1.4715621e-38 332 214
0.016844273 0.73900002 0.033688545 9.1835496e-39 333 214
0.018189078 0.741 0.033779722 5.0588458e-39 334 214
0.019619798 0.74599999 0.034007654 7.9169103e-39 335 214
0.020927785 0.74599999 0.034007654 1.537361e-38 336 214
0.022265578 0.74699998 0.034053236 1.5649837e-38 337 214
0.02363844 0.74900001 0.034144413 1.6932626e-38 338 214
0.024984999 0.75 0.034189999 1.6656398e-38 339 214
0.0263 0.75 0.034189999 1.7208108e-38 340 214
0.027615 0.75 0.034189999 1.5271999e-38 341 214
0.029007144 0.75199997 0.034281172 1.3791144e-38 342 214
0.030325651 0.75199997 0.034281172 1.4436513e-38 343 214
0.031644158 0.75199997 0.034281172 1.2804763e-38 344 214
0.032962665 0.75199997 0.034281172 1.6584784e-38 345 214
0.034372345 0.75400001 0.034372345 1.8529571e-38 346 214
0.035694357 0.75400001 0.034372345 1.9819951e-38 347 214
-0.058554318 0.759 0.033269498 1.7757721e-38 276 215
-0.056921966 0.755 0.033094164 1.7665525e-38 277 215
-0.055524562 0.75400001 0.033050332 1.7939947e-38 278 215
-0.054058768 0.75199997 0.032962665 1.8216175e-38 279 215
-0.0526 0.75 0.032874998 1.8308724e-38 280 215
-0.051284999 0.75 0.032874998 1.8308724e-38 281 215
-0.049969997 0.75 0.032874998 1.8492389e-38 282 215
-0.048590127 0.74900001 0.032831166 1.8584944e-38 283 215
-0.047276881 0.74900001 0.032831166 1.8768979e-38 284 215
-0.045840897 0.74699998 0.032743499 1.8768979e-38 285 215
-0.044471547 0.74599999 0.032699663 1.8954449e-38 286 215
-0.043047838 0.74400002 0.032612 1.9046645e-38 287 215
-0.04174336 0.74400002 0.032612 1.9138843e-38 288 215
-0.040330172 0.74199998 0.032524332 1.9138843e-38 289 215
-0.038976599 0.741 0.032480497 1.9413279e-38 290 215
-0.037677377 0.741 0.032480497 1.9689865e-38 291 215
-0.036378156 0.741 0.032480497 1.9599112e-38 292 215
-0.035078939 0.741 0.032480497 1.9876058e-38 293 215
-0.033688545 0.73900002 0.032392833 1.960488e-38 294 215
-0.032392833 0.73900002 0.032392833 1.8959511e-38 295 215
-0.03109712 0.73900002 0.032392833 1.3344948e-38 296 215
-0.029801406 0.73900002 0.032392833 8.7351663e-39 297 215
-0.028389972 0.736 0.032261331 1.6577025e-39 298 215
-0.02709952 0.736 0.032261331 2.7644087e-39 299 215
-0.025738932 0.73400003 0.032173667 8.0941185e-39 300 215
-0.024451986 0.73400003 0.032173667 1.4824039e-38 301 215
-0.023165042 0.73400003 0.032173667 1.8959508e-38 302 215
-0.021878093 0.73400003 0.032173667 1.8959508e-38 303 215
-0.020591147 0.73400003 0.032173667 1.987426e-38 304 215
-0.019304199 0.73400003 0.032173667 1.987426e-38 305 215
-0.018017253 0.73400003 0.032173667 1.9783509e-38 306 215
-0.016730307 0.73400003 0.032173667 2.0151933e-38 307 215
-0.015422319 0.73299998 0.032129832 2.0245932e-38 308 215
-0.014137126 0.73299998 0.032129832 2.0706552e-38 309 215
-0.012851933 0.73299998 0.032129832 2.0433192e-38 310 215
-0.011566739 0.73299998 0.032129832 2.0617223e-38 311 215
-0.010253493 0.73100001 0.032042164 2.0434261e-38 312 215
-0.0089718066 0.73100001 0.032042164 2.0434261e-38 313 215
-0.0077111595 0.73299998 0.032129832 2.0432451e-38 314 215
-0.0064259665 0.73299998 0.032129832 2.0155504e-38 315 215
-0.005140773 0.73299998 0.032129832 2.0062223e-38 316 215
-0.0038555798 0.73299998 0.032129832 1.9785635e-38 317 215
-0.0025633732 0.73100001 0.032042164 1.9692365e-38 318 215
-0.0012816866 0.73100001 0.032042164 1.9415776e-38 319 215
0 0.73100001 0.032042164 1.9416504e-38 320 215
0.0012816866 0.73100001 0.032042164 1.7111253e-38 321 215
0.0025633732 0.73100001 0.032042164 8.7265357e-39 322 215
0.00384506 0.73100001 0.032042164 5.3264588e-39 323 215
0.005140773 0.73299998 0.032129832 0 324 215
0.0064259665 0.73299998 0.032129832 7.3745588e-39 325 215
0.0077427197 0.736 0.032261331 1.6842624e-38 326 215
0.0090331733 0.736 0.032261331 1.6565677e-38 327 215
0.010323626 0.736 0.032261331 1.7757721e-38 328 215
0.011645639 0.73799998 0.032348998 1.7665525e-38 329 215
0.012939599 0.73799998 0.032348998 1.7575481e-38 330 215
0.014233559 0.73799998 0.032348998 1.7852067e-38 331 215
0.015527519 0.73799998 0.032348998 1.6192173e-38 332 215
0.016844273 0.73900002 0.032392833 1.3057523e-38 333 215
0.018139986 0.73900002 0.032392833 5.2392868e-39 334 215
0.019619798 0.74599999 0.032699663 6.1615878e-39 335 215
0.020927785 0.74599999 0.032699663 1.3900654e-38 336 215
0.022265578 0.74699998 0.032743499 1.5099557e-38 337 215
0.02363844 0.74900001 0.032831166 1.6933371e-38 338 215
0.024951685 0.74900001 0.032831166 1.6656784e-38 339 215
0.026264934 0.74900001 0.032831166 1.7115221e-38 340 215
0.027615 0.75 0.032874998 1.693083e-38 341 215
0.028929999 0.75 0.032874998 1.6000239e-38 342 215
0.030244999 0.75 0.032874998 1.3603513e-38 343 215
0.031644158 0.75199997 0.032962665 1.1414249e-38 344 215
0.032962665 0.75199997 0.032962665 1.5102075e-38 345 215
0.034372345 0.75400001 0.033050332 1.6222155e-38 346 215
0.035694357 0.75400001 0.033050332 1.8803633e-38 347 215
0.037016369 0.75400001 0.033050332 1.9545884e-38 348 215
-0.056921966 0.755 0.031770397 1.720635e-38 277 216
-0.055524562 0.75400001 0.03172832 1.7664805e-38 278 216
-0.054058768 0.75199997 0.031644158 1.7941033e-38 279 216
-0.0526 0.75 0.03156 1.7941386e-38 280 216
-0.051284999 0.75 0.03156 1.7941386e-38 281 216
-0.049969997 0.75 0.03156 1.8033216e-38 282 216
-0.048590127 0.74900001 0.031517919 1.8125412e-38 283 216
-0.047276881 0.74900001 0.031517919 1.8400922e-38 284 216
-0.045840897 0.74699998 0.031433757 1.8493118e-38 285 216
-0.044471547 0.74599999 0.031391677 1.8586032e-38 286 216
-0.043047838 0.74400002 0.031307522 1.8678588e-38 287 216
-0.041631144 0.74199998 0.031223357 1.8954093e-38 288 216
-0.040330172 0.74199998 0.031223357 1.8954093e-38 289 216
-0.038976599 0.741 0.03118128 1.922961e-38 290 216
-0.037677377 0.741 0.03118128 1.9414001e-38 291 216
-0.036378156 0.741 0.03118128 1.9416169e-38 292 216
-0.035078939 0.741 0.03118128 1.9876788e-38 293 216
-0.033688545 0.73900002 0.03109712 1.8039718e-38 294 216
-0.032392833 0.73900002 0.03109712 1.5734827e-38 295 216
-0.031055039 0.73799998 0.031055039 8.2788755e-39 296 216
-0.029680425 0.736 0.030970879 6.158376e-39 297 216
-0.028389972 0.736 0.030970879 2.3016341e-39 298 216
-0.02702588 0.73400003 0.030886721 7.2798394e-39 299 216
-0.025738932 0.73400003 0.030886721 1.5272776e-38 300 216
-0.024451986 0.73400003 0.030886721 1.8130842e-38 301 216
-0.023165042 0.73400003 0.030886721 1.9508715e-38 302 216
-0.021878093 0.73400003 0.030886721 1.9232128e-38 303 216
-0.020563092 0.73299998 0.030844638 1.9598749e-38 304 216
-0.019277899 0.73299998 0.030844638 1.9690945e-38 305 216
-0.018017253 0.73400003 0.030886721 1.9783509e-38 306 216
-0.016707512 0.73299998 0.030844638 2.0244129e-38 307 216
-0.015422319 0.73299998 0.030844638 1.9970784e-38 308 216
-0.014137126 0.73299998 0.030844638 2.0247731e-38 309 216
-0.012816866 0.73100001 0.03076048 2.0249522e-38 310 216
-0.01153518 0.73100001 0.03076048 2.0433914e-38 311 216
-0.010253493 0.73100001 0.03076048 2.0343146e-38 312 216
-0.0089718066 0.73100001 0.03076048 2.0343146e-38 313 216
-0.00769012 0.73100001 0.03076048 2.0617208e-38 314 216
-0.006408433 0.73100001 0.03076048 2.0432816e-38 315 216
-0.0051267464 0.73100001 0.03076048 2.0338453e-38 316 216
-0.00384506 0.73100001 0.03076048 1.9970031e-38 317 216
-0.0025598668 0.73000002 0.030718399 2.006079e-38 318 216
-0.0012799334 0.73000002 0.030718399 1.9784563e-38 319 216
0 0.73000002 0.030718399 1.9876771e-38 320 216
0.0012764266 0.72799999 0.030634239 1.8493837e-38 321 216
0.0025528532 0.72799999 0.030634239 1.1030349e-38 322 216
0.0038292799 0.72799999 0.030634239 6.7039912e-39 323 216
0.0051197335 0.73000002 0.030718399 1.8367099e-40 324 216
0.0063996664 0.73000002 0.030718399 7.1847725e-39 325 216
0.0077216802 0.73400003 0.030886721 1.546149e-38 326 216
0.0090086265 0.73400003 0.030886721 1.6290891e-38 327 216
0.010323626 0.736 0.030970879 1.7757724e-38 328 216
0.01161408 0.736 0.030970879 1.7757724e-38 329 216
0.012904533 0.736 0.030970879 1.7482563e-38 330 216
0.014233559 0.73799998 0.031055039 1.775879e-38 331 216
0.015527519 0.73799998 0.031055039 1.7207048e-38 332 216
0.016844273 0.73900002 0.03109712 1.4994353e-38 333 216
0.018139986 0.73900002 0.03109712 6.9794977e-39 334 216
0.0195146 0.74199998 0.031223357 6.7039912e-39 335 216
0.020927785 0.74599999 0.031391677 1.0772126e-38 336 216
0.022265578 0.74699998 0.031433757 1.3353604e-38 337 216
0.023575317 0.74699998 0.031433757 1.6842624e-38 338 216
0.024885058 0.74699998 0.031433757 1.6473481e-38 339 216
0.026264934 0.74900001 0.031517919 1.7114515e-38 340 216
0.027578179 0.74900001 0.031517919 1.7207071e-38 341 216
0.028891427 0.74900001 0.031517919 1.7203454e-38 342 216
0.030244999 0.75 0.03156 1.5082596e-38 343 216
0.031644158 0.75199997 0.031644158 1.2230324e-38 344 216
0.032962665 0.75199997 0.031644158 1.3428867e-38 345 216
0.034372345 0.75400001 0.03172832 1.2900226e-38 346 216
0.035694357 0.75400001 0.03172832 1.7233062e-38 347 216
0.037016369 0.75400001 0.03172832 1.8714326e-38 348 216
0.038338386 0.75400001 0.03172832 1.963628e-38 349 216
-0.056921966 0.755 0.030446632 1.7022672e-38 277 217
-0.055524562 0.75400001 0.030406307 1.7297461e-38 278 217
-0.053914998 0.75 0.030244999 1.7482213e-38 279 217
-0.0526 0.75 0.030244999 1.7757355e-38 280 217
-0.051216617 0.74900001 0.030204674 1.7941386e-38 281 217
-0.04990337 0.74900001 0.030204674 1.8033219e-38 282 217
-0.048590127 0.74900001 0.030204674 1.8125414e-38 283 217
-0.047150634 0.74699998 0.030124018 1.821761e-38 284 217
-0.045840897 0.74699998 0.030124018 1.8401641e-38 285 217
-0.044471547 0.74599999 0.03008369 1.8493837e-38 286 217
-0.043047838 0.74400002 0.030003037 1.8493837e-38 287 217
-0.041631144 0.74199998 0.029922385 1.8678235e-38 288 217
-0.040330172 0.74199998 0.029922385 1.8678235e-38 289 217
-0.0390292 0.74199998 0.029922385 1.895339e-38 290 217
-0.037677377 0.741 0.029882059 1.9230336e-38 291 217
-0.036378156 0.741 0.029882059 1.9141021e-38 292 217
-0.035078939 0.741 0.029882059 1.9510164e-38 293 217
-0.033688545 0.73900002 0.029801406 1.536749e-38 294 217
-0.032348998 0.73799998 0.029761078 1.1956251e-38 295 217
-0.030970879 0.736 0.029680425 4.3209473e-39 296 217
-0.029599773 0.73400003 0.029599773 4.7819254e-39 297 217
-0.028312827 0.73400003 0.029599773 8.1809192e-39 298 217
-0.02702588 0.73400003 0.029599773 1.4726809e-38 299 217
-0.025738932 0.73400003 0.029599773 1.8592153e-38 300 217
-0.024451986 0.73400003 0.029599773 1.8592153e-38 301 217
-0.023133477 0.73299998 0.029559445 1.9598744e-38 302 217
-0.021848286 0.73299998 0.029559445 1.9506547e-38 303 217
-0.020563092 0.73299998 0.029559445 1.9598749e-38 304 217
-0.019277899 0.73299998 0.029559445 1.9690945e-38 305 217
-0.017992707 0.73299998 0.029559445 1.9690958e-38 306 217
-0.016707512 0.73299998 0.029559445 2.0151936e-38 307 217
-0.01538024 0.73100001 0.029478792 1.9787475e-38 308 217
-0.014098554 0.73100001 0.029478792 2.0063703e-38 309 217
-0.012799333 0.73000002 0.029438468 2.0065854e-38 310 217
-0.011519399 0.73000002 0.029438468 2.015805e-38 311 217
-0.010239467 0.73000002 0.029438468 2.0251319e-38 312 217
-0.0089595336 0.73000002 0.029438468 2.0343514e-38 313 217
-0.0076795998 0.73000002 0.029438468 2.0343149e-38 314 217
-0.0063996664 0.73000002 0.029438468 2.0250952e-38 315 217
-0.0051197335 0.73000002 0.029438468 2.0248435e-38 316 217
-0.0038397999 0.73000002 0.029438468 1.9971488e-38 317 217
-0.0025598668 0.73000002 0.029438468 1.969633e-38 318 217
-0.0012799334 0.73000002 0.029438468 1.9511939e-38 319 217
0 0.72799999 0.029357811 1.9786731e-38 320 217
0.0012764266 0.72799999 0.029357811 1.8680383e-38 321 217
0.0025528532 0.72799999 0.029357811 1.2967889e-38 322 217
0.0038292799 0.72799999 0.029357811 8.3581077e-39 323 217
0.0051057064 0.72799999 0.029357811 3.6734198e-40 324 217
0.0063821329 0.72799999 0.029357811 6.3546461e-39 325 217
0.0076795998 0.73000002 0.029438468 1.3803411e-38 326 217
0.0090086265 0.73400003 0.029599773 1.6200137e-38 327 217
0.010323626 0.736 0.029680425 1.7758089e-38 328 217
0.01161408 0.736 0.029680425 1.7574058e-38 329 217
0.012904533 0.736 0.029680425 1.7299614e-38 330 217
0.014233559 0.73799998 0.029761078 1.7299614e-38 331 217
0.015527519 0.73799998 0.029761078 1.7577278e-38 332 217
0.016821479 0.73799998 0.029761078 1.6839713e-38 333 217
0.018139986 0.73900002 0.029801406 9.4640994e-39 334 217
0.019488299 0.741 0.029882059 6.8876622e-39 335 217
0.02087168 0.74400002 0.030003037 7.8251099e-39 336 217
0.022235774 0.74599999 0.03008369 1.1697326e-38 337 217
0.023575317 0.74699998 0.030124018 1.6567847e-38 338 217
0.024885058 0.74699998 0.030124018 1.6014674e-38 339 217
0.026194798 0.74699998 0.030124018 1.6931923e-38 340 217
0.027578179 0.74900001 0.030204674 1.6931923e-38 341 217
0.028891427 0.74900001 0.030204674 1.7297815e-38 342 217
0.030204674 0.74900001 0.030204674 1.6837197e-38 343 217
0.03156 0.75 0.030244999 1.4068817e-38 344 217
0.032874998 0.75 0.030244999 1.1395143e-38 345 217
0.034281172 0.75199997 0.030325651 1.0404435e-38 346 217
0.035694357 0.75400001 0.030406307 1.4922021e-38 347 217
0.037016369 0.75400001 0.030406307 1.6500909e-38 348 217
0.038338386 0.75400001 0.030406307 1.8897994e-38 349 217
0.039660402 0.75400001 0.030406307 1.9546234e-38 350 217
-0.058245733 0.755 0.029122867 1.6011411e-38 276 218
-0.056846574 0.75400001 0.029084291 1.6288357e-38 277 218
-0.055524562 0.75400001 0.029084291 1.6929042e-38 278 218
-0.053914998 0.75 0.028929999 1.7297464e-38 279 218
-0.0526 0.75 0.028929999 1.7572244e-38 280 218
-0.051216617 0.74900001 0.028891427 1.784847e-38 281 218
-0.04990337 0.74900001 0.028891427 1.7848467e-38 282 218
-0.048590127 0.74900001 0.028891427 1.7940664e-38 283 218
-0.047150634 0.74699998 0.028814279 1.8033219e-38 284 218
-0.045779534 0.74599999 0.028775707 1.8033219e-38 285 218
-0.044471547 0.74599999 0.028775707 1.8126133e-38 286 218
-0.043047838 0.74400002 0.02869856 1.8126133e-38 287 218
-0.04174336 0.74400002 0.02869856 1.8493121e-38 288 218
-0.040330172 0.74199998 0.028621411 1.8493121e-38 289 218
-0.0390292 0.74199998 0.028621411 1.886155e-38 290 218
-0.037677377 0.741 0.028582839 1.9138137e-38 291 218
-0.036378156 0.741 0.028582839 1.8405257e-38 292 218
-0.035078939 0.741 0.028582839 1.729891e-38 293 218
-0.033688545 0.73900002 0.028505694 9.3769414e-39 294 218
-0.032261331 0.736 0.028389972 6.5203202e-39 295 218
-0.030970879 0.736 0.028389972 2.2094385e-39 296 218
-0.029599773 0.73400003 0.028312827 6.1738506e-39 297 218
-0.028312827 0.73400003 0.028312827 1.4720325e-38 298 218
-0.026989058 0.73299998 0.028274251 1.8039368e-38 299 218
-0.025703866 0.73299998 0.028274251 1.9510867e-38 300 218
-0.024418673 0.73299998 0.028274251 1.8681105e-38 301 218
-0.023133477 0.73299998 0.028274251 1.9322509e-38 302 218
-0.021848286 0.73299998 0.028274251 1.9414704e-38 303 218
-0.020563092 0.73299998 0.028274251 1.9597663e-38 304 218
-0.019277899 0.73299998 0.028274251 1.9689859e-38 305 218
-0.017992707 0.73299998 0.028274251 1.9598396e-38 306 218
-0.016661927 0.73100001 0.028197108 2.0059014e-38 307 218
-0.01538024 0.73100001 0.028197108 1.9877144e-38 308 218
-0.014079267 0.73000002 0.028158534 2.0153731e-38 309 218
-0.012799333 0.73000002 0.028158534 1.9973293e-38 310 218
-0.011519399 0.73000002 0.028158534 2.024952e-38 311 218
-0.010239467 0.73000002 0.028158534 2.0250596e-38 312 218
-0.0089595336 0.73000002 0.028158534 2.0343151e-38 313 218
-0.0076795998 0.73000002 0.028158534 2.0434267e-38 314 218
-0.0063996664 0.73000002 0.028158534 2.0342071e-38 315 218
-0.0051197335 0.73000002 0.028158534 2.0156602e-38 316 218
-0.0038397999 0.73000002 0.028158534 1.9695983e-38 317 218
-0.0025528532 0.72799999 0.028081384 1.9695983e-38 318 218
-0.0012764266 0.72799999 0.028081384 1.9511233e-38 319 218
0 0.72799999 0.028081384 1.8958059e-38 320 218
0.0012764266 0.72799999 0.028081384 1.831269e-38 321 218
0.0025528532 0.72799999 0.028081384 1.4534492e-38 322 218
0.0038292799 0.72799999 0.028081384 9.9247104e-39 323 218
0.0051057064 0.72799999 0.028081384 1.2856969e-39 324 218
0.0063821329 0.72799999 0.028081384 5.9819007e-39 325 218
0.0076795998 0.73000002 0.028158534 1.1963814e-38 326 218
0.0089963535 0.73299998 0.028274251 1.5374692e-38 327 218
0.010295574 0.73400003 0.028312827 1.748366e-38 328 218
0.011582521 0.73400003 0.028312827 1.7206715e-38 329 218
0.012869466 0.73400003 0.028312827 1.711667e-38 330 218
0.014194986 0.736 0.028389972 1.7024475e-38 331 218
0.015485439 0.736 0.028389972 1.7025916e-38 332 218
0.016821479 0.73799998 0.028467119 1.7302503e-38 333 218
0.018115439 0.73799998 0.028467119 1.2230693e-38 334 218
0.0194357 0.73900002 0.028505694 8.3584763e-39 335 218
0.020815572 0.74199998 0.028621411 4.0479729e-39 336 218
0.022235774 0.74599999 0.028775707 9.2109282e-39 337 218
0.023575317 0.74699998 0.028814279 1.6201589e-38 338 218
0.024885058 0.74699998 0.028814279 1.5464024e-38 339 218
0.026194798 0.74699998 0.028814279 1.6840809e-38 340 218
0.027504537 0.74699998 0.028814279 1.6840809e-38 341 218
0.028814279 0.74699998 0.028814279 1.7207068e-38 342 218
0.030124018 0.74699998 0.028814279 1.7391459e-38 343 218
0.031517919 0.74900001 0.028891427 1.5915962e-38 344 218
0.032831166 0.74900001 0.028891427 1.2965343e-38 345 218
0.034189999 0.75 0.028929999 9.4727524e-39 346 218
0.035599679 0.75199997 0.029007144 1.2330818e-38 347 218
0.036918186 0.75199997 0.029007144 1.2627968e-38 348 218
0.038236689 0.75199997 0.029007144 1.6961164e-38 349 218
0.039660402 0.75400001 0.029084291 1.8992345e-38 350 218
0.040982414 0.75400001 0.029084291 1.9545518e-38 351 218
-0.059727304 0.75700003 0.027872739 1.3258901e-38 275 219
-0.058245733 0.755 0.027799098 1.5917789e-38 276 219
-0.056846574 0.75400001 0.027762281 1.6194736e-38 277 219
-0.055524562 0.75400001 0.027762281 1.6653541e-38 278 219
-0.053914998 0.75 0.027615 1.6746095e-38 279 219
-0.0526 0.75 0.027615 1.7204913e-38 280 219
-0.051216617 0.74900001 0.027578179 1.7204913e-38 281 219
-0.04990337 0.74900001 0.027578179 1.7296743e-38 282 219
-0.048590127 0.74900001 0.027578179 1.7573328e-38 283 219
-0.047150634 0.74699998 0.027504537 1.7665525e-38 284 219
-0.045779534 0.74599999 0.027467718 1.7665525e-38 285 219
-0.044471547 0.74599999 0.027467718 1.7757368e-38 286 219
-0.043047838 0.74400002 0.027394081 1.7757368e-38 287 219
-0.041631144 0.74199998 0.027320439 1.8124711e-38 288 219
-0.040330172 0.74199998 0.027320439 1.8216907e-38 289 219
-0.0390292 0.74199998 0.027320439 1.8216904e-38 290 219
-0.037677377 0.741 0.027283618 1.8770078e-38 291 219
-0.036378156 0.741 0.027283618 1.6839376e-38 292 219
-0.034984261 0.73900002 0.027209979 1.4903269e-38 293 219
-0.033642959 0.73799998 0.027173158 5.2356995e-39 294 219
-0.032261331 0.736 0.02709952 3.6734198e-39 295 219
-0.030886721 0.73400003 0.02702588 7.4433471e-39 296 219
-0.029599773 0.73400003 0.02702588 1.2053129e-38 297 219
-0.028312827 0.73400003 0.02702588 1.7393977e-38 298 219
-0.026989058 0.73299998 0.026989058 1.8408128e-38 299 219
-0.025703866 0.73299998 0.026989058 1.9508349e-38 300 219
-0.024418673 0.73299998 0.026989058 1.9047011e-38 301 219
-0.023133477 0.73299998 0.026989058 1.9138841e-38 302 219
-0.021848286 0.73299998 0.026989058 1.9138841e-38 303 219
-0.020563092 0.73299998 0.026989058 1.913849e-38 304 219
-0.019225299 0.73100001 0.026915418 1.9414717e-38 305 219
-0.017943613 0.73100001 0.026915418 1.9323251e-38 306 219
-0.016661927 0.73100001 0.026915418 1.9415447e-38 307 219
-0.01538024 0.73100001 0.026915418 1.9600927e-38 308 219
-0.014079267 0.73000002 0.026878599 1.9877873e-38 309 219
-0.012799333 0.73000002 0.026878599 1.9787839e-38 310 219
-0.011519399 0.73000002 0.026878599 2.0064785e-38 311 219
-0.010239467 0.73000002 0.026878599 2.0065501e-38 312 219
-0.0089595336 0.73000002 0.026878599 2.0157697e-38 313 219
-0.0076795998 0.73000002 0.026878599 2.0066573e-38 314 219
-0.0063996664 0.73000002 0.026878599 1.9790346e-38 315 219
-0.0051197335 0.73000002 0.026878599 1.9788548e-38 316 219
-0.0038397999 0.73000002 0.026878599 1.932757e-38 317 219
-0.0025528532 0.72799999 0.026804959 1.9143179e-38 318 219
-0.0012764266 0.72799999 0.026804959 1.8774396e-38 319 219
0 0.72799999 0.026804959 1.8403812e-38 320 219
0.0012764266 0.72799999 0.026804959 1.7942834e-38 321 219
0.0025528532 0.72799999 0.026804959 1.4720675e-38 322 219
0.0038292799 0.72799999 0.026804959 1.0110894e-38 323 219
0.0051057064 0.72799999 0.026804959 1.2856969e-39 324 219
0.0063821329 0.72799999 0.026804959 5.0595843e-39 325 219
0.0076585598 0.72799999 0.026804959 1.122517e-38 326 219
0.0089718066 0.73100001 0.026915418 1.5373973e-38 327 219
0.010281546 0.73299998 0.026989058 1.7300708e-38 328 219
0.011582521 0.73400003 0.02702588 1.6931926e-38 329 219
0.012869466 0.73400003 0.02702588 1.6840453e-38 330 219
0.014194986 0.736 0.02709952 1.6840453e-38 331 219
0.015485439 0.736 0.02709952 1.7116683e-38 332 219
0.016821479 0.73799998 0.027173158 1.7762052e-38 333 219
0.018115439 0.73799998 0.027173158 1.3892738e-38 334 219
0.0194357 0.73900002 0.027209979 1.0020521e-38 335 219
0.020815572 0.74199998 0.027320439 3.2142592e-39 336 219
0.022235774 0.74599999 0.027467718 8.0981164e-39 337 219
0.023543758 0.74599999 0.027467718 1.5097412e-38 338 219
0.024885058 0.74699998 0.027504537 1.5373638e-38 339 219
0.026194798 0.74699998 0.027504537 1.7023415e-38 340 219
0.027504537 0.74699998 0.027504537 1.7023415e-38 341 219
0.028814279 0.74699998 0.027504537 1.70234e-38 342 219
0.030124018 0.74699998 0.027504537 1.720779e-38 343 219
0.031433757 0.74699998 0.027504537 1.6747515e-38 344 219
0.032743499 0.74699998 0.027504537 1.5087995e-38 345 219
0.034053236 0.74699998 0.027504537 1.0939936e-38 346 219
0.035362978 0.74699998 0.027504537 1.0110174e-38 347 219
0.036672719 0.74699998 0.027504537 1.0039985e-38 348 219
0.03798246 0.74699998 0.027504537 1.4649767e-38 349 219
0.039292198 0.74699998 0.027504537 1.7607252e-38 350 219
0.040982414 0.75400001 0.027762281 1.9635915e-38 351 219
