# .PCD v.7 - Point Cloud Data file format
FIELDS x y z rgb imX imY
SIZE 4 4 4 4 4 4
TYPE F F F F F F
COUNT 1 1 1 1 1 1
WIDTH 845
HEIGHT 1
VIEWPOINT 0 0 0 1 0 0 0
POINTS 845
DATA ascii
-0.01527504 0.792 0.018052319 8.1773052e-39 309 227
-0.013851333 0.79000002 0.018006733 8.0015277e-39 310 227
-0.012450419 0.78899997 0.017983939 9.752886e-39 311 227
-0.011067039 0.78899997 0.017983939 1.0401871e-38 312 227
-0.0096836593 0.78899997 0.017983939 1.0401871e-38 313 227
-0.0083002793 0.78899997 0.017983939 1.0953991e-38 314 227
-0.0069168997 0.78899997 0.017983939 1.0585567e-38 315 227
-0.0055335197 0.78899997 0.017983939 1.0491943e-38 316 227
-0.0041396199 0.787 0.017938353 1.0215357e-38 317 227
-0.0027597465 0.787 0.017938353 9.1090244e-39 318 227
-0.0013798733 0.787 0.017938353 8.0952326e-39 319 227
0 0.787 0.017938353 8.3916338e-40 320 227
0.0013763667 0.78500003 0.017892767 5.632976e-39 321 227
-0.022330454 0.796 0.01674784 1.4187287e-38 304 228
-0.020829599 0.792 0.01666368 1.1974591e-38 305 228
-0.01944096 0.792 0.01666368 9.9412303e-39 306 228
-0.018052319 0.792 0.01666368 7.1753656e-39 307 228
-0.016621601 0.79000002 0.016621601 7.5409195e-39 308 228
-0.015236467 0.79000002 0.016621601 8.3706802e-39 309 228
-0.013851333 0.79000002 0.016621601 8.8334716e-39 310 228
-0.012450419 0.78899997 0.016600559 9.7557881e-39 311 228
-0.011067039 0.78899997 0.016600559 1.0402249e-38 312 228
-0.0096836593 0.78899997 0.016600559 1.0125662e-38 313 228
-0.0082792398 0.787 0.01655848 9.9423597e-39 314 228
-0.0068993662 0.787 0.01655848 9.9423597e-39 315 228
-0.005519493 0.787 0.01655848 1.0953272e-38 316 228
-0.0041396199 0.787 0.01655848 1.0953272e-38 317 228
-0.0027597465 0.787 0.01655848 1.0215354e-38 318 228
-0.0013798733 0.787 0.01655848 9.3855916e-39 319 228
0 0.787 0.01655848 5.5231212e-39 320 228
0.0013763667 0.78500003 0.016516401 4.9699488e-39 321 228
0.0027527334 0.78500003 0.016516401 4.443083e-39 322 228
-0.023726106 0.796 0.015352187 7.3615856e-39 303 229
-0.022274347 0.79400003 0.015313613 7.2585915e-39 304 229
-0.020829599 0.792 0.01527504 8.0883396e-39 305 229
-0.019391866 0.79000002 0.015236467 8.7383921e-39 306 229
-0.018006733 0.79000002 0.015236467 9.4759572e-39 307 229
-0.016621601 0.79000002 0.015236467 9.663605e-39 308 229
-0.015236467 0.79000002 0.015236467 1.0032748e-38 309 229
-0.013833799 0.78899997 0.015217179 9.7565265e-39 310 229
-0.012450419 0.78899997 0.015217179 9.7565265e-39 311 229
-0.011067039 0.78899997 0.015217179 9.7568825e-39 312 229
-0.0096591124 0.787 0.015178605 9.5721325e-39 313 229
-0.0082792398 0.787 0.015178605 9.7550818e-39 314 229
-0.0068993662 0.787 0.015178605 1.0308256e-38 315 229
-0.005519493 0.787 0.015178605 1.1600795e-38 316 229
-0.0041396199 0.787 0.015178605 1.1969219e-38 317 229
-0.0027597465 0.787 0.015178605 1.085963e-38 318 229
-0.0013798733 0.787 0.015178605 9.9376752e-39 319 229
0 0.78500003 0.015140033 9.0189643e-39 320 229
0.0013763667 0.78500003 0.015140033 8.2813993e-39 321 229
0.0027527334 0.78500003 0.015140033 3.8801674e-39 322 229
-0.02512176 0.796 0.013956533 8.2828006e-39 302 230
-0.023666494 0.79400003 0.013921468 6.9920618e-39 303 230
-0.022218239 0.792 0.0138864 8.4607304e-39 304 230
-0.020777 0.79000002 0.013851333 9.1982955e-39 305 230
-0.019367319 0.78899997 0.013833799 9.5685382e-39 306 230
-0.017983939 0.78899997 0.013833799 9.8451264e-39 307 230
-0.016600559 0.78899997 0.013833799 9.7565293e-39 308 230
-0.015217179 0.78899997 0.013833799 9.7565293e-39 309 230
-0.013833799 0.78899997 0.013833799 9.5728542e-39 310 230
-0.012450419 0.78899997 0.013833799 9.2966274e-39 311 230
-0.011038986 0.787 0.013798732 9.8469243e-39 312 230
-0.0096591124 0.787 0.013798732 9.8469243e-39 313 230
-0.0082792398 0.787 0.013798732 1.0126025e-38 314 230
-0.0068993662 0.787 0.013798732 1.0402972e-38 315 230
-0.005519493 0.787 0.013798732 1.1142338e-38 316 230
-0.0041396199 0.787 0.013798732 1.1695153e-38 317 230
-0.0027527334 0.78500003 0.013763667 1.1320963e-38 318 230
-0.0013763667 0.78500003 0.013763667 1.0306809e-38 319 230
0 0.78500003 0.013763667 9.2047821e-39 320 230
0.0013763667 0.78500003 0.013763667 8.9278351e-39 321 230
0.0027527334 0.78500003 0.013763667 7.1844348e-39 322 230
-0.026517414 0.796 0.01256088 3.8617894e-39 301 231
-0.02512176 0.796 0.01256088 7.3562004e-39 302 231
-0.02360688 0.792 0.012497759 9.3845042e-39 303 231
-0.022218239 0.792 0.012497759 9.6614639e-39 304 231
-0.0207507 0.78899997 0.012450419 9.6614639e-39 305 231
-0.019367319 0.78899997 0.012450419 9.4788677e-39 306 231
-0.017983939 0.78899997 0.012450419 9.7550944e-39 307 231
-0.01655848 0.787 0.01241886 9.5728542e-39 308 231
-0.015178605 0.787 0.01241886 9.4806585e-39 309 231
-0.013798732 0.787 0.01241886 9.6632519e-39 310 231
-0.01241886 0.787 0.01241886 9.3870252e-39 311 231
-0.011038986 0.787 0.01241886 9.6632519e-39 312 231
-0.0096591124 0.787 0.01241886 1.012459e-38 313 231
-0.0082582003 0.78500003 0.0123873 1.0955435e-38 314 231
-0.0068818335 0.78500003 0.0123873 1.233873e-38 315 231
-0.0055054668 0.78500003 0.0123873 1.21583e-38 316 231
-0.0041291001 0.78500003 0.0123873 1.2065746e-38 317 231
-0.0027527334 0.78500003 0.0123873 1.169084e-38 318 231
-0.0013728599 0.78299999 0.012355739 1.0768523e-38 319 231
0 0.78299999 0.012355739 9.8469243e-39 320 231
0.0013728599 0.78299999 0.012355739 9.8469243e-39 321 231
0.0027457199 0.78299999 0.012355739 8.8378297e-39 322 231
0.0041185799 0.78299999 0.012355739 8.3772117e-39 323 231
-0.029235078 0.79400003 0.011137174 3.4206396e-39 299 232
-0.027842935 0.79400003 0.011137174 5.8868633e-39 300 232
-0.026450787 0.79400003 0.011137174 7.4545477e-39 301 232
-0.02512176 0.796 0.011165227 9.3859448e-39 302 232
-0.02360688 0.792 0.011109119 9.5703374e-39 303 232
-0.022162134 0.79000002 0.011081067 9.385942e-39 304 232
-0.0207507 0.78899997 0.011067039 9.4781376e-39 305 232
-0.019367319 0.78899997 0.011067039 9.3877412e-39 306 232
-0.017938353 0.787 0.011038986 9.4799369e-39 307 232
-0.01655848 0.787 0.011038986 9.6625302e-39 308 232
-0.015178605 0.787 0.011038986 9.6625302e-39 309 232
-0.013798732 0.787 0.011038986 9.5699675e-39 310 232
-0.01241886 0.787 0.011038986 9.4777718e-39 311 232
-0.011038986 0.787 0.011038986 1.0029497e-38 312 232
-0.0096591124 0.787 0.011038986 1.0121694e-38 313 232
-0.0082582003 0.78500003 0.011010934 1.1878824e-38 314 232
-0.0068642995 0.78299999 0.010982879 1.5843236e-38 315 232
-0.0054914397 0.78299999 0.010982879 1.4651542e-38 316 232
-0.0041185799 0.78299999 0.010982879 1.2992381e-38 317 232
-0.0027457199 0.78299999 0.010982879 1.1873786e-38 318 232
-0.0013728599 0.78299999 0.010982879 1.0859274e-38 319 232
0 0.78299999 0.010982879 9.6643309e-39 320 232
0.0013728599 0.78299999 0.010982879 9.2955484e-39 321 232
0.0027457199 0.78299999 0.010982879 9.2037381e-39 322 232
0.0041185799 0.78299999 0.010982879 9.1115425e-39 323 232
0.0054914397 0.78299999 0.010982879 6.5423346e-39 324 232
-0.030704373 0.796 0.0097695729 1.5770883e-38 298 233
-0.029235078 0.79400003 0.0097450269 2.6791033e-39 299 233
-0.027842935 0.79400003 0.0097450269 6.5275467e-39 300 233
-0.026450787 0.79400003 0.0097450269 9.8465894e-39 301 233
-0.024995519 0.792 0.0097204801 9.7547287e-39 302 233
-0.02360688 0.792 0.0097204801 9.5703374e-39 303 233
-0.022162134 0.79000002 0.0096959332 9.5703234e-39 304 233
-0.0206981 0.787 0.0096591124 9.662519e-39 305 233
-0.019318225 0.787 0.0096591124 9.6621673e-39 306 233
-0.017938353 0.787 0.0096591124 9.8461984e-39 307 233
-0.016516401 0.78500003 0.0096345674 9.7529294e-39 308 233
-0.015140033 0.78500003 0.0096345674 9.6607338e-39 309 233
-0.013763667 0.78500003 0.0096345674 9.5688913e-39 310 233
-0.0123873 0.78500003 0.0096345674 9.5688913e-39 311 233
-0.010982879 0.78299999 0.0096100196 9.2951785e-39 312 233
-0.0096100196 0.78299999 0.0096100196 9.8483522e-39 313 233
-0.0082161194 0.78100002 0.0095854728 1.1511856e-38 314 233
-0.0068467669 0.78100002 0.0095854728 1.5199681e-38 315 233
-0.0054774131 0.78100002 0.0095854728 1.5019253e-38 316 233
-0.0041185799 0.78299999 0.0096100196 1.3359732e-38 317 233
-0.0027387065 0.78100002 0.0095854728 1.2242193e-38 318 233
-0.0013693533 0.78100002 0.0095854728 1.0951454e-38 319 233
0 0.78100002 0.0095854728 1.0030574e-38 320 233
0.0013693533 0.78100002 0.0095854728 1.0030574e-38 321 233
0.0027387065 0.78100002 0.0095854728 8.9292994e-39 322 233
0.0041080597 0.78100002 0.0095854728 9.0214951e-39 323 233
0.0054914397 0.78299999 0.0096100196 8.101729e-39 324 233
0.0068642995 0.78299999 0.0096100196 9.024044e-39 325 233
-0.032100026 0.796 0.0083739199 1.7339303e-38 297 234
-0.030704373 0.796 0.0083739199 1.4570542e-38 298 234
-0.029308718 0.796 0.0083739199 4.3371855e-39 299 234
-0.027913066 0.796 0.0083739199 8.0026782e-39 300 234
-0.026517414 0.796 0.0083739199 9.8465894e-39 301 234
-0.024995519 0.792 0.0083318399 9.6618142e-39 302 234
-0.023547266 0.79000002 0.0083108004 9.6618142e-39 303 234
-0.022134079 0.78899997 0.0083002793 9.5699703e-39 304 234
-0.0206981 0.787 0.0082792398 9.3852203e-39 305 234
-0.019269135 0.78500003 0.0082582003 9.5706877e-39 306 234
-0.017892767 0.78500003 0.0082582003 9.755079e-39 307 234
-0.01647432 0.78299999 0.0082371598 9.8458285e-39 308 234
-0.01510146 0.78299999 0.0082371598 9.6614372e-39 309 234
-0.013728599 0.78299999 0.0082371598 9.5695947e-39 310 234
-0.012355739 0.78299999 0.0082371598 9.5695947e-39 311 234
-0.010954826 0.78100002 0.0082161194 9.7543363e-39 312 234
-0.0095854728 0.78100002 0.0082161194 9.938729e-39 313 234
-0.0082161194 0.78100002 0.0082161194 9.4853276e-39 314 234
-0.0068467669 0.78100002 0.0082161194 1.1052655e-38 315 234
-0.0054774131 0.78100002 0.0082161194 1.2710046e-38 316 234
-0.0041080597 0.78100002 0.0082161194 1.4830904e-38 317 234
-0.0027387065 0.78100002 0.0082161194 1.3078443e-38 318 234
-0.0013675999 0.77999997 0.0082055992 1.1326366e-38 319 234
0 0.77999997 0.0082055992 9.2022612e-39 320 234
0.0013693533 0.78100002 0.0082161194 9.3862923e-39 321 234
0.0027351999 0.77999997 0.0082055992 8.9289309e-39 322 234
0.0041027996 0.77999997 0.0082055992 9.1136809e-39 323 234
0.0054774131 0.78100002 0.0082161194 9.5732465e-39 324 234
0.0068467669 0.78100002 0.0082161194 1.0310812e-38 325 234
0.0082161194 0.78100002 0.0082161194 8.7629415e-39 326 234
-0.032100026 0.796 0.0069782664 1.5956012e-38 297 235
-0.030704373 0.796 0.0069782664 1.0705162e-38 298 235
-0.029308718 0.796 0.0069782664 2.684141e-39 299 235
-0.027913066 0.796 0.0069782664 8.1899463e-39 300 235
-0.02638416 0.792 0.0069431998 9.2037381e-39 301 235
-0.024932399 0.79000002 0.0069256667 9.4777845e-39 302 235
-0.023547266 0.79000002 0.0069256667 9.3855888e-39 303 235
-0.022134079 0.78899997 0.0069168997 1.0584492e-38 304 235
-0.020645501 0.78500003 0.0068818335 1.1413893e-38 305 235
-0.019269135 0.78500003 0.0068818335 1.1319885e-38 306 235
-0.017847179 0.78299999 0.0068642995 1.0674516e-38 307 235
-0.01647432 0.78299999 0.0068642995 1.0031649e-38 308 235
-0.015062887 0.78100002 0.0068467669 9.6628666e-39 309 235
-0.013693534 0.78100002 0.0068467669 9.7532643e-39 310 235
-0.01232418 0.78100002 0.0068467669 9.6610687e-39 311 235
-0.010954826 0.78100002 0.0068467669 9.3855734e-39 312 235
-0.0095854728 0.78100002 0.0068467669 9.477769e-39 313 235
-0.0082161194 0.78100002 0.0068467669 8.834573e-39 314 235
-0.0068467669 0.78100002 0.0068467669 9.4795837e-39 315 235
-0.0054774131 0.78100002 0.0068467669 1.0223285e-38 316 235
-0.0041027996 0.77999997 0.0068379994 1.4095502e-38 317 235
-0.0027351999 0.77999997 0.0068379994 1.3636318e-38 318 235
-0.0013675999 0.77999997 0.0068379994 1.234558e-38 319 235
0 0.77999997 0.0068379994 1.0398655e-38 320 235
0.0013675999 0.77999997 0.0068379994 9.3845042e-39 321 235
0.0027281865 0.778 0.0068204664 8.9300057e-39 322 235
0.0040922803 0.778 0.0068204664 8.7459746e-39 323 235
0.0054774131 0.78100002 0.0068467669 8.6548859e-39 324 235
0.0068467669 0.78100002 0.0068467669 9.8534291e-39 325 235
0.0082161194 0.78100002 0.0068467669 9.5858694e-39 326 235
-0.030704373 0.796 0.0055826134 6.2811999e-39 298 236
-0.029308718 0.796 0.0055826134 1.763614e-39 299 236
-0.027842935 0.79400003 0.0055685868 8.6519895e-39 300 236
-0.02638416 0.792 0.0055545596 8.9289365e-39 301 236
-0.024932399 0.79000002 0.0055405335 9.2022794e-39 302 236
-0.023517458 0.78899997 0.0055335197 9.386672e-39 303 236
-0.022077972 0.787 0.005519493 1.1602975e-38 304 236
-0.0205929 0.78299999 0.0054914397 1.3723475e-38 305 236
-0.019220039 0.78299999 0.0054914397 1.215326e-38 306 236
-0.017801592 0.78100002 0.0054774131 1.0401902e-38 307 236
-0.016432239 0.78100002 0.0054774131 1.040152e-38 308 236
-0.015062887 0.78100002 0.0054774131 9.940901e-39 309 236
-0.013693534 0.78100002 0.0054774131 9.9380283e-39 310 236
-0.01232418 0.78100002 0.0054774131 9.66144e-39 311 236
-0.010940799 0.77999997 0.0054703997 9.3845014e-39 312 236
-0.0095731998 0.77999997 0.0054703997 9.3845014e-39 313 236
-0.0082161194 0.78100002 0.0054774131 9.3873909e-39 314 236
-0.0068467669 0.78100002 0.0054774131 1.003276e-38 315 236
-0.0054703997 0.77999997 0.0054703997 9.9481401e-39 316 236
-0.0041027996 0.77999997 0.0054703997 1.2437422e-38 317 236
-0.0027351999 0.77999997 0.0054703997 1.3268985e-38 318 236
-0.0013640933 0.778 0.0054563731 1.3822157e-38 319 236
0 0.778 0.0054563731 1.0677411e-38 320 236
0.0013640933 0.778 0.0054563731 9.4788677e-39 321 236
0.0027281865 0.778 0.0054563731 8.838889e-39 322 236
0.0040922803 0.778 0.0054563731 8.6541391e-39 323 236
0.0054703997 0.77999997 0.0054703997 8.1020667e-39 324 236
0.0068379994 0.77999997 0.0054703997 9.4850011e-39 325 236
0.0081845606 0.778 0.0054563731 9.4940227e-39 326 236
0.0095486529 0.778 0.0054563731 1.3735023e-38 327 236
-0.030627226 0.79400003 0.0041764397 5.8991008e-39 298 237
-0.029235078 0.79400003 0.0041764397 4.8845887e-39 299 237
-0.027772799 0.792 0.00416592 9.3866692e-39 300 237
-0.026317533 0.79000002 0.0041554002 9.3866692e-39 301 237
-0.024900839 0.78899997 0.0041501396 9.294475e-39 302 237
-0.023457846 0.787 0.0041396199 9.2022794e-39 303 237
-0.022021867 0.78500003 0.0041291001 1.0128568e-38 304 237
-0.0205929 0.78299999 0.0041185799 1.2249427e-38 305 237
-0.019170946 0.78100002 0.0041080597 1.1691931e-38 306 237
-0.017801592 0.78100002 0.0041080597 1.1968518e-38 307 237
-0.016432239 0.78100002 0.0041080597 1.261207e-38 308 237
-0.015062887 0.78100002 0.0041080597 1.1321331e-38 309 237
-0.013693534 0.78100002 0.0041080597 1.0213542e-38 310 237
-0.01232418 0.78100002 0.0041080597 9.8447593e-39 311 237
-0.010940799 0.77999997 0.0041027996 9.3852231e-39 312 237
-0.0095731998 0.77999997 0.0041027996 9.2008318e-39 313 237
-0.0082055992 0.77999997 0.0041027996 9.2944722e-39 314 237
-0.0068379994 0.77999997 0.0041027996 1.040082e-38 315 237
-0.0054703997 0.77999997 0.0041027996 1.1143071e-38 316 237
-0.0040922803 0.778 0.0040922803 1.1512212e-38 317 237
-0.0027281865 0.778 0.0040922803 1.1054118e-38 318 237
-0.0013640933 0.778 0.0040922803 1.14229e-38 319 237
0 0.778 0.0040922803 9.2037255e-39 320 237
0.0013640933 0.778 0.0040922803 9.2037255e-39 321 237
0.0027281865 0.778 0.0040922803 8.8392548e-39 322 237
0.0040922803 0.778 0.0040922803 8.8392548e-39 323 237
0.0054703997 0.77999997 0.0041027996 8.1027856e-39 324 237
0.0068379994 0.77999997 0.0041027996 8.748155e-39 325 237
0.0081845606 0.778 0.0040922803 9.1241598e-39 326 237
0.0095486529 0.778 0.0040922803 1.2996376e-38 327 237
-0.030627226 0.79400003 0.0027842934 6.9053368e-39 298 238
-0.029161438 0.792 0.0027772798 7.0893693e-39 299 238
-0.027702667 0.79000002 0.0027702667 9.9373277e-39 300 238
-0.026284218 0.78899997 0.0027667598 9.7525763e-39 301 238
-0.024900839 0.78899997 0.0027667598 9.1111599e-39 302 238
-0.023457846 0.787 0.0027597465 9.0189643e-39 303 238
-0.022021867 0.78500003 0.0027527334 8.9267785e-39 304 238
-0.020540299 0.78100002 0.0027387065 9.5721479e-39 305 238
-0.019170946 0.78100002 0.0027387065 1.2340543e-38 306 238
-0.017801592 0.78100002 0.0027387065 1.3815675e-38 307 238
-0.016432239 0.78100002 0.0027387065 1.2616402e-38 308 238
-0.015062887 0.78100002 0.0027387065 1.0865045e-38 309 238
-0.013675999 0.77999997 0.0027351999 9.8458453e-39 310 238
-0.012308398 0.77999997 0.0027351999 9.4774215e-39 311 238
-0.010940799 0.77999997 0.0027351999 9.3852231e-39 312 238
-0.0095731998 0.77999997 0.0027351999 9.3852231e-39 313 238
-0.0082055992 0.77999997 0.0027351999 9.2955456e-39 314 238
-0.0068379994 0.77999997 0.0027351999 1.067848e-38 315 238
-0.0054703997 0.77999997 0.0027351999 1.1142335e-38 316 238
-0.0040922803 0.778 0.0027281865 1.040477e-38 317 238
-0.0027281865 0.778 0.0027281865 9.3898922e-39 318 238
-0.0013640933 0.778 0.0027281865 8.9289155e-39 319 238
0 0.778 0.0027281865 8.1909959e-39 320 238
0.0013640933 0.778 0.0027281865 8.9289211e-39 321 238
0.0027281865 0.778 0.0027281865 9.3013119e-39 322 238
0.0040922803 0.778 0.0027281865 9.0243663e-39 323 238
0.0054703997 0.77999997 0.0027351999 8.1967819e-39 324 238
0.0068379994 0.77999997 0.0027351999 8.1967819e-39 325 238
0.0082055992 0.77999997 0.0027351999 8.5691923e-39 326 238
0.0095731998 0.77999997 0.0027351999 1.1980432e-38 327 238
-0.032100026 0.796 0.0013956534 1.0422464e-38 297 239
-0.030627226 0.79400003 0.0013921467 7.6414599e-39 298 239
-0.029161438 0.792 0.0013886399 7.6414599e-39 299 239
-0.027702667 0.79000002 0.0013851334 9.845132e-39 300 239
-0.026284218 0.78899997 0.0013833799 9.845132e-39 301 239
-0.024837719 0.787 0.0013798733 9.2022766e-39 302 239
-0.023398234 0.78500003 0.0013763667 9.2944722e-39 303 239
-0.021965759 0.78299999 0.0013728599 9.5674662e-39 304 239
-0.020540299 0.78100002 0.0013693533 1.1042596e-38 305 239
-0.019170946 0.78100002 0.0013693533 1.4833417e-38 306 239
-0.017801592 0.78100002 0.0013693533 1.3911459e-38 307 239
-0.016432239 0.78100002 0.0013693533 9.9445304e-39 308 239
-0.0150436 0.77999997 0.0013675999 8.6537915e-39 309 239
-0.013675999 0.77999997 0.0013675999 8.9267687e-39 310 239
-0.012308398 0.77999997 0.0013675999 9.0189643e-39 311 239
-0.010940799 0.77999997 0.0013675999 9.479218e-39 312 239
-0.0095731998 0.77999997 0.0013675999 9.6632491e-39 313 239
-0.0082055992 0.77999997 0.0013675999 1.0220739e-38 314 239
-0.0068379994 0.77999997 0.0013675999 1.2249401e-38 315 239
-0.0054563731 0.778 0.0013640933 1.2712547e-38 316 239
-0.0040922803 0.778 0.0013640933 1.2896939e-38 317 239
-0.0027281865 0.778 0.0013640933 1.2340878e-38 318 239
-0.0013640933 0.778 0.0013640933 1.1695509e-38 319 239
0 0.778 0.0013640933 1.0867909e-38 320 239
0.0013640933 0.778 0.0013640933 1.0499487e-38 321 239
0.0027281865 0.778 0.0013640933 8.754622e-39 322 239
0.0040922803 0.778 0.0013640933 7.9248613e-39 323 239
0.0054703997 0.77999997 0.0013675999 8.3790221e-39 324 239
0.0068379994 0.77999997 0.0013675999 7.7336527e-39 325 239
0.0081845606 0.778 0.0013640933 7.0955028e-39 326 239
0.0095486529 0.778 0.0013640933 1.0138317e-38 327 239
-0.032019373 0.79400003 -0 1.0145154e-38 297 240
-0.030550079 0.792 -0 7.0897224e-39 298 240
-0.029161438 0.792 -0 7.2744724e-39 299 240
-0.027702667 0.79000002 -0 9.9380437e-39 300 240
-0.026284218 0.78899997 -0 9.56962e-39 301 240
-0.024837719 0.787 -0 9.1111627e-39 302 240
-0.023398234 0.78500003 -0 9.2951953e-39 303 240
-0.021965759 0.78299999 -0 9.3863189e-39 304 240
-0.020540299 0.78100002 -0 1.1414623e-38 305 240
-0.0191464 0.77999997 -0 1.5111802e-38 306 240
-0.017778799 0.77999997 -0 1.3360085e-38 307 240
-0.016411198 0.77999997 -0 8.5583561e-39 308 240
-0.0150436 0.77999997 -0 8.1892134e-39 309 240
-0.013675999 0.77999997 -0 9.3855888e-39 310 240
-0.012308398 0.77999997 -0 9.5703402e-39 311 240
-0.010912746 0.778 -0 9.1125991e-39 312 240
-0.0095486529 0.778 -0 9.7579685e-39 313 240
-0.0082055992 0.77999997 -0 1.0681374e-38 314 240
-0.0068379994 0.77999997 -0 1.3262851e-38 315 240
-0.0054563731 0.778 -0 1.3727792e-38 316 240
-0.0040922803 0.778 -0 1.4741943e-38 317 240
-0.0027281865 0.778 -0 1.4188401e-38 318 240
-0.0013640933 0.778 -0 1.3635227e-38 319 240
0 0.778 -0 1.2896216e-38 320 240
0.0013640933 0.778 -0 1.1789869e-38 321 240
0.0027281865 0.778 -0 9.3027609e-39 322 240
0.0040922803 0.778 -0 8.4726401e-39 323 240
0.0054703997 0.77999997 -0 8.3800969e-39 324 240
0.0068379994 0.77999997 -0 7.6421732e-39 325 240
0.0081845606 0.778 -0 6.9100283e-39 326 240
0.0095486529 0.778 -0 9.4911472e-39 327 240
0.010940799 0.77999997 -0 1.1803969e-38 328 240
-0.032019373 0.79400003 -0.0013921467 9.6834474e-39 297 241
-0.030550079 0.792 -0.0013886399 6.7209329e-39 298 241
-0.029087799 0.79000002 -0.0013851334 7.5503335e-39 299 241
-0.027702667 0.79000002 -0.0013851334 9.6621827e-39 300 241
-0.026284218 0.78899997 -0.0013833799 9.5699871e-39 301 241
-0.024837719 0.787 -0.0013798733 9.2944722e-39 302 241
-0.023398234 0.78500003 -0.0013763667 9.2944722e-39 303 241
-0.021965759 0.78299999 -0.0013728599 9.6643337e-39 304 241
-0.020540299 0.78100002 -0.0013693533 1.2061061e-38 305 241
-0.0191464 0.77999997 -0.0013675999 1.4835938e-38 306 241
-0.017778799 0.77999997 -0.0013675999 1.3268611e-38 307 241
-0.016411198 0.77999997 -0.0013675999 9.0171819e-39 308 241
-0.0150436 0.77999997 -0.0013675999 9.0171819e-39 309 241
-0.013640933 0.778 -0.0013640933 9.2948281e-39 310 241
-0.012276839 0.778 -0.0013640933 9.2022738e-39 311 241
-0.010912746 0.778 -0.0013640933 9.3880915e-39 312 241
-0.0095486529 0.778 -0.0013640933 9.2958945e-39 313 241
-0.0081845606 0.778 -0.0013640933 1.0220389e-38 314 241
-0.0068204664 0.778 -0.0013640933 1.3724181e-38 315 241
-0.0054283198 0.77399999 -0.0013570799 1.4373165e-38 316 241
-0.0040712398 0.77399999 -0.0013570799 1.4557556e-38 317 241
-0.0027211732 0.77600002 -0.0013605866 1.4283114e-38 318 241
-0.0013605866 0.77600002 -0.0013605866 1.3730299e-38 319 241
0 0.77600002 -0.0013605866 1.3448671e-38 320 241
0.0013640933 0.778 -0.0013640933 1.1788789e-38 321 241
0.0027281865 0.778 -0.0013640933 9.5786219e-39 322 241
0.0040922803 0.778 -0.0013640933 8.8410569e-39 323 241
0.0054703997 0.77999997 -0.0013675999 8.2878957e-39 324 241
0.0068204664 0.778 -0.0013640933 7.8272777e-39 325 241
0.0081845606 0.778 -0.0013640933 7.1840901e-39 326 241
0.0095486529 0.778 -0.0013640933 8.6592216e-39 327 241
0.010912746 0.778 -0.0013640933 1.0971688e-38 328 241
-0.031938717 0.792 -0.0027772798 1.0051863e-38 297 242
-0.030550079 0.792 -0.0027772798 7.5478097e-39 298 242
-0.029087799 0.79000002 -0.0027702667 8.3779305e-39 299 242
-0.027702667 0.79000002 -0.0027702667 9.8469271e-39 300 242
-0.026284218 0.78899997 -0.0027667598 9.5703402e-39 301 242
-0.024837719 0.787 -0.0027597465 9.2951925e-39 302 242
-0.023398234 0.78500003 -0.0027527334 9.3873881e-39 303 242
-0.021965759 0.78299999 -0.0027457199 1.0587732e-38 304 242
-0.020540299 0.78100002 -0.0027387065 1.3077014e-38 305 242
-0.0191464 0.77999997 -0.0027351999 1.4835941e-38 306 242
-0.017778799 0.77999997 -0.0027351999 1.2807637e-38 307 242
-0.016411198 0.77999997 -0.0027351999 8.7434718e-39 308 242
-0.015005025 0.778 -0.0027281865 8.6509175e-39 309 242
-0.013640933 0.778 -0.0027281865 9.2026297e-39 310 242
-0.012276839 0.778 -0.0027281865 9.0178797e-39 311 242
-0.010912746 0.778 -0.0027281865 9.1104313e-39 312 242
-0.0095486529 0.778 -0.0027281865 8.5572575e-39 313 242
-0.0081845606 0.778 -0.0027281865 9.6636303e-39 314 242
-0.0068029333 0.77600002 -0.0027211732 1.3166705e-38 315 242
-0.0054283198 0.77399999 -0.0027141599 1.3545214e-38 316 242
-0.0040712398 0.77399999 -0.0027141599 1.4190584e-38 317 242
-0.0027211732 0.77600002 -0.0027211732 1.3360085e-38 318 242
-0.0013605866 0.77600002 -0.0027211732 1.2345933e-38 319 242
0 0.77600002 -0.0027211732 1.197102e-38 320 242
0.0013605866 0.77600002 -0.0027211732 1.11409e-38 321 242
0.0027211732 0.77600002 -0.0027211732 9.2995141e-39 322 242
0.0040922803 0.778 -0.0027281865 8.8385359e-39 323 242
0.0054703997 0.77999997 -0.0027351999 8.3782991e-39 324 242
0.0068204664 0.778 -0.0027281865 8.1017136e-39 325 242
0.0081845606 0.778 -0.0027281865 7.4581602e-39 326 242
0.0095486529 0.778 -0.0027281865 8.2879223e-39 327 242
0.010912746 0.778 -0.0027281865 9.8649744e-39 328 242
-0.03332736 0.792 -0.00416592 1.779702e-38 296 243
-0.031858064 0.79000002 -0.0041554002 1.0421368e-38 297 243
-0.030472934 0.79000002 -0.0041554002 8.1024156e-39 298 243
-0.029087799 0.79000002 -0.0041554002 8.4711981e-39 299 243
-0.027667599 0.78899997 -0.0041501396 9.9394759e-39 300 243
-0.026217593 0.787 -0.0041396199 9.6625302e-39 301 243
-0.0247746 0.78500003 -0.0041291001 9.2948253e-39 302 243
-0.023398234 0.78500003 -0.0041291001 9.2026297e-39 303 243
-0.021965759 0.78299999 -0.0041185799 1.1140553e-38 304 243
-0.020540299 0.78100002 -0.0041080597 1.4551791e-38 305 243
-0.0191464 0.77999997 -0.0041027996 1.4743036e-38 306 243
-0.017778799 0.77999997 -0.0041027996 1.1608743e-38 307 243
-0.016369121 0.778 -0.0040922803 8.559075e-39 308 243
-0.015005025 0.778 -0.0040922803 8.4668793e-39 309 243
-0.013640933 0.778 -0.0040922803 9.1100655e-39 310 243
-0.012276839 0.778 -0.0040922803 9.0178699e-39 311 243
-0.010912746 0.778 -0.0040922803 9.200829e-39 312 243
-0.009524107 0.77600002 -0.0040817601 9.200829e-39 313 243
-0.0081635201 0.77600002 -0.0040817601 9.2037255e-39 314 243
-0.0068029333 0.77600002 -0.0040817601 1.1047638e-38 315 243
-0.0054423464 0.77600002 -0.0040817601 1.1701286e-38 316 243
-0.0040817601 0.77600002 -0.0040817601 1.308458e-38 317 243
-0.0027211732 0.77600002 -0.0040817601 1.2251569e-38 318 243
-0.0013605866 0.77600002 -0.0040817601 1.0592048e-38 319 243
0 0.77600002 -0.0040817601 1.021966e-38 320 243
0.0013605866 0.77600002 -0.0040817601 9.8505172e-39 321 243
0.0027211732 0.77600002 -0.0040817601 8.5612232e-39 322 243
0.0040922803 0.778 -0.0040922803 8.3768319e-39 323 243
0.0054703997 0.77999997 -0.0041027996 8.2846615e-39 324 243
0.0068204664 0.778 -0.0040922803 8.3768585e-39 325 243
0.0081845606 0.778 -0.0040922803 7.6443466e-39 326 243
0.0095486529 0.778 -0.0040922803 7.9209335e-39 327 243
0.010912746 0.778 -0.0040922803 9.1266821e-39 328 243
-0.033243202 0.79000002 -0.0055405335 1.8257278e-38 296 244
-0.031817738 0.78899997 -0.0055335197 1.125005e-38 297 244
-0.030434359 0.78899997 -0.0055335197 8.28753e-39 298 244
-0.02905098 0.78899997 -0.0055335197 8.28753e-39 299 244
-0.027667599 0.78899997 -0.0055335197 9.7550846e-39 300 244
-0.026217593 0.787 -0.005519493 9.7550846e-39 301 244
-0.0247746 0.78500003 -0.0055054668 9.2955428e-39 302 244
-0.02333862 0.78299999 -0.0054914397 8.927119e-39 303 244
-0.021965759 0.78299999 -0.0054914397 1.0587376e-38 304 244
-0.020513998 0.77999997 -0.0054703997 1.3814223e-38 305 244
-0.0191464 0.77999997 -0.0054703997 1.3084226e-38 306 244
-0.017733213 0.778 -0.0054563731 1.068678e-38 307 244
-0.016369121 0.778 -0.0054563731 8.4657933e-39 308 244
-0.015005025 0.778 -0.0054563731 8.7420215e-39 309 244
-0.013640933 0.778 -0.0054563731 9.0182328e-39 310 244
-0.012276839 0.778 -0.0054563731 8.7420061e-39 311 244
-0.010884693 0.77600002 -0.0054423464 8.9249652e-39 312 244
-0.009524107 0.77600002 -0.0054423464 9.1097152e-39 313 244
-0.0081635201 0.77600002 -0.0054423464 9.1093621e-39 314 244
-0.0067853997 0.77399999 -0.0054283198 9.5703402e-39 315 244
-0.0054283198 0.77399999 -0.0054283198 9.575022e-39 316 244
-0.0040712398 0.77399999 -0.0054283198 1.003636e-38 317 244
-0.0027211732 0.77600002 -0.0054423464 9.9412905e-39 318 244
-0.0013605866 0.77600002 -0.0054423464 9.9412905e-39 319 244
0 0.77600002 -0.0054423464 9.3899104e-39 320 244
0.0013605866 0.77600002 -0.0054423464 9.1133249e-39 321 244
0.0027211732 0.77600002 -0.0054423464 8.2853649e-39 322 244
0.0040922803 0.778 -0.0054563731 8.1931693e-39 323 244
0.0054563731 0.778 -0.0054563731 8.1931819e-39 324 244
0.0068204664 0.778 -0.0054563731 8.285379e-39 325 244
0.0081845606 0.778 -0.0054563731 8.1045988e-39 326 244
0.0095486529 0.778 -0.0054563731 8.2889915e-39 327 244
0.010912746 0.778 -0.0054563731 8.8486533e-39 328 244
-0.033243202 0.79000002 -0.0069256667 1.8442744e-38 296 245
-0.031817738 0.78899997 -0.0069168997 1.1896854e-38 297 245
-0.030434359 0.78899997 -0.0069168997 8.3804444e-39 298 245
-0.02905098 0.78899997 -0.0069168997 8.1960532e-39 299 245
-0.027597465 0.787 -0.0068993662 1.0306106e-38 300 245
-0.026150968 0.78500003 -0.0068818335 9.9373249e-39 301 245
-0.024711479 0.78299999 -0.0068642995 9.2955484e-39 302 245
-0.02333862 0.78299999 -0.0068642995 8.9267659e-39 303 245
-0.021909652 0.78100002 -0.0068467669 1.0310419e-38 304 245
-0.020513998 0.77999997 -0.0068379994 1.2984092e-38 305 245
-0.019097306 0.778 -0.0068204664 1.2713624e-38 306 245
-0.017733213 0.778 -0.0068204664 1.0224342e-38 307 245
-0.01632704 0.77600002 -0.0068029333 8.924954e-39 308 245
-0.014966453 0.77600002 -0.0068029333 9.3855734e-39 309 245
-0.013605867 0.77600002 -0.0068029333 9.2015353e-39 310 245
-0.01224528 0.77600002 -0.0068029333 9.017144e-39 311 245
-0.010884693 0.77600002 -0.0068029333 8.7420089e-39 312 245
-0.009524107 0.77600002 -0.0068029333 8.8342045e-39 313 245
-0.0081635201 0.77600002 -0.0068029333 9.0178853e-39 314 245
-0.0067853997 0.77399999 -0.0067853997 9.0178853e-39 315 245
-0.0054283198 0.77399999 -0.0067853997 8.6509077e-39 316 245
-0.0040712398 0.77399999 -0.0067853997 8.3739606e-39 317 245
-0.0027211732 0.77600002 -0.0068029333 8.6487665e-39 318 245
-0.0013605866 0.77600002 -0.0068029333 9.3866902e-39 319 245
0 0.77600002 -0.0068029333 9.0182805e-39 320 245
0.0013605866 0.77600002 -0.0068029333 9.0182805e-39 321 245
0.0027211732 0.77600002 -0.0068029333 8.1931847e-39 322 245
0.0040817601 0.77600002 -0.0068029333 7.9165992e-39 323 245
0.0054563731 0.778 -0.0068204664 7.6421788e-39 324 245
0.0068204664 0.778 -0.0068204664 7.7343744e-39 325 245
0.0081635201 0.77600002 -0.0068029333 7.6436277e-39 326 245
0.009524107 0.77600002 -0.0068029333 8.6574195e-39 327 245
0.010912746 0.778 -0.0068204664 8.4780729e-39 328 245
0.012276839 0.778 -0.0068204664 1.2350289e-38 329 245
-0.031737085 0.787 -0.0082792398 1.291065e-38 297 246
-0.03035721 0.787 -0.0082792398 9.1198144e-39 298 246
-0.0289037 0.78500003 -0.0082582003 8.1053023e-39 299 246
-0.027527334 0.78500003 -0.0082582003 1.0032041e-38 300 246
-0.026084339 0.78299999 -0.0082371598 9.8476488e-39 301 246
-0.024711479 0.78299999 -0.0082371598 9.4792208e-39 302 246
-0.023279008 0.78100002 -0.0082161194 9.2022738e-39 303 246
-0.021909652 0.78100002 -0.0082161194 1.0494815e-38 304 246
-0.020461399 0.778 -0.0081845606 1.3445073e-38 305 246
-0.019048214 0.77600002 -0.0081635201 1.3450838e-38 306 246
-0.017687626 0.77600002 -0.0081635201 1.0223991e-38 307 246
-0.01632704 0.77600002 -0.0081635201 9.2901534e-39 308 246
-0.014966453 0.77600002 -0.0081635201 9.5671004e-39 309 246
-0.013605867 0.77600002 -0.0081635201 8.8342045e-39 310 246
-0.01224528 0.77600002 -0.0081635201 8.8342045e-39 311 246
-0.010884693 0.77600002 -0.0081635201 8.8345674e-39 312 246
-0.009524107 0.77600002 -0.0081635201 8.8345674e-39 313 246
-0.0081424797 0.77399999 -0.0081424797 8.5615735e-39 314 246
-0.0067853997 0.77399999 -0.0081424797 8.6541292e-39 315 246
-0.0054283198 0.77399999 -0.0081424797 8.9285651e-39 316 246
-0.0040712398 0.77399999 -0.0081424797 8.8363681e-39 317 246
-0.0027141599 0.77399999 -0.0081424797 9.0193329e-39 318 246
-0.0013570799 0.77399999 -0.0081424797 8.9267785e-39 319 246
0 0.77399999 -0.0081424797 8.9264282e-39 320 246
0.0013570799 0.77399999 -0.0081424797 8.5580058e-39 321 246
0.0027141599 0.77399999 -0.0081424797 8.0984696e-39 322 246
0.0040712398 0.77399999 -0.0081424797 8.1906652e-39 323 246
0.0054423464 0.77600002 -0.0081635201 7.457063e-39 324 246
0.0068029333 0.77600002 -0.0081635201 7.3648674e-39 325 246
0.0081635201 0.77600002 -0.0081635201 7.0011282e-39 326 246
0.009524107 0.77600002 -0.0081635201 8.7524864e-39 327 246
0.010884693 0.77600002 -0.0081635201 8.0196129e-39 328 246
0.01224528 0.77600002 -0.0081635201 1.1154264e-38 329 246
-0.031737085 0.787 -0.0096591124 1.4108472e-38 297 247
-0.03035721 0.787 -0.0096591124 1.0227601e-38 298 247
-0.0289037 0.78500003 -0.0096345674 8.4758827e-39 299 247
-0.027527334 0.78500003 -0.0096345674 9.5743003e-39 300 247
-0.026084339 0.78299999 -0.0096100196 9.2058765e-39 301 247
-0.024648361 0.78100002 -0.0095854728 9.7551e-39 302 247
-0.023249198 0.77999997 -0.0095731998 9.8472957e-39 303 247
-0.021881599 0.77999997 -0.0095731998 1.0865057e-38 304 247
-0.0204088 0.77600002 -0.009524107 1.3170308e-38 305 247
-0.019048214 0.77600002 -0.009524107 1.2434541e-38 306 247
-0.017687626 0.77600002 -0.009524107 1.0037095e-38 307 247
-0.016284959 0.77399999 -0.0094995592 8.9242449e-39 308 247
-0.014927879 0.77399999 -0.0094995592 9.3852231e-39 309 247
-0.013570799 0.77399999 -0.0094995592 9.1104187e-39 310 247
-0.01221372 0.77399999 -0.0094995592 9.1104187e-39 311 247
-0.01085664 0.77399999 -0.0094995592 8.6516083e-39 312 247
-0.0094995592 0.77399999 -0.0094995592 8.8356394e-39 313 247
-0.0081424797 0.77399999 -0.0094995592 8.653046e-39 314 247
-0.0067853997 0.77399999 -0.0094995592 8.8374387e-39 315 247
-0.0054283198 0.77399999 -0.0094995592 8.7459689e-39 316 247
-0.0040712398 0.77399999 -0.0094995592 8.6537733e-39 317 247
-0.0027141599 0.77399999 -0.0094995592 8.744541e-39 318 247
-0.0013570799 0.77399999 -0.0094995592 8.3757599e-39 319 247
0 0.77399999 -0.0094995592 7.9158706e-39 320 247
0.0013570799 0.77399999 -0.0094995592 7.9158706e-39 321 247
0.0027141599 0.77399999 -0.0094995592 6.906043e-39 322 247
0.0040712398 0.77399999 -0.0094995592 6.8138474e-39 323 247
0.0054423464 0.77600002 -0.009524107 6.7220147e-39 324 247
0.0068029333 0.77600002 -0.009524107 6.7220147e-39 325 247
0.0081635201 0.77600002 -0.009524107 6.9089269e-39 326 247
0.009524107 0.77600002 -0.009524107 8.5688084e-39 327 247
0.010884693 0.77600002 -0.009524107 8.3876737e-39 328 247
0.01224528 0.77600002 -0.009524107 1.1337932e-38 329 247
-0.031656433 0.78500003 -0.011010934 1.4938235e-38 297 248
-0.03020292 0.78299999 -0.010982879 1.1426863e-38 298 248
-0.028830061 0.78299999 -0.010982879 8.5691587e-39 299 248
-0.027457198 0.78299999 -0.010982879 9.3895545e-39 300 248
-0.026017714 0.78100002 -0.010954826 9.4817515e-39 301 248
-0.024648361 0.78100002 -0.010954826 9.6639778e-39 302 248
-0.023249198 0.77999997 -0.010940799 1.003276e-38 303 248
-0.021881599 0.77999997 -0.010940799 1.1326019e-38 304 248
-0.0204088 0.77600002 -0.010884693 1.2247976e-38 305 248
-0.019048214 0.77600002 -0.010884693 1.058666e-38 306 248
-0.017687626 0.77600002 -0.010884693 9.0193329e-39 307 248
-0.016284959 0.77399999 -0.01085664 8.3739452e-39 308 248
-0.014927879 0.77399999 -0.01085664 8.6501734e-39 309 248
-0.013570799 0.77399999 -0.01085664 8.7420061e-39 310 248
-0.01221372 0.77399999 -0.01085664 8.3728634e-39 311 248
-0.01085664 0.77399999 -0.01085664 6.9034969e-39 312 248
-0.0094995592 0.77399999 -0.01085664 6.5350745e-39 313 248
-0.0081319595 0.773 -0.010842613 6.259945e-39 314 248
-0.0067766332 0.773 -0.010842613 6.5365333e-39 315 248
-0.0054213065 0.773 -0.010842613 6.5387053e-39 316 248
-0.0040712398 0.77399999 -0.01085664 6.4461509e-39 317 248
-0.0027141599 0.77399999 -0.01085664 6.5365515e-39 318 248
-0.0013570799 0.77399999 -0.01085664 6.0755733e-39 319 248
0 0.77399999 -0.01085664 6.8113307e-39 320 248
0.0013570799 0.77399999 -0.01085664 7.0875574e-39 321 248
0.0027141599 0.77399999 -0.01085664 7.2730235e-39 322 248
0.0040817601 0.77600002 -0.010884693 6.996438e-39 323 248
0.0054563731 0.778 -0.010912746 6.721649e-39 324 248
0.0068029333 0.77600002 -0.010884693 6.721649e-39 325 248
0.0081635201 0.77600002 -0.010884693 7.0007596e-39 326 248
0.0095486529 0.778 -0.010912746 8.5677266e-39 327 248
0.010912746 0.778 -0.010912746 8.4791435e-39 328 248
0.012276839 0.778 -0.010912746 1.1521958e-38 329 248
-0.031575777 0.78299999 -0.012355739 1.5308816e-38 297 249
-0.03020292 0.78299999 -0.012355739 1.2626485e-38 298 249
-0.028756421 0.78100002 -0.01232418 8.5698776e-39 299 249
-0.027387068 0.78100002 -0.01232418 9.0218482e-39 300 249
-0.026017714 0.78100002 -0.01232418 9.0218482e-39 301 249
-0.024648361 0.78100002 -0.01232418 1.0217505e-38 302 249
-0.023279008 0.78100002 -0.01232418 1.0862874e-38 303 249
-0.021881599 0.77999997 -0.012308398 1.059025e-38 304 249
-0.0204088 0.77600002 -0.01224528 1.0037076e-38 305 249
-0.019048214 0.77600002 -0.01224528 8.9264127e-39 306 249
-0.01764204 0.77399999 -0.01221372 7.9122594e-39 307 249
-0.016284959 0.77399999 -0.01221372 7.6363928e-39 308 249
-0.014927879 0.77399999 -0.01221372 7.9133398e-39 309 249
-0.013553266 0.773 -0.012197939 7.4574134e-39 310 249
-0.012197939 0.773 -0.012197939 8.1027828e-39 311 249
-0.010842613 0.773 -0.012197939 6.5469883e-39 312 249
-0.0094872871 0.773 -0.012197939 7.1001607e-39 313 249
-0.0081319595 0.773 -0.012197939 6.5495247e-39 314 249
-0.0067766332 0.773 -0.012197939 7.1023383e-39 315 249
-0.0054213065 0.773 -0.012197939 7.473646e-39 316 249
-0.0040659797 0.773 -0.012197939 8.0268184e-39 317 249
-0.0027141599 0.77399999 -0.01221372 9.2181561e-39 318 249
-0.0013570799 0.77399999 -0.01221372 8.2961998e-39 319 249
0 0.77399999 -0.01221372 7.9169552e-39 320 249
0.0013570799 0.77399999 -0.01221372 6.9946401e-39 321 249
0.0027141599 0.77399999 -0.01221372 7.2708571e-39 322 249
0.0040817601 0.77600002 -0.01224528 7.6396396e-39 323 249
0.0054423464 0.77600002 -0.01224528 6.8138446e-39 324 249
0.0068029333 0.77600002 -0.01224528 6.9060402e-39 325 249
0.0081635201 0.77600002 -0.01224528 7.4595798e-39 326 249
0.0095486529 0.778 -0.012276839 8.6581229e-39 327 249
0.010884693 0.77600002 -0.01224528 8.3869465e-39 328 249
0.01224528 0.77600002 -0.01224528 1.1798186e-38 329 249
-0.031495128 0.78100002 -0.013693534 1.558504e-38 297 250
-0.030125774 0.78100002 -0.013693534 1.3734628e-38 298 250
-0.028756421 0.78100002 -0.013693534 8.9404552e-39 299 250
-0.027387068 0.78100002 -0.013693534 9.0240006e-39 300 250
-0.026017714 0.78100002 -0.013693534 8.7474123e-39 301 250
-0.024648361 0.78100002 -0.013693534 1.0220023e-38 302 250
-0.023249198 0.77999997 -0.013675999 1.0773197e-38 303 250
-0.021881599 0.77999997 -0.013675999 1.0036708e-38 304 250
-0.0204088 0.77600002 -0.013605867 8.2849894e-39 305 250
-0.019048214 0.77600002 -0.013605867 5.7989668e-39 306 250
-0.01764204 0.77399999 -0.013570799 5.7067712e-39 307 250
-0.016284959 0.77399999 -0.013570799 3.5949668e-39 308 250
-0.014908593 0.773 -0.013553266 5.5307162e-39 309 250
-0.013553266 0.773 -0.013553266 7.5648033e-39 310 250
-0.012197939 0.773 -0.013553266 9.5009115e-39 311 250
-0.010842613 0.773 -0.013553266 1.0425742e-38 312 250
-0.0094872871 0.773 -0.013553266 1.1901232e-38 313 250
-0.0081319595 0.773 -0.013553266 1.2914302e-38 314 250
-0.0067766332 0.773 -0.013553266 1.3467476e-38 315 250
-0.0054213065 0.773 -0.013553266 1.3838054e-38 316 250
-0.0040659797 0.773 -0.013553266 1.429903e-38 317 250
-0.0027141599 0.77399999 -0.013570799 1.5217731e-38 318 250
-0.0013570799 0.77399999 -0.013570799 1.4111384e-38 319 250
0 0.77399999 -0.013570799 1.1150636e-38 320 250
0.0013570799 0.77399999 -0.013570799 6.5408549e-39 321 250
0.0027141599 0.77399999 -0.013570799 6.352844e-39 322 250
0.0040817601 0.77600002 -0.013605867 6.9060178e-39 323 250
0.0054423464 0.77600002 -0.013605867 7.4566945e-39 324 250
0.0068029333 0.77600002 -0.013605867 7.73328e-39 325 250
0.0081845606 0.778 -0.013640933 7.8272931e-39 326 250
0.0095486529 0.778 -0.013640933 8.6570538e-39 327 250
0.010884693 0.77600002 -0.013605867 8.6639033e-39 328 250
0.01224528 0.77600002 -0.013605867 1.2167697e-38 329 250
-0.031495128 0.78100002 -0.015062887 1.5953829e-38 297 251
-0.030125774 0.78100002 -0.015062887 1.4565477e-38 298 251
-0.028756421 0.78100002 -0.015062887 9.6794691e-39 299 251
-0.027387068 0.78100002 -0.015062887 9.1179997e-39 300 251
-0.026017714 0.78100002 -0.015062887 8.3800759e-39 301 251
-0.024648361 0.78100002 -0.015062887 1.0034561e-38 302 251
-0.023249198 0.77999997 -0.0150436 1.0034561e-38 303 251
-0.021881599 0.77999997 -0.0150436 7.8265686e-39 304 251
-0.0204088 0.77600002 -0.014966453 8.1953497e-39 305 251
-0.019048214 0.77600002 -0.014966453 7.6569583e-39 306 251
-0.01764204 0.77399999 -0.014927879 9.1324471e-39 307 251
-0.016284959 0.77399999 -0.014927879 8.8630853e-39 308 251
-0.014908593 0.773 -0.014908593 1.0430411e-38 309 251
-0.013553266 0.773 -0.014908593 1.2273257e-38 310 251
-0.012197939 0.773 -0.014908593 1.2918627e-38 311 251
-0.010842613 0.773 -0.014908593 1.3194134e-38 312 251
-0.0094872871 0.773 -0.014908593 1.3655113e-38 313 251
-0.0081319595 0.773 -0.014908593 1.4207212e-38 314 251
-0.0067766332 0.773 -0.014908593 1.4299407e-38 315 251
-0.0054213065 0.773 -0.014908593 1.411753e-38 316 251
-0.0040659797 0.773 -0.014908593 1.4209726e-38 317 251
-0.0027141599 0.77399999 -0.014927879 1.4115365e-38 318 251
-0.0013553266 0.773 -0.014908593 1.3562193e-38 319 251
0 0.773 -0.014908593 1.3095058e-38 320 251
0.0013553266 0.773 -0.014908593 9.222842e-39 321 251
0.0027141599 0.77399999 -0.014927879 7.189813e-39 322 251
0.0040817601 0.77600002 -0.014966453 5.6224887e-39 323 251
0.0054423464 0.77600002 -0.014966453 7.4577665e-39 324 251
0.0068029333 0.77600002 -0.014966453 8.1031359e-39 325 251
0.0081845606 0.778 -0.015005025 8.0127535e-39 326 251
0.0095486529 0.778 -0.015005025 7.8287224e-39 327 251
0.010884693 0.77600002 -0.014966453 8.4805882e-39 328 251
0.01224528 0.77600002 -0.014966453 1.2168413e-38 329 251
-0.030125774 0.78100002 -0.016432239 1.4936789e-38 298 252
-0.028756421 0.78100002 -0.016432239 1.05114e-38 299 252
-0.027351998 0.77999997 -0.016411198 9.4867892e-39 300 252
-0.025984399 0.77999997 -0.016411198 7.9198236e-39 301 252
-0.024616797 0.77999997 -0.016411198 7.9162489e-39 302 252
-0.023249198 0.77999997 -0.016411198 7.0864882e-39 303 252
-0.021881599 0.77999997 -0.016411198 4.523774e-39 304 252
-0.0204088 0.77600002 -0.01632704 7.4743929e-39 305 252
-0.018999118 0.77399999 -0.016284959 1.0334642e-38 306 252
-0.01764204 0.77399999 -0.016284959 1.2639531e-38 307 252
-0.016284959 0.77399999 -0.016284959 1.4207933e-38 308 252
-0.014908593 0.773 -0.016263919 1.4760748e-38 309 252
-0.013553266 0.773 -0.016263919 1.4945133e-38 310 252
-0.012197939 0.773 -0.016263919 1.4945133e-38 311 252
-0.010842613 0.773 -0.016263919 1.5036246e-38 312 252
-0.0094872871 0.773 -0.016263919 1.5036246e-38 313 252
-0.0081319595 0.773 -0.016263919 1.5127723e-38 314 252
-0.0067766332 0.773 -0.016263919 1.5035526e-38 315 252
-0.0054213065 0.773 -0.016263919 1.4667467e-38 316 252
-0.0040659797 0.773 -0.016263919 1.4298324e-38 317 252
-0.0027141599 0.77399999 -0.016284959 1.300939e-38 318 252
-0.0013553266 0.773 -0.016263919 1.2364021e-38 319 252
0 0.773 -0.016263919 1.3652589e-38 320 252
0.0013553266 0.773 -0.016263919 1.2085263e-38 321 252
0.0027141599 0.77399999 -0.016284959 9.4994065e-39 322 252
0.0040817601 0.77600002 -0.01632704 6.3651138e-39 323 252
0.0054563731 0.778 -0.016369121 7.0925769e-39 324 252
0.0068204664 0.778 -0.016369121 7.8301419e-39 325 252
0.0081845606 0.778 -0.016369121 8.1060324e-39 326 252
0.0095486529 0.778 -0.016369121 7.8294441e-39 327 252
0.010884693 0.77600002 -0.01632704 8.6631844e-39 328 252
0.01224528 0.77600002 -0.01632704 1.2443205e-38 329 252
0.013605867 0.77600002 -0.01632704 1.4294328e-38 330 252
-0.028756421 0.78100002 -0.017801592 1.1341883e-38 299 253
-0.027351998 0.77999997 -0.017778799 9.949568e-39 300 253
-0.025984399 0.77999997 -0.017778799 6.9993093e-39 301 253
-0.024616797 0.77999997 -0.017778799 8.5695427e-39 302 253
-0.023249198 0.77999997 -0.017778799 1.2165174e-38 303 253
-0.021881599 0.77999997 -0.017778799 1.0529799e-38 304 253
-0.0204088 0.77600002 -0.017687626 1.2188962e-38 305 253
-0.018999118 0.77399999 -0.01764204 1.3565078e-38 306 253
-0.01764204 0.77399999 -0.01764204 1.3381047e-38 307 253
-0.016284959 0.77399999 -0.01764204 1.3656557e-38 308 253
-0.014908593 0.773 -0.017619247 1.4024981e-38 309 253
-0.013553266 0.773 -0.017619247 1.4392675e-38 310 253
-0.012197939 0.773 -0.017619247 1.4208284e-38 311 253
-0.010842613 0.773 -0.017619247 1.4666371e-38 312 253
-0.0094872871 0.773 -0.017619247 1.448198e-38 313 253
-0.0081319595 0.773 -0.017619247 1.3652573e-38 314 253
-0.0067766332 0.773 -0.017619247 1.3191235e-38 315 253
-0.0054213065 0.773 -0.017619247 1.2911058e-38 316 253
-0.0040659797 0.773 -0.017619247 1.1897265e-38 317 253
-0.0027141599 0.77399999 -0.01764204 9.877254e-39 318 253
-0.0013553266 0.773 -0.017619247 1.0522623e-38 319 253
0 0.773 -0.017619247 1.1997759e-38 320 253
0.0013570799 0.77399999 -0.01764204 1.1628616e-38 321 253
0.0027141599 0.77399999 -0.01764204 1.2175278e-38 322 253
0.0040817601 0.77600002 -0.017687626 9.3168551e-39 323 253
0.0054563731 0.778 -0.017733213 8.2036342e-39 324 253
0.0068204664 0.778 -0.017733213 6.9128954e-39 325 253
0.0081845606 0.778 -0.017733213 8.4737387e-39 326 253
0.0095486529 0.778 -0.017733213 8.3815431e-39 327 253
0.010912746 0.778 -0.017733213 8.755736e-39 328 253
0.01224528 0.77600002 -0.017687626 1.2166974e-38 329 253
0.013605867 0.77600002 -0.017687626 1.3834427e-38 330 253
-0.027387068 0.78100002 -0.019170946 1.041162e-38 300 254
-0.026017714 0.78100002 -0.019170946 7.1847725e-39 301 254
-0.024648361 0.78100002 -0.019170946 9.2210245e-39 302 254
-0.023279008 0.78100002 -0.019170946 1.4199587e-38 303 254
-0.021881599 0.77999997 -0.0191464 1.356364e-38 304 254
-0.0204088 0.77600002 -0.019048214 1.4209009e-38 305 254
-0.018999118 0.77399999 -0.018999118 1.4024265e-38 306 254
-0.01764204 0.77399999 -0.018999118 1.3839872e-38 307 254
-0.016284959 0.77399999 -0.018999118 1.4573472e-38 308 254
-0.014908593 0.773 -0.018974574 1.4481276e-38 309 254
-0.013553266 0.773 -0.018974574 1.4937563e-38 310 254
-0.012197939 0.773 -0.018974574 1.3923771e-38 311 254
-0.010842613 0.773 -0.018974574 1.3091115e-38 312 254
-0.0094872871 0.773 -0.018974574 1.1615984e-38 313 254
-0.0081319595 0.773 -0.018974574 1.1060997e-38 314 254
-0.0067853997 0.77399999 -0.018999118 1.0784408e-38 315 254
-0.0054283198 0.77399999 -0.018999118 9.8624689e-39 316 254
-0.0040712398 0.77399999 -0.018999118 9.2170995e-39 317 254
-0.0027141599 0.77399999 -0.018999118 7.6634729e-39 318 254
-0.0013570799 0.77399999 -0.018999118 9.7836122e-39 319 254
0 0.77399999 -0.018999118 1.1259838e-38 320 254
0.0013570799 0.77399999 -0.018999118 1.1444588e-38 321 254
0.0027211732 0.77600002 -0.019048214 1.1811197e-38 322 254
0.0040817601 0.77600002 -0.019048214 1.0612654e-38 323 254
0.0054563731 0.778 -0.019097306 9.4997848e-39 324 254
0.0068204664 0.778 -0.019097306 5.9041553e-39 325 254
0.0081845606 0.778 -0.019097306 7.3713526e-39 326 254
0.0095731998 0.77999997 -0.0191464 7.7401365e-39 327 254
0.010912746 0.778 -0.019097306 8.480591e-39 328 254
0.012276839 0.778 -0.019097306 1.1799634e-38 329 254
0.013640933 0.778 -0.019097306 1.3650033e-38 330 254
-0.027387068 0.78100002 -0.020540299 1.1243551e-38 300 255
-0.026017714 0.78100002 -0.020540299 8.2010951e-39 301 255
-0.024648361 0.78100002 -0.020540299 1.1434811e-38 302 255
-0.023279008 0.78100002 -0.020540299 1.4938604e-38 303 255
-0.021881599 0.77999997 -0.020513998 1.291899e-38 304 255
-0.0204088 0.77600002 -0.0204088 1.3379968e-38 305 255
-0.019048214 0.77600002 -0.0204088 1.4300114e-38 306 255
-0.01764204 0.77399999 -0.020356199 1.3654744e-38 307 255
-0.016284959 0.77399999 -0.020356199 1.3096156e-38 308 255
-0.014927879 0.77399999 -0.020356199 1.0975656e-38 309 255
-0.013570799 0.77399999 -0.020356199 9.3103573e-39 310 255
-0.01221372 0.77399999 -0.020356199 5.8065647e-39 311 255
-0.01085664 0.77399999 -0.020356199 4.7826863e-39 312 255
-0.0094995592 0.77399999 -0.020356199 3.1235237e-39 313 255
-0.0081424797 0.77399999 -0.020356199 4.7758522e-39 314 255
-0.0067853997 0.77399999 -0.020356199 5.1446361e-39 315 255
-0.0054283198 0.77399999 -0.020356199 4.0418997e-39 316 255
-0.0040712398 0.77399999 -0.020356199 4.3184866e-39 317 255
-0.0027141599 0.77399999 -0.020356199 1.7643875e-39 318 255
-0.0013570799 0.77399999 -0.020356199 6.0057466e-39 319 255
0 0.77399999 -0.020356199 1.0337529e-38 320 255
0.0013605866 0.77600002 -0.0204088 1.0798866e-38 321 255
0.0027211732 0.77600002 -0.0204088 1.0340396e-38 322 255
0.0040922803 0.778 -0.020461399 1.0525146e-38 323 255
