# .PCD v.7 - Point Cloud Data file format
FIELDS x y z rgb imX imY
SIZE 4 4 4 4 4 4
TYPE F F F F F F
COUNT 1 1 1 1 1 1
WIDTH 846
HEIGHT 1
VIEWPOINT 0 0 0 1 0 0 0
POINTS 846
DATA ascii
0.0054774131 0.78100002 0.016432239 1.7889545e-38 324 228
0.0068379994 0.77999997 0.016411198 1.7244176e-38 325 228
0.0082055992 0.77999997 0.016411198 1.5310513e-38 326 228
0.0095731998 0.77999997 0.016411198 1.0792927e-38 327 228
0.010912746 0.778 0.016369121 7.1947736e-39 328 228
0.01221372 0.77399999 0.016284959 4.3367161e-39 329 228
0.013570799 0.77399999 0.016284959 3.8102608e-39 330 228
0.014927879 0.77399999 0.016284959 1.0171401e-38 331 228
-0.022134079 0.78899997 0.015217179 1.8259757e-38 304 229
-0.0205929 0.78299999 0.01510146 1.5586084e-38 305 229
-0.017801592 0.78100002 0.015062887 3.8571063e-39 307 229
-0.016432239 0.78100002 0.015062887 1.8565733e-39 308 229
-0.015062887 0.78100002 0.015062887 7.7570936e-39 309 229
-0.013675999 0.77999997 0.0150436 1.2914629e-38 310 229
-0.012308398 0.77999997 0.0150436 1.4482315e-38 311 229
-0.010940799 0.77999997 0.0150436 1.7601828e-38 312 229
-0.0095731998 0.77999997 0.0150436 2.0828675e-38 313 229
-0.0082055992 0.77999997 0.0150436 2.0007896e-38 314 229
-0.0068204664 0.778 0.015005025 2.056107e-38 315 229
-0.0054563731 0.778 0.015005025 2.019409e-38 316 229
-0.0041027996 0.77999997 0.0150436 2.0470317e-38 317 229
-0.0027351999 0.77999997 0.0150436 2.092986e-38 318 229
-0.0013675999 0.77999997 0.0150436 2.0745108e-38 319 229
0 0.778 0.015005025 1.9916424e-38 320 229
0.0013640933 0.778 0.015005025 1.9916424e-38 321 229
0.0027351999 0.77999997 0.0150436 2.0285557e-38 322 229
0.0041027996 0.77999997 0.0150436 1.9547992e-38 323 229
0.0054703997 0.77999997 0.0150436 1.8075741e-38 324 229
0.0068204664 0.778 0.015005025 1.8536361e-38 325 229
0.0081845606 0.778 0.015005025 1.9544375e-38 326 229
0.0095486529 0.778 0.015005025 1.7885214e-38 327 229
0.010884693 0.77600002 0.014966453 1.520718e-38 328 229
0.01221372 0.77399999 0.014927879 9.3066593e-39 329 229
0.013570799 0.77399999 0.014927879 7.6703435e-40 330 229
0.014927879 0.77399999 0.014927879 3.348512e-39 331 229
0.016284959 0.77399999 0.014927879 1.3200914e-38 332 229
-0.023547266 0.79000002 0.013851333 1.9548718e-38 303 230
-0.022134079 0.78899997 0.013833799 1.8903324e-38 304 230
-0.0205929 0.78299999 0.013728599 1.5768674e-38 305 230
-0.019220039 0.78299999 0.013728599 1.014406e-38 306 230
-0.017847179 0.78299999 0.013728599 9.5908861e-39 307 230
-0.016411198 0.77999997 0.013675999 1.3654717e-38 308 230
-0.0150436 0.77999997 0.013675999 1.5775218e-38 309 230
-0.013675999 0.77999997 0.013675999 1.8165801e-38 310 230
-0.012276839 0.778 0.013640933 1.8626421e-38 311 230
-0.010912746 0.778 0.013640933 1.9081631e-38 312 230
-0.0095486529 0.778 0.013640933 1.8343706e-38 313 230
-0.0081845606 0.778 0.013640933 1.8719676e-38 314 230
-0.0068204664 0.778 0.013640933 2.1670295e-38 315 230
-0.0054563731 0.778 0.013640933 2.350773e-38 316 230
-0.0040922803 0.778 0.013640933 2.3508451e-38 317 230
-0.0027281865 0.778 0.013640933 2.3324418e-38 318 230
-0.0013640933 0.778 0.013640933 2.1941484e-38 319 230
0 0.778 0.013640933 2.0835859e-38 320 230
0.0013640933 0.778 0.013640933 2.0467435e-38 321 230
0.0027351999 0.77999997 0.013675999 1.9455442e-38 322 230
0.0041027996 0.77999997 0.013675999 1.8164703e-38 323 230
0.0054703997 0.77999997 0.013675999 1.7245988e-38 324 230
0.0068204664 0.778 0.013640933 1.8905869e-38 325 230
0.0081845606 0.778 0.013640933 2.0099373e-38 326 230
0.0095486529 0.778 0.013640933 1.9084861e-38 327 230
0.010884693 0.77600002 0.013605867 1.8345819e-38 328 230
0.01221372 0.77399999 0.013570799 1.557995e-38 329 230
0.013570799 0.77399999 0.013570799 9.7784569e-39 330 230
0.014927879 0.77399999 0.013570799 8.0270986e-39 331 230
0.016284959 0.77399999 0.013570799 1.0069481e-38 332 230
0.017733213 0.778 0.013640933 1.3941698e-38 333 230
-0.023547266 0.79000002 0.0124662 1.9456522e-38 303 231
-0.022134079 0.78899997 0.012450419 1.8902625e-38 304 231
-0.020645501 0.78500003 0.0123873 1.668993e-38 305 231
-0.019220039 0.78299999 0.012355739 1.6228229e-38 306 231
-0.017847179 0.78299999 0.012355739 1.8717511e-38 307 231
-0.016411198 0.77999997 0.012308398 2.0102966e-38 308 231
-0.015005025 0.778 0.012276839 2.0379553e-38 309 231
-0.013640933 0.778 0.012276839 2.0653266e-38 310 231
-0.012276839 0.778 0.012276839 2.056107e-38 311 231
-0.010912746 0.778 0.012276839 2.055783e-38 312 231
-0.009524107 0.77600002 0.01224528 1.8621722e-38 313 231
-0.0081635201 0.77600002 0.01224528 1.8163262e-38 314 231
-0.0068029333 0.77600002 0.01224528 2.2219868e-38 315 231
-0.0054283198 0.77399999 0.01221372 2.3509886e-38 316 231
-0.0040712398 0.77399999 0.01221372 2.3509886e-38 317 231
-0.0027211732 0.77600002 0.01224528 2.3140024e-38 318 231
-0.0013605866 0.77600002 0.01224528 2.129647e-38 319 231
0 0.778 0.012276839 2.083621e-38 320 231
0.0013640933 0.778 0.012276839 2.037559e-38 321 231
0.0027351999 0.77999997 0.012308398 1.7521483e-38 322 231
0.0041027996 0.77999997 0.012308398 1.650769e-38 323 231
0.0054703997 0.77999997 0.012308398 1.7521135e-38 324 231
0.0068379994 0.77999997 0.012308398 1.973383e-38 325 231
0.0082055992 0.77999997 0.012308398 2.0745461e-38 326 231
0.0095486529 0.778 0.012276839 1.973167e-38 327 231
0.01085664 0.77399999 0.01221372 1.9913177e-38 328 231
0.01221372 0.77399999 0.01221372 1.9267808e-38 329 231
0.013605867 0.77600002 0.01224528 1.6225362e-38 330 231
0.014966453 0.77600002 0.01224528 1.3459133e-38 331 231
0.01632704 0.77600002 0.01224528 1.1263721e-38 332 231
0.017687626 0.77600002 0.01224528 1.3292384e-38 333 231
0.019048214 0.77600002 0.01224528 1.7524029e-38 334 231
-0.024900839 0.78899997 0.011067039 1.9271776e-38 302 232
-0.023517458 0.78899997 0.011067039 1.9363973e-38 303 232
-0.022077972 0.787 0.011038986 1.8257628e-38 304 232
-0.0205929 0.78299999 0.010982879 1.7150921e-38 305 232
-0.019220039 0.78299999 0.010982879 1.7893878e-38 306 232
-0.017801592 0.78100002 0.010954826 1.8723639e-38 307 232
-0.016411198 0.77999997 0.010940799 1.9641635e-38 308 232
-0.015005025 0.778 0.010912746 1.9549439e-38 309 232
-0.013605867 0.77600002 0.010884693 1.9549439e-38 310 232
-0.01224528 0.77600002 0.010884693 1.9457244e-38 311 232
-0.010884693 0.77600002 0.010884693 1.991678e-38 312 232
-0.009524107 0.77600002 0.010884693 2.0562149e-38 313 232
-0.0081635201 0.77600002 0.010884693 1.9908511e-38 314 232
-0.0067853997 0.77399999 0.01085664 1.7696176e-38 315 232
-0.0054283198 0.77399999 0.01085664 1.6045279e-38 316 232
-0.0040712398 0.77399999 0.01085664 1.6137476e-38 317 232
-0.0027211732 0.77600002 0.010884693 1.6138548e-38 318 232
-0.0013605866 0.77600002 0.010884693 1.6415494e-38 319 232
0 0.778 0.010912746 1.7060873e-38 320 232
0.0013640933 0.778 0.010912746 1.6415863e-38 321 232
0.0027351999 0.77999997 0.010940799 1.5126567e-38 322 232
0.0041027996 0.77999997 0.010940799 1.7062675e-38 323 232
0.0054563731 0.778 0.010912746 1.8902998e-38 324 232
0.0068204664 0.778 0.010912746 2.0193737e-38 325 232
0.0081845606 0.778 0.010912746 2.1022774e-38 326 232
0.0095486529 0.778 0.010912746 2.0838024e-38 327 232
0.01085664 0.77399999 0.01085664 2.0927692e-38 328 232
0.01221372 0.77399999 0.01085664 2.0097573e-38 329 232
0.013605867 0.77600002 0.010884693 1.7151274e-38 330 232
0.014966453 0.77600002 0.010884693 1.5584308e-38 331 232
0.01632704 0.77600002 0.010884693 1.4767864e-38 332 232
0.017687626 0.77600002 0.010884693 1.5781657e-38 333 232
0.019048214 0.77600002 0.010884693 1.7982486e-38 334 232
0.020461399 0.778 0.010912746 1.8443464e-38 335 232
-0.029161438 0.792 0.0097204801 1.9454738e-38 299 233
-0.027772799 0.792 0.0097204801 1.8995915e-38 300 233
-0.026317533 0.79000002 0.0096959332 1.9088111e-38 301 233
-0.024900839 0.78899997 0.0096836593 1.8903717e-38 302 233
-0.023457846 0.787 0.0096591124 1.8811521e-38 303 233
-0.022021867 0.78500003 0.0096345674 1.7613697e-38 304 233
-0.0205929 0.78299999 0.0096100196 1.6968327e-38 305 233
-0.019170946 0.78100002 0.0095854728 1.8904438e-38 306 233
-0.017801592 0.78100002 0.0095854728 1.9088831e-38 307 233
-0.016369121 0.778 0.0095486529 1.8997714e-38 308 233
-0.015005025 0.778 0.0095486529 1.8997714e-38 309 233
-0.013605867 0.77600002 0.009524107 1.8998067e-38 310 233
-0.01224528 0.77600002 0.009524107 1.9182099e-38 311 233
-0.010884693 0.77600002 0.009524107 1.9365048e-38 312 233
-0.0094995592 0.77399999 0.0094995592 2.0287004e-38 313 233
-0.0081424797 0.77399999 0.0094995592 1.9179227e-38 314 233
-0.0067853997 0.77399999 0.0094995592 1.3186511e-38 315 233
-0.0054283198 0.77399999 0.0094995592 9.7838925e-39 316 233
-0.0040712398 0.77399999 0.0094995592 9.7838925e-39 317 233
-0.0027141599 0.77399999 0.0094995592 1.1623481e-38 318 233
-0.0013605866 0.77600002 0.009524107 1.2822022e-38 319 233
0.0013675999 0.77999997 0.0095731998 1.3651084e-38 321 233
0.0027351999 0.77999997 0.0095731998 1.5954901e-38 322 233
0.0041027996 0.77999997 0.0095731998 1.8075401e-38 323 233
0.0054283198 0.77399999 0.0094995592 1.9365421e-38 324 233
0.0067766332 0.773 0.0094872871 1.9918594e-38 325 233
0.0081319595 0.773 0.0094872871 2.0746913e-38 326 233
0.0094872871 0.773 0.0094872871 2.0839109e-38 327 233
0.01085664 0.77399999 0.0094995592 2.1020969e-38 328 233
0.01221372 0.77399999 0.0094995592 2.0099373e-38 329 233
0.013570799 0.77399999 0.0094995592 1.8165445e-38 330 233
0.014927879 0.77399999 0.0094995592 1.6321892e-38 331 233
0.016284959 0.77399999 0.0094995592 1.6695363e-38 332 233
0.017687626 0.77600002 0.009524107 1.780171e-38 333 233
0.019048214 0.77600002 0.009524107 1.8165445e-38 334 233
0.0204088 0.77600002 0.009524107 1.8258e-38 335 233
0.021825492 0.778 0.0095486529 1.7800259e-38 336 233
0.023249198 0.77999997 0.0095731998 1.8076847e-38 337 233
-0.030627226 0.79400003 0.0083528794 1.9179225e-38 298 234
-0.029161438 0.792 0.0083318399 1.9087029e-38 299 234
-0.027772799 0.792 0.0083318399 1.8903001e-38 300 234
-0.026284218 0.78899997 0.0083002793 1.9087032e-38 301 234
-0.024837719 0.787 0.0082792398 1.8260147e-38 302 234
-0.023398234 0.78500003 0.0082582003 1.7891363e-38 303 234
-0.022021867 0.78500003 0.0082582003 1.6969764e-38 304 234
-0.0205929 0.78299999 0.0082371598 1.7153795e-38 305 234
-0.019170946 0.78100002 0.0082161194 1.8259793e-38 306 234
-0.017801592 0.78100002 0.0082161194 1.8536379e-38 307 234
-0.016369121 0.778 0.0081845606 1.872114e-38 308 234
-0.014966453 0.77600002 0.0081635201 1.8905531e-38 309 234
-0.013605867 0.77600002 0.0081635201 1.9181745e-38 310 234
-0.01221372 0.77399999 0.0081424797 1.9181745e-38 311 234
-0.01085664 0.77399999 0.0081424797 1.9181383e-38 312 234
-0.0094995592 0.77399999 0.0081424797 1.9918948e-38 313 234
-0.0081424797 0.77399999 0.0081424797 1.7984304e-38 314 234
-0.0067853997 0.77399999 0.0081424797 9.5023058e-39 315 234
-0.0054213065 0.773 0.0081319595 3.3301956e-39 316 234
-0.0040659797 0.773 0.0081319595 3.238e-39 317 234
-0.0027141599 0.77399999 0.0081424797 7.011516e-39 318 234
0.0040659797 0.773 0.0081319595 1.8995932e-38 323 234
0.0054213065 0.773 0.0081319595 1.9365423e-38 324 234
0.0067766332 0.773 0.0081319595 1.9180674e-38 325 234
0.0081319595 0.773 0.0081319595 1.9733847e-38 326 234
0.0094872871 0.773 0.0081319595 2.028702e-38 327 234
0.010842613 0.773 0.0081319595 1.9826396e-38 328 234
0.012197939 0.773 0.0081319595 1.9642003e-38 329 234
0.013570799 0.77399999 0.0081424797 1.9549805e-38 330 234
0.014927879 0.77399999 0.0081424797 1.9088828e-38 331 234
0.016284959 0.77399999 0.0081424797 1.853853e-38 332 234
0.01764204 0.77399999 0.0081424797 1.835378e-38 333 234
0.018999118 0.77399999 0.0081424797 1.7524026e-38 334 234
0.020356199 0.77399999 0.0081424797 1.7063047e-38 335 234
0.021825492 0.778 0.0081845606 1.6696432e-38 336 234
0.023249198 0.77999997 0.0082055992 1.7249606e-38 337 234
0.024616797 0.77999997 0.0082055992 1.8535304e-38 338 234
-0.031938717 0.792 0.0069431998 1.8443459e-38 297 235
-0.030550079 0.792 0.0069431998 1.779989e-38 298 235
-0.029161438 0.792 0.0069431998 1.8168673e-38 299 235
-0.027702667 0.79000002 0.0069256667 1.8444183e-38 300 235
-0.026284218 0.78899997 0.0069168997 1.8444183e-38 301 235
-0.024837719 0.787 0.0068993662 1.8259793e-38 302 235
-0.023398234 0.78500003 0.0068818335 1.8167596e-38 303 235
-0.021965759 0.78299999 0.0068642995 1.789136e-38 304 235
-0.020540299 0.78100002 0.0068467669 1.8075751e-38 305 235
-0.019170946 0.78100002 0.0068467669 1.8353067e-38 306 235
-0.017778799 0.77999997 0.0068379994 1.8168317e-38 307 235
-0.01632704 0.77600002 0.0068029333 1.7434001e-38 308 235
-0.014966453 0.77600002 0.0068029333 1.8079371e-38 309 235
-0.013570799 0.77399999 0.0067853997 1.9366142e-38 310 235
-0.01221372 0.77399999 0.0067853997 1.9273947e-38 311 235
-0.01085664 0.77399999 0.0067853997 1.9641287e-38 312 235
-0.0094995592 0.77399999 0.0067853997 2.0101907e-38 313 235
-0.0081424797 0.77399999 0.0067853997 1.5683751e-38 314 235
-0.0067853997 0.77399999 0.0067853997 4.3433288e-39 315 235
-0.0054213065 0.773 0.0067766332 6.6627118e-40 316 235
-0.0040659797 0.773 0.0067766332 3.8931182e-39 317 235
-0.0013553266 0.773 0.0067766332 1.0234418e-38 319 235
0.0027036399 0.77100003 0.0067590997 1.2914982e-38 322 235
0.0040554604 0.77100003 0.0067590997 1.7524763e-38 323 235
0.0054072798 0.77100003 0.0067590997 1.9090281e-38 324 235
0.0067590997 0.77100003 0.0067590997 1.8537108e-38 325 235
0.0081109209 0.77100003 0.0067590997 1.8997727e-38 326 235
0.0094872871 0.773 0.0067766332 1.9458705e-38 327 235
0.010842613 0.773 0.0067766332 1.9182477e-38 328 235
0.012197939 0.773 0.0067766332 1.9182477e-38 329 235
0.013553266 0.773 0.0067766332 1.9183549e-38 330 235
0.014927879 0.77399999 0.0067853997 1.8814768e-38 331 235
0.016284959 0.77399999 0.0067853997 1.8630374e-38 332 235
0.01764204 0.77399999 0.0067853997 1.8538177e-38 333 235
0.018999118 0.77399999 0.0067853997 1.7798811e-38 334 235
0.020356199 0.77399999 0.0067853997 1.7522583e-38 335 235
0.021769386 0.77600002 0.0068029333 1.743075e-38 336 235
0.023249198 0.77999997 0.0068379994 1.7615143e-38 337 235
0.024616797 0.77999997 0.0068379994 1.789281e-38 338 235
0.025984399 0.77999997 0.0068379994 1.8077203e-38 339 235
-0.031938717 0.792 0.0055545596 1.7612981e-38 297 236
-0.030550079 0.792 0.0055545596 1.6234006e-38 298 236
-0.029161438 0.792 0.0055545596 1.7340354e-38 299 236
-0.027702667 0.79000002 0.0055405335 1.8167603e-38 300 236
-0.026284218 0.78899997 0.0055335197 1.8167603e-38 301 236
-0.024837719 0.787 0.005519493 1.8167966e-38 302 236
-0.02333862 0.78299999 0.0054914397 1.8352358e-38 303 236
-0.021965759 0.78299999 0.0054914397 1.8169048e-38 304 236
-0.020540299 0.78100002 0.0054774131 1.8169048e-38 305 236
-0.0191464 0.77999997 0.0054703997 1.8169045e-38 306 236
-0.017733213 0.778 0.0054563731 1.7523676e-38 307 236
-0.01632704 0.77600002 0.0054423464 1.6328373e-38 308 236
-0.014927879 0.77399999 0.0054283198 1.743472e-38 309 236
-0.013570799 0.77399999 0.0054283198 1.9090281e-38 310 236
-0.01221372 0.77399999 0.0054283198 1.9182477e-38 311 236
-0.01085664 0.77399999 0.0054283198 1.9917888e-38 312 236
-0.0094872871 0.773 0.0054213065 1.9272519e-38 313 236
-0.0081319595 0.773 0.0054213065 1.2828554e-38 314 236
-0.0067853997 0.77399999 0.0054283198 1.2641113e-41 315 236
-0.0040712398 0.77399999 0.0054283198 6.6507026e-39 317 236
0.0027036399 0.77100003 0.0054072798 7.1156465e-39 322 236
0.0040554604 0.77100003 0.0054072798 1.421471e-38 323 236
0.0054072798 0.77100003 0.0054072798 1.9090291e-38 324 236
0.0067590997 0.77100003 0.0054072798 1.8352726e-38 325 236
0.0081109209 0.77100003 0.0054072798 1.8445275e-38 326 236
0.0094872871 0.773 0.0054213065 1.8814418e-38 327 236
0.010842613 0.773 0.0054213065 1.8722219e-38 328 236
0.012197939 0.773 0.0054213065 1.8630023e-38 329 236
0.013553266 0.773 0.0054213065 1.8722938e-38 330 236
0.014927879 0.77399999 0.0054283198 1.8538547e-38 331 236
0.016284959 0.77399999 0.0054283198 1.844743e-38 332 236
0.01764204 0.77399999 0.0054283198 1.844743e-38 333 236
0.018999118 0.77399999 0.0054283198 1.7799537e-38 334 236
0.020356199 0.77399999 0.0054283198 1.7799537e-38 335 236
0.021713279 0.77399999 0.0054283198 1.7524745e-38 336 236
0.023189586 0.778 0.0054563731 1.7432549e-38 337 236
0.024553679 0.778 0.0054563731 1.7156691e-38 338 236
0.025917772 0.778 0.0054563731 1.7525114e-38 339 236
-0.03332736 0.792 0.00416592 1.8442741e-38 296 237
-0.031938717 0.792 0.00416592 1.7428231e-38 297 237
-0.030550079 0.792 0.00416592 1.6692113e-38 298 237
-0.029087799 0.79000002 0.0041554002 1.761443e-38 299 237
-0.027702667 0.79000002 0.0041554002 1.7982502e-38 300 237
-0.026284218 0.78899997 0.0041501396 1.7982502e-38 301 237
-0.0247746 0.78500003 0.0041291001 1.7524047e-38 302 237
-0.02333862 0.78299999 0.0041185799 1.7524047e-38 303 237
-0.021909652 0.78100002 0.0041080597 1.6974113e-38 304 237
-0.020540299 0.78100002 0.0041080597 1.6881559e-38 305 237
-0.0191464 0.77999997 0.0041027996 1.6696799e-38 306 237
-0.017733213 0.778 0.0040922803 1.6881549e-38 307 237
-0.01632704 0.77600002 0.0040817601 1.7616946e-38 308 237
-0.014927879 0.77399999 0.0040712398 1.8077566e-38 309 237
-0.013570799 0.77399999 0.0040712398 1.8354516e-38 310 237
-0.01221372 0.77399999 0.0040712398 1.8630742e-38 311 237
-0.010842613 0.773 0.0040659797 1.9090647e-38 312 237
-0.0094872871 0.773 0.0040659797 1.6970148e-38 313 237
-0.0081319595 0.773 0.0040659797 9.3308387e-39 314 237
-0.0067853997 0.77399999 0.0040712398 8.6376037e-42 315 237
-0.0054283198 0.77399999 0.0040712398 1.9450934e-39 316 237
0.0040449398 0.76899999 0.0040449398 8.7855949e-39 323 237
0.0053932532 0.76899999 0.0040449398 1.7893553e-38 324 237
0.0067590997 0.77100003 0.0040554604 1.7801357e-38 325 237
0.0081109209 0.77100003 0.0040554604 1.8076497e-38 326 237
0.0094627403 0.77100003 0.0040554604 1.8353082e-38 327 237
0.010842613 0.773 0.0040659797 1.8169048e-38 328 237
0.012197939 0.773 0.0040659797 1.8169048e-38 329 237
0.013553266 0.773 0.0040659797 1.7893903e-38 330 237
0.014908593 0.773 0.0040659797 1.7893903e-38 331 237
0.016284959 0.77399999 0.0040712398 1.7893906e-38 332 237
0.01764204 0.77399999 0.0040712398 1.780171e-38 333 237
0.018999118 0.77399999 0.0040712398 1.7156335e-38 334 237
0.020356199 0.77399999 0.0040712398 1.6879747e-38 335 237
0.021713279 0.77399999 0.0040712398 1.5868834e-38 336 237
0.023129974 0.77600002 0.0040817601 1.5961388e-38 337 237
0.024490559 0.77600002 0.0040817601 1.6420574e-38 338 237
0.025851147 0.77600002 0.0040817601 1.6881193e-38 339 237
0.027211733 0.77600002 0.0040817601 1.7891385e-38 340 237
-0.03332736 0.792 0.0027772798 1.7983208e-38 296 238
-0.031938717 0.792 0.0027772798 1.7153089e-38 297 238
-0.030550079 0.792 0.0027772798 1.6325857e-38 298 238
-0.029087799 0.79000002 0.0027702667 1.6971227e-38 299 238
-0.027667599 0.78899997 0.0027667598 1.73393e-38 300 238
-0.026217593 0.787 0.0027597465 1.73393e-38 301 238
-0.0247746 0.78500003 0.0027527334 1.7155635e-38 302 238
-0.02333862 0.78299999 0.0027457199 1.7063439e-38 303 238
-0.021909652 0.78100002 0.0027387065 1.6329471e-38 304 238
-0.020513998 0.77999997 0.0027351999 1.6052524e-38 305 238
-0.019097306 0.778 0.0027281865 1.605143e-38 306 238
-0.017733213 0.778 0.0027281865 1.6973745e-38 307 238
-0.016284959 0.77399999 0.0027141599 1.899808e-38 308 238
-0.014927879 0.77399999 0.0027141599 1.8813689e-38 309 238
-0.013570799 0.77399999 0.0027141599 1.7892821e-38 310 238
-0.012197939 0.773 0.0027106532 1.8077571e-38 311 238
-0.010842613 0.773 0.0027106532 1.7617667e-38 312 238
-0.0094872871 0.773 0.0027106532 1.5036189e-38 313 238
-0.0081319595 0.773 0.0027106532 7.9446238e-39 314 238
-0.0067766332 0.773 0.0027106532 1.579964e-41 315 238
-0.0054213065 0.773 0.0027106532 1.5748437e-39 316 238
0.0040449398 0.76899999 0.0026966266 8.3991532e-39 323 238
0.0053932532 0.76899999 0.0026966266 1.577842e-38 324 238
0.0067415666 0.76899999 0.0026966266 1.6792571e-38 325 238
0.0080898795 0.76899999 0.0026966266 1.7892105e-38 326 238
0.0094627403 0.77100003 0.0027036399 1.7799908e-38 327 238
0.01081456 0.77100003 0.0027036399 1.7708793e-38 328 238
0.012197939 0.773 0.0027106532 1.7616596e-38 329 238
0.013553266 0.773 0.0027106532 1.7341101e-38 330 238
0.014908593 0.773 0.0027106532 1.7341101e-38 331 238
0.016263919 0.773 0.0027106532 1.7524416e-38 332 238
0.01764204 0.77399999 0.0027141599 1.724783e-38 333 238
0.018999118 0.77399999 0.0027141599 1.7064508e-38 334 238
0.020356199 0.77399999 0.0027141599 1.6050715e-38 335 238
0.021713279 0.77399999 0.0027141599 1.3658665e-38 336 238
0.02307036 0.77399999 0.0027141599 1.4672817e-38 337 238
0.024490559 0.77600002 0.0027211732 1.5868489e-38 338 238
0.025851147 0.77600002 0.0027211732 1.6237271e-38 339 238
0.027211733 0.77600002 0.0027211732 1.7064508e-38 340 238
0.028572321 0.77600002 0.0027211732 1.7156704e-38 341 238
-0.034715999 0.792 0.0013886399 1.8810449e-38 295 239
-0.03332736 0.792 0.0013886399 1.7522597e-38 296 239
-0.031938717 0.792 0.0013886399 1.6877227e-38 297 239
-0.030550079 0.792 0.0013886399 1.5132363e-38 298 239
-0.029087799 0.79000002 0.0013851334 1.5501506e-38 299 239
-0.027667599 0.78899997 0.0013833799 1.6419514e-38 300 239
-0.026217593 0.787 0.0013798733 1.6511711e-38 301 239
-0.0247746 0.78500003 0.0013763667 1.6787578e-38 302 239
-0.023279008 0.78100002 0.0013693533 1.6787578e-38 303 239
-0.021881599 0.77999997 0.0013675999 1.6236195e-38 304 239
-0.020513998 0.77999997 0.0013675999 1.595961e-38 305 239
-0.019097306 0.778 0.0013640933 1.6510969e-38 306 239
-0.017687626 0.77600002 0.0013605866 1.7340729e-38 307 239
-0.016284959 0.77399999 0.0013570799 1.8905884e-38 308 239
-0.014927879 0.77399999 0.0013570799 1.7615146e-38 309 239
-0.013570799 0.77399999 0.0013570799 1.4394419e-38 310 239
-0.012197939 0.773 0.0013553266 1.4025277e-38 311 239
-0.010842613 0.773 0.0013553266 1.3750137e-38 312 239
-0.0094872871 0.773 0.0013553266 1.4211117e-38 313 239
-0.0081319595 0.773 0.0013553266 1.5029313e-38 314 239
-0.0067766332 0.773 0.0013553266 1.2079054e-38 315 239
-0.0054072798 0.77100003 0.00135182 7.9298359e-39 316 239
-0.00403442 0.76700002 0.0013448066 5.8093364e-39 317 239
-0.0013448066 0.76700002 0.0013448066 8.0270986e-39 319 239
0 0.76700002 0.0013448066 7.3727833e-39 320 239
0.0013448066 0.76700002 0.0013448066 7.9259571e-39 321 239
0.0026896133 0.76700002 0.0013448066 9.043466e-39 322 239
0.00403442 0.76700002 0.0013448066 1.2362867e-38 323 239
0.0053932532 0.76899999 0.0013483133 1.3386744e-38 324 239
0.0067415666 0.76899999 0.0013483133 1.4124309e-38 325 239
0.0080898795 0.76899999 0.0013483133 1.669501e-38 326 239
0.0094381925 0.76899999 0.0013483133 1.752441e-38 327 239
0.01081456 0.77100003 0.00135182 1.7524047e-38 328 239
0.01216638 0.77100003 0.00135182 1.7339297e-38 329 239
0.013553266 0.773 0.0013553266 1.7523328e-38 330 239
0.014908593 0.773 0.0013553266 1.7338578e-38 331 239
0.016263919 0.773 0.0013553266 1.7063436e-38 332 239
0.017619247 0.773 0.0013553266 1.7063436e-38 333 239
0.018974574 0.773 0.0013553266 1.7064511e-38 334 239
0.0203299 0.773 0.0013553266 1.5312794e-38 335 239
0.021713279 0.77399999 0.0013570799 1.190839e-38 336 239
0.02307036 0.77399999 0.0013570799 1.3660467e-38 337 239
0.024490559 0.77600002 0.0013605866 1.5684821e-38 338 239
0.025851147 0.77600002 0.0013605866 1.5777016e-38 339 239
0.027211733 0.77600002 0.0013605866 1.5869565e-38 340 239
0.028572321 0.77600002 0.0013605866 1.6238347e-38 341 239
0.029932907 0.77600002 0.0013605866 1.8074334e-38 342 239
-0.036104638 0.792 -0 1.927107e-38 294 240
-0.034715999 0.792 -0 1.8718256e-38 295 240
-0.03332736 0.792 -0 1.7246018e-38 296 240
-0.031938717 0.792 -0 1.6876877e-38 297 240
-0.030550079 0.792 -0 1.4946537e-38 298 240
-0.029087799 0.79000002 -0 1.5222763e-38 299 240
-0.027667599 0.78899997 -0 1.6235486e-38 300 240
-0.026217593 0.787 -0 1.632804e-38 301 240
-0.0247746 0.78500003 -0 1.6236925e-38 302 240
-0.023279008 0.78100002 -0 1.6697543e-38 303 240
-0.021881599 0.77999997 -0 1.6050726e-38 304 240
-0.020461399 0.778 -0 1.5221326e-38 305 240
-0.019097306 0.778 -0 1.6512413e-38 306 240
-0.017687626 0.77600002 -0 1.7065587e-38 307 240
-0.016284959 0.77399999 -0 1.872077e-38 308 240
-0.014927879 0.77399999 -0 1.7153444e-38 309 240
-0.013553266 0.773 -0 1.3196595e-38 310 240
-0.012197939 0.773 -0 1.2827453e-38 311 240
-0.010842613 0.773 -0 1.3012592e-38 312 240
-0.0094872871 0.773 -0 1.5686265e-38 313 240
-0.0081109209 0.77100003 -0 1.8903013e-38 314 240
-0.0067590997 0.77100003 -0 1.7335688e-38 315 240
-0.0054072798 0.77100003 -0 1.5764669e-38 316 240
-0.00403442 0.76700002 -0 1.1247084e-38 317 240
-0.0026896133 0.76700002 -0 8.6598648e-39 318 240
-0.0013448066 0.76700002 -0 7.5535172e-39 319 240
0 0.76700002 -0 4.4398474e-39 320 240
0.0013448066 0.76700002 -0 7.4823018e-39 321 240
0.0026896133 0.76700002 -0 1.3652223e-38 322 240
0.00403442 0.76700002 -0 1.5311384e-38 323 240
0.0053932532 0.76899999 -0 1.5312426e-38 324 240
0.0067415666 0.76899999 -0 1.457486e-38 325 240
0.0080898795 0.76899999 -0 1.430152e-38 326 240
0.0094381925 0.76899999 -0 1.5684455e-38 327 240
0.01081456 0.77100003 -0 1.688049e-38 328 240
0.01216638 0.77100003 -0 1.688049e-38 329 240
0.013553266 0.773 -0 1.706307e-38 330 240
0.014908593 0.773 -0 1.706307e-38 331 240
0.016263919 0.773 -0 1.6971594e-38 332 240
0.017619247 0.773 -0 1.7155985e-38 333 240
0.018974574 0.773 -0 1.6971241e-38 334 240
0.0203299 0.773 -0 1.5312078e-38 335 240
0.021685226 0.773 -0 1.2641642e-38 336 240
0.02307036 0.77399999 -0 1.457775e-38 337 240
0.02442744 0.77399999 -0 1.6328388e-38 338 240
0.025851147 0.77600002 -0 1.5959966e-38 339 240
0.027211733 0.77600002 -0 1.5317113e-38 340 240
0.028498679 0.77399999 -0 1.5501506e-38 341 240
0.029855758 0.77399999 -0 1.7339653e-38 342 240
-0.036195815 0.79400003 -0.0013921467 1.9272146e-38 294 241
-0.034715999 0.792 -0.0013886399 1.8442744e-38 295 241
-0.03332736 0.792 -0.0013886399 1.6786479e-38 296 241
-0.031938717 0.792 -0.0013886399 1.6417698e-38 297 241
-0.030550079 0.792 -0.0013886399 1.5865618e-38 298 241
-0.029087799 0.79000002 -0.0013851334 1.4759271e-38 299 241
-0.027702667 0.79000002 -0.0013851334 1.5407523e-38 300 241
-0.026284218 0.78899997 -0.0013833799 1.632984e-38 301 241
-0.024711479 0.78299999 -0.0013728599 1.6880855e-38 302 241
-0.023249198 0.77999997 -0.0013675999 1.7065607e-38 303 241
-0.021825492 0.778 -0.0013640933 1.5867414e-38 304 241
-0.020461399 0.778 -0.0013640933 1.4668871e-38 305 241
-0.019048214 0.77600002 -0.0013605866 1.6603533e-38 306 241
-0.017687626 0.77600002 -0.0013605866 1.7341098e-38 307 241
-0.016284959 0.77399999 -0.0013570799 1.8353082e-38 308 241
-0.014927879 0.77399999 -0.0013570799 1.7707713e-38 309 241
-0.013553266 0.773 -0.0013553266 1.6420568e-38 310 241
-0.012197939 0.773 -0.0013553266 1.6973742e-38 311 241
-0.010842613 0.773 -0.0013553266 1.7066309e-38 312 241
-0.0094872871 0.773 -0.0013553266 1.7619483e-38 313 241
-0.0081109209 0.77100003 -0.00135182 1.8261609e-38 314 241
-0.0067415666 0.76899999 -0.0013483133 1.9183566e-38 315 241
-0.0053792265 0.76700002 -0.0013448066 2.1205718e-38 316 241
-0.00403442 0.76700002 -0.0013448066 2.0007175e-38 317 241
-0.0026896133 0.76700002 -0.0013448066 1.4190215e-38 318 241
-0.0013448066 0.76700002 -0.0013448066 1.1977519e-38 319 241
0 0.76700002 -0.0013448066 1.4763914e-38 320 241
0.0013448066 0.76700002 -0.0013448066 1.7069165e-38 321 241
0.0026896133 0.76700002 -0.0013448066 1.8262686e-38 322 241
0.00403442 0.76700002 -0.0013448066 1.7893903e-38 323 241
0.0053932532 0.76899999 -0.0013483133 1.8440606e-38 324 241
0.006724033 0.76700002 -0.0013448066 1.6689249e-38 325 241
0.00806884 0.76700002 -0.0013448066 1.3381355e-38 326 241
0.0094136465 0.76700002 -0.0013448066 1.2735987e-38 327 241
0.010758453 0.76700002 -0.0013448066 1.4946888e-38 328 241
0.012134819 0.76899999 -0.0013483133 1.6329824e-38 329 241
0.013483133 0.76899999 -0.0013483133 1.743078e-38 330 241
0.01487002 0.77100003 -0.00135182 1.7338584e-38 331 241
0.016263919 0.773 -0.0013553266 1.7247458e-38 332 241
0.017619247 0.773 -0.0013553266 1.6970871e-38 333 241
0.018974574 0.773 -0.0013553266 1.5865965e-38 334 241
0.0203299 0.773 -0.0013553266 1.4298999e-38 335 241
0.021685226 0.773 -0.0013553266 1.3378851e-38 336 241
0.02307036 0.77399999 -0.0013570799 1.5314959e-38 337 241
0.02442744 0.77399999 -0.0013570799 1.6604979e-38 338 241
0.025784519 0.77399999 -0.0013570799 1.5590826e-38 339 241
0.027141599 0.77399999 -0.0013570799 1.4211842e-38 340 241
0.028498679 0.77399999 -0.0013570799 1.4027092e-38 341 241
0.029855758 0.77399999 -0.0013570799 1.5868117e-38 342 241
-0.036195815 0.79400003 -0.0027842934 1.9456174e-38 294 242
-0.034715999 0.792 -0.0027772798 1.8903001e-38 295 242
-0.03332736 0.792 -0.0027772798 1.7062343e-38 296 242
-0.031858064 0.79000002 -0.0027702667 1.6693562e-38 297 242
-0.030472934 0.79000002 -0.0027702667 1.6050007e-38 298 242
-0.029087799 0.79000002 -0.0027702667 1.4944019e-38 299 242
-0.027702667 0.79000002 -0.0027702667 1.4763587e-38 300 242
-0.026284218 0.78899997 -0.0027667598 1.6146522e-38 301 242
-0.024711479 0.78299999 -0.0027457199 1.7244236e-38 302 242
-0.023249198 0.77999997 -0.0027351999 1.6045693e-38 303 242
-0.021825492 0.778 -0.0027281865 1.4211842e-38 304 242
-0.020461399 0.778 -0.0027281865 1.4764657e-38 305 242
-0.019048214 0.77600002 -0.0027211732 1.743078e-38 306 242
-0.017687626 0.77600002 -0.0027211732 1.7707006e-38 307 242
-0.016284959 0.77399999 -0.0027141599 1.7065237e-38 308 242
-0.014927879 0.77399999 -0.0027141599 1.7065237e-38 309 242
-0.013553266 0.773 -0.0027106532 1.7157786e-38 310 242
-0.012197939 0.773 -0.0027106532 1.7157786e-38 311 242
-0.010842613 0.773 -0.0027106532 1.7341098e-38 312 242
-0.0094872871 0.773 -0.0027106532 1.7248902e-38 313 242
-0.0081109209 0.77100003 -0.0027036399 1.7892471e-38 314 242
-0.0067415666 0.76899999 -0.0026966266 1.872259e-38 315 242
-0.0053792265 0.76700002 -0.0026896133 2.0010437e-38 316 242
-0.00403442 0.76700002 -0.0026896133 2.0655806e-38 317 242
-0.0026896133 0.76700002 -0.0026896133 1.65981e-38 318 242
-0.0013448066 0.76700002 -0.0026896133 1.3371253e-38 319 242
0 0.76700002 -0.0026896133 1.7708416e-38 320 242
0.0013448066 0.76700002 -0.0026896133 1.8722569e-38 321 242
0.0026896133 0.76700002 -0.0026896133 1.8076499e-38 322 242
0.00403442 0.76700002 -0.0026896133 1.7892108e-38 323 242
0.0053792265 0.76700002 -0.0026896133 1.7891032e-38 324 242
0.006724033 0.76700002 -0.0026896133 1.7153467e-38 325 242
0.00806884 0.76700002 -0.0026896133 1.5496813e-38 326 242
0.0094136465 0.76700002 -0.0026896133 1.4022043e-38 327 242
0.010758453 0.76700002 -0.0026896133 1.3565023e-38 328 242
0.01210326 0.76700002 -0.0026896133 1.4394785e-38 329 242
0.013448066 0.76700002 -0.0026896133 1.5954924e-38 330 242
0.014831445 0.76899999 -0.0026966266 1.5586141e-38 331 242
0.016221842 0.77100003 -0.0027036399 1.5399576e-38 332 242
0.017619247 0.773 -0.0027106532 1.3740414e-38 333 242
0.018974574 0.773 -0.0027106532 9.4090368e-39 334 242
0.0203299 0.773 -0.0027106532 1.1068199e-38 335 242
0.021713279 0.77399999 -0.0027141599 1.1448513e-38 336 242
0.02307036 0.77399999 -0.0027141599 1.4122186e-38 337 242
0.02442744 0.77399999 -0.0027141599 1.5959975e-38 338 242
0.025784519 0.77399999 -0.0027141599 1.5038379e-38 339 242
0.027141599 0.77399999 -0.0027141599 1.3934173e-38 340 242
0.028498679 0.77399999 -0.0027141599 1.3381359e-38 341 242
0.029855758 0.77399999 -0.0027141599 1.485504e-38 342 242
-0.034715999 0.792 -0.00416592 1.9088114e-38 295 243
-0.033243202 0.79000002 -0.0041554002 1.7522244e-38 296 243
-0.031858064 0.79000002 -0.0041554002 1.6969429e-38 297 243
-0.030472934 0.79000002 -0.0041554002 1.6234757e-38 298 243
-0.029087799 0.79000002 -0.0041554002 1.512805e-38 299 243
-0.027702667 0.79000002 -0.0041554002 1.3659031e-38 300 243
-0.026284218 0.78899997 -0.0041501396 1.3659031e-38 301 243
-0.024711479 0.78299999 -0.0041185799 1.3280169e-38 302 243
-0.023249198 0.77999997 -0.0041027996 1.005368e-38 303 243
-0.021825492 0.778 -0.0040922803 1.0253542e-38 304 243
-0.020461399 0.778 -0.0040922803 1.4401985e-38 305 243
-0.019048214 0.77600002 -0.0040817601 1.7706653e-38 306 243
-0.017687626 0.77600002 -0.0040817601 1.7338231e-38 307 243
-0.016284959 0.77399999 -0.0040712398 1.596178e-38 308 243
-0.014927879 0.77399999 -0.0040712398 1.6053976e-38 309 243
-0.013553266 0.773 -0.0040659797 1.6881209e-38 310 243
-0.012197939 0.773 -0.0040659797 1.6973404e-38 311 243
-0.010842613 0.773 -0.0040659797 1.7524047e-38 312 243
-0.0094627403 0.77100003 -0.0040554604 1.7616243e-38 313 243
-0.0081109209 0.77100003 -0.0040554604 1.7893906e-38 314 243
-0.0067415666 0.76899999 -0.0040449398 1.8170133e-38 315 243
-0.0053792265 0.76700002 -0.00403442 1.8630389e-38 316 243
-0.00403442 0.76700002 -0.00403442 1.9183563e-38 317 243
-0.0026966266 0.76899999 -0.0040449398 1.6694631e-38 318 243
-0.0013448066 0.76700002 -0.00403442 1.5035469e-38 319 243
0 0.76700002 -0.00403442 1.7525116e-38 320 243
0.0013448066 0.76700002 -0.00403442 1.7709509e-38 321 243
0.0026896133 0.76700002 -0.00403442 1.7064511e-38 322 243
0.00403442 0.76700002 -0.00403442 1.6880121e-38 323 243
0.0053792265 0.76700002 -0.00403442 1.6695729e-38 324 243
0.006724033 0.76700002 -0.00403442 1.6880121e-38 325 243
0.00806884 0.76700002 -0.00403442 1.7429695e-38 326 243
0.0094136465 0.76700002 -0.00403442 1.6323706e-38 327 243
0.010758453 0.76700002 -0.00403442 1.3749419e-38 328 243
0.01210326 0.76700002 -0.00403442 1.1167941e-38 329 243
0.013448066 0.76700002 -0.00403442 1.1071407e-38 330 243
0.014831445 0.76899999 -0.0040449398 9.6884725e-39 331 243
0.016179759 0.76899999 -0.0040449398 8.1168112e-39 332 243
0.017619247 0.773 -0.0040659797 3.5992253e-39 333 243
0.018974574 0.773 -0.0040659797 4.3440252e-44 334 243
0.0203299 0.773 -0.0040659797 4.6065991e-39 335 243
0.021713279 0.77399999 -0.0040712398 6.2041775e-39 336 243
0.02307036 0.77399999 -0.0040712398 1.099835e-38 337 243
0.02442744 0.77399999 -0.0040712398 1.4670688e-38 338 243
0.025784519 0.77399999 -0.0040712398 1.4025319e-38 339 243
0.027141599 0.77399999 -0.0040712398 1.3473567e-38 340 243
0.028498679 0.77399999 -0.0040712398 1.3012948e-38 341 243
0.029855758 0.77399999 -0.0040712398 1.4211473e-38 342 243
-0.034715999 0.792 -0.0055545596 1.9271426e-38 295 244
-0.033243202 0.79000002 -0.0055405335 1.8349842e-38 296 244
-0.031858064 0.79000002 -0.0055405335 1.7704473e-38 297 244
-0.030472934 0.79000002 -0.0055405335 1.6603536e-38 298 244
-0.029087799 0.79000002 -0.0055405335 1.5220243e-38 299 244
-0.027667599 0.78899997 -0.0055335197 1.0251392e-38 300 244
-0.026284218 0.78899997 -0.0055335197 1.2162206e-39 301 244
-0.024711479 0.78299999 -0.0054914397 2.8595499e-39 302 244
-0.023279008 0.78100002 -0.0054774131 3.0439426e-39 303 244
-0.021825492 0.778 -0.0054563731 8.1326879e-39 304 244
-0.0204088 0.77600002 -0.0054423464 1.4678578e-38 305 244
-0.019048214 0.77600002 -0.0054423464 1.6696471e-38 306 244
-0.017687626 0.77600002 -0.0054423464 1.5958906e-38 307 244
-0.016284959 0.77399999 -0.0054283198 1.458353e-38 308 244
-0.014908593 0.773 -0.0054213065 1.5044869e-38 309 244
-0.013553266 0.773 -0.0054213065 1.752514e-38 310 244
-0.012197939 0.773 -0.0054213065 1.7986117e-38 311 244
-0.010842613 0.773 -0.0054213065 1.8536754e-38 312 244
-0.0094627403 0.77100003 -0.0054072798 1.8536754e-38 313 244
-0.0081109209 0.77100003 -0.0054072798 1.8354162e-38 314 244
-0.0067415666 0.76899999 -0.0053932532 1.8354162e-38 315 244
-0.0053932532 0.76899999 -0.0053932532 1.8354881e-38 316 244
-0.0040449398 0.76899999 -0.0053932532 1.8354881e-38 317 244
-0.0026966266 0.76899999 -0.0053932532 1.5498262e-38 318 244
-0.0013448066 0.76700002 -0.0053792265 1.448411e-38 319 244
0 0.76700002 -0.0053792265 1.6512419e-38 320 244
0.0013448066 0.76700002 -0.0053792265 1.6973038e-38 321 244
0.0026896133 0.76700002 -0.0053792265 1.6696452e-38 322 244
0.00403442 0.76700002 -0.0053792265 1.6512419e-38 323 244
0.0053792265 0.76700002 -0.0053792265 1.6510981e-38 324 244
0.006724033 0.76700002 -0.0053792265 1.6418786e-38 325 244
0.00806884 0.76700002 -0.0053792265 1.6510981e-38 326 244
0.0094136465 0.76700002 -0.0053792265 1.6695731e-38 327 244
0.010758453 0.76700002 -0.0053792265 1.4761775e-38 328 244
0.01210326 0.76700002 -0.0053792265 1.0797363e-38 329 244
0.013448066 0.76700002 -0.0053792265 5.2637997e-39 330 244
0.014792874 0.76700002 -0.0053792265 7.4657259e-40 331 244
0.016179759 0.76899999 -0.0053932532 9.2483036e-40 332 244
0.017619247 0.773 -0.0054213065 1.4349296e-42 333 244
0.018974574 0.773 -0.0054213065 4.2038954e-44 334 244
0.0203299 0.773 -0.0054213065 4.3692486e-42 335 244
0.021713279 0.77399999 -0.0054283198 8.5899876e-40 336 244
0.02307036 0.77399999 -0.0054283198 8.6034303e-39 337 244
0.02442744 0.77399999 -0.0054283198 1.4394474e-38 338 244
0.025784519 0.77399999 -0.0054283198 1.3656908e-38 339 244
0.027141599 0.77399999 -0.0054283198 1.3565769e-38 340 244
0.028498679 0.77399999 -0.0054283198 1.3288823e-38 341 244
0.029855758 0.77399999 -0.0054283198 1.4670296e-38 342 244
-0.033243202 0.79000002 -0.0069256667 1.8810096e-38 296 245
-0.031817738 0.78899997 -0.0069168997 1.8164727e-38 297 245
-0.030434359 0.78899997 -0.0069168997 1.660353e-38 298 245
-0.029087799 0.79000002 -0.0069256667 1.5497543e-38 299 245
-0.027667599 0.78899997 -0.0069168997 9.7835576e-39 300 245
-0.026150968 0.78500003 -0.0068818335 4.2038954e-45 301 245
-0.024648361 0.78100002 -0.0068467669 1.4012985e-44 302 245
-0.023189586 0.778 -0.0068204664 3.0828566e-44 303 245
-0.021825492 0.778 -0.0068204664 6.9262582e-39 304 245
-0.0204088 0.77600002 -0.0068029333 1.5408256e-38 305 245
-0.019048214 0.77600002 -0.0068029333 1.6053991e-38 306 245
-0.017687626 0.77600002 -0.0068029333 1.531607e-38 307 245
-0.016284959 0.77399999 -0.0067853997 1.4950162e-38 308 245
-0.014908593 0.773 -0.0067766332 1.5595531e-38 309 245
-0.013553266 0.773 -0.0067766332 1.8352379e-38 310 245
-0.012197939 0.773 -0.0067766332 1.8444574e-38 311 245
-0.010842613 0.773 -0.0067766332 1.8169767e-38 312 245
-0.0094627403 0.77100003 -0.0067590997 1.8538191e-38 313 245
-0.0081109209 0.77100003 -0.0067590997 1.8447077e-38 314 245
-0.0067590997 0.77100003 -0.0067590997 1.8262686e-38 315 245
-0.0053932532 0.76899999 -0.0067415666 1.8170136e-38 316 245
-0.0040449398 0.76899999 -0.0067415666 1.7801354e-38 317 245
-0.0026966266 0.76899999 -0.0067415666 1.531424e-38 318 245
-0.0013483133 0.76899999 -0.0067415666 1.3470686e-38 319 245
0 0.76700002 -0.006724033 1.5223845e-38 320 245
0.0013448066 0.76700002 -0.006724033 1.6237638e-38 321 245
0.0026896133 0.76700002 -0.006724033 1.6144725e-38 322 245
0.00403442 0.76700002 -0.006724033 1.5959975e-38 323 245
0.0053792265 0.76700002 -0.006724033 1.6142572e-38 324 245
0.006724033 0.76700002 -0.006724033 1.5774148e-38 325 245
0.00806884 0.76700002 -0.006724033 1.540716e-38 326 245
0.0094136465 0.76700002 -0.006724033 1.5959975e-38 327 245
0.010758453 0.76700002 -0.006724033 1.4945103e-38 328 245
0.01210326 0.76700002 -0.006724033 1.0704106e-38 329 245
0.013448066 0.76700002 -0.006724033 2.8649337e-39 330 245
0.014792874 0.76700002 -0.006724033 7.0064923e-45 331 245
0.01613768 0.76700002 -0.006724033 2.1748152e-42 332 245
0.017482487 0.76700002 -0.006724033 3.7455867e-40 333 245
0.018999118 0.77399999 -0.0067853997 9.0453816e-42 334 245
0.020356199 0.77399999 -0.0067853997 4.0035097e-42 335 245
0.021713279 0.77399999 -0.0067853997 1.0875477e-41 336 245
0.023129974 0.77600002 -0.0068029333 7.8536249e-39 337 245
0.024490559 0.77600002 -0.0068029333 1.3932786e-38 338 245
0.025851147 0.77600002 -0.0068029333 1.3472166e-38 339 245
0.027211733 0.77600002 -0.0068029333 1.2647054e-38 340 245
0.028572321 0.77600002 -0.0068029333 1.310803e-38 341 245
-0.031817738 0.78899997 -0.0083002793 1.8256925e-38 297 246
-0.030434359 0.78899997 -0.0083002793 1.6511334e-38 298 246
-0.02905098 0.78899997 -0.0083002793 1.5497543e-38 299 246
-0.027667599 0.78899997 -0.0083002793 1.0518969e-38 300 246
-0.026084339 0.78299999 -0.0082371598 5.4244264e-42 301 246
-0.024648361 0.78100002 -0.0082161194 1.1110741e-39 302 246
-0.023129974 0.77600002 -0.0081635201 3.735091e-40 303 246
-0.021769386 0.77600002 -0.0081635201 4.2561947e-39 304 246
-0.0204088 0.77600002 -0.0081635201 1.1540008e-38 305 246
-0.019048214 0.77600002 -0.0081635201 1.5042725e-38 306 246
-0.017687626 0.77600002 -0.0081635201 1.5227113e-38 307 246
-0.016263919 0.773 -0.0081319595 1.6511361e-38 308 246
-0.014908593 0.773 -0.0081319595 1.6326968e-38 309 246
-0.013553266 0.773 -0.0081319595 1.6417701e-38 310 246
-0.012197939 0.773 -0.0081319595 1.6048558e-38 311 246
-0.010842613 0.773 -0.0081319595 1.5592978e-38 312 246
-0.0094627403 0.77100003 -0.0081109209 1.6514934e-38 313 246
-0.0081109209 0.77100003 -0.0081109209 1.6790092e-38 314 246
-0.0067590997 0.77100003 -0.0081109209 1.6697896e-38 315 246
-0.0053932532 0.76899999 -0.0080898795 1.7248549e-38 316 246
-0.0040449398 0.76899999 -0.0080898795 1.7156354e-38 317 246
-0.0026966266 0.76899999 -0.0080898795 1.5592272e-38 318 246
-0.0013483133 0.76899999 -0.0080898795 1.3471771e-38 319 246
0 0.76899999 -0.0080898795 1.375088e-38 320 246
0.0013448066 0.76700002 -0.00806884 1.522601e-38 321 246
0.0026896133 0.76700002 -0.00806884 1.5501158e-38 322 246
0.00403442 0.76700002 -0.00806884 1.5408604e-38 323 246
0.0053792265 0.76700002 -0.00806884 1.5682671e-38 324 246
0.006724033 0.76700002 -0.00806884 1.5590117e-38 325 246
0.00806884 0.76700002 -0.00806884 1.5314612e-38 326 246
0.0094136465 0.76700002 -0.00806884 1.5867785e-38 327 246
0.010758453 0.76700002 -0.00806884 1.411787e-38 328 246
0.01210326 0.76700002 -0.00806884 9.6002846e-39 329 246
0.013448066 0.76700002 -0.00806884 2.4082968e-39 330 246
0.014792874 0.76700002 -0.00806884 1.4867777e-42 331 246
0.01613768 0.76700002 -0.00806884 6.5224418e-40 332 246
0.018999118 0.77399999 -0.0081424797 1.205418e-39 334 246
0.020356199 0.77399999 -0.0081424797 5.4342354e-42 335 246
0.021713279 0.77399999 -0.0081424797 5.7453237e-44 336 246
0.023129974 0.77600002 -0.0081635201 6.0918116e-39 337 246
0.024553679 0.778 -0.0081845606 1.0800275e-38 338 246
0.025917772 0.778 -0.0081845606 1.1814068e-38 339 246
0.027281865 0.778 -0.0081845606 1.1083674e-38 340 246
-0.031817738 0.78899997 -0.0096836593 1.8258363e-38 297 247
-0.030434359 0.78899997 -0.0096836593 1.6695363e-38 298 247
-0.02905098 0.78899997 -0.0096836593 1.5865602e-38 299 247
-0.027667599 0.78899997 -0.0096836593 1.1070703e-38 300 247
-0.026084339 0.78299999 -0.0096100196 5.6040168e-40 301 247
-0.024648361 0.78100002 -0.0095854728 2.7684291e-39 302 247
-0.023129974 0.77600002 -0.009524107 1.201102e-39 303 247
-0.021769386 0.77600002 -0.009524107 1.6629209e-41 304 247
-0.0204088 0.77600002 -0.009524107 4.9091199e-39 305 247
-0.019048214 0.77600002 -0.009524107 1.3292817e-38 306 247
-0.01764204 0.77399999 -0.0094995592 1.4859771e-38 307 247
-0.016263919 0.773 -0.0094872871 1.559047e-38 308 247
-0.014908593 0.773 -0.0094872871 1.5406439e-38 309 247
-0.013553266 0.773 -0.0094872871 1.4946886e-38 310 247
-0.01216638 0.77100003 -0.0094627403 1.466994e-38 311 247
-0.01081456 0.77100003 -0.0094627403 1.4486999e-38 312 247
-0.0094627403 0.77100003 -0.0094627403 1.5962131e-38 313 247
-0.0081109209 0.77100003 -0.0094627403 1.6512433e-38 314 247
-0.0067590997 0.77100003 -0.0094627403 1.6696824e-38 315 247
-0.0053932532 0.76899999 -0.0094381925 1.6604985e-38 316 247
-0.0040449398 0.76899999 -0.0094381925 1.6420235e-38 317 247
-0.0026966266 0.76899999 -0.0094381925 1.5683749e-38 318 247
-0.0013483133 0.76899999 -0.0094381925 1.4116421e-38 319 247
0 0.76899999 -0.0094381925 1.2552334e-38 320 247
0.0013448066 0.76700002 -0.0094136465 1.4673192e-38 321 247
0.0026896133 0.76700002 -0.0094136465 1.5499723e-38 322 247
0.00403442 0.76700002 -0.0094136465 1.5407526e-38 323 247
0.0053792265 0.76700002 -0.0094136465 1.5131662e-38 324 247
0.006724033 0.76700002 -0.0094136465 1.4855435e-38 325 247
0.00806884 0.76700002 -0.0094136465 1.4946196e-38 326 247
0.0094136465 0.76700002 -0.0094136465 1.5591566e-38 327 247
0.010758453 0.76700002 -0.0094136465 1.3658333e-38 328 247
0.01210326 0.76700002 -0.0094136465 8.4953789e-39 329 247
0.013448066 0.76700002 -0.0094136465 1.7654469e-39 330 247
0.014792874 0.76700002 -0.0094136465 5.4468471e-42 331 247
0.01613768 0.76700002 -0.0094136465 1.0199519e-39 332 247
0.018999118 0.77399999 -0.0094995592 7.4479714e-40 334 247
0.020461399 0.778 -0.0095486529 3.6307643e-42 335 247
0.021825492 0.778 -0.0095486529 0 336 247
0.023189586 0.778 -0.0095486529 5.9938118e-39 337 247
0.024616797 0.77999997 -0.0095731998 9.6038271e-39 338 247
0.025984399 0.77999997 -0.0095731998 1.1724685e-38 339 247
0.027351998 0.77999997 -0.0095731998 1.3008977e-38 340 247
-0.031817738 0.78899997 -0.011067039 1.7982136e-38 297 248
-0.030434359 0.78899997 -0.011067039 1.7061987e-38 298 248
-0.02905098 0.78899997 -0.011067039 1.6601369e-38 299 248
-0.027667599 0.78899997 -0.011067039 1.1531326e-38 300 248
-0.026284218 0.78899997 -0.011067039 1.3901665e-39 301 248
-0.024900839 0.78899997 -0.011067039 3.4134215e-39 302 248
-0.023129974 0.77600002 -0.010884693 1.846456e-39 303 248
-0.021769386 0.77600002 -0.010884693 4.2038954e-44 304 248
-0.0204088 0.77600002 -0.010884693 2.5836889e-39 305 248
-0.019048214 0.77600002 -0.010884693 1.1446358e-38 306 248
-0.01764204 0.77399999 -0.01085664 1.3843444e-38 307 248
-0.016263919 0.773 -0.010842613 1.4762507e-38 308 248
-0.014908593 0.773 -0.010842613 1.5869215e-38 309 248
-0.013553266 0.773 -0.010842613 1.6515656e-38 310 248
-0.01216638 0.77100003 -0.01081456 1.6515656e-38 311 248
-0.01081456 0.77100003 -0.01081456 1.6697177e-38 312 248
-0.0094627403 0.77100003 -0.01081456 1.6420591e-38 313 248
-0.0081109209 0.77100003 -0.01081456 1.6604985e-38 314 248
-0.0067590997 0.77100003 -0.01081456 1.6604985e-38 315 248
-0.0053932532 0.76899999 -0.010786506 1.5961057e-38 316 248
-0.0040449398 0.76899999 -0.010786506 1.5868862e-38 317 248
-0.0026966266 0.76899999 -0.010786506 1.5959975e-38 318 248
-0.0013483133 0.76899999 -0.010786506 1.5038379e-38 319 248
0 0.76899999 -0.010786506 1.2735284e-38 320 248
0.0013483133 0.76899999 -0.010786506 1.4394803e-38 321 248
0.0026896133 0.76700002 -0.010758453 1.5132743e-38 322 248
0.00403442 0.76700002 -0.010758453 1.494835e-38 323 248
0.0053792265 0.76700002 -0.010758453 1.5038751e-38 324 248
0.006724033 0.76700002 -0.010758453 1.4946196e-38 325 248
0.00806884 0.76700002 -0.010758453 1.4487376e-38 326 248
0.0094136465 0.76700002 -0.010758453 1.5316777e-38 327 248
0.010758453 0.76700002 -0.010758453 1.3197719e-38 328 248
0.01210326 0.76700002 -0.010758453 6.9287749e-39 329 248
0.013448066 0.76700002 -0.010758453 6.5586093e-40 330 248
0.014831445 0.76899999 -0.010786506 2.2070451e-42 331 248
0.016179759 0.76899999 -0.010786506 8.3519631e-40 332 248
0.018999118 0.77399999 -0.01085664 5.0727004e-42 334 248
0.020356199 0.77399999 -0.01085664 3.9096227e-43 335 248
0.021713279 0.77399999 -0.01085664 1.0117375e-41 336 248
0.023189586 0.778 -0.010912746 8.2162487e-39 337 248
0.024553679 0.778 -0.010912746 1.310299e-38 338 248
0.025984399 0.77999997 -0.010940799 1.3471771e-38 339 248
0.027351998 0.77999997 -0.010940799 1.4114255e-38 340 248
-0.030434359 0.78899997 -0.012450419 1.7519728e-38 298 249
-0.024490559 0.77600002 -0.01224528 1.7589e-39 302 249
-0.023129974 0.77600002 -0.01224528 6.1026548e-42 303 249
-0.021769386 0.77600002 -0.01224528 1.202862e-39 304 249
-0.0204088 0.77600002 -0.01224528 5.2594697e-39 305 249
-0.019048214 0.77600002 -0.01224528 1.6043507e-38 306 249
-0.01764204 0.77399999 -0.01221372 1.7334246e-38 307 249
-0.016263919 0.773 -0.012197939 1.6418788e-38 308 249
-0.014908593 0.773 -0.012197939 1.7064158e-38 309 249
-0.013518199 0.77100003 -0.01216638 1.7158156e-38 310 249
-0.01216638 0.77100003 -0.01216638 1.7158156e-38 311 249
-0.01081456 0.77100003 -0.01216638 1.7156e-38 312 249
-0.0094627403 0.77100003 -0.01216638 1.6602827e-38 313 249
-0.0081109209 0.77100003 -0.01216638 1.614509e-38 314 249
-0.0067590997 0.77100003 -0.01216638 1.6237644e-38 315 249
-0.0054072798 0.77100003 -0.01216638 1.632877e-38 316 249
