# .PCD v.7 - Point Cloud Data file format
FIELDS x y z rgb imX imY
SIZE 4 4 4 4 4 4
TYPE F F F F F F
COUNT 1 1 1 1 1 1
WIDTH 855
HEIGHT 1
VIEWPOINT 0 0 0 1 0 0 0
POINTS 855
DATA ascii
0.027502786 0.713 -0.046254687 1.6687081e-38 342 277
0.028793238 0.71399999 -0.046319555 1.5672569e-38 343 277
0.030045118 0.71399999 -0.046319555 1.530631e-38 344 277
0.031296998 0.71399999 -0.046319555 1.530631e-38 345 277
0.032548878 0.71399999 -0.046319555 1.5123365e-38 346 277
0.033800758 0.71399999 -0.046319555 1.5584342e-38 347 277
0.035150826 0.71600002 -0.046449307 1.4668874e-38 348 277
0.036457058 0.71700001 -0.046514176 1.49451e-38 349 277
0.037714198 0.71700001 -0.046514176 1.4578479e-38 350 277
0.039080046 0.71899998 -0.046643924 1.4578479e-38 351 277
0.040396802 0.72000003 -0.0467088 1.4394085e-38 352 277
0.041774917 0.722 -0.046838548 1.4394085e-38 353 277
0.043100435 0.72299999 -0.046903417 1.4394082e-38 354 277
0.044368099 0.72299999 -0.046903417 1.4209691e-38 355 277
0.045761999 0.72500002 -0.047033165 1.4300087e-38 356 277
0.047162913 0.727 -0.047162913 1.3746913e-38 357 277
0.048437584 0.727 -0.047162913 1.4114974e-38 358 277
0.049712259 0.727 -0.047162913 1.4944735e-38 359 277
0.050986931 0.727 -0.047162913 1.6691766e-38 360 277
-0.0076270006 0.72500002 -0.048304334 1.484209e-38 314 278
-0.0063295332 0.722 -0.048104454 1.4473307e-38 315 278
-0.0050636264 0.722 -0.048104454 1.4841718e-38 316 278
-0.0037977197 0.722 -0.048104454 1.5026468e-38 317 278
-0.0025248001 0.72000003 -0.0479712 1.5214109e-38 318 278
-0.0012624001 0.72000003 -0.0479712 1.5306663e-38 319 278
0 0.72000003 -0.0479712 1.4848573e-38 320 278
0.0012606466 0.71899998 -0.04790457 1.4940769e-38 321 278
0.0025142799 0.71700001 -0.04777132 1.5033321e-38 322 278
0.0037714199 0.71700001 -0.04777132 1.5217712e-38 323 278
0.0050215465 0.71600002 -0.047704693 1.5126235e-38 324 278
0.0062769335 0.71600002 -0.047704693 1.5218431e-38 325 278
0.00753232 0.71600002 -0.047704693 1.5310628e-38 326 278
0.0087631596 0.71399999 -0.047571439 1.5310628e-38 327 278
0.01001504 0.71399999 -0.047571439 1.5586136e-38 328 278
0.011266919 0.71399999 -0.047571439 1.5586136e-38 329 278
0.012501267 0.713 -0.047504812 1.577053e-38 330 278
0.013751393 0.713 -0.047504812 1.577053e-38 331 278
0.015001519 0.713 -0.047504812 1.5770886e-38 332 278
0.016251646 0.713 -0.047504812 1.5770886e-38 333 278
0.01745268 0.71100003 -0.047371563 1.6046391e-38 334 278
0.0186993 0.71100003 -0.047371563 1.6231142e-38 335 278
0.01994592 0.71100003 -0.047371563 1.6231139e-38 336 278
0.021162732 0.70999998 -0.047304932 1.6784312e-38 337 278
0.022407599 0.70999998 -0.047304932 1.8162933e-38 338 278
0.023685781 0.71100003 -0.047371563 1.9453672e-38 339 278
0.024932399 0.71100003 -0.047371563 2.1384752e-38 340 278
0.026179021 0.71100003 -0.047371563 1.9264253e-38 341 278
0.027425639 0.71100003 -0.047371563 1.6871119e-38 342 278
0.028672259 0.71100003 -0.047371563 1.5764412e-38 343 278
0.030003037 0.713 -0.047504812 1.5306663e-38 344 278
0.031296998 0.71399999 -0.047571439 1.5491056e-38 345 278
0.032548878 0.71399999 -0.047571439 1.521628e-38 346 278
0.033800758 0.71399999 -0.047571439 1.5400671e-38 347 278
0.035150826 0.71600002 -0.047704693 1.439301e-38 348 278
0.036406212 0.71600002 -0.047704693 1.4669595e-38 349 278
0.037661601 0.71600002 -0.047704693 1.4671039e-38 350 278
0.038971342 0.71700001 -0.04777132 1.4578842e-38 351 278
0.040340692 0.71899998 -0.04790457 1.439445e-38 352 278
0.041659199 0.72000003 -0.0479712 1.439445e-38 353 278
0.043040827 0.722 -0.048104454 1.4211138e-38 354 278
0.044368099 0.72299999 -0.048171077 1.4118584e-38 355 278
0.04563576 0.72299999 -0.048171077 1.4116419e-38 356 278
0.047033165 0.72500002 -0.048304334 1.3655442e-38 357 278
0.048437584 0.727 -0.048437584 1.374691e-38 358 278
0.049712259 0.727 -0.048437584 1.4023857e-38 359 278
0.050986931 0.727 -0.048437584 1.5771251e-38 360 278
0.052261602 0.727 -0.048437584 1.6416621e-38 361 278
-0.0089227129 0.727 -0.049712259 1.3372708e-38 313 279
-0.0076270006 0.72500002 -0.0495755 1.5667882e-38 314 279
-0.0063295332 0.722 -0.04937036 1.5944827e-38 315 279
-0.0050636264 0.722 -0.04937036 1.4934635e-38 316 279
-0.0037977197 0.722 -0.04937036 1.5211581e-38 317 279
-0.0025318132 0.722 -0.04937036 1.4937882e-38 318 279
-0.0012624001 0.72000003 -0.0492336 1.5214109e-38 319 279
0 0.72000003 -0.0492336 1.5031163e-38 320 279
0.00125714 0.71700001 -0.04902846 1.5123718e-38 321 279
0.0025142799 0.71700001 -0.04902846 1.5032602e-38 322 279
0.00376616 0.71600002 -0.048960082 1.5216633e-38 323 279
0.0050215465 0.71600002 -0.048960082 1.521663e-38 324 279
0.0062769335 0.71600002 -0.048960082 1.5308826e-38 325 279
0.0075112795 0.71399999 -0.048823316 1.5125513e-38 326 279
0.0087631596 0.71399999 -0.048823316 1.5217709e-38 327 279
0.010001013 0.713 -0.048754938 1.5309905e-38 328 279
0.011251139 0.713 -0.048754938 1.5309905e-38 329 279
0.0124662 0.71100003 -0.048618179 1.5677615e-38 330 279
0.01371282 0.71100003 -0.048618179 1.5677615e-38 331 279
0.014959441 0.71100003 -0.048618179 1.5678334e-38 332 279
0.01620606 0.71100003 -0.048618179 1.5678334e-38 333 279
0.017428132 0.70999998 -0.048549797 1.604603e-38 334 279
0.018672999 0.70999998 -0.048549797 1.6230062e-38 335 279
0.019917866 0.70999998 -0.048549797 1.6414084e-38 336 279
0.021162732 0.70999998 -0.048549797 1.6321889e-38 337 279
0.022407599 0.70999998 -0.048549797 1.732993e-38 338 279
0.023652466 0.70999998 -0.048549797 1.7790908e-38 339 279
0.024897331 0.70999998 -0.048549797 1.8983706e-38 340 279
0.026142199 0.70999998 -0.048549797 1.8430533e-38 341 279
0.027387066 0.70999998 -0.048549797 1.6961867e-38 342 279
0.028631933 0.70999998 -0.048549797 1.6500888e-38 343 279
0.029918881 0.71100003 -0.048618179 1.5489254e-38 344 279
0.031253166 0.713 -0.048754938 1.558145e-38 345 279
0.032503292 0.713 -0.048754938 1.4849655e-38 346 279
0.033753417 0.713 -0.048754938 1.5125882e-38 347 279
0.035052639 0.71399999 -0.048823316 1.4577397e-38 348 279
0.036406212 0.71600002 -0.048960082 1.4761788e-38 349 279
0.037661601 0.71600002 -0.048960082 1.4671757e-38 350 279
0.038971342 0.71700001 -0.04902846 1.4671757e-38 351 279
0.040228479 0.71700001 -0.04902846 1.4487729e-38 352 279
0.041659199 0.72000003 -0.0492336 1.4487729e-38 353 279
0.043040827 0.722 -0.04937036 1.4395532e-38 354 279
0.044306733 0.722 -0.04937036 1.4487729e-38 355 279
0.04563576 0.72299999 -0.049438741 1.4577041e-38 356 279
0.046903417 0.72299999 -0.049438741 1.374764e-38 357 279
0.048304334 0.72500002 -0.0495755 1.4114974e-38 358 279
0.049712259 0.727 -0.049712259 1.3838387e-38 359 279
0.050986931 0.727 -0.049712259 1.4484112e-38 360 279
0.052261602 0.727 -0.049712259 1.540571e-38 361 279
-0.0088736191 0.72299999 -0.050706398 1.4291414e-38 313 280
-0.0076059597 0.72299999 -0.050706398 1.4929951e-38 314 280
-0.0063382997 0.72299999 -0.050706398 1.5483123e-38 315 280
-0.0050636264 0.722 -0.050636265 1.4569096e-38 316 280
-0.0037977197 0.722 -0.050636265 1.4845684e-38 317 280
-0.0025248001 0.72000003 -0.050496001 1.4387951e-38 318 280
-0.0012624001 0.72000003 -0.050496001 1.4480147e-38 319 280
0 0.71899998 -0.050425861 1.4571989e-38 320 280
0.00125714 0.71700001 -0.0502856 1.4571989e-38 321 280
0.0025107733 0.71600002 -0.050215468 1.4573064e-38 322 280
0.00376616 0.71600002 -0.050215468 1.4665261e-38 323 280
0.0050215465 0.71600002 -0.050215468 1.466598e-38 324 280
0.0062593995 0.71399999 -0.050075196 1.466598e-38 325 280
0.0075112795 0.71399999 -0.050075196 1.4758176e-38 326 280
0.0087508867 0.713 -0.050005067 1.4758176e-38 327 280
0.010001013 0.713 -0.050005067 1.494257e-38 328 280
0.011251139 0.713 -0.050005067 1.5034765e-38 329 280
0.0124662 0.71100003 -0.049864799 1.5126962e-38 330 280
0.01371282 0.71100003 -0.049864799 1.5126962e-38 331 280
0.014959441 0.71100003 -0.049864799 1.5310993e-38 332 280
0.016183265 0.70999998 -0.049794663 1.5310993e-38 333 280
0.017428132 0.70999998 -0.049794663 1.5586138e-38 334 280
0.018672999 0.70999998 -0.049794663 1.5678334e-38 335 280
0.019917866 0.70999998 -0.049794663 1.5861634e-38 336 280
0.021103119 0.708 -0.049654398 1.5400655e-38 337 280
0.022344479 0.708 -0.049654398 1.5948062e-38 338 280
0.023585839 0.708 -0.049654398 1.6685985e-38 339 280
0.024827199 0.708 -0.049654398 1.8522702e-38 340 280
0.026068559 0.708 -0.049654398 1.7601106e-38 341 280
0.027309919 0.708 -0.049654398 1.6133176e-38 342 280
0.028631933 0.70999998 -0.049794663 1.5856948e-38 343 280
0.029876797 0.70999998 -0.049794663 1.5028999e-38 344 280
0.031121666 0.70999998 -0.049794663 1.5305945e-38 345 280
0.032503292 0.713 -0.050005067 1.5033686e-38 346 280
0.033753417 0.713 -0.050005067 1.5125882e-38 347 280
0.035052639 0.71399999 -0.050075196 1.4301533e-38 348 280
0.036304519 0.71399999 -0.050075196 1.4578479e-38 349 280
0.037661601 0.71600002 -0.050215468 1.4395899e-38 350 280
0.038916986 0.71600002 -0.050215468 1.4395899e-38 351 280
0.040228479 0.71700001 -0.0502856 1.4304783e-38 352 280
0.041485619 0.71700001 -0.0502856 1.4212587e-38 353 280
0.042921603 0.72000003 -0.050496001 1.430478e-38 354 280
0.044306733 0.722 -0.050636265 1.4581007e-38 355 280
0.045572639 0.722 -0.050636265 1.466852e-38 356 280
0.046903417 0.72299999 -0.050706398 1.3930955e-38 357 280
0.048304334 0.72500002 -0.050846666 1.3654362e-38 358 280
0.049712259 0.727 -0.050986931 1.3193744e-38 359 280
0.050986931 0.727 -0.050986931 1.4206448e-38 360 280
0.052333489 0.72799999 -0.051057063 1.5312794e-38 361 280
-0.010169334 0.72500002 -0.052117832 1.6778898e-38 312 281
-0.0088736191 0.72299999 -0.051974058 1.548816e-38 313 281
-0.0076059597 0.72299999 -0.051974058 1.5577474e-38 314 281
-0.0063382997 0.72299999 -0.051974058 1.483955e-38 315 281
-0.0050636264 0.722 -0.051902171 1.4385783e-38 316 281
-0.0037977197 0.722 -0.051902171 1.4754207e-38 317 281
-0.0025248001 0.72000003 -0.051758397 1.4571261e-38 318 281
-0.0012624001 0.72000003 -0.051758397 1.4663456e-38 319 281
0 0.71899998 -0.05168651 1.4480147e-38 320 281
0.00125714 0.71700001 -0.051542737 1.4480147e-38 321 281
0.0025107733 0.71600002 -0.051470853 1.4479791e-38 322 281
0.00376616 0.71600002 -0.051470853 1.4572345e-38 323 281
0.0050075199 0.71399999 -0.05132708 1.4573061e-38 324 281
0.0062593995 0.71399999 -0.05132708 1.4573061e-38 325 281
0.0075007593 0.713 -0.051255193 1.4665255e-38 326 281
0.0087508867 0.713 -0.051255193 1.475781e-38 327 281
0.010001013 0.713 -0.051255193 1.5033321e-38 328 281
0.01121958 0.71100003 -0.051111419 1.5125516e-38 329 281
0.0124662 0.71100003 -0.051111419 1.5217715e-38 330 281
0.01371282 0.71100003 -0.051111419 1.5217715e-38 331 281
0.014959441 0.71100003 -0.051111419 1.5217715e-38 332 281
0.016183265 0.70999998 -0.051039528 1.530991e-38 333 281
0.017428132 0.70999998 -0.051039528 1.5585417e-38 334 281
0.018672999 0.70999998 -0.051039528 1.5585417e-38 335 281
0.01986176 0.708 -0.050895758 1.5952033e-38 336 281
0.021103119 0.708 -0.050895758 1.5859478e-38 337 281
0.022344479 0.708 -0.050895758 1.6134974e-38 338 281
0.023585839 0.708 -0.050895758 1.6780343e-38 339 281
0.024827199 0.708 -0.050895758 1.7695825e-38 340 281
0.026068559 0.708 -0.050895758 1.7326683e-38 341 281
0.027309919 0.708 -0.050895758 1.5950232e-38 342 281
0.02855128 0.708 -0.050895758 1.5397058e-38 343 281
0.029876797 0.70999998 -0.051039528 1.5120478e-38 344 281
0.031121666 0.70999998 -0.051039528 1.5396705e-38 345 281
0.032366529 0.70999998 -0.051039528 1.5125885e-38 346 281
0.033611398 0.70999998 -0.051039528 1.5310277e-38 347 281
0.035003547 0.713 -0.051255193 1.4393013e-38 348 281
0.036304519 0.71399999 -0.05132708 1.4669239e-38 349 281
0.037556399 0.71399999 -0.05132708 1.4210785e-38 350 281
0.038916986 0.71600002 -0.051470853 1.4118589e-38 351 281
0.040172372 0.71600002 -0.051470853 1.3750883e-38 352 281
0.041485619 0.71700001 -0.051542737 1.3566132e-38 353 281
0.042921603 0.72000003 -0.051758397 1.3843076e-38 354 281
0.044306733 0.722 -0.051902171 1.3935271e-38 355 281
0.045572639 0.722 -0.051902171 1.3748359e-38 356 281
0.047033165 0.72500002 -0.052117832 1.310299e-38 357 281
0.048304334 0.72500002 -0.052117832 1.3652927e-38 358 281
0.049712259 0.727 -0.052261602 1.337598e-38 359 281
0.050986931 0.727 -0.052261602 1.4206454e-38 360 281
0.052333489 0.72799999 -0.052333489 1.5220245e-38 361 281
0.053609919 0.72799999 -0.052333489 1.7244218e-38 362 281
-0.01147206 0.727 -0.053536277 1.7059454e-38 311 282
-0.010169334 0.72500002 -0.053388998 1.6041706e-38 312 282
-0.0088981669 0.72500002 -0.053388998 1.4198152e-38 313 282
-0.0076059597 0.72299999 -0.053241719 1.5304497e-38 314 282
-0.0063382997 0.72299999 -0.053241719 1.5304497e-38 315 282
-0.0050636264 0.722 -0.053168077 1.4295384e-38 316 282
-0.0037977197 0.722 -0.053168077 1.438758e-38 317 282
-0.0025248001 0.72000003 -0.053020801 1.4112084e-38 318 282
-0.0012624001 0.72000003 -0.053020801 1.4112084e-38 319 282
0 0.71899998 -0.05294716 1.4204286e-38 320 282
0.00125714 0.71700001 -0.052799881 1.4204286e-38 321 282
0.0025107733 0.71600002 -0.052726239 1.4204286e-38 322 282
0.0037556398 0.71399999 -0.052578956 1.4388317e-38 323 282
0.0050075199 0.71399999 -0.052578956 1.4389397e-38 324 282
0.0062593995 0.71399999 -0.052578956 1.42972e-38 325 282
0.0075007593 0.713 -0.052505318 1.4573064e-38 326 282
0.0087508867 0.713 -0.052505318 1.4573064e-38 327 282
0.0099729598 0.71100003 -0.052358042 1.448159e-38 328 282
0.011203799 0.70999998 -0.052284397 1.466598e-38 329 282
0.012448666 0.70999998 -0.052284397 1.4849655e-38 330 282
0.013693533 0.70999998 -0.052284397 1.4849655e-38 331 282
0.014938398 0.70999998 -0.052284397 1.5033686e-38 332 282
0.016183265 0.70999998 -0.052284397 1.5033686e-38 333 282
0.017428132 0.70999998 -0.052284397 1.5217715e-38 334 282
0.0186204 0.708 -0.052137118 1.512516e-38 335 282
0.01986176 0.708 -0.052137118 1.5308463e-38 336 282
0.021103119 0.708 -0.052137118 1.5216267e-38 337 282
0.022344479 0.708 -0.052137118 1.5857318e-38 338 282
0.023585839 0.708 -0.052137118 1.5949513e-38 339 282
0.024827199 0.708 -0.052137118 1.6590567e-38 340 282
0.026068559 0.708 -0.052137118 1.6774958e-38 341 282
0.027309919 0.708 -0.052137118 1.5856244e-38 342 282
0.02855128 0.708 -0.052137118 1.5303072e-38 343 282
0.02979264 0.708 -0.052137118 1.4753141e-38 344 282
0.031034 0.708 -0.052137118 1.4937532e-38 345 282
0.032366529 0.70999998 -0.052284397 1.5217726e-38 346 282
0.033611398 0.70999998 -0.052284397 1.5402476e-38 347 282
0.034905359 0.71100003 -0.052358042 1.4208984e-38 348 282
0.036253672 0.713 -0.052505318 1.4208984e-38 349 282
0.037556399 0.71399999 -0.052578956 1.4025672e-38 350 282
0.038808275 0.71399999 -0.052578956 1.3748725e-38 351 282
0.040172372 0.71600002 -0.052726239 1.3656164e-38 352 282
0.041427758 0.71600002 -0.052726239 1.3563968e-38 353 282
0.042742759 0.71700001 -0.052799881 1.3471768e-38 354 282
0.044306733 0.722 -0.053168077 1.3563965e-38 355 282
0.045572639 0.722 -0.053168077 1.3654362e-38 356 282
0.046903417 0.72299999 -0.053241719 1.3193744e-38 357 282
0.048304334 0.72500002 -0.053388998 1.3469254e-38 358 282
0.049712259 0.727 -0.053536277 1.3469254e-38 359 282
0.050986931 0.727 -0.053536277 1.383839e-38 360 282
0.052261602 0.727 -0.053536277 1.4759987e-38 361 282
0.053609919 0.72799999 -0.053609919 1.7244218e-38 362 282
-0.01147206 0.727 -0.054810952 1.6690318e-38 311 283
-0.010169334 0.72500002 -0.054660168 1.5488901e-38 312 283
-0.0088981669 0.72500002 -0.054660168 1.3368401e-38 313 283
-0.0076059597 0.72299999 -0.054509375 1.3924809e-38 314 283
-0.0063382997 0.72299999 -0.054509375 1.4938601e-38 315 283
-0.0050636264 0.722 -0.054433983 1.4571616e-38 316 283
-0.0037977197 0.722 -0.054433983 1.4295031e-38 317 283
-0.0025248001 0.72000003 -0.054283202 1.3927692e-38 318 283
-0.0012606466 0.71899998 -0.054207806 1.3927692e-38 319 283
0 0.71899998 -0.054207806 1.4019536e-38 320 283
0.00125714 0.71700001 -0.054057021 1.4019536e-38 321 283
0.0025107733 0.71600002 -0.053981625 1.4111731e-38 322 283
0.0037556398 0.71399999 -0.053830836 1.4204286e-38 323 283
0.0050075199 0.71399999 -0.053830836 1.4205005e-38 324 283
0.0062506334 0.713 -0.053755447 1.4205005e-38 325 283
0.0075007593 0.713 -0.053755447 1.4388317e-38 326 283
0.0087263398 0.71100003 -0.053604662 1.4388317e-38 327 283
0.0099589331 0.70999998 -0.053529263 1.4297197e-38 328 283
0.011203799 0.70999998 -0.053529263 1.4389393e-38 329 283
0.012448666 0.70999998 -0.053529263 1.4665261e-38 330 283
0.013693533 0.70999998 -0.053529263 1.4665261e-38 331 283
0.014938398 0.70999998 -0.053529263 1.466598e-38 332 283
0.016183265 0.70999998 -0.053529263 1.466598e-38 333 283
0.017428132 0.70999998 -0.053529263 1.4757454e-38 334 283
0.0186204 0.708 -0.053378478 1.4480866e-38 335 283
0.01986176 0.708 -0.053378478 1.4385783e-38 336 283
0.021103119 0.708 -0.053378478 1.3648218e-38 337 283
0.022344479 0.708 -0.053378478 1.4105966e-38 338 283
0.023585839 0.708 -0.053378478 1.4936086e-38 339 283
0.024827199 0.708 -0.053378478 1.6407267e-38 340 283
0.026068559 0.708 -0.053378478 1.5761898e-38 341 283
0.027309919 0.708 -0.053378478 1.5118326e-38 342 283
0.02855128 0.708 -0.053378478 1.5118326e-38 343 283
0.02979264 0.708 -0.053378478 1.4752788e-38 344 283
0.031034 0.708 -0.053378478 1.4937179e-38 345 283
0.032366529 0.70999998 -0.053529263 1.5310643e-38 346 283
0.033611398 0.70999998 -0.053529263 1.5034416e-38 347 283
0.034856264 0.70999998 -0.053529263 1.3932756e-38 348 283
0.036151983 0.71100003 -0.053604662 1.3748006e-38 349 283
0.037503798 0.713 -0.053755447 1.3656166e-38 350 283
0.038808275 0.71399999 -0.053830836 1.3287384e-38 351 283
0.040172372 0.71600002 -0.053981625 1.3286658e-38 352 283
0.041427758 0.71600002 -0.053981625 1.3102627e-38 353 283
0.042742759 0.71700001 -0.054057021 1.3010791e-38 354 283
0.044183999 0.72000003 -0.054283202 1.2918596e-38 355 283
0.045572639 0.722 -0.054433983 1.3193744e-38 356 283
0.046903417 0.72299999 -0.054509375 1.3193744e-38 357 283
0.048304334 0.72500002 -0.054660168 1.3377056e-38 358 283
0.049712259 0.727 -0.054810952 1.3377056e-38 359 283
0.050986931 0.727 -0.054810952 1.3193374e-38 360 283
0.052261602 0.727 -0.054810952 1.4022776e-38 361 283
0.053609919 0.72799999 -0.054886345 1.6876511e-38 362 283
-0.01147206 0.727 -0.056085624 1.5124069e-38 311 284
-0.010169334 0.72500002 -0.055931333 1.4014853e-38 312 284
-0.0088981669 0.72500002 -0.055931333 1.3553516e-38 313 284
-0.0076059597 0.72299999 -0.055777039 1.3740784e-38 314 284
-0.0063382997 0.72299999 -0.055777039 1.4570544e-38 315 284
-0.0050636264 0.722 -0.055699892 1.4295397e-38 316 284
-0.0037977197 0.722 -0.055699892 1.4111004e-38 317 284
-0.0025248001 0.72000003 -0.055545598 1.392662e-38 318 284
-0.0012606466 0.71899998 -0.055468451 1.392662e-38 319 284
0 0.71899998 -0.055468451 1.3927343e-38 320 284
0.00125714 0.71700001 -0.055314157 1.3927343e-38 321 284
0.0025107733 0.71600002 -0.055237014 1.392734e-38 322 284
0.0037556398 0.71399999 -0.05508272 1.4111731e-38 323 284
0.0050075199 0.71399999 -0.05508272 1.4020255e-38 324 284
0.0062506334 0.713 -0.055005573 1.4020255e-38 325 284
0.0075007593 0.713 -0.055005573 1.4111731e-38 326 284
0.0087263398 0.71100003 -0.054851279 1.4204286e-38 327 284
0.0099589331 0.70999998 -0.054774132 1.4205002e-38 328 284
0.011203799 0.70999998 -0.054774132 1.4297197e-38 329 284
0.012448666 0.70999998 -0.054774132 1.4572709e-38 330 284
0.013693533 0.70999998 -0.054774132 1.4572709e-38 331 284
0.01489632 0.708 -0.054619838 1.4572709e-38 332 284
0.01613768 0.708 -0.054619838 1.4572709e-38 333 284
0.017379038 0.708 -0.054619838 1.4573064e-38 334 284
0.0186204 0.708 -0.054619838 1.4204283e-38 335 284
0.01986176 0.708 -0.054619838 1.4109919e-38 336 284
0.021103119 0.708 -0.054619838 1.4017724e-38 337 284
0.022344479 0.708 -0.054619838 1.429216e-38 338 284
0.023585839 0.708 -0.054619838 1.4753138e-38 339 284
0.024792133 0.70700002 -0.054542694 1.4844257e-38 340 284
0.02603174 0.70700002 -0.054542694 1.3922301e-38 341 284
0.027271347 0.70700002 -0.054542694 1.4197812e-38 342 284
0.028510952 0.70700002 -0.054542694 1.4382563e-38 343 284
0.029750559 0.70700002 -0.054542694 1.3926269e-38 344 284
0.031034 0.708 -0.054619838 1.4387248e-38 345 284
0.03227536 0.708 -0.054619838 1.4942584e-38 346 284
0.033516716 0.708 -0.054619838 1.4666355e-38 347 284
0.034856264 0.70999998 -0.054774132 1.3931674e-38 348 284
0.036151983 0.71100003 -0.054851279 1.3470696e-38 349 284
0.037503798 0.713 -0.055005573 1.310299e-38 350 284
0.038753927 0.713 -0.055005573 1.2826402e-38 351 284
0.040060159 0.71399999 -0.05508272 1.3101188e-38 352 284
0.041427758 0.71600002 -0.055237014 1.3193744e-38 353 284
0.042683143 0.71600002 -0.055237014 1.3010073e-38 354 284
0.044183999 0.72000003 -0.055545598 1.2917875e-38 355 284
0.045572639 0.722 -0.055699892 1.3193023e-38 356 284
0.046903417 0.72299999 -0.055777039 1.3193023e-38 357 284
0.048171077 0.72299999 -0.055777039 1.3193023e-38 358 284
0.0495755 0.72500002 -0.055931333 1.3377056e-38 359 284
0.050986931 0.727 -0.056085624 1.3193374e-38 360 284
0.052261602 0.727 -0.056085624 1.3653993e-38 361 284
0.053609919 0.72799999 -0.056162767 1.6691763e-38 362 284
-0.01147206 0.727 -0.057360299 1.4752042e-38 311 285
-0.010169334 0.72500002 -0.057202499 1.3552793e-38 312 285
-0.0088981669 0.72500002 -0.057202499 1.4198162e-38 313 285
-0.0076059597 0.72299999 -0.057044696 1.4017371e-38 314 285
-0.0063382997 0.72299999 -0.057044696 1.4385793e-38 315 285
-0.0050636264 0.722 -0.056965802 1.3927696e-38 316 285
-0.0037977197 0.722 -0.056965802 1.3742945e-38 317 285
-0.0025248001 0.72000003 -0.056808002 1.3742591e-38 318 285
-0.0012624001 0.72000003 -0.056808002 1.3742591e-38 319 285
0 0.71899998 -0.056729097 1.3651478e-38 320 285
0.00125714 0.71700001 -0.056571297 1.3651478e-38 321 285
0.0025107733 0.71600002 -0.056492399 1.3559998e-38 322 285
0.0037556398 0.71399999 -0.0563346 1.3652195e-38 323 285
0.0050075199 0.71399999 -0.0563346 1.3744394e-38 324 285
0.0062506334 0.713 -0.056255698 1.3744394e-38 325 285
0.0075007593 0.713 -0.056255698 1.383587e-38 326 285
0.0087263398 0.71100003 -0.056097899 1.383587e-38 327 285
0.0099589331 0.70999998 -0.056018997 1.3836945e-38 328 285
0.011203799 0.70999998 -0.056018997 1.3929141e-38 329 285
0.012448666 0.70999998 -0.056018997 1.3929141e-38 330 285
0.013693533 0.70999998 -0.056018997 1.3929141e-38 331 285
0.01489632 0.708 -0.055861197 1.3929504e-38 332 285
0.01613768 0.708 -0.055861197 1.3929504e-38 333 285
0.017379038 0.708 -0.055861197 1.3929141e-38 334 285
0.0186204 0.708 -0.055861197 1.3836945e-38 335 285
0.01986176 0.708 -0.055861197 1.42954e-38 336 285
0.021103119 0.708 -0.055861197 1.4572345e-38 337 285
0.022312919 0.70700002 -0.055782299 1.5213393e-38 338 285
0.023552528 0.70700002 -0.055782299 1.4198881e-38 339 285
0.024792133 0.70700002 -0.055782299 1.272555e-38 340 285
0.02603174 0.70700002 -0.055782299 1.272555e-38 341 285
0.027271347 0.70700002 -0.055782299 1.3094341e-38 342 285
0.028510952 0.70700002 -0.055782299 1.355496e-38 343 285
0.029750559 0.70700002 -0.055782299 1.3741878e-38 344 285
0.031034 0.708 -0.055861197 1.4571639e-38 345 285
0.03227536 0.708 -0.055861197 1.4205747e-38 346 285
0.033516716 0.708 -0.055861197 1.4021355e-38 347 285
0.034856264 0.70999998 -0.056018997 1.3471418e-38 348 285
0.036101133 0.70999998 -0.056018997 1.3102637e-38 349 285
0.037398599 0.71100003 -0.056097899 1.2917878e-38 350 285
0.038753927 0.713 -0.056255698 1.2825683e-38 351 285
0.040004052 0.713 -0.056255698 1.2824964e-38 352 285
0.041312039 0.71399999 -0.0563346 1.3008995e-38 353 285
0.042683143 0.71600002 -0.056492399 1.2825683e-38 354 285
0.044183999 0.72000003 -0.056808002 1.2825683e-38 355 285
0.045572639 0.722 -0.056965802 1.2824961e-38 356 285
0.046903417 0.72299999 -0.057044696 1.3008992e-38 357 285
0.048171077 0.72299999 -0.057044696 1.3100828e-38 358 285
0.0495755 0.72500002 -0.057202499 1.3193023e-38 359 285
0.050986931 0.727 -0.057360299 1.3377053e-38 360 285
0.052261602 0.727 -0.057360299 1.3746194e-38 361 285
0.053609919 0.72799999 -0.057439197 1.6323706e-38 362 285
-0.012746733 0.727 -0.058634974 1.7795571e-38 310 286
-0.01147206 0.727 -0.058634974 1.4661279e-38 311 286
-0.010197386 0.727 -0.058634974 1.4011606e-38 312 286
-0.0088981669 0.72500002 -0.058473669 1.4841368e-38 313 286
-0.0076270006 0.72500002 -0.058473669 1.3925894e-38 314 286
-0.0063382997 0.72299999 -0.058312356 1.401809e-38 315 286
-0.0050706398 0.72299999 -0.058312356 1.3834421e-38 316 286
-0.0037977197 0.722 -0.058231708 1.3742226e-38 317 286
-0.0025248001 0.72000003 -0.058070403 1.3742947e-38 318 286
-0.0012624001 0.72000003 -0.058070403 1.3558916e-38 319 286
0 0.71899998 -0.057989739 1.3742947e-38 320 286
0.0012553866 0.71600002 -0.057747785 1.3742947e-38 321 286
0.0025107733 0.71600002 -0.057747785 1.3742591e-38 322 286
0.0037556398 0.71399999 -0.057586476 1.3742591e-38 323 286
0.0050075199 0.71399999 -0.057586476 1.3651475e-38 324 286
0.0062506334 0.713 -0.057505824 1.3651475e-38 325 286
0.0075007593 0.713 -0.057505824 1.3835146e-38 326 286
0.0087263398 0.71100003 -0.057344519 1.3927343e-38 327 286
0.0099589331 0.70999998 -0.057263866 1.3744028e-38 328 286
0.011203799 0.70999998 -0.057263866 1.3836223e-38 329 286
0.012448666 0.70999998 -0.057263866 1.4019539e-38 330 286
0.013693533 0.70999998 -0.057263866 1.4019539e-38 331 286
0.01489632 0.708 -0.057102561 1.383587e-38 332 286
0.01613768 0.708 -0.057102561 1.383587e-38 333 286
0.017379038 0.708 -0.057102561 1.3927343e-38 334 286
0.0186204 0.708 -0.057102561 1.3835146e-38 335 286
0.01986176 0.708 -0.057102561 1.3741873e-38 336 286
0.021103119 0.708 -0.057102561 1.2819916e-38 337 286
0.022312919 0.70700002 -0.057021905 1.3184017e-38 338 286
0.023552528 0.70700002 -0.057021905 1.2907429e-38 339 286
0.024792133 0.70700002 -0.057021905 1.3095412e-38 340 286
0.02603174 0.70700002 -0.057021905 1.3832977e-38 341 286
0.027271347 0.70700002 -0.057021905 1.3648228e-38 342 286
0.028510952 0.70700002 -0.057021905 1.3648228e-38 343 286
0.029750559 0.70700002 -0.057021905 1.3188702e-38 344 286
0.030990168 0.70700002 -0.057021905 1.3741875e-38 345 286
0.03227536 0.708 -0.057102561 1.2918245e-38 346 286
0.033516716 0.708 -0.057102561 1.3010441e-38 347 286
0.034856264 0.70999998 -0.057263866 1.3470696e-38 348 286
0.036101133 0.70999998 -0.057263866 1.3102274e-38 349 286
0.037398599 0.71100003 -0.057344519 1.3008276e-38 350 286
0.038645219 0.71100003 -0.057344519 1.291608e-38 351 286
0.040004052 0.713 -0.057505824 1.2915359e-38 352 286
0.041312039 0.71399999 -0.057586476 1.2915359e-38 353 286
0.042683143 0.71600002 -0.057747785 1.2915715e-38 354 286
0.044183999 0.72000003 -0.058070403 1.2915715e-38 355 286
0.045572639 0.722 -0.058231708 1.2916434e-38 356 286
0.046903417 0.72299999 -0.058312356 1.3008629e-38 357 286
0.048171077 0.72299999 -0.058312356 1.3008629e-38 358 286
0.049712259 0.727 -0.058634974 1.319302e-38 359 286
0.050986931 0.727 -0.058634974 1.3284134e-38 360 286
0.052333489 0.72799999 -0.058715623 1.3653277e-38 361 286
0.053609919 0.72799999 -0.058715623 1.5863444e-38 362 286
-0.012746733 0.727 -0.059909642 1.8256179e-38 310 287
-0.01147206 0.727 -0.059909642 1.5951289e-38 311 287
-0.010197386 0.727 -0.059909642 1.3921557e-38 312 287
-0.0089227129 0.727 -0.059909642 1.4751676e-38 313 287
-0.0076270006 0.72500002 -0.059744831 1.438543e-38 314 287
-0.0063382997 0.72299999 -0.059580017 1.438543e-38 315 287
-0.0050706398 0.72299999 -0.059580017 1.3834421e-38 316 287
-0.0037977197 0.722 -0.059497613 1.3834421e-38 317 287
-0.0025248001 0.72000003 -0.059332799 1.3467084e-38 318 287
-0.0012624001 0.72000003 -0.059332799 1.3374888e-38 319 287
0 0.71899998 -0.059250388 1.319122e-38 320 287
0.0012553866 0.71600002 -0.059003171 1.319122e-38 321 287
0.0025107733 0.71600002 -0.059003171 1.300791e-38 322 287
0.0037556398 0.71399999 -0.058838356 1.3191941e-38 323 287
0.0050075199 0.71399999 -0.058838356 1.3191941e-38 324 287
0.0062506334 0.713 -0.058755953 1.3191941e-38 325 287
0.0075007593 0.713 -0.058755953 1.3100822e-38 326 287
0.0087263398 0.71100003 -0.058591139 1.3193018e-38 327 287
0.0099589331 0.70999998 -0.058508728 1.3376333e-38 328 287
0.011203799 0.70999998 -0.058508728 1.3376333e-38 329 287
0.012448666 0.70999998 -0.058508728 1.3376336e-38 330 287
0.013693533 0.70999998 -0.058508728 1.3376336e-38 331 287
0.014938398 0.70999998 -0.058508728 1.3100828e-38 332 287
0.01613768 0.708 -0.058343921 1.3100828e-38 333 287
0.017379038 0.708 -0.058343921 1.3283421e-38 334 287
0.0186204 0.708 -0.058343921 1.3098671e-38 335 287
0.01986176 0.708 -0.058343921 1.2912115e-38 336 287
0.021103119 0.708 -0.058343921 1.2358941e-38 337 287
0.022312919 0.70700002 -0.05826151 1.2541888e-38 338 287
0.023552528 0.70700002 -0.05826151 1.3095061e-38 339 287
0.024792133 0.70700002 -0.05826151 1.3096503e-38 340 287
0.02603174 0.70700002 -0.05826151 1.3557481e-38 341 287
0.027271347 0.70700002 -0.05826151 1.3739354e-38 342 287
0.028510952 0.70700002 -0.05826151 1.3186541e-38 343 287
0.029750559 0.70700002 -0.05826151 1.291104e-38 344 287
0.030990168 0.70700002 -0.05826151 1.3372017e-38 345 287
0.03227536 0.708 -0.058343921 1.2640935e-38 346 287
0.033516716 0.708 -0.058343921 1.2640935e-38 347 287
0.034758076 0.708 -0.058343921 1.2642017e-38 348 287
0.036101133 0.70999998 -0.058508728 1.2642017e-38 349 287
0.037398599 0.71100003 -0.058591139 1.291608e-38 350 287
0.038645219 0.71100003 -0.058591139 1.2823885e-38 351 287
0.040004052 0.713 -0.058755953 1.2823882e-38 352 287
0.041312039 0.71399999 -0.058838356 1.2731686e-38 353 287
0.042683143 0.71600002 -0.059003171 1.273133e-38 354 287
0.043999899 0.71700001 -0.059085581 1.273133e-38 355 287
0.045572639 0.722 -0.059497613 1.264057e-38 356 287
0.046903417 0.72299999 -0.059580017 1.2824961e-38 357 287
0.048171077 0.72299999 -0.059580017 1.2825317e-38 358 287
0.049712259 0.727 -0.059909642 1.3009348e-38 359 287
0.051057063 0.72799999 -0.059992049 1.3008263e-38 360 287
0.052333489 0.72799999 -0.059992049 1.3376686e-38 361 287
0.053609919 0.72799999 -0.059992049 1.6323338e-38 362 287
0.054886345 0.72799999 -0.059992049 1.6968707e-38 363 287
-0.012764266 0.72799999 -0.061268479 1.8624609e-38 310 288
-0.01147206 0.727 -0.061184317 1.7241674e-38 311 288
-0.010197386 0.727 -0.061184317 1.5306292e-38 312 288
-0.0089227129 0.727 -0.061184317 1.4844954e-38 313 288
-0.0076270006 0.72500002 -0.061016005 1.4478346e-38 314 288
-0.0063558333 0.72500002 -0.061016005 1.4293953e-38 315 288
-0.0050706398 0.72299999 -0.060847677 1.3926976e-38 316 288
-0.0037977197 0.722 -0.060763516 1.3742226e-38 317 288
-0.0025318132 0.722 -0.060763516 1.3467084e-38 318 288
-0.0012624001 0.72000003 -0.060595199 1.3282692e-38 319 288
0 0.71899998 -0.060511041 1.3374888e-38 320 288
0.00125714 0.71700001 -0.060342718 1.3282692e-38 321 288
0.0025107733 0.71600002 -0.06025856 1.3282692e-38 322 288
0.0037556398 0.71399999 -0.060090236 1.3374888e-38 323 288
0.0050075199 0.71399999 -0.060090236 1.319122e-38 324 288
0.0062506334 0.713 -0.060006075 1.3283415e-38 325 288
0.0075007593 0.713 -0.060006075 1.3283415e-38 326 288
0.0087263398 0.71100003 -0.059837762 1.3283415e-38 327 288
0.0099589331 0.70999998 -0.059753593 1.3191939e-38 328 288
0.011203799 0.70999998 -0.059753593 1.3284134e-38 329 288
0.012448666 0.70999998 -0.059753593 1.3191939e-38 330 288
0.013693533 0.70999998 -0.059753593 1.3191939e-38 331 288
0.01489632 0.708 -0.059585281 1.319122e-38 332 288
0.01613768 0.708 -0.059585281 1.319122e-38 333 288
0.017379038 0.708 -0.059585281 1.319122e-38 334 288
0.0186204 0.708 -0.059585281 1.2914631e-38 335 288
0.01986176 0.708 -0.059585281 1.300431e-38 336 288
0.021103119 0.708 -0.059585281 1.300431e-38 337 288
0.022344479 0.708 -0.059585281 1.3096859e-38 338 288
0.023552528 0.70700002 -0.059501119 1.328125e-38 339 288
0.024792133 0.70700002 -0.059501119 1.3095414e-38 340 288
0.02603174 0.70700002 -0.059501119 1.2818828e-38 341 288
0.027271347 0.70700002 -0.059501119 1.3553163e-38 342 288
0.028510952 0.70700002 -0.059501119 1.3645358e-38 343 288
0.029750559 0.70700002 -0.059501119 1.309579e-38 344 288
0.030990168 0.70700002 -0.059501119 1.309579e-38 345 288
0.03227536 0.708 -0.059585281 1.2455458e-38 346 288
0.033516716 0.708 -0.059585281 1.2547654e-38 347 288
0.034758076 0.708 -0.059585281 1.2363626e-38 348 288
0.036101133 0.70999998 -0.059753593 1.2363626e-38 349 288
0.037345998 0.70999998 -0.059753593 1.2364706e-38 350 288
0.038645219 0.71100003 -0.059837762 1.2364706e-38 351 288
0.040004052 0.713 -0.060006075 1.2731686e-38 352 288
0.041312039 0.71399999 -0.060090236 1.2731686e-38 353 288
0.042683143 0.71600002 -0.06025856 1.2731684e-38 354 288
0.043999899 0.71700001 -0.060342718 1.2731684e-38 355 288
0.045572639 0.722 -0.060763516 1.2823879e-38 356 288
0.047033165 0.72500002 -0.061016005 1.3008629e-38 357 288
0.048304334 0.72500002 -0.061016005 1.3008629e-38 358 288
0.049712259 0.727 -0.061184317 1.319302e-38 359 288
0.050986931 0.727 -0.061184317 1.3099377e-38 360 288
0.052333489 0.72799999 -0.061268479 1.3929138e-38 361 288
0.053609919 0.72799999 -0.061268479 1.7059103e-38 362 288
0.054886345 0.72799999 -0.061268479 1.7520082e-38 363 288
-0.01147206 0.727 -0.062458992 1.8346943e-38 311 289
-0.010197386 0.727 -0.062458992 1.72388e-38 312 289
-0.0088981669 0.72500002 -0.062287167 1.5395246e-38 313 289
-0.0076270006 0.72500002 -0.062287167 1.4753488e-38 314 289
-0.0063558333 0.72500002 -0.062287167 1.4753488e-38 315 289
-0.0050706398 0.72299999 -0.062115334 1.4110285e-38 316 289
-0.0037977197 0.722 -0.062029421 1.401809e-38 317 289
-0.0025318132 0.722 -0.062029421 1.3558916e-38 318 289
-0.0012624001 0.72000003 -0.061857603 1.3374166e-38 319 289
0 0.71899998 -0.061771683 1.3282692e-38 320 289
0.00125714 0.71700001 -0.061599858 1.3282692e-38 321 289
0.0025107733 0.71600002 -0.061513945 1.309938e-38 322 289
0.00376616 0.71600002 -0.061513945 1.309938e-38 323 289
0.0050075199 0.71399999 -0.061342116 1.3099024e-38 324 289
0.0062593995 0.71399999 -0.061342116 1.319122e-38 325 289
0.0075007593 0.713 -0.061256204 1.3007908e-38 326 289
0.0087263398 0.71100003 -0.061084379 1.3007908e-38 327 289
0.0099729598 0.71100003 -0.061084379 1.2916431e-38 328 289
0.011203799 0.70999998 -0.060998458 1.2916431e-38 329 289
0.012448666 0.70999998 -0.060998458 1.2916434e-38 330 289
0.013693533 0.70999998 -0.060998458 1.2916434e-38 331 289
0.01489632 0.708 -0.060826641 1.2915715e-38 332 289
0.01613768 0.708 -0.060826641 1.2915715e-38 333 289
0.017379038 0.708 -0.060826641 1.2915715e-38 334 289
0.0186204 0.708 -0.060826641 1.2638768e-38 335 289
0.01986176 0.708 -0.060826641 1.27306e-38 336 289
0.021103119 0.708 -0.060826641 1.254585e-38 337 289
0.022344479 0.708 -0.060826641 1.2544404e-38 338 289
0.023585839 0.708 -0.060826641 1.1899035e-38 339 289
0.024827199 0.708 -0.060826641 1.2817032e-38 340 289
0.02603174 0.70700002 -0.060740728 1.2632281e-38 341 289
0.027271347 0.70700002 -0.060740728 1.2818477e-38 342 289
0.028510952 0.70700002 -0.060740728 1.3094705e-38 343 289
0.029750559 0.70700002 -0.060740728 1.2819566e-38 344 289
0.030990168 0.70700002 -0.060740728 1.2635533e-38 345 289
0.03227536 0.708 -0.060826641 1.2269989e-38 346 289
0.033516716 0.708 -0.060826641 1.2362185e-38 347 289
0.034758076 0.708 -0.060826641 1.2179594e-38 348 289
0.036101133 0.70999998 -0.060998458 1.2363626e-38 349 289
0.037345998 0.70999998 -0.060998458 1.2272506e-38 350 289
0.038645219 0.71100003 -0.061084379 1.2364703e-38 351 289
0.040004052 0.713 -0.061256204 1.2364703e-38 352 289
0.041312039 0.71399999 -0.061342116 1.2364703e-38 353 289
0.042683143 0.71600002 -0.061513945 1.2548374e-38 354 289
0.044122629 0.71899998 -0.061771683 1.2548374e-38 355 289
0.045446403 0.72000003 -0.061857603 1.264057e-38 356 289
0.047033165 0.72500002 -0.062287167 1.2732765e-38 357 289
0.048304334 0.72500002 -0.062287167 1.3100822e-38 358 289
0.0495755 0.72500002 -0.062287167 1.3193018e-38 359 289
0.050986931 0.727 -0.062458992 1.4388314e-38 360 289
0.052333489 0.72799999 -0.062544905 1.5218433e-38 361 289
0.053609919 0.72799999 -0.062544905 1.7427164e-38 362 289
0.054886345 0.72799999 -0.062544905 1.7703391e-38 363 289
-0.0088981669 0.72500002 -0.063558333 1.5762586e-38 313 290
-0.0076270006 0.72500002 -0.063558333 1.4476534e-38 314 290
-0.0063558333 0.72500002 -0.063558333 1.4937154e-38 315 290
-0.0050706398 0.72299999 -0.063382991 1.4202481e-38 316 290
-0.0037977197 0.722 -0.063295327 1.4110285e-38 317 290
-0.0025318132 0.722 -0.063295327 1.3558913e-38 318 290
-0.0012624001 0.72000003 -0.06312 1.3558913e-38 319 290
0 0.72000003 -0.06312 1.3374885e-38 320 290
0.0012606466 0.71899998 -0.063032329 1.328269e-38 321 290
0.0025142799 0.71700001 -0.062856995 1.3098661e-38 322 290
0.00376616 0.71600002 -0.062769331 1.3098661e-38 323 290
0.0050075199 0.71399999 -0.062593997 1.3098661e-38 324 290
0.0062593995 0.71399999 -0.062593997 1.3282692e-38 325 290
0.0075112795 0.71399999 -0.062593997 1.3099024e-38 326 290
0.0087508867 0.713 -0.062506333 1.3099024e-38 327 290
0.0099729598 0.71100003 -0.062331002 1.2823879e-38 328 290
0.01121958 0.71100003 -0.062331002 1.2731684e-38 329 290
0.012448666 0.70999998 -0.062243331 1.264057e-38 330 290
0.013693533 0.70999998 -0.062243331 1.2548374e-38 331 290
0.014938398 0.70999998 -0.062243331 1.2823882e-38 332 290
0.01613768 0.708 -0.062068 1.2731686e-38 333 290
0.017379038 0.708 -0.062068 1.273204e-38 334 290
0.0186204 0.708 -0.062068 1.2455453e-38 335 290
0.01986176 0.708 -0.062068 1.2546922e-38 336 290
0.021103119 0.708 -0.062068 1.1809357e-38 337 290
0.022344479 0.708 -0.062068 1.1621373e-38 338 290
0.023585839 0.708 -0.062068 1.1160754e-38 339 290
0.024827199 0.708 -0.062068 1.2631931e-38 340 290
0.02603174 0.70700002 -0.061980337 1.2724128e-38 341 290
0.027271347 0.70700002 -0.061980337 1.2817398e-38 342 290
0.028510952 0.70700002 -0.061980337 1.2909594e-38 343 290
0.029750559 0.70700002 -0.061980337 1.2450783e-38 344 290
0.031034 0.708 -0.062068 1.2542979e-38 345 290
0.03227536 0.708 -0.062068 1.2085246e-38 346 290
0.033516716 0.708 -0.062068 1.2085246e-38 347 290
0.034758076 0.708 -0.062068 1.1902654e-38 348 290
0.036101133 0.70999998 -0.062243331 1.199485e-38 349 290
0.037398599 0.71100003 -0.062331002 1.2179957e-38 350 290
0.038645219 0.71100003 -0.062331002 1.2179957e-38 351 290
0.040004052 0.713 -0.062506333 1.2455821e-38 352 290
0.041312039 0.71399999 -0.062593997 1.2455821e-38 353 290
0.042683143 0.71600002 -0.062769331 1.2548374e-38 354 290
0.043999899 0.71700001 -0.062856995 1.2548374e-38 355 290
0.045446403 0.72000003 -0.06312 1.2732763e-38 356 290
0.046838548 0.722 -0.063295327 1.3009348e-38 357 290
0.048171077 0.72299999 -0.063382991 1.3377409e-38 358 290
0.049438741 0.72299999 -0.063382991 1.3469605e-38 359 290
0.050986931 0.727 -0.06373366 1.549394e-38 360 290
0.052261602 0.727 -0.06373366 1.6139309e-38 361 290
0.053536277 0.727 -0.06373366 1.7427164e-38 362 290
-0.0088981669 0.72500002 -0.064829499 1.6778175e-38 313 291
-0.0076270006 0.72500002 -0.064829499 1.5214096e-38 314 291
-0.0063558333 0.72500002 -0.064829499 1.5029705e-38 315 291
-0.0050706398 0.72299999 -0.064650662 1.4203557e-38 316 291
-0.0037977197 0.722 -0.064561233 1.411136e-38 317 291
-0.0025318132 0.722 -0.064561233 1.3742945e-38 318 291
-0.0012624001 0.72000003 -0.064382397 1.3466718e-38 319 291
0 0.72000003 -0.064382397 1.3191573e-38 320 291
0.0012606466 0.71899998 -0.064292975 1.3191573e-38 321 291
0.0025142799 0.71700001 -0.064114138 1.328269e-38 322 291
0.00376616 0.71600002 -0.064024724 1.328269e-38 323 291
0.0050215465 0.71600002 -0.064024724 1.3099377e-38 324 291
0.0062593995 0.71399999 -0.063845873 1.3099377e-38 325 291
0.0075112795 0.71399999 -0.063845873 1.2823513e-38 326 291
0.0087631596 0.71399999 -0.063845873 1.2823513e-38 327 291
0.010001013 0.713 -0.063756458 1.2730963e-38 328 291
0.011251139 0.713 -0.063756458 1.2638768e-38 329 291
0.0124662 0.71100003 -0.063577622 1.2547654e-38 330 291
0.013693533 0.70999998 -0.063488193 1.2731686e-38 331 291
0.014938398 0.70999998 -0.063488193 1.264057e-38 332 291
0.016183265 0.70999998 -0.063488193 1.264057e-38 333 291
0.017428132 0.70999998 -0.063488193 1.2547651e-38 334 291
0.0186204 0.708 -0.063309364 1.236326e-38 335 291
0.01986176 0.708 -0.063309364 1.2178866e-38 336 291
0.021103119 0.708 -0.063309364 1.1533496e-38 337 291
0.022344479 0.708 -0.063309364 1.1622452e-38 338 291
0.023585839 0.708 -0.063309364 1.1991235e-38 339 291
0.024827199 0.708 -0.063309364 1.2448616e-38 340 291
0.026068559 0.708 -0.063309364 1.235642e-38 341 291
0.027271347 0.70700002 -0.063219935 1.2358219e-38 342 291
0.028510952 0.70700002 -0.063219935 1.2634805e-38 343 291
0.029750559 0.70700002 -0.063219935 1.2083077e-38 344 291
0.031034 0.708 -0.063309364 1.2175273e-38 345 291
0.03227536 0.708 -0.063309364 1.1992329e-38 346 291
0.033516716 0.708 -0.063309364 1.2084525e-38 347 291
0.034758076 0.708 -0.063309364 1.1902652e-38 348 291
0.036101133 0.70999998 -0.063488193 1.1994847e-38 349 291
0.037398599 0.71100003 -0.063577622 1.2088118e-38 350 291
0.038645219 0.71100003 -0.063577622 1.2272509e-38 351 291
0.040004052 0.713 -0.063756458 1.2455821e-38 352 291
0.041312039 0.71399999 -0.063845873 1.2455821e-38 353 291
0.042683143 0.71600002 -0.064024724 1.2548374e-38 354 291
0.043999899 0.71700001 -0.064114138 1.264057e-38 355 291
0.045446403 0.72000003 -0.064382397 1.2916431e-38 356 291
0.046838548 0.722 -0.064561233 1.3100822e-38 357 291
0.048104454 0.722 -0.064561233 1.392986e-38 358 291
0.049438741 0.72299999 -0.064650662 1.4206448e-38 359 291
0.050846666 0.72500002 -0.064829499 1.6414457e-38 360 291
0.052261602 0.727 -0.065008335 1.678324e-38 361 291
0.053536277 0.727 -0.065008335 1.7150217e-38 362 291
-0.0076480396 0.727 -0.06628301 1.6594511e-38 314 292
-0.0063733663 0.727 -0.06628301 1.5580358e-38 315 292
-0.0050706398 0.72299999 -0.065918319 1.4295384e-38 316 292
-0.0038029798 0.72299999 -0.065918319 1.4295384e-38 317 292
-0.0025353199 0.72299999 -0.065918319 1.392697e-38 318 292
-0.0012676599 0.72299999 -0.065918319 1.3834775e-38 319 292
0 0.72000003 -0.065644801 1.3375241e-38 320 292
0.0012624001 0.72000003 -0.065644801 1.3375241e-38 321 292
0.0025142799 0.71700001 -0.065371275 1.328269e-38 322 292
0.00376616 0.71600002 -0.06528011 1.328269e-38 323 292
0.0050215465 0.71600002 -0.06528011 1.2916065e-38 324 292
0.0062769335 0.71600002 -0.06528011 1.2916065e-38 325 292
0.0075112795 0.71399999 -0.065097757 1.2916065e-38 326 292
0.0087631596 0.71399999 -0.065097757 1.2731314e-38 327 292
0.01001504 0.71399999 -0.065097757 1.2914631e-38 328 292
0.011251139 0.713 -0.065006584 1.27306e-38 329 292
0.012501267 0.713 -0.065006584 1.2455818e-38 330 292
0.01371282 0.71100003 -0.064824238 1.2455818e-38 331 292
0.014938398 0.70999998 -0.064733058 1.2364706e-38 332 292
0.016183265 0.70999998 -0.064733058 1.2364706e-38 333 292
0.017428132 0.70999998 -0.064733058 1.2455818e-38 334 292
0.0186204 0.708 -0.06455072 1.2087396e-38 335 292
0.01986176 0.708 -0.06455072 1.2177791e-38 336 292
0.021103119 0.708 -0.06455072 1.1901203e-38 337 292
0.022344479 0.708 -0.06455072 1.2544407e-38 338 292
0.023585839 0.708 -0.06455072 1.2175626e-38 339 292
0.024827199 0.708 -0.06455072 1.235642e-38 340 292
0.026068559 0.708 -0.06455072 1.2079833e-38 341 292
0.027271347 0.70700002 -0.064459547 1.1990158e-38 342 292
0.028510952 0.70700002 -0.064459547 1.2266745e-38 343 292
0.02979264 0.708 -0.06455072 1.1990164e-38 344 292
0.031034 0.708 -0.06455072 1.2266392e-38 345 292
0.03227536 0.708 -0.06455072 1.1900852e-38 346 292
0.033516716 0.708 -0.06455072 1.1900852e-38 347 292
0.034856264 0.70999998 -0.064733058 1.1719337e-38 348 292
0.036101133 0.70999998 -0.064733058 1.1995563e-38 349 292
0.037398599 0.71100003 -0.064824238 1.1904447e-38 350 292
0.038645219 0.71100003 -0.064824238 1.1997001e-38 351 292
0.040060159 0.71399999 -0.065097757 1.2363623e-38 352 292
0.041312039 0.71399999 -0.065097757 1.2548374e-38 353 292
0.042683143 0.71600002 -0.06528011 1.2548371e-38 354 292
0.044122629 0.71899998 -0.065553628 1.2548371e-38 355 292
0.045446403 0.72000003 -0.065644801 1.3008629e-38 356 292
0.046838548 0.722 -0.065827139 1.3377053e-38 357 292
0.048104454 0.722 -0.065827139 1.4481596e-38 358 292
0.0495755 0.72500002 -0.066100664 1.5310996e-38 359 292
0.050846666 0.72500002 -0.066100664 1.6966552e-38 360 292
0.052261602 0.727 -0.06628301 1.6966552e-38 361 292
-0.0063733663 0.727 -0.067557678 1.6500519e-38 315 293
-0.0050846669 0.72500002 -0.067371838 1.4755289e-38 316 293
-0.0038135003 0.72500002 -0.067371838 1.4478343e-38 317 293
-0.0025423334 0.72500002 -0.067371838 1.3651828e-38 318 293
-0.0012676599 0.72299999 -0.067185976 1.3559632e-38 319 293
0 0.722 -0.067093052 1.3192292e-38 320 293
0.0012624001 0.72000003 -0.066907197 1.3008261e-38 321 293
0.0025142799 0.71700001 -0.066628419 1.3374885e-38 322 293
0.0037714199 0.71700001 -0.066628419 1.3374885e-38 323 293
0.0050215465 0.71600002 -0.066535495 1.2916065e-38 324 293
0.0062769335 0.71600002 -0.066535495 1.2916065e-38 325 293
0.0075112795 0.71399999 -0.066349633 1.2915709e-38 326 293
0.0087631596 0.71399999 -0.066349633 1.2823513e-38 327 293
0.01001504 0.71399999 -0.066349633 1.2731319e-38 328 293
0.011251139 0.713 -0.066256717 1.2731319e-38 329 293
0.012501267 0.713 -0.066256717 1.2455455e-38 330 293
0.01371282 0.71100003 -0.066070862 1.2455455e-38 331 293
0.014959441 0.71100003 -0.066070862 1.2455458e-38 332 293
0.016183265 0.70999998 -0.065977924 1.2455458e-38 333 293
0.017428132 0.70999998 -0.065977924 1.2638415e-38 334 293
0.018672999 0.70999998 -0.065977924 1.2546219e-38 335 293
0.01986176 0.708 -0.065792084 1.2362541e-38 336 293
0.021103119 0.708 -0.065792084 1.1901203e-38 337 293
0.022344479 0.708 -0.065792084 1.2172757e-38 338 293
0.023585839 0.708 -0.065792084 1.1988366e-38 339 293
0.024827199 0.708 -0.065792084 1.2356789e-38 340 293
0.026068559 0.708 -0.065792084 1.2356789e-38 341 293
0.027309919 0.708 -0.065792084 1.2266024e-38 342 293
0.02855128 0.708 -0.065792084 1.2358219e-38 343 293
0.02979264 0.708 -0.065792084 1.1991598e-38 344 293
0.031034 0.708 -0.065792084 1.1807566e-38 345 293
0.03227536 0.708 -0.065792084 1.1900484e-38 346 293
0.033611398 0.70999998 -0.065977924 1.2268906e-38 347 293
0.034856264 0.70999998 -0.065977924 1.1995198e-38 348 293
0.036101133 0.70999998 -0.065977924 1.2087393e-38 349 293
0.037503798 0.713 -0.066256717 1.218031e-38 350 293
0.038753927 0.713 -0.066256717 1.218031e-38 351 293
0.040060159 0.71399999 -0.066349633 1.2547654e-38 352 293
0.041312039 0.71399999 -0.066349633 1.2547654e-38 353 293
0.042683143 0.71600002 -0.066535495 1.2731684e-38 354 293
0.044122629 0.71899998 -0.066814266 1.2916434e-38 355 293
0.045446403 0.72000003 -0.066907197 1.3375967e-38 356 293
0.0467088 0.72000003 -0.066907197 1.3836945e-38 357 293
0.048104454 0.722 -0.067093052 1.5493222e-38 358 293
0.0495755 0.72500002 -0.067371838 1.6138592e-38 359 293
0.050846666 0.72500002 -0.067371838 1.6782517e-38 360 293
-0.0038240198 0.727 -0.06883236 1.5304866e-38 317 294
-0.0025423334 0.72500002 -0.068643004 1.4477993e-38 318 294
-0.0012711667 0.72500002 -0.068643004 1.42936e-38 319 294
0 0.72299999 -0.06845364 1.3558913e-38 320 294
0.0012624001 0.72000003 -0.068169601 1.3742945e-38 321 294
0.0025212932 0.71899998 -0.068074919 1.3467437e-38 322 294
0.0037819401 0.71899998 -0.068074919 1.3375241e-38 323 294
0.0050285598 0.71700001 -0.067885563 1.328269e-38 324 294
0.0062769335 0.71600002 -0.067790881 1.328269e-38 325 294
0.00753232 0.71600002 -0.067790881 1.3006826e-38 326 294
0.0087877065 0.71600002 -0.067790881 1.3006826e-38 327 294
0.01001504 0.71399999 -0.067601517 1.3098661e-38 328 294
0.011266919 0.71399999 -0.067601517 1.3006105e-38 329 294
0.012501267 0.713 -0.067506835 1.27306e-38 330 294
0.01371282 0.71100003 -0.067317478 1.27306e-38 331 294
0.014959441 0.71100003 -0.067317478 1.2362907e-38 332 294
0.01620606 0.71100003 -0.067317478 1.2362907e-38 333 294
0.017428132 0.70999998 -0.067222796 1.2179594e-38 334 294
0.018672999 0.70999998 -0.067222796 1.2087399e-38 335 294
0.019917866 0.70999998 -0.067222796 1.2178147e-38 336 294
0.021103119 0.708 -0.067033432 1.1532777e-38 337 294
0.022344479 0.708 -0.067033432 1.1252593e-38 338 294
0.023585839 0.708 -0.067033432 1.1897963e-38 339 294
