# .PCD v.7 - Point Cloud Data file format
FIELDS x y z rgb imX imY
SIZE 4 4 4 4 4 4
TYPE F F F F F F
COUNT 1 1 1 1 1 1
WIDTH 839
HEIGHT 1
VIEWPOINT 0 0 0 1 0 0 0
POINTS 839
DATA ascii
0.01001504 0.71399999 -0.026289478 1.2407153e-38 328 261
0.01129848 0.71600002 -0.026363119 1.1946175e-38 329 261
0.0125714 0.71700001 -0.02639994 1.056648e-38 330 261
0.0138864 0.72000003 -0.026510401 9.3679381e-39 331 261
0.015190879 0.722 -0.026584039 9.3772917e-39 332 261
0.01647958 0.72299999 -0.026620859 9.8386286e-39 333 261
0.017747238 0.72299999 -0.026620859 1.1763581e-38 334 261
0.019014901 0.72299999 -0.026620859 1.2039809e-38 335 261
0.020338668 0.72500002 -0.026694499 1.1580989e-38 336 261
0.021609833 0.72500002 -0.026694499 1.1580989e-38 337 261
0.022944121 0.727 -0.026768139 1.1581355e-38 338 261
0.024218792 0.727 -0.026768139 1.1857942e-38 339 261
0.025528532 0.72799999 -0.026804959 1.1494557e-38 340 261
0.026768139 0.727 -0.026768139 9.834677e-39 341 261
0.028042812 0.727 -0.026768139 1.1508246e-38 342 261
0.029317487 0.727 -0.026768139 2.0174636e-38 343 261
-0.040845651 0.72799999 -0.028081384 1.7609363e-38 288 262
-0.039569225 0.72799999 -0.028081384 1.3276527e-38 289 262
-0.038240198 0.727 -0.028042812 1.2697413e-38 290 262
-0.036965527 0.727 -0.028042812 1.0299967e-38 291 262
-0.035690852 0.727 -0.028042812 1.4342159e-38 292 262
-0.034321502 0.72500002 -0.027965667 1.4158128e-38 293 262
-0.033050332 0.72500002 -0.027965667 1.4248892e-38 294 262
-0.031691495 0.72299999 -0.02788852 1.4156696e-38 295 262
-0.030423839 0.72299999 -0.02788852 1.4156333e-38 296 262
-0.029115854 0.722 -0.027849946 1.4064136e-38 297 262
-0.027772799 0.72000003 -0.027772799 1.4338574e-38 298 262
-0.02639994 0.71700001 -0.027657079 1.2494661e-38 299 262
-0.025107734 0.71600002 -0.027618507 7.993993e-39 300 262
-0.023852346 0.71600002 -0.027618507 1.1220816e-38 301 262
-0.022533838 0.71399999 -0.02754136 1.4890283e-38 302 262
-0.021281958 0.71399999 -0.02754136 1.470589e-38 303 262
-0.020002026 0.713 -0.027502786 1.4797017e-38 304 262
-0.018751899 0.713 -0.027502786 1.5073245e-38 305 262
-0.017501773 0.713 -0.027502786 1.5072544e-38 306 262
-0.01620606 0.71100003 -0.027425639 1.5349131e-38 307 262
-0.014959441 0.71100003 -0.027425639 1.4983239e-38 308 262
-0.01371282 0.71100003 -0.027425639 1.5167989e-38 309 262
-0.012448666 0.70999998 -0.027387066 1.5169068e-38 310 262
-0.011203799 0.70999998 -0.027387066 1.5630407e-38 311 262
-0.0099589331 0.70999998 -0.027387066 1.3797665e-38 312 262
-0.008689519 0.708 -0.027309919 9.2800809e-39 313 262
-0.0074481601 0.708 -0.027309919 3.6748548e-39 314 262
-0.0062243328 0.70999998 -0.027387066 8.5615791e-39 315 262
-0.0049654399 0.708 -0.027309919 1.3609659e-38 316 262
-0.00372408 0.708 -0.027309919 1.3241235e-38 317 262
-0.00248272 0.708 -0.027309919 1.3878317e-38 318 262
-0.00124136 0.708 -0.027309919 1.3693926e-38 319 262
0 0.70999998 -0.027387066 1.3511317e-38 320 262
0.00124662 0.71100003 -0.027425639 1.3511317e-38 321 262
0.0024932399 0.71100003 -0.027425639 1.3328015e-38 322 262
0.0037398601 0.71100003 -0.027425639 1.342021e-38 323 262
0.0049864799 0.71100003 -0.027425639 1.3052156e-38 324 262
0.0062506334 0.713 -0.027502786 1.2867405e-38 325 262
0.0075007593 0.713 -0.027502786 1.2682661e-38 326 262
0.0087631596 0.71399999 -0.02754136 1.2498629e-38 327 262
0.01001504 0.71399999 -0.02754136 1.2222759e-38 328 262
0.01129848 0.71600002 -0.027618507 1.2038726e-38 329 262
0.0125714 0.71700001 -0.027657079 1.0476082e-38 330 262
0.0138864 0.72000003 -0.027772799 9.1853433e-39 331 262
0.015190879 0.722 -0.027849946 9.1017796e-39 332 262
0.01647958 0.72299999 -0.02788852 9.7471491e-39 333 262
0.017747238 0.72299999 -0.02788852 1.1671383e-38 334 262
0.019014901 0.72299999 -0.02788852 1.2040165e-38 335 262
0.020338668 0.72500002 -0.027965667 1.1673182e-38 336 262
0.021609833 0.72500002 -0.027965667 1.1673182e-38 337 262
0.022944121 0.727 -0.028042812 1.1673906e-38 338 262
0.024218792 0.727 -0.028042812 1.1950493e-38 339 262
0.025493465 0.727 -0.028042812 1.1770065e-38 340 262
0.026768139 0.727 -0.028042812 1.0940304e-38 341 262
0.028042812 0.727 -0.028042812 1.1601161e-38 342 262
0.029317487 0.727 -0.028042812 2.0083159e-38 343 262
-0.040789545 0.727 -0.029317487 1.7700469e-38 288 263
-0.039514873 0.727 -0.029317487 1.2721905e-38 289 263
-0.038240198 0.727 -0.029317487 1.2509056e-38 290 263
-0.036965527 0.727 -0.029317487 1.1126121e-38 291 263
-0.035690852 0.727 -0.029317487 1.3975532e-38 292 263
-0.034321502 0.72500002 -0.029236834 1.3883337e-38 293 263
-0.033050332 0.72500002 -0.029236834 1.397374e-38 294 263
-0.031691495 0.72299999 -0.029156178 1.3881186e-38 295 263
-0.030423839 0.72299999 -0.029156178 1.3881539e-38 296 263
-0.029035201 0.72000003 -0.029035201 1.3697146e-38 297 263
-0.027734226 0.71899998 -0.028994869 1.4064136e-38 298 263
-0.02639994 0.71700001 -0.028914221 1.1667054e-38 299 263
-0.025107734 0.71600002 -0.028873893 8.3620524e-39 300 263
-0.023852346 0.71600002 -0.028873893 1.1588876e-38 301 263
-0.022533838 0.71399999 -0.028793238 1.4431098e-38 302 263
-0.021281958 0.71399999 -0.028793238 1.4154513e-38 303 263
-0.020002026 0.713 -0.028752912 1.442931e-38 304 263
-0.018751899 0.713 -0.028752912 1.4705537e-38 305 263
-0.017501773 0.713 -0.028752912 1.4521166e-38 306 263
-0.01620606 0.71100003 -0.028672259 1.4705917e-38 307 263
-0.014959441 0.71100003 -0.028672259 1.4706285e-38 308 263
-0.01371282 0.71100003 -0.028672259 1.4798481e-38 309 263
-0.012448666 0.70999998 -0.028631933 1.4706646e-38 310 263
-0.011203799 0.70999998 -0.028631933 1.47992e-38 311 263
-0.0099308798 0.708 -0.02855128 1.2600196e-38 312 263
-0.008677247 0.70700002 -0.028510952 8.4513908e-39 313 263
-0.0074376399 0.70700002 -0.028510952 3.216036e-39 314 263
-0.0062067998 0.708 -0.02855128 8.4711771e-39 315 263
-0.0049584266 0.70700002 -0.028510952 1.3790809e-38 316 263
-0.0037188199 0.70700002 -0.028510952 1.3145439e-38 317 263
-0.0024792133 0.70700002 -0.028510952 1.3693926e-38 318 263
-0.00124136 0.708 -0.02855128 1.360173e-38 319 263
0 0.70999998 -0.028631933 1.3418412e-38 320 263
0.00124662 0.71100003 -0.028672259 1.3418412e-38 321 263
0.0024932399 0.71100003 -0.028672259 1.3143267e-38 322 263
0.0037398601 0.71100003 -0.028672259 1.3143267e-38 323 263
0.0049864799 0.71100003 -0.028672259 1.2775209e-38 324 263
0.0062506334 0.713 -0.028752912 1.2683014e-38 325 263
0.0075007593 0.713 -0.028752912 1.2407506e-38 326 263
0.0087508867 0.713 -0.028752912 1.2222756e-38 327 263
0.010001013 0.713 -0.028752912 1.1946525e-38 328 263
0.011266919 0.71399999 -0.028793238 1.1854329e-38 329 263
0.0125714 0.71700001 -0.028914221 1.047536e-38 330 263
0.0138864 0.72000003 -0.029035201 9.27682e-39 331 263
0.015190879 0.722 -0.029115854 9.1939795e-39 332 263
0.016456785 0.722 -0.029115854 9.7471519e-39 333 263
0.017747238 0.72299999 -0.029156178 1.1672104e-38 334 263
0.019014901 0.72299999 -0.029156178 1.1856497e-38 335 263
0.020282559 0.72299999 -0.029156178 1.1673904e-38 336 263
0.021609833 0.72500002 -0.029236834 1.1673904e-38 337 263
0.022944121 0.727 -0.029317487 1.1857942e-38 338 263
0.024218792 0.727 -0.029317487 1.231892e-38 339 263
0.025493465 0.727 -0.029317487 1.1680385e-38 340 263
0.026768139 0.727 -0.029317487 9.8368308e-39 341 263
0.028042812 0.727 -0.029317487 1.1417843e-38 342 263
0.029317487 0.727 -0.029317487 1.9992037e-38 343 263
0.030634239 0.72799999 -0.029357811 1.806999e-38 344 263
-0.040789545 0.727 -0.030592158 1.7975974e-38 288 264
-0.039514873 0.727 -0.030592158 1.3274357e-38 289 264
-0.038240198 0.727 -0.030592158 1.3154423e-38 290 264
-0.036965527 0.727 -0.030592158 1.131051e-38 291 264
-0.035690852 0.727 -0.030592158 1.3975888e-38 292 264
-0.034321502 0.72500002 -0.030508002 1.3883692e-38 293 264
-0.033050332 0.72500002 -0.030508002 1.3790425e-38 294 264
-0.031691495 0.72299999 -0.030423839 1.3698229e-38 295 264
-0.030381758 0.722 -0.030381758 1.3789339e-38 296 264
-0.029035201 0.72000003 -0.0302976 1.3513112e-38 297 264
-0.027657079 0.71700001 -0.030171359 1.3606396e-38 298 264
-0.02639994 0.71700001 -0.030171359 1.1024923e-38 299 264
-0.0251428 0.71700001 -0.030171359 8.9127066e-39 300 264
-0.023852346 0.71600002 -0.03012928 1.204735e-38 301 264
-0.022533838 0.71399999 -0.030045118 1.4247796e-38 302 264
-0.021281958 0.71399999 -0.030045118 1.3879374e-38 303 264
-0.020002026 0.713 -0.030003037 1.4154163e-38 304 264
-0.018751899 0.713 -0.030003037 1.4430748e-38 305 264
-0.01745268 0.71100003 -0.029918881 1.4430395e-38 306 264
-0.01620606 0.71100003 -0.029918881 1.4522591e-38 307 264
-0.014959441 0.71100003 -0.029918881 1.4522593e-38 308 264
-0.01371282 0.71100003 -0.029918881 1.461479e-38 309 264
-0.012448666 0.70999998 -0.029876797 1.4522593e-38 310 264
-0.011203799 0.70999998 -0.029876797 1.4153812e-38 311 264
-0.0099308798 0.708 -0.02979264 1.1584599e-38 312 264
-0.008677247 0.70700002 -0.029750559 7.8978527e-39 313 264
-0.0074376399 0.70700002 -0.029750559 2.2094329e-39 314 264
-0.0061980332 0.70700002 -0.029750559 7.0036042e-39 315 264
-0.0049514128 0.70599997 -0.029708479 1.360534e-38 316 264
-0.0037135598 0.70599997 -0.029708479 1.3052166e-38 317 264
-0.0024792133 0.70700002 -0.029750559 1.360173e-38 318 264
-0.00124136 0.708 -0.02979264 1.3417339e-38 319 264
0 0.70999998 -0.029876797 1.3233664e-38 320 264
0.0012448666 0.70999998 -0.029876797 1.3233664e-38 321 264
0.0024932399 0.71100003 -0.029918881 1.2867039e-38 322 264
0.0037398601 0.71100003 -0.029918881 1.2774844e-38 323 264
0.0049864799 0.71100003 -0.029918881 1.2407503e-38 324 264
0.0062330998 0.71100003 -0.029918881 1.2315307e-38 325 264
0.0075007593 0.713 -0.030003037 1.2039079e-38 326 264
0.0087508867 0.713 -0.030003037 1.2039079e-38 327 264
0.010001013 0.713 -0.030003037 1.1764638e-38 328 264
0.011266919 0.71399999 -0.030045118 1.1579888e-38 329 264
0.0125714 0.71700001 -0.030171359 1.0476067e-38 330 264
0.0138864 0.72000003 -0.0302976 9.1853433e-39 331 264
0.015190879 0.722 -0.030381758 9.2861751e-39 332 264
0.016456785 0.722 -0.030381758 9.9315445e-39 333 264
0.017747238 0.72299999 -0.030423839 1.1673188e-38 334 264
0.019014901 0.72299999 -0.030423839 1.1857219e-38 335 264
0.020282559 0.72299999 -0.030423839 1.1766099e-38 336 264
0.021609833 0.72500002 -0.030508002 1.1766099e-38 337 264
0.022944121 0.727 -0.030592158 1.1767901e-38 338 264
0.024218792 0.727 -0.030592158 1.2321074e-38 339 264
0.025528532 0.72799999 -0.030634239 1.1315195e-38 340 264
0.026804959 0.72799999 -0.030634239 8.9184674e-39 341 264
0.028081384 0.72799999 -0.030634239 1.1327447e-38 342 264
0.029357811 0.72799999 -0.030634239 1.990164e-38 343 264
0.030634239 0.72799999 -0.030634239 1.8162186e-38 344 264
-0.040845651 0.72799999 -0.031910665 1.8527712e-38 288 265
-0.039514873 0.727 -0.03186683 1.5208669e-38 289 265
-0.038240198 0.727 -0.03186683 1.4723192e-38 290 265
-0.036965527 0.727 -0.03186683 1.1772933e-38 291 265
-0.035690852 0.727 -0.03186683 1.3978772e-38 292 265
-0.034321502 0.72500002 -0.031779166 1.3425598e-38 293 265
-0.033050332 0.72500002 -0.031779166 1.3791507e-38 294 265
-0.031691495 0.72299999 -0.031691495 1.351528e-38 295 265
-0.0302976 0.72000003 -0.03156 1.3698226e-38 296 265
-0.028994869 0.71899998 -0.031516165 1.3513834e-38 297 265
-0.027657079 0.71700001 -0.031428497 1.3146493e-38 298 265
-0.02639994 0.71700001 -0.031428497 1.0657222e-38 299 265
-0.0251428 0.71700001 -0.031428497 9.2807661e-39 300 265
-0.023852346 0.71600002 -0.031384666 1.2139182e-38 301 265
-0.022596961 0.71600002 -0.031384666 1.4064133e-38 302 265
-0.021281958 0.71399999 -0.031296998 1.3879742e-38 303 265
-0.020002026 0.713 -0.031253166 1.4246361e-38 304 265
-0.018751899 0.713 -0.031253166 1.4430392e-38 305 265
-0.01745268 0.71100003 -0.031165501 1.4154884e-38 306 265
-0.01620606 0.71100003 -0.031165501 1.424708e-38 307 265
-0.014959441 0.71100003 -0.031165501 1.4522591e-38 308 265
-0.013693533 0.70999998 -0.031121666 1.4430395e-38 309 265
-0.012448666 0.70999998 -0.031121666 1.4338922e-38 310 265
-0.011203799 0.70999998 -0.031121666 1.3786109e-38 311 265
-0.0099168532 0.70700002 -0.030990168 1.0939948e-38 312 265
-0.0086649731 0.70599997 -0.030946331 6.5203202e-39 313 265
-0.0074271196 0.70599997 -0.030946331 6.464358e-40 314 265
-0.0061980332 0.70700002 -0.030990168 5.9015769e-39 315 265
-0.0049514128 0.70599997 -0.030946331 1.3329112e-38 316 265
-0.0037135598 0.70599997 -0.030946331 1.2867775e-38 317 265
-0.0024792133 0.70700002 -0.030990168 1.3235097e-38 318 265
-0.00124136 0.708 -0.031034 1.3050705e-38 319 265
0 0.708 -0.031034 1.31429e-38 320 265
0.0012448666 0.70999998 -0.031121666 1.2958509e-38 321 265
0.0024897333 0.70999998 -0.031121666 1.2774844e-38 322 265
0.0037345996 0.70999998 -0.031121666 1.2682648e-38 323 265
0.0049864799 0.71100003 -0.031165501 1.2315307e-38 324 265
0.0062330998 0.71100003 -0.031165501 1.2223112e-38 325 265
0.0075007593 0.713 -0.031253166 1.19476e-38 326 265
0.0087508867 0.713 -0.031253166 1.19476e-38 327 265
0.010001013 0.713 -0.031253166 1.158169e-38 328 265
0.01129848 0.71600002 -0.031384666 1.158169e-38 329 265
0.0125714 0.71700001 -0.031428497 1.0568631e-38 330 265
0.0138864 0.72000003 -0.03156 8.9091193e-39 331 265
0.015190879 0.722 -0.031647664 9.1936236e-39 332 265
0.01647958 0.72299999 -0.031691495 1.0115939e-38 333 265
0.017747238 0.72299999 -0.031691495 1.1766102e-38 334 265
0.019014901 0.72299999 -0.031691495 1.1858298e-38 335 265
0.020282559 0.72299999 -0.031691495 1.1766818e-38 336 265
0.021609833 0.72500002 -0.031779166 1.1859014e-38 337 265
0.022975679 0.72799999 -0.031910665 1.1860816e-38 338 265
0.024252106 0.72799999 -0.031910665 1.241399e-38 339 265
0.025598666 0.73000002 -0.031998333 1.1682188e-38 340 265
0.026878599 0.73000002 -0.031998333 9.1929075e-39 341 265
0.028081384 0.72799999 -0.031910665 1.1237415e-38 342 265
0.029357811 0.72799999 -0.031910665 1.9627217e-38 343 265
0.030634239 0.72799999 -0.031910665 1.8069623e-38 344 265
-0.040845651 0.72799999 -0.033187091 1.8436962e-38 288 266
-0.039514873 0.727 -0.033141505 1.6131711e-38 289 266
-0.038240198 0.727 -0.033141505 1.472896e-38 290 266
-0.036965527 0.727 -0.033141505 1.1317363e-38 291 266
-0.035690852 0.727 -0.033141505 1.4254989e-38 292 266
-0.034321502 0.72500002 -0.033050332 1.3978403e-38 293 266
-0.033050332 0.72500002 -0.033050332 1.3976954e-38 294 266
-0.031691495 0.72299999 -0.032959159 1.3792563e-38 295 266
-0.0302976 0.72000003 -0.0328224 1.3791125e-38 296 266
-0.028994869 0.71899998 -0.032776814 1.3514537e-38 297 266
-0.027657079 0.71700001 -0.032685637 1.2870611e-38 298 266
-0.02639994 0.71700001 -0.032685637 1.1027075e-38 299 266
-0.0251428 0.71700001 -0.032685637 9.4655133e-39 300 266
-0.02388566 0.71700001 -0.032685637 1.2139178e-38 301 266
-0.022596961 0.71600002 -0.032640055 1.369644e-38 302 266
-0.021281958 0.71399999 -0.032548878 1.369644e-38 303 266
-0.020002026 0.713 -0.032503292 1.3696077e-38 304 266
-0.018751899 0.713 -0.032503292 1.3788272e-38 305 266
-0.01745268 0.71100003 -0.032412119 1.3880465e-38 306 266
-0.01620606 0.71100003 -0.032412119 1.3880465e-38 307 266
-0.014959441 0.71100003 -0.032412119 1.3971935e-38 308 266
-0.013693533 0.70999998 -0.032366529 1.4064131e-38 309 266
-0.012448666 0.70999998 -0.032366529 1.3971219e-38 310 266
-0.011203799 0.70999998 -0.032366529 1.3602076e-38 311 266
-0.0099168532 0.70700002 -0.032229774 1.09378e-38 312 266
-0.0086649731 0.70599997 -0.032184184 6.7958267e-39 313 266
-0.0074271196 0.70599997 -0.032184184 3.6734198e-40 314 266
-0.0061892662 0.70599997 -0.032184184 5.8983525e-39 315 266
-0.0049514128 0.70599997 -0.032184184 1.2504033e-38 316 266
-0.0037135598 0.70599997 -0.032184184 1.2043056e-38 317 266
-0.0024757064 0.70599997 -0.032184184 1.3235452e-38 318 266
-0.0012396066 0.70700002 -0.032229774 1.3143256e-38 319 266
0 0.708 -0.03227536 1.2867392e-38 320 266
0.0012448666 0.70999998 -0.032366529 1.2683001e-38 321 266
0.0024897333 0.70999998 -0.032366529 1.2498983e-38 322 266
0.0037345996 0.70999998 -0.032366529 1.2406787e-38 323 266
0.0049864799 0.71100003 -0.032412119 1.2038723e-38 324 266
0.0062330998 0.71100003 -0.032412119 1.2038723e-38 325 266
0.0075007593 0.713 -0.032503292 1.1856482e-38 326 266
0.0087508867 0.713 -0.032503292 1.2040513e-38 327 266
0.01001504 0.71399999 -0.032548878 1.1857907e-38 328 266
0.01129848 0.71600002 -0.032640055 1.1765351e-38 329 266
0.0125714 0.71700001 -0.032685637 1.0753374e-38 330 266
0.0138864 0.72000003 -0.0328224 8.9094781e-39 331 266
0.015190879 0.722 -0.032913569 9.5624019e-39 332 266
0.01647958 0.72299999 -0.032959159 1.0299967e-38 333 266
0.017747238 0.72299999 -0.032959159 1.1859367e-38 334 266
0.019014901 0.72299999 -0.032959159 1.1951564e-38 335 266
0.020338668 0.72500002 -0.033050332 1.1952286e-38 336 266
0.021609833 0.72500002 -0.033050332 1.2044481e-38 337 266
0.022975679 0.72799999 -0.033187091 1.1770068e-38 338 266
0.024252106 0.72799999 -0.033187091 1.2415437e-38 339 266
0.025598666 0.73000002 -0.033278264 1.195735e-38 340 266
0.026878599 0.73000002 -0.033278264 1.0021242e-38 341 266
0.028158534 0.73000002 -0.033278264 1.2710031e-38 342 266
0.029357811 0.72799999 -0.033187091 2.0177875e-38 343 266
0.030634239 0.72799999 -0.033187091 1.7885229e-38 344 266
-0.039514873 0.727 -0.03441618 1.6501573e-38 289 267
-0.038240198 0.727 -0.03441618 1.463891e-38 290 267
-0.036965527 0.727 -0.03441618 1.085889e-38 291 267
-0.035690852 0.727 -0.03441618 1.407204e-38 292 267
-0.03441618 0.727 -0.03441618 1.3888008e-38 293 267
-0.033050332 0.72500002 -0.034321502 1.379546e-38 294 267
-0.031779166 0.72500002 -0.034321502 1.3518514e-38 295 267
-0.0302976 0.72000003 -0.034084801 1.3701112e-38 296 267
-0.029035201 0.72000003 -0.034084801 1.3424885e-38 297 267
-0.027734226 0.71899998 -0.03403746 1.2779525e-38 298 267
-0.02647358 0.71899998 -0.03403746 1.1304395e-38 299 267
-0.0251428 0.71700001 -0.033942781 1.0019774e-38 300 267
-0.02388566 0.71700001 -0.033942781 1.2048078e-38 301 267
-0.022596961 0.71600002 -0.03389544 1.3513495e-38 302 267
-0.021281958 0.71399999 -0.033800758 1.3329462e-38 303 267
-0.020002026 0.713 -0.033753417 1.3696077e-38 304 267
-0.018751899 0.713 -0.033753417 1.3788272e-38 305 267
-0.01745268 0.71100003 -0.033658739 1.378827e-38 306 267
-0.01620606 0.71100003 -0.033658739 1.3973021e-38 307 267
-0.014959441 0.71100003 -0.033658739 1.3971938e-38 308 267
-0.013693533 0.70999998 -0.033611398 1.4064133e-38 309 267
-0.012448666 0.70999998 -0.033611398 1.3790074e-38 310 267
-0.01117224 0.708 -0.033516716 1.3144705e-38 311 267
-0.0099168532 0.70700002 -0.033469379 1.0479343e-38 312 267
-0.0086649731 0.70599997 -0.033422034 6.7958267e-39 313 267
-0.0074271196 0.70599997 -0.033422034 1.102026e-39 314 267
-0.0061892662 0.70599997 -0.033422034 5.5266931e-39 315 267
-0.0049514128 0.70599997 -0.033422034 1.1124698e-38 316 267
-0.0037135598 0.70599997 -0.033422034 1.1585318e-38 317 267
-0.0024757064 0.70599997 -0.033422034 1.3142547e-38 318 267
-0.0012396066 0.70700002 -0.033469379 1.3050351e-38 319 267
0 0.708 -0.033516716 1.2958156e-38 320 267
0.0012448666 0.70999998 -0.033611398 1.286596e-38 321 267
0.0024897333 0.70999998 -0.033611398 1.2314233e-38 322 267
0.0037345996 0.70999998 -0.033611398 1.2222036e-38 323 267
0.0049864799 0.71100003 -0.033658739 1.1947249e-38 324 267
0.0062330998 0.71100003 -0.033658739 1.2039446e-38 325 267
0.0075007593 0.713 -0.033753417 1.1673535e-38 326 267
0.0087508867 0.713 -0.033753417 1.1857566e-38 327 267
0.01001504 0.71399999 -0.033800758 1.1583859e-38 328 267
0.01129848 0.71600002 -0.03389544 1.1676055e-38 329 267
0.0125714 0.71700001 -0.033942781 1.0571526e-38 330 267
0.0138864 0.72000003 -0.034084801 9.0963945e-39 331 267
0.015190879 0.722 -0.034179479 9.6567653e-39 332 267
0.01647958 0.72299999 -0.03422682 1.057908e-38 333 267
0.017747238 0.72299999 -0.03422682 1.1677504e-38 334 267
0.0190675 0.72500002 -0.034321502 1.195373e-38 335 267
0.020394772 0.727 -0.03441618 1.1770421e-38 336 267
0.021669446 0.727 -0.03441618 1.1770421e-38 337 267
0.022975679 0.72799999 -0.034463517 1.2046296e-38 338 267
0.024318734 0.73000002 -0.034558199 1.2323242e-38 339 267
0.025598666 0.73000002 -0.034558199 1.2232861e-38 340 267
0.026878599 0.73000002 -0.034558199 1.1494937e-38 341 267
0.028158534 0.73000002 -0.034558199 1.4281684e-38 342 267
0.029357811 0.72799999 -0.034463517 1.9629032e-38 343 267
0.030634239 0.72799999 -0.034463517 1.7884873e-38 344 267
-0.039569225 0.72799999 -0.035739943 1.7239135e-38 289 268
-0.038292799 0.72799999 -0.035739943 1.5379699e-38 290 268
-0.037016369 0.72799999 -0.035739943 1.113834e-38 291 268
-0.035690852 0.727 -0.035690852 1.4073096e-38 292 268
-0.03441618 0.727 -0.035690852 1.4257489e-38 293 268
-0.033050332 0.72500002 -0.035592668 1.3888362e-38 294 268
-0.031779166 0.72500002 -0.035592668 1.3611416e-38 295 268
-0.0302976 0.72000003 -0.035347197 1.3885139e-38 296 268
-0.029035201 0.72000003 -0.035347197 1.360855e-38 297 268
-0.027734226 0.71899998 -0.035298105 1.2872447e-38 298 268
-0.02647358 0.71899998 -0.035298105 1.1950491e-38 299 268
-0.0251428 0.71700001 -0.035199918 1.0021222e-38 300 268
-0.02388566 0.71700001 -0.035199918 1.2141361e-38 301 268
-0.022596961 0.71600002 -0.035150826 1.3607125e-38 302 268
-0.021281958 0.71399999 -0.035052639 1.333018e-38 303 268
-0.020030079 0.71399999 -0.035052639 1.3696796e-38 304 268
-0.018751899 0.713 -0.035003547 1.3788993e-38 305 268
-0.01745268 0.71100003 -0.034905359 1.3513845e-38 306 268
-0.01620606 0.71100003 -0.034905359 1.3513845e-38 307 268
-0.014959441 0.71100003 -0.034905359 1.3696796e-38 308 268
-0.013693533 0.70999998 -0.034856264 1.3696796e-38 309 268
-0.012448666 0.70999998 -0.034856264 1.3329459e-38 310 268
-0.01117224 0.708 -0.034758076 1.2960677e-38 311 268
-0.0099168532 0.70700002 -0.034708988 1.0939598e-38 312 268
-0.008677247 0.70700002 -0.034708988 7.4386752e-39 313 268
-0.0074376399 0.70700002 -0.034708988 1.0105492e-39 314 268
-0.0061980332 0.70700002 -0.034708988 4.605813e-39 315 268
-0.0049514128 0.70599997 -0.034659892 1.0390014e-38 316 268
-0.0037135598 0.70599997 -0.034659892 1.0759157e-38 317 268
-0.0024792133 0.70700002 -0.034708988 1.2774137e-38 318 268
-0.0012396066 0.70700002 -0.034708988 1.2681942e-38 319 268
0 0.708 -0.034758076 1.2314957e-38 320 268
0.0012448666 0.70999998 -0.034856264 1.2222761e-38 321 268
0.0024897333 0.70999998 -0.034856264 1.203837e-38 322 268
0.0037345996 0.70999998 -0.034856264 1.2222761e-38 323 268
0.0049864799 0.71100003 -0.034905359 1.185685e-38 324 268
0.0062330998 0.71100003 -0.034905359 1.1949046e-38 325 268
0.0075007593 0.713 -0.035003547 1.1767524e-38 326 268
0.0087508867 0.713 -0.035003547 1.1951917e-38 327 268
0.01001504 0.71399999 -0.035052639 1.1768605e-38 328 268
0.01129848 0.71600002 -0.035150826 1.1768605e-38 329 268
0.012606465 0.71899998 -0.035298105 1.0848109e-38 330 268
0.0138864 0.72000003 -0.035347197 9.5573698e-39 331 268
0.015190879 0.722 -0.035445385 9.7489665e-39 332 268
0.01647958 0.72299999 -0.035494477 1.076312e-38 333 268
0.017747238 0.72299999 -0.035494477 1.1953733e-38 334 268
0.0190675 0.72500002 -0.035592668 1.1953733e-38 335 268
0.020394772 0.727 -0.035690852 1.1953733e-38 336 268
0.021669446 0.727 -0.035690852 1.2138126e-38 337 268
0.022975679 0.72799999 -0.035739943 1.1954826e-38 338 268
0.024318734 0.73000002 -0.035838135 1.2323607e-38 339 268
0.025598666 0.73000002 -0.035838135 1.1772975e-38 340 268
0.026878599 0.73000002 -0.035838135 1.2787126e-38 341 268
0.028158534 0.73000002 -0.035838135 1.5113968e-38 342 268
0.029438468 0.73000002 -0.035838135 1.9354968e-38 343 268
0.030718399 0.73000002 -0.035838135 1.8069267e-38 344 268
-0.039569225 0.72799999 -0.037016369 1.8437681e-38 289 269
-0.038292799 0.72799999 -0.037016369 1.6675122e-38 290 269
-0.037016369 0.72799999 -0.037016369 1.2065341e-38 291 269
-0.035690852 0.727 -0.036965527 1.4166034e-38 292 269
-0.03441618 0.727 -0.036965527 1.4166034e-38 293 269
-0.033141505 0.727 -0.036965527 1.3889823e-38 294 269
-0.031779166 0.72500002 -0.036863834 1.352068e-38 295 269
-0.0302976 0.72000003 -0.036609601 1.3886223e-38 296 269
-0.029035201 0.72000003 -0.036609601 1.3609996e-38 297 269
-0.027734226 0.71899998 -0.036558751 1.3147233e-38 298 269
-0.02647358 0.71899998 -0.036558751 1.2501864e-38 299 269
-0.025212931 0.71899998 -0.036558751 1.0206689e-38 300 269
-0.02388566 0.71700001 -0.036457058 1.251122e-38 301 269
-0.02262852 0.71700001 -0.036457058 1.4068822e-38 302 269
-0.021281958 0.71399999 -0.036304519 1.3515648e-38 303 269
-0.020030079 0.71399999 -0.036304519 1.3605676e-38 304 269
-0.018751899 0.713 -0.036253672 1.3513481e-38 305 269
-0.01745268 0.71100003 -0.036151983 1.369644e-38 306 269
-0.01620606 0.71100003 -0.036151983 1.369644e-38 307 269
-0.014959441 0.71100003 -0.036151983 1.3512409e-38 308 269
-0.013693533 0.70999998 -0.036101133 1.3420213e-38 309 269
-0.012448666 0.70999998 -0.036101133 1.2961753e-38 310 269
-0.01117224 0.708 -0.03599944 1.2777362e-38 311 269
-0.0099168532 0.70700002 -0.035948593 1.1856868e-38 312 269
-0.008677247 0.70700002 -0.035948593 8.7243721e-39 313 269
-0.0074376399 0.70700002 -0.035948593 1.1956565e-39 314 269
-0.0061980332 0.70700002 -0.035948593 4.0533609e-39 315 269
-0.0049514128 0.70599997 -0.035897743 9.6564178e-39 316 269
-0.0037135598 0.70599997 -0.035897743 1.0301787e-38 317 269
-0.0024792133 0.70700002 -0.035948593 1.2591547e-38 318 269
-0.00124136 0.708 -0.03599944 1.2314601e-38 319 269
0 0.708 -0.03599944 1.2222759e-38 320 269
0.0012448666 0.70999998 -0.036101133 1.2038726e-38 321 269
0.0024897333 0.70999998 -0.036101133 1.1856134e-38 322 269
0.0037345996 0.70999998 -0.036101133 1.2132361e-38 323 269
0.0049864799 0.71100003 -0.036151983 1.1858648e-38 324 269
0.0062506334 0.713 -0.036253672 1.1950844e-38 325 269
0.0075007593 0.713 -0.036253672 1.1952283e-38 326 269
0.0087631596 0.71399999 -0.036304519 1.2136674e-38 327 269
0.010043093 0.71600002 -0.036406212 1.1953009e-38 328 269
0.01131426 0.71700001 -0.036457058 1.1953009e-38 329 269
0.012606465 0.71899998 -0.036558751 1.0849556e-38 330 269
0.013924973 0.722 -0.03671129 9.5588173e-39 331 269
0.015211919 0.72299999 -0.036762137 9.8411622e-39 332 269
0.01647958 0.72299999 -0.036762137 1.076312e-38 333 269
0.017796334 0.72500002 -0.036863834 1.2044854e-38 334 269
0.019120099 0.727 -0.036965527 1.2044854e-38 335 269
0.020394772 0.727 -0.036965527 1.2045576e-38 336 269
0.021699252 0.72799999 -0.037016369 1.2137773e-38 337 269
0.023038799 0.73000002 -0.037118066 1.2139573e-38 338 269
0.024318734 0.73000002 -0.037118066 1.2323604e-38 339 269
0.025598666 0.73000002 -0.037118066 1.1956276e-38 340 269
0.026878599 0.73000002 -0.037118066 1.3892385e-38 341 269
0.028158534 0.73000002 -0.037118066 1.5483827e-38 342 269
0.029438468 0.73000002 -0.037118066 1.9356043e-38 343 269
0.030718399 0.73000002 -0.037118066 1.8068548e-38 344 269
-0.039569225 0.72799999 -0.038292799 1.8714274e-38 289 270
-0.038292799 0.72799999 -0.038292799 1.8246065e-38 290 270
-0.037016369 0.72799999 -0.038292799 1.455788e-38 291 270
-0.035690852 0.727 -0.038240198 1.4443347e-38 292 270
-0.03441618 0.727 -0.038240198 1.3797978e-38 293 270
-0.033141505 0.727 -0.038240198 1.4165684e-38 294 270
-0.031779166 0.72500002 -0.038135 1.3797262e-38 295 270
-0.0302976 0.72000003 -0.037871998 1.3887302e-38 296 270
-0.029035201 0.72000003 -0.037871998 1.3702911e-38 297 270
-0.027734226 0.71899998 -0.037819397 1.3607844e-38 298 270
-0.02647358 0.71899998 -0.037819397 1.222491e-38 299 270
-0.025212931 0.71899998 -0.037819397 1.0206687e-38 300 270
-0.02388566 0.71700001 -0.037714198 1.2511576e-38 301 270
-0.02262852 0.71700001 -0.037714198 1.3978424e-38 302 270
-0.021341572 0.71600002 -0.037661601 1.3333055e-38 303 270
-0.020030079 0.71399999 -0.037556399 1.3607478e-38 304 270
-0.018751899 0.713 -0.037503798 1.3422728e-38 305 270
-0.01745268 0.71100003 -0.037398599 1.3513848e-38 306 270
-0.01620606 0.71100003 -0.037398599 1.3329815e-38 307 270
-0.014959441 0.71100003 -0.037398599 1.3145068e-38 308 270
-0.013693533 0.70999998 -0.037345998 1.3145068e-38 309 270
-0.012448666 0.70999998 -0.037345998 1.286956e-38 310 270
-0.01117224 0.708 -0.0372408 1.268481e-38 311 270
-0.0099168532 0.70700002 -0.037188202 1.2499714e-38 312 270
-0.008677247 0.70700002 -0.037188202 1.0010433e-38 313 270
-0.0074376399 0.70700002 -0.037188202 1.9314209e-39 314 270
-0.0061980332 0.70700002 -0.037188202 4.3285059e-39 315 270
-0.0049514128 0.70599997 -0.037135597 8.8291795e-39 316 270
-0.0037135598 0.70599997 -0.037135597 9.7511343e-39 317 270
-0.0024792133 0.70700002 -0.037188202 1.2224203e-38 318 270
-0.00124136 0.708 -0.0372408 1.2039812e-38 319 270
0 0.708 -0.0372408 1.1855778e-38 320 270
0.0012448666 0.70999998 -0.037345998 1.2039809e-38 321 270
0.0024897333 0.70999998 -0.037345998 1.1766096e-38 322 270
0.0037345996 0.70999998 -0.037345998 1.2134879e-38 323 270
0.0049864799 0.71100003 -0.037398599 1.1768971e-38 324 270
0.0062506334 0.713 -0.037503798 1.1953362e-38 325 270
0.0075007593 0.713 -0.037503798 1.213668e-38 326 270
0.0087631596 0.71399999 -0.037556399 1.213668e-38 327 270
0.010043093 0.71600002 -0.037661601 1.2045207e-38 328 270
0.01131426 0.71700001 -0.037714198 1.2045207e-38 329 270
0.012624 0.72000003 -0.037871998 1.048221e-38 330 270
0.013924973 0.722 -0.0379772 9.3762225e-39 331 270
0.015211919 0.72299999 -0.038029801 1.0209223e-38 332 270
0.01647958 0.72299999 -0.038029801 1.0854592e-38 333 270
0.017796334 0.72500002 -0.038135 1.2228525e-38 334 270
0.019120099 0.727 -0.038240198 1.2320721e-38 335 270
0.020422826 0.72799999 -0.038292799 1.2229244e-38 336 270
0.021699252 0.72799999 -0.038292799 1.2413636e-38 337 270
0.023038799 0.73000002 -0.038398001 1.2048094e-38 338 270
0.024352046 0.73100001 -0.038450599 1.2232485e-38 339 270
0.025633732 0.73100001 -0.038450599 1.1864075e-38 340 270
0.026915418 0.73100001 -0.038450599 1.4261162e-38 341 270
0.028158534 0.73000002 -0.038398001 1.5117915e-38 342 270
0.029438468 0.73000002 -0.038398001 1.8713545e-38 343 270
-0.038292799 0.72799999 -0.039569225 1.926203e-38 290 271
-0.037016369 0.72799999 -0.039569225 1.7049695e-38 291 271
-0.035690852 0.727 -0.039514873 1.5278863e-38 292 271
-0.03441618 0.727 -0.039514873 1.2421157e-38 293 271
-0.033141505 0.727 -0.039514873 1.4167109e-38 294 271
-0.03186683 0.727 -0.039514873 1.3890524e-38 295 271
-0.030508002 0.72500002 -0.039406165 1.4256085e-38 296 271
-0.029035201 0.72000003 -0.039134402 1.3887302e-38 297 271
-0.027734226 0.71899998 -0.039080046 1.3886579e-38 298 271
-0.02647358 0.71899998 -0.039080046 1.2134862e-38 299 271
-0.025212931 0.71899998 -0.039080046 1.0115563e-38 300 271
-0.02388566 0.71700001 -0.038971342 1.2328258e-38 301 271
-0.02262852 0.71700001 -0.038971342 1.3795109e-38 302 271
-0.021341572 0.71600002 -0.038916986 1.3425968e-38 303 271
-0.020086186 0.71600002 -0.038916986 1.3700746e-38 304 271
-0.018778199 0.71399999 -0.038808275 1.3515996e-38 305 271
-0.017501773 0.713 -0.038753927 1.351528e-38 306 271
-0.01620606 0.71100003 -0.038645219 1.3238333e-38 307 271
-0.014959441 0.71100003 -0.038645219 1.3237617e-38 308 271
-0.013693533 0.70999998 -0.038590867 1.3053226e-38 309 271
-0.012448666 0.70999998 -0.038590867 1.3052504e-38 310 271
-0.01117224 0.708 -0.038482159 1.2868111e-38 311 271
-0.0099168532 0.70700002 -0.038427804 1.2683011e-38 312 271
-0.008677247 0.70700002 -0.038427804 1.0839458e-38 313 271
-0.0074481601 0.708 -0.038482159 3.2174794e-39 314 271
-0.0061980332 0.70700002 -0.038427804 4.9688376e-39 315 271
-0.0049584266 0.70700002 -0.038427804 7.7278696e-39 316 271
-0.0037188199 0.70700002 -0.038427804 8.9264127e-39 317 271
-0.0024792133 0.70700002 -0.038427804 1.2316752e-38 318 271
-0.00124136 0.708 -0.038482159 1.2132361e-38 319 271
0 0.708 -0.038482159 1.2041597e-38 320 271
0.00124136 0.708 -0.038482159 1.2133793e-38 321 271
0.0024897333 0.70999998 -0.038590867 1.1768249e-38 322 271
0.0037345996 0.70999998 -0.038590867 1.213703e-38 323 271
0.0049864799 0.71100003 -0.038645219 1.1954081e-38 324 271
0.0062506334 0.713 -0.038753927 1.2046276e-38 325 271
0.0075007593 0.713 -0.038753927 1.2045207e-38 326 271
0.0087877065 0.71600002 -0.038916986 1.2045207e-38 327 271
0.010043093 0.71600002 -0.038916986 1.195373e-38 328 271
0.01131426 0.71700001 -0.038971342 1.1861535e-38 329 271
0.012624 0.72000003 -0.039134402 1.0757711e-38 330 271
0.01394426 0.72299999 -0.039297458 1.0019787e-38 331 271
0.015211919 0.72299999 -0.039297458 1.0576558e-38 332 271
0.016525166 0.72500002 -0.039406165 1.0761308e-38 333 271
0.017845426 0.727 -0.039514873 1.2045207e-38 334 271
0.0191464 0.72799999 -0.039569225 1.2229238e-38 335 271
0.020422826 0.72799999 -0.039569225 1.2138129e-38 336 271
0.021758866 0.73000002 -0.039677933 1.232252e-38 337 271
0.023038799 0.73000002 -0.039677933 1.204845e-38 338 271
0.024352046 0.73100001 -0.039732285 1.1955895e-38 339 271
0.025633732 0.73100001 -0.039732285 1.1680387e-38 340 271
0.026915418 0.73100001 -0.039732285 1.56448e-38 341 271
0.028197108 0.73100001 -0.039732285 1.5668923e-38 342 271
0.029478792 0.73100001 -0.039732285 1.8895769e-38 343 271
-0.037016369 0.72799999 -0.040845651 1.8434797e-38 291 272
-0.035739943 0.72799999 -0.040845651 1.6855185e-38 292 272
-0.034463517 0.72799999 -0.040845651 1.2890773e-38 293 272
-0.033187091 0.72799999 -0.040845651 1.3983075e-38 294 272
-0.03186683 0.727 -0.040789545 1.4259302e-38 295 272
-0.030592158 0.727 -0.040789545 1.4350081e-38 296 272
-0.029236834 0.72500002 -0.040677335 1.4165331e-38 297 272
-0.027772799 0.72000003 -0.040396802 1.3980224e-38 298 272
-0.026510401 0.72000003 -0.040396802 1.2136311e-38 299 272
-0.025248 0.72000003 -0.040396802 9.931892e-39 300 272
-0.023952285 0.71899998 -0.040340692 1.2236781e-38 301 272
-0.02262852 0.71700001 -0.040228479 1.3703633e-38 302 272
-0.021341572 0.71600002 -0.040172372 1.3519243e-38 303 272
-0.020086186 0.71600002 -0.040172372 1.3609994e-38 304 272
-0.0188308 0.71600002 -0.040172372 1.3425601e-38 305 272
-0.017526319 0.71399999 -0.040060159 1.3425604e-38 306 272
-0.01620606 0.71100003 -0.039891839 1.2964627e-38 307 272
-0.014959441 0.71100003 -0.039891839 1.3147223e-38 308 272
-0.013693533 0.70999998 -0.039835732 1.2962472e-38 309 272
-0.012448666 0.70999998 -0.039835732 1.2870632e-38 310 272
-0.01117224 0.708 -0.039723519 1.2778078e-38 311 272
-0.0099308798 0.708 -0.039723519 1.250222e-38 312 272
-0.008689519 0.708 -0.039723519 1.0842698e-38 313 272
-0.0074481601 0.708 -0.039723519 5.1496191e-39 314 272
-0.0061980332 0.70700002 -0.039667413 5.5180415e-39 315 272
-0.0049584266 0.70700002 -0.039667413 7.3597905e-39 316 272
-0.0037188199 0.70700002 -0.039667413 9.1118662e-39 317 272
-0.0024792133 0.70700002 -0.039667413 1.2317471e-38 318 272
-0.00124136 0.708 -0.039723519 1.213344e-38 319 272
0 0.708 -0.039723519 1.1951567e-38 320 272
0.00124136 0.708 -0.039723519 1.2135958e-38 321 272
0.0024897333 0.70999998 -0.039835732 1.1861885e-38 322 272
0.0037345996 0.70999998 -0.039835732 1.1954081e-38 323 272
0.0049864799 0.71100003 -0.039891839 1.2046279e-38 324 272
0.0062506334 0.713 -0.040004052 1.1954083e-38 325 272
0.0075112795 0.71399999 -0.040060159 1.2046282e-38 326 272
0.0087877065 0.71600002 -0.040172372 1.2046282e-38 327 272
0.010043093 0.71600002 -0.040172372 1.1953728e-38 328 272
0.01134582 0.71899998 -0.040340692 1.1861532e-38 329 272
0.012624 0.72000003 -0.040396802 1.066731e-38 330 272
0.013924973 0.722 -0.040509012 9.9297453e-39 331 272
0.015211919 0.72299999 -0.040565118 1.0576914e-38 332 272
0.016525166 0.72500002 -0.040677335 1.066911e-38 333 272
0.017845426 0.727 -0.040789545 1.2229591e-38 334 272
0.0191464 0.72799999 -0.040845651 1.2414343e-38 335 272
0.020478934 0.73000002 -0.040957868 1.2139198e-38 336 272
0.021758866 0.73000002 -0.040957868 1.2231393e-38 337 272
0.02307036 0.73100001 -0.041013971 1.2140277e-38 338 272
0.024418673 0.73299998 -0.041126184 1.0665147e-38 339 272
0.025703866 0.73299998 -0.041126184 1.112757e-38 340 272
0.02702588 0.73400003 -0.041182294 1.7857851e-38 341 272
0.028312827 0.73400003 -0.041182294 1.6315011e-38 342 272
-0.035739943 0.72799999 -0.042122077 1.8704149e-38 292 273
-0.034463517 0.72799999 -0.042122077 1.510852e-38 293 273
-0.033187091 0.72799999 -0.042122077 1.4538763e-38 294 273
-0.03186683 0.727 -0.042064216 1.3801198e-38 295 273
-0.030592158 0.727 -0.042064216 1.4076713e-38 296 273
-0.029236834 0.72500002 -0.041948501 1.3800126e-38 297 273
-0.027849946 0.722 -0.041774917 1.4255732e-38 298 273
-0.026584039 0.722 -0.041774917 1.2596569e-38 299 273
-0.025248 0.72000003 -0.041659199 1.0025165e-38 300 273
-0.023952285 0.71899998 -0.041601337 1.2145665e-38 301 273
-0.02262852 0.71700001 -0.041485619 1.3796181e-38 302 273
-0.021371379 0.71700001 -0.041485619 1.3519596e-38 303 273
-0.020086186 0.71600002 -0.041427758 1.3793662e-38 304 273
-0.0188308 0.71600002 -0.041427758 1.3701465e-38 305 273
-0.017526319 0.71399999 -0.041312039 1.360855e-38 306 273
-0.016251646 0.713 -0.041254178 1.360855e-38 307 273
-0.014959441 0.71100003 -0.041138459 1.3331605e-38 308 273
-0.013693533 0.70999998 -0.041080594 1.3055377e-38 309 273
-0.012448666 0.70999998 -0.041080594 1.3146127e-38 310 273
-0.01117224 0.708 -0.040964879 1.2961377e-38 311 273
-0.0099308798 0.708 -0.040964879 1.2686961e-38 312 273
-0.008689519 0.708 -0.040964879 1.1211831e-38 313 273
-0.0074481601 0.708 -0.040964879 6.804114e-39 314 273
-0.0061980332 0.70700002 -0.040907022 6.2509416e-39 315 273
-0.0049584266 0.70700002 -0.040907022 7.0839281e-39 316 273
-0.0037188199 0.70700002 -0.040907022 8.8352863e-39 317 273
-0.0024792133 0.70700002 -0.040907022 1.2410377e-38 318 273
-0.00124136 0.708 -0.040964879 1.2502573e-38 319 273
0 0.708 -0.040964879 1.2044834e-38 320 273
0.0012448666 0.70999998 -0.041080594 1.213703e-38 321 273
0.0024897333 0.70999998 -0.041080594 1.2136677e-38 322 273
0.0037398601 0.71100003 -0.041138459 1.2228872e-38 323 273
0.0050005065 0.713 -0.041254178 1.2045563e-38 324 273
0.0062593995 0.71399999 -0.041312039 1.2229594e-38 325 273
0.00753232 0.71600002 -0.041427758 1.2046282e-38 326 273
0.0087877065 0.71600002 -0.041427758 1.1953728e-38 327 273
0.01005712 0.71700001 -0.041485619 1.1954081e-38 328 273
0.01134582 0.71899998 -0.041601337 1.1585658e-38 329 273
0.012624 0.72000003 -0.041659199 1.0849541e-38 330 273
0.013924973 0.722 -0.041774917 1.0664791e-38 331 273
0.015254001 0.72500002 -0.041948501 1.1035734e-38 332 273
0.016525166 0.72500002 -0.041948501 1.1035734e-38 333 273
0.017845426 0.727 -0.042064216 1.2046279e-38 334 273
0.019199001 0.73000002 -0.0422378 1.2138476e-38 335 273
0.020478934 0.73000002 -0.0422378 1.2138479e-38 336 273
0.021788673 0.73100001 -0.042295661 1.232287e-38 337 273
0.02307036 0.73100001 -0.042295661 1.2138829e-38 338 273
0.024418673 0.73299998 -0.042411376 1.0478948e-38 339 273
0.025738932 0.73400003 -0.042469237 1.2685532e-38 340 273
0.02702588 0.73400003 -0.042469237 2.1536671e-38 341 273
0.028389972 0.736 -0.042584959 1.7420636e-38 342 273
-0.034558199 0.73000002 -0.043517731 1.7786181e-38 293 274
-0.033187091 0.72799999 -0.043398503 1.5836339e-38 294 274
-0.031910665 0.72799999 -0.043398503 1.3162666e-38 295 274
-0.030634239 0.72799999 -0.043398503 1.3706835e-38 296 274
-0.029317487 0.727 -0.043338891 1.4352204e-38 297 274
-0.027965667 0.72500002 -0.043219667 1.4259694e-38 298 274
-0.026584039 0.722 -0.043040827 1.2784564e-38 299 274
-0.025248 0.72000003 -0.042921603 1.0211724e-38 300 274
-0.023952285 0.71899998 -0.042861983 1.1686854e-38 301 274
-0.02262852 0.71700001 -0.042742759 1.3888028e-38 302 274
-0.021371379 0.71700001 -0.042742759 1.3519246e-38 303 274
-0.020114239 0.71700001 -0.042742759 1.3610359e-38 304 274
-0.0188308 0.71600002 -0.042683143 1.3518164e-38 305 274
-0.017575413 0.71600002 -0.042683143 1.351852e-38 306 274
-0.016274439 0.71399999 -0.042563915 1.3241933e-38 307 274
-0.015001519 0.713 -0.042504307 1.3332333e-38 308 274
-0.01371282 0.71100003 -0.042385083 1.3147942e-38 309 274
-0.012448666 0.70999998 -0.042325463 1.314687e-38 310 274
-0.011203799 0.70999998 -0.042325463 1.2962477e-38 311 274
-0.0099308798 0.708 -0.042206239 1.2962487e-38 312 274
-0.008689519 0.708 -0.042206239 1.1671748e-38 313 274
-0.0074481601 0.708 -0.042206239 7.3562004e-39 314 274
-0.0062067998 0.708 -0.042206239 5.9732659e-39 315 274
-0.0049584266 0.70700002 -0.042146627 5.977935e-39 316 274
-0.0037188199 0.70700002 -0.042146627 8.9278351e-39 317 274
-0.0024792133 0.70700002 -0.042146627 1.2319626e-38 318 274
-0.00124136 0.708 -0.042206239 1.2319626e-38 319 274
0 0.70999998 -0.042325463 1.213668e-38 320 274
0.0012448666 0.70999998 -0.042325463 1.213668e-38 321 274
0.0024932399 0.71100003 -0.042385083 1.2136324e-38 322 274
0.0037503797 0.713 -0.042504307 1.2228519e-38 323 274
0.0050075199 0.71399999 -0.042563915 1.2045563e-38 324 274
0.0062769335 0.71600002 -0.042683143 1.2229594e-38 325 274
0.00753232 0.71600002 -0.042683143 1.2138123e-38 326 274
0.0087877065 0.71600002 -0.042683143 1.2045926e-38 327 274
0.01005712 0.71700001 -0.042742759 1.1678585e-38 328 274
0.01134582 0.71899998 -0.042861983 1.1310163e-38 329 274
0.012624 0.72000003 -0.042921603 1.0574759e-38 330 274
0.013924973 0.722 -0.043040827 1.0206336e-38 331 274
0.015211919 0.72299999 -0.043100435 1.1312683e-38 332 274
0.016525166 0.72500002 -0.043219667 1.1312683e-38 333 274
0.017869972 0.72799999 -0.043398503 1.2138123e-38 334 274
0.019199001 0.73000002 -0.043517731 1.2230677e-38 335 274
0.020506985 0.73100001 -0.043577347 1.2322517e-38 336 274
0.021788673 0.73100001 -0.043577347 1.2230321e-38 337 274
0.023133477 0.73299998 -0.043696571 1.1767901e-38 338 274
0.024418673 0.73299998 -0.043696571 1.1951932e-38 339 274
0.025738932 0.73400003 -0.043756187 1.3901007e-38 340 274
0.02702588 0.73400003 -0.043756187 2.0816039e-38 341 274
-0.031910665 0.72799999 -0.044674929 1.4552452e-38 295 275
-0.030634239 0.72799999 -0.044674929 1.3895173e-38 296 275
-0.029317487 0.727 -0.044613566 1.3434195e-38 297 275
-0.027965667 0.72500002 -0.044490833 1.4261117e-38 298 275
-0.026584039 0.722 -0.044306733 1.3339521e-38 299 275
-0.025248 0.72000003 -0.044183999 1.0763099e-38 300 275
-0.023952285 0.71899998 -0.044122629 1.1777252e-38 301 275
-0.02262852 0.71700001 -0.043999899 1.3611807e-38 302 275
-0.021371379 0.71700001 -0.043999899 1.3519611e-38 303 275
-0.020114239 0.71700001 -0.043999899 1.3702914e-38 304 275
-0.0188308 0.71600002 -0.043938532 1.3610359e-38 305 275
-0.017575413 0.71600002 -0.043938532 1.3609994e-38 306 275
-0.016274439 0.71399999 -0.043815799 1.3517797e-38 307 275
-0.015022559 0.71399999 -0.043815799 1.3425604e-38 308 275
-0.01371282 0.71100003 -0.043631699 1.3240854e-38 309 275
-0.0124662 0.71100003 -0.043631699 1.3331254e-38 310 275
-0.011203799 0.70999998 -0.043570329 1.3147223e-38 311 275
-0.0099589331 0.70999998 -0.043570329 1.3237988e-38 312 275
-0.0087140659 0.70999998 -0.043570329 1.2223838e-38 313 275
-0.0074691991 0.70999998 -0.043570329 8.0894466e-39 314 275
-0.0062243328 0.70999998 -0.043570329 5.9693073e-39 315 275
-0.0049654399 0.708 -0.043447599 6.0690489e-39 316 275
-0.00372408 0.708 -0.043447599 9.2958945e-39 317 275
-0.00248272 0.708 -0.043447599 1.2228872e-38 318 275
-0.0012448666 0.70999998 -0.043570329 1.2044481e-38 319 275
0 0.71100003 -0.043631699 1.213668e-38 320 275
0.00124662 0.71100003 -0.043631699 1.213668e-38 321 275
0.0025002533 0.713 -0.043754432 1.2045563e-38 322 275
0.0037556398 0.71399999 -0.043815799 1.2229594e-38 323 275
0.0050215465 0.71600002 -0.043938532 1.2046282e-38 324 275
0.0062769335 0.71600002 -0.043938532 1.2138479e-38 325 275
0.00753232 0.71600002 -0.043938532 1.2138123e-38 326 275
0.0087999795 0.71700001 -0.043999899 1.2045926e-38 327 275
0.01005712 0.71700001 -0.043999899 1.1770065e-38 328 275
0.01134582 0.71899998 -0.044122629 1.1124696e-38 329 275
0.012659066 0.722 -0.044306733 9.8407964e-39 330 275
0.01394426 0.72299999 -0.044368099 1.0117025e-38 331 275
0.015211919 0.72299999 -0.044368099 1.1770065e-38 332 275
0.016593546 0.72799999 -0.044674929 1.1862261e-38 333 275
0.017919067 0.73000002 -0.044797666 1.2230677e-38 334 275
0.019225299 0.73100001 -0.044859033 1.2506904e-38 335 275
0.020563092 0.73299998 -0.044981763 1.2415432e-38 336 275
0.021848286 0.73299998 -0.044981763 1.1862616e-38 337 275
0.023133477 0.73299998 -0.044981763 1.2228175e-38 338 275
0.024451986 0.73400003 -0.045043133 1.6653206e-38 339 275
0.025738932 0.73400003 -0.045043133 1.5479861e-38 340 275
0.02702588 0.73400003 -0.045043133 1.8891099e-38 341 275
-0.032042164 0.73100001 -0.046140719 1.7599266e-38 295 276
-0.030718399 0.73000002 -0.046077598 1.5470077e-38 296 276
-0.029357811 0.72799999 -0.045951359 1.3165186e-38 297 276
-0.028081384 0.72799999 -0.045951359 1.3894117e-38 298 276
-0.026804959 0.72799999 -0.045951359 1.3433139e-38 299 276
-0.025318133 0.722 -0.045572639 1.1682536e-38 300 276
-0.023952285 0.71899998 -0.045383278 1.2143514e-38 301 276
-0.02262852 0.71700001 -0.045257039 1.3060801e-38 302 276
-0.021371379 0.71700001 -0.045257039 1.3060801e-38 303 276
-0.020114239 0.71700001 -0.045257039 1.3519967e-38 304 276
-0.0188308 0.71600002 -0.045193922 1.3427413e-38 305 276
-0.017575413 0.71600002 -0.045193922 1.3610359e-38 306 276
-0.016274439 0.71399999 -0.045067675 1.3518164e-38 307 276
-0.015022559 0.71399999 -0.045067675 1.351745e-38 308 276
-0.013751393 0.713 -0.045004558 1.3332699e-38 309 276
-0.0124662 0.71100003 -0.044878319 1.3240503e-38 310 276
-0.01121958 0.71100003 -0.044878319 1.3056472e-38 311 276
-0.0099729598 0.71100003 -0.044878319 1.3240506e-38 312 276
-0.0087140659 0.70999998 -0.044815198 1.2134159e-38 313 276
-0.0074691991 0.70999998 -0.044815198 8.5497017e-39 314 276
-0.0062243328 0.70999998 -0.044815198 5.9693073e-39 315 276
-0.0049794666 0.70999998 -0.044815198 5.7935396e-39 316 276
-0.0037345996 0.70999998 -0.044815198 9.1125823e-39 317 276
-0.0024897333 0.70999998 -0.044815198 1.22278e-38 318 276
-0.00124662 0.71100003 -0.044878319 1.2135605e-38 319 276
0 0.713 -0.045004558 1.2136324e-38 320 276
0.0012501266 0.713 -0.045004558 1.2228519e-38 321 276
0.0025037599 0.71399999 -0.045067675 1.2229594e-38 322 276
0.00376616 0.71600002 -0.045193922 1.2321791e-38 323 276
0.0050215465 0.71600002 -0.045193922 1.2138842e-38 324 276
0.0062769335 0.71600002 -0.045193922 1.2138842e-38 325 276
0.0075428397 0.71700001 -0.045257039 1.2138126e-38 326 276
0.0087999795 0.71700001 -0.045257039 1.2045929e-38 327 276
0.010085173 0.71899998 -0.045383278 1.1678235e-38 328 276
0.011361601 0.72000003 -0.045446403 1.0664443e-38 329 276
0.012659066 0.722 -0.045572639 9.6567681e-39 330 276
0.01394426 0.72299999 -0.04563576 9.8411594e-39 331 276
0.015211919 0.72299999 -0.04563576 1.2136329e-38 332 276
0.016639132 0.73000002 -0.046077598 1.2596949e-38 333 276
0.017943613 0.73100001 -0.046140719 1.2139926e-38 334 276
0.019225299 0.73100001 -0.046140719 1.2416153e-38 335 276
0.020563092 0.73299998 -0.046266954 1.2138494e-38 336 276
0.021848286 0.73299998 -0.046266954 1.2783864e-38 337 276
0.023133477 0.73299998 -0.046266954 1.2706431e-38 338 276
0.024451986 0.73400003 -0.046330083 1.7961582e-38 339 276
0.025738932 0.73400003 -0.046330083 1.7512133e-38 340 276
-0.03076048 0.73100001 -0.047422405 1.8056632e-38 296 277
-0.029478792 0.73100001 -0.047422405 1.5290763e-38 297 277
-0.028197108 0.73100001 -0.047422405 1.4913676e-38 298 277
-0.026915418 0.73100001 -0.047422405 1.3161959e-38 299 277
-0.025212931 0.71899998 -0.046643924 1.2786713e-38 300 277
-0.023952285 0.71899998 -0.046643924 1.2049148e-38 301 277
-0.022691639 0.71899998 -0.046643924 1.2876044e-38 302 277
-0.021371379 0.71700001 -0.046514176 1.3521413e-38 303 277
-0.020114239 0.71700001 -0.046514176 1.3612527e-38 304 277
-0.018857099 0.71700001 -0.046514176 1.3244103e-38 305 277
-0.017575413 0.71600002 -0.046449307 1.3701842e-38 306 277
-0.016320027 0.71600002 -0.046449307 1.3609646e-38 307 277
-0.015022559 0.71399999 -0.046319555 1.351745e-38 308 277
-0.01377068 0.71399999 -0.046319555 1.3424895e-38 309 277
-0.012501267 0.713 -0.046254687 1.3149387e-38 310 277
-0.01121958 0.71100003 -0.046124939 1.3057191e-38 311 277
-0.0099729598 0.71100003 -0.046124939 1.3332336e-38 312 277
