# .PCD v.7 - Point Cloud Data file format
FIELDS x y z rgb imX imY
SIZE 4 4 4 4 4 4
TYPE F F F F F F
COUNT 1 1 1 1 1 1
WIDTH 844
HEIGHT 1
VIEWPOINT 0 0 0 1 0 0 0
POINTS 844
DATA ascii
-0.0012606466 0.71899998 -0.050425861 7.1746481e-43 319 280
0 0.71700001 -0.0502856 1.0118776e-41 320 280
0.00125714 0.71700001 -0.0502856 1.0257112e-39 321 280
0.0025142799 0.71700001 -0.0502856 8.6679012e-39 322 280
0.00376616 0.71600002 -0.050215468 1.3646105e-38 323 280
0.0050215465 0.71600002 -0.050215468 1.6230059e-38 324 280
0.0062593995 0.71399999 -0.050075196 1.7059821e-38 325 280
0.0075112795 0.71399999 -0.050075196 1.8163996e-38 326 280
0.0087631596 0.71399999 -0.050075196 1.8901922e-38 327 280
0.010001013 0.713 -0.050005067 1.8808284e-38 328 280
0.01121958 0.71100003 -0.049864799 1.7793772e-38 329 280
0.012448666 0.70999998 -0.049794663 1.7059081e-38 330 280
0.013693533 0.70999998 -0.049794663 1.7059081e-38 331 280
0.014938398 0.70999998 -0.049794663 1.6600255e-38 332 280
0.016183265 0.70999998 -0.049794663 1.650806e-38 333 280
0.017379038 0.708 -0.049654398 1.6140362e-38 334 280
0.0186204 0.708 -0.049654398 1.6140362e-38 335 280
0.01986176 0.708 -0.049654398 1.6598106e-38 336 280
0.021103119 0.708 -0.049654398 1.6505551e-38 337 280
0.022312919 0.70700002 -0.049584266 1.5211556e-38 338 280
0.023552528 0.70700002 -0.049584266 2.7651458e-39 339 280
0.024792133 0.70700002 -0.049584266 0 340 280
0.02603174 0.70700002 -0.049584266 7.3972024e-40 341 280
0.027271347 0.70700002 -0.049584266 3.0399573e-39 342 280
0.028510952 0.70700002 -0.049584266 2.7633704e-39 343 280
0.029918881 0.71100003 -0.049864799 1.7539044e-39 344 280
0.031165501 0.71100003 -0.049864799 1.7539044e-39 345 280
0.032412119 0.71100003 -0.049864799 1.0174113e-39 346 280
0.033658739 0.71100003 -0.049864799 7.0064923e-45 347 280
0.034905359 0.71100003 -0.049864799 9.3133239e-40 348 280
0.036151983 0.71100003 -0.049864799 8.9523536e-39 349 280
0.037398599 0.71100003 -0.049864799 1.4479791e-38 350 280
0.038645219 0.71100003 -0.049864799 1.42954e-38 351 280
0.039835732 0.70999998 -0.049794663 1.3837295e-38 352 280
0.041080594 0.70999998 -0.049794663 1.3560348e-38 353 280
0.042325463 0.70999998 -0.049794663 1.3467437e-38 354 280
0.043815799 0.71399999 -0.050075196 1.3098656e-38 355 280
0.045067675 0.71399999 -0.050075196 1.2083781e-38 356 280
0.046514176 0.71700001 -0.0502856 1.0700846e-38 357 280
0.0479712 0.72000003 -0.050496001 9.872512e-39 358 280
0.04937036 0.722 -0.050636265 9.780315e-39 359 280
-0.0038240198 0.727 -0.052261602 1.1711363e-38 317 281
-0.0025212932 0.71899998 -0.05168651 3.4162774e-39 318 281
-0.0012606466 0.71899998 -0.05168651 4.0616468e-39 319 281
0 0.71899998 -0.05168651 1.1346199e-38 320 281
0.00125714 0.71700001 -0.051542737 1.3466338e-38 321 281
0.0025107733 0.71600002 -0.051470853 1.4018071e-38 322 281
0.00376616 0.71600002 -0.051470853 1.3280506e-38 323 281
0.0050075199 0.71399999 -0.05132708 1.2915685e-38 324 281
0.0062593995 0.71399999 -0.05132708 1.4667762e-38 325 281
0.0075007593 0.713 -0.051255193 1.7427161e-38 326 281
0.0087508867 0.713 -0.051255193 1.9086681e-38 327 281
0.0099729598 0.71100003 -0.051111419 1.9083795e-38 328 281
0.011203799 0.70999998 -0.051039528 1.8069284e-38 329 281
0.012448666 0.70999998 -0.051039528 1.7335668e-38 330 281
0.013693533 0.70999998 -0.051039528 1.7243472e-38 331 281
0.01489632 0.708 -0.050895758 1.6782861e-38 332 281
0.01613768 0.708 -0.050895758 1.6230046e-38 333 281
0.017379038 0.708 -0.050895758 1.6228971e-38 334 281
0.0186204 0.708 -0.050895758 1.6505557e-38 335 281
0.019833706 0.70700002 -0.050823875 1.6597031e-38 336 281
0.021073313 0.70700002 -0.050823875 1.6228248e-38 337 281
0.022312919 0.70700002 -0.050823875 1.5030409e-38 338 281
0.023552528 0.70700002 -0.050823875 6.6406063e-39 339 281
0.024792133 0.70700002 -0.050823875 4.3131967e-42 340 281
0.02603174 0.70700002 -0.050823875 6.1152665e-42 341 281
0.027271347 0.70700002 -0.050823875 2.4878569e-39 342 281
0.028510952 0.70700002 -0.050823875 2.3956613e-39 343 281
0.029918881 0.71100003 -0.051111419 2.1205191e-39 344 281
0.031165501 0.71100003 -0.051111419 2.0283221e-39 345 281
0.032412119 0.71100003 -0.051111419 1.107442e-39 346 281
0.033658739 0.71100003 -0.051111419 5.5426819e-40 347 281
0.034905359 0.71100003 -0.051111419 5.6271928e-39 348 281
0.036151983 0.71100003 -0.051111419 1.1251485e-38 349 281
0.037398599 0.71100003 -0.051111419 1.374438e-38 350 281
0.038590867 0.70999998 -0.051039528 1.3375238e-38 351 281
0.039835732 0.70999998 -0.051039528 1.3284487e-38 352 281
0.041080594 0.70999998 -0.051039528 1.3376683e-38 353 281
0.042325463 0.70999998 -0.051039528 1.3467437e-38 354 281
0.043570329 0.70999998 -0.051039528 1.2176698e-38 355 281
0.045067675 0.71399999 -0.05132708 1.0520048e-38 356 281
0.046449307 0.71600002 -0.051470853 1.0520048e-38 357 281
0.04790457 0.71899998 -0.05168651 1.1903335e-38 358 281
0.049165215 0.71899998 -0.05168651 1.2087367e-38 359 281
-0.0051057064 0.72799999 -0.053609919 1.5307717e-38 316 282
-0.0038240198 0.727 -0.053536277 1.272624e-38 317 282
-0.0025423334 0.72500002 -0.053388998 1.0514636e-38 318 282
-0.0012606466 0.71899998 -0.05294716 1.0791224e-38 319 282
0 0.71700001 -0.052799881 1.4478349e-38 320 282
0.00125714 0.71700001 -0.052799881 1.5676532e-38 321 282
0.0025107733 0.71600002 -0.052726239 1.5583958e-38 322 282
0.0037556398 0.71399999 -0.052578956 1.4661641e-38 323 282
0.0050075199 0.71399999 -0.052578956 1.3465254e-38 324 282
0.0062506334 0.713 -0.052505318 1.374148e-38 325 282
0.0074797203 0.71100003 -0.052358042 1.5399576e-38 326 282
0.0087263398 0.71100003 -0.052358042 1.7059457e-38 327 282
0.0099589331 0.70999998 -0.052284397 1.7885972e-38 328 282
0.011203799 0.70999998 -0.052284397 1.7517548e-38 329 282
0.012448666 0.70999998 -0.052284397 1.6965808e-38 330 282
0.013654959 0.708 -0.052137118 1.6505188e-38 331 282
0.01489632 0.708 -0.052137118 1.6044577e-38 332 282
0.01613768 0.708 -0.052137118 1.5583958e-38 333 282
0.017379038 0.708 -0.052137118 1.5399932e-38 334 282
0.018594101 0.70700002 -0.05206348 1.503115e-38 335 282
0.019833706 0.70700002 -0.05206348 1.4664165e-38 336 282
0.021073313 0.70700002 -0.05206348 1.4571611e-38 337 282
0.022312919 0.70700002 -0.05206348 1.4295734e-38 338 282
0.023552528 0.70700002 -0.05206348 9.6859515e-39 339 282
0.024792133 0.70700002 -0.05206348 4.4217973e-39 340 282
0.02603174 0.70700002 -0.05206348 1.1949503e-39 341 282
0.027271347 0.70700002 -0.05206348 1.2929066e-39 342 282
0.028510952 0.70700002 -0.05206348 1.846079e-39 343 282
0.02979264 0.708 -0.052137118 1.8450098e-39 344 282
0.031121666 0.70999998 -0.052284397 1.9372068e-39 345 282
0.032366529 0.70999998 -0.052284397 3.6125474e-42 346 282
0.033611398 0.70999998 -0.052284397 4.645907e-40 347 282
0.034856264 0.70999998 -0.052284397 7.8406068e-39 348 282
0.036101133 0.70999998 -0.052284397 1.1436597e-38 349 282
0.037345998 0.70999998 -0.052284397 1.3374519e-38 350 282
0.038590867 0.70999998 -0.052284397 1.3097931e-38 351 282
0.039835732 0.70999998 -0.052284397 1.2823513e-38 352 282
0.041080594 0.70999998 -0.052284397 1.3376686e-38 353 282
0.042325463 0.70999998 -0.052284397 1.2455806e-38 354 282
0.043570329 0.70999998 -0.052284397 1.0427502e-38 355 282
0.045067675 0.71399999 -0.052578956 1.0796635e-38 356 282
0.046449307 0.71600002 -0.052726239 1.15342e-38 357 282
0.04777132 0.71700001 -0.052799881 1.263767e-38 358 282
0.049165215 0.71899998 -0.05294716 1.2914616e-38 359 282
-0.0063821329 0.72799999 -0.054886345 1.7148403e-38 315 283
-0.0051057064 0.72799999 -0.054886345 1.5215896e-38 316 283
-0.0038135003 0.72500002 -0.054660168 1.4109188e-38 317 283
-0.0025353199 0.72299999 -0.054509375 1.4386497e-38 318 283
-0.0012606466 0.71899998 -0.054207806 1.5308813e-38 319 283
0 0.71700001 -0.054057021 1.5861268e-38 320 283
0.00125714 0.71700001 -0.054057021 1.5769071e-38 321 283
0.0025107733 0.71600002 -0.053981625 1.5676872e-38 322 283
0.0037556398 0.71399999 -0.053830836 1.5769068e-38 323 283
0.0050075199 0.71399999 -0.053830836 1.5583228e-38 324 283
0.0062506334 0.713 -0.053755447 1.3923708e-38 325 283
0.0074797203 0.71100003 -0.053604662 1.3279413e-38 326 283
0.0087263398 0.71100003 -0.053604662 1.4570152e-38 327 283
0.0099589331 0.70999998 -0.053529263 1.5399208e-38 328 283
0.011203799 0.70999998 -0.053529263 1.5767989e-38 329 283
0.0124136 0.708 -0.053378478 1.5398858e-38 330 283
0.013654959 0.708 -0.053378478 1.4845684e-38 331 283
0.01489632 0.708 -0.053378478 1.4477976e-38 332 283
0.016114887 0.70700002 -0.053303085 1.4477976e-38 333 283
0.017354494 0.70700002 -0.053303085 1.4293948e-38 334 283
0.018594101 0.70700002 -0.053303085 1.3925525e-38 335 283
0.019833706 0.70700002 -0.053303085 1.328232e-38 336 283
0.021073313 0.70700002 -0.053303085 1.328232e-38 337 283
0.022312919 0.70700002 -0.053303085 1.3650734e-38 338 283
0.023552528 0.70700002 -0.053303085 1.1346202e-38 339 283
0.024792133 0.70700002 -0.053303085 8.2936606e-39 340 283
0.02603174 0.70700002 -0.053303085 1.0102059e-39 341 283
0.027271347 0.70700002 -0.053303085 5.5713945e-40 342 283
0.028510952 0.70700002 -0.053303085 1.7556826e-39 343 283
0.02979264 0.708 -0.053378478 2.2134308e-39 344 283
0.031121666 0.70999998 -0.053529263 2.2134308e-39 345 283
0.032366529 0.70999998 -0.053529263 2.16921e-42 346 283
0.033611398 0.70999998 -0.053529263 4.6638856e-40 347 283
0.034856264 0.70999998 -0.053529263 9.4082955e-39 348 283
0.036101133 0.70999998 -0.053529263 1.1897219e-38 349 283
0.037345998 0.70999998 -0.053529263 1.2822067e-38 350 283
0.038590867 0.70999998 -0.053529263 1.2637676e-38 351 283
0.039835732 0.70999998 -0.053529263 1.2087746e-38 352 283
0.041080594 0.70999998 -0.053529263 1.2456527e-38 353 283
0.042325463 0.70999998 -0.053529263 1.1994102e-38 354 283
0.043631699 0.71100003 -0.053604662 1.0795559e-38 355 283
0.045004558 0.713 -0.053755447 1.1809708e-38 356 283
0.046319555 0.71399999 -0.053830836 1.217885e-38 357 283
0.047571439 0.71399999 -0.053830836 1.2637676e-38 358 283
0.04902846 0.71700001 -0.054057021 1.2822067e-38 359 283
0.050425861 0.71899998 -0.054207806 1.4571261e-38 360 283
-0.0063821329 0.72799999 -0.056162767 1.696509e-38 315 284
-0.0051057064 0.72799999 -0.056162767 1.5583602e-38 316 284
-0.0038135003 0.72500002 -0.055931333 1.4569449e-38 317 284
-0.0025353199 0.72299999 -0.055777039 1.4478696e-38 318 284
-0.0012606466 0.71899998 -0.055468451 1.4939673e-38 319 284
0 0.71700001 -0.055314157 1.5399211e-38 320 284
0.00125714 0.71700001 -0.055314157 1.5491406e-38 321 284
0.0025107733 0.71600002 -0.055237014 1.5399927e-38 322 284
0.0037556398 0.71399999 -0.05508272 1.5584677e-38 323 284
0.0050005065 0.713 -0.055005573 1.5768339e-38 324 284
0.0062330998 0.71100003 -0.054851279 1.5399916e-38 325 284
0.0074797203 0.71100003 -0.054851279 1.52112e-38 326 284
0.0087140659 0.70999998 -0.054774132 1.52112e-38 327 284
0.0099589331 0.70999998 -0.054774132 1.4293935e-38 328 284
0.01117224 0.708 -0.054619838 1.4293935e-38 329 284
0.0124136 0.708 -0.054619838 1.319048e-38 330 284
0.013654959 0.708 -0.054619838 1.3097926e-38 331 284
0.01489632 0.708 -0.054619838 1.3374873e-38 332 284
0.016114887 0.70700002 -0.054542694 1.3559264e-38 333 284
0.017354494 0.70700002 -0.054542694 1.3925172e-38 334 284
0.018594101 0.70700002 -0.054542694 1.3648584e-38 335 284
0.019833706 0.70700002 -0.054542694 1.3097931e-38 336 284
0.021073313 0.70700002 -0.054542694 1.2913541e-38 337 284
0.022312919 0.70700002 -0.054542694 1.3096488e-38 338 284
0.023552528 0.70700002 -0.054542694 1.2358923e-38 339 284
0.024792133 0.70700002 -0.054542694 9.1295324e-39 340 284
0.026068559 0.708 -0.054619838 2.8025969e-45 341 284
0.027309919 0.708 -0.054619838 1.8090763e-42 342 284
0.02855128 0.708 -0.054619838 5.5858559e-40 343 284
0.02979264 0.708 -0.054619838 1.898269e-40 344 284
0.031121666 0.70999998 -0.054774132 3.7385942e-40 345 284
0.032366529 0.70999998 -0.054774132 2.6624671e-44 346 284
0.033611398 0.70999998 -0.054774132 1.876703e-40 347 284
0.034856264 0.70999998 -0.054774132 1.0605414e-38 348 284
0.036101133 0.70999998 -0.054774132 1.2541522e-38 349 284
0.037345998 0.70999998 -0.054774132 1.2269612e-38 350 284
0.038590867 0.70999998 -0.054774132 1.2085581e-38 351 284
0.039835732 0.70999998 -0.054774132 1.21785e-38 352 284
0.041080594 0.70999998 -0.054774132 1.21785e-38 353 284
0.042325463 0.70999998 -0.054774132 1.2454361e-38 354 284
0.043570329 0.70999998 -0.054774132 1.226961e-38 355 284
0.044878319 0.71100003 -0.054851279 1.2087018e-38 356 284
0.046254687 0.713 -0.055005573 1.2179213e-38 357 284
0.047571439 0.71399999 -0.05508272 1.2637676e-38 358 284
0.048823316 0.71399999 -0.05508272 1.2729872e-38 359 284
0.0502856 0.71700001 -0.055314157 1.4111357e-38 360 284
0.051542737 0.71700001 -0.055314157 1.5218065e-38 361 284
-0.0063821329 0.72799999 -0.057439197 1.7147687e-38 315 285
-0.0050986931 0.727 -0.057360299 1.5674719e-38 316 285
-0.0038029798 0.72299999 -0.057044696 1.4844957e-38 317 285
-0.0025353199 0.72299999 -0.057044696 1.4753841e-38 318 285
-0.0012624001 0.72000003 -0.056808002 1.4846037e-38 319 285
0 0.71700001 -0.056571297 1.4755642e-38 320 285
0.00125714 0.71700001 -0.056571297 1.4755642e-38 321 285
0.0025037599 0.71399999 -0.0563346 1.5123346e-38 322 285
0.0037503797 0.713 -0.056255698 1.5215543e-38 323 285
0.0050005065 0.713 -0.056255698 1.5583958e-38 324 285
0.0062330998 0.71100003 -0.056097899 1.5860185e-38 325 285
0.0074691991 0.70999998 -0.056018997 1.6502314e-38 326 285
0.0087140659 0.70999998 -0.056018997 1.6502314e-38 327 285
0.0099308798 0.708 -0.055861197 1.5583958e-38 328 285
0.01117224 0.708 -0.055861197 1.512262e-38 329 285
0.0124136 0.708 -0.055861197 1.3925523e-38 330 285
0.013654959 0.708 -0.055861197 1.3372708e-38 331 285
0.01487528 0.70700002 -0.055782299 1.3281601e-38 332 285
0.016114887 0.70700002 -0.055782299 1.3558188e-38 333 285
0.017354494 0.70700002 -0.055782299 1.3189771e-38 334 285
0.018594101 0.70700002 -0.055782299 1.2913544e-38 335 285
0.019833706 0.70700002 -0.055782299 1.2454008e-38 336 285
0.021073313 0.70700002 -0.055782299 1.2269615e-38 337 285
0.022312919 0.70700002 -0.055782299 1.2452562e-38 338 285
0.023552528 0.70700002 -0.055782299 1.2544757e-38 339 285
0.024792133 0.70700002 -0.055782299 1.0147633e-38 340 285
0.026068559 0.708 -0.055861197 6.5148468e-40 341 285
0.027309919 0.708 -0.055861197 1.0832037e-42 342 285
0.02855128 0.708 -0.055861197 6.1250756e-42 343 285
0.02979264 0.708 -0.055861197 5.4552549e-42 344 285
0.031034 0.708 -0.055861197 6.5342547e-42 345 285
0.03227536 0.708 -0.055861197 6.1657132e-44 346 285
0.033516716 0.708 -0.055861197 5.5864165e-40 347 285
0.034856264 0.70999998 -0.056018997 1.0332082e-38 348 285
0.036101133 0.70999998 -0.056018997 1.1991603e-38 349 285
0.037345998 0.70999998 -0.056018997 1.1532775e-38 350 285
0.038590867 0.70999998 -0.056018997 1.1532775e-38 351 285
0.039835732 0.70999998 -0.056018997 1.1625692e-38 352 285
0.041080594 0.70999998 -0.056018997 1.1717888e-38 353 285
0.042325463 0.70999998 -0.056018997 1.2178497e-38 354 285
0.043570329 0.70999998 -0.056018997 1.2362888e-38 355 285
0.044878319 0.71100003 -0.056097899 1.2271049e-38 356 285
0.046254687 0.713 -0.056255698 1.2271049e-38 357 285
0.047571439 0.71399999 -0.0563346 1.2270693e-38 358 285
0.048823316 0.71399999 -0.0563346 1.2178497e-38 359 285
0.050215468 0.71600002 -0.056492399 1.3375591e-38 360 285
0.051470853 0.71600002 -0.056492399 1.4758526e-38 361 285
-0.0063821329 0.72799999 -0.058715623 1.6965095e-38 315 286
-0.0050986931 0.727 -0.058634974 1.5675072e-38 316 286
-0.0038029798 0.72299999 -0.058312356 1.484531e-38 317 286
-0.0025353199 0.72299999 -0.058312356 1.4754913e-38 318 286
-0.0012624001 0.72000003 -0.058070403 1.4754913e-38 319 286
0 0.71700001 -0.057828441 1.4846393e-38 320 286
0.0012553866 0.71600002 -0.057747785 1.5214815e-38 321 286
0.0025037599 0.71399999 -0.057586476 1.5307011e-38 322 286
0.0037503797 0.713 -0.057505824 1.5399208e-38 323 286
0.0049864799 0.71100003 -0.057344519 1.5491762e-38 324 286
0.0062243328 0.70999998 -0.057263866 1.5767989e-38 325 286
0.0074691991 0.70999998 -0.057263866 1.6044577e-38 326 286
0.0087140659 0.70999998 -0.057263866 1.7243119e-38 327 286
0.0099308798 0.708 -0.057102561 1.7885969e-38 328 286
0.01117224 0.708 -0.057102561 1.7793772e-38 329 286
0.0124136 0.708 -0.057102561 1.7238087e-38 330 286
0.013635674 0.70700002 -0.057021905 1.5947348e-38 331 286
0.01487528 0.70700002 -0.057021905 1.3925891e-38 332 286
0.016114887 0.70700002 -0.057021905 1.3557467e-38 333 286
0.017329946 0.70599997 -0.056941248 1.2730951e-38 334 286
0.018567799 0.70599997 -0.056941248 1.2361809e-38 335 286
0.019805651 0.70599997 -0.056941248 1.19012e-38 336 286
0.021073313 0.70700002 -0.057021905 1.19012e-38 337 286
0.022312919 0.70700002 -0.057021905 1.180936e-38 338 286
0.023552528 0.70700002 -0.057021905 1.227034e-38 339 286
0.024792133 0.70700002 -0.057021905 1.1345473e-38 340 286
0.026068559 0.708 -0.057102561 6.9200827e-39 341 286
0.027309919 0.708 -0.057102561 7.1102318e-39 342 286
0.02855128 0.708 -0.057102561 7.9399925e-39 343 286
0.02979264 0.708 -0.057102561 8.2158858e-39 344 286
0.031034 0.708 -0.057102561 8.6765052e-39 345 286
0.03227536 0.708 -0.057102561 8.4921125e-39 346 286
0.033516716 0.708 -0.057102561 8.2158858e-39 347 286
0.034856264 0.70999998 -0.057263866 9.4147947e-39 348 286
0.036101133 0.70999998 -0.057263866 1.0336751e-38 349 286
0.037345998 0.70999998 -0.057263866 1.0980323e-38 350 286
0.038590867 0.70999998 -0.057263866 1.1164714e-38 351 286
0.039835732 0.70999998 -0.057263866 1.1716443e-38 352 286
0.041080594 0.70999998 -0.057263866 1.1808638e-38 353 286
0.042325463 0.70999998 -0.057263866 1.2085225e-38 354 286
0.043570329 0.70999998 -0.057263866 1.2269615e-38 355 286
0.044878319 0.71100003 -0.057344519 1.2361456e-38 356 286
0.046319555 0.71399999 -0.057586476 1.2361456e-38 357 286
0.047571439 0.71399999 -0.057586476 1.2454008e-38 358 286
0.048823316 0.71399999 -0.057586476 1.2361812e-38 359 286
0.050215468 0.71600002 -0.057747785 1.2730948e-38 360 286
0.051470853 0.71600002 -0.057747785 1.4205718e-38 361 286
-0.0063821329 0.72799999 -0.059992049 1.7516463e-38 315 287
-0.0050986931 0.727 -0.059909642 1.5583955e-38 316 287
-0.0038240198 0.727 -0.059909642 1.484639e-38 317 287
-0.0025423334 0.72500002 -0.059744831 1.5029705e-38 318 287
-0.0012624001 0.72000003 -0.059332799 1.493751e-38 319 287
0 0.71899998 -0.059250388 1.4754563e-38 320 287
0.0012553866 0.71600002 -0.059003171 1.4846759e-38 321 287
0.0025037599 0.71399999 -0.058838356 1.5031153e-38 322 287
0.0037398601 0.71100003 -0.058591139 1.5123348e-38 323 287
0.0049864799 0.71100003 -0.058591139 1.5216264e-38 324 287
0.0062243328 0.70999998 -0.058508728 1.5400655e-38 325 287
0.0074481601 0.708 -0.058343921 1.6320091e-38 326 287
0.008689519 0.708 -0.058343921 1.6596678e-38 327 287
0.0099308798 0.708 -0.058343921 1.6782498e-38 328 287
0.01117224 0.708 -0.058343921 1.6874694e-38 329 287
0.012396066 0.70700002 -0.05826151 1.6595955e-38 330 287
0.013635674 0.70700002 -0.05826151 1.5674e-38 331 287
0.01487528 0.70700002 -0.05826151 1.3925538e-38 332 287
0.016092092 0.70599997 -0.058179103 1.3464919e-38 333 287
0.017329946 0.70599997 -0.058179103 1.2453292e-38 334 287
0.018567799 0.70599997 -0.058179103 1.226854e-38 335 287
0.019805651 0.70599997 -0.058179103 1.1901203e-38 336 287
0.021073313 0.70700002 -0.05826151 1.1809007e-38 337 287
0.022312919 0.70700002 -0.05826151 1.1625339e-38 338 287
0.023552528 0.70700002 -0.05826151 1.1256915e-38 339 287
0.024792133 0.70700002 -0.05826151 1.0337457e-38 340 287
0.026068559 0.708 -0.058343921 1.0060512e-38 341 287
0.027309919 0.708 -0.058343921 1.1348367e-38 342 287
0.02855128 0.708 -0.058343921 1.1993736e-38 343 287
0.02979264 0.708 -0.058343921 1.2085581e-38 344 287
0.031034 0.708 -0.058343921 1.2085581e-38 345 287
0.03227536 0.708 -0.058343921 1.2361089e-38 346 287
0.033516716 0.708 -0.058343921 1.1623524e-38 347 287
0.034856264 0.70999998 -0.058508728 9.0467352e-39 348 287
0.036101133 0.70999998 -0.058508728 9.5999076e-39 349 287
0.037345998 0.70999998 -0.058508728 1.0887774e-38 350 287
0.038590867 0.70999998 -0.058508728 1.0979969e-38 351 287
0.039835732 0.70999998 -0.058508728 1.0705178e-38 352 287
0.041080594 0.70999998 -0.058508728 1.0982123e-38 353 287
0.042325463 0.70999998 -0.058508728 1.162462e-38 354 287
0.043754432 0.713 -0.058755953 1.1901205e-38 355 287
0.045067675 0.71399999 -0.058838356 1.1810086e-38 356 287
0.046319555 0.71399999 -0.058838356 1.1810086e-38 357 287
0.047571439 0.71399999 -0.058838356 1.1902282e-38 358 287
0.048823316 0.71399999 -0.058838356 1.217851e-38 359 287
0.050215468 0.71600002 -0.059003171 1.2546204e-38 360 287
0.051470853 0.71600002 -0.059003171 1.3744747e-38 361 287
-0.0050986931 0.727 -0.061184317 1.5675072e-38 316 288
-0.0038135003 0.72500002 -0.061016005 1.4937507e-38 317 288
-0.0025423334 0.72500002 -0.061016005 1.4754194e-38 318 288
-0.0012624001 0.72000003 -0.060595199 1.4754194e-38 319 288
0 0.71700001 -0.060342718 1.4753839e-38 320 288
0.0012553866 0.71600002 -0.06025856 1.4938589e-38 321 288
0.0025002533 0.713 -0.060006075 1.5122264e-38 322 288
0.0037398601 0.71100003 -0.059837762 1.5214818e-38 323 288
0.0049794666 0.70999998 -0.059753593 1.5123701e-38 324 288
0.0062243328 0.70999998 -0.059753593 1.5492125e-38 325 288
0.0074481601 0.708 -0.059585281 1.604386e-38 326 288
0.008689519 0.708 -0.059585281 1.5214099e-38 327 288
0.0099168532 0.70700002 -0.059501119 1.4111354e-38 328 288
0.011156459 0.70700002 -0.059501119 1.3835128e-38 329 288
0.012396066 0.70700002 -0.059501119 1.4109922e-38 330 288
0.013635674 0.70700002 -0.059501119 1.4017368e-38 331 288
0.014854239 0.70599997 -0.059416957 1.3096856e-38 332 288
0.016092092 0.70599997 -0.059416957 1.2912465e-38 333 288
0.017329946 0.70599997 -0.059416957 1.1901556e-38 334 288
0.018567799 0.70599997 -0.059416957 1.1901556e-38 335 288
0.019805651 0.70599997 -0.059416957 1.1625692e-38 336 288
0.021073313 0.70700002 -0.059501119 1.1441301e-38 337 288
0.022312919 0.70700002 -0.059501119 1.1256915e-38 338 288
0.023552528 0.70700002 -0.059501119 9.8739806e-39 339 288
0.024792133 0.70700002 -0.059501119 8.2227325e-39 340 288
0.026068559 0.708 -0.059585281 9.3290801e-39 341 288
0.027309919 0.708 -0.059585281 1.1624973e-38 342 288
0.02855128 0.708 -0.059585281 1.1624973e-38 343 288
0.02979264 0.708 -0.059585281 1.162497e-38 344 288
0.031034 0.708 -0.059585281 1.1532775e-38 345 288
0.03227536 0.708 -0.059585281 1.1900834e-38 346 288
0.033516716 0.708 -0.059585281 1.0978876e-38 347 288
0.034856264 0.70999998 -0.059753593 8.1276558e-39 348 288
0.036101133 0.70999998 -0.059753593 8.5882752e-39 349 288
0.037345998 0.70999998 -0.059753593 9.8764987e-39 350 288
0.038590867 0.70999998 -0.059753593 1.006089e-38 351 288
0.039835732 0.70999998 -0.059753593 1.0887408e-38 352 288
0.041080594 0.70999998 -0.059753593 1.0979604e-38 353 288
0.042325463 0.70999998 -0.059753593 1.125583e-38 354 288
0.043754432 0.713 -0.060006075 1.1532777e-38 355 288
0.045067675 0.71399999 -0.060090236 1.1624976e-38 356 288
0.046319555 0.71399999 -0.060090236 1.1809007e-38 357 288
0.047571439 0.71399999 -0.060090236 1.1993035e-38 358 288
0.048823316 0.71399999 -0.060090236 1.2361459e-38 359 288
0.050215468 0.71600002 -0.06025856 1.2361809e-38 360 288
0.051758397 0.72000003 -0.060595199 1.3284124e-38 361 288
-0.0038135003 0.72500002 -0.062287167 1.5304491e-38 317 289
-0.0025423334 0.72500002 -0.062287167 1.493751e-38 318 289
-0.0012624001 0.72000003 -0.061857603 1.4844954e-38 319 289
0 0.71600002 -0.061513945 1.4570529e-38 320 289
0.0012553866 0.71600002 -0.061513945 1.4570529e-38 321 289
0.0025002533 0.713 -0.061256204 1.4754207e-38 322 289
0.0037398601 0.71100003 -0.061084379 1.4846403e-38 323 289
0.0049794666 0.70999998 -0.060998458 1.4571614e-38 324 289
0.0062243328 0.70999998 -0.060998458 1.4940756e-38 325 289
0.0074481601 0.708 -0.060826641 1.576692e-38 326 289
0.008689519 0.708 -0.060826641 1.4660572e-38 327 289
0.0099168532 0.70700002 -0.060740728 1.3099363e-38 328 289
0.011156459 0.70700002 -0.060740728 1.2914613e-38 329 289
0.012396066 0.70700002 -0.060740728 1.3097212e-38 330 289
0.013635674 0.70700002 -0.060740728 1.3004658e-38 331 289
0.014854239 0.70599997 -0.060654808 1.2269615e-38 332 289
0.016092092 0.70599997 -0.060654808 1.199303e-38 333 289
0.017329946 0.70599997 -0.060654808 1.1809004e-38 334 289
0.018567799 0.70599997 -0.060654808 1.1624973e-38 335 289
0.019805651 0.70599997 -0.060654808 1.1257632e-38 336 289
0.021073313 0.70700002 -0.060740728 1.0889209e-38 337 289
0.022312919 0.70700002 -0.060740728 1.1163638e-38 338 289
0.023552528 0.70700002 -0.060740728 9.596672e-39 339 289
0.024792133 0.70700002 -0.060740728 8.863423e-39 340 289
0.026068559 0.708 -0.060826641 1.0522584e-38 341 289
0.027309919 0.708 -0.060826641 1.0889206e-38 342 289
0.028631933 0.70999998 -0.060998458 1.079701e-38 343 289
0.029876797 0.70999998 -0.060998458 1.1163991e-38 344 289
0.031121666 0.70999998 -0.060998458 1.0979601e-38 345 289
0.032366529 0.70999998 -0.060998458 1.1255465e-38 346 289
0.033611398 0.70999998 -0.060998458 1.0702291e-38 347 289
0.034856264 0.70999998 -0.060998458 8.6783087e-39 348 289
0.036101133 0.70999998 -0.060998458 8.8623398e-39 349 289
0.037345998 0.70999998 -0.060998458 9.8746966e-39 350 289
0.038590867 0.70999998 -0.060998458 1.0151285e-38 351 289
0.039835732 0.70999998 -0.060998458 1.0519344e-38 352 289
0.041080594 0.70999998 -0.060998458 1.0611899e-38 353 289
0.042325463 0.70999998 -0.060998458 1.0979604e-38 354 289
0.043754432 0.713 -0.061256204 1.1348385e-38 355 289
0.045067675 0.71399999 -0.061342116 1.1165433e-38 356 289
0.046319555 0.71399999 -0.061342116 1.1350184e-38 357 289
0.047704693 0.71600002 -0.061513945 1.1809004e-38 358 289
0.048960082 0.71600002 -0.061513945 1.1993754e-38 359 289
0.050215468 0.71600002 -0.061513945 1.2361089e-38 360 289
0.05168651 0.71899998 -0.061771683 1.3283045e-38 361 289
0.05294716 0.71899998 -0.061771683 1.6046028e-38 362 289
-0.0025212932 0.71899998 -0.063032329 1.4844954e-38 318 290
-0.0012553866 0.71600002 -0.062769331 1.4660923e-38 319 290
0 0.71399999 -0.062593997 1.4569449e-38 320 290
0.0012501266 0.713 -0.062506333 1.4569449e-38 321 290
0.0025002533 0.713 -0.062506333 1.4477979e-38 322 290
0.0037398601 0.71100003 -0.062331002 1.4570176e-38 323 290
0.0049794666 0.70999998 -0.062243331 1.4110638e-38 324 290
0.0062243328 0.70999998 -0.062243331 1.4387227e-38 325 290
0.0074481601 0.708 -0.062068 1.4845689e-38 326 290
0.008689519 0.708 -0.062068 1.3923373e-38 327 290
0.0099168532 0.70700002 -0.061980337 1.2546204e-38 328 290
0.011156459 0.70700002 -0.061980337 1.2269615e-38 329 290
0.012396066 0.70700002 -0.061980337 1.2084149e-38 330 290
0.013635674 0.70700002 -0.061980337 1.1715367e-38 331 290
0.01487528 0.70700002 -0.061980337 1.1440945e-38 332 290
0.016114887 0.70700002 -0.061980337 1.1440945e-38 333 290
0.017354494 0.70700002 -0.061980337 1.1256915e-38 334 290
0.018594101 0.70700002 -0.061980337 1.1164719e-38 335 290
0.019833706 0.70700002 -0.061980337 1.0979969e-38 336 290
0.021103119 0.708 -0.062068 1.0611546e-38 337 290
0.022344479 0.708 -0.062068 1.0701587e-38 338 290
0.023585839 0.708 -0.062068 9.7796312e-39 339 290
0.024827199 0.708 -0.062068 9.4137255e-39 340 290
0.026068559 0.708 -0.062068 1.0427517e-38 341 290
0.027387066 0.70999998 -0.062243331 1.0520066e-38 342 290
0.028631933 0.70999998 -0.062243331 1.0612263e-38 343 290
0.029876797 0.70999998 -0.062243331 1.0794855e-38 344 290
0.031121666 0.70999998 -0.062243331 1.0794855e-38 345 290
0.032366529 0.70999998 -0.062243331 1.0795208e-38 346 290
0.033611398 0.70999998 -0.062243331 1.0334231e-38 347 290
0.034856264 0.70999998 -0.062243331 9.9643727e-39 348 290
0.036101133 0.70999998 -0.062243331 9.7799815e-39 349 290
0.037345998 0.70999998 -0.062243331 1.0333154e-38 350 290
0.038590867 0.70999998 -0.062243331 1.0609742e-38 351 290
0.039835732 0.70999998 -0.062243331 1.0151638e-38 352 290
0.041080594 0.70999998 -0.062243331 1.0428224e-38 353 290
0.042325463 0.70999998 -0.062243331 1.0520419e-38 354 290
0.043754432 0.713 -0.062506333 1.0797007e-38 355 290
0.045067675 0.71399999 -0.062593997 1.116507e-38 356 290
0.046319555 0.71399999 -0.062593997 1.1257265e-38 357 290
0.047704693 0.71600002 -0.062769331 1.1532777e-38 358 290
0.048960082 0.71600002 -0.062769331 1.19012e-38 359 290
0.0502856 0.71700001 -0.062856995 1.2361812e-38 360 290
0.05168651 0.71899998 -0.063032329 1.2914985e-38 361 290
0.05294716 0.71899998 -0.063032329 1.5493576e-38 362 290
-0.0025142799 0.71700001 -0.064114138 1.4661644e-38 318 291
-0.0012553866 0.71600002 -0.064024724 1.4476894e-38 319 291
0 0.71399999 -0.063845873 1.4476894e-38 320 291
0.0012501266 0.713 -0.063756458 1.4476894e-38 321 291
0.0024932399 0.71100003 -0.063577622 1.4293585e-38 322 291
0.0037345996 0.70999998 -0.063488193 1.438578e-38 323 291
0.0049794666 0.70999998 -0.063488193 1.3833327e-38 324 291
0.0062067998 0.708 -0.063309364 1.2727338e-38 325 291
0.0074481601 0.708 -0.063309364 1.2544038e-38 326 291
0.008689519 0.708 -0.063309364 1.2912462e-38 327 291
0.0099168532 0.70700002 -0.063219935 1.2085231e-38 328 291
0.011156459 0.70700002 -0.063219935 1.1900481e-38 329 291
0.012396066 0.70700002 -0.063219935 1.1807566e-38 330 291
0.013635674 0.70700002 -0.063219935 1.1623174e-38 331 291
0.01487528 0.70700002 -0.063219935 1.1439506e-38 332 291
0.016114887 0.70700002 -0.063219935 1.1439506e-38 333 291
0.017354494 0.70700002 -0.063219935 1.1163638e-38 334 291
0.018594101 0.70700002 -0.063219935 1.1163638e-38 335 291
0.019833706 0.70700002 -0.063219935 1.0887771e-38 336 291
0.021103119 0.708 -0.063309364 1.0611543e-38 337 291
0.022344479 0.708 -0.063309364 1.0700864e-38 338 291
0.023585839 0.708 -0.063309364 1.0055495e-38 339 291
0.024827199 0.708 -0.063309364 9.6910285e-39 340 291
0.026068559 0.708 -0.063309364 1.0152007e-38 341 291
0.027387066 0.70999998 -0.063488193 1.0520063e-38 342 291
0.028631933 0.70999998 -0.063488193 1.061226e-38 343 291
0.029876797 0.70999998 -0.063488193 1.0795211e-38 344 291
0.031121666 0.70999998 -0.063488193 1.0795211e-38 345 291
0.032366529 0.70999998 -0.063488193 1.0611896e-38 346 291
0.033611398 0.70999998 -0.063488193 1.0427505e-38 347 291
0.034856264 0.70999998 -0.063488193 1.0517181e-38 348 291
0.036101133 0.70999998 -0.063488193 9.8718114e-39 349 291
0.037345998 0.70999998 -0.063488193 9.7799787e-39 350 291
0.038590867 0.70999998 -0.063488193 1.0702294e-38 351 291
0.039835732 0.70999998 -0.063488193 1.0887405e-38 352 291
0.041080594 0.70999998 -0.063488193 1.0979601e-38 353 291
0.042325463 0.70999998 -0.063488193 1.1163985e-38 354 291
0.043754432 0.713 -0.063756458 1.1163985e-38 355 291
0.045067675 0.71399999 -0.063845873 1.1165067e-38 356 291
0.046319555 0.71399999 -0.063845873 1.1072871e-38 357 291
0.047704693 0.71600002 -0.064024724 1.116507e-38 358 291
0.048960082 0.71600002 -0.064024724 1.1533494e-38 359 291
0.0502856 0.71700001 -0.064114138 1.2176342e-38 360 291
0.051758397 0.72000003 -0.064382397 1.2914266e-38 361 291
0.053020801 0.72000003 -0.064382397 1.5309182e-38 362 291
-0.0025107733 0.71600002 -0.06528011 1.4569446e-38 318 292
-0.00125188 0.71399999 -0.065097757 1.4569446e-38 319 292
0 0.71399999 -0.065097757 1.4200668e-38 320 292
0.0012501266 0.713 -0.065006584 1.4292863e-38 321 292
0.0024932399 0.71100003 -0.064824238 1.4017721e-38 322 292
0.0037345996 0.70999998 -0.064733058 1.3925525e-38 323 292
0.0049794666 0.70999998 -0.064733058 1.3372705e-38 324 292
0.0062067998 0.708 -0.06455072 1.1344401e-38 325 292
0.0074481601 0.708 -0.06455072 9.8754001e-39 326 292
0.008689519 0.708 -0.06455072 1.1166139e-38 327 292
0.0099168532 0.70700002 -0.064459547 1.1256559e-38 328 292
0.011156459 0.70700002 -0.064459547 1.1164363e-38 329 292
0.012396066 0.70700002 -0.064459547 1.1439508e-38 330 292
0.013635674 0.70700002 -0.064459547 1.1347313e-38 331 292
0.01487528 0.70700002 -0.064459547 1.1255114e-38 332 292
0.016114887 0.70700002 -0.064459547 1.1255114e-38 333 292
0.017354494 0.70700002 -0.064459547 1.0979606e-38 334 292
0.018594101 0.70700002 -0.064459547 1.1163638e-38 335 292
0.019833706 0.70700002 -0.064459547 1.125583e-38 336 292
0.021103119 0.708 -0.06455072 1.0610461e-38 337 292
0.022344479 0.708 -0.06455072 9.1382092e-39 338 292
0.023585839 0.708 -0.06455072 9.599186e-39 339 292
0.024827199 0.708 -0.06455072 1.1071073e-38 340 292
0.026142199 0.70999998 -0.064733058 1.0978876e-38 341 292
0.027387066 0.70999998 -0.064733058 1.0520416e-38 342 292
0.028631933 0.70999998 -0.064733058 1.0612613e-38 343 292
0.029876797 0.70999998 -0.064733058 1.0979957e-38 344 292
0.031121666 0.70999998 -0.064733058 1.0887761e-38 345 292
0.032366529 0.70999998 -0.064733058 1.0795926e-38 346 292
0.033611398 0.70999998 -0.064733058 1.0611893e-38 347 292
0.034856264 0.70999998 -0.064733058 1.1071071e-38 348 292
0.036101133 0.70999998 -0.064733058 1.0057277e-38 349 292
0.037345998 0.70999998 -0.064733058 8.6757905e-39 350 292
0.038590867 0.70999998 -0.064733058 9.9665293e-39 351 292
0.039835732 0.70999998 -0.064733058 1.1622455e-38 352 292
0.041138459 0.71100003 -0.064824238 1.1806486e-38 353 292
0.042504307 0.713 -0.065006584 1.1623524e-38 354 292
0.043754432 0.713 -0.065006584 1.1623524e-38 355 292
0.045067675 0.71399999 -0.065097757 1.1255821e-38 356 292
0.046449307 0.71600002 -0.06528011 1.1071071e-38 357 292
0.047704693 0.71600002 -0.06528011 1.0980323e-38 358 292
0.048960082 0.71600002 -0.06528011 1.1164714e-38 359 292
0.0502856 0.71700001 -0.065371275 1.1533131e-38 360 292
0.051758397 0.72000003 -0.065644801 1.2546922e-38 361 292
0.053020801 0.72000003 -0.065644801 1.5308816e-38 362 292
-0.0025107733 0.71600002 -0.066535495 1.4478329e-38 318 293
-0.00125188 0.71399999 -0.066349633 1.4293938e-38 319 293
0 0.713 -0.066256717 1.4201742e-38 320 293
0.00124662 0.71100003 -0.066070862 1.3925157e-38 321 293
0.0024932399 0.71100003 -0.066070862 1.3924807e-38 322 293
0.0037345996 0.70999998 -0.065977924 1.383261e-38 323 293
0.0049794666 0.70999998 -0.065977924 1.3372352e-38 324 293
0.0062067998 0.708 -0.065792084 1.2081613e-38 325 293
0.0074481601 0.708 -0.065792084 9.4176603e-39 326 293
0.008689519 0.708 -0.065792084 9.6024103e-39 327 293
0.0099168532 0.70700002 -0.065699153 1.079341e-38 328 293
0.011156459 0.70700002 -0.065699153 1.1162553e-38 329 293
0.012396066 0.70700002 -0.065699153 1.143878e-38 330 293
0.013635674 0.70700002 -0.065699153 1.1530975e-38 331 293
0.01487528 0.70700002 -0.065699153 1.1624246e-38 332 293
0.016092092 0.70599997 -0.065606222 1.1716443e-38 333 293
0.017329946 0.70599997 -0.065606222 1.1808636e-38 334 293
0.018594101 0.70700002 -0.065699153 1.1348016e-38 335 293
0.019833706 0.70700002 -0.065699153 1.1619561e-38 336 293
0.021103119 0.708 -0.065792084 9.498703e-39 337 293
0.022344479 0.708 -0.065792084 7.8481794e-39 338 293
0.023585839 0.708 -0.065792084 1.0705884e-38 339 293
0.024897331 0.70999998 -0.065977924 1.1439856e-38 340 293
0.026142199 0.70999998 -0.065977924 1.0978876e-38 341 293
0.027387066 0.70999998 -0.065977924 1.0888477e-38 342 293
0.028631933 0.70999998 -0.065977924 1.0888477e-38 343 293
0.029876797 0.70999998 -0.065977924 1.0704812e-38 344 293
0.031121666 0.70999998 -0.065977924 1.0612616e-38 345 293
0.032366529 0.70999998 -0.065977924 1.0795928e-38 346 293
0.033611398 0.70999998 -0.065977924 1.098032e-38 347 293
0.034856264 0.70999998 -0.065977924 1.1346581e-38 348 293
0.036101133 0.70999998 -0.065977924 7.5665605e-39 349 293
0.037345998 0.70999998 -0.065977924 7.5668436e-40 350 293
0.038590867 0.70999998 -0.065977924 2.1396188e-39 351 293
0.039891839 0.71100003 -0.066070862 5.3564059e-39 352 293
0.041138459 0.71100003 -0.066070862 6.0017753e-39 353 293
0.042504307 0.713 -0.066256717 6.7425634e-39 354 293
0.043815799 0.71399999 -0.066349633 7.8489109e-39 355 293
0.045193922 0.71600002 -0.066535495 9.3218802e-39 356 293
0.046449307 0.71600002 -0.066535495 1.0335672e-38 357 293
0.047704693 0.71600002 -0.066535495 1.1162197e-38 358 293
0.04902846 0.71700001 -0.066628419 1.1623174e-38 359 293
0.050425861 0.71899998 -0.066814266 1.1716443e-38 360 293
0.05168651 0.71899998 -0.066814266 1.2546204e-38 361 293
0.05294716 0.71899998 -0.066814266 1.5399576e-38 362 293
-0.0025107733 0.71600002 -0.067790881 1.4110626e-38 318 294
-0.00125188 0.71399999 -0.067601517 1.4110626e-38 319 294
0 0.713 -0.067506835 1.4109188e-38 320 294
0.00124662 0.71100003 -0.067317478 1.3925157e-38 321 294
0.0024932399 0.71100003 -0.067317478 1.3465266e-38 322 294
0.0037345996 0.70999998 -0.067222796 1.337307e-38 323 294
0.0049794666 0.70999998 -0.067222796 1.3097209e-38 324 294
0.0062067998 0.708 -0.067033432 1.2359644e-38 325 294
0.0074481601 0.708 -0.067033432 1.1163269e-38 326 294
0.008689519 0.708 -0.067033432 1.0610095e-38 327 294
0.0099308798 0.708 -0.067033432 1.0518265e-38 328 294
0.01117224 0.708 -0.067033432 1.0518265e-38 329 294
0.012396066 0.70700002 -0.066938758 1.0795211e-38 330 294
0.013635674 0.70700002 -0.066938758 1.125583e-38 331 294
0.01487528 0.70700002 -0.066938758 1.2357845e-38 332 294
0.016092092 0.70599997 -0.066844068 1.2173814e-38 333 294
0.017329946 0.70599997 -0.066844068 1.1895057e-38 334 294
0.018594101 0.70700002 -0.066938758 1.0419568e-38 335 294
0.019833706 0.70700002 -0.066938758 8.4834469e-39 336 294
0.021103119 0.708 -0.067033432 6.5473387e-39 337 294
0.022344479 0.708 -0.067033432 4.0742655e-39 338 294
0.023585839 0.708 -0.067033432 8.2230702e-39 339 294
0.024897331 0.70999998 -0.067222796 1.1439508e-38 340 294
0.026142199 0.70999998 -0.067222796 1.1162563e-38 341 294
0.027425639 0.71100003 -0.067317478 1.0612613e-38 342 294
0.028672259 0.71100003 -0.067317478 1.0797363e-38 343 294
0.029918881 0.71100003 -0.067317478 1.0979957e-38 344 294
0.031165501 0.71100003 -0.067317478 1.0979957e-38 345 294
0.032412119 0.71100003 -0.067317478 1.134766e-38 346 294
0.033611398 0.70999998 -0.067222796 1.134766e-38 347 294
0.034856264 0.70999998 -0.067222796 9.7781696e-39 348 294
0.036101133 0.70999998 -0.067222796 4.7996056e-39 349 294
0.037398599 0.71100003 -0.067317478 4.3426239e-42 350 294
0.038645219 0.71100003 -0.067317478 4.7027576e-42 351 294
0.039891839 0.71100003 -0.067317478 8.6754388e-42 352 294
0.041138459 0.71100003 -0.067317478 6.5476512e-40 353 294
0.042563915 0.71399999 -0.067601517 9.4107842e-40 354 294
0.043815799 0.71399999 -0.067601517 4.2601211e-39 355 294
0.045193922 0.71600002 -0.067790881 8.860902e-39 356 294
0.046514176 0.71700001 -0.067885563 1.079701e-38 357 294
0.04777132 0.71700001 -0.067885563 1.1072871e-38 358 294
0.049165215 0.71899998 -0.068074919 1.1165067e-38 359 294
0.050425861 0.71899998 -0.068074919 1.1624246e-38 360 294
0.05168651 0.71899998 -0.068074919 1.2269615e-38 361 294
-0.0037819401 0.71899998 -0.069335558 1.3924074e-38 317 295
-0.0025107733 0.71600002 -0.069046266 1.4108825e-38 318 295
-0.00125188 0.71399999 -0.068853401 1.4201021e-38 319 295
0 0.713 -0.068756968 1.4108472e-38 320 295
0.00124662 0.71100003 -0.068564095 1.3924079e-38 321 295
0.0024932399 0.71100003 -0.068564095 1.3372354e-38 322 295
0.0037345996 0.70999998 -0.068467662 1.3280159e-38 323 295
0.0049794666 0.70999998 -0.068467662 1.2912462e-38 324 295
0.0062243328 0.70999998 -0.068467662 1.2451843e-38 325 295
0.0074481601 0.708 -0.068274796 1.2267093e-38 326 295
0.008689519 0.708 -0.068274796 1.1898669e-38 327 295
0.0099308798 0.708 -0.068274796 1.1071427e-38 328 295
0.01117224 0.708 -0.068274796 1.0610448e-38 329 295
0.012396066 0.70700002 -0.068178371 1.0425337e-38 330 295
0.013635674 0.70700002 -0.068178371 1.0056196e-38 331 295
0.01487528 0.70700002 -0.068178371 9.4082955e-39 332 295
0.016092092 0.70599997 -0.06808193 7.748414e-39 333 295
0.017329946 0.70599997 -0.06808193 6.360795e-39 334 295
0.018594101 0.70700002 -0.068178371 2.7651654e-39 335 295
0.01986176 0.708 -0.068274796 7.3506372e-40 336 295
0.021103119 0.708 -0.068274796 4.2038954e-45 337 295
0.022344479 0.708 -0.068274796 1.0826432e-41 338 295
0.023652466 0.70999998 -0.068467662 5.2720996e-39 339 295
0.024897331 0.70999998 -0.068467662 9.8739918e-39 340 295
0.026179021 0.71100003 -0.068564095 1.1072534e-38 341 295
0.027502786 0.713 -0.068756968 1.134731e-38 342 295
0.028672259 0.71100003 -0.068564095 1.1255114e-38 343 295
0.029918881 0.71100003 -0.068564095 1.1163269e-38 344 295
0.031165501 0.71100003 -0.068564095 1.1163269e-38 345 295
0.032412119 0.71100003 -0.068564095 1.171572e-38 346 295
0.033658739 0.71100003 -0.068564095 1.0056198e-38 347 295
0.034905359 0.71100003 -0.068564095 4.1549536e-39 348 295
0.036151983 0.71100003 -0.068564095 9.281066e-40 349 295
0.037398599 0.71100003 -0.068564095 1.8425029e-39 350 295
0.038645219 0.71100003 -0.068564095 2.6726223e-39 351 295
0.040004052 0.713 -0.068756968 2.1223352e-39 352 295
0.041312039 0.71399999 -0.068853401 5.5501088e-40 353 295
0.042563915 0.71399999 -0.068853401 1.4433374e-41 354 295
0.043938532 0.71600002 -0.069046266 3.5211085e-39 355 295
0.045257039 0.71700001 -0.069142699 9.4115549e-39 356 295
0.046514176 0.71700001 -0.069142699 1.1439859e-38 357 295
0.04790457 0.71899998 -0.069335558 1.1439856e-38 358 295
0.049165215 0.71899998 -0.069335558 1.1439856e-38 359 295
0.050425861 0.71899998 -0.069335558 1.1071071e-38 360 295
0.05168651 0.71899998 -0.069335558 1.171644e-38 361 295
-0.0037819401 0.71899998 -0.070596211 1.4108825e-38 317 296
-0.0025142799 0.71700001 -0.070399836 1.410667e-38 318 296
-0.00125188 0.71399999 -0.070105277 1.4198865e-38 319 296
0 0.713 -0.070007093 1.3740411e-38 320 296
0.00124662 0.71100003 -0.069810718 1.355602e-38 321 296
0.0024932399 0.71100003 -0.069810718 1.3280159e-38 322 296
0.0037345996 0.70999998 -0.069712527 1.3280159e-38 323 296
0.0049794666 0.70999998 -0.069712527 1.2544757e-38 324 296
0.0062243328 0.70999998 -0.069712527 1.2452562e-38 325 296
0.0074481601 0.708 -0.069516152 1.2268172e-38 326 296
0.008689519 0.708 -0.069516152 1.2175976e-38 327 296
0.0099308798 0.708 -0.069516152 1.1899388e-38 328 296
0.01117224 0.708 -0.069516152 1.1530607e-38 329 296
0.0124136 0.708 -0.069516152 1.1345848e-38 330 296
0.013654959 0.708 -0.069516152 9.962914e-39 331 296
0.01487528 0.70700002 -0.069417976 4.431874e-39 332 296
0.016114887 0.70700002 -0.069417976 2.5879614e-39 333 296
0.017354494 0.70700002 -0.069417976 3.1342955e-39 334 296
0.018594101 0.70700002 -0.069417976 2.0283067e-39 335 296
0.019833706 0.70700002 -0.069417976 1.4751497e-39 336 296
0.021162732 0.70999998 -0.069712527 1.1063672e-39 337 296
0.022407599 0.70999998 -0.069712527 5.0853121e-42 338 296
0.023652466 0.70999998 -0.069712527 2.5869231e-39 339 296
0.024932399 0.71100003 -0.069810718 4.4470361e-39 340 296
0.026252659 0.713 -0.070007093 8.3192525e-39 341 296
0.027502786 0.713 -0.070007093 1.1530622e-38 342 296
0.028752912 0.713 -0.070007093 1.1346231e-38 343 296
0.030003037 0.713 -0.070007093 1.1256184e-38 344 296
0.031253166 0.713 -0.070007093 1.1256184e-38 345 296
0.032503292 0.713 -0.070007093 9.5048225e-39 346 296
0.033753417 0.713 -0.070007093 6.0935842e-39 347 296
0.035052639 0.71399999 -0.070105277 5.6039887e-40 348 296
0.036151983 0.71100003 -0.069810718 3.7600761e-40 349 296
0.037398599 0.71100003 -0.069810718 2.6733356e-39 350 296
0.038645219 0.71100003 -0.069810718 2.9502826e-39 351 296
0.039891839 0.71100003 -0.069810718 2.6751404e-39 352 296
0.041427758 0.71600002 -0.070301652 1.3844016e-39 353 296
0.042683143 0.71600002 -0.070301652 3.7565449e-40 354 296
0.043938532 0.71600002 -0.070301652 5.4464141e-39 355 296
0.045257039 0.71700001 -0.070399836 9.1349624e-39 356 296
0.046643924 0.71899998 -0.070596211 1.1255821e-38 357 296
0.04790457 0.71899998 -0.070596211 1.134766e-38 358 296
0.049165215 0.71899998 -0.070596211 1.1439856e-38 359 296
0.050425861 0.71899998 -0.070596211 1.0978155e-38 360 296
0.05168651 0.71899998 -0.070596211 1.1992307e-38 361 296
-0.0037714199 0.71700001 -0.07165698 1.4844588e-38 317 297
-0.0025142799 0.71700001 -0.07165698 1.4382534e-38 318 297
-0.0012553866 0.71600002 -0.071557038 1.4106307e-38 319 297
0 0.71399999 -0.071357153 1.337127e-38 320 297
0.0012501266 0.713 -0.071257219 1.3187237e-38 321 297
0.0024932399 0.71100003 -0.071057342 1.2819902e-38 322 297
0.0037398601 0.71100003 -0.071057342 1.2912099e-38 323 297
0.0049794666 0.70999998 -0.070957392 1.2361445e-38 324 297
0.0062243328 0.70999998 -0.070957392 1.2268891e-38 325 297
0.0074691991 0.70999998 -0.070957392 1.2268175e-38 326 297
0.008689519 0.708 -0.070757516 1.2175979e-38 327 297
0.0099308798 0.708 -0.070757516 1.1992307e-38 328 297
0.011203799 0.70999998 -0.070957392 1.2176698e-38 329 297
0.0124136 0.708 -0.070757516 1.2081981e-38 330 297
0.013654959 0.708 -0.070757516 9.7774507e-39 331 297
0.01487528 0.70700002 -0.070657574 1.9089048e-40 332 297
0.016114887 0.70700002 -0.070657574 2.5363502e-42 333 297
0.017354494 0.70700002 -0.070657574 2.4900233e-39 334 297
0.018594101 0.70700002 -0.070657574 3.0431971e-39 335 297
0.021252153 0.713 -0.071257219 3.0410433e-39 337 297
0.022502279 0.713 -0.071257219 2.0308402e-39 338 297
0.023752406 0.713 -0.071257219 9.473198e-41 339 297
0.025002534 0.713 -0.071257219 1.5749039e-39 340 297
0.026289478 0.71399999 -0.071357153 9.872512e-39 341 297
0.02754136 0.71399999 -0.071357153 1.1070706e-38 342 297
0.028793238 0.71399999 -0.071357153 1.1531326e-38 343 297
0.030003037 0.713 -0.071257219 1.162424e-38 344 297
0.031253166 0.713 -0.071257219 1.1163622e-38 345 297
0.032503292 0.713 -0.071257219 5.6358248e-39 346 297
0.033800758 0.71399999 -0.071357153 1.0260433e-39 347 297
0.035052639 0.71399999 -0.071357153 5.7635406e-42 348 297
0.036304519 0.71399999 -0.071357153 1.0220777e-39 349 297
0.037556399 0.71399999 -0.071357153 2.9506329e-39 350 297
0.038808275 0.71399999 -0.071357153 2.9506329e-39 351 297
0.040396802 0.72000003 -0.071956798 2.9502826e-39 352 297
0.041485619 0.71700001 -0.07165698 2.0279661e-39 353 297
0.042742759 0.71700001 -0.07165698 1.1117748e-39 354 297
0.043999899 0.71700001 -0.07165698 5.9059475e-39 355 297
0.045383278 0.71899998 -0.071856856 9.4108234e-39 356 297
0.046643924 0.71899998 -0.071856856 1.1439486e-38 357 297
0.04790457 0.71899998 -0.071856856 1.1439133e-38 358 297
0.049165215 0.71899998 -0.071856856 1.1531329e-38 359 297
0.050425861 0.71899998 -0.071856856 1.1990868e-38 360 297
0.05168651 0.71899998 -0.071856856 1.3096856e-38 361 297
-0.0037714199 0.71700001 -0.072914116 1.50279e-38 317 298
-0.0025142799 0.71700001 -0.072914116 1.4292137e-38 318 298
-0.0012553866 0.71600002 -0.072812423 1.3831159e-38 319 298
0 0.71600002 -0.072812423 1.2541871e-38 320 298
0.00125188 0.71399999 -0.072609037 1.2818099e-38 321 298
0.0024932399 0.71100003 -0.072303966 1.2635155e-38 322 298
0.0037398601 0.71100003 -0.072303966 1.2727351e-38 323 298
0.0049794666 0.70999998 -0.072202265 1.2452562e-38 324 298
0.0062243328 0.70999998 -0.072202265 1.2268172e-38 325 298
0.0074691991 0.70999998 -0.072202265 1.2176698e-38 326 298
0.008689519 0.708 -0.071998879 1.2176698e-38 327 298
0.0099308798 0.708 -0.071998879 1.2084146e-38 328 298
0.011203799 0.70999998 -0.072202265 1.2268896e-38 329 298
0.012448666 0.70999998 -0.072202265 1.1346937e-38 330 298
0.013654959 0.708 -0.071998879 8.7654596e-39 331 298
0.01487528 0.70700002 -0.071897186 8.3661582e-40 332 298
0.016114887 0.70700002 -0.071897186 9.9050782e-41 333 298
0.017354494 0.70700002 -0.071897186 2.7684024e-39 334 298
0.018594101 0.70700002 -0.071897186 2.6762068e-39 335 298
0.021460801 0.72000003 -0.073219202 2.5829392e-39 337 298
0.022691639 0.71899998 -0.073117502 2.1223198e-39 338 298
0.023952285 0.71899998 -0.073117502 6.4683096e-40 339 298
0.025037598 0.71399999 -0.072609037 1.3919546e-39 340 298
0.026289478 0.71399999 -0.072609037 9.4129744e-39 341 298
0.02754136 0.71399999 -0.072609037 1.0703366e-38 342 298
0.028793238 0.71399999 -0.072609037 1.1348735e-38 343 298
0.030003037 0.713 -0.072507344 1.1624596e-38 344 298
0.031253166 0.713 -0.072507344 1.1255815e-38 345 298
0.032503292 0.713 -0.072507344 5.451065e-39 346 298
0.033800758 0.71399999 -0.072609037 1.0260335e-39 347 298
0.035052639 0.71399999 -0.072609037 5.399203e-42 348 298
0.036304519 0.71399999 -0.072609037 1.5741654e-39 349 298
