# .PCD v.7 - Point Cloud Data file format
FIELDS x y z rgb imX imY
SIZE 4 4 4 4 4 4
TYPE F F F F F F
COUNT 1 1 1 1 1 1
WIDTH 834
HEIGHT 1
VIEWPOINT 0 0 0 1 0 0 0
POINTS 834
DATA ascii
-0.010954826 0.78100002 0.0095854728 1.0309312e-38 312 233
-0.0095854728 0.78100002 0.0095854728 1.0216756e-38 313 233
-0.0082161194 0.78100002 0.0095854728 1.0403674e-38 314 233
-0.0068467669 0.78100002 0.0095854728 1.1233436e-38 315 233
-0.0054774131 0.78100002 0.0095854728 1.1875206e-38 316 233
-0.0041080597 0.78100002 0.0095854728 1.1506782e-38 317 233
-0.0027387065 0.78100002 0.0095854728 1.0400802e-38 318 233
-0.0013693533 0.78100002 0.0095854728 9.7554321e-39 319 233
0 0.78100002 0.0095854728 9.1104313e-39 320 233
0.0013693533 0.78100002 0.0095854728 9.0182356e-39 321 233
0.0027457199 0.78299999 0.0096100196 9.7572356e-39 322 233
0.0041291001 0.78500003 0.0096345674 1.1600789e-38 323 233
0.0055054668 0.78500003 0.0096345674 1.3716993e-38 324 233
0.0068818335 0.78500003 0.0096345674 1.1965276e-38 325 233
0.0082582003 0.78500003 0.0096345674 8.7467088e-39 326 233
0.0096345674 0.78500003 0.0096345674 7.7325583e-39 327 233
0.011038986 0.787 0.0096591124 6.5343654e-39 328 233
0.01241886 0.787 0.0096591124 4.2294733e-39 329 233
0.013798732 0.787 0.0096591124 5.8079716e-39 330 233
0.015178605 0.787 0.0096591124 1.1800687e-38 331 233
-0.026284218 0.78899997 0.0083002793 1.8166894e-38 301 234
-0.024900839 0.78899997 0.0083002793 1.649907e-38 302 234
-0.023398234 0.78500003 0.0082582003 1.0875138e-38 303 234
-0.021965759 0.78299999 0.0082371598 9.7489665e-39 304 234
-0.0205929 0.78299999 0.0082371598 8.6426204e-39 305 234
-0.019220039 0.78299999 0.0082371598 8.5597602e-39 306 234
-0.017847179 0.78299999 0.0082371598 9.2973252e-39 307 234
-0.01647432 0.78299999 0.0082371598 9.9401919e-39 308 234
-0.01510146 0.78299999 0.0082371598 1.1415682e-38 309 234
-0.013728599 0.78299999 0.0082371598 1.2799333e-38 310 234
-0.01232418 0.78100002 0.0082161194 1.2246159e-38 311 234
-0.010954826 0.78100002 0.0082161194 1.1601864e-38 312 234
-0.0095854728 0.78100002 0.0082161194 1.0311125e-38 313 234
-0.0082161194 0.78100002 0.0082161194 1.0398637e-38 314 234
-0.0068467669 0.78100002 0.0082161194 1.3533288e-38 315 234
-0.0054774131 0.78100002 0.0082161194 1.4275169e-38 316 234
-0.0041080597 0.78100002 0.0082161194 1.2707843e-38 317 234
-0.0027387065 0.78100002 0.0082161194 1.0030592e-38 318 234
-0.0013675999 0.77999997 0.0082055992 9.0168007e-39 319 234
0 0.77999997 0.0082055992 9.1100781e-39 320 234
0.0013693533 0.78100002 0.0082161194 9.2022738e-39 321 234
0.0027387065 0.78100002 0.0082161194 9.9394759e-39 322 234
0.0041185799 0.78299999 0.0082371598 1.2151811e-38 323 234
0.0054914397 0.78299999 0.0082371598 1.3626948e-38 324 234
0.0068642995 0.78299999 0.0082371598 1.0861079e-38 325 234
0.0082371598 0.78299999 0.0082371598 8.1928162e-39 326 234
0.0096100196 0.78299999 0.0082371598 8.8381856e-39 327 234
0.011038986 0.787 0.0082792398 8.9282176e-39 328 234
0.01241886 0.787 0.0082792398 7.544923e-39 329 234
0.013798732 0.787 0.0082792398 7.9266732e-39 330 234
0.015140033 0.78500003 0.0082582003 1.2444259e-38 331 234
0.016516401 0.78500003 0.0082582003 1.3470681e-38 332 234
-0.027597465 0.787 0.0068993662 1.8353076e-38 300 235
-0.026284218 0.78899997 0.0069168997 1.4204633e-38 301 235
-0.024900839 0.78899997 0.0069168997 1.1524804e-38 302 235
-0.023398234 0.78500003 0.0068818335 7.0072182e-39 303 235
-0.021965759 0.78299999 0.0068642995 8.1924252e-39 304 235
-0.0205929 0.78299999 0.0068642995 8.3768165e-39 305 235
-0.019220039 0.78299999 0.0068642995 9.4813844e-39 306 235
-0.017801592 0.78100002 0.0068467669 9.9423625e-39 307 235
-0.016432239 0.78100002 0.0068467669 1.0402266e-38 308 235
-0.01510146 0.78299999 0.0068642995 1.2522765e-38 309 235
-0.013693534 0.78100002 0.0068467669 1.4094756e-38 310 235
-0.01232418 0.78100002 0.0068467669 1.2804017e-38 311 235
-0.010940799 0.77999997 0.0068379994 1.160331e-38 312 235
-0.0095731998 0.77999997 0.0068379994 9.206224e-39 313 235
-0.0082055992 0.77999997 0.0068379994 1.0398637e-38 314 235
-0.0068379994 0.77999997 0.0068379994 1.5008418e-38 315 235
-0.0054703997 0.77999997 0.0068379994 1.5105656e-38 316 235
-0.0041027996 0.77999997 0.0068379994 1.28926e-38 317 235
-0.0027351999 0.77999997 0.0068379994 9.1104341e-39 318 235
-0.0013675999 0.77999997 0.0068379994 8.3725103e-39 319 235
0 0.77999997 0.0068379994 9.0171664e-39 320 235
0.0013675999 0.77999997 0.0068379994 9.4777845e-39 321 235
0.0027387065 0.78100002 0.0068467669 1.0033113e-38 322 235
0.0041080597 0.78100002 0.0068467669 1.1508244e-38 323 235
0.0054774131 0.78100002 0.0068467669 1.1880972e-38 324 235
0.0068467669 0.78100002 0.0068467669 8.9303532e-39 325 235
0.0082161194 0.78100002 0.0068467669 7.8232952e-39 326 235
0.0096100196 0.78299999 0.0068642995 8.8370884e-39 327 235
0.010982879 0.78299999 0.0068642995 8.4679555e-39 328 235
0.012355739 0.78299999 0.0068642995 7.0850211e-39 329 235
0.013763667 0.78500003 0.0068818335 9.9506638e-39 330 235
0.015140033 0.78500003 0.0068818335 1.4652641e-38 331 235
0.016516401 0.78500003 0.0068818335 1.3928785e-38 332 235
0.017892767 0.78500003 0.0068818335 1.4297567e-38 333 235
-0.02905098 0.78899997 0.0055335197 1.917997e-38 299 236
-0.027667599 0.78899997 0.0055335197 1.6050346e-38 300 236
-0.026284218 0.78899997 0.0055335197 7.660184e-39 301 236
-0.024900839 0.78899997 0.0055335197 6.9110765e-39 302 236
-0.023398234 0.78500003 0.0055054668 7.4642503e-39 303 236
-0.021965759 0.78299999 0.0054914397 1.0402972e-38 304 236
-0.0205929 0.78299999 0.0054914397 1.0310775e-38 305 236
-0.019220039 0.78299999 0.0054914397 1.0219304e-38 306 236
-0.017801592 0.78100002 0.0054774131 1.0219304e-38 307 236
-0.016432239 0.78100002 0.0054774131 1.0959366e-38 308 236
-0.015062887 0.78100002 0.0054774131 1.3172061e-38 309 236
-0.013693534 0.78100002 0.0054774131 1.4925224e-38 310 236
-0.012308398 0.77999997 0.0054703997 1.3081312e-38 311 236
-0.010940799 0.77999997 0.0054703997 1.1236323e-38 312 236
-0.0095731998 0.77999997 0.0054703997 8.6548453e-39 313 236
-0.0082055992 0.77999997 0.0054703997 1.086358e-38 314 236
-0.0068379994 0.77999997 0.0054703997 1.6118731e-38 315 236
-0.0054703997 0.77999997 0.0054703997 1.5474458e-38 316 236
-0.0041027996 0.77999997 0.0054703997 1.2708587e-38 317 236
-0.0027351999 0.77999997 0.0054703997 8.7423746e-39 318 236
-0.0013675999 0.77999997 0.0054703997 8.0048096e-39 319 236
0 0.77999997 0.0054703997 9.0160916e-39 320 236
0.0013675999 0.77999997 0.0054703997 9.6614611e-39 321 236
0.0027351999 0.77999997 0.0054703997 1.0401902e-38 322 236
0.0041080597 0.78100002 0.0054774131 1.1968869e-38 323 236
0.0054774131 0.78100002 0.0054774131 1.0867546e-38 324 236
0.0068467669 0.78100002 0.0054774131 8.1013184e-39 325 236
0.0082161194 0.78100002 0.0054774131 8.2824685e-39 326 236
0.0095854728 0.78100002 0.0054774131 8.9278379e-39 327 236
0.010982879 0.78299999 0.0054914397 8.4672269e-39 328 236
0.012355739 0.78299999 0.0054914397 7.2690424e-39 329 236
0.013763667 0.78500003 0.0055054668 1.0503482e-38 330 236
0.015140033 0.78500003 0.0055054668 1.5390209e-38 331 236
0.016516401 0.78500003 0.0055054668 1.4481243e-38 332 236
0.017892767 0.78500003 0.0055054668 1.3558926e-38 333 236
0.019269135 0.78500003 0.0055054668 8.8727921e-39 334 236
-0.027597465 0.787 0.0041396199 1.2185686e-38 300 237
-0.026217593 0.787 0.0041396199 2.5051461e-39 301 237
-0.0247746 0.78500003 0.0041291001 6.9064074e-39 302 237
-0.02333862 0.78299999 0.0041185799 9.0272656e-39 303 237
-0.021965759 0.78299999 0.0041185799 1.0679925e-38 304 237
-0.0205929 0.78299999 0.0041185799 1.0219307e-38 305 237
-0.019220039 0.78299999 0.0041185799 1.0312218e-38 306 237
-0.017801592 0.78100002 0.0041080597 1.0773197e-38 307 237
-0.016432239 0.78100002 0.0041080597 1.0685666e-38 308 237
-0.015062887 0.78100002 0.0041080597 1.2806167e-38 309 237
-0.013693534 0.78100002 0.0041080597 1.4834839e-38 310 237
-0.012308398 0.77999997 0.0041027996 1.1792742e-38 311 237
-0.010940799 0.77999997 0.0041027996 9.578975e-39 312 237
-0.0095731998 0.77999997 0.0041027996 8.2882362e-39 313 237
-0.0082055992 0.77999997 0.0041027996 1.1694077e-38 314 237
-0.0068379994 0.77999997 0.0041027996 1.7041423e-38 315 237
-0.0054703997 0.77999997 0.0041027996 1.5202548e-38 316 237
-0.0040922803 0.778 0.0040922803 1.1699475e-38 317 237
-0.0027281865 0.778 0.0040922803 8.2831957e-39 318 237
-0.0013640933 0.778 0.0040922803 7.5456293e-39 319 237
0 0.778 0.0040922803 8.8320521e-39 320 237
0.0013675999 0.77999997 0.0041027996 9.9380409e-39 321 237
0.0027351999 0.77999997 0.0041027996 1.1327449e-38 322 237
0.0041027996 0.77999997 0.0041027996 1.1327449e-38 323 237
0.0054703997 0.77999997 0.0041027996 9.7619159e-39 324 237
0.0068379994 0.77999997 0.0041027996 7.7336121e-39 325 237
0.0082161194 0.78100002 0.0041080597 8.6498062e-39 326 237
0.0095854728 0.78100002 0.0041080597 9.0185888e-39 327 237
0.010982879 0.78299999 0.0041185799 8.1920721e-39 328 237
0.012355739 0.78299999 0.0041185799 7.3619513e-39 329 237
0.013728599 0.78299999 0.0041185799 9.9521086e-39 330 237
0.015140033 0.78500003 0.0041291001 1.4469694e-38 331 237
0.016516401 0.78500003 0.0041291001 1.5034416e-38 332 237
0.017892767 0.78500003 0.0041291001 1.4389047e-38 333 237
0.019269135 0.78500003 0.0041291001 7.762483e-39 334 237
0.020645501 0.78500003 0.0041291001 6.6561355e-39 335 237
-0.027597465 0.787 0.0027597465 1.1625677e-38 300 238
-0.026150968 0.78500003 0.0027527334 2.3139165e-39 301 238
-0.0247746 0.78500003 0.0027527334 7.4549106e-39 302 238
-0.02333862 0.78299999 0.0027457199 1.0036388e-38 303 238
-0.021965759 0.78299999 0.0027457199 1.0314019e-38 304 238
-0.0205929 0.78299999 0.0027457199 1.0221823e-38 305 238
-0.019220039 0.78299999 0.0027457199 1.0590233e-38 306 238
-0.017801592 0.78100002 0.0027387065 1.1235603e-38 307 238
-0.016432239 0.78100002 0.0027387065 1.0223989e-38 308 238
-0.015062887 0.78100002 0.0027387065 1.1699119e-38 309 238
-0.013693534 0.78100002 0.0027387065 1.3365127e-38 310 238
-0.012308398 0.77999997 0.0027351999 9.8613325e-39 311 238
-0.010940799 0.77999997 0.0027351999 8.3764816e-39 312 238
-0.0095731998 0.77999997 0.0027351999 9.2062422e-39 313 238
-0.0082055992 0.77999997 0.0027351999 1.2431642e-38 314 238
-0.0068379994 0.77999997 0.0027351999 1.7133619e-38 315 238
-0.0054703997 0.77999997 0.0027351999 1.5112139e-38 316 238
-0.0040922803 0.778 0.0027281865 1.1977488e-38 317 238
-0.0027281865 0.778 0.0027281865 8.8342017e-39 318 238
-0.0013640933 0.778 0.0027281865 7.912244e-39 319 238
0 0.778 0.0027281865 8.7391348e-39 320 238
0.0013675999 0.77999997 0.0027351999 1.0029874e-38 321 238
0.0027351999 0.77999997 0.0027351999 1.1511127e-38 322 238
0.0041027996 0.77999997 0.0027351999 1.0865758e-38 323 238
0.0054703997 0.77999997 0.0027351999 9.2058737e-39 324 238
0.0068379994 0.77999997 0.0027351999 8.1917218e-39 325 238
0.0082055992 0.77999997 0.0027351999 8.7416558e-39 326 238
0.0095731998 0.77999997 0.0027351999 8.8338514e-39 327 238
0.010954826 0.78100002 0.0027387065 8.4661577e-39 328 238
0.01232418 0.78100002 0.0027387065 7.9129839e-39 329 238
0.013693534 0.78100002 0.0027387065 9.4897011e-39 330 238
0.015062887 0.78100002 0.0027387065 1.3454113e-38 331 238
0.016432239 0.78100002 0.0027387065 1.5034414e-38 332 238
0.017847179 0.78299999 0.0027457199 1.531064e-38 333 238
0.019269135 0.78500003 0.0027527334 9.7849869e-39 334 238
0.020645501 0.78500003 0.0027527334 5.5436292e-39 335 238
0.022021867 0.78500003 0.0027527334 1.6908558e-39 336 238
-0.02897734 0.787 0.0013798733 1.2000941e-38 299 239
-0.027597465 0.787 0.0013798733 1.2358928e-38 300 239
-0.026150968 0.78500003 0.0013763667 3.5999834e-39 301 239
-0.0247746 0.78500003 0.0013763667 8.0062697e-39 302 239
-0.02333862 0.78299999 0.0013728599 1.0495912e-38 303 239
-0.021965759 0.78299999 0.0013728599 1.0866108e-38 304 239
-0.0205929 0.78299999 0.0013728599 1.0958663e-38 305 239
-0.019170946 0.78100002 0.0013693533 1.087078e-38 306 239
-0.017801592 0.78100002 0.0013693533 1.0133215e-38 307 239
-0.016432239 0.78100002 0.0013693533 9.2995141e-39 308 239
-0.015062887 0.78100002 0.0013693533 9.3917097e-39 309 239
-0.013693534 0.78100002 0.0013693533 1.0774291e-38 310 239
-0.012308398 0.77999997 0.0013675999 9.5757478e-39 311 239
-0.010940799 0.77999997 0.0013675999 9.3852357e-39 312 239
-0.0095731998 0.77999997 0.0013675999 1.0952922e-38 313 239
-0.0082055992 0.77999997 0.0013675999 1.307774e-38 314 239
-0.0068379994 0.77999997 0.0013675999 1.7226183e-38 315 239
-0.0054563731 0.778 0.0013640933 1.6215981e-38 316 239
-0.0040922803 0.778 0.0013640933 1.3634504e-38 317 239
-0.0027281865 0.778 0.0013640933 1.0028792e-38 318 239
-0.0013640933 0.778 0.0013640933 8.1848792e-39 319 239
0 0.778 0.0013640933 8.7416529e-39 320 239
0.0013675999 0.77999997 0.0013675999 9.3870224e-39 321 239
0.0027351999 0.77999997 0.0013675999 1.0402985e-38 322 239
0.0041027996 0.77999997 0.0013675999 9.3891916e-39 323 239
0.0054703997 0.77999997 0.0013675999 9.1090089e-39 324 239
0.0068379994 0.77999997 0.0013675999 8.9246177e-39 325 239
0.0082055992 0.77999997 0.0013675999 8.7398537e-39 326 239
0.0095731998 0.77999997 0.0013675999 8.8320493e-39 327 239
0.010940799 0.77999997 0.0013675999 8.6491028e-39 328 239
0.012308398 0.77999997 0.0013675999 8.0959304e-39 329 239
0.013693534 0.78100002 0.0013693533 8.3833549e-39 330 239
0.015062887 0.78100002 0.0013693533 1.2532517e-38 331 239
0.016432239 0.78100002 0.0013693533 1.4942216e-38 332 239
0.017801592 0.78100002 0.0013693533 1.549539e-38 333 239
0.019220039 0.78299999 0.0013728599 1.2637656e-38 334 239
0.020645501 0.78500003 0.0013763667 6.7371361e-39 335 239
0.022021867 0.78500003 0.0013763667 1.4786501e-41 336 239
0.023457846 0.787 0.0013798733 6.7504695e-39 337 239
-0.02897734 0.787 -0 1.6221434e-38 299 240
-0.027527334 0.78500003 -0 1.3095044e-38 300 240
-0.026150968 0.78500003 -0 3.7829271e-39 301 240
-0.0247746 0.78500003 -0 7.7293339e-39 302 240
-0.02333862 0.78299999 -0 9.4810509e-39 303 240
-0.021965759 0.78299999 -0 9.5786345e-39 304 240
-0.020540299 0.78100002 -0 9.7633845e-39 305 240
-0.019170946 0.78100002 -0 9.9488492e-39 306 240
-0.017801592 0.78100002 -0 9.1187298e-39 307 240
-0.016432239 0.78100002 -0 8.0984471e-39 308 240
-0.015062887 0.78100002 -0 8.2831985e-39 309 240
-0.013693534 0.78100002 -0 9.9405619e-39 310 240
-0.012308398 0.77999997 -0 9.9405619e-39 311 240
-0.010940799 0.77999997 -0 9.3884881e-39 312 240
-0.0095731998 0.77999997 -0 9.9416619e-39 313 240
-0.0081845606 0.778 -0 1.0966258e-38 314 240
-0.0068204664 0.778 -0 1.3639931e-38 315 240
-0.0054563731 0.778 -0 1.5018903e-38 316 240
-0.0040922803 0.778 -0 1.3820359e-38 317 240
-0.0027281865 0.778 -0 9.9405619e-39 318 240
-0.0013640933 0.778 -0 7.5438342e-39 319 240
0 0.778 -0 8.8349234e-39 320 240
0.0013640933 0.778 -0 9.0193146e-39 321 240
0.0027281865 0.778 -0 9.0211293e-39 322 240
0.0041027996 0.77999997 -0 8.8367381e-39 323 240
0.0054703997 0.77999997 -0 9.2926743e-39 324 240
0.0068379994 0.77999997 -0 8.8316962e-39 325 240
0.0081845606 0.778 -0 8.5569044e-39 326 240
0.0095486529 0.778 -0 8.4647087e-39 327 240
0.010940799 0.77999997 -0 8.3739634e-39 328 240
0.012308398 0.77999997 -0 8.0051823e-39 329 240
0.013675999 0.77999997 -0 7.4599595e-39 330 240
0.015062887 0.78100002 -0 1.188535e-38 331 240
0.016432239 0.78100002 -0 1.4757469e-38 332 240
0.017801592 0.78100002 -0 1.5495034e-38 333 240
0.019220039 0.78299999 -0 1.4202481e-38 334 240
0.020645501 0.78500003 -0 8.4867119e-39 335 240
0.022021867 0.78500003 -0 1.0487318e-41 336 240
0.023398234 0.78500003 -0 2.9632684e-39 337 240
0.0247746 0.78500003 -0 8.8692033e-39 338 240
-0.02897734 0.787 -0.0013798733 1.7329942e-38 299 241
-0.027527334 0.78500003 -0.0013763667 1.346455e-38 300 241
-0.026150968 0.78500003 -0.0013763667 3.8758444e-39 301 241
-0.024711479 0.78299999 -0.0013728599 6.9942702e-39 302 241
-0.02333862 0.78299999 -0.0013728599 7.9162265e-39 303 241
-0.021965759 0.78299999 -0.0013728599 8.7452655e-39 304 241
-0.020540299 0.78100002 -0.0013693533 9.2984393e-39 305 241
-0.019170946 0.78100002 -0.0013693533 9.8490949e-39 306 241
-0.017801592 0.78100002 -0.0013693533 9.6647023e-39 307 241
-0.016432239 0.78100002 -0.0013693533 9.0178825e-39 308 241
-0.015062887 0.78100002 -0.0013693533 8.8338514e-39 309 241
-0.013693534 0.78100002 -0.0013693533 9.1100781e-39 310 241
-0.012308398 0.77999997 -0.0013675999 9.1100781e-39 311 241
-0.010912746 0.778 -0.0013640933 9.1997724e-39 312 241
-0.0095486529 0.778 -0.0013640933 9.3845224e-39 313 241
-0.0081845606 0.778 -0.0013640933 9.2973827e-39 314 241
-0.0068204664 0.778 -0.0013640933 1.0956903e-38 315 241
-0.0054423464 0.77600002 -0.0013605866 1.2344156e-38 316 241
-0.0040817601 0.77600002 -0.0013605866 1.3081722e-38 317 241
-0.0027281865 0.778 -0.0013640933 1.0125322e-38 318 241
-0.0013640933 0.778 -0.0013640933 7.9129867e-39 319 241
0 0.778 -0.0013640933 8.7427277e-39 320 241
0.0013640933 0.778 -0.0013640933 8.7427277e-39 321 241
0.0027281865 0.778 -0.0013640933 9.1093593e-39 322 241
0.0040922803 0.778 -0.0013640933 9.1093593e-39 323 241
0.0054563731 0.778 -0.0013640933 8.9242505e-39 324 241
0.0068204664 0.778 -0.0013640933 8.8316962e-39 325 241
0.0081845606 0.778 -0.0013640933 8.5565414e-39 326 241
0.0095486529 0.778 -0.0013640933 8.4643458e-39 327 241
0.010912746 0.778 -0.0013640933 8.6491028e-39 328 241
0.012308398 0.77999997 -0.0013675999 8.4647115e-39 329 241
0.013675999 0.77999997 -0.0013675999 6.4450817e-39 330 241
0.0150436 0.77999997 -0.0013675999 1.0686079e-38 331 241
0.016411198 0.77999997 -0.0013675999 1.4571639e-38 332 241
0.017801592 0.78100002 -0.0013693533 1.5770182e-38 333 241
0.019170946 0.78100002 -0.0013693533 1.5032249e-38 334 241
0.0205929 0.78299999 -0.0013728599 1.014552e-38 335 241
0.021965759 0.78299999 -0.0013728599 4.9782515e-39 336 241
0.023398234 0.78500003 -0.0013763667 2.4889709e-39 337 241
0.0247746 0.78500003 -0.0013763667 2.9561792e-41 338 241
-0.030472934 0.79000002 -0.0027702667 1.0604707e-38 298 242
-0.02905098 0.78899997 -0.0027667598 1.6505228e-38 299 242
-0.027597465 0.787 -0.0027597465 1.3926244e-38 300 242
-0.026217593 0.787 -0.0027597465 4.4304545e-39 301 242
-0.024711479 0.78299999 -0.0027457199 6.9935443e-39 302 242
-0.02333862 0.78299999 -0.0027457199 7.6389137e-39 303 242
-0.021965759 0.78299999 -0.0027457199 8.8345829e-39 304 242
-0.020540299 0.78100002 -0.0027387065 9.1115299e-39 305 242
-0.019170946 0.78100002 -0.0027387065 8.8363821e-39 306 242
-0.017801592 0.78100002 -0.0027387065 8.9289365e-39 307 242
-0.016432239 0.78100002 -0.0027387065 8.8338486e-39 308 242
-0.015062887 0.78100002 -0.0027387065 8.8338486e-39 309 242
-0.013675999 0.77999997 -0.0027351999 8.6498231e-39 310 242
-0.012276839 0.778 -0.0027281865 8.6498231e-39 311 242
-0.010912746 0.778 -0.0027281865 8.9242646e-39 312 242
-0.0095486529 0.778 -0.0027281865 8.9242646e-39 313 242
-0.0081845606 0.778 -0.0027281865 8.5583715e-39 314 242
-0.0068029333 0.77600002 -0.0027211732 9.3881322e-39 315 242
-0.0054423464 0.77600002 -0.0027211732 1.0219335e-38 316 242
-0.0040817601 0.77600002 -0.0027211732 1.0864704e-38 317 242
-0.0027211732 0.77600002 -0.0027211732 9.4799551e-39 318 242
-0.0013605866 0.77600002 -0.0027211732 8.3736075e-39 319 242
0 0.77600002 -0.0027211732 8.6494587e-39 320 242
0.0013605866 0.77600002 -0.0027211732 8.6494587e-39 321 242
0.0027211732 0.77600002 -0.0027211732 8.6494587e-39 322 242
0.0040817601 0.77600002 -0.0027211732 8.7416558e-39 323 242
0.0054423464 0.77600002 -0.0027211732 8.5572603e-39 324 242
0.0068204664 0.778 -0.0027281865 8.4650647e-39 325 242
0.0081845606 0.778 -0.0027281865 8.3725103e-39 326 242
0.0095486529 0.778 -0.0027281865 8.3725103e-39 327 242
0.010912746 0.778 -0.0027281865 8.4647115e-39 328 242
0.012276839 0.778 -0.0027281865 8.3725159e-39 329 242
0.013675999 0.77999997 -0.0027351999 6.0734223e-39 330 242
0.0150436 0.77999997 -0.0027351999 9.4850194e-39 331 242
0.016411198 0.77999997 -0.0027351999 1.3742244e-38 332 242
0.017778799 0.77999997 -0.0027351999 1.5309571e-38 333 242
0.019170946 0.78100002 -0.0027387065 1.5033333e-38 334 242
0.0205929 0.78299999 -0.0027457199 1.070014e-38 335 242
0.021965759 0.78299999 -0.0027457199 5.8087128e-39 336 242
0.02333862 0.78299999 -0.0027457199 3.1350396e-39 337 242
0.024711479 0.78299999 -0.0027457199 1.995449e-40 338 242
0.026084339 0.78299999 -0.0027457199 1.0064477e-38 339 242
-0.03489133 0.796 -0.0041869599 1.0332432e-38 295 243
-0.033411518 0.79400003 -0.0041764397 3.0475327e-39 296 243
-0.031938717 0.792 -0.00416592 5.9055972e-39 297 243
-0.030472934 0.79000002 -0.0041554002 1.088129e-38 298 243
-0.029087799 0.79000002 -0.0041554002 1.6320832e-38 299 243
-0.027597465 0.787 -0.0041396199 1.4020961e-38 300 243
-0.026217593 0.787 -0.0041396199 5.2627347e-39 301 243
-0.0247746 0.78500003 -0.0041291001 7.0832218e-39 302 243
-0.02333862 0.78299999 -0.0041185799 8.1895694e-39 303 243
-0.021965759 0.78299999 -0.0041185799 9.0178797e-39 304 243
-0.020540299 0.78100002 -0.0041080597 8.8338486e-39 305 243
-0.019170946 0.78100002 -0.0041080597 8.7412998e-39 306 243
-0.017801592 0.78100002 -0.0041080597 8.7412998e-39 307 243
-0.016432239 0.78100002 -0.0041080597 8.7405725e-39 308 243
-0.0150436 0.77999997 -0.0041027996 8.7405725e-39 309 243
-0.013675999 0.77999997 -0.0041027996 8.7405697e-39 310 243
-0.012276839 0.778 -0.0040922803 8.5565386e-39 311 243
-0.010912746 0.778 -0.0040922803 8.7405697e-39 312 243
-0.0095486529 0.778 -0.0040922803 8.8331241e-39 313 243
-0.0081635201 0.77600002 -0.0040817601 8.6498231e-39 314 243
-0.0068029333 0.77600002 -0.0040817601 8.4657905e-39 315 243
-0.0054423464 0.77600002 -0.0040817601 8.7402222e-39 316 243
-0.0040817601 0.77600002 -0.0040817601 9.0168105e-39 317 243
-0.0027211732 0.77600002 -0.0040817601 9.0178853e-39 318 243
-0.0013605866 0.77600002 -0.0040817601 8.8338542e-39 319 243
0 0.77600002 -0.0040817601 8.4661409e-39 320 243
0.0013605866 0.77600002 -0.0040817601 8.3739452e-39 321 243
0.0027211732 0.77600002 -0.0040817601 8.5576106e-39 322 243
0.0040817601 0.77600002 -0.0040817601 8.6498062e-39 323 243
0.0054423464 0.77600002 -0.0040817601 8.465415e-39 324 243
0.0068204664 0.778 -0.0040922803 8.3732194e-39 325 243
0.0081845606 0.778 -0.0040922803 8.1888323e-39 326 243
0.0095486529 0.778 -0.0040922803 8.1888323e-39 327 243
0.010912746 0.778 -0.0040922803 8.3717942e-39 328 243
0.012276839 0.778 -0.0040922803 8.4639899e-39 329 243
0.013675999 0.77999997 -0.0041027996 6.070907e-39 330 243
0.0150436 0.77999997 -0.0041027996 8.0070152e-39 331 243
0.016411198 0.77999997 -0.0041027996 1.2819216e-38 332 243
0.017778799 0.77999997 -0.0041027996 1.5216302e-38 333 243
0.019170946 0.78100002 -0.0041080597 1.4851823e-38 334 243
0.020540299 0.78100002 -0.0041080597 1.1532422e-38 335 243
0.021965759 0.78299999 -0.0041185799 6.6395525e-39 336 243
0.02333862 0.78299999 -0.0041185799 4.1502705e-39 337 243
0.024711479 0.78299999 -0.0041185799 4.1502859e-39 338 243
0.026084339 0.78299999 -0.0041185799 9.3132412e-39 339 243
-0.036286984 0.796 -0.0055826134 1.4020608e-38 294 244
-0.034803666 0.79400003 -0.0055685868 8.7654568e-39 295 244
-0.03332736 0.792 -0.0055545596 5.1597477e-39 296 244
-0.031938717 0.792 -0.0055545596 8.018171e-39 297 244
-0.030472934 0.79000002 -0.0055405335 1.1065315e-38 298 244
-0.029087799 0.79000002 -0.0055405335 1.6596693e-38 299 244
-0.027597465 0.787 -0.005519493 1.4114601e-38 300 244
-0.026217593 0.787 -0.005519493 6.7389508e-39 301 244
-0.0247746 0.78500003 -0.0055054668 7.0850239e-39 302 244
-0.02333862 0.78299999 -0.0054914397 7.6381977e-39 303 244
-0.021965759 0.78299999 -0.0054914397 8.6505293e-39 304 244
-0.020540299 0.78100002 -0.0054774131 8.4664968e-39 305 244
-0.019170946 0.78100002 -0.0054774131 8.373948e-39 306 244
-0.017801592 0.78100002 -0.0054774131 8.2813937e-39 307 244
-0.016411198 0.77999997 -0.0054703997 8.464343e-39 308 244
-0.0150436 0.77999997 -0.0054703997 8.464343e-39 309 244
-0.013675999 0.77999997 -0.0054703997 8.464343e-39 310 244
-0.012276839 0.778 -0.0054563731 8.3721474e-39 311 244
-0.010884693 0.77600002 -0.0054423464 8.4643458e-39 312 244
-0.009524107 0.77600002 -0.0054423464 8.5565414e-39 313 244
-0.0081635201 0.77600002 -0.0054423464 8.5565386e-39 314 244
-0.0067853997 0.77399999 -0.0054283198 8.5565386e-39 315 244
-0.0054283198 0.77399999 -0.0054283198 8.9235191e-39 316 244
-0.0040712398 0.77399999 -0.0054283198 9.1079103e-39 317 244
-0.0027211732 0.77600002 -0.0054423464 8.9253183e-39 318 244
-0.0013605866 0.77600002 -0.0054423464 8.9253183e-39 319 244
0 0.77600002 -0.0054423464 8.3742984e-39 320 244
0.0013605866 0.77600002 -0.0054423464 8.2821027e-39 321 244
0.0027211732 0.77600002 -0.0054423464 8.3732194e-39 322 244
0.0040817601 0.77600002 -0.0054423464 8.3732194e-39 323 244
0.0054423464 0.77600002 -0.0054423464 8.1888323e-39 324 244
0.0068204664 0.778 -0.0054563731 8.0966367e-39 325 244
0.0081635201 0.77600002 -0.0054423464 8.1877547e-39 326 244
0.009524107 0.77600002 -0.0054423464 8.1877547e-39 327 244
0.010912746 0.778 -0.0054563731 8.0962863e-39 328 244
0.012276839 0.778 -0.0054563731 8.3725131e-39 329 244
0.013675999 0.77999997 -0.0054703997 6.4382476e-39 330 244
0.0150436 0.77999997 -0.0054703997 6.8992257e-39 331 244
0.016411198 0.77999997 -0.0054703997 1.1895099e-38 332 244
0.017778799 0.77999997 -0.0054703997 1.5398172e-38 333 244
0.0191464 0.77999997 -0.0054703997 1.4668871e-38 334 244
0.020540299 0.78100002 -0.0054774131 1.2456174e-38 335 244
0.021909652 0.78100002 -0.0054774131 8.4834651e-39 336 244
0.02333862 0.78299999 -0.0054914397 5.0718681e-39 337 244
0.024711479 0.78299999 -0.0054914397 5.5289072e-39 338 244
0.026084339 0.78299999 -0.0054914397 5.2523217e-39 339 244
0.027597465 0.787 -0.005519493 5.4658698e-39 340 244
-0.036286984 0.796 -0.0069782664 1.1991938e-38 294 245
-0.034803666 0.79400003 -0.0069607338 6.8289828e-39 295 245
-0.03332736 0.792 -0.0069431998 6.4476054e-39 296 245
-0.031938717 0.792 -0.0069431998 9.1212787e-39 297 245
-0.030472934 0.79000002 -0.0069256667 1.0882369e-38 298 245
-0.02905098 0.78899997 -0.0069168997 1.5953129e-38 299 245
-0.027597465 0.787 -0.0068993662 1.4114971e-38 300 245
-0.026150968 0.78500003 -0.0068818335 8.0304183e-39 301 245
-0.024711479 0.78299999 -0.0068642995 7.6382103e-39 302 245
-0.02333862 0.78299999 -0.0068642995 7.3619835e-39 303 245
-0.021965759 0.78299999 -0.0068642995 8.4668639e-39 304 245
-0.020540299 0.78100002 -0.0068467669 8.1899169e-39 305 245
-0.0191464 0.77999997 -0.0068379994 8.0062389e-39 306 245
-0.017778799 0.77999997 -0.0068379994 8.0062389e-39 307 245
-0.016411198 0.77999997 -0.0068379994 8.1888323e-39 308 245
-0.015005025 0.778 -0.0068204664 8.1888323e-39 309 245
-0.013640933 0.778 -0.0068204664 8.3721474e-39 310 245
-0.01224528 0.77600002 -0.0068029333 8.3721474e-39 311 245
-0.010884693 0.77600002 -0.0068029333 8.1888351e-39 312 245
-0.009524107 0.77600002 -0.0068029333 8.3728662e-39 313 245
-0.0081635201 0.77600002 -0.0068029333 8.4643402e-39 314 245
-0.0067853997 0.77399999 -0.0067853997 8.4643402e-39 315 245
-0.0054283198 0.77399999 -0.0067853997 8.5565414e-39 316 245
-0.0040712398 0.77399999 -0.0067853997 8.7405725e-39 317 245
-0.0027211732 0.77600002 -0.0068029333 8.2813965e-39 318 245
-0.0013605866 0.77600002 -0.0068029333 8.2813965e-39 319 245
0 0.77600002 -0.0068029333 8.0058858e-39 320 245
0.0013570799 0.77399999 -0.0067853997 8.0058858e-39 321 245
0.0027141599 0.77399999 -0.0067853997 8.004804e-39 322 245
0.0040817601 0.77600002 -0.0068029333 8.004804e-39 323 245
0.0054423464 0.77600002 -0.0068029333 8.0040837e-39 324 245
0.0068029333 0.77600002 -0.0068029333 8.0040837e-39 325 245
0.0081635201 0.77600002 -0.0068029333 8.0040865e-39 326 245
0.009524107 0.77600002 -0.0068029333 8.0040865e-39 327 245
0.010912746 0.778 -0.0068204664 8.0044565e-39 328 245
0.012276839 0.778 -0.0068204664 8.1888477e-39 329 245
0.013640933 0.778 -0.0068204664 6.7148303e-39 330 245
0.015005025 0.778 -0.0068204664 6.0694609e-39 331 245
0.016411198 0.77999997 -0.0068379994 1.0787306e-38 332 245
0.017778799 0.77999997 -0.0068379994 1.5120141e-38 333 245
0.0191464 0.77999997 -0.0068379994 1.4577397e-38 334 245
0.020540299 0.78100002 -0.0068467669 1.2733484e-38 335 245
0.021909652 0.78100002 -0.0068467669 9.8660464e-39 336 245
0.02333862 0.78299999 -0.0068642995 5.9016343e-39 337 245
0.0247746 0.78500003 -0.0068818335 6.1721074e-39 338 245
0.026150968 0.78500003 -0.0068818335 3.775021e-39 339 245
0.027597465 0.787 -0.0068993662 3.0469834e-40 340 245
0.029087799 0.79000002 -0.0069256667 1.0906836e-38 341 245
-0.036286984 0.796 -0.0083739199 1.0238775e-38 294 246
-0.034803666 0.79400003 -0.0083528794 5.6289935e-39 295 246
-0.033411518 0.79400003 -0.0083528794 6.8145901e-39 296 246
-0.031938717 0.792 -0.0083318399 9.2116751e-39 297 246
-0.030472934 0.79000002 -0.0083108004 1.0697625e-38 298 246
-0.02905098 0.78899997 -0.0083002793 1.5399602e-38 299 246
-0.027527334 0.78500003 -0.0082582003 1.3195541e-38 300 246
-0.026150968 0.78500003 -0.0082582003 8.4935643e-39 301 246
-0.024711479 0.78299999 -0.0082371598 7.9169678e-39 302 246
-0.023279008 0.78100002 -0.0082161194 6.4418377e-39 303 246
-0.021909652 0.78100002 -0.0082161194 8.4657933e-39 304 246
-0.020540299 0.78100002 -0.0082161194 8.2810433e-39 305 246
-0.0191464 0.77999997 -0.0082055992 8.0058886e-39 306 246
-0.017778799 0.77999997 -0.0082055992 8.0058886e-39 307 246
-0.016369121 0.778 -0.0081845606 8.1884792e-39 308 246
-0.015005025 0.778 -0.0081845606 8.1884792e-39 309 246
-0.013640933 0.778 -0.0081845606 8.3721474e-39 310 246
-0.01224528 0.77600002 -0.0081635201 8.3721474e-39 311 246
-0.010884693 0.77600002 -0.0081635201 8.1888351e-39 312 246
-0.009524107 0.77600002 -0.0081635201 8.1888351e-39 313 246
-0.0081635201 0.77600002 -0.0081635201 8.1888351e-39 314 246
-0.0068029333 0.77600002 -0.0081635201 8.1888351e-39 315 246
-0.0054423464 0.77600002 -0.0081635201 8.3717942e-39 316 246
-0.0040817601 0.77600002 -0.0081635201 8.3717942e-39 317 246
-0.0027211732 0.77600002 -0.0081635201 8.371797e-39 318 246
-0.0013605866 0.77600002 -0.0081635201 8.2796014e-39 319 246
0 0.77600002 -0.0081635201 8.1874016e-39 320 246
0.0013570799 0.77399999 -0.0081424797 8.2795986e-39 321 246
0.0027141599 0.77399999 -0.0081424797 7.9122538e-39 322 246
0.0040712398 0.77399999 -0.0081424797 8.0048096e-39 323 246
0.0054283198 0.77399999 -0.0081424797 7.7292975e-39 324 246
0.0067853997 0.77399999 -0.0081424797 7.7292975e-39 325 246
0.0081635201 0.77600002 -0.0081635201 7.9118909e-39 326 246
0.009524107 0.77600002 -0.0081635201 7.9118909e-39 327 246
0.010884693 0.77600002 -0.0081635201 7.7289444e-39 328 246
0.01224528 0.77600002 -0.0081635201 7.913337e-39 329 246
0.013640933 0.778 -0.0081845606 7.3576773e-39 330 246
0.015005025 0.778 -0.0081845606 6.9892535e-39 331 246
0.016411198 0.77999997 -0.0082055992 9.7727942e-39 332 246
0.017778799 0.77999997 -0.0082055992 1.3645011e-38 333 246
0.0191464 0.77999997 -0.0082055992 1.4577047e-38 334 246
0.020540299 0.78100002 -0.0082161194 1.3009722e-38 335 246
0.021909652 0.78100002 -0.0082161194 1.12497e-38 336 246
0.02333862 0.78299999 -0.0082371598 6.9165065e-39 337 246
0.0247746 0.78500003 -0.0082582003 6.172808e-39 338 246
0.026217593 0.787 -0.0082792398 4.6976765e-39 339 246
0.027667599 0.78899997 -0.0083002793 2.8663812e-39 340 246
0.029087799 0.79000002 -0.0083108004 9.9654447e-39 341 246
-0.036286984 0.796 -0.0097695729 9.497617e-39 294 247
-0.034803666 0.79400003 -0.0097450269 5.1640637e-39 295 247
-0.03332736 0.792 -0.0097204801 7.5489237e-39 296 247
-0.031858064 0.79000002 -0.0096959332 9.2088052e-39 297 247
-0.030434359 0.78899997 -0.0096836593 1.014517e-38 298 247
-0.02905098 0.78899997 -0.0096836593 1.5031898e-38 299 247
-0.027527334 0.78500003 -0.0096345674 1.3653643e-38 300 247
-0.026084339 0.78299999 -0.0096100196 9.7814262e-39 301 247
-0.024648361 0.78100002 -0.0095854728 8.4723066e-39 302 247
-0.023279008 0.78100002 -0.0095854728 5.4302095e-39 303 247
-0.021909652 0.78100002 -0.0095854728 8.0055355e-39 304 247
-0.020513998 0.77999997 -0.0095731998 8.1895666e-39 305 247
-0.0191464 0.77999997 -0.0095731998 8.0066074e-39 306 247
-0.017778799 0.77999997 -0.0095731998 7.9144118e-39 307 247
-0.016369121 0.778 -0.0095486529 8.0970024e-39 308 247
-0.015005025 0.778 -0.0095486529 8.189198e-39 309 247
-0.013640933 0.778 -0.0095486529 8.0970052e-39 310 247
-0.01224528 0.77600002 -0.009524107 8.0048096e-39 311 247
-0.010884693 0.77600002 -0.009524107 8.0959304e-39 312 247
-0.009524107 0.77600002 -0.009524107 8.0959304e-39 313 247
-0.0081424797 0.77399999 -0.0094995592 8.0044536e-39 314 247
-0.0067853997 0.77399999 -0.0094995592 7.9122566e-39 315 247
-0.0054423464 0.77600002 -0.009524107 7.8207883e-39 316 247
-0.0040817601 0.77600002 -0.009524107 7.7285912e-39 317 247
-0.0027211732 0.77600002 -0.009524107 7.4527302e-39 318 247
-0.0013605866 0.77600002 -0.009524107 7.4527302e-39 319 247
0 0.77600002 -0.009524107 7.4527274e-39 320 247
0.0013570799 0.77399999 -0.0094995592 7.4527274e-39 321 247
0.0027141599 0.77399999 -0.0094995592 7.4530805e-39 322 247
0.0040712398 0.77399999 -0.0094995592 7.5452762e-39 323 247
0.0054283198 0.77399999 -0.0094995592 7.4530777e-39 324 247
0.0067853997 0.77399999 -0.0094995592 7.4530777e-39 325 247
0.0081635201 0.77600002 -0.009524107 7.4530805e-39 326 247
0.009524107 0.77600002 -0.009524107 7.4530805e-39 327 247
0.010884693 0.77600002 -0.009524107 7.544923e-39 328 247
0.01224528 0.77600002 -0.009524107 7.8215099e-39 329 247
0.013640933 0.778 -0.0095486529 7.2690844e-39 330 247
0.015005025 0.778 -0.0095486529 7.1765287e-39 331 247
0.016411198 0.77999997 -0.0095731998 7.835614e-39 332 247
0.017778799 0.77999997 -0.0095731998 1.2076612e-38 333 247
0.0191464 0.77999997 -0.0095731998 1.4759287e-38 334 247
0.020513998 0.77999997 -0.0095731998 1.3745494e-38 335 247
0.021909652 0.78100002 -0.0095854728 1.1806839e-38 336 247
0.02333862 0.78299999 -0.0096100196 5.9063189e-39 337 247
0.0247746 0.78500003 -0.0096345674 5.0675353e-39 338 247
0.026217593 0.787 -0.0096591124 5.2519265e-39 339 247
0.027667599 0.78899997 -0.0096836593 4.8802727e-39 340 247
0.029087799 0.79000002 -0.0096959332 1.0504566e-38 341 247
-0.036286984 0.796 -0.011165227 9.8642317e-39 294 248
-0.034803666 0.79400003 -0.011137174 5.807624e-39 295 248
-0.03332736 0.792 -0.011109119 7.5478363e-39 296 248
-0.031858064 0.79000002 -0.011081067 8.5619869e-39 297 248
-0.030434359 0.78899997 -0.011067039 9.1313751e-39 298 248
-0.02905098 0.78899997 -0.011067039 1.5215927e-38 299 248
-0.027527334 0.78500003 -0.011010934 1.4297217e-38 300 248
-0.026084339 0.78299999 -0.010982879 1.0701587e-38 301 248
-0.024648361 0.78100002 -0.010954826 8.6584999e-39 302 248
-0.023279008 0.78100002 -0.010954826 4.7862834e-39 303 248
-0.021909652 0.78100002 -0.010954826 7.9137056e-39 304 248
-0.020513998 0.77999997 -0.010940799 8.0980968e-39 305 248
-0.0191464 0.77999997 -0.010940799 7.8229421e-39 306 248
-0.017778799 0.77999997 -0.010940799 7.6381921e-39 307 248
-0.016369121 0.778 -0.010912746 8.0966493e-39 308 248
-0.015005025 0.778 -0.010912746 8.0044536e-39 309 248
-0.013640933 0.778 -0.010912746 8.0037334e-39 310 248
-0.01221372 0.77399999 -0.01085664 8.0959304e-39 311 248
-0.01085664 0.77399999 -0.01085664 8.0037334e-39 312 248
-0.0094995592 0.77399999 -0.01085664 8.0037334e-39 313 248
-0.0081424797 0.77399999 -0.01085664 7.7282255e-39 314 248
-0.0067853997 0.77399999 -0.01085664 7.6360299e-39 315 248
-0.0054423464 0.77600002 -0.010884693 7.6356739e-39 316 248
-0.0040817601 0.77600002 -0.010884693 7.5434783e-39 317 248
-0.0027211732 0.77600002 -0.010884693 7.3598129e-39 318 248
-0.0013605866 0.77600002 -0.010884693 7.543844e-39 319 248
0 0.77600002 -0.010884693 7.3605318e-39 320 248
0.0013605866 0.77600002 -0.010884693 7.4527274e-39 321 248
0.0027141599 0.77399999 -0.01085664 7.3616066e-39 322 248
0.0040712398 0.77399999 -0.01085664 7.3616066e-39 323 248
0.0054283198 0.77399999 -0.01085664 7.3612506e-39 324 248
0.0067853997 0.77399999 -0.01085664 7.3612506e-39 325 248
0.0081635201 0.77600002 -0.010884693 7.1779384e-39 326 248
0.009524107 0.77600002 -0.010884693 7.1779384e-39 327 248
0.010884693 0.77600002 -0.010884693 7.4538022e-39 328 248
0.01224528 0.77600002 -0.010884693 7.5459992e-39 329 248
0.013640933 0.778 -0.010912746 7.729687e-39 330 248
0.015005025 0.778 -0.010912746 7.4531002e-39 331 248
0.016369121 0.778 -0.010912746 5.4363528e-39 332 248
0.017778799 0.77999997 -0.010940799 1.1060646e-38 333 248
0.0191464 0.77999997 -0.010940799 1.4665299e-38 334 248
0.020513998 0.77999997 -0.010940799 1.4203962e-38 335 248
0.021881599 0.77999997 -0.010940799 1.1807932e-38 336 248
0.023279008 0.78100002 -0.010954826 5.0776498e-39 337 248
0.024711479 0.78299999 -0.010982879 4.2406655e-39 338 248
0.026150968 0.78500003 -0.011010934 5.0707849e-39 339 248
0.027667599 0.78899997 -0.011067039 5.4348786e-39 340 248
0.029087799 0.79000002 -0.011081067 1.1150649e-38 341 248
-0.036286984 0.796 -0.01256088 9.8649506e-39 294 249
-0.034803666 0.79400003 -0.01252932 5.4395618e-39 295 249
-0.033243202 0.79000002 -0.0124662 7.5471091e-39 296 249
-0.031858064 0.79000002 -0.0124662 7.8240561e-39 297 249
-0.030434359 0.78899997 -0.012450419 7.4714936e-39 298 249
-0.02897734 0.787 -0.01241886 1.4662753e-38 299 249
-0.027527334 0.78500003 -0.0123873 1.4205747e-38 300 249
-0.026084339 0.78299999 -0.012355739 1.0794509e-38 301 249
-0.024648361 0.78100002 -0.01232418 8.5706231e-39 302 249
-0.023279008 0.78100002 -0.01232418 4.329264e-39 303 249
-0.021909652 0.78100002 -0.01232418 7.6389165e-39 304 249
-0.020513998 0.77999997 -0.012308398 7.9155034e-39 305 249
-0.0191464 0.77999997 -0.012308398 7.9140587e-39 306 249
-0.017733213 0.778 -0.012276839 7.8218631e-39 307 249
-0.016369121 0.778 -0.012276839 8.0044565e-39 308 249
-0.014966453 0.77600002 -0.01224528 7.9122594e-39 309 249
-0.013605867 0.77600002 -0.01224528 8.0044565e-39 310 249
-0.01221372 0.77399999 -0.01221372 7.9122594e-39 311 249
-0.01085664 0.77399999 -0.01221372 8.0037334e-39 312 249
-0.0094995592 0.77399999 -0.01221372 7.8193421e-39 313 249
-0.0081424797 0.77399999 -0.01221372 7.5441972e-39 314 249
-0.0067853997 0.77399999 -0.01221372 7.360166e-39 315 249
-0.0054283198 0.77399999 -0.01221372 7.2683333e-39 316 249
-0.0040817601 0.77600002 -0.01224528 7.1761377e-39 317 249
-0.0027211732 0.77600002 -0.01224528 7.1761405e-39 318 249
-0.0013605866 0.77600002 -0.01224528 7.2683362e-39 319 249
0 0.77600002 -0.01224528 7.1772223e-39 320 249
0.0013570799 0.77399999 -0.01221372 7.1772223e-39 321 249
0.0027141599 0.77399999 -0.01221372 7.1779412e-39 322 249
0.0040712398 0.77399999 -0.01221372 7.1779412e-39 323 249
0.0054283198 0.77399999 -0.01221372 6.9027934e-39 324 249
0.0067853997 0.77399999 -0.01221372 6.9027934e-39 325 249
0.0081424797 0.77399999 -0.01221372 6.9942702e-39 326 249
0.0094995592 0.77399999 -0.01221372 6.9942702e-39 327 249
0.010884693 0.77600002 -0.01224528 7.270134e-39 328 249
0.01224528 0.77600002 -0.01224528 7.362331e-39 329 249
0.013605867 0.77600002 -0.01224528 7.730759e-39 330 249
0.015005025 0.778 -0.012276839 7.4545323e-39 331 249
0.016369121 0.778 -0.012276839 3.7779077e-39 332 249
0.017778799 0.77999997 -0.012308398 8.9408629e-39 333 249
0.0191464 0.77999997 -0.012308398 1.2732077e-38 334 249
0.020513998 0.77999997 -0.012308398 1.2178904e-38 335 249
0.021881599 0.77999997 -0.012308398 9.2329412e-39 336 249
0.023279008 0.78100002 -0.01232418 3.3324209e-39 337 249
0.024711479 0.78299999 -0.012355739 3.6903784e-39 338 249
0.026150968 0.78500003 -0.0123873 4.059521e-39 339 249
0.027667599 0.78899997 -0.012450419 5.4355947e-39 340 249
0.02993466 0.81300002 -0.01282914 1.3641366e-38 341 249
-0.034715999 0.792 -0.0138864 5.1644028e-39 295 250
-0.033243202 0.79000002 -0.013851333 7.2712298e-39 296 250
-0.031858064 0.79000002 -0.013851333 6.9946429e-39 297 250
-0.030434359 0.78899997 -0.013833799 6.5419843e-39 298 250
-0.02897734 0.787 -0.013798732 1.4931428e-38 299 250
-0.027527334 0.78500003 -0.013763667 1.4756769e-38 300 250
-0.026084339 0.78299999 -0.013728599 1.1622117e-38 301 250
-0.024711479 0.78299999 -0.013728599 8.3887485e-39 302 250
-0.023279008 0.78100002 -0.013693534 3.8711627e-39 303 250
-0.021909652 0.78100002 -0.013693534 7.7307562e-39 304 250
-0.020513998 0.77999997 -0.013675999 7.8233106e-39 305 250
-0.0191464 0.77999997 -0.013675999 7.8225861e-39 306 250
-0.017733213 0.778 -0.013640933 7.7303905e-39 307 250
-0.016369121 0.778 -0.013640933 7.8211442e-39 308 250
-0.014966453 0.77600002 -0.013605867 7.7285884e-39 309 250
-0.013605867 0.77600002 -0.013605867 7.5452762e-39 310 250
-0.01221372 0.77399999 -0.013570799 7.5452762e-39 311 250
-0.01085664 0.77399999 -0.013570799 7.6367487e-39 312 250
-0.0094995592 0.77399999 -0.013570799 7.5445531e-39 313 250
-0.0081424797 0.77399999 -0.013570799 7.3605192e-39 314 250
-0.0067853997 0.77399999 -0.013570799 7.3605192e-39 315 250
-0.0054283198 0.77399999 -0.013570799 7.3605192e-39 316 250
-0.0040817601 0.77600002 -0.013605867 7.2683235e-39 317 250
-0.0027211732 0.77600002 -0.013605867 7.2686893e-39 318 250
-0.0013605866 0.77600002 -0.013605867 7.3608849e-39 319 250
0 0.77600002 -0.013605867 7.0857428e-39 320 250
0.0013570799 0.77399999 -0.013570799 7.1779384e-39 321 250
0.0027141599 0.77399999 -0.013570799 6.9027934e-39 322 250
0.0040712398 0.77399999 -0.013570799 6.9027934e-39 323 250
0.0054283198 0.77399999 -0.013570799 6.719484e-39 324 250
0.0067853997 0.77399999 -0.013570799 6.811681e-39 325 250
0.0081424797 0.77399999 -0.013570799 6.9027934e-39 326 250
0.0094995592 0.77399999 -0.013570799 6.9949905e-39 327 250
0.010884693 0.77600002 -0.013605867 6.9949905e-39 328 250
0.01224528 0.77600002 -0.013605867 7.1797405e-39 329 250
0.013605867 0.77600002 -0.013605867 7.271583e-39 330 250
0.014966453 0.77600002 -0.013605867 7.0871917e-39 331 250
0.016369121 0.778 -0.013640933 3.8697404e-39 332 250
0.017778799 0.77999997 -0.013675999 7.4650098e-39 333 250
0.0191464 0.77999997 -0.013675999 1.190267e-38 334 250
0.020513998 0.77999997 -0.013675999 1.12573e-38 335 250
0.021881599 0.77999997 -0.013675999 8.4053287e-39 336 250
0.023279008 0.78100002 -0.013693534 3.1501778e-39 337 250
0.024648361 0.78100002 -0.013693534 3.4162956e-39 338 250
0.026217593 0.787 -0.013798732 2.4943407e-39 339 250
0.02986102 0.81099999 -0.014219533 1.768754e-38 341 250
-0.034715999 0.792 -0.01527504 7.2834576e-39 295 251
-0.033243202 0.79000002 -0.015236467 6.904227e-39 296 251
-0.031858064 0.79000002 -0.015236467 6.8120299e-39 297 251
-0.030434359 0.78899997 -0.015217179 6.0770377e-39 298 251
-0.02897734 0.787 -0.015178605 1.4098416e-38 299 251
-0.027527334 0.78500003 -0.015140033 1.4113917e-38 300 251
-0.026084339 0.78299999 -0.01510146 1.1716831e-38 301 251
-0.024711479 0.78299999 -0.01510146 8.1146826e-39 302 251
-0.023279008 0.78100002 -0.015062887 3.4127055e-39 303 251
-0.021909652 0.78100002 -0.015062887 7.45597e-39 304 251
-0.020513998 0.77999997 -0.0150436 7.6403627e-39 305 251
-0.0191464 0.77999997 -0.0150436 7.823305e-39 306 251
-0.017733213 0.778 -0.015005025 7.6389137e-39 307 251
-0.016369121 0.778 -0.015005025 7.6374732e-39 308 251
-0.014966453 0.77600002 -0.014966453 7.5452762e-39 309 251
-0.013605867 0.77600002 -0.014966453 7.4537994e-39 310 251
-0.01221372 0.77399999 -0.014927879 7.4537994e-39 311 251
-0.01085664 0.77399999 -0.014927879 7.4530805e-39 312 251
-0.0094995592 0.77399999 -0.014927879 7.4530805e-39 313 251
-0.0081424797 0.77399999 -0.014927879 7.361238e-39 314 251
-0.0067853997 0.77399999 -0.014927879 7.361238e-39 315 251
-0.0054283198 0.77399999 -0.014927879 7.3608821e-39 316 251
-0.0040817601 0.77600002 -0.014966453 7.2686865e-39 317 251
-0.0027211732 0.77600002 -0.014966453 7.0857428e-39 318 251
-0.0013605866 0.77600002 -0.014966453 7.270134e-39 319 251
0 0.77600002 -0.014966453 6.8116782e-39 320 251
0.0013570799 0.77399999 -0.014927879 6.8116782e-39 321 251
0.0027141599 0.77399999 -0.014927879 6.7202042e-39 322 251
0.0040712398 0.77399999 -0.014927879 6.7202042e-39 323 251
0.0054283198 0.77399999 -0.014927879 6.7198483e-39 324 251
0.0067853997 0.77399999 -0.014927879 6.7198483e-39 325 251
0.0081424797 0.77399999 -0.014927879 6.8116782e-39 326 251
0.0094995592 0.77399999 -0.014927879 6.8116782e-39 327 251
0.010884693 0.77600002 -0.014966453 6.9038738e-39 328 251
0.01224528 0.77600002 -0.014966453 6.9038738e-39 329 251
0.013605867 0.77600002 -0.014966453 6.9042424e-39 330 251
0.014966453 0.77600002 -0.014966453 6.8120467e-39 331 251
0.016369121 0.778 -0.015005025 6.0813565e-39 332 251
0.017778799 0.77999997 -0.0150436 8.9397797e-39 333 251
0.0191464 0.77999997 -0.0150436 1.2362206e-38 334 251
0.020513998 0.77999997 -0.0150436 1.208526e-38 335 251
0.021881599 0.77999997 -0.0150436 1.0337121e-38 336 251
0.023279008 0.78100002 -0.015062887 4.6209919e-39 337 251
0.024648361 0.78100002 -0.015062887 3.0518291e-39 338 251
0.026017714 0.78100002 -0.015062887 2.4990154e-39 339 251
-0.034715999 0.792 -0.01666368 9.5901406e-39 295 252
-0.033243202 0.79000002 -0.016621601 6.7209063e-39 296 252
-0.031858064 0.79000002 -0.016621601 6.1677339e-39 297 252
-0.030434359 0.78899997 -0.016600559 5.6146148e-39 298 252
-0.02897734 0.787 -0.01655848 1.3359048e-38 299 252
-0.027527334 0.78500003 -0.016516401 1.3195191e-38 300 252
-0.026084339 0.78299999 -0.01647432 1.1904452e-38 301 252
-0.024711479 0.78299999 -0.01647432 7.9331626e-39 302 252
-0.023279008 0.78100002 -0.016432239 2.8624029e-39 303 252
-0.021909652 0.78100002 -0.016432239 7.4559644e-39 304 252
-0.020513998 0.77999997 -0.016411198 7.6407144e-39 305 252
-0.0191464 0.77999997 -0.016411198 7.5477943e-39 306 252
-0.017733213 0.778 -0.016369121 7.363403e-39 307 252
-0.016369121 0.778 -0.016369121 7.5463496e-39 308 252
-0.014966453 0.77600002 -0.01632704 7.5463496e-39 309 252
-0.013605867 0.77600002 -0.01632704 7.4555833e-39 310 252
-0.01221372 0.77399999 -0.016284959 7.6396144e-39 311 252
-0.01085664 0.77399999 -0.016284959 7.7318002e-39 312 252
-0.0094995592 0.77399999 -0.016284959 7.6396046e-39 313 252
-0.0081424797 0.77399999 -0.016284959 7.3633848e-39 314 252
-0.0067853997 0.77399999 -0.016284959 7.2711878e-39 315 252
-0.0054423464 0.77600002 -0.01632704 7.1790048e-39 316 252
-0.0040817601 0.77600002 -0.01632704 7.1790048e-39 317 252
-0.0027211732 0.77600002 -0.01632704 6.6294379e-39 318 252
-0.0013605866 0.77600002 -0.01632704 6.7216336e-39 319 252
0 0.77600002 -0.01632704 6.7219965e-39 320 252
0.0013570799 0.77399999 -0.016284959 6.7219965e-39 321 252
0.0027141599 0.77399999 -0.016284959 6.4472103e-39 322 252
0.0040712398 0.77399999 -0.016284959 6.1706248e-39 323 252
0.0054283198 0.77399999 -0.016284959 6.5365333e-39 324 252
0.0067853997 0.77399999 -0.016284959 6.6290876e-39 325 252
0.0081424797 0.77399999 -0.016284959 6.629082e-39 326 252
0.0094995592 0.77399999 -0.016284959 6.536885e-39 327 252
0.010884693 0.77600002 -0.01632704 6.6290848e-39 328 252
0.01224528 0.77600002 -0.01632704 6.6290848e-39 329 252
0.013605867 0.77600002 -0.01632704 6.9046081e-39 330 252
0.015005025 0.778 -0.016369121 7.0893581e-39 331 252
0.016369121 0.778 -0.016369121 6.6356247e-39 332 252
0.017778799 0.77999997 -0.016411198 1.0231254e-38 333 252
0.0191464 0.77999997 -0.016411198 1.2363302e-38 334 252
0.020513998 0.77999997 -0.016411198 1.217855e-38 335 252
0.021881599 0.77999997 -0.016411198 1.1349846e-38 336 252
0.023279008 0.78100002 -0.016432239 5.3571304e-39 337 252
0.024648361 0.78100002 -0.016432239 1.7632609e-39 338 252
0.027017111 0.81099999 -0.017063441 5.5432817e-39 339 252
0.028439065 0.81099999 -0.017063441 1.2996376e-38 340 252
-0.03332736 0.792 -0.018052319 7.2798268e-39 296 253
-0.031858064 0.79000002 -0.018006733 4.6983492e-39 297 253
-0.030434359 0.78899997 -0.017983939 4.9688558e-39 298 253
-0.02897734 0.787 -0.017938353 1.289768e-38 299 253
-0.027527334 0.78500003 -0.017892767 1.2826046e-38 300 253
-0.026084339 0.78299999 -0.017847179 1.3102993e-38 301 253
-0.024711479 0.78299999 -0.017847179 8.1200874e-39 302 253
-0.023279008 0.78100002 -0.017801592 2.5887083e-39 303 253
-0.021909652 0.78100002 -0.017801592 6.6287317e-39 304 253
