# .PCD v.7 - Point Cloud Data file format
FIELDS x y z rgb imX imY
SIZE 4 4 4 4 4 4
TYPE F F F F F F
COUNT 1 1 1 1 1 1
WIDTH 850
HEIGHT 1
VIEWPOINT 0 0 0 1 0 0 0
POINTS 850
DATA ascii
-0.010281546 0.73299998 0.024418673 1.6696098e-38 312 221
-0.0089963535 0.73299998 0.024418673 1.6512067e-38 313 221
-0.0077111595 0.73299998 0.024418673 1.6513502e-38 314 221
-0.0064259665 0.73299998 0.024418673 1.6513502e-38 315 221
-0.005140773 0.73299998 0.024418673 1.6605329e-38 316 221
-0.0038555798 0.73299998 0.024418673 1.6881915e-38 317 221
-0.0025703865 0.73299998 0.024418673 1.715706e-38 318 221
-0.0012851933 0.73299998 0.024418673 1.7064505e-38 319 221
0 0.73299998 0.024418673 1.7432202e-38 320 221
0.0012851933 0.73299998 0.024418673 1.7432202e-38 321 221
0.0025738934 0.73400003 0.024451986 1.7156691e-38 322 221
0.0038608401 0.73400003 0.024451986 1.7156691e-38 323 221
0.0051477868 0.73400003 0.024451986 1.6880825e-38 324 221
0.006434733 0.73400003 0.024451986 1.6880825e-38 325 221
0.0077216802 0.73400003 0.024451986 1.6880825e-38 326 221
0.0090086265 0.73400003 0.024451986 1.6880825e-38 327 221
0.010295574 0.73400003 0.024451986 1.7064496e-38 328 221
0.011582521 0.73400003 0.024451986 1.7064496e-38 329 221
0.012869466 0.73400003 0.024451986 1.7064496e-38 330 221
0.014156413 0.73400003 0.024451986 1.7064496e-38 331 221
0.01544336 0.73400003 0.024451986 1.7063777e-38 332 221
0.016775893 0.736 0.024518613 1.7063777e-38 333 221
0.018139986 0.73900002 0.024618553 1.6879744e-38 334 221
0.0194357 0.73900002 0.024618553 1.6879744e-38 335 221
0.020731414 0.73900002 0.024618553 1.6879025e-38 336 221
0.02208674 0.741 0.024685178 1.6879025e-38 337 221
0.023385961 0.741 0.024685178 1.7154539e-38 338 221
0.024685178 0.741 0.024685178 1.6048193e-38 339 221
0.025984399 0.741 0.024685178 1.0702662e-38 340 221
0.027283618 0.741 0.024685178 2.5685801e-42 341 221
0.02869856 0.74400002 0.02478512 9.0467829e-42 342 221
0.03008369 0.74599999 0.024851745 1.577813e-39 343 221
0.031391677 0.74599999 0.024851745 2.0358989e-39 344 221
0.032699663 0.74599999 0.024851745 1.9437033e-39 345 221
0.034053236 0.74699998 0.024885058 1.9437033e-39 346 221
0.03531564 0.74599999 0.024851745 1.9437033e-39 347 221
0.036623627 0.74599999 0.024851745 2.5869077e-39 348 221
0.03793161 0.74599999 0.024851745 1.9415383e-39 349 221
-0.041911677 0.74699998 0.023575317 2.9520804e-39 288 222
-0.040601939 0.74699998 0.023575317 1.6412284e-38 289 222
-0.039292198 0.74699998 0.023575317 1.7982133e-38 290 222
-0.03798246 0.74699998 0.023575317 1.8074329e-38 291 222
-0.036623627 0.74599999 0.023543758 1.7616596e-38 292 222
-0.03531564 0.74599999 0.023543758 1.7524042e-38 293 222
-0.034007654 0.74599999 0.023543758 1.761624e-38 294 222
-0.032612 0.74400002 0.023480639 1.7892827e-38 295 222
-0.031223357 0.74199998 0.023417519 1.7985023e-38 296 222
-0.029922385 0.74199998 0.023417519 1.8169414e-38 297 222
-0.028582839 0.741 0.023385961 1.7985746e-38 298 222
-0.027283618 0.741 0.023385961 1.789355e-38 299 222
-0.025984399 0.741 0.023385961 1.8077221e-38 300 222
-0.024685178 0.741 0.023385961 1.7984667e-38 301 222
-0.023385961 0.741 0.023385961 1.7709878e-38 302 222
-0.021997318 0.73799998 0.023291279 1.7709878e-38 303 222
-0.020703359 0.73799998 0.023291279 1.7709159e-38 304 222
-0.019356798 0.736 0.023228159 1.7616963e-38 305 222
-0.018066347 0.736 0.023228159 1.7433651e-38 306 222
-0.016775893 0.736 0.023228159 1.7341095e-38 307 222
-0.015485439 0.736 0.023228159 1.7340379e-38 308 222
-0.014194986 0.736 0.023228159 1.7340379e-38 309 222
-0.012904533 0.736 0.023228159 1.7065234e-38 310 222
-0.011582521 0.73400003 0.023165042 1.7065234e-38 311 222
-0.010281546 0.73299998 0.023133477 1.7431498e-38 312 222
-0.0089963535 0.73299998 0.023133477 1.6693933e-38 313 222
-0.0077111595 0.73299998 0.023133477 1.5410032e-38 314 222
-0.0064259665 0.73299998 0.023133477 1.5686618e-38 315 222
-0.005140773 0.73299998 0.023133477 1.6237638e-38 316 222
-0.0038555798 0.73299998 0.023133477 1.6514584e-38 317 222
-0.0025703865 0.73299998 0.023133477 1.7156707e-38 318 222
-0.0012851933 0.73299998 0.023133477 1.7156707e-38 319 222
0 0.73299998 0.023133477 1.7339653e-38 320 222
0.0012851933 0.73299998 0.023133477 1.7247458e-38 321 222
0.0025703865 0.73299998 0.023133477 1.7064142e-38 322 222
0.0038608401 0.73400003 0.023165042 1.7064142e-38 323 222
0.0051477868 0.73400003 0.023165042 1.688083e-38 324 222
0.006434733 0.73400003 0.023165042 1.688083e-38 325 222
0.0077216802 0.73400003 0.023165042 1.7064142e-38 326 222
0.0090086265 0.73400003 0.023165042 1.6971947e-38 327 222
0.010295574 0.73400003 0.023165042 1.7063421e-38 328 222
0.011582521 0.73400003 0.023165042 1.7063421e-38 329 222
0.012869466 0.73400003 0.023165042 1.6971944e-38 330 222
0.014156413 0.73400003 0.023165042 1.6971944e-38 331 222
0.01544336 0.73400003 0.023165042 1.6971944e-38 332 222
0.016775893 0.736 0.023228159 1.6879747e-38 333 222
0.018115439 0.73799998 0.023291279 1.6971944e-38 334 222
0.0194357 0.73900002 0.023322839 1.6695716e-38 335 222
0.020731414 0.73900002 0.023322839 1.6879747e-38 336 222
0.022027127 0.73900002 0.023322839 1.6695716e-38 337 222
0.023322839 0.73900002 0.023322839 1.6879044e-38 338 222
0.024618553 0.73900002 0.023322839 1.5588306e-38 339 222
0.025984399 0.741 0.023385961 1.0150581e-38 340 222
0.027283618 0.741 0.023385961 3.6587903e-42 341 222
0.028621411 0.74199998 0.023417519 9.4125218e-42 342 222
0.030003037 0.74400002 0.023480639 1.4863433e-39 343 222
0.031307522 0.74400002 0.023480639 1.7607567e-39 344 222
0.032699663 0.74599999 0.023543758 1.6685611e-39 345 222
0.034007654 0.74599999 0.023543758 1.9437033e-39 346 222
0.03531564 0.74599999 0.023543758 1.9437033e-39 347 222
0.036525439 0.74400002 0.023480639 2.494712e-39 348 222
0.037829921 0.74400002 0.023480639 2.2181251e-39 349 222
-0.041911677 0.74699998 0.022265578 3.1371948e-39 288 223
-0.040601939 0.74699998 0.022265578 1.6505201e-38 289 223
-0.039292198 0.74699998 0.022265578 1.7891382e-38 290 223
-0.03798246 0.74699998 0.022265578 1.7891382e-38 291 223
-0.036623627 0.74599999 0.022235774 1.7524044e-38 292 223
-0.03531564 0.74599999 0.022235774 1.7524044e-38 293 223
-0.033916477 0.74400002 0.022176161 1.7616963e-38 294 223
-0.032524332 0.74199998 0.022116546 1.7709159e-38 295 223
-0.031223357 0.74199998 0.022116546 1.7801354e-38 296 223
-0.029922385 0.74199998 0.022116546 1.789355e-38 297 223
-0.028582839 0.741 0.02208674 1.7893553e-38 298 223
-0.027283618 0.741 0.02208674 1.7801357e-38 299 223
-0.025984399 0.741 0.02208674 1.7708806e-38 300 223
-0.024685178 0.741 0.02208674 1.7708806e-38 301 223
-0.023322839 0.73900002 0.022027127 1.7434017e-38 302 223
-0.021997318 0.73799998 0.021997318 1.7341821e-38 303 223
-0.020703359 0.73799998 0.021997318 1.7341818e-38 304 223
-0.019356798 0.736 0.021937706 1.7341818e-38 305 223
-0.018066347 0.736 0.021937706 1.7157786e-38 306 223
-0.016775893 0.736 0.021937706 1.706559e-38 307 223
-0.015485439 0.736 0.021937706 1.7156354e-38 308 223
-0.014194986 0.736 0.021937706 1.7248549e-38 309 223
-0.012904533 0.736 0.021937706 1.7433298e-38 310 223
-0.011582521 0.73400003 0.021878093 1.7341101e-38 311 223
-0.010281546 0.73299998 0.021848286 1.7061268e-38 312 223
-0.0089963535 0.73299998 0.021848286 1.3834421e-38 313 223
-0.0077111595 0.73299998 0.021848286 9.7050526e-39 314 223
-0.0064259665 0.73299998 0.021848286 1.1641161e-38 315 223
-0.005140773 0.73299998 0.021848286 1.4857954e-38 316 223
-0.0038555798 0.73299998 0.021848286 1.5871745e-38 317 223
-0.0025703865 0.73299998 0.021848286 1.6790092e-38 318 223
-0.0012869467 0.73400003 0.021878093 1.6697896e-38 319 223
0 0.73299998 0.021848286 1.6880121e-38 320 223
0.0012851933 0.73299998 0.021848286 1.6787926e-38 321 223
0.0025703865 0.73299998 0.021848286 1.6788281e-38 322 223
0.0038555798 0.73299998 0.021848286 1.6788281e-38 323 223
0.005140773 0.73299998 0.021848286 1.6513134e-38 324 223
0.0064259665 0.73299998 0.021848286 1.6513134e-38 325 223
0.0077111595 0.73299998 0.021848286 1.6788279e-38 326 223
0.0089963535 0.73299998 0.021848286 1.6788279e-38 327 223
0.010281546 0.73299998 0.021848286 1.6879391e-38 328 223
0.011566739 0.73299998 0.021848286 1.6971947e-38 329 223
0.012851933 0.73299998 0.021848286 1.6788632e-38 330 223
0.014156413 0.73400003 0.021878093 1.6788632e-38 331 223
0.01544336 0.73400003 0.021878093 1.6788632e-38 332 223
0.016730307 0.73400003 0.021878093 1.6788632e-38 333 223
0.018115439 0.73799998 0.021997318 1.6788632e-38 334 223
0.019409399 0.73799998 0.021997318 1.6511685e-38 335 223
0.020731414 0.73900002 0.022027127 1.6235105e-38 336 223
0.022027127 0.73900002 0.022027127 1.5958517e-38 337 223
0.023322839 0.73900002 0.022027127 1.513165e-38 338 223
0.024618553 0.73900002 0.022027127 1.2365422e-38 339 223
0.025984399 0.741 0.02208674 5.5555276e-39 340 223
0.027283618 0.741 0.02208674 6.5020249e-42 341 223
0.028621411 0.74199998 0.022116546 9.7530373e-42 342 223
0.030003037 0.74400002 0.022176161 1.3948483e-39 343 223
0.031307522 0.74400002 0.022176161 1.6685639e-39 344 223
0.032699663 0.74599999 0.022235774 1.6685639e-39 345 223
0.034007654 0.74599999 0.022235774 1.851509e-39 346 223
0.03531564 0.74599999 0.022235774 1.851509e-39 347 223
0.036525439 0.74400002 0.022176161 2.4025164e-39 348 223
0.037829921 0.74400002 0.022176161 2.494712e-39 349 223
-0.041911677 0.74699998 0.020955838 2.9546112e-39 288 224
-0.040601939 0.74699998 0.020955838 1.6046391e-38 289 224
-0.039239597 0.74599999 0.020927785 1.761624e-38 290 224
-0.03793161 0.74599999 0.020927785 1.7524044e-38 291 224
-0.036525439 0.74400002 0.02087168 1.7248899e-38 292 224
-0.035220962 0.74400002 0.02087168 1.7248899e-38 293 224
-0.033916477 0.74400002 0.02087168 1.7433651e-38 294 224
-0.032524332 0.74199998 0.020815572 1.7433651e-38 295 224
-0.031223357 0.74199998 0.020815572 1.7709162e-38 296 224
-0.029882059 0.741 0.020787518 1.7709162e-38 297 224
-0.028582839 0.741 0.020787518 1.7708806e-38 298 224
-0.027283618 0.741 0.020787518 1.761661e-38 299 224
-0.025984399 0.741 0.020787518 1.7432942e-38 300 224
-0.024685178 0.741 0.020787518 1.7340745e-38 301 224
-0.023322839 0.73900002 0.020731414 1.7157788e-38 302 224
-0.021997318 0.73799998 0.020703359 1.7065234e-38 303 224
-0.020703359 0.73799998 0.020703359 1.7341098e-38 304 224
-0.019356798 0.736 0.020647252 1.7248902e-38 305 224
-0.018066347 0.736 0.020647252 1.7156351e-38 306 224
-0.016775893 0.736 0.020647252 1.7156351e-38 307 224
-0.015485439 0.736 0.020647252 1.7340026e-38 308 224
-0.014194986 0.736 0.020647252 1.7616613e-38 309 224
-0.012904533 0.736 0.020647252 1.7892108e-38 310 224
-0.011582521 0.73400003 0.020591147 1.6785761e-38 311 224
-0.010281546 0.73299998 0.020563092 1.4755639e-38 312 224
-0.0089963535 0.73299998 0.020563092 8.1175538e-39 313 224
-0.0077111595 0.73299998 0.020563092 1.5061086e-39 314 224
-0.0064259665 0.73299998 0.020563092 6.3921168e-39 315 224
-0.005140773 0.73299998 0.020563092 1.2186091e-38 316 224
-0.0038555798 0.73299998 0.020563092 1.4583177e-38 317 224
-0.0025703865 0.73299998 0.020563092 1.6330205e-38 318 224
-0.0012869467 0.73400003 0.020591147 1.6514597e-38 319 224
0 0.73299998 0.020563092 1.6512063e-38 320 224
0.0012851933 0.73299998 0.020563092 1.6327672e-38 321 224
0.0025703865 0.73299998 0.020563092 1.6328025e-38 322 224
0.0038555798 0.73299998 0.020563092 1.6420221e-38 323 224
0.005140773 0.73299998 0.020563092 1.6328741e-38 324 224
0.0064259665 0.73299998 0.020563092 1.6420937e-38 325 224
0.0077111595 0.73299998 0.020563092 1.6512769e-38 326 224
0.0089963535 0.73299998 0.020563092 1.6696802e-38 327 224
0.010281546 0.73299998 0.020563092 1.6788276e-38 328 224
0.011566739 0.73299998 0.020563092 1.6788276e-38 329 224
0.012851933 0.73299998 0.020563092 1.6788276e-38 330 224
0.014137126 0.73299998 0.020563092 1.6696079e-38 331 224
0.01544336 0.73400003 0.020591147 1.6879747e-38 332 224
0.016730307 0.73400003 0.020591147 1.706414e-38 333 224
0.018017253 0.73400003 0.020591147 1.6511685e-38 334 224
0.019409399 0.73799998 0.020703359 1.6143262e-38 335 224
0.020731414 0.73900002 0.020731414 1.5407142e-38 336 224
0.022027127 0.73900002 0.020731414 1.5037999e-38 337 224
0.023322839 0.73900002 0.020731414 1.4026722e-38 338 224
0.024618553 0.73900002 0.020731414 1.1906222e-38 339 224
0.025914267 0.73900002 0.020731414 6.2872857e-39 340 224
0.027283618 0.741 0.020787518 8.2592531e-42 341 224
0.028582839 0.741 0.020787518 7.5628078e-42 342 224
0.029922385 0.74199998 0.020815572 1.5770493e-39 343 224
0.031307522 0.74400002 0.02087168 1.6674891e-39 344 224
0.032612 0.74400002 0.02087168 1.6674891e-39 345 224
0.033916477 0.74400002 0.02087168 1.9429858e-39 346 224
0.035220962 0.74400002 0.02087168 1.9429858e-39 347 224
0.036525439 0.74400002 0.02087168 2.2188454e-39 348 224
0.037829921 0.74400002 0.02087168 2.4035954e-39 349 224
-0.041911677 0.74699998 0.019646099 2.7698542e-39 288 225
-0.040601939 0.74699998 0.019646099 1.5584687e-38 289 225
-0.039239597 0.74599999 0.019619798 1.7064511e-38 290 225
-0.03793161 0.74599999 0.019619798 1.7248902e-38 291 225
-0.036525439 0.74400002 0.019567199 1.7248183e-38 292 225
-0.035220962 0.74400002 0.019567199 1.7340379e-38 293 225
-0.033825304 0.74199998 0.0195146 1.7524766e-38 294 225
-0.032524332 0.74199998 0.0195146 1.7709159e-38 295 225
-0.031223357 0.74199998 0.0195146 1.7616963e-38 296 225
-0.029882059 0.741 0.019488299 1.7709159e-38 297 225
-0.028582839 0.741 0.019488299 1.7433295e-38 298 225
-0.027283618 0.741 0.019488299 1.7433295e-38 299 225
-0.025984399 0.741 0.019488299 1.7157788e-38 300 225
-0.024685178 0.741 0.019488299 1.7157788e-38 301 225
-0.023322839 0.73900002 0.0194357 1.7248549e-38 302 225
-0.021997318 0.73799998 0.019409399 1.7248549e-38 303 225
-0.020703359 0.73799998 0.019409399 1.7248549e-38 304 225
-0.019356798 0.736 0.019356798 1.7064158e-38 305 225
-0.018066347 0.736 0.019356798 1.6788291e-38 306 225
-0.016775893 0.736 0.019356798 1.6973041e-38 307 225
-0.015485439 0.736 0.019356798 1.7431143e-38 308 225
-0.014194986 0.736 0.019356798 1.6417351e-38 309 225
-0.012904533 0.736 0.019356798 1.4660941e-38 310 225
-0.011582521 0.73400003 0.019304199 8.0228555e-39 311 225
-0.010295574 0.73400003 0.019304199 3.5063206e-39 312 225
-0.0090086265 0.73400003 0.019304199 8.3264734e-40 313 225
-0.0077111595 0.73299998 0.019277899 1.1194973e-41 314 225
-0.0064259665 0.73299998 0.019277899 1.121504e-39 315 225
-0.005140773 0.73299998 0.019277899 1.5944114e-39 316 225
-0.0038608401 0.73400003 0.019304199 5.2825967e-39 317 225
-0.0025738934 0.73400003 0.019304199 1.1267384e-38 318 225
-0.0012869467 0.73400003 0.019304199 1.3571915e-38 319 225
0 0.73400003 0.019304199 1.596178e-38 320 225
0.0012851933 0.73299998 0.019277899 1.596178e-38 321 225
0.0025703865 0.73299998 0.019277899 1.6420586e-38 322 225
0.0038555798 0.73299998 0.019277899 1.6420586e-38 323 225
0.005140773 0.73299998 0.019277899 1.6420218e-38 324 225
0.0064259665 0.73299998 0.019277899 1.6512413e-38 325 225
0.0077111595 0.73299998 0.019277899 1.651349e-38 326 225
0.0089963535 0.73299998 0.019277899 1.651349e-38 327 225
0.010281546 0.73299998 0.019277899 1.6696079e-38 328 225
0.011566739 0.73299998 0.019277899 1.6788276e-38 329 225
0.012851933 0.73299998 0.019277899 1.7064142e-38 330 225
0.014137126 0.73299998 0.019277899 1.6971947e-38 331 225
0.01544336 0.73400003 0.019304199 1.6603883e-38 332 225
0.016730307 0.73400003 0.019304199 1.6050709e-38 333 225
0.018017253 0.73400003 0.019304199 1.4946886e-38 334 225
0.019409399 0.73799998 0.019409399 1.4577744e-38 335 225
0.020703359 0.73799998 0.019409399 1.402602e-38 336 225
0.022027127 0.73900002 0.0194357 1.4118574e-38 337 225
0.023322839 0.73900002 0.0194357 1.5037637e-38 338 225
0.024618553 0.73900002 0.0194357 1.5683006e-38 339 225
0.025914267 0.73900002 0.0194357 1.4473252e-38 340 225
0.027283618 0.741 0.019488299 6.4518738e-39 341 225
0.028582839 0.741 0.019488299 1.1120705e-41 342 225
0.029922385 0.74199998 0.0195146 9.3270426e-42 343 225
0.031223357 0.74199998 0.0195146 6.5726783e-40 344 225
0.032612 0.74400002 0.019567199 1.2104402e-39 345 225
0.033916477 0.74400002 0.019567199 1.9429858e-39 346 225
0.035220962 0.74400002 0.019567199 1.9429858e-39 347 225
0.036525439 0.74400002 0.019567199 2.3113998e-39 348 225
-0.041911677 0.74699998 0.018336359 2.4918226e-39 288 226
-0.040601939 0.74699998 0.018336359 1.5214818e-38 289 226
-0.039239597 0.74599999 0.018311813 1.5592622e-38 290 226
-0.03793161 0.74599999 0.018311813 1.6145795e-38 291 226
-0.036525439 0.74400002 0.01826272 1.6881209e-38 292 226
-0.03512628 0.74199998 0.018213626 1.7158156e-38 293 226
-0.033825304 0.74199998 0.018213626 1.7065953e-38 294 226
-0.032524332 0.74199998 0.018213626 1.6973757e-38 295 226
-0.031223357 0.74199998 0.018213626 1.7157788e-38 296 226
-0.029882059 0.741 0.018189078 1.7157788e-38 297 226
-0.028582839 0.741 0.018189078 1.7341821e-38 298 226
-0.027283618 0.741 0.018189078 1.7157788e-38 299 226
-0.025984399 0.741 0.018189078 1.706524e-38 300 226
-0.024685178 0.741 0.018189078 1.6972685e-38 301 226
-0.023322839 0.73900002 0.018139986 1.6972688e-38 302 226
-0.022027127 0.73900002 0.018139986 1.6880493e-38 303 226
-0.020647252 0.736 0.018066347 1.6604985e-38 304 226
-0.019356798 0.736 0.018066347 1.669718e-38 305 226
-0.018066347 0.736 0.018066347 1.7248905e-38 306 226
-0.016775893 0.736 0.018066347 1.7248905e-38 307 226
-0.015485439 0.736 0.018066347 1.7062325e-38 308 226
-0.014156413 0.73400003 0.018017253 1.4573043e-38 309 226
-0.012869466 0.73400003 0.018017253 9.6873781e-39 310 226
-0.011582521 0.73400003 0.018017253 8.365976e-40 311 226
-0.010281546 0.73299998 0.017992707 0 312 226
-0.0089963535 0.73299998 0.017992707 1.2611686e-44 313 226
-0.0077111595 0.73299998 0.017992707 5.0811082e-42 314 226
-0.0064259665 0.73299998 0.017992707 3.2804397e-42 315 226
-0.005140773 0.73299998 0.017992707 2.6008099e-42 316 226
-0.0038608401 0.73400003 0.018017253 5.622584e-40 317 226
-0.0025738934 0.73400003 0.018017253 4.0808039e-39 318 226
-0.0012869467 0.73400003 0.018017253 8.9675325e-39 319 226
0 0.73299998 0.017992707 1.375234e-38 320 226
0.0012851933 0.73299998 0.017992707 1.5135275e-38 321 226
0.0025703865 0.73299998 0.017992707 1.6513155e-38 322 226
0.0038555798 0.73299998 0.017992707 1.6236569e-38 323 226
0.005140773 0.73299998 0.017992707 1.6328388e-38 324 226
0.0064259665 0.73299998 0.017992707 1.6420584e-38 325 226
0.0077111595 0.73299998 0.017992707 1.6237624e-38 326 226
0.0089963535 0.73299998 0.017992707 1.6237624e-38 327 226
0.010281546 0.73299998 0.017992707 1.6512769e-38 328 226
0.011566739 0.73299998 0.017992707 1.6420574e-38 329 226
0.012851933 0.73299998 0.017992707 1.6512413e-38 330 226
0.014137126 0.73299998 0.017992707 1.6235827e-38 331 226
0.01544336 0.73400003 0.018017253 1.5407511e-38 332 226
0.016730307 0.73400003 0.018017253 1.5223119e-38 333 226
0.018017253 0.73400003 0.018017253 1.430153e-38 334 226
0.019409399 0.73799998 0.018115439 1.3933106e-38 335 226
0.020703359 0.73799998 0.018115439 1.4208984e-38 336 226
0.022027127 0.73900002 0.018139986 1.4393376e-38 337 226
0.023322839 0.73900002 0.018139986 1.513165e-38 338 226
0.024618553 0.73900002 0.018139986 1.596141e-38 339 226
0.025914267 0.73900002 0.018139986 1.6966161e-38 340 226
0.027209979 0.73900002 0.018139986 1.171101e-38 341 226
0.028582839 0.741 0.018189078 6.4547311e-39 342 226
0.029882059 0.741 0.018189078 1.8449608e-39 343 226
0.03118128 0.741 0.018189078 9.3508647e-42 344 226
0.032524332 0.74199998 0.018213626 1.3926454e-39 345 226
0.034007654 0.74599999 0.018311813 2.0341024e-39 346 226
-0.04185557 0.74599999 0.017003827 3.8779996e-39 288 227
-0.040547583 0.74599999 0.017003827 1.4203551e-38 289 227
-0.039239597 0.74599999 0.017003827 1.3843429e-38 290 227
-0.037829921 0.74400002 0.016958239 1.4211851e-38 291 227
-0.036427252 0.74199998 0.016912652 1.5133096e-38 292 227
-0.03512628 0.74199998 0.016912652 1.6054692e-38 293 227
-0.033825304 0.74199998 0.016912652 1.6973404e-38 294 227
-0.032524332 0.74199998 0.016912652 1.6973404e-38 295 227
-0.03118128 0.741 0.016889861 1.6881562e-38 296 227
-0.029882059 0.741 0.016889861 1.7065953e-38 297 227
-0.028582839 0.741 0.016889861 1.7065237e-38 298 227
-0.027209979 0.73900002 0.016844273 1.7065237e-38 299 227
-0.025914267 0.73900002 0.016844273 1.6972685e-38 300 227
-0.024685178 0.741 0.016889861 1.6972685e-38 301 227
-0.023322839 0.73900002 0.016844273 1.6880493e-38 302 227
-0.021997318 0.73799998 0.016821479 1.6788297e-38 303 227
-0.020647252 0.736 0.016775893 1.6604982e-38 304 227
-0.019356798 0.736 0.016775893 1.6881209e-38 305 227
-0.018066347 0.736 0.016775893 1.7248181e-38 306 227
-0.016775893 0.736 0.016775893 1.4574507e-38 307 227
-0.01544336 0.73400003 0.016730307 9.5869358e-39 308 227
-0.014156413 0.73400003 0.016730307 2.7648179e-39 309 227
-0.012869466 0.73400003 0.016730307 1.8367379e-40 310 227
-0.011582521 0.73400003 0.016730307 7.3469378e-40 311 227
-0.010281546 0.73299998 0.016707512 1.5677139e-39 312 227
-0.0089963535 0.73299998 0.016707512 2.3974745e-39 313 227
-0.0077111595 0.73299998 0.016707512 2.487522e-39 314 227
-0.0064259665 0.73299998 0.016707512 2.2112952e-39 315 227
-0.0051477868 0.73400003 0.016730307 5.0937199e-42 316 227
-0.0038608401 0.73400003 0.016730307 1.4923829e-42 317 227
-0.0025703865 0.73299998 0.016707512 8.8281803e-44 318 227
-0.0012851933 0.73299998 0.016707512 1.7539829e-39 319 227
0 0.73299998 0.016707512 4.0400836e-41 320 227
0.0012851933 0.73299998 0.016707512 5.2055169e-39 321 227
0.0025703865 0.73299998 0.016707512 1.4855451e-38 322 227
0.0038555798 0.73299998 0.016707512 1.6053991e-38 323 227
0.005140773 0.73299998 0.016707512 1.6881209e-38 324 227
0.0064259665 0.73299998 0.016707512 1.6512786e-38 325 227
0.0077111595 0.73299998 0.016707512 1.6513137e-38 326 227
0.0089963535 0.73299998 0.016707512 1.6420939e-38 327 227
0.010281546 0.73299998 0.016707512 1.6143631e-38 328 227
0.011566739 0.73299998 0.016707512 1.5867044e-38 329 227
0.012851933 0.73299998 0.016707512 1.5314596e-38 330 227
0.014137126 0.73299998 0.016707512 1.4669227e-38 331 227
0.01544336 0.73400003 0.016730307 1.3933469e-38 332 227
0.016730307 0.73400003 0.016730307 1.4118221e-38 333 227
0.018017253 0.73400003 0.016730307 1.5036583e-38 334 227
0.019356798 0.736 0.016775893 1.4944387e-38 335 227
0.020703359 0.73799998 0.016821479 1.439445e-38 336 227
0.021997318 0.73799998 0.016821479 1.4486646e-38 337 227
0.023322839 0.73900002 0.016844273 1.4395527e-38 338 227
0.024618553 0.73900002 0.016844273 1.4395527e-38 339 227
0.025914267 0.73900002 0.016844273 1.4854687e-38 340 227
0.027209979 0.73900002 0.016844273 1.4946883e-38 341 227
0.028582839 0.741 0.016889861 1.4287433e-38 342 227
0.029882059 0.741 0.016889861 8.6634983e-39 343 227
0.03118128 0.741 0.016889861 1.4815775e-39 344 227
0.032524332 0.74199998 0.016912652 9.8292679e-41 345 227
-0.043221418 0.74699998 0.015716879 4.2446367e-39 287 228
-0.04185557 0.74599999 0.015695838 1.2803356e-38 288 228
-0.040547583 0.74599999 0.015695838 1.8888626e-38 289 228
-0.039239597 0.74599999 0.015695838 1.4672097e-38 290 228
-0.037829921 0.74400002 0.015653761 1.4395151e-38 291 228
-0.036427252 0.74199998 0.015611678 1.4578126e-38 292 228
-0.03512628 0.74199998 0.015611678 1.5131299e-38 293 228
-0.033825304 0.74199998 0.015611678 1.5408606e-38 294 228
-0.032524332 0.74199998 0.015611678 1.5777388e-38 295 228
-0.03118128 0.741 0.01559064 1.6053973e-38 296 228
-0.029882059 0.741 0.01559064 1.6422754e-38 297 228
-0.028582839 0.741 0.01559064 1.7064884e-38 298 228
-0.027209979 0.73900002 0.01554856 1.6972688e-38 299 228
-0.025914267 0.73900002 0.01554856 1.6972688e-38 300 228
-0.024618553 0.73900002 0.01554856 1.6880493e-38 301 228
-0.023291279 0.73799998 0.015527519 1.6604985e-38 302 228
-0.021997318 0.73799998 0.015527519 1.6604985e-38 303 228
-0.020647252 0.736 0.015485439 1.6880477e-38 304 228
-0.019356798 0.736 0.015485439 1.6511334e-38 305 228
-0.018066347 0.736 0.015485439 1.5027184e-38 306 228
-0.016730307 0.73400003 0.01544336 9.8642289e-39 307 228
-0.01544336 0.73400003 0.01544336 1.3000953e-39 308 228
-0.014156413 0.73400003 0.01544336 1.4349296e-42 309 228
-0.012869466 0.73400003 0.01544336 1.821688e-44 310 228
-0.011582521 0.73400003 0.01544336 7.3975106e-40 311 228
-0.010281546 0.73299998 0.015422319 1.3854932e-39 312 228
-0.0089963535 0.73299998 0.015422319 1.3854932e-39 313 228
-0.0077111595 0.73299998 0.015422319 1.2932976e-39 314 228
-0.0064259665 0.73299998 0.015422319 1.2932976e-39 315 228
-0.005140773 0.73299998 0.015422319 1.0177897e-39 316 228
-0.0038608401 0.73400003 0.01544336 2.8022466e-40 317 228
-0.0025703865 0.73299998 0.015422319 4.6242849e-44 318 228
-0.0012851933 0.73299998 0.015422319 4.2038954e-44 319 228
0 0.73299998 0.015422319 1.0883885e-41 320 228
0.0012851933 0.73299998 0.015422319 2.322257e-39 321 228
0.0025703865 0.73299998 0.015422319 7.8547193e-39 322 228
0.0038555798 0.73299998 0.015422319 1.1726936e-38 323 228
0.0051267464 0.73100001 0.01538024 1.4947997e-38 324 228
0.006408433 0.73100001 0.01538024 1.5685562e-38 325 228
0.00769012 0.73100001 0.01538024 1.605253e-38 326 228
0.0089963535 0.73299998 0.015422319 1.5499356e-38 327 228
0.010281546 0.73299998 0.015422319 1.4672108e-38 328 228
0.011566739 0.73299998 0.015422319 1.4672108e-38 329 228
0.012851933 0.73299998 0.015422319 1.4671392e-38 330 228
0.014137126 0.73299998 0.015422319 1.4118218e-38 331 228
0.01544336 0.73400003 0.01544336 1.4392657e-38 332 228
0.016730307 0.73400003 0.01544336 1.4577047e-38 333 228
0.018017253 0.73400003 0.01544336 1.4485574e-38 334 228
0.019356798 0.736 0.015485439 1.457777e-38 335 228
0.020647252 0.736 0.015485439 1.4303334e-38 336 228
0.021937706 0.736 0.015485439 1.4211138e-38 337 228
0.023291279 0.73799998 0.015527519 1.4211138e-38 338 228
0.024585238 0.73799998 0.015527519 1.4118584e-38 339 228
0.025914267 0.73900002 0.01554856 1.4118221e-38 340 228
0.027209979 0.73900002 0.01554856 1.4855786e-38 341 228
0.028582839 0.741 0.01559064 1.5861987e-38 342 228
0.029882059 0.741 0.01559064 1.2542944e-38 343 228
0.03118128 0.741 0.01559064 8.8464392e-39 344 228
0.032524332 0.74199998 0.015611678 3.4990927e-39 345 228
-0.043221418 0.74699998 0.014407139 1.5201871e-38 287 229
-0.041911677 0.74699998 0.014407139 1.5861281e-38 288 229
-0.040547583 0.74599999 0.014387853 1.8074334e-38 289 229
-0.039239597 0.74599999 0.014387853 1.6145076e-38 290 229
-0.037829921 0.74400002 0.01434928 1.5499706e-38 291 229
-0.036427252 0.74199998 0.014310705 1.4946181e-38 292 229
-0.03512628 0.74199998 0.014310705 1.4393366e-38 293 229
-0.033825304 0.74199998 0.014310705 1.3843076e-38 294 229
-0.032524332 0.74199998 0.014310705 1.4211857e-38 295 229
-0.03118128 0.741 0.01429142 1.4672839e-38 296 229
-0.029882059 0.741 0.01429142 1.550224e-38 297 229
-0.028582839 0.741 0.01429142 1.6513155e-38 298 229
-0.027209979 0.73900002 0.014252847 1.660535e-38 299 229
-0.025914267 0.73900002 0.014252847 1.6880137e-38 300 229
-0.024618553 0.73900002 0.014252847 1.6880137e-38 301 229
-0.023291279 0.73799998 0.014233559 1.6973041e-38 302 229
-0.021937706 0.736 0.014194986 1.6973041e-38 303 229
-0.020647252 0.736 0.014194986 1.614111e-38 304 229
-0.019356798 0.736 0.014194986 1.3283045e-38 305 229
-0.018066347 0.736 0.014194986 6.2614317e-39 306 229
-0.016730307 0.73400003 0.014156413 6.428793e-40 307 229
-0.01544336 0.73400003 0.014156413 1.5414283e-44 308 229
-0.014156413 0.73400003 0.014156413 5.5176688e-40 309 229
-0.012869466 0.73400003 0.014156413 9.2629752e-40 310 229
-0.011582521 0.73400003 0.014156413 1.2025243e-39 311 229
-0.010281546 0.73299998 0.014137126 1.0181372e-39 312 229
-0.0089963535 0.73299998 0.014137126 1.0181372e-39 313 229
-0.0077111595 0.73299998 0.014137126 9.2594159e-40 314 229
-0.0064259665 0.73299998 0.014137126 1.0181372e-39 315 229
-0.005140773 0.73299998 0.014137126 1.01814e-39 316 229
-0.0038555798 0.73299998 0.014137126 1.2021711e-39 317 229
-0.0025703865 0.73299998 0.014137126 1.5680866e-39 318 229
-0.0012816866 0.73100001 0.014098554 9.227172e-40 319 229
0 0.73100001 0.014098554 6.0255834e-44 320 229
0.0012851933 0.73299998 0.014137126 7.8192454e-43 321 229
0.0025703865 0.73299998 0.014137126 8.7342933e-42 322 229
0.0038555798 0.73299998 0.014137126 3.7030419e-39 323 229
0.0051267464 0.73100001 0.014098554 8.4118532e-39 324 229
0.006408433 0.73100001 0.014098554 1.2007483e-38 325 229
0.00769012 0.73100001 0.014098554 1.476325e-38 326 229
0.0089963535 0.73299998 0.014137126 1.411788e-38 327 229
0.010281546 0.73299998 0.014137126 1.3199504e-38 328 229
0.011566739 0.73299998 0.014137126 1.3752678e-38 329 229
0.012851933 0.73299998 0.014137126 1.4762154e-38 330 229
0.014137126 0.73299998 0.014137126 1.4578123e-38 331 229
0.01544336 0.73400003 0.014156413 1.4578126e-38 332 229
0.016730307 0.73400003 0.014156413 1.4393376e-38 333 229
0.018017253 0.73400003 0.014156413 1.4393376e-38 334 229
0.019356798 0.736 0.014194986 1.448593e-38 335 229
0.020647252 0.736 0.014194986 1.4118586e-38 336 229
0.021937706 0.736 0.014194986 1.4026391e-38 337 229
0.023291279 0.73799998 0.014233559 1.4026391e-38 338 229
0.024585238 0.73799998 0.014233559 1.4026391e-38 339 229
0.025914267 0.73900002 0.014252847 1.3750883e-38 340 229
0.027209979 0.73900002 0.014252847 1.3750883e-38 341 229
0.028582839 0.741 0.01429142 1.5129126e-38 342 229
0.029882059 0.741 0.01429142 1.4944735e-38 343 229
0.03118128 0.741 0.01429142 1.3549886e-38 344 229
0.032524332 0.74199998 0.014310705 8.2025398e-39 345 229
-0.044650383 0.74900001 0.013132467 9.8462419e-39 286 230
-0.04333714 0.74900001 0.013132467 1.9895567e-38 287 230
-0.041911677 0.74699998 0.013097399 1.6233306e-38 288 230
-0.040547583 0.74599999 0.013079867 1.6878675e-38 289 230
-0.039239597 0.74599999 0.013079867 1.5867414e-38 290 230
-0.037829921 0.74400002 0.0130448 1.5683021e-38 291 230
-0.036427252 0.74199998 0.013009733 1.5131647e-38 292 230
-0.03512628 0.74199998 0.013009733 1.485506e-38 293 230
-0.033825304 0.74199998 0.013009733 1.4487724e-38 294 230
-0.032524332 0.74199998 0.013009733 1.4672113e-38 295 230
-0.03118128 0.741 0.0129922 1.4763956e-38 296 230
-0.029882059 0.741 0.0129922 1.4856152e-38 297 230
-0.028582839 0.741 0.0129922 1.4857954e-38 298 230
-0.027209979 0.73900002 0.012957133 1.513418e-38 299 230
-0.025914267 0.73900002 0.012957133 1.6235489e-38 300 230
-0.024618553 0.73900002 0.012957133 1.6512436e-38 301 230
-0.023291279 0.73799998 0.012939599 1.6050726e-38 302 230
-0.021937706 0.736 0.012904533 1.3746194e-38 303 230
-0.020647252 0.736 0.012904533 1.142439e-38 304 230
-0.019356798 0.736 0.012904533 6.8146083e-39 305 230
-0.018066347 0.736 0.012904533 7.5249728e-43 306 230
-0.016775893 0.736 0.012904533 2.8025969e-44 307 230
-0.015485439 0.736 0.012904533 3.2650254e-42 308 230
-0.014156413 0.73400003 0.012869466 8.330271e-40 309 230
-0.012869466 0.73400003 0.012869466 1.1092567e-39 310 230
-0.011582521 0.73400003 0.012869466 1.1092567e-39 311 230
-0.010281546 0.73299998 0.012851933 8.3446483e-40 312 230
-0.0089963535 0.73299998 0.012851933 8.3446483e-40 313 230
-0.0077111595 0.73299998 0.012851933 6.5115257e-40 314 230
-0.0064259665 0.73299998 0.012851933 6.5115257e-40 315 230
-0.005140773 0.73299998 0.012851933 8.3446763e-40 316 230
-0.0038555798 0.73299998 0.012851933 8.3446763e-40 317 230
-0.0025703865 0.73299998 0.012851933 1.1092567e-39 318 230
-0.0012816866 0.73100001 0.012816866 1.1092567e-39 319 230
0 0.73100001 0.012816866 4.7111654e-42 320 230
0.0012851933 0.73299998 0.012851933 2.5503632e-42 321 230
0.0025703865 0.73299998 0.012851933 6.8663625e-44 322 230
0.0038555798 0.73299998 0.012851933 1.8805425e-42 323 230
0.0051267464 0.73100001 0.012816866 8.5218425e-40 324 230
0.006408433 0.73100001 0.012816866 5.6463556e-39 325 230
0.00769012 0.73100001 0.012816866 1.0716726e-38 326 230
0.0089963535 0.73299998 0.012851933 1.3021615e-38 327 230
0.010281546 0.73299998 0.012851933 1.4671039e-38 328 230
0.011566739 0.73299998 0.012851933 1.4855789e-38 329 230
0.012851933 0.73299998 0.012851933 1.4854351e-38 330 230
0.014137126 0.73299998 0.012851933 1.4485927e-38 331 230
0.01544336 0.73400003 0.012869466 1.4669242e-38 332 230
0.016730307 0.73400003 0.012869466 1.4577047e-38 333 230
0.018017253 0.73400003 0.012869466 1.4117868e-38 334 230
0.019356798 0.736 0.012904533 1.4210063e-38 335 230
0.020647252 0.736 0.012904533 1.4025672e-38 336 230
0.021997318 0.73799998 0.012939599 1.4025672e-38 337 230
0.023322839 0.73900002 0.012957133 1.3933839e-38 338 230
0.024618553 0.73900002 0.012957133 1.3933839e-38 339 230
0.025914267 0.73900002 0.012957133 1.3658333e-38 340 230
0.027283618 0.741 0.0129922 1.3565778e-38 341 230
0.028582839 0.741 0.0129922 1.3933475e-38 342 230
0.029882059 0.741 0.0129922 1.4210063e-38 343 230
0.03118128 0.741 0.0129922 1.44805e-38 344 230
0.032524332 0.74199998 0.013009733 1.1529881e-38 345 230
-0.04614773 0.75199997 0.011866559 7.7433637e-39 285 231
-0.044650383 0.74900001 0.01181922 1.3091445e-38 286 231
-0.04333714 0.74900001 0.01181922 1.7977814e-38 287 231
-0.041911677 0.74699998 0.011787659 1.56823e-38 288 231
-0.040547583 0.74599999 0.011771879 1.5590104e-38 289 231
-0.039239597 0.74599999 0.011771879 1.5314962e-38 290 231
-0.037829921 0.74400002 0.011740319 1.5314962e-38 291 231
-0.036427252 0.74199998 0.01170876 1.5223842e-38 292 231
-0.03512628 0.74199998 0.01170876 1.5223842e-38 293 231
-0.033825304 0.74199998 0.01170876 1.5132366e-38 294 231
-0.032524332 0.74199998 0.01170876 1.5224561e-38 295 231
-0.03118128 0.741 0.01169298 1.5132013e-38 296 231
-0.029882059 0.741 0.01169298 1.4855786e-38 297 231
-0.028582839 0.741 0.01169298 1.4488448e-38 298 231
-0.027209979 0.73900002 0.01166142 1.485687e-38 299 231
-0.025914267 0.73900002 0.01166142 1.5499726e-38 300 231
-0.024618553 0.73900002 0.01166142 1.5591922e-38 301 231
-0.023291279 0.73799998 0.011645639 1.1541075e-38 302 231
-0.021997318 0.73799998 0.011645639 6.1015324e-39 303 231
-0.020647252 0.736 0.01161408 2.6697678e-39 304 231
-0.019356798 0.736 0.01161408 2.5223372e-44 305 231
-0.018017253 0.73400003 0.011582521 2.1019477e-44 306 231
-0.016730307 0.73400003 0.011582521 2.8309032e-40 307 231
-0.01544336 0.73400003 0.011582521 9.2559127e-40 308 231
-0.014156413 0.73400003 0.011582521 9.2559127e-40 309 231
-0.012869466 0.73400003 0.011582521 8.3339283e-40 310 231
-0.011582521 0.73400003 0.011582521 8.3339283e-40 311 231
-0.010281546 0.73299998 0.011566739 6.5007777e-40 312 231
-0.0089963535 0.73299998 0.011566739 6.5007777e-40 313 231
-0.0077111595 0.73299998 0.011566739 5.5895694e-40 314 231
-0.0064259665 0.73299998 0.011566739 6.5115257e-40 315 231
-0.005140773 0.73299998 0.011566739 6.504337e-40 316 231
-0.0038555798 0.73299998 0.011566739 6.504337e-40 317 231
-0.0025633732 0.73100001 0.01153518 8.3374876e-40 318 231
-0.0012816866 0.73100001 0.01153518 8.3374876e-40 319 231
0 0.73100001 0.01153518 1.1089063e-39 320 231
0.0012816866 0.73100001 0.01153518 1.201102e-39 321 231
0.0025703865 0.73299998 0.011566739 9.692221e-41 322 231
0.0038555798 0.73299998 0.011566739 3.9236357e-44 323 231
0.0051267464 0.73100001 0.01153518 3.643376e-44 324 231
0.006408433 0.73100001 0.01153518 4.5223124e-39 325 231
0.00769012 0.73100001 0.01153518 1.0430033e-38 326 231
0.0089963535 0.73299998 0.011566739 1.5869934e-38 327 231
0.010281546 0.73299998 0.011566739 1.5867785e-38 328 231
0.011566739 0.73299998 0.011566739 1.5222416e-38 329 231
0.012851933 0.73299998 0.011566739 1.4577772e-38 330 231
0.014156413 0.73400003 0.011582521 1.4300827e-38 331 231
0.01544336 0.73400003 0.011582521 1.411787e-38 332 231
0.016730307 0.73400003 0.011582521 1.4025316e-38 333 231
0.018066347 0.736 0.01161408 1.4025316e-38 334 231
0.019356798 0.736 0.01161408 1.4025316e-38 335 231
0.020647252 0.736 0.01161408 1.3933839e-38 336 231
0.021997318 0.73799998 0.011645639 1.3933839e-38 337 231
0.023322839 0.73900002 0.01166142 1.3567215e-38 338 231
0.024618553 0.73900002 0.01166142 1.3475018e-38 339 231
0.025984399 0.741 0.01169298 1.3565778e-38 340 231
0.027283618 0.741 0.01169298 1.3381747e-38 341 231
0.028582839 0.741 0.01169298 1.3380668e-38 342 231
0.029882059 0.741 0.01169298 1.3380668e-38 343 231
0.03118128 0.741 0.01169298 1.4483759e-38 344 231
0.032524332 0.74199998 0.01170876 1.383839e-38 345 231
0.034007654 0.74599999 0.011771879 8.6699821e-39 346 231
-0.047466237 0.75199997 0.010548052 1.5687676e-39 284 232
-0.04614773 0.75199997 0.010548052 1.1986874e-38 285 232
-0.044709999 0.75 0.01052 1.5769085e-38 286 232
-0.04333714 0.74900001 0.010505973 1.6967627e-38 287 232
-0.041911677 0.74699998 0.010477919 1.5038732e-38 288 232
-0.040601939 0.74699998 0.010477919 1.5038732e-38 289 232
-0.039292198 0.74699998 0.010477919 1.5314243e-38 290 232
-0.03793161 0.74599999 0.010463892 1.5406439e-38 291 232
-0.036427252 0.74199998 0.010407786 1.540716e-38 292 232
-0.03512628 0.74199998 0.010407786 1.5314965e-38 293 232
-0.033825304 0.74199998 0.010407786 1.5499356e-38 294 232
-0.032524332 0.74199998 0.010407786 1.5499356e-38 295 232
-0.03118128 0.741 0.010393759 1.5224211e-38 296 232
-0.029882059 0.741 0.010393759 1.5224211e-38 297 232
-0.028582839 0.741 0.010393759 1.4948703e-38 298 232
-0.027283618 0.741 0.010393759 1.5317127e-38 299 232
-0.025914267 0.73900002 0.010365707 1.5132018e-38 300 232
-0.024618553 0.73900002 0.010365707 1.3472498e-38 301 232
-0.023291279 0.73799998 0.010351679 5.5508599e-39 302 232
-0.021997318 0.73799998 0.010351679 5.798573e-42 303 232
-0.020647252 0.736 0.010323626 3.643376e-44 304 232
-0.019356798 0.736 0.010323626 3.6405734e-42 305 232
-0.018017253 0.73400003 0.010295574 8.341117e-40 306 232
-0.016730307 0.73400003 0.010295574 1.0188617e-39 307 232
-0.01544336 0.73400003 0.010295574 9.2558846e-40 308 232
-0.014156413 0.73400003 0.010295574 8.3339283e-40 309 232
-0.012869466 0.73400003 0.010295574 7.4120001e-40 310 232
-0.011582521 0.73400003 0.010295574 7.4120001e-40 311 232
-0.010281546 0.73299998 0.010281546 8.3339283e-40 312 232
-0.0089963535 0.73299998 0.010281546 8.3339283e-40 313 232
-0.0077111595 0.73299998 0.010281546 5.5860101e-40 314 232
-0.0064259665 0.73299998 0.010281546 5.5860101e-40 315 232
-0.005140773 0.73299998 0.010281546 6.5079664e-40 316 232
-0.0038555798 0.73299998 0.010281546 4.6640538e-40 317 232
-0.0025633732 0.73100001 0.010253493 1.0170582e-39 318 232
-0.0012816866 0.73100001 0.010253493 1.0170582e-39 319 232
0 0.73100001 0.010253493 1.017061e-39 320 232
0.0012816866 0.73100001 0.010253493 1.1092567e-39 321 232
0.0025703865 0.73299998 0.010281546 1.0181428e-39 322 232
0.0038555798 0.73299998 0.010281546 1.4713634e-42 323 232
0.0051267464 0.73100001 0.010253493 0 324 232
0.006408433 0.73100001 0.010253493 8.1125162e-39 325 232
0.00769012 0.73100001 0.010253493 1.3097212e-38 326 232
0.0089963535 0.73299998 0.010281546 1.7430048e-38 327 232
0.010281546 0.73299998 0.010281546 1.5223142e-38 328 232
0.011566739 0.73299998 0.010281546 1.4485577e-38 329 232
0.012851933 0.73299998 0.010281546 1.384237e-38 330 232
0.014156413 0.73400003 0.010295574 1.3750174e-38 331 232
0.01544336 0.73400003 0.010295574 1.3933842e-38 332 232
0.016730307 0.73400003 0.010295574 1.374981e-38 333 232
0.018066347 0.736 0.010323626 1.3933119e-38 334 232
0.019356798 0.736 0.010323626 1.4025316e-38 335 232
0.020703359 0.73799998 0.010351679 1.3933839e-38 336 232
0.021997318 0.73799998 0.010351679 1.3749807e-38 337 232
0.023322839 0.73900002 0.010365707 1.3565778e-38 338 232
0.024618553 0.73900002 0.010365707 1.3565778e-38 339 232
0.025984399 0.741 0.010393759 1.3289552e-38 340 232
0.027283618 0.741 0.010393759 1.3289552e-38 341 232
0.028582839 0.741 0.010393759 1.3288473e-38 342 232
0.029922385 0.74199998 0.010407786 1.310444e-38 343 232
0.031223357 0.74199998 0.010407786 1.3471415e-38 344 232
0.032524332 0.74199998 0.010407786 1.3563612e-38 345 232
0.034007654 0.74599999 0.010463892 1.2269231e-38 346 232
-0.048979364 0.755 0.0092663663 9.1302386e-39 283 233
-0.047466237 0.75199997 0.0092295464 7.1905375e-39 284 233
-0.04614773 0.75199997 0.0092295464 1.5211556e-38 285 233
-0.044709999 0.75 0.0092049995 1.5958517e-38 286 233
-0.04333714 0.74900001 0.0091927266 1.5589735e-38 287 233
-0.041911677 0.74699998 0.0091681797 1.4578839e-38 288 233
-0.040601939 0.74699998 0.0091681797 1.4671395e-38 289 233
-0.039292198 0.74699998 0.0091681797 1.4946549e-38 290 233
-0.03793161 0.74599999 0.0091559067 1.5038745e-38 291 233
-0.036525439 0.74400002 0.0091313599 1.5131299e-38 292 233
-0.03512628 0.74199998 0.009106813 1.5131299e-38 293 233
-0.033825304 0.74199998 0.009106813 1.5132018e-38 294 233
-0.032524332 0.74199998 0.009106813 1.5132018e-38 295 233
-0.031223357 0.74199998 0.009106813 1.5224211e-38 296 233
-0.029882059 0.741 0.0090945391 1.5316408e-38 297 233
-0.028582839 0.741 0.0090945391 1.549972e-38 298 233
-0.027283618 0.741 0.0090945391 1.5776666e-38 299 233
-0.025984399 0.741 0.0090945391 1.5501508e-38 300 233
-0.024618553 0.73900002 0.0090699932 1.2827835e-38 301 233
-0.023291279 0.73799998 0.0090577193 6.3665585e-39 302 233
-0.021997318 0.73799998 0.0090577193 0 303 233
-0.020703359 0.73799998 0.0090577193 2.1846243e-42 304 233
-0.019356798 0.736 0.0090331733 1.2947227e-39 305 233
-0.018066347 0.736 0.0090331733 9.2595701e-40 306 233
-0.016775893 0.736 0.0090331733 9.2595701e-40 307 233
-0.015485439 0.736 0.0090331733 8.3339283e-40 308 233
-0.014156413 0.73400003 0.0090086265 8.3339283e-40 309 233
-0.012869466 0.73400003 0.0090086265 2.8273719e-40 310 233
-0.011582521 0.73400003 0.0090086265 2.8273719e-40 311 233
-0.010281546 0.73299998 0.0089963535 7.411972e-40 312 233
-0.0089963535 0.73299998 0.0089963535 8.3339283e-40 313 233
-0.0077111595 0.73299998 0.0089963535 8.3374876e-40 314 233
-0.0064259665 0.73299998 0.0089963535 9.2594439e-40 315 233
-0.005140773 0.73299998 0.0089963535 8.3446483e-40 316 233
-0.0038555798 0.73299998 0.0089963535 6.504337e-40 317 233
-0.0025633732 0.73100001 0.0089718066 4.6640258e-40 318 233
-0.0012816866 0.73100001 0.0089718066 4.6640258e-40 319 233
0 0.73100001 0.0089718066 7.411972e-40 320 233
0.0012816866 0.73100001 0.0089718066 8.3339283e-40 321 233
0.0025703865 0.73299998 0.0089963535 7.4299787e-40 322 233
0.0038555798 0.73299998 0.0089963535 1.4727647e-42 323 233
0.0051267464 0.73100001 0.0089718066 0 324 233
0.006408433 0.73100001 0.0089718066 1.004899e-38 325 233
0.0077111595 0.73299998 0.0089963535 1.4757101e-38 326 233
0.0090086265 0.73400003 0.0090086265 1.6416621e-38 327 233
0.010281546 0.73299998 0.0089963535 1.4487379e-38 328 233
0.011566739 0.73299998 0.0089963535 1.4118236e-38 329 233
0.012869466 0.73400003 0.0090086265 1.3750174e-38 330 233
0.014156413 0.73400003 0.0090086265 1.3657977e-38 331 233
0.01544336 0.73400003 0.0090086265 1.3474665e-38 332 233
0.016730307 0.73400003 0.0090086265 1.3474665e-38 333 233
0.018066347 0.736 0.0090331733 1.3474665e-38 334 233
0.019356798 0.736 0.0090331733 1.3474665e-38 335 233
0.020703359 0.73799998 0.0090577193 1.3474665e-38 336 233
0.021997318 0.73799998 0.0090577193 1.3382469e-38 337 233
0.023322839 0.73900002 0.0090699932 1.3382469e-38 338 233
0.024685178 0.741 0.0090945391 1.3197719e-38 339 233
0.025984399 0.741 0.0090945391 1.3289552e-38 340 233
0.027283618 0.741 0.0090945391 1.310516e-38 341 233
0.028621411 0.74199998 0.009106813 1.3011889e-38 342 233
0.029922385 0.74199998 0.009106813 1.2919693e-38 343 233
0.031223357 0.74199998 0.009106813 1.2827132e-38 344 233
0.032612 0.74400002 0.0091313599 1.3103358e-38 345 233
0.034007654 0.74599999 0.0091559067 1.3286996e-38 346 233
0.03531564 0.74599999 0.0091559067 1.0612964e-38 347 233
0.038236689 0.75199997 0.0092295464 9.8786245e-39 349 233
-0.048979364 0.755 0.0079425992 1.2266317e-38 283 234
-0.047655597 0.755 0.0079425992 1.1618798e-38 284 234
-0.04614773 0.75199997 0.0079110395 1.5767602e-38 285 234
-0.044709999 0.75 0.00789 1.4946534e-38 286 234
-0.04333714 0.74900001 0.0078794798 1.4946534e-38 287 234
-0.042023893 0.74900001 0.0078794798 1.4762154e-38 288 234
-0.040601939 0.74699998 0.0078584393 1.4854351e-38 289 234
-0.039292198 0.74699998 0.0078584393 1.4946184e-38 290 234
-0.03793161 0.74599999 0.0078479191 1.522241e-38 291 234
-0.036623627 0.74599999 0.0078479191 1.522241e-38 292 234
-0.035220962 0.74400002 0.0078268806 1.5314965e-38 293 234
-0.033916477 0.74400002 0.0078268806 1.5223489e-38 294 234
-0.032524332 0.74199998 0.0078058392 1.5223489e-38 295 234
-0.031223357 0.74199998 0.0078058392 1.5224211e-38 296 234
-0.029922385 0.74199998 0.0078058392 1.5316408e-38 297 234
-0.028582839 0.741 0.0077953199 1.5499e-38 298 234
-0.027283618 0.741 0.0077953199 1.5959978e-38 299 234
-0.025984399 0.741 0.0077953199 1.595961e-38 300 234
-0.024618553 0.73900002 0.0077742799 1.3931306e-38 301 234
-0.023291279 0.73799998 0.0077637597 6.8286269e-39 302 234
-0.021997318 0.73799998 0.0077637597 1.1210388e-44 303 234
-0.020647252 0.736 0.0077427197 6.5048275e-42 304 234
-0.019356798 0.736 0.0077427197 7.4515027e-40 305 234
-0.018066347 0.736 0.0077427197 9.2630733e-40 306 234
-0.016775893 0.736 0.0077427197 8.341117e-40 307 234
-0.015485439 0.736 0.0077427197 6.5008057e-40 308 234
-0.014156413 0.73400003 0.0077216802 5.5788494e-40 309 234
-0.012869466 0.73400003 0.0077216802 5.5860101e-40 310 234
-0.011582521 0.73400003 0.0077216802 5.5860101e-40 311 234
-0.010281546 0.73299998 0.0077111595 3.7528875e-40 312 234
-0.0089963535 0.73299998 0.0077111595 4.6748438e-40 313 234
-0.0077111595 0.73299998 0.0077111595 8.3446763e-40 314 234
-0.0064259665 0.73299998 0.0077111595 9.2666326e-40 315 234
-0.005140773 0.73299998 0.0077111595 7.43351e-40 316 234
-0.0038555798 0.73299998 0.0077111595 5.5860101e-40 317 234
-0.0025703865 0.73299998 0.0077111595 2.8309312e-40 318 234
-0.0012816866 0.73100001 0.00769012 2.8309312e-40 319 234
0 0.73100001 0.00769012 5.5860101e-40 320 234
0.0012851933 0.73299998 0.0077111595 6.5079664e-40 321 234
0.0025703865 0.73299998 0.0077111595 1.019575e-39 322 234
0.0038555798 0.73299998 0.0077111595 2.183223e-42 323 234
0.005140773 0.73299998 0.0077111595 9.8090893e-45 324 234
0.0064259665 0.73299998 0.0077111595 1.1707435e-38 325 234
0.0077111595 0.73299998 0.0077111595 1.5771979e-38 326 234
0.0090086265 0.73400003 0.0077216802 1.5587586e-38 327 234
0.010295574 0.73400003 0.0077216802 1.4117517e-38 328 234
0.011582521 0.73400003 0.0077216802 1.4025322e-38 329 234
0.012869466 0.73400003 0.0077216802 1.3474667e-38 330 234
0.014156413 0.73400003 0.0077216802 1.3474667e-38 331 234
0.01544336 0.73400003 0.0077216802 1.3565781e-38 332 234
0.016730307 0.73400003 0.0077216802 1.3565781e-38 333 234
0.018066347 0.736 0.0077427197 1.3565781e-38 334 234
0.019356798 0.736 0.0077427197 1.3565781e-38 335 234
0.020703359 0.73799998 0.0077637597 1.3382113e-38 336 234
0.021997318 0.73799998 0.0077637597 1.3289917e-38 337 234
0.023322839 0.73900002 0.0077742799 1.3289199e-38 338 234
0.024685178 0.741 0.0077953199 1.3289199e-38 339 234
0.025984399 0.741 0.0077953199 1.3288476e-38 340 234
0.027283618 0.741 0.0077953199 1.3288476e-38 341 234
0.028621411 0.74199998 0.0078058392 1.2920412e-38 342 234
0.029922385 0.74199998 0.0078058392 1.2736381e-38 343 234
0.031223357 0.74199998 0.0078058392 1.2551984e-38 344 234
0.032612 0.74400002 0.0078268806 1.2551984e-38 345 234
0.034007654 0.74599999 0.0078479191 1.2921468e-38 346 234
0.03531564 0.74599999 0.0078479191 1.3105861e-38 347 234
0.036770906 0.74900001 0.0078794798 1.3563951e-38 348 234
0.038236689 0.75199997 0.0079110395 1.3287006e-38 349 234
-0.048914492 0.75400001 0.0066100666 1.4570877e-38 283 235
-0.04759248 0.75400001 0.0066100666 1.3559967e-38 284 235
-0.046270464 0.75400001 0.0066100666 1.5126933e-38 285 235
-0.044829223 0.75199997 0.0065925326 1.4669592e-38 286 235
-0.043394998 0.75 0.006575 1.4669592e-38 287 235
-0.042023893 0.74900001 0.0065662335 1.4486649e-38 288 235
-0.040710647 0.74900001 0.0065662335 1.4578844e-38 289 235
-0.039292198 0.74699998 0.0065486995 1.4762157e-38 290 235
-0.03793161 0.74599999 0.0065399334 1.4946549e-38 291 235
-0.036623627 0.74599999 0.0065399334 1.5039101e-38 292 235
-0.035220962 0.74400002 0.0065223998 1.5131296e-38 293 235
-0.033916477 0.74400002 0.0065223998 1.5132015e-38 294 235
