# .PCD v.7 - Point Cloud Data file format
FIELDS x y z rgb imX imY
SIZE 4 4 4 4 4 4
TYPE F F F F F F
COUNT 1 1 1 1 1 1
WIDTH 836
HEIGHT 1
VIEWPOINT 0 0 0 1 0 0 0
POINTS 836
DATA ascii
0.031135695 0.68300003 -0.0047901068 1.8865498e-38 346 244
0.032333218 0.68300003 -0.0047901068 1.8957693e-38 347 244
0.033530746 0.68300003 -0.0047901068 1.8591072e-38 348 244
0.03477912 0.68400002 -0.0047971201 1.8037898e-38 349 244
0.035978399 0.68400002 -0.0047971201 1.7301061e-38 350 244
0.037177678 0.68400002 -0.0047971201 1.7024475e-38 351 244
0.03848917 0.68599999 -0.0048111463 1.509448e-38 352 244
0.039691959 0.68599999 -0.0048111463 1.3250207e-38 353 244
0.040894743 0.68599999 -0.0048111463 9.2036807e-39 354 244
0.05292261 0.68599999 -0.0048111463 2.7608466e-39 364 244
0.054125395 0.68599999 -0.0048111463 2.945598e-39 365 244
0.055328183 0.68599999 -0.0048111463 5.3387145e-39 366 244
0.056530971 0.68599999 -0.0048111463 6.9060402e-39 367 244
0.057817914 0.68699998 -0.0048181596 1.0397232e-38 368 244
0.059108373 0.68800002 -0.0048251734 1.2148591e-38 369 244
0.060314666 0.68800002 -0.0048251734 1.3805594e-38 370 244
0.061699796 0.69 -0.0048391996 1.4266573e-38 371 244
0.063000768 0.69099998 -0.0048462129 1.5003411e-38 372 244
0.064398177 0.69300002 -0.00486024 1.5003411e-38 373 244
0.065707922 0.69400001 -0.0048672534 1.4910834e-38 374 244
0.066924736 0.69400001 -0.0048672534 1.4633887e-38 375 244
0.068337917 0.69599998 -0.0048812795 1.4080714e-38 376 244
0.069358356 0.69400001 -0.0048672534 1.3988518e-38 377 244
0.07057517 0.69400001 -0.0048672534 1.3724534e-38 378 244
-0.0024406398 0.69599998 -0.0061015999 1.7306817e-38 318 245
-0.0012168133 0.69400001 -0.0060840664 1.5463263e-38 319 245
0 0.69400001 -0.0060840664 1.8124684e-38 320 245
0.0012168133 0.69400001 -0.0060840664 1.8770054e-38 321 245
0.0024336267 0.69400001 -0.0060840664 1.858567e-38 322 245
0.0036504399 0.69400001 -0.0060840664 1.858567e-38 323 245
0.0048672534 0.69400001 -0.0060840664 1.8586023e-38 324 245
0.0060753003 0.69300002 -0.0060753003 1.8493468e-38 325 245
0.0072693196 0.69099998 -0.0060577663 1.8586023e-38 326 245
0.008480873 0.69099998 -0.0060577663 1.8770054e-38 327 245
0.0096783992 0.69 -0.0060489997 1.858602e-38 328 245
0.010856641 0.68800002 -0.0060314666 1.858602e-38 329 245
0.012045399 0.68699998 -0.0060226996 1.8586017e-38 330 245
0.013230653 0.68599999 -0.0060139326 1.8493821e-38 331 245
0.01439136 0.68400002 -0.0059964 1.867749e-38 332 245
0.01559064 0.68400002 -0.0059964 1.867749e-38 333 245
0.016789921 0.68400002 -0.0059964 1.8769688e-38 334 245
0.0179892 0.68400002 -0.0059964 1.8677134e-38 335 245
0.019160427 0.68300003 -0.0059876335 1.8676783e-38 336 245
0.020357953 0.68300003 -0.0059876335 1.8861533e-38 337 245
0.02155548 0.68300003 -0.0059876335 1.8586753e-38 338 245
0.022719691 0.68199998 -0.005978866 1.8955894e-38 339 245
0.023915464 0.68199998 -0.005978866 1.9144245e-38 340 245
0.025111238 0.68199998 -0.005978866 1.9328637e-38 341 245
0.026307013 0.68199998 -0.005978866 1.8777621e-38 342 245
0.027502786 0.68199998 -0.005978866 1.8592869e-38 343 245
0.02869856 0.68199998 -0.005978866 1.7948575e-38 344 245
0.029938167 0.68300003 -0.0059876335 1.7487598e-38 345 245
0.031135695 0.68300003 -0.0059876335 1.7121692e-38 346 245
0.032333218 0.68300003 -0.0059876335 1.7029497e-38 347 245
0.033530746 0.68300003 -0.0059876335 1.6293724e-38 348 245
0.034728274 0.68300003 -0.0059876335 1.5371768e-38 349 245
0.035925802 0.68300003 -0.0059876335 1.3896657e-38 350 245
0.037068974 0.68199998 -0.005978866 1.3343483e-38 351 245
0.038264744 0.68199998 -0.005978866 1.1965602e-38 352 245
0.039460517 0.68199998 -0.005978866 9.3841245e-39 353 245
0.040537067 0.68000001 -0.0059613334 5.0620898e-39 354 245
0.05292261 0.68599999 -0.0060139326 7.5373869e-39 364 245
0.054125395 0.68599999 -0.0060139326 8.643733e-39 365 245
0.055328183 0.68599999 -0.0060139326 1.0395432e-38 366 245
0.056530971 0.68599999 -0.0060139326 1.1962757e-38 367 245
0.057817914 0.68699998 -0.0060226996 1.426331e-38 368 245
0.059108373 0.68800002 -0.0060314666 1.5369657e-38 369 245
0.060314666 0.68800002 -0.0060314666 1.5922112e-38 370 245
0.061699796 0.69 -0.0060489997 1.5829915e-38 371 245
0.063000768 0.69099998 -0.0060577663 1.5462569e-38 372 245
0.06421233 0.69099998 -0.0060577663 1.5186342e-38 373 245
0.06561324 0.69300002 -0.0060753003 1.5187049e-38 374 245
0.066924736 0.69400001 -0.0060840664 1.4910102e-38 375 245
0.068141542 0.69400001 -0.0060840664 1.4450553e-38 376 245
0.069358356 0.69400001 -0.0060840664 1.3344205e-38 377 245
0.07057517 0.69400001 -0.0060840664 1.2979761e-38 378 245
-0.0036609597 0.69599998 -0.0073219193 1.537362e-38 317 246
-0.0024336267 0.69400001 -0.0073008798 1.7573325e-38 318 246
-0.0012168133 0.69400001 -0.0073008798 1.7942468e-38 319 246
0 0.69400001 -0.0073008798 1.8402345e-38 320 246
0.0012168133 0.69400001 -0.0073008798 1.849454e-38 321 246
0.0024336267 0.69400001 -0.0073008798 1.8494896e-38 322 246
0.0036451798 0.69300002 -0.0072903596 1.8587092e-38 323 246
0.00486024 0.69300002 -0.0072903596 1.8586017e-38 324 246
0.0060753003 0.69300002 -0.0072903596 1.8586017e-38 325 246
0.0072693196 0.69099998 -0.0072693196 1.8769688e-38 326 246
0.0084440531 0.68800002 -0.0072377604 1.8769688e-38 327 246
0.0096503468 0.68800002 -0.0072377604 1.8586017e-38 328 246
0.010840859 0.68699998 -0.0072272392 1.8586017e-38 329 246
0.012027865 0.68599999 -0.0072167199 1.8677137e-38 330 246
0.013230653 0.68599999 -0.0072167199 1.8584941e-38 331 246
0.01439136 0.68400002 -0.0071956799 1.8677134e-38 332 246
0.01559064 0.68400002 -0.0071956799 1.8677134e-38 333 246
0.016765373 0.68300003 -0.0071851597 1.8768966e-38 334 246
0.017962901 0.68300003 -0.0071851597 1.8768966e-38 335 246
0.019160427 0.68300003 -0.0071851597 1.8768613e-38 336 246
0.020357953 0.68300003 -0.0071851597 1.8952644e-38 337 246
0.02155548 0.68300003 -0.0071851597 1.8494187e-38 338 246
0.022719691 0.68199998 -0.00717464 1.8678939e-38 339 246
0.023915464 0.68199998 -0.00717464 1.8405241e-38 340 246
0.025111238 0.68199998 -0.00717464 1.7852067e-38 341 246
0.026307013 0.68199998 -0.00717464 1.6195793e-38 342 246
0.027502786 0.68199998 -0.00717464 1.5457869e-38 343 246
0.02869856 0.68199998 -0.00717464 1.4352599e-38 344 246
0.029894331 0.68199998 -0.00717464 1.3430284e-38 345 246
0.031090107 0.68199998 -0.00717464 1.2143864e-38 346 246
0.032285877 0.68199998 -0.00717464 1.159069e-38 347 246
0.03348165 0.68199998 -0.00717464 9.6596197e-39 348 246
0.034575731 0.68000001 -0.0071535995 8.2766853e-39 349 246
0.035767999 0.68000001 -0.0071535995 3.1385751e-39 350 246
0.036960267 0.68000001 -0.0071535995 2.7697939e-39 351 246
0.038152531 0.68000001 -0.0071535995 3.9604436e-39 352 246
0.039344799 0.68000001 -0.0071535995 3.9604436e-39 353 246
0.040537067 0.68000001 -0.0071535995 5.1535974e-39 354 246
0.041729335 0.68000001 -0.0071535995 4.785175e-39 355 246
0.05292261 0.68599999 -0.0072167199 1.4542437e-38 364 246
0.054125395 0.68599999 -0.0072167199 1.5003414e-38 365 246
0.055328183 0.68599999 -0.0072167199 1.6012506e-38 366 246
0.056530971 0.68599999 -0.0072167199 1.5551888e-38 367 246
0.057817914 0.68699998 -0.0072272392 1.6194006e-38 368 246
0.059108373 0.68800002 -0.0072377604 1.6194006e-38 369 246
0.060314666 0.68800002 -0.0072377604 1.5551882e-38 370 246
0.061699796 0.69 -0.0072587994 1.5828468e-38 371 246
0.062909603 0.69 -0.0072587994 1.5554402e-38 372 246
0.06421233 0.69099998 -0.0072693196 1.5554402e-38 373 246
0.065423876 0.69099998 -0.0072693196 1.5094866e-38 374 246
0.066828303 0.69300002 -0.0072903596 1.4818639e-38 375 246
0.068043359 0.69300002 -0.0072903596 1.4817909e-38 376 246
0.069358356 0.69400001 -0.0073008798 1.3895954e-38 377 246
0.07057517 0.69400001 -0.0073008798 1.3619742e-38 378 246
0.071791984 0.69400001 -0.0073008798 1.684659e-38 379 246
-0.0061103669 0.69700003 -0.0085545136 1.5477337e-38 315 247
-0.0048812795 0.69599998 -0.0085422397 1.6747512e-38 316 247
-0.0036609597 0.69599998 -0.0085422397 1.573372e-38 317 247
-0.0024336267 0.69400001 -0.0085176928 1.7941722e-38 318 247
-0.00121506 0.69300002 -0.0085054198 1.8494896e-38 319 247
0 0.69300002 -0.0085054198 1.8494543e-38 320 247
0.00121506 0.69300002 -0.0085054198 1.8494543e-38 321 247
0.00243012 0.69300002 -0.0085054198 1.840378e-38 322 247
0.0036346598 0.69099998 -0.008480873 1.840378e-38 323 247
0.0048462129 0.69099998 -0.008480873 1.8586736e-38 324 247
0.0060489997 0.69 -0.0084686 1.8402345e-38 325 247
0.0072377604 0.68800002 -0.0084440531 1.8586017e-38 326 247
0.0084317802 0.68699998 -0.0084317802 1.8586017e-38 327 247
0.0096222926 0.68599999 -0.0084195063 1.8677137e-38 328 247
0.010825079 0.68599999 -0.0084195063 1.8584941e-38 329 247
0.012027865 0.68599999 -0.0084195063 1.8493824e-38 330 247
0.01319208 0.68400002 -0.0083949603 1.8493824e-38 331 247
0.014370319 0.68300003 -0.0083826864 1.8493821e-38 332 247
0.015567848 0.68300003 -0.0083826864 1.8586017e-38 333 247
0.016765373 0.68300003 -0.0083826864 1.831195e-38 334 247
0.017936599 0.68199998 -0.0083704125 1.8219395e-38 335 247
0.019132372 0.68199998 -0.0083704125 1.8126486e-38 336 247
0.020328145 0.68199998 -0.0083704125 1.8033932e-38 337 247
0.021523919 0.68199998 -0.0083704125 1.6656749e-38 338 247
0.022719691 0.68199998 -0.0083704125 1.5826988e-38 339 247
0.023915464 0.68199998 -0.0083704125 1.4172874e-38 340 247
0.025111238 0.68199998 -0.0083704125 1.3435309e-38 341 247
0.026307013 0.68199998 -0.0083704125 1.1230192e-38 342 247
0.027422134 0.68000001 -0.0083458666 1.0492268e-38 343 247
0.028614398 0.68000001 -0.0083458666 1.0030227e-38 344 247
0.029806666 0.68000001 -0.0083458666 9.8454768e-39 345 247
0.030998932 0.68000001 -0.0083458666 8.6498231e-39 346 247
0.032191198 0.68000001 -0.0083458666 7.9122566e-39 347 247
0.033383466 0.68000001 -0.0083458666 6.6251345e-39 348 247
0.034575731 0.68000001 -0.0083458666 6.256352e-39 349 247
0.035767999 0.68000001 -0.0083458666 5.1539645e-39 350 247
0.036960267 0.68000001 -0.0083458666 4.6933451e-39 351 247
0.038152531 0.68000001 -0.0083458666 4.6029319e-39 352 247
0.039344799 0.68000001 -0.0083458666 5.4323325e-39 353 247
0.040537067 0.68000001 -0.0083458666 7.9104686e-39 354 247
0.041729335 0.68000001 -0.0083458666 7.8182729e-39 355 247
0.042921599 0.68000001 -0.0083458666 8.5518849e-39 356 247
0.044243611 0.68199998 -0.0083704125 9.1972543e-39 357 247
0.045439381 0.68199998 -0.0083704125 1.09414e-38 358 247
0.046635158 0.68199998 -0.0083704125 1.0572257e-38 359 247
0.047830928 0.68199998 -0.0083704125 7.2586125e-39 360 247
0.051569041 0.68400002 -0.0083949603 7.2798576e-39 363 247
0.05276832 0.68400002 -0.0083949603 1.4543509e-38 364 247
0.053967599 0.68400002 -0.0083949603 1.47279e-38 365 247
0.055328183 0.68599999 -0.0084195063 1.6286904e-38 366 247
0.056530971 0.68599999 -0.0084195063 1.5641534e-38 367 247
0.057817914 0.68699998 -0.0084317802 1.6008878e-38 368 247
0.059022456 0.68699998 -0.0084317802 1.6101073e-38 369 247
0.060226995 0.68699998 -0.0084317802 1.5918145e-38 370 247
0.06152096 0.68800002 -0.0084440531 1.6194733e-38 371 247
0.06272725 0.68800002 -0.0084440531 1.5645165e-38 372 247
0.06421233 0.69099998 -0.008480873 1.5645165e-38 373 247
0.065423876 0.69099998 -0.008480873 1.5369655e-38 374 247
0.066828303 0.69300002 -0.0085054198 1.5001231e-38 375 247
0.068043359 0.69300002 -0.0085054198 1.4999433e-38 376 247
0.069358356 0.69400001 -0.0085176928 1.4722486e-38 377 247
0.07057517 0.69400001 -0.0085176928 1.4168963e-38 378 247
0.071791984 0.69400001 -0.0085176928 1.5367505e-38 379 247
0.073324397 0.69700003 -0.0085545136 1.4466417e-38 380 247
-0.00733244 0.69700003 -0.0097765867 1.6665416e-38 314 248
-0.0061015999 0.69599998 -0.0097625591 1.4176134e-38 315 248
-0.0048812795 0.69599998 -0.0097625591 1.7573666e-38 316 248
-0.0036504399 0.69400001 -0.0097345067 1.794209e-38 317 248
-0.0024336267 0.69400001 -0.0097345067 1.8126486e-38 318 248
-0.00121506 0.69300002 -0.0097204801 1.8403073e-38 319 248
0 0.69300002 -0.0097204801 1.8494187e-38 320 248
0.0012115532 0.69099998 -0.0096924258 1.8586742e-38 321 248
0.0024231065 0.69099998 -0.0096924258 1.8586736e-38 322 248
0.0036346598 0.69099998 -0.0096924258 1.8586736e-38 323 248
0.0048391996 0.69 -0.0096783992 1.8494543e-38 324 248
0.0060314666 0.68800002 -0.0096503468 1.8494543e-38 325 248
0.0072272392 0.68699998 -0.0096363192 1.849454e-38 326 248
0.0084195063 0.68599999 -0.0096222926 1.849454e-38 327 248
0.0096222926 0.68599999 -0.0096222926 1.8402342e-38 328 248
0.010825079 0.68599999 -0.0096222926 1.8402342e-38 329 248
0.0119928 0.68400002 -0.0095942402 1.8403424e-38 330 248
0.01319208 0.68400002 -0.0095942402 1.8680011e-38 331 248
0.014370319 0.68300003 -0.0095802136 1.8405942e-38 332 248
0.015545053 0.68199998 -0.009566186 1.8498137e-38 333 248
0.016740825 0.68199998 -0.009566186 1.7670898e-38 334 248
0.017936599 0.68199998 -0.009566186 1.6841136e-38 335 248
0.019132372 0.68199998 -0.009566186 1.6287243e-38 336 248
0.020328145 0.68199998 -0.009566186 1.4904309e-38 337 248
0.021523919 0.68199998 -0.009566186 1.3245507e-38 338 248
0.022719691 0.68199998 -0.009566186 1.0940621e-38 339 248
0.023845334 0.68000001 -0.0095381327 7.2650543e-39 340 248
0.025037598 0.68000001 -0.0095381327 7.3572513e-39 341 248
0.026229866 0.68000001 -0.0095381327 4.6104849e-39 342 248
0.027422134 0.68000001 -0.0095381327 5.4402456e-39 343 248
0.028614398 0.68000001 -0.0095381327 6.3560937e-39 344 248
0.029806666 0.68000001 -0.0095381327 6.263898e-39 345 248
0.030953348 0.67900002 -0.009524107 6.0766327e-39 346 248
0.032143861 0.67900002 -0.009524107 5.5234589e-39 347 248
0.033285279 0.67799997 -0.0095100794 5.5213107e-39 348 248
0.034474038 0.67799997 -0.0095100794 5.705702e-39 349 248
0.0356628 0.67799997 -0.0095100794 6.5318683e-39 350 248
0.036851559 0.67799997 -0.0095100794 6.8084566e-39 351 248
0.038040318 0.67799997 -0.0095100794 7.6389137e-39 352 248
0.039229076 0.67799997 -0.0095100794 9.2062394e-39 353 248
0.040477451 0.67900002 -0.009524107 1.2421918e-38 354 248
0.041667968 0.67900002 -0.009524107 1.3159483e-38 355 248
0.042858478 0.67900002 -0.009524107 1.3989237e-38 356 248
0.044113863 0.68000001 -0.0095381327 1.4819358e-38 357 248
0.045306131 0.68000001 -0.0095381327 1.5555827e-38 358 248
0.046498399 0.68000001 -0.0095381327 1.3988503e-38 359 248
0.047690667 0.68000001 -0.0095381327 1.0568278e-38 360 248
0.049026705 0.68199998 -0.009566186 7.6223462e-39 361 248
0.050222475 0.68199998 -0.009566186 1.8442629e-39 362 248
0.051493648 0.68300003 -0.0095802136 4.1495124e-39 363 248
0.05276832 0.68400002 -0.0095942402 1.2148947e-38 364 248
0.053967599 0.68400002 -0.0095942402 1.3531881e-38 365 248
0.055328183 0.68599999 -0.0096222926 1.600889e-38 366 248
0.056530971 0.68599999 -0.0096222926 1.5640467e-38 367 248
0.057817914 0.68699998 -0.0096363192 1.6008525e-38 368 248
0.059022456 0.68699998 -0.0096363192 1.610072e-38 369 248
0.060226995 0.68699998 -0.0096363192 1.5734827e-38 370 248
0.06152096 0.68800002 -0.0096503468 1.610361e-38 371 248
0.06272725 0.68800002 -0.0096503468 1.5736998e-38 372 248
0.063933544 0.68800002 -0.0096503468 1.5736998e-38 373 248
0.065423876 0.69099998 -0.0096924258 1.5461134e-38 374 248
0.066828303 0.69300002 -0.0097204801 1.5276743e-38 375 248
0.068043359 0.69300002 -0.0097204801 1.5091626e-38 376 248
0.069258414 0.69300002 -0.0097204801 1.4722842e-38 377 248
0.07057517 0.69400001 -0.0097345067 1.4538808e-38 378 248
0.071998879 0.69599998 -0.0097625591 1.34321e-38 379 248
0.073324397 0.69700003 -0.0097765867 1.3447223e-38 380 248
-0.0085667865 0.69800001 -0.01101444 1.4189473e-38 313 249
-0.00733244 0.69700003 -0.01099866 1.7207774e-38 314 249
-0.0061015999 0.69599998 -0.010982879 1.6469849e-38 315 249
-0.0048812795 0.69599998 -0.010982879 1.7849174e-38 316 249
-0.0036504399 0.69400001 -0.01095132 1.8218316e-38 317 249
-0.00243012 0.69300002 -0.010935539 1.8219045e-38 318 249
-0.00121506 0.69300002 -0.010935539 1.8035014e-38 319 249
0 0.69099998 -0.01090398 1.8586386e-38 320 249
0.0012115532 0.69099998 -0.01090398 1.8678583e-38 321 249
0.0024231065 0.69099998 -0.01090398 1.8587462e-38 322 249
0.0036293997 0.69 -0.010888199 1.8679657e-38 323 249
0.0048251734 0.68800002 -0.010856641 1.8588538e-38 324 249
0.0060314666 0.68800002 -0.010856641 1.8588538e-38 325 249
0.0072272392 0.68699998 -0.010840859 1.8588538e-38 326 249
0.0084195063 0.68599999 -0.010825079 1.8404147e-38 327 249
0.0095942402 0.68400002 -0.01079352 1.8219398e-38 328 249
0.01079352 0.68400002 -0.01079352 1.8035367e-38 329 249
0.0119928 0.68400002 -0.01079352 1.7760578e-38 330 249
0.013172794 0.68300003 -0.01077774 1.7391435e-38 331 249
0.01434928 0.68199998 -0.010761959 1.628724e-38 332 249
0.015545053 0.68199998 -0.010761959 1.5365284e-38 333 249
0.016740825 0.68199998 -0.010761959 1.2972881e-38 334 249
0.017883999 0.68000001 -0.0107304 1.1866892e-38 335 249
0.019076265 0.68000001 -0.0107304 9.754674e-39 336 249
0.020328145 0.68199998 -0.010761959 8.9245546e-39 337 249
0.0214608 0.68000001 -0.0107304 7.7278289e-39 338 249
0.022653066 0.68000001 -0.0107304 6.9902625e-39 339 249
0.023845334 0.68000001 -0.0107304 5.7042376e-39 340 249
0.025037598 0.68000001 -0.0107304 6.7180308e-39 341 249
0.026229866 0.68000001 -0.0107304 5.8980022e-39 342 249
0.027422134 0.68000001 -0.0107304 6.451176e-39 343 249
0.028614398 0.68000001 -0.0107304 7.6446787e-39 344 249
0.029762832 0.67900002 -0.010714619 7.8290699e-39 345 249
0.030953348 0.67900002 -0.010714619 9.4803082e-39 346 249
0.032143861 0.67900002 -0.010714619 9.4803082e-39 347 249
0.033285279 0.67799997 -0.010698839 1.0672738e-38 348 249
0.034474038 0.67799997 -0.010698839 1.1502858e-38 349 249
0.0356628 0.67799997 -0.010698839 1.3432843e-38 350 249
0.036851559 0.67799997 -0.010698839 1.3893821e-38 351 249
0.038040318 0.67799997 -0.010698839 1.4354063e-38 352 249
0.039229076 0.67799997 -0.010698839 1.4722486e-38 353 249
0.040477451 0.67900002 -0.010714619 1.5548641e-38 354 249
0.041667968 0.67900002 -0.010714619 1.5825228e-38 355 249
0.042858478 0.67900002 -0.010714619 1.5918493e-38 356 249
0.044048995 0.67900002 -0.010714619 1.6010688e-38 357 249
0.045306131 0.68000001 -0.0107304 1.6654247e-38 358 249
0.046498399 0.68000001 -0.0107304 1.6562052e-38 359 249
0.047690667 0.68000001 -0.0107304 1.2780955e-38 360 249
0.048882935 0.68000001 -0.0107304 9.3697317e-39 361 249
0.050222475 0.68199998 -0.010761959 3.1242019e-39 362 249
0.051418249 0.68199998 -0.010761959 4.1383539e-39 363 249
0.05276832 0.68400002 -0.01079352 7.4570504e-39 364 249
0.053967599 0.68400002 -0.01079352 1.0960124e-38 365 249
0.055166878 0.68400002 -0.01079352 1.5918498e-38 366 249
0.056530971 0.68599999 -0.010825079 1.5273129e-38 367 249
0.057733759 0.68599999 -0.010825079 1.6008525e-38 368 249
0.059022456 0.68699998 -0.010840859 1.6008525e-38 369 249
0.060226995 0.68699998 -0.010840859 1.5825944e-38 370 249
0.061431535 0.68699998 -0.010840859 1.6102891e-38 371 249
0.06272725 0.68800002 -0.010856641 1.56448e-38 372 249
0.063933544 0.68800002 -0.010856641 1.5736995e-38 373 249
0.065423876 0.69099998 -0.01090398 1.5736995e-38 374 249
0.06663543 0.69099998 -0.01090398 1.5552604e-38 375 249
0.068043359 0.69300002 -0.010935539 1.5275647e-38 376 249
0.069258414 0.69300002 -0.010935539 1.4906866e-38 377 249
0.07057517 0.69400001 -0.01095132 1.4723545e-38 378 249
0.071998879 0.69599998 -0.010982879 1.3617199e-38 379 249
0.073219195 0.69599998 -0.010982879 1.3255272e-38 380 249
0.074439511 0.69599998 -0.010982879 1.8233836e-38 381 249
-0.0097765867 0.69700003 -0.012220734 1.6943091e-38 312 250
-0.0085545136 0.69700003 -0.012220734 1.4638559e-38 313 250
-0.00733244 0.69700003 -0.012220734 1.8126131e-38 314 250
-0.0061015999 0.69599998 -0.0122032 1.7572957e-38 315 250
-0.0048672534 0.69400001 -0.012168133 1.7757355e-38 316 250
-0.0036504399 0.69400001 -0.012168133 1.8402724e-38 317 250
-0.00243012 0.69300002 -0.012150601 1.8220131e-38 318 250
-0.0012115532 0.69099998 -0.012115533 1.7943184e-38 319 250
0 0.69099998 -0.012115533 1.8311241e-38 320 250
0.0012097999 0.69 -0.012097999 1.8588188e-38 321 250
0.0024195998 0.69 -0.012097999 1.812973e-38 322 250
0.0036188802 0.68800002 -0.012062933 1.8405957e-38 323 250
0.0048251734 0.68800002 -0.012062933 1.80397e-38 324 250
0.0060226996 0.68699998 -0.012045399 1.80397e-38 325 250
0.0072167199 0.68599999 -0.012027865 1.7580868e-38 326 250
0.0084195063 0.68599999 -0.012027865 1.7027695e-38 327 250
0.0095802136 0.68300003 -0.011975267 1.6842216e-38 328 250
0.01077774 0.68300003 -0.011975267 1.6657465e-38 329 250
0.011975267 0.68300003 -0.011975267 1.5644757e-38 330 250
0.013153506 0.68199998 -0.011957732 1.4077792e-38 331 250
0.01434928 0.68199998 -0.011957732 1.2510112e-38 332 250
0.015499466 0.68000001 -0.011922667 1.06662e-38 333 250
0.016691733 0.68000001 -0.011922667 7.630597e-39 334 250
0.017857701 0.67900002 -0.011905133 6.4324308e-39 335 250
0.019048214 0.67900002 -0.011905133 3.8639068e-39 336 250
0.020268533 0.68000001 -0.011922667 3.7713538e-39 337 250
0.021429239 0.67900002 -0.011905133 4.689727e-39 338 250
0.022619752 0.67900002 -0.011905133 5.0588682e-39 339 250
0.023775198 0.67799997 -0.011887599 8.3645888e-39 340 250
0.024963958 0.67799997 -0.011887599 1.0116304e-38 341 250
0.026152719 0.67799997 -0.011887599 8.7445228e-39 342 250
0.027341479 0.67799997 -0.011887599 9.4820878e-39 343 250
0.028530238 0.67799997 -0.011887599 1.0769606e-38 344 250
0.029718997 0.67799997 -0.011887599 1.1691203e-38 345 250
0.030907756 0.67799997 -0.011887599 1.3254556e-38 346 250
0.03209652 0.67799997 -0.011887599 1.3807371e-38 347 250
0.033285279 0.67799997 -0.011887599 1.4818639e-38 348 250
0.034474038 0.67799997 -0.011887599 1.5740235e-38 349 250
0.0356628 0.67799997 -0.011887599 1.6751143e-38 350 250
0.036851559 0.67799997 -0.011887599 1.6567112e-38 351 250
0.038040318 0.67799997 -0.011887599 1.6841162e-38 352 250
0.039229076 0.67799997 -0.011887599 1.6748608e-38 353 250
0.040417835 0.67799997 -0.011887599 1.6929387e-38 354 250
0.041606598 0.67799997 -0.011887599 1.6744994e-38 355 250
0.042795356 0.67799997 -0.011887599 1.6652798e-38 356 250
0.044048995 0.67900002 -0.011905133 1.6284376e-38 357 250
0.045239504 0.67900002 -0.011905133 1.6467685e-38 358 250
0.046430022 0.67900002 -0.011905133 1.6744631e-38 359 250
0.047620531 0.67900002 -0.011905133 1.4531943e-38 360 250
0.048882935 0.68000001 -0.011922667 1.185827e-38 361 250
0.050075196 0.68000001 -0.011922667 5.2364169e-39 362 250
0.051418249 0.68199998 -0.011957732 4.5917748e-39 363 250
0.052614026 0.68199998 -0.011957732 3.1321305e-39 364 250
0.053967599 0.68400002 -0.0119928 7.9263032e-39 365 250
0.055166878 0.68400002 -0.0119928 1.4908679e-38 366 250
0.056530971 0.68599999 -0.012027865 1.4448061e-38 367 250
0.057733759 0.68599999 -0.012027865 1.6008172e-38 368 250
0.058936544 0.68599999 -0.012027865 1.5915976e-38 369 250
0.060226995 0.68699998 -0.012045399 1.5825228e-38 370 250
0.061431535 0.68699998 -0.012045399 1.619401e-38 371 250
0.062636077 0.68699998 -0.012045399 1.546149e-38 372 250
0.063933544 0.68800002 -0.012062933 1.546149e-38 373 250
0.065329194 0.69 -0.012097999 1.5462569e-38 374 250
0.06663543 0.69099998 -0.012115533 1.5186342e-38 375 250
0.067846984 0.69099998 -0.012115533 1.4817909e-38 376 250
0.069258414 0.69300002 -0.012150601 1.4541323e-38 377 250
0.070473477 0.69300002 -0.012150601 1.4356565e-38 378 250
0.071791984 0.69400001 -0.012168133 1.3895228e-38 379 250
0.073219195 0.69599998 -0.0122032 1.352791e-38 380 250
0.074439511 0.69599998 -0.0122032 1.6939507e-38 381 250
-0.01101444 0.69800001 -0.013462093 1.4925966e-38 311 251
-0.0097765867 0.69700003 -0.013442807 1.7668772e-38 312 251
-0.0085545136 0.69700003 -0.013442807 1.7576575e-38 313 251
-0.00733244 0.69700003 -0.013442807 1.8126131e-38 314 251
-0.0061015999 0.69599998 -0.013423519 1.7665511e-38 315 251
-0.0048672534 0.69400001 -0.013384946 1.7668039e-38 316 251
-0.0036504399 0.69400001 -0.013384946 1.8129377e-38 317 251
-0.00243012 0.69300002 -0.01336566 1.7760238e-38 318 251
-0.0012115532 0.69099998 -0.013327086 1.7299619e-38 319 251
0 0.69099998 -0.013327086 1.7025541e-38 320 251
0.0012097999 0.69 -0.0133078 1.6749314e-38 321 251
0.0024125867 0.68800002 -0.013269227 1.6654966e-38 322 251
0.0036188802 0.68800002 -0.013269227 1.5917401e-38 323 251
0.0048181596 0.68699998 -0.013249939 1.4905773e-38 324 251
0.0060139326 0.68599999 -0.013230653 1.4352599e-38 325 251
0.0072167199 0.68599999 -0.013230653 1.278994e-38 326 251
0.0084195063 0.68599999 -0.013230653 1.1959819e-38 327 251
0.0095802136 0.68300003 -0.013172794 1.1131125e-38 328 251
0.010761959 0.68199998 -0.013153506 1.0301005e-38 329 251
0.011957732 0.68199998 -0.013153506 8.3717494e-39 330 251
0.013153506 0.68199998 -0.013153506 7.4501546e-39 331 251
0.014307199 0.68000001 -0.013114933 5.8893253e-39 332 251
0.015499466 0.68000001 -0.013114933 5.6130986e-39 333 251
0.016691733 0.68000001 -0.013114933 4.3238241e-39 334 251
0.017857701 0.67900002 -0.013095647 4.4160198e-39 335 251
0.019048214 0.67900002 -0.013095647 4.6936954e-39 336 251
0.020238725 0.67900002 -0.013095647 6.0766299e-39 337 251
0.021429239 0.67900002 -0.013095647 9.2919583e-39 338 251
0.022586439 0.67799997 -0.013076359 1.0029523e-38 339 251
0.023705067 0.676 -0.013037786 1.2235362e-38 340 251
0.024890319 0.676 -0.013037786 1.3894524e-38 341 251
0.026075572 0.676 -0.013037786 1.4449496e-38 342 251
0.027341479 0.67799997 -0.013076359 1.5279257e-38 343 251
0.028530238 0.67799997 -0.013076359 1.5922112e-38 344 251
0.029631332 0.676 -0.013037786 1.6106504e-38 345 251
0.030816587 0.676 -0.013037786 1.6473834e-38 346 251
0.032001842 0.676 -0.013037786 1.6473834e-38 347 251
0.033285279 0.67799997 -0.013076359 1.6748614e-38 348 251
0.034474038 0.67799997 -0.013076359 1.6563862e-38 349 251
0.0356628 0.67799997 -0.013076359 1.6839004e-38 350 251
0.036851559 0.67799997 -0.013076359 1.6746809e-38 351 251
0.038040318 0.67799997 -0.013076359 1.6745361e-38 352 251
0.039229076 0.67799997 -0.013076359 1.6745361e-38 353 251
0.040417835 0.67799997 -0.013076359 1.6652077e-38 354 251
0.041606598 0.67799997 -0.013076359 1.6559881e-38 355 251
0.042795356 0.67799997 -0.013076359 1.6467688e-38 356 251
0.044048995 0.67900002 -0.013095647 1.6282937e-38 357 251
0.045239504 0.67900002 -0.013095647 1.6192178e-38 358 251
0.046430022 0.67900002 -0.013095647 1.609998e-38 359 251
0.047620531 0.67900002 -0.013095647 1.5823035e-38 360 251
0.048811045 0.67900002 -0.013095647 1.3979122e-38 361 251
0.050075196 0.68000001 -0.013114933 7.5358973e-39 362 251
0.051267464 0.68000001 -0.013114933 5.9693073e-39 363 251
0.052459732 0.68000001 -0.013114933 1.1092146e-39 364 251
0.053967599 0.68400002 -0.01319208 4.8895956e-39 365 251
0.055166878 0.68400002 -0.01319208 1.3067306e-38 366 251
0.056530971 0.68599999 -0.013230653 1.4726829e-38 367 251
0.057733759 0.68599999 -0.013230653 1.6194733e-38 368 251
0.058936544 0.68599999 -0.013230653 1.582595e-38 369 251
0.060139328 0.68599999 -0.013230653 1.5827382e-38 370 251
0.061431535 0.68699998 -0.013249939 1.6195805e-38 371 251
0.062636077 0.68699998 -0.013249939 1.5554405e-38 372 251
0.063933544 0.68800002 -0.013269227 1.5554405e-38 373 251
0.065329194 0.69 -0.0133078 1.5004115e-38 374 251
0.06663543 0.69099998 -0.013327086 1.4635692e-38 375 251
0.067846984 0.69099998 -0.013327086 1.4449496e-38 376 251
0.069058537 0.69099998 -0.013327086 1.4080714e-38 377 251
0.070473477 0.69300002 -0.01336566 1.4355135e-38 378 251
0.071791984 0.69400001 -0.013384946 1.3894157e-38 379 251
0.073219195 0.69599998 -0.013423519 1.3527913e-38 380 251
0.074546471 0.69700003 -0.013442807 1.4818651e-38 381 251
-0.01101444 0.69800001 -0.01468592 1.4919797e-38 311 252
-0.0097906133 0.69800001 -0.01468592 1.776274e-38 312 252
-0.0085545136 0.69700003 -0.01466488 1.7670545e-38 313 252
-0.00733244 0.69700003 -0.01466488 1.7208487e-38 314 252
-0.0061015999 0.69599998 -0.014643839 1.6379086e-38 315 252
-0.0048672534 0.69400001 -0.01460176 1.5371417e-38 316 252
-0.0036451798 0.69300002 -0.014580719 1.5555809e-38 317 252
-0.0024231065 0.69099998 -0.014538639 1.5003001e-38 318 252
-0.0012097999 0.69 -0.014517599 1.4542383e-38 319 252
0 0.69 -0.014517599 1.4082123e-38 320 252
0.0012062934 0.68800002 -0.014475521 1.3621147e-38 321 252
0.0024090798 0.68699998 -0.014454478 1.3526799e-38 322 252
0.0036136196 0.68699998 -0.014454478 1.2697038e-38 323 252
0.0048111463 0.68599999 -0.01443344 1.1408463e-38 324 252
0.0060139326 0.68599999 -0.01443344 1.0394671e-38 325 252
0.0072167199 0.68599999 -0.01443344 8.4628814e-39 326 252
0.0083949603 0.68400002 -0.01439136 8.0937388e-39 327 252
0.009566186 0.68199998 -0.01434928 7.4490966e-39 328 252
0.0107304 0.68000001 -0.014307199 7.2647054e-39 329 252
0.011922667 0.68000001 -0.014307199 6.988857e-39 330 252
0.013095647 0.67900002 -0.01428616 7.0814113e-39 331 252
0.01428616 0.67900002 -0.01428616 7.7246256e-39 332 252
0.015499466 0.68000001 -0.014307199 7.9090182e-39 333 252
0.016667187 0.67900002 -0.01428616 8.7351818e-39 334 252
0.0178314 0.67799997 -0.014265119 9.4731055e-39 335 252
0.019020159 0.67799997 -0.014265119 1.0577655e-38 336 252
0.020208918 0.67799997 -0.014265119 1.1499612e-38 337 252
0.021397678 0.67799997 -0.014265119 1.3062972e-38 338 252
0.022586439 0.67799997 -0.014265119 1.3800537e-38 339 252
0.023705067 0.676 -0.014223038 1.4448056e-38 340 252
0.024890319 0.676 -0.014223038 1.5093425e-38 341 252
0.026075572 0.676 -0.014223038 1.628945e-38 342 252
0.027260827 0.676 -0.014223038 1.6750427e-38 343 252
0.028446076 0.676 -0.014223038 1.7209237e-38 344 252
0.029631332 0.676 -0.014223038 1.7116683e-38 345 252
0.030816587 0.676 -0.014223038 1.6932629e-38 346 252
0.032001842 0.676 -0.014223038 1.6656042e-38 347 252
0.033187091 0.676 -0.014223038 1.6747512e-38 348 252
0.034372345 0.676 -0.014223038 1.6655316e-38 349 252
0.035557602 0.676 -0.014223038 1.6837562e-38 350 252
0.036742851 0.676 -0.014223038 1.6745367e-38 351 252
0.037928104 0.676 -0.014223038 1.6560978e-38 352 252
0.039113361 0.676 -0.014223038 1.6468783e-38 353 252
0.040298611 0.676 -0.014223038 1.6376581e-38 354 252
0.041483864 0.676 -0.014223038 1.619219e-38 355 252
0.042795356 0.67799997 -0.014265119 1.6192546e-38 356 252
0.043984115 0.67799997 -0.014265119 1.5915959e-38 357 252
0.045239504 0.67900002 -0.01428616 1.6007432e-38 358 252
0.046430022 0.67900002 -0.01428616 1.5638651e-38 359 252
0.047620531 0.67900002 -0.01428616 1.6192178e-38 360 252
0.048811045 0.67900002 -0.01428616 1.5454611e-38 361 252
0.050075196 0.68000001 -0.014307199 1.075554e-38 362 252
0.051267464 0.68000001 -0.014307199 8.1740766e-39 363 252
0.056530971 0.68599999 -0.01443344 1.2429872e-38 367 252
0.057733759 0.68599999 -0.01443344 1.5186711e-38 368 252
0.058936544 0.68599999 -0.01443344 1.4449146e-38 369 252
0.060139328 0.68599999 -0.01443344 1.4173969e-38 370 252
0.061342116 0.68599999 -0.01443344 1.3897382e-38 371 252
0.062636077 0.68699998 -0.014454478 1.3163426e-38 372 252
0.06384062 0.68699998 -0.014454478 1.28872e-38 373 252
0.065045156 0.68699998 -0.014454478 1.2152167e-38 374 252
0.066538997 0.69 -0.014517599 1.1783386e-38 375 252
0.0677488 0.69 -0.014517599 1.1414246e-38 376 252
0.068958595 0.69 -0.014517599 1.0953269e-38 377 252
0.070473477 0.69300002 -0.014580719 1.1136221e-38 378 252
0.07168854 0.69300002 -0.014580719 1.1228417e-38 379 252
-0.01101444 0.69800001 -0.015909746 1.4447316e-38 311 253
-0.0097906133 0.69800001 -0.015909746 1.5457139e-38 312 253
-0.0085545136 0.69700003 -0.015886955 1.5273108e-38 313 253
-0.0073219193 0.69599998 -0.015864158 1.4254986e-38 314 253
-0.0060840664 0.69400001 -0.015818574 1.1857901e-38 315 253
-0.00486024 0.69300002 -0.015795778 8.7351341e-39 316 253
-0.0036346598 0.69099998 -0.015750192 8.0897745e-39 317 253
-0.0024195998 0.69 -0.015727401 6.253782e-39 318 253
-0.0012062934 0.68800002 -0.015681813 5.8846464e-39 319 253
0 0.68800002 -0.015681813 5.0545396e-39 320 253
0.0012045399 0.68699998 -0.015659019 4.5935685e-39 321 253
0.0024055731 0.68599999 -0.015636226 3.9521549e-39 322 253
0.00360836 0.68599999 -0.015636226 4.3205731e-39 323 253
0.0047971201 0.68400002 -0.01559064 4.1419468e-39 324 253
0.0059876335 0.68300003 -0.015567848 4.4185351e-39 325 253
0.0071851597 0.68300003 -0.015567848 4.6958464e-39 326 253
0.0083826864 0.68300003 -0.015567848 5.1568246e-39 327 253
0.009566186 0.68199998 -0.015545053 7.7285884e-39 328 253
0.0107304 0.68000001 -0.015499466 8.6509049e-39 329 253
0.011905133 0.67900002 -0.015476674 1.0495168e-38 330 253
0.013095647 0.67900002 -0.015476674 1.1232733e-38 331 253
0.01428616 0.67900002 -0.015476674 1.3343149e-38 332 253
0.015453878 0.67799997 -0.015453878 1.3896322e-38 333 253
0.016642639 0.67799997 -0.015453878 1.5001584e-38 334 253
0.017778801 0.676 -0.015408293 1.5462203e-38 335 253
0.018964052 0.676 -0.015408293 1.6471316e-38 336 253
0.020149305 0.676 -0.015408293 1.6195089e-38 337 253
0.021334561 0.676 -0.015408293 1.6285836e-38 338 253
0.022519812 0.676 -0.015408293 1.6378033e-38 339 253
0.023705067 0.676 -0.015408293 1.6101439e-38 340 253
0.024890319 0.676 -0.015408293 1.6101439e-38 341 253
0.026075572 0.676 -0.015408293 1.6101439e-38 342 253
0.027260827 0.676 -0.015408293 1.6378386e-38 343 253
0.028446076 0.676 -0.015408293 1.6745367e-38 344 253
0.029631332 0.676 -0.015408293 1.6929758e-38 345 253
0.030816587 0.676 -0.015408293 1.683756e-38 346 253
0.032001842 0.676 -0.015408293 1.683756e-38 347 253
0.033187091 0.676 -0.015408293 1.6745361e-38 348 253
0.034372345 0.676 -0.015408293 1.6837915e-38 349 253
0.035557602 0.676 -0.015408293 1.6745361e-38 350 253
0.036742851 0.676 -0.015408293 1.6469133e-38 351 253
0.037928104 0.676 -0.015408293 1.6468054e-38 352 253
0.039113361 0.676 -0.015408293 1.6468054e-38 353 253
0.040298611 0.676 -0.015408293 1.6191824e-38 354 253
0.041483864 0.676 -0.015408293 1.6099627e-38 355 253
0.042669121 0.676 -0.015408293 1.6099627e-38 356 253
0.043984115 0.67799997 -0.015453878 1.5914877e-38 357 253
0.045172878 0.67799997 -0.015453878 1.6097827e-38 358 253
0.046361636 0.67799997 -0.015453878 1.6190022e-38 359 253
0.047620531 0.67900002 -0.015476674 1.6009597e-38 360 253
0.048811045 0.67900002 -0.015476674 1.6009597e-38 361 253
0.050001562 0.67900002 -0.015476674 1.3706176e-38 362 253
0.051192071 0.67900002 -0.015476674 1.0202383e-38 363 253
0.058936544 0.68599999 -0.015636226 1.0114529e-38 369 253
0.060139328 0.68599999 -0.015636226 7.9072035e-39 370 253
0.061342116 0.68599999 -0.015636226 6.5242691e-39 371 253
0.062544905 0.68599999 -0.015636226 3.5869751e-39 372 253
0.06384062 0.68699998 -0.015659019 3.2181926e-39 373 253
0.065045156 0.68699998 -0.015659019 1.9368299e-39 374 253
0.066249698 0.68699998 -0.015659019 2.0290255e-39 375 253
0.067552425 0.68800002 -0.015681813 1.6606129e-39 376 253
0.068758719 0.68800002 -0.015681813 1.7528086e-39 377 253
0.06996502 0.68800002 -0.015681813 1.7528114e-39 378 253
0.071171306 0.68800002 -0.015681813 1.6606158e-39 379 253
-0.01101444 0.69800001 -0.017133573 1.048722e-38 311 254
-0.0097906133 0.69800001 -0.017133573 9.9369325e-39 312 254
-0.0085545136 0.69700003 -0.017109027 9.5681514e-39 313 254
-0.0073219193 0.69599998 -0.017084479 9.1986486e-39 314 254
-0.0060840664 0.69400001 -0.017035386 7.354736e-39 315 254
-0.00486024 0.69300002 -0.01701084 5.2407329e-39 316 254
-0.0036346598 0.69099998 -0.016961746 4.9645048e-39 317 254
-0.0024125867 0.68800002 -0.016888106 5.3322279e-39 318 254
-0.0012062934 0.68800002 -0.016888106 5.5166192e-39 319 254
0 0.68800002 -0.016888106 6.2520234e-39 320 254
0.0012027866 0.68599999 -0.016839013 6.7126428e-39 321 254
0.0024055731 0.68599999 -0.016839013 8.0898179e-39 322 254
0.00359784 0.68400002 -0.016789921 8.642633e-39 323 254
0.0047971201 0.68400002 -0.016789921 9.4727524e-39 324 254
0.005978866 0.68199998 -0.016740825 1.039471e-38 325 254
0.00717464 0.68199998 -0.016740825 1.1775122e-38 326 254
0.0083704125 0.68199998 -0.016740825 1.2604883e-38 327 254
0.0095381327 0.68000001 -0.016691733 1.3524673e-38 328 254
0.0107304 0.68000001 -0.016691733 1.3985651e-38 329 254
0.011905133 0.67900002 -0.016667187 1.4722839e-38 330 254
0.013095647 0.67900002 -0.016667187 1.5091982e-38 331 254
0.01428616 0.67900002 -0.016667187 1.6011044e-38 332 254
0.015453878 0.67799997 -0.016642639 1.6103241e-38 333 254
0.016642639 0.67799997 -0.016642639 1.6286184e-38 334 254
0.017778801 0.676 -0.016593546 1.6193988e-38 335 254
0.018964052 0.676 -0.016593546 1.6377288e-38 336 254
0.020149305 0.676 -0.016593546 1.6192896e-38 337 254
0.021334561 0.676 -0.016593546 1.6099975e-38 338 254
0.022519812 0.676 -0.016593546 1.6099975e-38 339 254
0.023705067 0.676 -0.016593546 1.5916315e-38 340 254
0.024890319 0.676 -0.016593546 1.5916315e-38 341 254
0.026037 0.67500001 -0.016569 1.6008528e-38 342 254
0.027220501 0.67500001 -0.016569 1.6284754e-38 343 254
0.028404001 0.67500001 -0.016569 1.6284401e-38 344 254
0.029631332 0.676 -0.016593546 1.6376597e-38 345 254
0.030816587 0.676 -0.016593546 1.6376237e-38 346 254
0.031954501 0.67500001 -0.016569 1.6560628e-38 347 254
0.033137999 0.67500001 -0.016569 1.6286189e-38 348 254
0.034321502 0.67500001 -0.016569 1.6286189e-38 349 254
0.035505001 0.67500001 -0.016569 1.6193988e-38 350 254
0.036742851 0.676 -0.016593546 1.6101792e-38 351 254
0.037928104 0.676 -0.016593546 1.6099994e-38 352 254
0.039113361 0.676 -0.016593546 1.5915962e-38 353 254
0.040298611 0.676 -0.016593546 1.5915959e-38 354 254
0.041483864 0.676 -0.016593546 1.5823764e-38 355 254
0.042669121 0.676 -0.016593546 1.5732287e-38 356 254
0.043854371 0.676 -0.016593546 1.5640091e-38 357 254
0.045039624 0.676 -0.016593546 1.5639735e-38 358 254
0.046224877 0.676 -0.016593546 1.5731931e-38 359 254
0.047410134 0.676 -0.016593546 1.5363877e-38 360 254
0.048811045 0.67900002 -0.016667187 1.5271681e-38 361 254
0.050001562 0.67900002 -0.016667187 1.3063693e-38 362 254
0.051192071 0.67900002 -0.016667187 1.0113434e-38 363 254
0.052382588 0.67900002 -0.016667187 3.126395e-39 364 254
0.060139328 0.68599999 -0.016839013 3.7699441e-39 370 254
0.061342116 0.68599999 -0.016839013 3.4933572e-39 371 254
0.062544905 0.68599999 -0.016839013 2.4856947e-39 372 254
0.063747689 0.68599999 -0.016839013 2.6697258e-39 373 254
0.064950474 0.68599999 -0.016839013 2.122317e-39 374 254
0.066249698 0.68699998 -0.01686356 2.3067082e-39 375 254
0.067454241 0.68699998 -0.01686356 2.8580869e-39 376 254
0.068658777 0.68699998 -0.01686356 2.8580869e-39 377 254
0.06996502 0.68800002 -0.016888106 3.5906143e-39 378 254
0.071171306 0.68800002 -0.016888106 3.4984173e-39 379 254
-0.01101444 0.69800001 -0.0183574 4.1325973e-39 311 255
-0.0097765867 0.69700003 -0.018331099 2.8476178e-39 312 255
-0.0085422397 0.69599998 -0.018304799 2.6632294e-39 313 255
-0.0073008798 0.69400001 -0.0182522 3.3982749e-39 314 255
-0.0060753003 0.69300002 -0.018225901 3.9510885e-39 315 255
-0.0048462129 0.69099998 -0.0181733 5.5148213e-39 316 255
-0.0036293997 0.69 -0.018146999 6.4371363e-39 317 255
-0.0024125867 0.68800002 -0.0180944 7.7242752e-39 318 255
-0.0012045399 0.68699998 -0.018068098 8.7384286e-39 319 255
0 0.68599999 -0.018041799 1.0396854e-38 320 255
0.0012027866 0.68599999 -0.018041799 1.1411006e-38 321 255
0.0023950534 0.68300003 -0.017962901 1.2882528e-38 322 255
0.00358732 0.68199998 -0.017936599 1.34357e-38 323 255
0.004783093 0.68199998 -0.017936599 1.4264379e-38 324 255
0.005978866 0.68199998 -0.017936599 1.50945e-38 325 255
0.0071535995 0.68000001 -0.017883999 1.6015011e-38 326 255
0.0083458666 0.68000001 -0.017883999 1.6291238e-38 327 255
0.0095381327 0.68000001 -0.017883999 1.6841878e-38 328 255
0.010714619 0.67900002 -0.017857701 1.6749683e-38 329 255
0.011905133 0.67900002 -0.017857701 1.7024106e-38 330 255
0.013076359 0.67799997 -0.0178314 1.6747159e-38 331 255
0.014265119 0.67799997 -0.0178314 1.6837194e-38 332 255
0.015453878 0.67799997 -0.0178314 1.6560247e-38 333 255
0.016593546 0.676 -0.017778801 1.6650998e-38 334 255
0.017778801 0.676 -0.017778801 1.637477e-38 335 255
0.018964052 0.676 -0.017778801 1.6007426e-38 336 255
0.020149305 0.676 -0.017778801 1.591523e-38 337 255
0.021334561 0.676 -0.017778801 1.5914877e-38 338 255
0.022519812 0.676 -0.017778801 1.5914877e-38 339 255
0.023705067 0.676 -0.017778801 1.591488e-38 340 255
0.024890319 0.676 -0.017778801 1.591488e-38 341 255
0.026037 0.67500001 -0.0177525 1.6098555e-38 342 255
0.027220501 0.67500001 -0.0177525 1.6282586e-38 343 255
0.028404001 0.67500001 -0.0177525 1.6191471e-38 344 255
0.029631332 0.676 -0.017778801 1.6283667e-38 345 255
0.030771 0.67500001 -0.0177525 1.6374784e-38 346 255
0.031954501 0.67500001 -0.0177525 1.6651729e-38 347 255
0.033137999 0.67500001 -0.0177525 1.6101429e-38 348 255
0.034321502 0.67500001 -0.0177525 1.6101429e-38 349 255
0.035505001 0.67500001 -0.0177525 1.6099992e-38 350 255
0.036688499 0.67500001 -0.0177525 1.5915959e-38 351 255
0.037871998 0.67500001 -0.0177525 1.6098558e-38 352 255
0.039113361 0.676 -0.017778801 1.5913808e-38 353 255
0.040298611 0.676 -0.017778801 1.5731568e-38 354 255
0.041483864 0.676 -0.017778801 1.5731568e-38 355 255
0.042669121 0.676 -0.017778801 1.5457139e-38 356 255
0.043854371 0.676 -0.017778801 1.5549693e-38 357 255
0.045039624 0.676 -0.017778801 1.5090514e-38 358 255
0.046224877 0.676 -0.017778801 1.4352949e-38 359 255
0.047410134 0.676 -0.017778801 1.2970734e-38 360 255
0.048595384 0.676 -0.017778801 1.1864386e-38 361 255
0.049780637 0.676 -0.017778801 9.8389958e-39 362 255
0.050965894 0.676 -0.017778801 8.3638643e-39 363 255
0.058936544 0.68599999 -0.018041799 1.1063672e-39 369 255
0.060139328 0.68599999 -0.018041799 1.840691e-39 370 255
0.061342116 0.68599999 -0.018041799 2.3013104e-39 371 255
0.062544905 0.68599999 -0.018041799 3.6784968e-39 372 255
0.063747689 0.68599999 -0.018041799 4.5078973e-39 373 255
0.064950474 0.68599999 -0.018041799 4.0512379e-39 374 255
0.066249698 0.68699998 -0.018068098 4.881e-39 375 255
0.067454241 0.68699998 -0.018068098 6.2610436e-39 376 255
0.068658777 0.68699998 -0.018068098 6.5376305e-39 377 255
0.06996502 0.68800002 -0.0180944 7.4545267e-39 378 255
0.071171306 0.68800002 -0.0180944 7.0857428e-39 379 255
0.072587997 0.69 -0.018146999 5.7089236e-39 380 255
0.073904753 0.69099998 -0.0181733 3.865011e-39 381 255
-0.012238266 0.69800001 -0.019581227 3.2199975e-39 310 256
-0.01101444 0.69800001 -0.019581227 4.2337893e-39 311 256
-0.0097765867 0.69700003 -0.019553173 6.4392986e-39 312 256
-0.0085422397 0.69599998 -0.019525118 7.084668e-39 313 256
-0.0072903596 0.69300002 -0.01944096 9.4709517e-39 314 256
-0.0060753003 0.69300002 -0.01944096 1.0300712e-38 315 256
-0.0048462129 0.69099998 -0.019384852 1.2232491e-38 316 256
-0.0036293997 0.69 -0.019356798 1.2970057e-38 317 256
-0.0024125867 0.68800002 -0.019300694 1.361434e-38 318 256
-0.0012045399 0.68699998 -0.019272638 1.3799092e-38 319 256
0 0.68599999 -0.019244585 1.4443012e-38 320 256
0.00119928 0.68400002 -0.01918848 1.4719601e-38 321 256
0.0023950534 0.68300003 -0.019160427 1.527276e-38 322 256
0.00358732 0.68199998 -0.019132372 1.5548987e-38 323 256
0.004783093 0.68199998 -0.019132372 1.5643338e-38 324 256
0.005978866 0.68199998 -0.019132372 1.5458588e-38 325 256
0.0071535995 0.68000001 -0.019076265 1.6194338e-38 326 256
0.0083458666 0.68000001 -0.019076265 1.6102143e-38 327 256
0.009524107 0.67900002 -0.019048214 1.6377638e-38 328 256
0.010714619 0.67900002 -0.019048214 1.6377638e-38 329 256
0.011887599 0.67799997 -0.019020159 1.656095e-38 330 256
0.013076359 0.67799997 -0.019020159 1.656095e-38 331 256
0.014265119 0.67799997 -0.019020159 1.6467318e-38 332 256
0.015408293 0.676 -0.018964052 1.6375123e-38 333 256
0.016593546 0.676 -0.018964052 1.6282574e-38 334 256
0.017778801 0.676 -0.018964052 1.6190378e-38 335 256
0.018964052 0.676 -0.018964052 1.5914514e-38 336 256
0.020149305 0.676 -0.018964052 1.5822319e-38 337 256
0.021334561 0.676 -0.018964052 1.6005634e-38 338 256
0.022519812 0.676 -0.018964052 1.6005634e-38 339 256
0.023669999 0.67500001 -0.018935999 1.5914164e-38 340 256
0.0248535 0.67500001 -0.018935999 1.5821968e-38 341 256
0.026037 0.67500001 -0.018935999 1.5913808e-38 342 256
0.027220501 0.67500001 -0.018935999 1.6006004e-38 343 256
0.028404001 0.67500001 -0.018935999 1.582341e-38 344 256
0.0295875 0.67500001 -0.018935999 1.5915606e-38 345 256
0.030771 0.67500001 -0.018935999 1.6192193e-38 346 256
0.031954501 0.67500001 -0.018935999 1.6192193e-38 347 256
0.033137999 0.67500001 -0.018935999 1.5916682e-38 348 256
0.034321502 0.67500001 -0.018935999 1.5824485e-38 349 256
0.035505001 0.67500001 -0.018935999 1.5914527e-38 350 256
0.036688499 0.67500001 -0.018935999 1.5914527e-38 351 256
0.037871998 0.67500001 -0.018935999 1.6006725e-38 352 256
0.039055496 0.67500001 -0.018935999 1.591453e-38 353 256
0.040238999 0.67500001 -0.018935999 1.5454625e-38 354 256
0.041422497 0.67500001 -0.018935999 1.4993647e-38 355 256
0.042606 0.67500001 -0.018935999 1.370723e-38 356 256
0.043854371 0.676 -0.018964052 1.306186e-38 357 256
0.045039624 0.676 -0.018964052 1.0302475e-38 358 256
0.046224877 0.676 -0.018964052 8.6429539e-39 359 256
0.047410134 0.676 -0.018964052 6.7147574e-39 360 256
0.048595384 0.676 -0.018964052 6.253782e-39 361 256
0.049780637 0.676 -0.018964052 4.9670229e-39 362 256
0.050965894 0.676 -0.018964052 4.5978803e-39 363 256
0.060984433 0.68199998 -0.019132372 7.2701536e-39 371 256
0.062180214 0.68199998 -0.019132372 9.0161127e-39 372 256
0.063375987 0.68199998 -0.019132372 1.0122101e-38 373 256
0.064571753 0.68199998 -0.019132372 1.1502874e-38 374 256
0.065863967 0.68300003 -0.019160427 1.2240439e-38 375 256
0.067159683 0.68400002 -0.01918848 1.2976553e-38 376 256
0.068558842 0.68599999 -0.019244585 1.3161303e-38 377 256
0.069761619 0.68599999 -0.019244585 1.3528263e-38 378 256
0.071067855 0.68699998 -0.019272638 1.3067643e-38 379 256
0.0723776 0.68800002 -0.019300694 1.2697779e-38 380 256
0.073583893 0.68800002 -0.019300694 1.1499595e-38 381 256
-0.012238266 0.69800001 -0.020805053 6.4374839e-39 310 257
-0.01099866 0.69700003 -0.020775247 8.0970052e-39 311 257
-0.0097625591 0.69599998 -0.020745439 1.0763842e-38 312 257
-0.0085176928 0.69400001 -0.020685827 1.1685799e-38 313 257
-0.0072903596 0.69300002 -0.020656019 1.34321e-38 314 257
-0.0060753003 0.69300002 -0.020656019 1.407747e-38 315 257
-0.0048391996 0.69 -0.020566599 1.5273113e-38 316 257
-0.0036188802 0.68800002 -0.020506985 1.554934e-38 317 257
-0.0024090798 0.68699998 -0.020477179 1.5824485e-38 318 257
-0.0012045399 0.68699998 -0.020477179 1.5916682e-38 319 257
0 0.68400002 -0.020387759 1.6007429e-38 320 257
0.00119928 0.68400002 -0.020387759 1.6007429e-38 321 257
0.0023950534 0.68300003 -0.020357953 1.6007779e-38 322 257
0.00358732 0.68199998 -0.020328145 1.6007779e-38 323 257
0.004783093 0.68199998 -0.020328145 1.5915959e-38 324 257
0.005978866 0.68199998 -0.020328145 1.5731568e-38 325 257
0.0071535995 0.68000001 -0.020268533 1.5731215e-38 326 257
0.0083458666 0.68000001 -0.020268533 1.582341e-38 327 257
0.009524107 0.67900002 -0.020238725 1.6099277e-38 328 257
0.010714619 0.67900002 -0.020238725 1.6099277e-38 329 257
0.011887599 0.67799997 -0.020208918 1.6098558e-38 330 257
0.013076359 0.67799997 -0.020208918 1.6098558e-38 331 257
0.014265119 0.67799997 -0.020208918 1.6189669e-38 332 257
0.015408293 0.676 -0.020149305 1.6189669e-38 333 257
0.016593546 0.676 -0.020149305 1.6190025e-38 334 257
0.017778801 0.676 -0.020149305 1.6005634e-38 335 257
0.018964052 0.676 -0.020149305 1.5821244e-38 336 257
0.020119499 0.67500001 -0.020119499 1.5729047e-38 337 257
0.021303 0.67500001 -0.020119499 1.5821244e-38 338 257
0.022486499 0.67500001 -0.020119499 1.5821244e-38 339 257
0.023669999 0.67500001 -0.020119499 1.5821247e-38 340 257
0.0248535 0.67500001 -0.020119499 1.5821247e-38 341 257
0.026037 0.67500001 -0.020119499 1.6005281e-38 342 257
0.027220501 0.67500001 -0.020119499 1.6005281e-38 343 257
0.028404001 0.67500001 -0.020119499 1.5731212e-38 344 257
0.0295875 0.67500001 -0.020119499 1.5823766e-38 345 257
0.030771 0.67500001 -0.020119499 1.5915962e-38 346 257
0.031954501 0.67500001 -0.020119499 1.5823766e-38 347 257
0.033137999 0.67500001 -0.020119499 1.5731212e-38 348 257
