# .PCD v.7 - Point Cloud Data file format
FIELDS x y z rgb imX imY
SIZE 4 4 4 4 4 4
TYPE F F F F F F
COUNT 1 1 1 1 1 1
WIDTH 834
HEIGHT 1
VIEWPOINT 0 0 0 1 0 0 0
POINTS 834
DATA ascii
0.023517458 0.78899997 0.0069168997 1.5129126e-38 337 235
0.024900839 0.78899997 0.0069168997 1.5039439e-38 338 235
0.026284218 0.78899997 0.0069168997 1.605323e-38 339 235
-0.025917772 0.778 0.0054563731 1.3017592e-38 301 236
-0.024553679 0.778 0.0054563731 1.8068215e-38 302 236
-0.023189586 0.778 0.0054563731 1.8897976e-38 303 236
-0.021769386 0.77600002 0.0054423464 1.7800259e-38 304 236
-0.0204088 0.77600002 0.0054423464 1.7984651e-38 305 236
-0.019048214 0.77600002 0.0054423464 1.8441297e-38 306 236
-0.017687626 0.77600002 0.0054423464 1.8256547e-38 307 236
-0.016284959 0.77399999 0.0054283198 1.7430738e-38 308 236
-0.014908593 0.773 0.0054213065 1.5586825e-38 309 236
-0.013553266 0.773 0.0054213065 9.7878554e-39 310 236
-0.012197939 0.773 0.0054213065 1.4758475e-41 311 236
-0.010842613 0.773 0.0054213065 0 312 236
-0.0094627403 0.77100003 0.0054072798 4.243873e-39 313 236
-0.0081109209 0.77100003 0.0054072798 7.3763566e-39 314 236
-0.0067853997 0.77399999 0.0054283198 8.9433236e-39 315 236
-0.0054283198 0.77399999 0.0054283198 9.8620359e-39 316 236
-0.0040659797 0.773 0.0054213065 9.2166665e-39 317 236
-0.0026966266 0.76899999 0.0053932532 6.0982099e-39 318 236
-0.0013483133 0.76899999 0.0053932532 1.0800187e-38 319 236
0 0.76899999 0.0053932532 1.7339991e-38 320 236
0.0013483133 0.76899999 0.0053932532 1.7432187e-38 321 236
0.0027036399 0.77100003 0.0054072798 1.6507e-38 322 236
0.0040554604 0.77100003 0.0054072798 1.7060174e-38 323 236
0.0054072798 0.77100003 0.0054072798 1.7981407e-38 324 236
0.0067590997 0.77100003 0.0054072798 1.7612625e-38 325 236
0.0081109209 0.77100003 0.0054072798 1.697193e-38 326 236
0.0094872871 0.773 0.0054213065 1.7524745e-38 327 236
0.010842613 0.773 0.0054213065 1.5498246e-38 328 236
0.012276839 0.778 0.0054563731 1.1256887e-38 329 236
0.013675999 0.77999997 0.0054703997 4.5179754e-39 330 236
0.015062887 0.78100002 0.0054774131 9.8090893e-45 331 236
0.016432239 0.78100002 0.0054774131 3.643376e-44 332 236
0.017847179 0.78299999 0.0054914397 3.2265514e-39 333 236
0.019269135 0.78500003 0.0055054668 8.2281527e-39 334 236
0.0206981 0.787 0.005519493 1.1823422e-38 335 236
0.022077972 0.787 0.005519493 1.531424e-38 336 236
0.023457846 0.787 0.005519493 1.4761066e-38 337 236
0.024837719 0.787 0.005519493 1.4577744e-38 338 236
0.026284218 0.78899997 0.0055335197 1.5684452e-38 339 236
-0.027281865 0.778 0.0040922803 1.1710307e-38 300 237
-0.025917772 0.778 0.0040922803 1.6597034e-38 301 237
-0.024553679 0.778 0.0040922803 1.7153089e-38 302 237
-0.023129974 0.77600002 0.0040817601 1.7153089e-38 303 237
-0.021769386 0.77600002 0.0040817601 1.7247086e-38 304 237
-0.0204088 0.77600002 0.0040817601 1.7800259e-38 305 237
-0.019048214 0.77600002 0.0040817601 1.8259422e-38 306 237
-0.01764204 0.77399999 0.0040712398 1.8443815e-38 307 237
-0.016263919 0.773 0.0040659797 1.9364323e-38 308 237
-0.014908593 0.773 0.0040659797 1.7796996e-38 309 237
-0.013553266 0.773 0.0040659797 1.4748411e-38 310 237
-0.012197939 0.773 0.0040659797 5.0678702e-39 311 237
-0.010842613 0.773 0.0040659797 2.0272094e-39 312 237
-0.0094627403 0.77100003 0.0040554604 6.9139366e-39 313 237
-0.0081109209 0.77100003 0.0040554604 7.9309766e-39 314 237
-0.0067590997 0.77100003 0.0040554604 9.1295183e-39 315 237
-0.0053932532 0.76899999 0.0040449398 9.403213e-39 316 237
-0.0040449398 0.76899999 0.0040449398 8.1124741e-39 317 237
-0.0026896133 0.76700002 0.00403442 1.198576e-38 318 237
-0.0013448066 0.76700002 0.00403442 1.6872487e-38 319 237
0 0.76700002 0.00403442 1.9740295e-38 320 237
0.0013448066 0.76700002 0.00403442 2.0016882e-38 321 237
0.0026966266 0.76899999 0.0040449398 2.0654359e-38 322 237
0.0040554604 0.77100003 0.0040554604 2.102314e-38 323 237
0.0053932532 0.76899999 0.0040449398 2.0930225e-38 324 237
0.0067415666 0.76899999 0.0040449398 1.9270704e-38 325 237
0.0080898795 0.76899999 0.0040449398 1.7707341e-38 326 237
0.0094381925 0.76899999 0.0040449398 1.7799537e-38 327 237
0.01081456 0.77100003 0.0040554604 1.6602436e-38 328 237
0.012276839 0.778 0.0040922803 1.3283393e-38 329 237
0.013675999 0.77999997 0.0041027996 4.3400694e-39 330 237
0.015062887 0.78100002 0.0041080597 1.8342997e-42 331 237
0.01647432 0.78299999 0.0041185799 6.1895353e-42 332 237
0.017892767 0.78500003 0.0041291001 1.9130106e-40 333 237
0.019269135 0.78500003 0.0041291001 3.7138039e-39 334 237
0.0206981 0.787 0.0041396199 9.7065198e-39 335 237
0.022077972 0.787 0.0041396199 1.5222047e-38 336 237
0.023457846 0.787 0.0041396199 1.4668874e-38 337 237
0.024837719 0.787 0.0041396199 1.4117125e-38 338 237
0.026284218 0.78899997 0.0041501396 1.5500059e-38 339 237
-0.027281865 0.778 0.0027281865 1.4004064e-38 300 238
-0.025917772 0.778 0.0027281865 1.8613845e-38 301 238
-0.024553679 0.778 0.0027281865 1.6877931e-38 302 238
-0.023129974 0.77600002 0.0027211732 1.7154877e-38 303 238
-0.021769386 0.77600002 0.0027211732 1.8166149e-38 304 238
-0.0204088 0.77600002 0.0027211732 1.8443094e-38 305 238
-0.018999118 0.77399999 0.0027141599 1.8258698e-38 306 238
-0.01764204 0.77399999 0.0027141599 1.862748e-38 307 238
-0.016263919 0.773 0.0027106532 1.9824581e-38 308 238
-0.014908593 0.773 0.0027106532 1.8626038e-38 309 238
-0.013553266 0.773 0.0027106532 1.5949471e-38 310 238
-0.012197939 0.773 0.0027106532 6.7299082e-39 311 238
-0.010842613 0.773 0.0027106532 2.6768949e-39 312 238
-0.0094872871 0.773 0.0027106532 7.2866763e-39 313 238
-0.0080057196 0.76099998 0.0026685731 8.7589408e-39 314 238
-0.0066714329 0.76099998 0.0026685731 9.4043102e-39 315 238
-0.0053371461 0.76099998 0.0026685731 8.115344e-39 316 238
-0.0040291594 0.76599997 0.0026861064 6.2714328e-39 317 238
-0.0026861064 0.76599997 0.0026861064 1.631248e-38 318 238
-0.0013430532 0.76599997 0.0026861064 2.2581423e-38 319 238
0 0.76700002 0.0026896133 2.3509886e-38 320 238
0.0013448066 0.76700002 0.0026896133 2.3326215e-38 321 238
0.0026896133 0.76700002 0.0026896133 2.341805e-38 322 238
0.0040449398 0.76899999 0.0026966266 2.3326215e-38 323 238
0.0053932532 0.76899999 0.0026966266 2.1945451e-38 324 238
0.0067415666 0.76899999 0.0026966266 1.9363973e-38 325 238
0.0080898795 0.76899999 0.0026966266 1.7707341e-38 326 238
0.0094381925 0.76899999 0.0026966266 1.752295e-38 327 238
0.010786506 0.76899999 0.0026966266 1.68801e-38 328 238
0.012197939 0.773 0.0027106532 1.439082e-38 329 238
0.013553266 0.773 0.0027106532 5.0794365e-39 330 238
0.014831445 0.76899999 0.0026966266 6.1559042e-42 331 238
0.01655848 0.787 0.0027597465 8.3989766e-40 332 238
0.017938353 0.787 0.0027597465 1.0138394e-41 333 238
0.019318225 0.787 0.0027597465 3.9330945e-40 334 238
0.0206981 0.787 0.0027597465 7.7689598e-39 335 238
0.022134079 0.78899997 0.0027667598 1.4945103e-38 336 238
0.023517458 0.78899997 0.0027667598 1.4576322e-38 337 238
0.024900839 0.78899997 0.0027667598 1.4300437e-38 338 238
-0.028756421 0.78100002 0.0013693533 1.0522216e-38 299 239
-0.027387068 0.78100002 0.0013693533 1.3555669e-38 300 239
-0.025917772 0.778 0.0013640933 1.6321538e-38 301 239
-0.024490559 0.77600002 0.0013605866 1.7153429e-38 302 239
-0.023129974 0.77600002 0.0013605866 1.798319e-38 303 239
-0.021713279 0.77399999 0.0013570799 1.954512e-38 304 239
-0.020356199 0.77399999 0.0013570799 1.9452925e-38 305 239
-0.018999118 0.77399999 0.0013570799 1.8626404e-38 306 239
-0.01764204 0.77399999 0.0013570799 1.9087382e-38 307 239
-0.016221842 0.77100003 0.00135182 2.0284488e-38 308 239
-0.01487002 0.77100003 0.00135182 1.9362171e-38 309 239
-0.013518199 0.77100003 0.00135182 1.6228576e-38 310 239
-0.012134819 0.76899999 0.0013483133 5.6260788e-39 311 239
-0.010786506 0.76899999 0.0013483133 1.0413049e-41 312 239
-0.0094381925 0.76899999 0.0013483133 4.4365235e-39 313 239
-0.0080057196 0.76099998 0.0013342865 6.3650928e-39 314 239
-0.0066714329 0.76099998 0.0013342865 6.0885045e-39 315 239
-0.0053371461 0.76099998 0.0013342865 5.7229436e-39 316 239
-0.0040186401 0.764 0.0013395466 8.0278343e-39 317 239
-0.0026861064 0.76599997 0.0013430532 1.9544022e-38 318 239
-0.0013430532 0.76599997 0.0013430532 2.3509876e-38 319 239
0 0.76700002 0.0013448066 2.3509886e-38 320 239
0.0013448066 0.76700002 0.0013448066 2.2958155e-38 321 239
0.0026896133 0.76700002 0.0013448066 2.2683366e-38 322 239
0.00403442 0.76700002 0.0013448066 2.2683366e-38 323 239
0.0053792265 0.76700002 0.0013448066 2.222096e-38 324 239
0.006724033 0.76700002 0.0013448066 1.9639487e-38 325 239
0.00806884 0.76700002 0.0013448066 1.7523676e-38 326 239
0.0094136465 0.76700002 0.0013448066 1.7154892e-38 327 239
0.010758453 0.76700002 0.0013448066 1.7157054e-38 328 239
0.012134819 0.76899999 0.0013483133 1.5405696e-38 329 239
0.013483133 0.76899999 0.0013483133 5.5389447e-39 330 239
0.014831445 0.76899999 0.0013483133 2.1636048e-42 331 239
0.01655848 0.787 0.0013798733 1.1149922e-39 332 239
0.017938353 0.787 0.0013798733 1.3919392e-39 333 239
0.019318225 0.787 0.0013798733 1.2998445e-41 334 239
0.0206981 0.787 0.0013798733 5.9189208e-39 335 239
0.022134079 0.78899997 0.0013833799 1.4483773e-38 336 239
0.023517458 0.78899997 0.0013833799 1.4483773e-38 337 239
-0.03020292 0.78299999 -0 1.5590062e-38 298 240
-0.028830061 0.78299999 -0 1.4852497e-38 299 240
-0.027387068 0.78100002 -0 1.6323311e-38 300 240
-0.025917772 0.778 -0 1.696868e-38 301 240
-0.024490559 0.77600002 -0 1.7152706e-38 302 240
-0.02307036 0.77399999 -0 1.7521488e-38 303 240
-0.021713279 0.77399999 -0 1.8627833e-38 304 240
-0.020356199 0.77399999 -0 1.890442e-38 305 240
-0.018974574 0.773 -0 1.9087385e-38 306 240
-0.017619247 0.773 -0 1.9271776e-38 307 240
-0.016221842 0.77100003 -0 1.9733483e-38 308 240
-0.01487002 0.77100003 -0 1.8903364e-38 309 240
-0.013483133 0.76899999 -0 1.5864077e-38 310 240
-0.01210326 0.76700002 -0 1.0608927e-38 311 240
-0.010758453 0.76700002 -0 2.5054152e-39 312 240
-0.0094136465 0.76700002 -0 4.0727423e-39 313 240
-0.00806884 0.76700002 -0 5.5364448e-39 314 240
-0.0067152665 0.76599997 -0 4.2457059e-39 315 240
-0.0053581866 0.764 -0 4.5395442e-39 316 240
-0.0040186401 0.764 -0 1.0440065e-38 317 240
-0.0026861064 0.76599997 -0 2.1848922e-38 318 240
-0.0013430532 0.76599997 -0 2.3509886e-38 319 240
0 0.76700002 -0 2.3050708e-38 320 240
0.0013448066 0.76700002 -0 2.2590453e-38 321 240
0.0026896133 0.76700002 -0 2.2314231e-38 322 240
0.00403442 0.76700002 -0 2.2129842e-38 323 240
0.0053792265 0.76700002 -0 2.1485197e-38 324 240
0.006724033 0.76700002 -0 1.9549089e-38 325 240
0.00806884 0.76700002 -0 1.7800261e-38 326 240
0.0094136465 0.76700002 -0 1.660172e-38 327 240
0.010758453 0.76700002 -0 1.6418773e-38 328 240
0.01210326 0.76700002 -0 1.5589011e-38 329 240
0.013448066 0.76700002 -0 8.5831815e-39 330 240
0.014831445 0.76899999 -0 3.7741172e-40 331 240
0.016179759 0.76899999 -0 7.4725922e-40 332 240
0.017938353 0.787 -0 1.0234874e-39 333 240
0.019269135 0.78500003 -0 9.3830945e-42 334 240
0.020645501 0.78500003 -0 3.9784769e-39 335 240
0.022134079 0.78899997 -0 1.347033e-38 336 240
0.023517458 0.78899997 -0 1.4299731e-38 337 240
-0.031495128 0.78100002 -0.0013693533 1.9546568e-38 297 241
-0.030125774 0.78100002 -0.0013693533 1.8260502e-38 298 241
-0.028830061 0.78299999 -0.0013728599 1.8536729e-38 299 241
-0.027387068 0.78100002 -0.0013693533 1.8813319e-38 300 241
-0.025984399 0.77999997 -0.0013675999 1.9182101e-38 301 241
-0.024490559 0.77600002 -0.0013605866 1.8441665e-38 302 241
-0.02307036 0.77399999 -0.0013570799 1.7427515e-38 303 241
-0.021713279 0.77399999 -0.0013570799 1.7893525e-38 304 241
-0.0203299 0.773 -0.0013553266 1.9000231e-38 305 241
-0.018974574 0.773 -0.0013553266 1.9732401e-38 306 241
-0.017619247 0.773 -0.0013553266 1.954837e-38 307 241
-0.016179759 0.76899999 -0.0013483133 1.9090276e-38 308 241
-0.014831445 0.76899999 -0.0013483133 1.7707341e-38 309 241
-0.013448066 0.76700002 -0.0013448066 1.5863782e-38 310 241
-0.01210326 0.76700002 -0.0013448066 1.5771586e-38 311 241
-0.010758453 0.76700002 -0.0013448066 1.6506989e-38 312 241
-0.0094136465 0.76700002 -0.0013448066 1.6506989e-38 313 241
-0.00806884 0.76700002 -0.0013448066 1.6043863e-38 314 241
-0.0067152665 0.76599997 -0.0013430532 1.5305939e-38 315 241
-0.0053722127 0.76599997 -0.0013430532 1.4488406e-38 316 241
-0.0040291594 0.76599997 -0.0013430532 1.7069884e-38 317 241
-0.0026861064 0.76599997 -0.0013430532 2.2773408e-38 318 241
-0.0013430532 0.76599997 -0.0013430532 2.3509886e-38 319 241
0 0.76700002 -0.0013448066 2.2590813e-38 320 241
0.0013448066 0.76700002 -0.0013448066 2.2037646e-38 321 241
0.0026896133 0.76700002 -0.0013448066 2.157739e-38 322 241
0.00403442 0.76700002 -0.0013448066 2.1392999e-38 323 241
0.0053792265 0.76700002 -0.0013448066 2.0839475e-38 324 241
0.006724033 0.76700002 -0.0013448066 1.9548736e-38 325 241
0.00806884 0.76700002 -0.0013448066 1.7247438e-38 326 241
0.0094136465 0.76700002 -0.0013448066 1.4389373e-38 327 241
0.010758453 0.76700002 -0.0013448066 1.3379542e-38 328 241
0.01210326 0.76700002 -0.0013448066 1.4117107e-38 329 241
0.013448066 0.76700002 -0.0013448066 1.2820588e-38 330 241
0.014792874 0.76700002 -0.0013448066 8.0260561e-39 331 241
0.01613768 0.76700002 -0.0013448066 2.0365449e-39 332 241
0.017892767 0.78500003 -0.0013763667 6.5361045e-40 333 241
0.019269135 0.78500003 -0.0013763667 1.2592068e-41 334 241
0.020645501 0.78500003 -0.0013763667 4.165717e-39 335 241
0.022021867 0.78500003 -0.0013763667 1.3008629e-38 336 241
-0.032948639 0.78299999 -0.0027457199 1.9639487e-38 296 242
-0.031495128 0.78100002 -0.0027387065 1.9086313e-38 297 242
-0.030125774 0.78100002 -0.0027387065 1.8259069e-38 298 242
-0.028830061 0.78299999 -0.0027457199 1.8351265e-38 299 242
-0.027387068 0.78100002 -0.0027387065 1.8443827e-38 300 242
-0.025984399 0.77999997 -0.0027351999 1.8997361e-38 301 242
-0.024490559 0.77600002 -0.0027211732 1.872042e-38 302 242
-0.02307036 0.77399999 -0.0027141599 1.807505e-38 303 242
-0.021713279 0.77399999 -0.0027141599 1.807685e-38 304 242
-0.0203299 0.773 -0.0027106532 1.8814415e-38 305 242
-0.018974574 0.773 -0.0027106532 1.8905168e-38 306 242
-0.017619247 0.773 -0.0027106532 1.8905168e-38 307 242
-0.016179759 0.76899999 -0.0026966266 1.7802061e-38 308 242
-0.014831445 0.76899999 -0.0026966266 1.6326572e-38 309 242
-0.013448066 0.76700002 -0.0026896133 1.5955644e-38 310 242
-0.01210326 0.76700002 -0.0026896133 1.7523328e-38 311 242
-0.010758453 0.76700002 -0.0026896133 1.8904465e-38 312 242
-0.0094136465 0.76700002 -0.0026896133 1.8719714e-38 313 242
-0.00806884 0.76700002 -0.0026896133 1.8718622e-38 314 242
-0.0067152665 0.76599997 -0.0026861064 1.8257644e-38 315 242
-0.0053722127 0.76599997 -0.0026861064 1.7521525e-38 316 242
-0.0040291594 0.76599997 -0.0026861064 1.8535675e-38 317 242
-0.0026896133 0.76700002 -0.0026896133 2.102674e-38 318 242
-0.0013448066 0.76700002 -0.0026896133 2.1948682e-38 319 242
0 0.76700002 -0.0026896133 2.1945095e-38 320 242
0.0013448066 0.76700002 -0.0026896133 2.1760705e-38 321 242
0.0026896133 0.76700002 -0.0026896133 2.130045e-38 322 242
0.00403442 0.76700002 -0.0026896133 2.0931667e-38 323 242
0.0053792265 0.76700002 -0.0026896133 2.0471415e-38 324 242
0.006724033 0.76700002 -0.0026896133 1.9272872e-38 325 242
0.00806884 0.76700002 -0.0026896133 1.6604584e-38 326 242
0.0094136465 0.76700002 -0.0026896133 1.4668834e-38 327 242
0.010758453 0.76700002 -0.0026896133 1.5128372e-38 328 242
0.01210326 0.76700002 -0.0026896133 1.5957773e-38 329 242
0.013448066 0.76700002 -0.0026896133 1.6413709e-38 330 242
0.014792874 0.76700002 -0.0026896133 1.4477601e-38 331 242
0.016179759 0.76899999 -0.0026966266 1.0785068e-38 332 242
0.017528072 0.76899999 -0.0026966266 5.1614937e-39 333 242
0.018876385 0.76899999 -0.0026966266 1.5781059e-39 334 242
0.0202247 0.76899999 -0.0026966266 8.1239956e-39 335 242
-0.032864477 0.78100002 -0.0041080597 1.9271426e-38 296 243
-0.031495128 0.78100002 -0.0041080597 1.8626056e-38 297 243
-0.030125774 0.78100002 -0.0041080597 1.7982852e-38 298 243
-0.028756421 0.78100002 -0.0041080597 1.7982852e-38 299 243
-0.027387068 0.78100002 -0.0041080597 1.7616596e-38 300 243
-0.025984399 0.77999997 -0.0041027996 1.798502e-38 301 243
-0.024553679 0.778 -0.0040922803 1.7893903e-38 302 243
-0.02307036 0.77399999 -0.0040712398 1.817013e-38 303 243
-0.021713279 0.77399999 -0.0040712398 1.8168692e-38 304 243
-0.020356199 0.77399999 -0.0040712398 1.8168692e-38 305 243
-0.018974574 0.773 -0.0040659797 1.8444203e-38 306 243
-0.017619247 0.773 -0.0040659797 1.807542e-38 307 243
-0.016179759 0.76899999 -0.0040449398 1.5775204e-38 308 243
-0.014831445 0.76899999 -0.0040449398 1.5037281e-38 309 243
-0.013448066 0.76700002 -0.00403442 1.6693209e-38 310 243
-0.01210326 0.76700002 -0.00403442 1.8168698e-38 311 243
-0.010758453 0.76700002 -0.00403442 1.8446724e-38 312 243
-0.0094136465 0.76700002 -0.00403442 1.8631115e-38 313 243
-0.00806884 0.76700002 -0.00403442 1.9457985e-38 314 243
-0.006724033 0.76700002 -0.00403442 1.9550182e-38 315 243
-0.0053722127 0.76599997 -0.0040291594 1.8258365e-38 316 243
-0.0040291594 0.76599997 -0.0040291594 1.6598846e-38 317 243
-0.0026896133 0.76700002 -0.00403442 1.7714196e-38 318 243
-0.0013448066 0.76700002 -0.00403442 1.9189313e-38 319 243
0 0.76700002 -0.00403442 2.0472137e-38 320 243
0.0013448066 0.76700002 -0.00403442 2.0564332e-38 321 243
0.0026896133 0.76700002 -0.00403442 2.0103707e-38 322 243
0.00403442 0.76700002 -0.00403442 2.0195904e-38 323 243
0.0053792265 0.76700002 -0.00403442 2.0012961e-38 324 243
0.006724033 0.76700002 -0.00403442 1.8814418e-38 325 243
0.00806884 0.76700002 -0.00403442 1.7342155e-38 326 243
0.0094136465 0.76700002 -0.00403442 1.6696785e-38 327 243
0.010758453 0.76700002 -0.00403442 1.7799893e-38 328 243
0.01210326 0.76700002 -0.00403442 1.807612e-38 329 243
0.013448066 0.76700002 -0.00403442 1.7983205e-38 330 243
0.014831445 0.76899999 -0.0040449398 1.7153444e-38 331 243
0.016179759 0.76899999 -0.0040449398 1.5674329e-38 332 243
0.017528072 0.76899999 -0.0040449398 1.2078701e-38 333 243
-0.032864477 0.78100002 -0.0054774131 1.8811168e-38 296 244
-0.031495128 0.78100002 -0.0054774131 1.8257994e-38 297 244
-0.030125774 0.78100002 -0.0054774131 1.7614798e-38 298 244
-0.028756421 0.78100002 -0.0054774131 1.7522244e-38 299 244
-0.027387068 0.78100002 -0.0054774131 1.6145797e-38 300 244
-0.025984399 0.77999997 -0.0054703997 1.6145797e-38 301 244
-0.024553679 0.778 -0.0054563731 1.6881562e-38 302 244
-0.023129974 0.77600002 -0.0054423464 1.7250704e-38 303 244
-0.021713279 0.77399999 -0.0054283198 1.7983948e-38 304 244
-0.020356199 0.77399999 -0.0054283198 1.7891752e-38 305 244
-0.018974574 0.773 -0.0054213065 1.7801357e-38 306 244
-0.017619247 0.773 -0.0054213065 1.6879041e-38 307 244
-0.016179759 0.76899999 -0.0053932532 1.4024573e-38 308 244
-0.014792874 0.76700002 -0.0053792265 1.4854334e-38 309 244
-0.013448066 0.76700002 -0.0053792265 1.7248186e-38 310 244
-0.01210326 0.76700002 -0.0053792265 1.7708806e-38 311 244
-0.010758453 0.76700002 -0.0053792265 1.7708806e-38 312 244
-0.0094136465 0.76700002 -0.0053792265 1.7801001e-38 313 244
-0.00806884 0.76700002 -0.0053792265 1.7801354e-38 314 244
-0.006724033 0.76700002 -0.0053792265 1.789355e-38 315 244
-0.0053722127 0.76599997 -0.0053722127 1.595996e-38 316 244
-0.0040291594 0.76599997 -0.0053722127 1.383946e-38 317 244
-0.0026896133 0.76700002 -0.0053792265 1.5777735e-38 318 244
-0.0013448066 0.76700002 -0.0053792265 1.7345421e-38 319 244
0 0.76700002 -0.0053792265 1.8353809e-38 320 244
0.0013448066 0.76700002 -0.0053792265 1.8814786e-38 321 244
0.0026896133 0.76700002 -0.0053792265 1.8908055e-38 322 244
0.00403442 0.76700002 -0.0053792265 1.8908055e-38 323 244
0.0053792265 0.76700002 -0.0053792265 1.8724384e-38 324 244
0.006724033 0.76700002 -0.0053792265 1.8447796e-38 325 244
0.0080583189 0.76599997 -0.0053722127 1.8537828e-38 326 244
0.0094013726 0.76599997 -0.0053722127 1.743148e-38 327 244
0.010758453 0.76700002 -0.0053792265 1.7524032e-38 328 244
0.01210326 0.76700002 -0.0053792265 1.7339282e-38 329 244
0.013448066 0.76700002 -0.0053792265 1.669571e-38 330 244
0.014831445 0.76899999 -0.0053932532 1.6326928e-38 331 244
0.016179759 0.76899999 -0.0053932532 1.6231841e-38 332 244
0.017528072 0.76899999 -0.0053932532 1.4848907e-38 333 244
0.018925481 0.77100003 -0.0054072798 1.2912801e-38 334 244
0.020277301 0.77100003 -0.0054072798 1.420354e-38 335 244
-0.032864477 0.78100002 -0.0068467669 1.853566e-38 296 245
-0.031495128 0.78100002 -0.0068467669 1.8074682e-38 297 245
-0.030125774 0.78100002 -0.0068467669 1.7247104e-38 298 245
-0.028756421 0.78100002 -0.0068467669 1.6878322e-38 299 245
-0.027387068 0.78100002 -0.0068467669 1.5041619e-38 300 245
-0.025984399 0.77999997 -0.0068379994 1.5041619e-38 301 245
-0.024553679 0.778 -0.0068204664 1.5961413e-38 302 245
-0.023129974 0.77600002 -0.0068029333 1.6514228e-38 303 245
-0.021769386 0.77600002 -0.0068029333 1.752406e-38 304 245
-0.020356199 0.77399999 -0.0067853997 1.7708453e-38 305 245
-0.018925481 0.77100003 -0.0067590997 1.7341465e-38 306 245
-0.01757366 0.77100003 -0.0067590997 1.5866695e-38 307 245
-0.01613768 0.76700002 -0.006724033 1.3470686e-38 308 245
-0.014792874 0.76700002 -0.006724033 1.5222045e-38 309 245
-0.013448066 0.76700002 -0.006724033 1.7340748e-38 310 245
-0.01210326 0.76700002 -0.006724033 1.7248552e-38 311 245
-0.010758453 0.76700002 -0.006724033 1.6972685e-38 312 245
-0.0094136465 0.76700002 -0.006724033 1.706524e-38 313 245
-0.00806884 0.76700002 -0.006724033 1.7065234e-38 314 245
-0.006724033 0.76700002 -0.006724033 1.7065234e-38 315 245
-0.0053792265 0.76700002 -0.006724033 1.5223114e-38 316 245
-0.00403442 0.76700002 -0.006724033 1.3102974e-38 317 245
-0.0026896133 0.76700002 -0.006724033 1.5774851e-38 318 245
-0.0013448066 0.76700002 -0.006724033 1.7157786e-38 319 245
0 0.76700002 -0.006724033 1.7341098e-38 320 245
0.0013448066 0.76700002 -0.006724033 1.7802076e-38 321 245
0.0026896133 0.76700002 -0.006724033 1.7803152e-38 322 245
0.00403442 0.76700002 -0.006724033 1.7987185e-38 323 245
0.0053792265 0.76700002 -0.006724033 1.8171569e-38 324 245
0.0067152665 0.76599997 -0.0067152665 1.8539991e-38 325 245
0.0080583189 0.76599997 -0.0067152665 1.8814418e-38 326 245
0.0094013726 0.76599997 -0.0067152665 1.7339287e-38 327 245
0.010744425 0.76599997 -0.0067152665 1.6971947e-38 328 245
0.01210326 0.76700002 -0.006724033 1.6603164e-38 329 245
0.013448066 0.76700002 -0.006724033 1.6051432e-38 330 245
0.014831445 0.76899999 -0.0067415666 1.568265e-38 331 245
0.016179759 0.76899999 -0.0067415666 1.5773404e-38 332 245
0.017528072 0.76899999 -0.0067415666 1.5681208e-38 333 245
0.018925481 0.77100003 -0.0067590997 1.4482309e-38 334 245
0.020277301 0.77100003 -0.0067590997 1.4574863e-38 335 245
0.021685226 0.773 -0.0067766332 1.4667059e-38 336 245
-0.032822397 0.77999997 -0.0082055992 1.8349839e-38 296 246
-0.031454798 0.77999997 -0.0082055992 1.7797026e-38 297 246
-0.030125774 0.78100002 -0.0082161194 1.6327316e-38 298 246
-0.028756421 0.78100002 -0.0082161194 1.623512e-38 299 246
-0.027351998 0.77999997 -0.0082055992 1.4855435e-38 300 246
-0.025984399 0.77999997 -0.0082055992 1.4025316e-38 301 246
-0.024553679 0.778 -0.0081845606 1.4948347e-38 302 246
-0.02307036 0.77399999 -0.0081424797 1.5685912e-38 303 246
-0.021713279 0.77399999 -0.0081424797 1.7065604e-38 304 246
-0.020356199 0.77399999 -0.0081424797 1.7249995e-38 305 246
-0.018925481 0.77100003 -0.0081109209 1.5592625e-38 306 246
-0.017528072 0.76899999 -0.0080898795 1.4394082e-38 307 246
-0.01613768 0.76700002 -0.00806884 1.4484126e-38 308 246
-0.014792874 0.76700002 -0.00806884 1.6051811e-38 309 246
-0.013448066 0.76700002 -0.00806884 1.7063805e-38 310 246
-0.01210326 0.76700002 -0.00806884 1.6787578e-38 311 246
-0.010758453 0.76700002 -0.00806884 1.6329474e-38 312 246
-0.0094136465 0.76700002 -0.00806884 1.6513505e-38 313 246
-0.00806884 0.76700002 -0.00806884 1.6881562e-38 314 246
-0.006724033 0.76700002 -0.00806884 1.7065953e-38 315 246
-0.0053792265 0.76700002 -0.00806884 1.5590101e-38 316 246
-0.00403442 0.76700002 -0.00806884 1.4022776e-38 317 246
-0.0026896133 0.76700002 -0.00806884 1.6510618e-38 318 246
-0.0013448066 0.76700002 -0.00806884 1.7709162e-38 319 246
0 0.76700002 -0.00806884 1.7248905e-38 320 246
0.0013448066 0.76700002 -0.00806884 1.7341101e-38 321 246
0.0026861064 0.76599997 -0.0080583189 1.73429e-38 322 246
0.0040291594 0.76599997 -0.0080583189 1.7711322e-38 323 246
0.0053722127 0.76599997 -0.0080583189 1.7986467e-38 324 246
0.0067152665 0.76599997 -0.0080583189 1.7802076e-38 325 246
0.0080583189 0.76599997 -0.0080583189 1.7248899e-38 326 246
0.0094013726 0.76599997 -0.0080583189 1.6696084e-38 327 246
0.010744425 0.76599997 -0.0080583189 1.6603886e-38 328 246
0.012087479 0.76599997 -0.0080583189 1.6235105e-38 329 246
0.013430533 0.76599997 -0.0080583189 1.5318186e-38 330 246
0.014792874 0.76700002 -0.00806884 1.4857208e-38 331 246
0.016179759 0.76899999 -0.0080898795 1.4669943e-38 332 246
0.017528072 0.76899999 -0.0080898795 1.4669943e-38 333 246
0.018925481 0.77100003 -0.0081109209 1.4206804e-38 334 246
0.0203299 0.773 -0.0081319595 1.4298999e-38 335 246
0.021685226 0.773 -0.0081319595 1.4115675e-38 336 246
-0.032822397 0.77999997 -0.0095731998 1.8258365e-38 296 247
-0.031454798 0.77999997 -0.0095731998 1.7428965e-38 297 247
-0.030125774 0.78100002 -0.0095854728 1.5592275e-38 298 247
-0.028756421 0.78100002 -0.0095854728 1.5776666e-38 299 247
-0.027351998 0.77999997 -0.0095731998 1.4857956e-38 300 247
-0.025984399 0.77999997 -0.0095731998 1.3843444e-38 301 247
-0.024553679 0.778 -0.0095486529 1.4394097e-38 302 247
-0.02307036 0.77399999 -0.0094995592 1.4486293e-38 303 247
-0.021713279 0.77399999 -0.0094995592 1.5771981e-38 304 247
-0.020277301 0.77100003 -0.0094627403 1.5495034e-38 305 247
-0.018876385 0.76899999 -0.0094381925 1.3003957e-38 306 247
-0.017528072 0.76899999 -0.0094381925 1.3188349e-38 307 247
-0.01613768 0.76700002 -0.0094136465 1.549937e-38 308 247
-0.014792874 0.76700002 -0.0094136465 1.6421685e-38 309 247
-0.013448066 0.76700002 -0.0094136465 1.5960704e-38 310 247
-0.01210326 0.76700002 -0.0094136465 1.5960704e-38 311 247
-0.010758453 0.76700002 -0.0094136465 1.5960704e-38 312 247
-0.0094136465 0.76700002 -0.0094136465 1.6145095e-38 313 247
-0.00806884 0.76700002 -0.0094136465 1.6329474e-38 314 247
-0.006724033 0.76700002 -0.0094136465 1.6882288e-38 315 247
-0.0053792265 0.76700002 -0.0094136465 1.5224564e-38 316 247
-0.00403442 0.76700002 -0.0094136465 1.3472849e-38 317 247
-0.0026896133 0.76700002 -0.0094136465 1.4948347e-38 318 247
-0.0013448066 0.76700002 -0.0094136465 1.6423837e-38 319 247
0 0.76700002 -0.0094136465 1.7248196e-38 320 247
0.0013430532 0.76599997 -0.0094013726 1.7156e-38 321 247
0.0026861064 0.76599997 -0.0094013726 1.7065234e-38 322 247
0.0040291594 0.76599997 -0.0094013726 1.7341821e-38 323 247
0.0053722127 0.76599997 -0.0094013726 1.7157433e-38 324 247
0.0067152665 0.76599997 -0.0094013726 1.6880846e-38 325 247
0.0080583189 0.76599997 -0.0094013726 1.6328388e-38 326 247
0.0094013726 0.76599997 -0.0094013726 1.6420584e-38 327 247
0.010744425 0.76599997 -0.0094013726 1.6881193e-38 328 247
0.012087479 0.76599997 -0.0094013726 1.6512769e-38 329 247
0.013430533 0.76599997 -0.0094013726 1.595996e-38 330 247
0.014792874 0.76700002 -0.0094136465 1.5407145e-38 331 247
0.01613768 0.76700002 -0.0094136465 1.4669946e-38 332 247
0.017528072 0.76899999 -0.0094381925 1.457775e-38 333 247
0.018925481 0.77100003 -0.0094627403 1.4022773e-38 334 247
0.0203299 0.773 -0.0094872871 1.4207523e-38 335 247
-0.032864477 0.78100002 -0.010954826 1.8625705e-38 296 248
-0.031495128 0.78100002 -0.010954826 1.7427161e-38 297 248
-0.030125774 0.78100002 -0.010954826 1.4855057e-38 298 248
-0.028756421 0.78100002 -0.010954826 1.4947253e-38 299 248
-0.027351998 0.77999997 -0.010940799 1.4948347e-38 300 248
-0.025984399 0.77999997 -0.010940799 1.4948347e-38 301 248
-0.024553679 0.778 -0.010912746 1.2459068e-38 302 248
-0.02307036 0.77399999 -0.01085664 7.4801452e-39 303 248
-0.021713279 0.77399999 -0.01085664 5.3546067e-39 304 248
-0.020277301 0.77100003 -0.01081456 2.8656834e-39 305 248
-0.018876385 0.76899999 -0.010786506 2.9388298e-39 306 248
-0.017528072 0.76899999 -0.010786506 1.1783869e-38 307 248
-0.01613768 0.76700002 -0.010758453 1.5500108e-38 308 248
-0.014773586 0.76599997 -0.010744425 1.6053274e-38 309 248
-0.013430533 0.76599997 -0.010744425 1.5868511e-38 310 248
-0.01210326 0.76700002 -0.010758453 1.5868511e-38 311 248
-0.010758453 0.76700002 -0.010758453 1.5959625e-38 312 248
-0.0094136465 0.76700002 -0.010758453 1.5959625e-38 313 248
-0.00806884 0.76700002 -0.010758453 1.6144372e-38 314 248
-0.006724033 0.76700002 -0.010758453 1.6697546e-38 315 248
-0.0053792265 0.76700002 -0.010758453 1.48576e-38 316 248
-0.00403442 0.76700002 -0.010758453 1.2552708e-38 317 248
-0.0026896133 0.76700002 -0.010758453 1.2832535e-38 318 248
-0.0013448066 0.76700002 -0.010758453 1.4768643e-38 319 248
0 0.76599997 -0.010744425 1.7157802e-38 320 248
0.0013430532 0.76599997 -0.010744425 1.7065607e-38 321 248
0.0026861064 0.76599997 -0.010744425 1.6881211e-38 322 248
0.0040291594 0.76599997 -0.010744425 1.6973407e-38 323 248
0.0053722127 0.76599997 -0.010744425 1.7247833e-38 324 248
0.0067152665 0.76599997 -0.010744425 1.6694659e-38 325 248
0.0080583189 0.76599997 -0.010744425 1.5409307e-38 326 248
0.0094013726 0.76599997 -0.010744425 1.5501861e-38 327 248
0.010744425 0.76599997 -0.010744425 1.6145426e-38 328 248
0.012087479 0.76599997 -0.010744425 1.6606404e-38 329 248
0.013448066 0.76700002 -0.010758453 1.6696449e-38 330 248
0.014792874 0.76700002 -0.010758453 1.5682656e-38 331 248
0.01613768 0.76700002 -0.010758453 1.4669224e-38 332 248
0.01757366 0.77100003 -0.01081456 1.4484833e-38 333 248
0.018974574 0.773 -0.010842613 1.3654712e-38 334 248
-0.032948639 0.78299999 -0.012355739 1.8901922e-38 296 249
-0.031575777 0.78299999 -0.012355739 1.788777e-38 297 249
-0.030125774 0.78100002 -0.01232418 1.6325854e-38 298 249
-0.028756421 0.78100002 -0.01232418 1.6879028e-38 299 249
-0.027351998 0.77999997 -0.012308398 1.7521893e-38 300 249
-0.025984399 0.77999997 -0.012308398 1.7798839e-38 301 249
-0.024553679 0.778 -0.012276839 1.2733487e-38 302 249
-0.023129974 0.77600002 -0.01224528 3.7905109e-39 303 249
-0.021713279 0.77399999 -0.01221372 6.8859807e-42 304 249
-0.0202247 0.76899999 -0.012134819 1.8441088e-42 305 249
-0.018876385 0.76899999 -0.012134819 6.5861028e-44 306 249
-0.017528072 0.76899999 -0.012134819 4.9754251e-39 307 249
-0.01613768 0.76700002 -0.01210326 1.3105201e-38 308 249
-0.014773586 0.76599997 -0.012087479 1.5133484e-38 309 249
-0.013430533 0.76599997 -0.012087479 1.596071e-38 310 249
-0.01210326 0.76700002 -0.01210326 1.5683764e-38 311 249
-0.010758453 0.76700002 -0.01210326 1.5408256e-38 312 249
-0.0094136465 0.76700002 -0.01210326 1.5500452e-38 313 249
-0.00806884 0.76700002 -0.01210326 1.6051821e-38 314 249
-0.006724033 0.76700002 -0.01210326 1.669719e-38 315 249
-0.0053792265 0.76700002 -0.01210326 1.3748752e-38 316 249
-0.00403442 0.76700002 -0.01210326 8.309208e-39 317 249
-0.0026896133 0.76700002 -0.01210326 6.6460966e-39 318 249
-0.0013448066 0.76700002 -0.01210326 1.0057335e-38 319 249
0 0.76599997 -0.012087479 1.2831813e-38 320 249
0.0013430532 0.76599997 -0.012087479 1.4399499e-38 321 249
0.0026861064 0.76599997 -0.012087479 1.6604632e-38 322 249
0.0040291594 0.76599997 -0.012087479 1.6880858e-38 323 249
0.0053722127 0.76599997 -0.012087479 1.6970887e-38 324 249
0.0067152665 0.76599997 -0.012087479 1.5680149e-38 325 249
0.0080583189 0.76599997 -0.012087479 1.283287e-38 326 249
0.0094013726 0.76599997 -0.012087479 1.2555924e-38 327 249
0.010744425 0.76599997 -0.012087479 1.3020501e-38 328 249
0.012087479 0.76599997 -0.012087479 1.4403435e-38 329 249
0.013430533 0.76599997 -0.012087479 1.6510984e-38 330 249
0.014792874 0.76700002 -0.01210326 1.5497192e-38 331 249
0.01613768 0.76700002 -0.01210326 1.4301164e-38 332 249
0.01757366 0.77100003 -0.01216638 1.4116772e-38 333 249
0.018974574 0.773 -0.012197939 1.392986e-38 334 249
-0.031575777 0.78299999 -0.013728599 1.8163996e-38 297 250
-0.030125774 0.78100002 -0.013693534 1.7246736e-38 298 250
-0.028756421 0.78100002 -0.013693534 1.8168692e-38 299 250
-0.027351998 0.77999997 -0.013675999 1.9362932e-38 300 250
-0.025984399 0.77999997 -0.013675999 1.9270736e-38 301 250
-0.024616797 0.77999997 -0.013675999 1.1814066e-38 302 250
-0.023129974 0.77600002 -0.013605867 1.5807095e-39 303 250
-0.021769386 0.77600002 -0.013605867 6.1727197e-42 304 250
-0.0202247 0.76899999 -0.013483133 8.333522e-42 305 250
-0.018876385 0.76899999 -0.013483133 7.4268819e-44 306 250
-0.017528072 0.76899999 -0.013483133 1.3841059e-39 307 250
-0.016116638 0.76599997 -0.013430533 8.3167877e-39 308 250
-0.014773586 0.76599997 -0.013430533 1.2742174e-38 309 250
-0.013430533 0.76599997 -0.013430533 1.5685567e-38 310 250
-0.01210326 0.76700002 -0.013448066 1.5316426e-38 311 250
-0.010758453 0.76700002 -0.013448066 1.4948716e-38 312 250
-0.0094136465 0.76700002 -0.013448066 1.5225663e-38 313 250
-0.00806884 0.76700002 -0.013448066 1.6327687e-38 314 250
-0.006724033 0.76700002 -0.013448066 1.6327687e-38 315 250
-0.0053792265 0.76700002 -0.013448066 9.2390579e-39 316 250
-0.00403442 0.76700002 -0.013448066 1.9494864e-41 317 250
-0.0026896133 0.76700002 -0.013448066 5.6051939e-44 318 250
-0.0013448066 0.76700002 -0.013448066 1.3804934e-39 319 250
0 0.76599997 -0.013430533 3.0709484e-39 320 250
0.0013430532 0.76599997 -0.013430533 8.2339037e-39 321 250
0.0026861064 0.76599997 -0.013430533 1.430083e-38 322 250
0.0040291594 0.76599997 -0.013430533 1.5499373e-38 323 250
0.0053722127 0.76599997 -0.013430533 1.5222763e-38 324 250
0.006697733 0.764 -0.013395466 1.3286655e-38 325 250
0.0080372803 0.764 -0.013395466 9.1508055e-39 326 250
0.0093768267 0.764 -0.013395466 9.3351967e-39 327 250
0.010744425 0.76599997 -0.013430533 1.136315e-38 328 250
0.012087479 0.76599997 -0.013430533 1.3852432e-38 329 250
0.013430533 0.76599997 -0.013430533 1.6050729e-38 330 250
0.014792874 0.76700002 -0.013448066 1.4944381e-38 331 250
0.01613768 0.76700002 -0.013448066 1.4116772e-38 332 250
0.017528072 0.76899999 -0.013483133 1.4116772e-38 333 250
0.018925481 0.77100003 -0.013518199 1.3469602e-38 334 250
-0.032948639 0.78299999 -0.01510146 1.8718251e-38 296 251
-0.031575777 0.78299999 -0.01510146 1.7704097e-38 297 251
-0.030125774 0.78100002 -0.015062887 1.6235105e-38 298 251
-0.028756421 0.78100002 -0.015062887 1.7802429e-38 299 251
-0.027387068 0.78100002 -0.015062887 1.9182138e-38 300 251
-0.025984399 0.77999997 -0.0150436 1.8352023e-38 301 251
-0.024616797 0.77999997 -0.0150436 9.6928487e-39 302 251
-0.023249198 0.77999997 -0.0150436 6.1853314e-42 303 251
-0.021881599 0.77999997 -0.0150436 4.7461979e-42 304 251
-0.020513998 0.77999997 -0.0150436 1.296927e-39 305 251
-0.018876385 0.76899999 -0.014831445 6.4797022e-40 306 251
-0.017528072 0.76899999 -0.014831445 1.5204088e-42 307 251
-0.016116638 0.76599997 -0.014773586 1.6833742e-39 308 251
-0.014773586 0.76599997 -0.014773586 9.3352514e-39 309 251
-0.013430533 0.76599997 -0.014773586 1.5317155e-38 310 251
-0.01210326 0.76700002 -0.014792874 1.5040209e-38 311 251
-0.010758453 0.76700002 -0.014792874 1.4948719e-38 312 251
-0.0094136465 0.76700002 -0.014792874 1.5317502e-38 313 251
-0.00806884 0.76700002 -0.014792874 1.5039469e-38 314 251
-0.006724033 0.76700002 -0.014792874 1.1167253e-38 315 251
-0.0053792265 0.76700002 -0.014792874 3.1526945e-39 316 251
-0.0040291594 0.76599997 -0.014773586 2.197236e-42 317 251
-0.0026861064 0.76599997 -0.014773586 4.2038954e-44 318 251
-0.0013430532 0.76599997 -0.014773586 4.7644148e-44 319 251
0 0.76599997 -0.014773586 6.5552742e-42 320 251
0.0013430532 0.76599997 -0.014773586 7.4952372e-40 321 251
0.0026861064 0.76599997 -0.014773586 3.0558718e-39 322 251
0.0040291594 0.76599997 -0.014773586 8.1266315e-39 323 251
0.0053722127 0.76599997 -0.014773586 9.4299259e-39 324 251
0.006697733 0.764 -0.014735013 1.0536634e-38 325 251
0.0080372803 0.764 -0.014735013 1.2371539e-38 326 251
0.0093768267 0.764 -0.014735013 1.3201299e-38 327 251
0.010744425 0.76599997 -0.014773586 1.4763953e-38 328 251
0.012087479 0.76599997 -0.014773586 1.5778465e-38 329 251
0.013430533 0.76599997 -0.014773586 1.5866342e-38 330 251
0.014792874 0.76700002 -0.014792874 1.4944384e-38 331 251
0.01613768 0.76700002 -0.014792874 1.4116056e-38 332 251
0.017528072 0.76899999 -0.014831445 1.3931306e-38 333 251
0.018925481 0.77100003 -0.01487002 1.1628213e-38 334 251
-0.032948639 0.78299999 -0.01647432 1.8625688e-38 296 252
-0.031495128 0.78100002 -0.016432239 1.7703732e-38 297 252
-0.030125774 0.78100002 -0.016432239 1.6235105e-38 298 252
-0.028756421 0.78100002 -0.016432239 1.7894625e-38 299 252
-0.027351998 0.77999997 -0.016411198 1.9457286e-38 300 252
-0.025984399 0.77999997 -0.016411198 1.6783628e-38 301 252
-0.024616797 0.77999997 -0.016411198 7.295384e-39 302 252
-0.023249198 0.77999997 -0.016411198 4.0637655e-44 303 252
-0.021881599 0.77999997 -0.016411198 6.4829532e-40 304 252
-0.020277301 0.77100003 -0.016221842 2.4922065e-39 305 252
-0.018876385 0.76899999 -0.016179759 1.5734914e-39 306 252
-0.017528072 0.76899999 -0.016179759 2.9231086e-42 307 252
-0.01613768 0.76700002 -0.01613768 5.8392107e-42 308 252
-0.014792874 0.76700002 -0.01613768 7.2028619e-39 309 252
-0.013448066 0.76700002 -0.01613768 1.412078e-38 310 252
-0.01210326 0.76700002 -0.01613768 1.4489201e-38 311 252
-0.010758453 0.76700002 -0.01613768 1.5132392e-38 312 252
-0.0094136465 0.76700002 -0.01613768 1.5408619e-38 313 252
-0.00806884 0.76700002 -0.01613768 1.0534848e-38 314 252
-0.006724033 0.76700002 -0.01613768 2.1454048e-39 315 252
-0.0053792265 0.76700002 -0.01613768 8.7006622e-42 316 252
-0.0040291594 0.76599997 -0.016116638 7.7772065e-43 317 252
-0.0026861064 0.76599997 -0.016116638 2.849036e-40 318 252
-0.0013430532 0.76599997 -0.016116638 3.7745936e-40 319 252
0 0.76599997 -0.016116638 3.9965032e-42 320 252
0.0013430532 0.76599997 -0.016116638 3.0828566e-44 321 252
0.0026861064 0.76599997 -0.016116638 1.821688e-44 322 252
0.0040186401 0.764 -0.016074561 4.7960085e-39 323 252
0.0053581866 0.764 -0.016074561 1.0248871e-38 324 252
0.0067152665 0.76599997 -0.016116638 1.3936697e-38 325 252
0.0080372803 0.764 -0.016074561 1.5684833e-38 326 252
0.0093768267 0.764 -0.016074561 1.5500802e-38 327 252
0.010744425 0.76599997 -0.016116638 1.5776669e-38 328 252
0.012087479 0.76599997 -0.016116638 1.5868864e-38 329 252
0.013430533 0.76599997 -0.016116638 1.5406804e-38 330 252
0.014792874 0.76700002 -0.01613768 1.4669239e-38 331 252
0.01613768 0.76700002 -0.01613768 1.3748715e-38 332 252
0.017528072 0.76899999 -0.016179759 1.3287737e-38 333 252
0.018925481 0.77100003 -0.016221842 9.4176856e-39 334 252
-0.031495128 0.78100002 -0.017801592 1.8256199e-38 297 253
-0.030125774 0.78100002 -0.017801592 1.6878675e-38 298 253
-0.028719598 0.77999997 -0.017778799 1.761624e-38 299 253
-0.027351998 0.77999997 -0.017778799 1.5960316e-38 300 253
-0.025984399 0.77999997 -0.017778799 1.0612969e-38 301 253
-0.024616797 0.77999997 -0.017778799 1.4066837e-39 302 253
-0.023249198 0.77999997 -0.017778799 2.8698593e-42 303 253
-0.021881599 0.77999997 -0.017778799 6.5078683e-40 304 253
-0.020277301 0.77100003 -0.01757366 2.1255568e-39 305 253
-0.018925481 0.77100003 -0.01757366 1.5724222e-39 306 253
-0.017528072 0.76899999 -0.017528072 2.8168341e-40 307 253
-0.01613768 0.76700002 -0.017482487 7.9874012e-44 308 253
-0.014792874 0.76700002 -0.017482487 6.0868047e-39 309 253
-0.013448066 0.76700002 -0.017482487 1.255417e-38 310 253
-0.01210326 0.76700002 -0.017482487 1.4213691e-38 311 253
-0.010758453 0.76700002 -0.017482487 1.4856523e-38 312 253
-0.0094381925 0.76899999 -0.017528072 1.2459438e-38 313 253
-0.00806884 0.76700002 -0.017482487 4.7326151e-39 314 253
-0.006724033 0.76700002 -0.017482487 7.9495662e-42 315 253
-0.0053792265 0.76700002 -0.017482487 5.4538536e-42 316 253
-0.0040291594 0.76599997 -0.017459691 3.8071878e-40 317 253
-0.0026861064 0.76599997 -0.017459691 7.5094604e-40 318 253
-0.0013430532 0.76599997 -0.017459691 1.4885111e-39 319 253
0 0.76599997 -0.017459691 2.4994204e-39 320 253
0.0013395466 0.764 -0.017414106 1.761854e-39 321 253
0.0026790933 0.764 -0.017414106 7.6048468e-42 322 253
0.0040186401 0.764 -0.017414106 4.8057391e-39 323 253
0.0053581866 0.764 -0.017414106 1.4111031e-38 324 253
0.0067152665 0.76599997 -0.017459691 1.6692508e-38 325 253
0.0080583189 0.76599997 -0.017459691 1.5500449e-38 326 253
0.0094013726 0.76599997 -0.017459691 1.5131665e-38 327 253
0.010744425 0.76599997 -0.017459691 1.4763603e-38 328 253
0.012087479 0.76599997 -0.017459691 1.4763603e-38 329 253
0.013430533 0.76599997 -0.017459691 1.4487373e-38 330 253
0.014792874 0.76700002 -0.017482487 1.3933839e-38 331 253
0.01613768 0.76700002 -0.017482487 1.3288823e-38 332 253
0.017482487 0.76700002 -0.017482487 1.2643454e-38 333 253
-0.031495128 0.78100002 -0.019170946 1.7612277e-38 297 254
-0.030125774 0.78100002 -0.019170946 1.4763943e-38 298 254
-0.028719598 0.77999997 -0.0191464 1.4118574e-38 299 254
-0.027351998 0.77999997 -0.0191464 1.347351e-38 300 254
-0.025984399 0.77999997 -0.0191464 9.7860435e-39 301 254
-0.024616797 0.77999997 -0.0191464 3.4201856e-39 302 254
-0.023249198 0.77999997 -0.0191464 4.6635213e-42 303 254
-0.021909652 0.78100002 -0.019170946 5.7523302e-42 304 254
-0.0204088 0.77600002 -0.019048214 2.8666082e-40 305 254
-0.018925481 0.77100003 -0.018925481 2.8420014e-40 306 254
-0.017528072 0.76899999 -0.018876385 5.4524523e-42 307 254
-0.01613768 0.76700002 -0.018827293 1.7481969e-39 308 254
-0.014792874 0.76700002 -0.018827293 8.6632293e-39 309 254
-0.013448066 0.76700002 -0.018827293 1.3474667e-38 310 254
-0.01210326 0.76700002 -0.018827293 1.430443e-38 311 254
-0.010786506 0.76899999 -0.018876385 1.430622e-38 312 254
-0.0094381925 0.76899999 -0.018876385 1.283145e-38 313 254
-0.00806884 0.76700002 -0.018827293 9.4083053e-39 314 254
-0.006724033 0.76700002 -0.018827293 1.8874229e-40 315 254
-0.0053792265 0.76700002 -0.018827293 1.4064833e-41 316 254
-0.00403442 0.76700002 -0.018827293 2.3185968e-39 317 254
-0.0026896133 0.76700002 -0.018827293 1.9527332e-39 318 254
-0.0013448066 0.76700002 -0.018827293 2.1367644e-39 319 254
0 0.764 -0.018753653 1.0358342e-39 320 254
0.0013395466 0.764 -0.018753653 2.0607355e-40 321 254
0.0026790933 0.764 -0.018753653 9.4475542e-42 322 254
0.0040186401 0.764 -0.018753653 4.8093838e-39 323 254
0.0053581866 0.764 -0.018753653 1.4391606e-38 324 254
0.0067152665 0.76599997 -0.018802745 1.5682344e-38 325 254
0.0080583189 0.76599997 -0.018802745 1.3937455e-38 326 254
0.0094013726 0.76599997 -0.018802745 1.3845259e-38 327 254
0.010744425 0.76599997 -0.018802745 1.4302993e-38 328 254
0.01210326 0.76700002 -0.018827293 1.4302993e-38 329 254
0.013448066 0.76700002 -0.018827293 1.4486296e-38 330 254
0.014792874 0.76700002 -0.018827293 1.4117515e-38 331 254
0.01613768 0.76700002 -0.018827293 1.3195191e-38 332 254
0.017482487 0.76700002 -0.018827293 1.1904452e-38 333 254
-0.031495128 0.78100002 -0.020540299 1.6507018e-38 297 255
-0.030125774 0.78100002 -0.020540299 1.2276842e-38 298 255
-0.028756421 0.78100002 -0.020540299 1.1723668e-38 299 255
-0.027351998 0.77999997 -0.020513998 1.3473214e-38 300 255
-0.025984399 0.77999997 -0.020513998 1.4118584e-38 301 255
-0.024616797 0.77999997 -0.020513998 1.2539312e-38 302 255
-0.023279008 0.78100002 -0.020540299 5.3480528e-39 303 255
-0.021881599 0.77999997 -0.020513998 1.0044507e-41 304 255
-0.0204088 0.77600002 -0.0204088 7.1746481e-42 305 255
-0.018999118 0.77399999 -0.020356199 7.4969468e-43 306 255
-0.017619247 0.773 -0.0203299 6.5260011e-40 307 255
-0.016179759 0.76899999 -0.0202247 8.7701708e-39 308 255
-0.014831445 0.76899999 -0.0202247 1.2918974e-38 309 255
-0.013483133 0.76899999 -0.0202247 1.4855814e-38 310 255
-0.012134819 0.76899999 -0.0202247 1.4303e-38 311 255
-0.01081456 0.77100003 -0.020277301 1.3661591e-38 312 255
-0.0094381925 0.76899999 -0.0202247 1.4399515e-38 313 255
-0.00806884 0.76700002 -0.020172099 1.1811903e-38 314 255
-0.006724033 0.76700002 -0.020172099 3.5142968e-39 315 255
-0.0053792265 0.76700002 -0.020172099 2.1666877e-41 316 255
-0.00403442 0.76700002 -0.020172099 9.4506371e-40 317 255
-0.0026896133 0.76700002 -0.020172099 4.3491288e-39 318 255
0 0.773 -0.0203299 2.9751822e-39 320 255
0.0013553266 0.773 -0.0203299 1.6844434e-39 321 255
0.0026861064 0.76599997 -0.020145798 2.0261374e-41 322 255
0.0040291594 0.76599997 -0.020145798 4.7276405e-39 323 255
0.0053722127 0.76599997 -0.020145798 1.4121141e-38 324 255
0.0067152665 0.76599997 -0.020145798 1.4490277e-38 325 255
0.0080583189 0.76599997 -0.020145798 1.3936385e-38 326 255
0.0094013726 0.76599997 -0.020145798 1.3659797e-38 327 255
0.010744425 0.76599997 -0.020145798 1.3749826e-38 328 255
0.01210326 0.76700002 -0.020172099 1.3381044e-38 329 255
0.013448066 0.76700002 -0.020172099 1.3197353e-38 330 255
0.014792874 0.76700002 -0.020172099 1.2459788e-38 331 255
0.01613768 0.76700002 -0.020172099 1.2088102e-38 332 255
0.017482487 0.76700002 -0.020172099 1.0704809e-38 333 255
0.018827293 0.76700002 -0.020172099 8.8634174e-39 334 255
-0.030125774 0.78100002 -0.021909652 1.448594e-38 298 256
-0.028756421 0.78100002 -0.021909652 1.448594e-38 299 256
-0.027387068 0.78100002 -0.021909652 1.4397347e-38 300 256
-0.026017714 0.78100002 -0.021909652 1.4857966e-38 301 256
-0.024648361 0.78100002 -0.021909652 1.522023e-38 302 256
-0.023279008 0.78100002 -0.021909652 1.1440209e-38 303 256
-0.021881599 0.77999997 -0.021881599 6.2815348e-39 304 256
-0.020461399 0.778 -0.021825492 2.9624921e-39 305 256
-0.019048214 0.77600002 -0.021769386 2.1198185e-39 306 256
-0.01764204 0.77399999 -0.021713279 5.8994791e-39 307 256
-0.016221842 0.77100003 -0.021629119 1.2826425e-38 308 256
-0.01487002 0.77100003 -0.021629119 1.420936e-38 309 256
-0.013483133 0.76899999 -0.021573013 1.3844906e-38 310 256
-0.012134819 0.76899999 -0.021573013 1.3476482e-38 311 256
-0.01081456 0.77100003 -0.021629119 1.3292817e-38 312 256
-0.0094627403 0.77100003 -0.021629119 1.4122217e-38 313 256
-0.0080898795 0.76899999 -0.021573013 1.3748022e-38 314 256
-0.0067415666 0.76899999 -0.021573013 8.6776206e-39 315 256
-0.0053792265 0.76700002 -0.021516906 2.1353308e-39 316 256
-0.00403442 0.76700002 -0.021516906 1.4112477e-41 317 256
-0.0026896133 0.76700002 -0.021516906 1.3992428e-39 318 256
-0.0013553266 0.773 -0.021685226 2.0446122e-39 319 256
0 0.773 -0.021685226 9.4079956e-40 320 256
0.0013553266 0.773 -0.021685226 1.1139762e-40 321 256
0.0027106532 0.773 -0.021685226 1.3089529e-41 322 256
0.00403442 0.76700002 -0.021516906 5.2747228e-39 323 256
0.0053792265 0.76700002 -0.021516906 1.2374473e-38 324 256
0.006724033 0.76700002 -0.021516906 1.2835803e-38 325 256
0.00806884 0.76700002 -0.021516906 1.3200621e-38 326 256
0.0094136465 0.76700002 -0.021516906 1.3015871e-38 327 256
0.010758453 0.76700002 -0.021516906 1.3106618e-38 328 256
0.01210326 0.76700002 -0.021516906 1.2830391e-38 329 256
0.013448066 0.76700002 -0.021516906 1.2552706e-38 330 256
0.014792874 0.76700002 -0.021516906 1.1631109e-38 331 256
0.01613768 0.76700002 -0.021516906 1.236361e-38 332 256
0.017482487 0.76700002 -0.021516906 1.088848e-38 333 256
0.018827293 0.76700002 -0.021516906 1.0243111e-38 334 256
-0.028756421 0.78100002 -0.023279008 1.5589403e-38 299 257
-0.027387068 0.78100002 -0.023279008 1.457994e-38 300 257
-0.026017714 0.78100002 -0.023279008 1.457994e-38 301 257
-0.024648361 0.78100002 -0.023279008 1.5223861e-38 302 257
-0.023279008 0.78100002 -0.023279008 1.5223861e-38 303 257
-0.021881599 0.77999997 -0.023249198 1.3838037e-38 304 257
-0.020461399 0.778 -0.023189586 1.1164363e-38 305 257
-0.019048214 0.77600002 -0.023129974 7.3854343e-39 306 257
-0.017687626 0.77600002 -0.023129974 9.5059337e-39 307 257
-0.016284959 0.77399999 -0.02307036 1.4303723e-38 308 257
-0.014908593 0.773 -0.023040552 1.4027135e-38 309 257
-0.013518199 0.77100003 -0.02298094 1.2833278e-38 310 257
