# .PCD v.7 - Point Cloud Data file format
FIELDS x y z rgb imX imY
SIZE 4 4 4 4 4 4
TYPE F F F F F F
COUNT 1 1 1 1 1 1
WIDTH 860
HEIGHT 1
VIEWPOINT 0 0 0 1 0 0 0
POINTS 860
DATA ascii
0.01315 0.75 0.032874998 1.3438569e-38 330 215
0.014503572 0.75199997 0.032962665 1.3438569e-38 331 215
0.015822079 0.75199997 0.032962665 1.3163426e-38 332 215
0.017186172 0.75400001 0.033050332 1.3255622e-38 333 215
0.018532733 0.755 0.033094164 1.2980833e-38 334 215
0.019909101 0.75700003 0.033181835 1.2888637e-38 335 215
0.021348584 0.76099998 0.033357166 1.2888637e-38 336 215
0.022682872 0.76099998 0.033357166 1.2704248e-38 337 215
0.02404872 0.76200002 0.033401001 1.2705335e-38 338 215
0.025451386 0.764 0.033488665 1.2890086e-38 339 215
0.026861066 0.76599997 0.033576332 1.1970316e-38 340 215
0.028204117 0.76599997 0.033576332 1.2430935e-38 341 215
0.029585747 0.76700002 0.033620168 1.4844603e-38 342 215
0.030930554 0.76700002 0.033620168 1.9270354e-38 343 215
-0.04969297 0.76599997 0.032233275 1.5401021e-38 283 216
-0.048349917 0.76599997 0.032233275 1.299853e-38 284 216
-0.046884131 0.764 0.032149121 1.3551704e-38 285 216
-0.045544583 0.764 0.032149121 1.5756099e-38 286 216
-0.044031456 0.76099998 0.032022879 1.3082426e-38 287 216
-0.042697169 0.76099998 0.032022879 1.4750575e-38 288 216
-0.041254178 0.759 0.031938717 1.7885226e-38 289 216
-0.039818201 0.75700003 0.031854562 1.7333867e-38 290 216
-0.038490929 0.75700003 0.031854562 1.705764e-38 291 216
-0.037163652 0.75700003 0.031854562 1.4471494e-38 292 216
-0.035741698 0.755 0.031770397 1.2535385e-38 293 216
-0.034372345 0.75400001 0.03172832 1.5114714e-38 294 216
-0.032962665 0.75199997 0.031644158 1.6682041e-38 295 216
-0.03156 0.75 0.03156 1.9164837e-38 296 216
-0.030204674 0.74900001 0.031517919 1.9257034e-38 297 216
-0.028891427 0.74900001 0.031517919 1.8056287e-38 298 216
-0.027467718 0.74599999 0.031391677 1.2616386e-38 299 216
-0.026159734 0.74599999 0.031391677 1.4632465e-38 300 216
-0.024851745 0.74599999 0.031391677 2.0901768e-38 301 216
-0.023543758 0.74599999 0.031391677 1.8714656e-38 302 216
-0.022235774 0.74599999 0.031391677 1.9452221e-38 303 216
-0.020927785 0.74599999 0.031391677 1.5207966e-38 304 216
-0.019619798 0.74599999 0.031391677 1.1335749e-38 305 216
-0.018311813 0.74599999 0.031391677 1.5281775e-38 306 216
-0.016958239 0.74400002 0.031307522 1.5650918e-38 307 216
-0.015653761 0.74400002 0.031307522 1.565234e-38 308 216
-0.01434928 0.74400002 0.031307522 1.565234e-38 309 216
-0.0130448 0.74400002 0.031307522 1.5927848e-38 310 216
-0.01170876 0.74199998 0.031223357 1.5927848e-38 311 216
-0.010407786 0.74199998 0.031223357 1.5927838e-38 312 216
-0.0091313599 0.74400002 0.031307522 1.5743087e-38 313 216
-0.0078268806 0.74400002 0.031307522 1.5834191e-38 314 216
-0.0065223998 0.74400002 0.031307522 1.5557605e-38 315 216
-0.0052179201 0.74400002 0.031307522 1.528137e-38 316 216
-0.0039134403 0.74400002 0.031307522 1.509662e-38 317 216
-0.00260896 0.74400002 0.031307522 1.5003704e-38 318 216
-0.00130448 0.74400002 0.031307522 1.4819313e-38 319 216
0 0.74599999 0.031391677 1.4635282e-38 320 216
0.0013079866 0.74599999 0.031391677 1.4635282e-38 321 216
0.0026159731 0.74599999 0.031391677 1.4633847e-38 322 216
0.0039239596 0.74599999 0.031391677 1.4449814e-38 323 216
0.0052319462 0.74599999 0.031391677 1.4448385e-38 324 216
0.0065399334 0.74599999 0.031391677 1.4448385e-38 325 216
0.0078584393 0.74699998 0.031433757 1.4265073e-38 326 216
0.0091681797 0.74699998 0.031433757 1.4265073e-38 327 216
0.010477919 0.74699998 0.031433757 1.3897732e-38 328 216
0.01181922 0.74900001 0.031517919 1.3897732e-38 329 216
0.01315 0.75 0.03156 1.3346373e-38 330 216
0.014465 0.75 0.03156 1.3438569e-38 331 216
0.015822079 0.75199997 0.031644158 1.3255625e-38 332 216
0.017186172 0.75400001 0.03172832 1.3255625e-38 333 216
0.018532733 0.755 0.031770397 1.2797521e-38 334 216
0.019909101 0.75700003 0.031854562 1.2797521e-38 335 216
0.02129248 0.759 0.031938717 1.2704966e-38 336 216
0.022682872 0.76099998 0.032022879 1.2704966e-38 337 216
0.02404872 0.76200002 0.032064959 1.2522025e-38 338 216
0.02538476 0.76200002 0.032064959 1.2614221e-38 339 216
0.026790932 0.764 0.032149121 1.1787004e-38 340 216
0.028204117 0.76599997 0.032233275 1.0772493e-38 341 216
0.029547172 0.76599997 0.032233275 1.3182924e-38 342 216
0.030890226 0.76599997 0.032233275 1.8714303e-38 343 216
0.032233275 0.76599997 0.032233275 1.8444206e-38 344 216
-0.04988759 0.76899999 0.031011207 1.383513e-38 283 217
-0.048539277 0.76899999 0.031011207 1.2256276e-38 284 217
-0.047068235 0.76700002 0.030930554 1.2901646e-38 285 217
-0.045544583 0.764 0.030809574 1.3262462e-38 286 217
-0.044031456 0.76099998 0.030688593 1.0035615e-38 287 217
-0.042697169 0.76099998 0.030688593 1.4742278e-38 288 217
-0.041254178 0.759 0.030607941 1.9536451e-38 289 217
-0.039818201 0.75700003 0.030527288 1.7150207e-38 290 217
-0.038389232 0.755 0.030446632 1.7242403e-38 291 217
-0.037065465 0.755 0.030446632 1.6134977e-38 292 217
-0.035741698 0.755 0.030446632 1.6780346e-38 293 217
-0.034372345 0.75400001 0.030406307 1.8804687e-38 294 217
-0.032874998 0.75 0.030244999 1.8896883e-38 295 217
-0.03156 0.75 0.030244999 2.0270088e-38 296 217
-0.030204674 0.74900001 0.030204674 1.8702762e-38 297 217
-0.028891427 0.74900001 0.030204674 1.7041411e-38 298 217
-0.027467718 0.74599999 0.03008369 1.2800052e-38 299 217
-0.026159734 0.74599999 0.03008369 1.4818301e-38 300 217
-0.024851745 0.74599999 0.03008369 2.0718821e-38 301 217
-0.023543758 0.74599999 0.03008369 1.8531707e-38 302 217
-0.022235774 0.74599999 0.03008369 1.8993045e-38 303 217
-0.020927785 0.74599999 0.03008369 1.4839903e-38 304 217
-0.019619798 0.74599999 0.03008369 1.0875491e-38 305 217
-0.01826272 0.74400002 0.030003037 1.5281409e-38 306 217
-0.016912652 0.74199998 0.029922385 1.5742386e-38 307 217
-0.015611678 0.74199998 0.029922385 1.5559421e-38 308 217
-0.014310705 0.74199998 0.029922385 1.5836008e-38 309 217
-0.013009733 0.74199998 0.029922385 1.5744891e-38 310 217
-0.01169298 0.741 0.029882059 1.5744891e-38 311 217
-0.010393759 0.741 0.029882059 1.5928554e-38 312 217
-0.009106813 0.74199998 0.029922385 1.5836358e-38 313 217
-0.0078058392 0.74199998 0.029922385 1.574379e-38 314 217
-0.0065048663 0.74199998 0.029922385 1.5375368e-38 315 217
-0.0052038929 0.74199998 0.029922385 1.5373566e-38 316 217
-0.0039134403 0.74400002 0.030003037 1.509662e-38 317 217
-0.0026019465 0.74199998 0.029922385 1.5003707e-38 318 217
-0.0013009732 0.74199998 0.029922385 1.4911511e-38 319 217
0 0.74400002 0.030003037 1.4819316e-38 320 217
0.00130448 0.74400002 0.030003037 1.4634926e-38 321 217
0.00260896 0.74400002 0.030003037 1.4633494e-38 322 217
0.0039134403 0.74400002 0.030003037 1.4449461e-38 323 217
0.0052319462 0.74599999 0.03008369 1.4265073e-38 324 217
0.0065399334 0.74599999 0.03008369 1.4172518e-38 325 217
0.0078479191 0.74599999 0.03008369 1.3989206e-38 326 217
0.0091681797 0.74699998 0.030124018 1.3989206e-38 327 217
0.010477919 0.74699998 0.030124018 1.3897732e-38 328 217
0.011787659 0.74699998 0.030124018 1.3989928e-38 329 217
0.013132467 0.74900001 0.030204674 1.3714786e-38 330 217
0.014445714 0.74900001 0.030204674 1.3714786e-38 331 217
0.015822079 0.75199997 0.030325651 1.3163424e-38 332 217
0.017140586 0.75199997 0.030325651 1.3255978e-38 333 217
0.018459093 0.75199997 0.030325651 1.3071957e-38 334 217
0.019909101 0.75700003 0.030527288 1.2979761e-38 335 217
0.02129248 0.759 0.030607941 1.2612776e-38 336 217
0.022682872 0.76099998 0.030688593 1.2612776e-38 337 217
0.024017159 0.76099998 0.030688593 1.2612423e-38 338 217
0.02538476 0.76200002 0.030728921 1.2612423e-38 339 217
0.026790932 0.764 0.030809574 1.1785922e-38 340 217
0.028204117 0.76599997 0.030890226 9.9420094e-39 341 217
0.029547172 0.76599997 0.030890226 1.1704554e-38 342 217
0.030890226 0.76599997 0.030890226 1.7789106e-38 343 217
0.032359518 0.76899999 0.031011207 1.7983951e-38 344 217
0.033707831 0.76899999 0.031011207 1.8352373e-38 345 217
-0.051502414 0.773 0.029817186 1.6694266e-38 282 218
-0.04988759 0.76899999 0.02966289 1.1439115e-38 283 218
-0.048539277 0.76899999 0.02966289 1.1326746e-38 284 218
-0.047068235 0.76700002 0.029585747 1.187992e-38 285 218
-0.045544583 0.764 0.029470026 1.2431273e-38 286 218
-0.043915741 0.759 0.029277159 1.4090793e-38 287 218
-0.042584959 0.759 0.029277159 1.5850088e-38 288 218
-0.041145474 0.75700003 0.029200014 1.9169131e-38 289 218
-0.039712999 0.755 0.029122867 1.6782148e-38 290 218
-0.038389232 0.755 0.029122867 1.715057e-38 291 218
-0.037065465 0.755 0.029122867 1.6410121e-38 292 218
-0.035694357 0.75400001 0.029084291 1.5580002e-38 293 218
-0.034281172 0.75199997 0.029007144 1.6214925e-38 294 218
-0.032874998 0.75 0.028929999 1.4924186e-38 295 218
-0.031517919 0.74900001 0.028891427 1.5835327e-38 296 218
-0.030204674 0.74900001 0.028891427 1.555874e-38 297 218
-0.028814279 0.74699998 0.028814279 1.5192083e-38 298 218
-0.027467718 0.74599999 0.028775707 1.3809149e-38 299 218
-0.026159734 0.74599999 0.028775707 1.47279e-38 300 218
-0.024851745 0.74599999 0.028775707 2.044403e-38 301 218
-0.023480639 0.74400002 0.02869856 1.8716457e-38 302 218
-0.022176161 0.74400002 0.02869856 1.9177076e-38 303 218
-0.02087168 0.74400002 0.02869856 1.4747705e-38 304 218
-0.019567199 0.74400002 0.02869856 1.0875847e-38 305 218
-0.018213626 0.74199998 0.028621411 1.5281762e-38 306 218
-0.016912652 0.74199998 0.028621411 1.5650185e-38 307 218
-0.01559064 0.741 0.028582839 1.565197e-38 308 218
-0.01429142 0.741 0.028582839 1.5836002e-38 309 218
-0.0129922 0.741 0.028582839 1.5653412e-38 310 218
-0.01169298 0.741 0.028582839 1.5745608e-38 311 218
-0.010393759 0.741 0.028582839 1.5744886e-38 312 218
-0.0090945391 0.741 0.028582839 1.5744886e-38 313 218
-0.0077953199 0.741 0.028582839 1.5652323e-38 314 218
-0.0065048663 0.74199998 0.028621411 1.5375377e-38 315 218
-0.0052038929 0.74199998 0.028621411 1.5466131e-38 316 218
-0.0039029196 0.74199998 0.028621411 1.5005153e-38 317 218
-0.0025984398 0.741 0.028582839 1.4820762e-38 318 218
-0.0012992199 0.741 0.028582839 1.4728565e-38 319 218
0 0.74199998 0.028621411 1.4636369e-38 320 218
0.0013009732 0.74199998 0.028621411 1.4359784e-38 321 218
0.00260896 0.74400002 0.02869856 1.4542377e-38 322 218
0.0039134403 0.74400002 0.02869856 1.4357984e-38 323 218
0.0052179201 0.74400002 0.02869856 1.4357268e-38 324 218
0.0065223998 0.74400002 0.02869856 1.4265073e-38 325 218
0.0078479191 0.74599999 0.028775707 1.3989928e-38 326 218
0.0091559067 0.74599999 0.028775707 1.3989928e-38 327 218
0.010463892 0.74599999 0.028775707 1.3806615e-38 328 218
0.011771879 0.74599999 0.028775707 1.3806615e-38 329 218
0.013097399 0.74699998 0.028814279 1.3623666e-38 330 218
0.014407139 0.74699998 0.028814279 1.353147e-38 331 218
0.01575896 0.74900001 0.028891427 1.316378e-38 332 218
0.017140586 0.75199997 0.029007144 1.316378e-38 333 218
0.018459093 0.75199997 0.029007144 1.2979764e-38 334 218
0.019830201 0.75400001 0.029084291 1.2887209e-38 335 218
0.02129248 0.759 0.029277159 1.27039e-38 336 218
0.022682872 0.76099998 0.029354304 1.27039e-38 337 218
0.024017159 0.76099998 0.029354304 1.2612067e-38 338 218
0.02538476 0.76200002 0.029392879 1.2612067e-38 339 218
0.0267208 0.76200002 0.029392879 1.150789e-38 340 218
0.028056841 0.76200002 0.029392879 9.7565322e-39 341 218
0.029547172 0.76599997 0.029547172 1.0319819e-38 342 218
0.030930554 0.76700002 0.029585747 1.5943392e-38 343 218
0.032359518 0.76899999 0.02966289 1.73393e-38 344 218
0.033707831 0.76899999 0.02966289 1.8261256e-38 345 218
-0.052926116 0.77399999 0.028498679 1.8627874e-38 281 219
-0.051502414 0.773 0.028461859 1.5492831e-38 282 219
-0.050147086 0.773 0.028461859 1.0790496e-38 283 219
-0.048539277 0.76899999 0.028314579 1.0865743e-38 284 219
-0.047068235 0.76700002 0.02824094 1.1695862e-38 285 219
-0.045365743 0.76099998 0.028020019 1.2253367e-38 286 219
-0.043915741 0.759 0.027946379 1.6125584e-38 287 219
-0.042472746 0.75700003 0.027872739 1.6317923e-38 288 219
-0.041145474 0.75700003 0.027872739 1.7793053e-38 289 219
-0.039712999 0.755 0.027799098 1.7058372e-38 290 219
-0.038389232 0.755 0.027799098 1.7150926e-38 291 219
-0.037016369 0.75400001 0.027762281 1.5211553e-38 292 219
-0.035694357 0.75400001 0.027762281 1.2722271e-38 293 219
-0.034189999 0.75 0.027615 1.3810944e-38 294 219
-0.032831166 0.74900001 0.027578179 1.2520207e-38 295 219
-0.031517919 0.74900001 0.027578179 1.3530026e-38 296 219
-0.030204674 0.74900001 0.027578179 1.4082839e-38 297 219
-0.028814279 0.74699998 0.027504537 1.4452701e-38 298 219
-0.027467718 0.74599999 0.027467718 1.3991724e-38 299 219
-0.026159734 0.74599999 0.027467718 1.4820449e-38 300 219
-0.024851745 0.74599999 0.027467718 2.0444383e-38 301 219
-0.023480639 0.74400002 0.027394081 1.8624259e-38 302 219
-0.022176161 0.74400002 0.027394081 1.9269628e-38 303 219
-0.02087168 0.74400002 0.027394081 1.4564746e-38 304 219
-0.0195146 0.74199998 0.027320439 1.0876561e-38 305 219
-0.018213626 0.74199998 0.027320439 1.528176e-38 306 219
-0.016912652 0.74199998 0.027320439 1.5742736e-38 307 219
-0.01559064 0.741 0.027283618 1.5743443e-38 308 219
-0.01429142 0.741 0.027283618 1.5927835e-38 309 219
-0.0129922 0.741 0.027283618 1.5744889e-38 310 219
-0.01169298 0.741 0.027283618 1.5837084e-38 311 219
-0.010393759 0.741 0.027283618 1.602075e-38 312 219
-0.0090945391 0.741 0.027283618 1.5928554e-38 313 219
-0.0077953199 0.741 0.027283618 1.5835991e-38 314 219
-0.0064960998 0.741 0.027283618 1.5651241e-38 315 219
-0.0051968796 0.741 0.027283618 1.555868e-38 316 219
-0.0038976599 0.741 0.027283618 1.5281733e-38 317 219
-0.0025984398 0.741 0.027283618 1.5096626e-38 318 219
-0.0012992199 0.741 0.027283618 1.4820039e-38 319 219
0 0.74199998 0.027320439 1.4636369e-38 320 219
0.0013009732 0.74199998 0.027320439 1.4359784e-38 321 219
0.0026019465 0.74199998 0.027320439 1.4633494e-38 322 219
0.0039134403 0.74400002 0.027394081 1.4449461e-38 323 219
0.0052179201 0.74400002 0.027394081 1.4265791e-38 324 219
0.0065223998 0.74400002 0.027394081 1.4265791e-38 325 219
0.0078268806 0.74400002 0.027394081 1.3989572e-38 326 219
0.0091559067 0.74599999 0.027467718 1.3989572e-38 327 219
0.010463892 0.74599999 0.027467718 1.3714783e-38 328 219
0.011771879 0.74599999 0.027467718 1.3806978e-38 329 219
0.013079867 0.74599999 0.027467718 1.3532189e-38 330 219
0.014387853 0.74599999 0.027467718 1.3439994e-38 331 219
0.015716879 0.74699998 0.027504537 1.3439643e-38 332 219
0.017140586 0.75199997 0.027688639 1.3439643e-38 333 219
0.018459093 0.75199997 0.027688639 1.3163426e-38 334 219
0.019830201 0.75400001 0.027762281 1.3163426e-38 335 219
0.021152213 0.75400001 0.027762281 1.2704253e-38 336 219
0.02262326 0.759 0.027946379 1.2888284e-38 337 219
0.024017159 0.76099998 0.028020019 1.2979761e-38 338 219
0.025351444 0.76099998 0.028020019 1.2979761e-38 339 219
0.0267208 0.76200002 0.028056841 1.2151814e-38 340 219
0.028056841 0.76200002 0.028056841 1.0307902e-38 341 219
0.029392879 0.76200002 0.028056841 1.0222584e-38 342 219
0.030728921 0.76200002 0.028056841 1.4924562e-38 343 219
0.03227536 0.76700002 0.02824094 1.7152388e-38 344 219
0.033707831 0.76899999 0.028314579 1.8627518e-38 345 219
-0.054283198 0.77399999 0.027141599 1.9364717e-38 280 220
-0.052926116 0.77399999 0.027141599 1.7336413e-38 281 220
-0.051502414 0.773 0.027106533 1.4199569e-38 282 220
-0.050147086 0.773 0.027106533 1.1710646e-38 283 220
-0.04866552 0.77100003 0.027036399 1.3360441e-38 284 220
-0.047068235 0.76700002 0.026896132 1.6771679e-38 285 220
-0.045365743 0.76099998 0.026685731 1.6778531e-38 286 220
-0.043800019 0.75700003 0.026545467 1.659414e-38 287 220
-0.042472746 0.75700003 0.026545467 1.6868226e-38 288 220
-0.041036766 0.755 0.026475333 1.825116e-38 289 220
-0.039712999 0.755 0.026475333 1.6691394e-38 290 220
-0.038338386 0.75400001 0.026440267 1.6691394e-38 291 220
-0.037016369 0.75400001 0.026440267 1.2720103e-38 292 220
-0.035599679 0.75199997 0.02637013 9.5854532e-39 293 220
-0.034144413 0.74900001 0.026264934 1.2886119e-38 294 220
-0.032831166 0.74900001 0.026264934 1.3900273e-38 295 220
-0.031517919 0.74900001 0.026264934 1.4089371e-38 296 220
-0.030124018 0.74699998 0.026194798 1.5564501e-38 297 220
-0.028814279 0.74699998 0.026194798 1.5841435e-38 298 220
-0.027467718 0.74599999 0.026159734 1.3352153e-38 299 220
-0.026089599 0.74400002 0.026089599 1.5003767e-38 300 220
-0.02478512 0.74400002 0.026089599 2.0535506e-38 301 220
-0.023480639 0.74400002 0.026089599 1.8623903e-38 302 220
-0.022116546 0.74199998 0.026019465 1.9361826e-38 303 220
-0.020815572 0.74199998 0.026019465 1.4840975e-38 304 220
-0.0195146 0.74199998 0.026019465 1.0784368e-38 305 220
-0.018189078 0.741 0.025984399 1.5281762e-38 306 220
-0.016889861 0.741 0.025984399 1.5650185e-38 307 220
-0.01559064 0.741 0.025984399 1.5743087e-38 308 220
-0.01429142 0.741 0.025984399 1.5927838e-38 309 220
-0.0129922 0.741 0.025984399 1.5837084e-38 310 220
-0.01169298 0.741 0.025984399 1.6021115e-38 311 220
-0.010393759 0.741 0.025984399 1.5930365e-38 312 220
-0.0090945391 0.741 0.025984399 1.5930365e-38 313 220
-0.0077953199 0.741 0.025984399 1.5837087e-38 314 220
-0.0064960998 0.741 0.025984399 1.5652337e-38 315 220
-0.0051968796 0.741 0.025984399 1.5375027e-38 316 220
-0.0038976599 0.741 0.025984399 1.5006603e-38 317 220
-0.0025984398 0.741 0.025984399 1.5005524e-38 318 220
-0.0012992199 0.741 0.025984399 1.4636743e-38 319 220
0 0.741 0.025984399 1.4544543e-38 320 220
0.0013009732 0.74199998 0.026019465 1.4083925e-38 321 220
0.0026019465 0.74199998 0.026019465 1.4266872e-38 322 220
0.0039029196 0.74199998 0.026019465 1.4174675e-38 323 220
0.0052038929 0.74199998 0.026019465 1.4265791e-38 324 220
0.0065048663 0.74199998 0.026019465 1.4265791e-38 325 220
0.0078058392 0.74199998 0.026019465 1.3989572e-38 326 220
0.0091313599 0.74400002 0.026089599 1.3989572e-38 327 220
0.01043584 0.74400002 0.026089599 1.371443e-38 328 220
0.011740319 0.74400002 0.026089599 1.371443e-38 329 220
0.013079867 0.74599999 0.026159734 1.3531483e-38 330 220
0.014387853 0.74599999 0.026159734 1.362368e-38 331 220
0.015716879 0.74699998 0.026194798 1.3256344e-38 332 220
0.017095 0.75 0.0263 1.3256344e-38 333 220
0.018459093 0.75199997 0.02637013 1.298048e-38 334 220
0.0197776 0.75199997 0.02637013 1.298048e-38 335 220
0.021152213 0.75400001 0.026440267 1.2704619e-38 336 220
0.02262326 0.759 0.026615599 1.2704619e-38 337 220
0.024017159 0.76099998 0.026685731 1.2704985e-38 338 220
0.025351444 0.76099998 0.026685731 1.2889377e-38 339 220
0.0267208 0.76200002 0.0267208 1.1970298e-38 340 220
0.028056841 0.76200002 0.0267208 1.1140537e-38 341 220
0.029392879 0.76200002 0.0267208 1.0128574e-38 342 220
0.030728921 0.76200002 0.0267208 1.3355062e-38 343 220
0.03227536 0.76700002 0.026896132 1.6781798e-38 344 220
0.033707831 0.76899999 0.026966266 1.9086328e-38 345 220
-0.054213066 0.773 0.025751207 1.8259799e-38 280 221
-0.052857738 0.773 0.025751207 1.6138939e-38 281 221
-0.051502414 0.773 0.025751207 1.3186146e-38 282 221
-0.050147086 0.773 0.025751207 1.2909199e-38 283 221
-0.04866552 0.77100003 0.02568458 1.5480234e-38 284 221
-0.046884131 0.764 0.025451386 1.6955364e-38 285 221
-0.045246519 0.759 0.025284819 1.6955361e-38 286 221
-0.043800019 0.75700003 0.025218192 1.5111448e-38 287 221
-0.042360533 0.755 0.025151566 1.5765824e-38 288 221
-0.041036766 0.755 0.025151566 1.7794128e-38 289 221
-0.039660402 0.75400001 0.025118252 1.7058378e-38 290 221
-0.038338386 0.75400001 0.025118252 1.7150573e-38 291 221
-0.036918186 0.75199997 0.025051624 1.3275117e-38 292 221
-0.035505001 0.75 0.024984999 9.3107048e-39 293 221
-0.034144413 0.74900001 0.024951685 1.2067942e-38 294 221
-0.032831166 0.74900001 0.024951685 1.3911854e-38 295 221
-0.031517919 0.74900001 0.024951685 1.3462749e-38 296 221
-0.030124018 0.74699998 0.024885058 1.4938238e-38 297 221
-0.028814279 0.74699998 0.024885058 1.7597847e-38 298 221
-0.027467718 0.74599999 0.024851745 1.2434891e-38 299 221
-0.026089599 0.74400002 0.02478512 1.4543512e-38 300 221
-0.02478512 0.74400002 0.02478512 2.0444032e-38 301 221
-0.023417519 0.74199998 0.024718491 1.8347676e-38 302 221
-0.02208674 0.741 0.024685178 1.9454022e-38 303 221
-0.020787518 0.741 0.024685178 1.5210118e-38 304 221
-0.019488299 0.741 0.024685178 1.0876563e-38 305 221
-0.018189078 0.741 0.024685178 1.5281762e-38 306 221
-0.016889861 0.741 0.024685178 1.5742739e-38 307 221
-0.01559064 0.741 0.024685178 1.5560496e-38 308 221
-0.01429142 0.741 0.024685178 1.5652693e-38 309 221
-0.0129922 0.741 0.024685178 1.583745e-38 310 221
-0.01169298 0.741 0.024685178 1.5929646e-38 311 221
-0.010393759 0.741 0.024685178 1.6022197e-38 312 221
-0.0090945391 0.741 0.024685178 1.6114394e-38 313 221
-0.0077953199 0.741 0.024685178 1.6205141e-38 314 221
-0.0064960998 0.741 0.024685178 1.5928554e-38 315 221
-0.0051968796 0.741 0.024685178 1.5467932e-38 316 221
-0.0038976599 0.741 0.024685178 1.5006954e-38 317 221
-0.0025984398 0.741 0.024685178 1.5005875e-38 318 221
-0.0012992199 0.741 0.024685178 1.4729648e-38 319 221
0 0.741 0.024685178 1.472749e-38 320 221
0.0012992199 0.741 0.024685178 1.4635294e-38 321 221
0.0025984398 0.741 0.024685178 1.454273e-38 322 221
0.0038976599 0.741 0.024685178 1.4450534e-38 323 221
0.0051968796 0.741 0.024685178 1.4265791e-38 324 221
0.0064960998 0.741 0.024685178 1.4173237e-38 325 221
0.0078058392 0.74199998 0.024718491 1.3989577e-38 326 221
0.009106813 0.74199998 0.024718491 1.3989577e-38 327 221
0.010407786 0.74199998 0.024718491 1.353112e-38 328 221
0.01170876 0.74199998 0.024718491 1.3623316e-38 329 221
0.013009733 0.74199998 0.024718491 1.3348538e-38 330 221
0.01434928 0.74400002 0.02478512 1.3348538e-38 331 221
0.015653761 0.74400002 0.02478512 1.2890084e-38 332 221
0.016958239 0.74400002 0.02478512 1.2797887e-38 333 221
0.018459093 0.75199997 0.025051624 1.2797533e-38 334 221
0.0197776 0.75199997 0.025051624 1.2705338e-38 335 221
0.021096105 0.75199997 0.025051624 1.2704987e-38 336 221
0.02262326 0.759 0.025284819 1.2336206e-38 337 221
0.024017159 0.76099998 0.025351444 1.2336562e-38 338 221
0.025351444 0.76099998 0.025351444 1.2704985e-38 339 221
0.0267208 0.76200002 0.02538476 1.2522023e-38 340 221
0.028056841 0.76200002 0.02538476 1.21536e-38 341 221
0.029392879 0.76200002 0.02538476 1.0772493e-38 342 221
0.030728921 0.76200002 0.02538476 1.2339819e-38 343 221
0.032233275 0.76599997 0.025518013 1.6410487e-38 344 221
0.033707831 0.76899999 0.025617953 1.9176358e-38 345 221
-0.054213066 0.773 0.024395877 1.7244568e-38 280 222
-0.052857738 0.773 0.024395877 1.5677241e-38 281 222
-0.051235907 0.76899999 0.024269639 1.2633325e-38 282 222
-0.049757849 0.76700002 0.024206521 1.2725521e-38 283 222
-0.048349917 0.76599997 0.024174958 1.621526e-38 284 222
-0.046700031 0.76099998 0.024017159 1.4832324e-38 285 222
-0.045127295 0.75700003 0.02389092 1.2983724e-38 286 222
-0.043800019 0.75700003 0.02389092 1.1232006e-38 287 222
-0.042360533 0.755 0.023827799 1.502789e-38 288 222
-0.040982414 0.75400001 0.02379624 1.8254738e-38 289 222
-0.039660402 0.75400001 0.02379624 1.7059824e-38 290 222
-0.038236689 0.75199997 0.023733119 1.6967627e-38 291 222
-0.036918186 0.75199997 0.023733119 1.5213746e-38 292 222
-0.03545766 0.74900001 0.02363844 1.49368e-38 293 222
-0.034144413 0.74900001 0.02363844 1.677963e-38 294 222
-0.032831166 0.74900001 0.02363844 1.8530988e-38 295 222
-0.031433757 0.74699998 0.023575317 1.770806e-38 296 222
-0.030124018 0.74699998 0.023575317 1.789281e-38 297 222
-0.028814279 0.74699998 0.023575317 1.8891102e-38 298 222
-0.027394081 0.74400002 0.023480639 1.2252658e-38 299 222
-0.026089599 0.74400002 0.023480639 1.4542437e-38 300 222
-0.024718491 0.74199998 0.023417519 2.0350762e-38 301 222
-0.023385961 0.741 0.023385961 1.8162927e-38 302 222
-0.02208674 0.741 0.023385961 1.9545862e-38 303 222
-0.020787518 0.741 0.023385961 1.5761856e-38 304 222
-0.019488299 0.741 0.023385961 1.1428662e-38 305 222
-0.018189078 0.741 0.023385961 1.5281765e-38 306 222
-0.016889861 0.741 0.023385961 1.5834579e-38 307 222
-0.01554856 0.73900002 0.023322839 1.5652337e-38 308 222
-0.014252847 0.73900002 0.023322839 1.5744891e-38 309 222
-0.0129922 0.741 0.023385961 1.5930367e-38 310 222
-0.01169298 0.741 0.023385961 1.5930367e-38 311 222
-0.010393759 0.741 0.023385961 1.611476e-38 312 222
-0.0090945391 0.741 0.023385961 1.611476e-38 313 222
-0.0077953199 0.741 0.023385961 1.6022194e-38 314 222
-0.0064960998 0.741 0.023385961 1.5745608e-38 315 222
-0.0051968796 0.741 0.023385961 1.5468651e-38 316 222
-0.0038976599 0.741 0.023385961 1.4915477e-38 317 222
-0.0025984398 0.741 0.023385961 1.4822209e-38 318 222
-0.0012992199 0.741 0.023385961 1.4637818e-38 319 222
0 0.741 0.023385961 1.4820409e-38 320 222
0.0012992199 0.741 0.023385961 1.4451985e-38 321 222
0.0025984398 0.741 0.023385961 1.4359784e-38 322 222
0.0038976599 0.741 0.023385961 1.4175392e-38 323 222
0.0051968796 0.741 0.023385961 1.4265791e-38 324 222
0.0064960998 0.741 0.023385961 1.4173237e-38 325 222
0.0077953199 0.741 0.023385961 1.3806259e-38 326 222
0.009106813 0.74199998 0.023417519 1.3806259e-38 327 222
0.010407786 0.74199998 0.023417519 1.3530764e-38 328 222
0.01170876 0.74199998 0.023417519 1.362296e-38 329 222
0.013009733 0.74199998 0.023417519 1.3348188e-38 330 222
0.01434928 0.74400002 0.023480639 1.3348188e-38 331 222
0.015653761 0.74400002 0.023480639 1.279718e-38 332 222
0.016958239 0.74400002 0.023480639 1.279718e-38 333 222
0.018409999 0.75 0.023669999 1.2704632e-38 334 222
0.0197776 0.75199997 0.023733119 1.25206e-38 335 222
0.021096105 0.75199997 0.023733119 1.2428405e-38 336 222
0.022474226 0.75400001 0.02379624 1.2244013e-38 337 222
0.023827799 0.755 0.023827799 1.2336206e-38 338 222
0.025218192 0.75700003 0.02389092 1.2520956e-38 339 222
0.026615599 0.759 0.023954039 1.2155414e-38 340 222
0.028020019 0.76099998 0.024017159 1.2431642e-38 341 222
0.029354304 0.76099998 0.024017159 1.1512578e-38 342 222
0.030728921 0.76200002 0.02404872 1.169697e-38 343 222
0.032233275 0.76599997 0.024174958 1.5674e-38 344 222
-0.053932533 0.76899999 0.022921326 1.6507e-38 280 223
-0.052584216 0.76899999 0.022921326 1.5031869e-38 281 223
-0.051235907 0.76899999 0.022921326 1.290487e-38 282 223
-0.049757849 0.76700002 0.022861714 1.1429381e-38 283 223
-0.048349917 0.76599997 0.022831906 1.4640356e-38 284 223
-0.046700031 0.76099998 0.022682872 1.3349617e-38 285 223
-0.045127295 0.75700003 0.022563647 1.1964164e-38 286 223
-0.043684296 0.755 0.022504034 1.3254903e-38 287 223
-0.042360533 0.755 0.022504034 1.5577118e-38 288 223
-0.040982414 0.75400001 0.022474226 1.8803965e-38 289 223
-0.039660402 0.75400001 0.022474226 1.678324e-38 290 223
-0.038236689 0.75199997 0.022414612 1.6967271e-38 291 223
-0.036819998 0.75 0.022355 1.7607961e-38 292 223
-0.03545766 0.74900001 0.022325192 1.6501614e-38 293 223
-0.034144413 0.74900001 0.022325192 1.7695469e-38 294 223
-0.032743499 0.74699998 0.022265578 1.7879501e-38 295 223
-0.031433757 0.74699998 0.022265578 1.7326311e-38 296 223
-0.030124018 0.74699998 0.022265578 1.6220323e-38 297 223
-0.028775707 0.74599999 0.022235774 1.7131101e-38 298 223
-0.027394081 0.74400002 0.022176161 1.3258884e-38 299 223
-0.026019465 0.74199998 0.022116546 1.4820818e-38 300 223
-0.024685178 0.741 0.02208674 1.9799742e-38 301 223
-0.023385961 0.741 0.02208674 1.7795221e-38 302 223
-0.02208674 0.741 0.02208674 1.9454741e-38 303 223
-0.020787518 0.741 0.02208674 1.5946603e-38 304 223
-0.0194357 0.73900002 0.022027127 1.1429018e-38 305 223
-0.018139986 0.73900002 0.022027127 1.5005897e-38 306 223
-0.016844273 0.73900002 0.022027127 1.5835299e-38 307 223
-0.01554856 0.73900002 0.022027127 1.5469028e-38 308 223
-0.014252847 0.73900002 0.022027127 1.5745254e-38 309 223
-0.012957133 0.73900002 0.022027127 1.5930367e-38 310 223
-0.01169298 0.741 0.02208674 1.6022564e-38 311 223
-0.010393759 0.741 0.02208674 1.5931804e-38 312 223
-0.0090945391 0.741 0.02208674 1.5931804e-38 313 223
-0.0077953199 0.741 0.02208674 1.5931074e-38 314 223
-0.0064960998 0.741 0.02208674 1.5562292e-38 315 223
-0.0051968796 0.741 0.02208674 1.5468295e-38 316 223
-0.0038976599 0.741 0.02208674 1.5007677e-38 317 223
-0.0025914267 0.73900002 0.022027127 1.4914402e-38 318 223
-0.0012957134 0.73900002 0.022027127 1.4637815e-38 319 223
0 0.741 0.02208674 1.4637094e-38 320 223
0.0012992199 0.741 0.02208674 1.4360505e-38 321 223
0.0025984398 0.741 0.02208674 1.4267588e-38 322 223
0.0038976599 0.741 0.02208674 1.4175392e-38 323 223
0.0051968796 0.741 0.02208674 1.4082123e-38 324 223
0.0064960998 0.741 0.02208674 1.3897732e-38 325 223
0.0077953199 0.741 0.02208674 1.362259e-38 326 223
0.0090945391 0.741 0.02208674 1.3714786e-38 327 223
0.010393759 0.741 0.02208674 1.3439287e-38 328 223
0.01169298 0.741 0.02208674 1.3439287e-38 329 223
0.013009733 0.74199998 0.022116546 1.3164875e-38 330 223
0.01434928 0.74400002 0.022176161 1.3164875e-38 331 223
0.015695838 0.74599999 0.022235774 1.2888657e-38 332 223
0.017026618 0.74699998 0.022265578 1.2704266e-38 333 223
0.018409999 0.75 0.022355 1.2520956e-38 334 223
0.019724999 0.75 0.022355 1.2336206e-38 335 223
0.021096105 0.75199997 0.022414612 1.2336206e-38 336 223
0.022414612 0.75199997 0.022414612 1.2336206e-38 337 223
0.02379624 0.75400001 0.022474226 1.2153613e-38 338 223
0.025218192 0.75700003 0.022563647 1.2245809e-38 339 223
0.026615599 0.759 0.02262326 1.224653e-38 340 223
0.027946379 0.759 0.02262326 1.2799704e-38 341 223
0.029277159 0.759 0.02262326 1.1882799e-38 342 223
0.030809574 0.764 0.022772292 1.1698768e-38 343 223
0.032149121 0.764 0.022772292 1.5487809e-38 344 223
-0.053792264 0.76700002 0.021516906 1.6045299e-38 280 224
-0.052447457 0.76700002 0.021516906 1.4478332e-38 281 224
-0.051102653 0.76700002 0.021516906 1.29931e-38 282 224
-0.04969297 0.76599997 0.021488851 1.0503818e-38 283 224
-0.048034318 0.76099998 0.021348584 1.2702801e-38 284 224
-0.046577301 0.759 0.02129248 1.2057432e-38 285 224
-0.045127295 0.75700003 0.021236373 1.1692991e-38 286 224
-0.043684296 0.755 0.021180267 1.5012033e-38 287 224
-0.042304426 0.75400001 0.021152213 1.5672922e-38 288 224
-0.040982414 0.75400001 0.021152213 1.7885619e-38 289 224
-0.039555199 0.75199997 0.021096105 1.6598851e-38 290 224
-0.038135 0.75 0.02104 1.6783242e-38 291 224
-0.036770906 0.74900001 0.021011947 1.7516116e-38 292 224
-0.03545766 0.74900001 0.021011947 1.5764399e-38 293 224
-0.034053236 0.74699998 0.020955838 1.621671e-38 294 224
-0.032743499 0.74699998 0.020955838 1.4649026e-38 295 224
-0.031433757 0.74699998 0.020955838 1.4180822e-38 296 224
-0.03008369 0.74599999 0.020927785 1.3074475e-38 297 224
-0.028775707 0.74599999 0.020927785 1.4636393e-38 298 224
-0.027320439 0.74199998 0.020815572 1.4083219e-38 299 224
-0.026019465 0.74199998 0.020815572 1.5006282e-38 300 224
-0.024685178 0.741 0.020787518 1.9432033e-38 301 224
-0.023385961 0.741 0.020787518 1.7702304e-38 302 224
-0.022027127 0.73900002 0.020731414 1.9546215e-38 303 224
-0.020731414 0.73900002 0.020731414 1.6039872e-38 304 224
-0.0194357 0.73900002 0.020731414 1.12457e-38 305 224
-0.018139986 0.73900002 0.020731414 1.4913699e-38 306 224
-0.016844273 0.73900002 0.020731414 1.5835655e-38 307 224
-0.01554856 0.73900002 0.020731414 1.5652706e-38 308 224
-0.014252847 0.73900002 0.020731414 1.5837456e-38 309 224
-0.012957133 0.73900002 0.020731414 1.5746699e-38 310 224
-0.01169298 0.741 0.020787518 1.5931451e-38 311 224
-0.010393759 0.741 0.020787518 1.6207309e-38 312 224
-0.0090945391 0.741 0.020787518 1.6207309e-38 313 224
-0.0077953199 0.741 0.020787518 1.611475e-38 314 224
-0.0064960998 0.741 0.020787518 1.5837803e-38 315 224
-0.0051828534 0.73900002 0.020731414 1.5560493e-38 316 224
-0.00388714 0.73900002 0.020731414 1.5099516e-38 317 224
-0.0025914267 0.73900002 0.020731414 1.4914402e-38 318 224
-0.0012957134 0.73900002 0.020731414 1.4637815e-38 319 224
0 0.73900002 0.020731414 1.4544897e-38 320 224
0.0012957134 0.73900002 0.020731414 1.426831e-38 321 224
0.0025984398 0.741 0.020787518 1.4175039e-38 322 224
0.0038976599 0.741 0.020787518 1.3990647e-38 323 224
0.0051968796 0.741 0.020787518 1.3897379e-38 324 224
0.0064960998 0.741 0.020787518 1.3805183e-38 325 224
0.0077953199 0.741 0.020787518 1.3621518e-38 326 224
0.0090945391 0.741 0.020787518 1.3621518e-38 327 224
0.010393759 0.741 0.020787518 1.3254906e-38 328 224
0.01169298 0.741 0.020787518 1.3438937e-38 329 224
0.013009733 0.74199998 0.020815572 1.2889013e-38 330 224
0.014310705 0.74199998 0.020815572 1.2889013e-38 331 224
0.015695838 0.74599999 0.020927785 1.2797536e-38 332 224
0.017003827 0.74599999 0.020927785 1.2520951e-38 333 224
0.018385453 0.74900001 0.021011947 1.2519872e-38 334 224
0.019724999 0.75 0.02104 1.2427676e-38 335 224
0.021096105 0.75199997 0.021096105 1.2243641e-38 336 224
0.022414612 0.75199997 0.021096105 1.2520228e-38 337 224
0.02379624 0.75400001 0.021152213 1.2336559e-38 338 224
0.025151566 0.755 0.021180267 1.2428755e-38 339 224
0.026545467 0.75700003 0.021236373 1.2337654e-38 340 224
0.027946379 0.759 0.02129248 1.2613882e-38 341 224
0.029277159 0.759 0.02129248 1.2065398e-38 342 224
0.030728921 0.76200002 0.02137664 1.2249791e-38 343 224
0.032149121 0.764 0.021432746 1.5210143e-38 344 224
-0.055137072 0.76700002 0.020172099 1.9271796e-38 279 225
-0.053792264 0.76700002 0.020172099 1.5399211e-38 280 225
-0.052447457 0.76700002 0.020172099 1.4016275e-38 281 225
-0.051036026 0.76599997 0.020145798 1.289803e-38 282 225
-0.049368605 0.76099998 0.020014299 1.0777531e-38 283 225
-0.047908079 0.759 0.0199617 1.2800434e-38 284 225
-0.046454567 0.75700003 0.019909101 1.519716e-38 285 225
-0.045008067 0.755 0.0198565 1.5024663e-38 286 225
-0.043684296 0.755 0.0198565 1.7052967e-38 287 225
-0.042304426 0.75400001 0.019830201 1.6597046e-38 288 225
-0.040873703 0.75199997 0.0197776 1.715022e-38 289 225
-0.039449997 0.75 0.019724999 1.6598851e-38 290 225
-0.038084153 0.74900001 0.0196987 1.6967274e-38 291 225
-0.036770906 0.74900001 0.0196987 1.5122617e-38 292 225
-0.035362978 0.74699998 0.019646099 1.2172717e-38 293 225
-0.034053236 0.74699998 0.019646099 1.4355859e-38 294 225
-0.032743499 0.74699998 0.019646099 1.4909032e-38 295 225
-0.031391677 0.74599999 0.019619798 1.417289e-38 296 225
-0.030003037 0.74400002 0.019567199 1.4634228e-38 297 225
-0.02869856 0.74400002 0.019567199 1.4821153e-38 298 225
-0.027320439 0.74199998 0.0195146 1.4544566e-38 299 225
-0.025984399 0.741 0.019488299 1.5190679e-38 300 225
-0.024685178 0.741 0.019488299 1.9247288e-38 301 225
-0.023385961 0.741 0.019488299 1.7793059e-38 302 225
-0.022027127 0.73900002 0.0194357 1.9821363e-38 303 225
-0.020731414 0.73900002 0.0194357 1.6408304e-38 304 225
-0.0194357 0.73900002 0.0194357 1.1798522e-38 305 225
-0.018139986 0.73900002 0.0194357 1.4821872e-38 306 225
-0.016844273 0.73900002 0.0194357 1.5559438e-38 307 225
-0.01554856 0.73900002 0.0194357 1.5744188e-38 308 225
-0.014252847 0.73900002 0.0194357 1.5836384e-38 309 225
-0.012957133 0.73900002 0.0194357 1.5746702e-38 310 225
-0.01166142 0.73900002 0.0194357 1.6115484e-38 311 225
-0.010365707 0.73900002 0.0194357 1.6024718e-38 312 225
-0.0090699932 0.73900002 0.0194357 1.6116914e-38 313 225
-0.0077742799 0.73900002 0.0194357 1.6207312e-38 314 225
-0.0064785667 0.73900002 0.0194357 1.5930365e-38 315 225
-0.0051828534 0.73900002 0.0194357 1.5468672e-38 316 225
-0.00388714 0.73900002 0.0194357 1.5007692e-38 317 225
-0.0025914267 0.73900002 0.0194357 1.4639263e-38 318 225
-0.0012957134 0.73900002 0.0194357 1.4178286e-38 319 225
0 0.73900002 0.0194357 1.4452348e-38 320 225
0.0012957134 0.73900002 0.0194357 1.4083925e-38 321 225
0.0025914267 0.73900002 0.0194357 1.4266522e-38 322 225
0.00388714 0.73900002 0.0194357 1.3989575e-38 323 225
0.0051828534 0.73900002 0.0194357 1.3804827e-38 324 225
0.0064960998 0.741 0.019488299 1.3804827e-38 325 225
0.0077953199 0.741 0.019488299 1.3345651e-38 326 225
0.0090945391 0.741 0.019488299 1.3345651e-38 327 225
0.010393759 0.741 0.019488299 1.3346023e-38 328 225
0.01169298 0.741 0.019488299 1.3438218e-38 329 225
0.013009733 0.74199998 0.0195146 1.2889013e-38 330 225
0.014310705 0.74199998 0.0195146 1.3073045e-38 331 225
0.015653761 0.74400002 0.019567199 1.2797536e-38 332 225
0.017003827 0.74599999 0.019619798 1.2704982e-38 333 225
0.018336359 0.74699998 0.019646099 1.2429111e-38 334 225
0.0196987 0.74900001 0.0196987 1.2244361e-38 335 225
0.02104 0.75 0.019724999 1.2519506e-38 336 225
0.022414612 0.75199997 0.0197776 1.2519506e-38 337 225
0.023733119 0.75199997 0.0197776 1.2429108e-38 338 225
0.025118252 0.75400001 0.019830201 1.2429108e-38 339 225
0.026475333 0.755 0.0198565 1.2337281e-38 340 225
0.027872739 0.75700003 0.019909101 1.2337281e-38 341 225
0.029200014 0.75700003 0.019909101 1.1787367e-38 342 225
0.030728921 0.76200002 0.0200406 1.2432736e-38 343 225
0.032149121 0.764 0.020093199 1.5299822e-38 344 225
-0.055137072 0.76700002 0.018827293 1.9086681e-38 279 226
-0.053792264 0.76700002 0.018827293 1.4753844e-38 280 226
-0.052379075 0.76599997 0.018802745 1.3555301e-38 281 226
-0.050902773 0.764 0.018753653 1.2344873e-38 282 226
-0.049368605 0.76099998 0.018680012 1.133108e-38 283 226
-0.047908079 0.759 0.01863092 1.3818584e-38 284 226
-0.046454567 0.75700003 0.018581826 1.7045431e-38 285 226
-0.045008067 0.755 0.018532733 1.7697653e-38 286 226
-0.043684296 0.755 0.018532733 1.7789848e-38 287 226
-0.042304426 0.75400001 0.018508185 1.6506297e-38 288 226
-0.040873703 0.75199997 0.018459093 1.6691047e-38 289 226
-0.039449997 0.75 0.018409999 1.6323703e-38 290 226
-0.038084153 0.74900001 0.018385453 1.6784682e-38 291 226
-0.036770906 0.74900001 0.018385453 1.5029686e-38 292 226
-0.035362978 0.74699998 0.018336359 1.0327708e-38 293 226
-0.034053236 0.74699998 0.018336359 1.1782643e-38 294 226
-0.032699663 0.74599999 0.018311813 1.2704601e-38 295 226
-0.031391677 0.74599999 0.018311813 1.2706771e-38 296 226
-0.030003037 0.74400002 0.01826272 1.3720563e-38 297 226
-0.02869856 0.74400002 0.01826272 1.500808e-38 298 226
-0.027320439 0.74199998 0.018213626 1.417832e-38 299 226
-0.025984399 0.741 0.018189078 1.5098131e-38 300 226
-0.024685178 0.741 0.018189078 1.8509369e-38 301 226
-0.023385961 0.741 0.018189078 1.7698709e-38 302 226
-0.022027127 0.73900002 0.018139986 2.018799e-38 303 226
-0.020731414 0.73900002 0.018139986 1.6686336e-38 304 226
-0.0194357 0.73900002 0.018139986 1.2353142e-38 305 226
-0.018139986 0.73900002 0.018139986 1.4546379e-38 306 226
-0.016821479 0.73799998 0.018115439 1.5283946e-38 307 226
-0.015527519 0.73799998 0.018115439 1.5467971e-38 308 226
-0.014233559 0.73799998 0.018115439 1.5836752e-38 309 226
-0.012939599 0.73799998 0.018115439 1.5747425e-38 310 226
-0.01166142 0.73900002 0.018139986 1.5931816e-38 311 226
-0.010365707 0.73900002 0.018139986 1.6209107e-38 312 226
-0.0090699932 0.73900002 0.018139986 1.6209107e-38 313 226
-0.0077742799 0.73900002 0.018139986 1.6298425e-38 314 226
-0.0064785667 0.73900002 0.018139986 1.5930002e-38 315 226
-0.0051828534 0.73900002 0.018139986 1.5652693e-38 316 226
-0.00388714 0.73900002 0.018139986 1.5191715e-38 317 226
-0.0025914267 0.73900002 0.018139986 1.4913323e-38 318 226
-0.0012957134 0.73900002 0.018139986 1.4544899e-38 319 226
0 0.73900002 0.018139986 1.4359433e-38 320 226
0.0012957134 0.73900002 0.018139986 1.4267238e-38 321 226
0.0025914267 0.73900002 0.018139986 1.3990296e-38 322 226
0.00388714 0.73900002 0.018139986 1.3713711e-38 323 226
0.0051828534 0.73900002 0.018139986 1.3620799e-38 324 226
0.0064785667 0.73900002 0.018139986 1.3620799e-38 325 226
0.0077742799 0.73900002 0.018139986 1.3528966e-38 326 226
0.0090699932 0.73900002 0.018139986 1.3528966e-38 327 226
0.010365707 0.73900002 0.018139986 1.3162354e-38 328 226
0.01169298 0.741 0.018189078 1.325455e-38 329 226
0.0129922 0.741 0.018189078 1.288866e-38 330 226
0.014310705 0.74199998 0.018213626 1.288866e-38 331 226
0.015653761 0.74400002 0.01826272 1.2522038e-38 332 226
0.016958239 0.74400002 0.01826272 1.2338007e-38 333 226
0.018336359 0.74699998 0.018336359 1.242983e-38 334 226
0.019646099 0.74699998 0.018336359 1.2061049e-38 335 226
0.02104 0.75 0.018409999 1.2427306e-38 336 226
0.022414612 0.75199997 0.018459093 1.2612058e-38 337 226
0.023733119 0.75199997 0.018459093 1.2612058e-38 338 226
0.025118252 0.75400001 0.018508185 1.2888284e-38 339 226
0.026475333 0.755 0.018532733 1.2796108e-38 340 226
0.027799098 0.755 0.018532733 1.2703913e-38 341 226
0.029200014 0.75700003 0.018581826 1.1603348e-38 342 226
0.030688593 0.76099998 0.018680012 1.1972131e-38 343 226
0.032064959 0.76200002 0.01870456 1.4746654e-38 344 226
-0.055137072 0.76700002 0.017482487 1.8164727e-38 279 227
-0.053792264 0.76700002 0.017482487 1.410667e-38 280 227
-0.052379075 0.76599997 0.017459691 1.3738247e-38 281 227
-0.050769519 0.76200002 0.01736852 1.2254854e-38 282 227
-0.049368605 0.76099998 0.017345725 1.446719e-38 283 227
-0.047908079 0.759 0.017300138 1.7327063e-38 284 227
-0.046454567 0.75700003 0.017254554 1.6865724e-38 285 227
-0.045008067 0.755 0.017208965 1.4471146e-38 286 227
-0.043626439 0.75400001 0.017186172 1.290346e-38 287 227
-0.04219221 0.75199997 0.017140586 1.4663459e-38 288 227
-0.040764999 0.75 0.017095 1.6599567e-38 289 227
-0.0393974 0.74900001 0.017072206 1.6324425e-38 290 227
-0.038084153 0.74900001 0.017072206 1.6601013e-38 291 227
-0.036672719 0.74699998 0.017026618 1.5765824e-38 292 227
-0.035362978 0.74699998 0.017026618 1.3091792e-38 293 227
-0.034007654 0.74599999 0.017003827 1.3174624e-38 294 227
-0.032612 0.74400002 0.016958239 1.6032329e-38 295 227
-0.031307522 0.74400002 0.016958239 1.5949145e-38 296 227
-0.029922385 0.74199998 0.016912652 1.7055491e-38 297 227
-0.028621411 0.74199998 0.016912652 1.7601456e-38 298 227
-0.027283618 0.741 0.016889861 1.2991675e-38 299 227
-0.025984399 0.741 0.016889861 1.4543885e-38 300 227
-0.024618553 0.73900002 0.016844273 1.7862927e-38 301 227
-0.023322839 0.73900002 0.016844273 1.7698709e-38 302 227
-0.022027127 0.73900002 0.016844273 2.00036e-38 303 227
-0.020731414 0.73900002 0.016844273 1.6871097e-38 304 227
-0.0194357 0.73900002 0.016844273 1.299888e-38 305 227
-0.018115439 0.73799998 0.016821479 1.4085402e-38 306 227
-0.016821479 0.73799998 0.016821479 1.4915163e-38 307 227
-0.015527519 0.73799998 0.016821479 1.5467241e-38 308 227
-0.014233559 0.73799998 0.016821479 1.5744188e-38 309 227
-0.012939599 0.73799998 0.016821479 1.5930014e-38 310 227
-0.011645639 0.73799998 0.016821479 1.6299157e-38 311 227
-0.010351679 0.73799998 0.016821479 1.6209112e-38 312 227
-0.0090699932 0.73900002 0.016844273 1.6209112e-38 313 227
-0.0077742799 0.73900002 0.016844273 1.6115479e-38 314 227
-0.0064785667 0.73900002 0.016844273 1.5654859e-38 315 227
-0.0051828534 0.73900002 0.016844273 1.5469747e-38 316 227
-0.00388714 0.73900002 0.016844273 1.4824377e-38 317 227
-0.0025879198 0.73799998 0.016821479 1.4730379e-38 318 227
-0.0012939599 0.73799998 0.016821479 1.4177206e-38 319 227
0 0.73799998 0.016821479 1.4360155e-38 320 227
0.0012939599 0.73799998 0.016821479 1.3991374e-38 321 227
0.0025879198 0.73799998 0.016821479 1.3990293e-38 322 227
0.0038818798 0.73799998 0.016821479 1.3714067e-38 323 227
0.0051758396 0.73799998 0.016821479 1.3621515e-38 324 227
0.0064785667 0.73900002 0.016844273 1.3529319e-38 325 227
0.0077742799 0.73900002 0.016844273 1.3345651e-38 326 227
0.0090699932 0.73900002 0.016844273 1.3345651e-38 327 227
0.010365707 0.73900002 0.016844273 1.3071228e-38 328 227
0.01169298 0.741 0.016889861 1.3163424e-38 329 227
0.0129922 0.741 0.016889861 1.2796815e-38 330 227
0.014310705 0.74199998 0.016912652 1.2796815e-38 331 227
0.015653761 0.74400002 0.016958239 1.2521322e-38 332 227
0.016958239 0.74400002 0.016958239 1.2521322e-38 333 227
0.018311813 0.74599999 0.017003827 1.2429126e-38 334 227
0.019646099 0.74699998 0.017026618 1.2152541e-38 335 227
0.021011947 0.74900001 0.017072206 1.2427676e-38 336 227
0.022414612 0.75199997 0.017140586 1.2427676e-38 337 227
0.023733119 0.75199997 0.017140586 1.2612776e-38 338 227
0.025118252 0.75400001 0.017186172 1.2704972e-38 339 227
0.026440267 0.75400001 0.017186172 1.2521672e-38 340 227
0.027799098 0.755 0.017208965 1.2521672e-38 341 227
0.029122867 0.755 0.017208965 1.2062159e-38 342 227
0.030688593 0.76099998 0.017345725 1.2062159e-38 343 227
0.032064959 0.76200002 0.01736852 1.4193477e-38 344 227
-0.055137072 0.76700002 0.01613768 1.7427517e-38 279 228
-0.053722132 0.76599997 0.016116638 1.3646048e-38 280 228
-0.052105557 0.76200002 0.01603248 1.3553852e-38 281 228
-0.050769519 0.76200002 0.01603248 1.2621484e-38 282 228
-0.049368605 0.76099998 0.016011439 1.3727833e-38 283 228
-0.047908079 0.759 0.015969358 1.6861035e-38 284 228
-0.046454567 0.75700003 0.015927281 1.4464309e-38 285 228
-0.045008067 0.755 0.015885198 1.1979301e-38 286 228
-0.043626439 0.75400001 0.01586416 1.2440279e-38 287 228
-0.04219221 0.75199997 0.015822079 1.5209778e-38 288 228
-0.040710647 0.74900001 0.01575896 1.8252232e-38 289 228
-0.0393974 0.74900001 0.01575896 1.6047842e-38 290 228
-0.03798246 0.74699998 0.015716879 1.6324069e-38 291 228
-0.036672719 0.74699998 0.015716879 1.5953479e-38 292 228
-0.03531564 0.74599999 0.015695838 1.4754936e-38 293 228
-0.034007654 0.74599999 0.015695838 1.5764767e-38 294 228
-0.032612 0.74400002 0.015653761 1.6871475e-38 295 228
-0.031223357 0.74199998 0.015611678 1.8253331e-38 296 228
-0.029922385 0.74199998 0.015611678 1.8437722e-38 297 228
-0.028621411 0.74199998 0.015611678 1.7424265e-38 298 228
-0.027209979 0.73900002 0.01554856 1.180069e-38 299 228
-0.025914267 0.73900002 0.01554856 1.4266576e-38 300 228
-0.024618553 0.73900002 0.01554856 1.6755857e-38 301 228
-0.023322839 0.73900002 0.01554856 1.7422476e-38 302 228
-0.021997318 0.73799998 0.015527519 1.9911758e-38 303 228
-0.020703359 0.73799998 0.015527519 1.6779624e-38 304 228
-0.019409399 0.73799998 0.015527519 1.3368386e-38 305 228
-0.018115439 0.73799998 0.015527519 1.3993207e-38 306 228
-0.016775893 0.736 0.015485439 1.4915163e-38 307 228
-0.015485439 0.736 0.015485439 1.5376842e-38 308 228
-0.014194986 0.736 0.015485439 1.5653787e-38 309 228
-0.012904533 0.736 0.015485439 1.5747422e-38 310 228
-0.011645639 0.73799998 0.015527519 1.6024368e-38 311 228
-0.010323626 0.736 0.015485439 1.6116558e-38 312 228
-0.0090331733 0.736 0.015485439 1.6116558e-38 313 228
-0.0077637597 0.73799998 0.015527519 1.6115113e-38 314 228
-0.0064697997 0.73799998 0.015527519 1.5746689e-38 315 228
-0.0051758396 0.73799998 0.015527519 1.5560496e-38 316 228
-0.0038818798 0.73799998 0.015527519 1.5007324e-38 317 228
-0.0025879198 0.73799998 0.015527519 1.4820055e-38 318 228
-0.0012939599 0.73799998 0.015527519 1.4451632e-38 319 228
0 0.73799998 0.015527519 1.4083569e-38 320 228
0.0012939599 0.73799998 0.015527519 1.3899177e-38 321 228
0.0025879198 0.73799998 0.015527519 1.3806259e-38 322 228
0.0038818798 0.73799998 0.015527519 1.3714064e-38 323 228
0.0051758396 0.73799998 0.015527519 1.3620796e-38 324 228
0.0064785667 0.73900002 0.01554856 1.3528599e-38 325 228
0.0077742799 0.73900002 0.01554856 1.3345654e-38 326 228
0.0090699932 0.73900002 0.01554856 1.343785e-38 327 228
0.010365707 0.73900002 0.01554856 1.3071231e-38 328 228
0.01169298 0.741 0.01559064 1.3163426e-38 329 228
0.0129922 0.741 0.01559064 1.2704982e-38 330 228
0.01429142 0.741 0.01559064 1.2704982e-38 331 228
0.015611678 0.74199998 0.015611678 1.2245455e-38 332 228
0.016958239 0.74400002 0.015653761 1.2245455e-38 333 228
0.018311813 0.74599999 0.015695838 1.2153263e-38 334 228
0.019646099 0.74699998 0.015716879 1.1968513e-38 335 228
0.020955838 0.74699998 0.015716879 1.2060698e-38 336 228
0.022355 0.75 0.01578 1.2060698e-38 337 228
0.023733119 0.75199997 0.015822079 1.2428755e-38 338 228
0.025118252 0.75400001 0.01586416 1.2520951e-38 339 228
0.026440267 0.75400001 0.01586416 1.2521319e-38 340 228
0.027762281 0.75400001 0.01586416 1.2613515e-38 341 228
0.029122867 0.755 0.015885198 1.1787367e-38 342 228
0.030688593 0.76099998 0.016011439 1.1602975e-38 343 228
0.032022879 0.76099998 0.016011439 1.3917242e-38 344 228
0.033401001 0.76200002 0.01603248 1.7420678e-38 345 228
