# .PCD v.7 - Point Cloud Data file format
FIELDS x y z rgb imX imY
SIZE 4 4 4 4 4 4
TYPE F F F F F F
COUNT 1 1 1 1 1 1
WIDTH 834
HEIGHT 1
VIEWPOINT 0 0 0 1 0 0 0
POINTS 834
DATA ascii
0.015453878 0.67799997 -0.0071325595 1.3805224e-38 333 246
0.016642639 0.67799997 -0.0071325595 1.3272223e-38 334 246
0.017857701 0.67900002 -0.0071430802 1.4562962e-38 335 246
0.019048214 0.67900002 -0.0071430802 1.401844e-38 336 246
0.020238725 0.67900002 -0.0071430802 1.3926244e-38 337 246
0.021429239 0.67900002 -0.0071430802 1.3925172e-38 338 246
0.022619752 0.67900002 -0.0071430802 1.3832977e-38 339 246
0.023810266 0.67900002 -0.0071430802 1.3648228e-38 340 246
0.025037598 0.68000001 -0.0071535995 1.3464197e-38 341 246
0.026229866 0.68000001 -0.0071535995 1.3555669e-38 342 246
0.027502786 0.68199998 -0.00717464 1.3555669e-38 343 246
0.02869856 0.68199998 -0.00717464 1.3555301e-38 344 246
0.029938167 0.68300003 -0.0071851597 1.3555301e-38 345 246
0.031135695 0.68300003 -0.0071851597 1.3371626e-38 346 246
0.032380559 0.68400002 -0.0071956799 1.3187593e-38 347 246
0.033678025 0.68599999 -0.0072167199 1.3095761e-38 348 246
0.034880809 0.68599999 -0.0072167199 1.3003565e-38 349 246
0.036136195 0.68699998 -0.0072272392 1.3002846e-38 350 246
0.037340738 0.68699998 -0.0072272392 1.291065e-38 351 246
0.038545277 0.68699998 -0.0072272392 1.2909929e-38 352 246
0.039749816 0.68699998 -0.0072272392 1.2817733e-38 353 246
0.040954359 0.68699998 -0.0072272392 1.2726254e-38 354 246
0.042220265 0.68800002 -0.0072377604 1.2450025e-38 355 246
0.043805279 0.69400001 -0.0073008798 1.2538608e-38 356 246
0.045216713 0.69700003 -0.00733244 1.0878728e-38 357 246
0.046438783 0.69700003 -0.00733244 8.1949658e-39 358 246
0.047729239 0.69800001 -0.0073429602 7.7336275e-39 359 246
0.048953064 0.69800001 -0.0073429602 1.6867832e-38 360 246
0.050176892 0.69800001 -0.0073429602 1.8527712e-38 361 246
0.051400717 0.69800001 -0.0073429602 1.7058341e-38 362 246
-0.053609919 0.72799999 -0.0089349858 1.8347646e-38 278 247
-0.051057063 0.72799999 -0.0089349858 1.1608345e-38 280 247
-0.049780637 0.72799999 -0.0089349858 8.2893026e-39 281 247
-0.0479712 0.72000003 -0.0088367993 1.0675216e-38 282 247
-0.046643924 0.71899998 -0.0088245263 1.0951805e-38 283 247
-0.045257039 0.71700001 -0.0087999795 1.1042205e-38 284 247
-0.043938532 0.71600002 -0.0087877065 1.1134401e-38 285 247
-0.042563915 0.71399999 -0.0087631596 1.1043277e-38 286 247
-0.041138459 0.71100003 -0.0087263398 1.1135473e-38 287 247
-0.039835732 0.70999998 -0.0087140659 1.1227306e-38 288 247
-0.038482159 0.708 -0.008689519 1.1227306e-38 289 247
-0.037135597 0.70599997 -0.0086649731 1.1227306e-38 290 247
-0.035796054 0.704 -0.0086404262 1.1319501e-38 291 247
-0.034512613 0.70300001 -0.0086281532 1.1410615e-38 292 247
-0.033280019 0.70300001 -0.0086281532 1.1410615e-38 293 247
-0.031956252 0.70099998 -0.0086036054 1.1227306e-38 294 247
-0.030727165 0.70099998 -0.0086036054 1.1319501e-38 295 247
-0.029371841 0.69800001 -0.0085667865 1.1319867e-38 296 247
-0.028148014 0.69800001 -0.0085667865 1.1319867e-38 297 247
-0.026885614 0.69700003 -0.0085545136 1.1318795e-38 298 247
-0.025663542 0.69700003 -0.0085545136 1.1134404e-38 299 247
-0.0244064 0.69599998 -0.0085422397 1.1134053e-38 300 247
-0.023119451 0.69400001 -0.0085176928 1.0949302e-38 301 247
-0.021871079 0.69300002 -0.0085054198 1.1413865e-38 302 247
-0.020656019 0.69300002 -0.0085054198 1.3073026e-38 303 247
-0.019384852 0.69099998 -0.008480873 1.2700282e-38 304 247
-0.018146999 0.69 -0.0084686 1.1040759e-38 305 247
-0.016888106 0.68800002 -0.0084440531 1.1502813e-38 306 247
-0.015681813 0.68800002 -0.0084440531 1.1410618e-38 307 247
-0.014454478 0.68699998 -0.0084317802 1.1131154e-38 308 247
-0.01319208 0.68400002 -0.0083949603 1.122335e-38 309 247
-0.0119928 0.68400002 -0.0083949603 1.1042574e-38 310 247
-0.01079352 0.68400002 -0.0083949603 1.1134769e-38 311 247
-0.0095802136 0.68300003 -0.0083826864 1.1044369e-38 312 247
-0.0083826864 0.68300003 -0.0083826864 1.1413512e-38 313 247
-0.00717464 0.68199998 -0.0083704125 1.1601846e-38 314 247
-0.005978866 0.68199998 -0.0083704125 1.215502e-38 315 247
-0.004783093 0.68199998 -0.0083704125 1.2520558e-38 316 247
-0.00358732 0.68199998 -0.0083704125 1.1875189e-38 317 247
-0.0023915465 0.68199998 -0.0083704125 1.1963786e-38 318 247
-0.0011957732 0.68199998 -0.0083704125 1.1595362e-38 319 247
0 0.68000001 -0.0083458666 1.1501741e-38 320 247
0.0011922666 0.68000001 -0.0083458666 1.1501741e-38 321 247
0.0023915465 0.68199998 -0.0083704125 1.1226602e-38 322 247
0.0035767998 0.68000001 -0.0083458666 1.1318798e-38 323 247
0.0047690663 0.68000001 -0.0083458666 1.1319514e-38 324 247
0.0059525664 0.67900002 -0.0083335936 1.1319514e-38 325 247
0.0071430802 0.67900002 -0.0083335936 1.1502826e-38 326 247
0.0083335936 0.67900002 -0.0083335936 1.159538e-38 327 247
0.0095100794 0.67799997 -0.0083213197 1.1596829e-38 328 247
0.010698839 0.67799997 -0.0083213197 1.1689025e-38 329 247
0.011887599 0.67799997 -0.0083213197 1.1597195e-38 330 247
0.013076359 0.67799997 -0.0083213197 1.1689391e-38 331 247
0.014265119 0.67799997 -0.0083213197 1.1604778e-38 332 247
0.015453878 0.67799997 -0.0083213197 1.3725277e-38 333 247
0.016642639 0.67799997 -0.0083213197 1.4381827e-38 334 247
0.0178314 0.67799997 -0.0083213197 1.5027197e-38 335 247
0.019020159 0.67799997 -0.0083213197 1.4569823e-38 336 247
0.020208918 0.67799997 -0.0083213197 1.4201039e-38 337 247
0.021397678 0.67799997 -0.0083213197 1.3832979e-38 338 247
0.022586439 0.67799997 -0.0083213197 1.3648228e-38 339 247
0.023810266 0.67900002 -0.0083335936 1.3647509e-38 340 247
0.025000781 0.67900002 -0.0083335936 1.3555314e-38 341 247
0.026191294 0.67900002 -0.0083335936 1.3555669e-38 342 247
0.027422134 0.68000001 -0.0083458666 1.3463115e-38 343 247
0.02869856 0.68199998 -0.0083704125 1.3463468e-38 344 247
0.029938167 0.68300003 -0.0083826864 1.3463468e-38 345 247
0.031135695 0.68300003 -0.0083826864 1.3371626e-38 346 247
0.032333218 0.68300003 -0.0083826864 1.3371626e-38 347 247
0.033579841 0.68400002 -0.0083949603 1.3278354e-38 348 247
0.034880809 0.68599999 -0.0084195063 1.3186158e-38 349 247
0.036083598 0.68599999 -0.0084195063 1.3002843e-38 350 247
0.037286382 0.68599999 -0.0084195063 1.2910648e-38 351 247
0.038545277 0.68699998 -0.0084317802 1.2910285e-38 352 247
0.039749816 0.68699998 -0.0084317802 1.281773e-38 353 247
0.040954359 0.68699998 -0.0084317802 1.3001396e-38 354 247
0.042158898 0.68699998 -0.0084317802 1.2725168e-38 355 247
0.043742158 0.69300002 -0.0085054198 1.2631527e-38 356 247
0.045216713 0.69700003 -0.0085545136 1.1893602e-38 357 247
0.046438783 0.69700003 -0.0085545136 9.6773013e-39 358 247
0.047729239 0.69800001 -0.0085667865 6.8192368e-39 359 247
0.048953064 0.69800001 -0.0085667865 1.3738951e-38 360 247
0.050176892 0.69800001 -0.0085667865 1.7703363e-38 361 247
0.051327083 0.69700003 -0.0085545136 1.8899751e-38 362 247
0.052549154 0.69700003 -0.0085545136 1.8346577e-38 363 247
-0.051057063 0.72799999 -0.010211413 1.2715772e-38 280 248
-0.049780637 0.72799999 -0.010211413 8.6591641e-39 281 248
-0.0479712 0.72000003 -0.010099201 1.0674498e-38 282 248
-0.046643924 0.71899998 -0.010085173 1.1227671e-38 283 248
-0.045257039 0.71700001 -0.01005712 1.1226597e-38 284 248
-0.043938532 0.71600002 -0.010043093 1.1042205e-38 285 248
-0.042563915 0.71399999 -0.01001504 1.1043274e-38 286 248
-0.041138459 0.71100003 -0.0099729598 1.1043274e-38 287 248
-0.039835732 0.70999998 -0.0099589331 1.1318417e-38 288 248
-0.038482159 0.708 -0.0099308798 1.1318417e-38 289 248
-0.037135597 0.70599997 -0.0099028256 1.1318417e-38 290 248
-0.035796054 0.704 -0.0098747732 1.1318417e-38 291 248
-0.034512613 0.70300001 -0.0098607466 1.1501013e-38 292 248
-0.033280019 0.70300001 -0.0098607466 1.1501013e-38 293 248
-0.031956252 0.70099998 -0.0098326923 1.1409899e-38 294 248
-0.030727165 0.70099998 -0.0098326923 1.1502095e-38 295 248
-0.029371841 0.69800001 -0.0097906133 1.122695e-38 296 248
-0.028148014 0.69800001 -0.0097906133 1.122695e-38 297 248
-0.026885614 0.69700003 -0.0097765867 1.1318069e-38 298 248
-0.025663542 0.69700003 -0.0097765867 1.1225873e-38 299 248
-0.0244064 0.69599998 -0.0097625591 1.1041485e-38 300 248
-0.023119451 0.69400001 -0.0097345067 1.1317713e-38 301 248
-0.021871079 0.69300002 -0.0097204801 1.1689728e-38 302 248
-0.020596405 0.69099998 -0.0096924258 1.2703522e-38 303 248
-0.019356798 0.69 -0.0096783992 1.2705307e-38 304 248
-0.0180944 0.68800002 -0.0096503468 1.2889338e-38 305 248
-0.016888106 0.68800002 -0.0096503468 1.3166281e-38 306 248
-0.015659019 0.68699998 -0.0096363192 1.2243966e-38 307 248
-0.014454478 0.68699998 -0.0096363192 1.1870157e-38 308 248
-0.01319208 0.68400002 -0.0095942402 1.1593211e-38 309 248
-0.0119928 0.68400002 -0.0095942402 1.1042561e-38 310 248
-0.01077774 0.68300003 -0.0095802136 1.1042561e-38 311 248
-0.0095802136 0.68300003 -0.0095802136 1.0951805e-38 312 248
-0.0083704125 0.68199998 -0.009566186 1.1320586e-38 313 248
-0.00717464 0.68199998 -0.009566186 1.1873041e-38 314 248
-0.005978866 0.68199998 -0.009566186 1.1873041e-38 315 248
-0.004783093 0.68199998 -0.009566186 1.1686854e-38 316 248
-0.00358732 0.68199998 -0.009566186 1.1410268e-38 317 248
-0.0023845332 0.68000001 -0.0095381327 1.1225518e-38 318 248
-0.0011922666 0.68000001 -0.0095381327 1.1225518e-38 319 248
0 0.68000001 -0.0095381327 1.1408468e-38 320 248
0.0011922666 0.68000001 -0.0095381327 1.1408468e-38 321 248
0.0023845332 0.68000001 -0.0095381327 1.1041485e-38 322 248
0.0035767998 0.68000001 -0.0095381327 1.1317713e-38 323 248
0.0047620535 0.67900002 -0.009524107 1.1317716e-38 324 248
0.0059437994 0.67799997 -0.0095100794 1.1409912e-38 325 248
0.0071325595 0.67799997 -0.0095100794 1.150211e-38 326 248
0.0083213197 0.67799997 -0.0095100794 1.150211e-38 327 248
0.0095100794 0.67799997 -0.0095100794 1.1502832e-38 328 248
0.01066728 0.676 -0.0094820261 1.1134051e-38 329 248
0.011852534 0.676 -0.0094820261 1.086324e-38 330 248
0.013037786 0.676 -0.0094820261 1.2983739e-38 331 248
0.014223038 0.676 -0.0094820261 1.4102354e-38 332 248
0.015408293 0.676 -0.0094820261 1.5209062e-38 333 248
0.016642639 0.67799997 -0.0095100794 1.447655e-38 334 248
0.0178314 0.67799997 -0.0095100794 1.4199964e-38 335 248
0.019020159 0.67799997 -0.0095100794 1.3649311e-38 336 248
0.020208918 0.67799997 -0.0095100794 1.3557116e-38 337 248
0.021397678 0.67799997 -0.0095100794 1.3648228e-38 338 248
0.022586439 0.67799997 -0.0095100794 1.3464197e-38 339 248
0.023775198 0.67799997 -0.0095100794 1.3464197e-38 340 248
0.025000781 0.67900002 -0.009524107 1.3372001e-38 341 248
0.026191294 0.67900002 -0.009524107 1.3279803e-38 342 248
0.027381808 0.67900002 -0.009524107 1.3279803e-38 343 248
0.028614398 0.68000001 -0.0095381327 1.3554948e-38 344 248
0.029894331 0.68199998 -0.009566186 1.3462752e-38 345 248
0.031090107 0.68199998 -0.009566186 1.3371273e-38 346 248
0.032333218 0.68300003 -0.0095802136 1.318724e-38 347 248
0.033530746 0.68300003 -0.0095802136 1.3278357e-38 348 248
0.03477912 0.68400002 -0.0095942402 1.3186161e-38 349 248
0.035978399 0.68400002 -0.0095942402 1.300213e-38 350 248
0.037286382 0.68599999 -0.0096222926 1.2909576e-38 351 248
0.03848917 0.68599999 -0.0096222926 1.3093241e-38 352 248
0.039691959 0.68599999 -0.0096222926 1.3093241e-38 353 248
0.040954359 0.68699998 -0.0096363192 1.2818086e-38 354 248
0.042158898 0.68699998 -0.0096363192 1.2725889e-38 355 248
0.043426562 0.68800002 -0.0096503468 1.2448581e-38 356 248
0.044957221 0.69300002 -0.0097204801 1.1987602e-38 357 248
0.046438783 0.69700003 -0.0097765867 1.1248238e-38 358 248
0.047660861 0.69700003 -0.0097765867 9.404327e-39 359 248
0.048882935 0.69700003 -0.0097765867 9.41188e-39 360 248
0.050176892 0.69800001 -0.0097906133 1.3653238e-38 361 248
0.051327083 0.69700003 -0.0097765867 1.7795927e-38 362 248
0.052549154 0.69700003 -0.0097765867 1.751898e-38 363 248
-0.04790457 0.71899998 -0.01134582 1.0582302e-38 282 249
-0.046514176 0.71700001 -0.01131426 1.1135476e-38 283 249
-0.045257039 0.71700001 -0.01131426 1.0951808e-38 284 249
-0.043938532 0.71600002 -0.01129848 1.0859612e-38 285 249
-0.042563915 0.71399999 -0.011266919 1.1134754e-38 286 249
-0.041138459 0.71100003 -0.01121958 1.1042558e-38 287 249
-0.039723519 0.708 -0.01117224 1.1226224e-38 288 249
-0.038427804 0.70700002 -0.011156459 1.1318419e-38 289 249
-0.037030395 0.704 -0.011109119 1.1317701e-38 290 249
-0.035796054 0.704 -0.011109119 1.1317701e-38 291 249
-0.034512613 0.70300001 -0.01109334 1.1041835e-38 292 249
-0.03318534 0.70099998 -0.011061779 1.1041835e-38 293 249
-0.031956252 0.70099998 -0.011061779 1.1041838e-38 294 249
-0.030683333 0.69999999 -0.011045999 1.1318066e-38 295 249
-0.029371841 0.69800001 -0.01101444 1.1226952e-38 296 249
-0.028148014 0.69800001 -0.01101444 1.1042561e-38 297 249
-0.026885614 0.69700003 -0.01099866 1.0950005e-38 298 249
-0.025663542 0.69700003 -0.01099866 1.0950005e-38 299 249
-0.024336265 0.69400001 -0.01095132 1.1041841e-38 300 249
-0.023119451 0.69400001 -0.01095132 1.150246e-38 301 249
-0.021807959 0.69099998 -0.01090398 1.1414218e-38 302 249
-0.020566599 0.69 -0.010888199 1.1874837e-38 303 249
-0.019356798 0.69 -0.010888199 1.2518758e-38 304 249
-0.0180944 0.68800002 -0.010856641 1.2518758e-38 305 249
-0.01686356 0.68699998 -0.010840859 1.2425846e-38 306 249
-0.015659019 0.68699998 -0.010840859 1.2333649e-38 307 249
-0.01443344 0.68599999 -0.010825079 1.187124e-38 308 249
-0.01319208 0.68400002 -0.01079352 1.1687208e-38 309 249
-0.0119928 0.68400002 -0.01079352 1.1225153e-38 310 249
-0.01077774 0.68300003 -0.01077774 1.131735e-38 311 249
-0.009566186 0.68199998 -0.010761959 1.0952529e-38 312 249
-0.0083704125 0.68199998 -0.010761959 1.1044725e-38 313 249
-0.00717464 0.68199998 -0.010761959 1.1502113e-38 314 249
-0.005978866 0.68199998 -0.010761959 1.1502113e-38 315 249
-0.0047690663 0.68000001 -0.0107304 1.1226252e-38 316 249
-0.0035767998 0.68000001 -0.0107304 1.1133697e-38 317 249
-0.0023845332 0.68000001 -0.0107304 1.1041858e-38 318 249
-0.0011905134 0.67900002 -0.010714619 1.0949302e-38 319 249
0 0.67900002 -0.010714619 1.0948939e-38 320 249
0.0011905134 0.67900002 -0.010714619 1.1041135e-38 321 249
0.0023845332 0.68000001 -0.0107304 1.0857462e-38 322 249
0.0035715401 0.67900002 -0.010714619 1.0949658e-38 323 249
0.0047620535 0.67900002 -0.010714619 1.0949658e-38 324 249
0.0059437994 0.67799997 -0.010698839 1.1134051e-38 325 249
0.0071325595 0.67799997 -0.010698839 1.1226246e-38 326 249
0.0083213197 0.67799997 -0.010698839 1.1226246e-38 327 249
0.0095100794 0.67799997 -0.010698839 1.0951475e-38 328 249
0.01066728 0.676 -0.01066728 1.1596845e-38 329 249
0.011852534 0.676 -0.01066728 1.0599277e-38 330 249
0.013037786 0.676 -0.01066728 1.2627581e-38 331 249
0.014223038 0.676 -0.01066728 1.383118e-38 332 249
0.015408293 0.676 -0.01066728 1.429216e-38 333 249
0.016593546 0.676 -0.01066728 1.3832624e-38 334 249
0.017778801 0.676 -0.01066728 1.3740428e-38 335 249
0.018964052 0.676 -0.01066728 1.3557116e-38 336 249
0.020208918 0.67799997 -0.010698839 1.3372723e-38 337 249
0.021397678 0.67799997 -0.010698839 1.34642e-38 338 249
0.022586439 0.67799997 -0.010698839 1.34642e-38 339 249
0.023775198 0.67799997 -0.010698839 1.3372001e-38 340 249
0.024963958 0.67799997 -0.010698839 1.3279806e-38 341 249
0.026191294 0.67900002 -0.010714619 1.3187607e-38 342 249
0.027381808 0.67900002 -0.010714619 1.3187607e-38 343 249
0.028572321 0.67900002 -0.010714619 1.3370919e-38 344 249
0.029806666 0.68000001 -0.0107304 1.3370919e-38 345 249
0.030998932 0.68000001 -0.0107304 1.3095407e-38 346 249
0.032285877 0.68199998 -0.010761959 1.3003212e-38 347 249
0.03348165 0.68199998 -0.010761959 1.3185805e-38 348 249
0.034728274 0.68300003 -0.01077774 1.3185805e-38 349 249
0.035925802 0.68300003 -0.01077774 1.2909576e-38 350 249
0.037123326 0.68300003 -0.01077774 1.2909576e-38 351 249
0.038376961 0.68400002 -0.01079352 1.2909929e-38 352 249
0.03957624 0.68400002 -0.01079352 1.2817733e-38 353 249
0.040894743 0.68599999 -0.010825079 1.2818086e-38 354 249
0.042097531 0.68599999 -0.010825079 1.2818086e-38 355 249
0.043363437 0.68699998 -0.010840859 1.2816287e-38 356 249
0.0447626 0.69 -0.010888199 1.2355309e-38 357 249
0.04617228 0.69300002 -0.010935539 1.1525548e-38 358 249
0.047455717 0.69400001 -0.01095132 1.0142614e-38 359 249
0.048812799 0.69599998 -0.010982879 7.9356737e-39 360 249
0.050033119 0.69599998 -0.010982879 1.1900445e-38 361 249
0.051253434 0.69599998 -0.010982879 1.7611177e-38 362 249
0.052624546 0.69800001 -0.01101444 1.7334949e-38 363 249
0.053848371 0.69800001 -0.01101444 1.7425703e-38 364 249
-0.049165215 0.71899998 -0.012606465 1.1518671e-38 281 250
-0.04790457 0.71899998 -0.012606465 1.0858893e-38 282 250
-0.046514176 0.71700001 -0.0125714 1.113512e-38 283 250
-0.045257039 0.71700001 -0.0125714 1.1044359e-38 284 250
-0.043938532 0.71600002 -0.012553867 1.0859609e-38 285 250
-0.042563915 0.71399999 -0.012518799 1.0859246e-38 286 250
-0.041138459 0.71100003 -0.0124662 1.0859246e-38 287 250
-0.039723519 0.708 -0.0124136 1.1226227e-38 288 250
-0.038427804 0.70700002 -0.012396066 1.1226227e-38 289 250
-0.037030395 0.704 -0.012343466 1.1226227e-38 290 250
-0.035745207 0.70300001 -0.012325933 1.1041835e-38 291 250
-0.034512613 0.70300001 -0.012325933 1.1041835e-38 292 250
-0.03318534 0.70099998 -0.012290866 1.1041835e-38 293 250
-0.031910665 0.69999999 -0.012273333 1.1225873e-38 294 250
-0.030683333 0.69999999 -0.012273333 1.1225873e-38 295 250
-0.029371841 0.69800001 -0.012238266 1.1225518e-38 296 250
-0.028107686 0.69700003 -0.012220734 1.1041485e-38 297 250
-0.026885614 0.69700003 -0.012220734 1.1041838e-38 298 250
-0.025663542 0.69700003 -0.012220734 1.1225871e-38 299 250
-0.024336265 0.69400001 -0.012168133 1.1135107e-38 300 250
-0.02308614 0.69300002 -0.012150601 1.150353e-38 301 250
-0.021776399 0.69 -0.012097999 1.1413136e-38 302 250
-0.020566599 0.69 -0.012097999 1.1597527e-38 303 250
-0.019300694 0.68800002 -0.012062933 1.1871969e-38 304 250
-0.018068098 0.68699998 -0.012045399 1.1687577e-38 305 250
-0.01686356 0.68699998 -0.012045399 1.1317366e-38 306 250
-0.015659019 0.68699998 -0.012045399 1.1501757e-38 307 250
-0.01439136 0.68400002 -0.0119928 1.187269e-38 308 250
-0.01319208 0.68400002 -0.0119928 1.187269e-38 309 250
-0.0119928 0.68400002 -0.0119928 1.1502463e-38 310 250
-0.01077774 0.68300003 -0.011975267 1.1410268e-38 311 250
-0.009566186 0.68199998 -0.011957732 1.0951808e-38 312 250
-0.0083704125 0.68199998 -0.011957732 1.0951808e-38 313 250
-0.0071535995 0.68000001 -0.011922667 1.1134404e-38 314 250
-0.0059613334 0.68000001 -0.011922667 1.1042208e-38 315 250
-0.0047690663 0.68000001 -0.011922667 1.0858896e-38 316 250
-0.0035767998 0.68000001 -0.011922667 1.076634e-38 317 250
-0.0023810267 0.67900002 -0.011905133 1.0766343e-38 318 250
-0.0011905134 0.67900002 -0.011905133 1.0674147e-38 319 250
0 0.67900002 -0.011905133 1.0857462e-38 320 250
0.0011905134 0.67900002 -0.011905133 1.0857462e-38 321 250
0.0023810267 0.67900002 -0.011905133 1.0673791e-38 322 250
0.0035715401 0.67900002 -0.011905133 1.0766346e-38 323 250
0.0047550397 0.67799997 -0.011887599 1.0949658e-38 324 250
0.0059437994 0.67799997 -0.011887599 1.1134051e-38 325 250
0.0071325595 0.67799997 -0.011887599 1.1134407e-38 326 250
0.0082967728 0.676 -0.011852534 1.0581233e-38 327 250
0.0094820261 0.676 -0.011852534 1.1321334e-38 328 250
0.01066728 0.676 -0.011852534 1.4548181e-38 329 250
0.011852534 0.676 -0.011852534 1.2450744e-38 330 250
0.013037786 0.676 -0.011852534 1.3372702e-38 331 250
0.014223038 0.676 -0.011852534 1.3189055e-38 332 250
0.015408293 0.676 -0.011852534 1.3096859e-38 333 250
0.016593546 0.676 -0.011852534 1.3189058e-38 334 250
0.017778801 0.676 -0.011852534 1.3189058e-38 335 250
0.018964052 0.676 -0.011852534 1.337237e-38 336 250
0.020149305 0.676 -0.011852534 1.3280174e-38 337 250
0.021334561 0.676 -0.011852534 1.309614e-38 338 250
0.022519812 0.676 -0.011852534 1.309614e-38 339 250
0.023705067 0.676 -0.011852534 1.3096137e-38 340 250
0.024963958 0.67799997 -0.011887599 1.3003942e-38 341 250
0.026152719 0.67799997 -0.011887599 1.3095414e-38 342 250
0.027341479 0.67799997 -0.011887599 1.3095414e-38 343 250
0.028572321 0.67900002 -0.011905133 1.3186891e-38 344 250
0.029762832 0.67900002 -0.011905133 1.3186891e-38 345 250
0.030953348 0.67900002 -0.011905133 1.3002859e-38 346 250
0.032143861 0.67900002 -0.011905133 1.3002859e-38 347 250
0.033383466 0.68000001 -0.011922667 1.3001777e-38 348 250
0.034677424 0.68199998 -0.011957732 1.3185808e-38 349 250
0.035873197 0.68199998 -0.011957732 1.346095e-38 350 250
0.037068974 0.68199998 -0.011957732 1.346095e-38 351 250
0.038320854 0.68300003 -0.011975267 1.3369108e-38 352 250
0.039518382 0.68300003 -0.011975267 1.3185076e-38 353 250
0.040775519 0.68400002 -0.0119928 1.3185071e-38 354 250
0.041974798 0.68400002 -0.0119928 1.3185071e-38 355 250
0.043300316 0.68599999 -0.012027865 1.318399e-38 356 250
0.044632856 0.68800002 -0.012062933 1.2446425e-38 357 250
0.045972396 0.69 -0.012097999 1.1617744e-38 358 250
0.047387339 0.69300002 -0.012150601 1.0972374e-38 359 250
0.048672531 0.69400001 -0.012168133 8.0253582e-39 360 250
0.049889345 0.69400001 -0.012168133 1.0606836e-38 361 250
0.051106159 0.69400001 -0.012168133 1.6873262e-38 362 250
0.052473757 0.69599998 -0.0122032 1.7334599e-38 363 250
0.053694077 0.69599998 -0.0122032 1.7333151e-38 364 250
-0.0492336 0.72000003 -0.0138864 1.2810851e-38 281 251
-0.0479712 0.72000003 -0.0138864 1.1320589e-38 282 251
-0.046643924 0.71899998 -0.013867113 1.0951808e-38 283 251
-0.045257039 0.71700001 -0.013828539 1.1227669e-38 284 251
-0.043938532 0.71600002 -0.013809253 1.1135473e-38 285 251
-0.042563915 0.71399999 -0.01377068 1.1042558e-38 286 251
-0.041138459 0.71100003 -0.01371282 1.1042558e-38 287 251
-0.039723519 0.708 -0.013654959 1.1042556e-38 288 251
-0.038427804 0.70700002 -0.013635674 1.1042556e-38 289 251
-0.037030395 0.704 -0.013577812 1.0950359e-38 290 251
-0.035745207 0.70300001 -0.013558527 1.1042556e-38 291 251
-0.034512613 0.70300001 -0.013558527 1.1041838e-38 292 251
-0.03318534 0.70099998 -0.013519952 1.1041838e-38 293 251
-0.031910665 0.69999999 -0.013500666 1.1041841e-38 294 251
-0.030595668 0.69800001 -0.013462093 1.1041841e-38 295 251
-0.029371841 0.69800001 -0.013462093 1.1041841e-38 296 251
-0.028107686 0.69700003 -0.013442807 1.0949287e-38 297 251
-0.026769891 0.69400001 -0.013384946 1.1041835e-38 298 251
-0.025553079 0.69400001 -0.013384946 1.1226227e-38 299 251
-0.024336265 0.69400001 -0.013384946 1.1227656e-38 300 251
-0.023019511 0.69099998 -0.013327086 1.1319852e-38 301 251
-0.021776399 0.69 -0.0133078 1.1596084e-38 302 251
-0.020506985 0.68800002 -0.013269227 1.150353e-38 303 251
-0.019272638 0.68699998 -0.013249939 1.1502463e-38 304 251
-0.018068098 0.68699998 -0.013249939 1.1317713e-38 305 251
-0.01686356 0.68699998 -0.013249939 1.1223728e-38 306 251
-0.015636226 0.68599999 -0.013230653 1.1684706e-38 307 251
-0.01439136 0.68400002 -0.01319208 1.187269e-38 308 251
-0.01319208 0.68400002 -0.01319208 1.1964886e-38 309 251
-0.011975267 0.68300003 -0.013172794 1.1778327e-38 310 251
-0.01077774 0.68300003 -0.013172794 1.1501741e-38 311 251
-0.009566186 0.68199998 -0.013153506 1.1042208e-38 312 251
-0.0083704125 0.68199998 -0.013153506 1.1042208e-38 313 251
-0.0071535995 0.68000001 -0.013114933 1.0767063e-38 314 251
-0.0059613334 0.68000001 -0.013114933 1.0490835e-38 315 251
-0.0047690663 0.68000001 -0.013114933 1.0581952e-38 316 251
-0.0035767998 0.68000001 -0.013114933 1.0581952e-38 317 251
-0.0023810267 0.67900002 -0.013095647 1.0581952e-38 318 251
-0.0011905134 0.67900002 -0.013095647 1.0581952e-38 319 251
0 0.67900002 -0.013095647 1.0581952e-38 320 251
0.0011905134 0.67900002 -0.013095647 1.0581952e-38 321 251
0.0023810267 0.67900002 -0.013095647 1.0581952e-38 322 251
0.0035715401 0.67900002 -0.013095647 1.0674147e-38 323 251
0.0047550397 0.67799997 -0.013076359 1.0950011e-38 324 251
0.0059437994 0.67799997 -0.013076359 1.0857457e-38 325 251
0.0071325595 0.67799997 -0.013076359 1.0673794e-38 326 251
0.0082967728 0.676 -0.013037786 1.1964533e-38 327 251
0.0094820261 0.676 -0.013037786 1.2159749e-38 328 251
0.01066728 0.676 -0.013037786 1.5201845e-38 329 251
0.011852534 0.676 -0.013037786 1.3371275e-38 330 251
0.0130185 0.67500001 -0.0130185 1.3555667e-38 331 251
0.014202001 0.67500001 -0.0130185 1.3004664e-38 332 251
0.015408293 0.676 -0.013037786 1.3004664e-38 333 251
0.016593546 0.676 -0.013037786 1.3095784e-38 334 251
0.017778801 0.676 -0.013037786 1.3095784e-38 335 251
0.018964052 0.676 -0.013037786 1.3095784e-38 336 251
0.020149305 0.676 -0.013037786 1.3095784e-38 337 251
0.021334561 0.676 -0.013037786 1.3003945e-38 338 251
0.022519812 0.676 -0.013037786 1.309614e-38 339 251
0.023705067 0.676 -0.013037786 1.3003942e-38 340 251
0.024890319 0.676 -0.013037786 1.2911746e-38 341 251
0.026075572 0.676 -0.013037786 1.3002861e-38 342 251
0.027341479 0.67799997 -0.013076359 1.3002861e-38 343 251
0.028530238 0.67799997 -0.013076359 1.3095414e-38 344 251
0.029718997 0.67799997 -0.013076359 1.3095414e-38 345 251
0.030953348 0.67900002 -0.013095647 1.3370555e-38 346 251
0.032143861 0.67900002 -0.013095647 1.2909578e-38 347 251
0.033334374 0.67900002 -0.013095647 1.2906334e-38 348 251
0.034575731 0.68000001 -0.013114933 1.2353161e-38 349 251
0.035767999 0.68000001 -0.013114933 1.2625785e-38 350 251
0.037068974 0.68199998 -0.013153506 1.2441035e-38 351 251
0.038264744 0.68199998 -0.013153506 1.2256997e-38 352 251
0.039518382 0.68300003 -0.013172794 1.1980768e-38 353 251
0.040715907 0.68300003 -0.013172794 1.2164078e-38 354 251
0.041913435 0.68300003 -0.013172794 1.2164078e-38 355 251
0.043174081 0.68400002 -0.01319208 1.1981487e-38 356 251
0.044503104 0.68599999 -0.013230653 1.216588e-38 357 251
0.045839146 0.68800002 -0.013269227 1.1892889e-38 358 251
0.047250576 0.69099998 -0.013327086 1.1615943e-38 359 251
0.048602402 0.69300002 -0.01336566 9.3135789e-39 360 251
0.049817458 0.69300002 -0.01336566 9.9589483e-39 361 251
0.051032521 0.69300002 -0.01336566 1.5306658e-38 362 251
0.052322973 0.69400001 -0.013384946 1.7058375e-38 363 251
0.053539783 0.69400001 -0.013384946 1.7426422e-38 364 251
-0.0492336 0.72000003 -0.0151488 1.3825729e-38 281 252
-0.0479712 0.72000003 -0.0151488 1.1414228e-38 282 252
-0.046643924 0.71899998 -0.01512776 1.0861413e-38 283 252
-0.045257039 0.71700001 -0.015085679 1.1137627e-38 284 252
-0.043938532 0.71600002 -0.01506464 1.0952877e-38 285 252
-0.042563915 0.71399999 -0.015022559 1.1135826e-38 286 252
-0.041138459 0.71100003 -0.014959441 1.0859599e-38 287 252
-0.039723519 0.708 -0.01489632 1.0767044e-38 288 252
-0.038427804 0.70700002 -0.01487528 1.0859599e-38 289 252
-0.037030395 0.704 -0.014812159 1.0766693e-38 290 252
-0.035745207 0.70300001 -0.014791119 1.0766693e-38 291 252
-0.034512613 0.70300001 -0.014791119 1.0950008e-38 292 252
-0.03318534 0.70099998 -0.014749039 1.0950008e-38 293 252
-0.031910665 0.69999999 -0.014727999 1.0950008e-38 294 252
-0.030595668 0.69800001 -0.01468592 1.0950008e-38 295 252
-0.02932976 0.69700003 -0.01466488 1.085781e-38 296 252
-0.028107686 0.69700003 -0.01466488 1.085781e-38 297 252
-0.026769891 0.69400001 -0.01460176 1.0858166e-38 298 252
-0.025553079 0.69400001 -0.01460176 1.1042558e-38 299 252
-0.024336265 0.69400001 -0.01460176 1.1227303e-38 300 252
-0.023019511 0.69099998 -0.014538639 1.1227303e-38 301 252
-0.021713281 0.68800002 -0.014475521 1.1410262e-38 302 252
-0.020506985 0.68800002 -0.014475521 1.1318066e-38 303 252
-0.019272638 0.68699998 -0.014454478 1.1042208e-38 304 252
-0.018068098 0.68699998 -0.014454478 1.0857457e-38 305 252
-0.016839013 0.68599999 -0.01443344 1.1040782e-38 306 252
-0.015636226 0.68599999 -0.01443344 1.1409564e-38 307 252
-0.01439136 0.68400002 -0.01439136 1.1319882e-38 308 252
-0.013172794 0.68300003 -0.014370319 1.1319882e-38 309 252
-0.011975267 0.68300003 -0.014370319 1.1225167e-38 310 252
-0.010761959 0.68199998 -0.01434928 1.1041135e-38 311 252
-0.009566186 0.68199998 -0.01434928 1.0490835e-38 312 252
-0.0083458666 0.68000001 -0.014307199 1.0490835e-38 313 252
-0.0071535995 0.68000001 -0.014307199 1.0581949e-38 314 252
-0.0059613334 0.68000001 -0.014307199 1.0489753e-38 315 252
-0.0047690663 0.68000001 -0.014307199 1.0306085e-38 316 252
-0.0035767998 0.68000001 -0.014307199 1.0213889e-38 317 252
-0.0023810267 0.67900002 -0.01428616 1.0214255e-38 318 252
-0.0011905134 0.67900002 -0.01428616 1.0306809e-38 319 252
0 0.67900002 -0.01428616 1.0306807e-38 320 252
0.0011905134 0.67900002 -0.01428616 1.0306807e-38 321 252
0.0023775198 0.67799997 -0.014265119 1.0398281e-38 322 252
0.0035662798 0.67799997 -0.014265119 1.0490835e-38 323 252
0.0047550397 0.67799997 -0.014265119 1.0950008e-38 324 252
0.0059437994 0.67799997 -0.014265119 1.0212443e-38 325 252
0.0071115191 0.676 -0.014223038 1.0944636e-38 326 252
0.0082967728 0.676 -0.014223038 1.5185995e-38 327 252
0.0094820261 0.676 -0.014223038 1.2537549e-38 328 252
0.01066728 0.676 -0.014223038 1.4381462e-38 329 252
0.011835 0.67500001 -0.014202001 1.3004661e-38 330 252
0.0130185 0.67500001 -0.014202001 1.2820269e-38 331 252
0.014202001 0.67500001 -0.014202001 1.2819916e-38 332 252
0.0153855 0.67500001 -0.014202001 1.2819916e-38 333 252
0.016593546 0.676 -0.014223038 1.2636248e-38 334 252
0.017778801 0.676 -0.014223038 1.2636248e-38 335 252
0.018964052 0.676 -0.014223038 1.2819919e-38 336 252
0.020149305 0.676 -0.014223038 1.2912115e-38 337 252
0.021334561 0.676 -0.014223038 1.2912468e-38 338 252
0.022519812 0.676 -0.014223038 1.2912468e-38 339 252
0.023705067 0.676 -0.014223038 1.3003942e-38 340 252
0.024890319 0.676 -0.014223038 1.2911746e-38 341 252
0.026075572 0.676 -0.014223038 1.2819549e-38 342 252
0.027341479 0.67799997 -0.014265119 1.3003942e-38 343 252
0.028530238 0.67799997 -0.014265119 1.373826e-38 344 252
0.029718997 0.67799997 -0.014265119 1.373826e-38 345 252
0.030907756 0.67799997 -0.014265119 1.4287454e-38 346 252
0.03209652 0.67799997 -0.014265119 1.3273304e-38 347 252
0.033334374 0.67900002 -0.01428616 1.2992031e-38 348 252
0.034524884 0.67900002 -0.01428616 1.1977519e-38 349 252
0.035715401 0.67900002 -0.01428616 1.1698042e-38 350 252
0.036960267 0.68000001 -0.014307199 1.0776446e-38 351 252
0.038264744 0.68199998 -0.01434928 1.0498054e-38 352 252
0.039460517 0.68199998 -0.01434928 1.0498054e-38 353 252
0.040715907 0.68300003 -0.014370319 1.0589534e-38 354 252
0.041913435 0.68300003 -0.014370319 1.0957956e-38 355 252
0.043174081 0.68400002 -0.01439136 1.0961925e-38 356 252
0.04437336 0.68400002 -0.01439136 1.169949e-38 357 252
0.045772515 0.68699998 -0.014454478 1.1522311e-38 358 252
0.047182199 0.69 -0.014517599 1.2075126e-38 359 252
0.04846213 0.69099998 -0.014538639 9.9585952e-39 360 252
0.049673684 0.69099998 -0.014538639 9.9585952e-39 361 252
0.050885238 0.69099998 -0.014538639 1.3925157e-38 362 252
0.05224758 0.69300002 -0.014580719 1.6322242e-38 363 252
0.053462639 0.69300002 -0.014580719 1.7518614e-38 364 252
-0.050636265 0.722 -0.016456785 1.8159652e-38 280 253
-0.0492336 0.72000003 -0.0164112 1.4655858e-38 281 253
-0.0479712 0.72000003 -0.0164112 1.1969569e-38 282 253
-0.046643924 0.71899998 -0.016388407 1.1047972e-38 283 253
-0.045383278 0.71899998 -0.016388407 1.1321666e-38 284 253
-0.043938532 0.71600002 -0.016320027 1.1321666e-38 285 253
-0.042563915 0.71399999 -0.016274439 1.095288e-38 286 253
-0.041138459 0.71100003 -0.01620606 1.0860684e-38 287 253
-0.039723519 0.708 -0.01613768 1.0767764e-38 288 253
-0.038427804 0.70700002 -0.016114887 1.0767764e-38 289 253
-0.037030395 0.704 -0.016046507 1.0767046e-38 290 253
-0.035745207 0.70300001 -0.016023712 1.0767046e-38 291 253
-0.034414422 0.70099998 -0.015978126 1.0767049e-38 292 253
-0.033137999 0.69999999 -0.015955333 1.0674495e-38 293 253
-0.031819493 0.69800001 -0.015909746 1.085781e-38 294 253
-0.030595668 0.69800001 -0.015909746 1.085781e-38 295 253
-0.02932976 0.69700003 -0.015886955 1.0857094e-38 296 253
-0.028067358 0.69599998 -0.015864158 1.0764898e-38 297 253
-0.026769891 0.69400001 -0.015818574 1.0858166e-38 298 253
-0.025553079 0.69400001 -0.015818574 1.0950361e-38 299 253
-0.024336265 0.69400001 -0.015818574 1.1318419e-38 300 253
-0.023019511 0.69099998 -0.015750192 1.1318419e-38 301 253
-0.021713281 0.68800002 -0.015681813 1.1225871e-38 302 253
-0.020506985 0.68800002 -0.015681813 1.1041838e-38 303 253
-0.019272638 0.68699998 -0.015659019 1.0857094e-38 304 253
-0.018068098 0.68699998 -0.015659019 1.0949289e-38 305 253
-0.016839013 0.68599999 -0.015636226 1.0856741e-38 306 253
-0.01559064 0.68400002 -0.01559064 1.1225523e-38 307 253
-0.01439136 0.68400002 -0.01559064 1.1226602e-38 308 253
-0.013172794 0.68300003 -0.015567848 1.1134407e-38 309 253
-0.011975267 0.68300003 -0.015567848 1.0948939e-38 310 253
-0.010761959 0.68199998 -0.015545053 1.0856743e-38 311 253
-0.009566186 0.68199998 -0.015545053 1.0489756e-38 312 253
-0.0083458666 0.68000001 -0.015499466 1.0581952e-38 313 253
-0.0071535995 0.68000001 -0.015499466 1.0581227e-38 314 253
-0.0059613334 0.68000001 -0.015499466 1.0581227e-38 315 253
-0.0047620535 0.67900002 -0.015476674 1.0397558e-38 316 253
-0.0035715401 0.67900002 -0.015476674 1.0397558e-38 317 253
-0.0023810267 0.67900002 -0.015476674 1.0214611e-38 318 253
-0.0011887599 0.67799997 -0.015453878 1.0214611e-38 319 253
0 0.67799997 -0.015453878 1.0214608e-38 320 253
0.0011887599 0.67799997 -0.015453878 1.0306804e-38 321 253
0.0023775198 0.67799997 -0.015453878 1.0581946e-38 322 253
0.0035662798 0.67799997 -0.015453878 1.06745e-38 323 253
0.0047550397 0.67799997 -0.015453878 1.0857106e-38 324 253
0.0059262668 0.676 -0.015408293 1.1594671e-38 325 253
0.0071115191 0.676 -0.015408293 1.1239235e-38 326 253
0.0082967728 0.676 -0.015408293 1.5203647e-38 327 253
0.0094820261 0.676 -0.015408293 1.3186891e-38 328 253
0.0106515 0.67500001 -0.0153855 1.3186891e-38 329 253
0.011835 0.67500001 -0.0153855 1.2727e-38 330 253
0.0130185 0.67500001 -0.0153855 1.2819196e-38 331 253
0.014202001 0.67500001 -0.0153855 1.3002508e-38 332 253
0.0153855 0.67500001 -0.0153855 1.2818477e-38 333 253
0.016569 0.67500001 -0.0153855 1.2727e-38 334 253
0.0177525 0.67500001 -0.0153855 1.2819196e-38 335 253
0.018935999 0.67500001 -0.0153855 1.2819193e-38 336 253
0.020119499 0.67500001 -0.0153855 1.2911749e-38 337 253
0.021303 0.67500001 -0.0153855 1.2911749e-38 338 253
0.022519812 0.676 -0.015408293 1.2911749e-38 339 253
0.023669999 0.67500001 -0.0153855 1.2819549e-38 340 253
0.0248535 0.67500001 -0.0153855 1.3280169e-38 341 253
0.026037 0.67500001 -0.0153855 1.3371273e-38 342 253
0.027260827 0.676 -0.015408293 1.2818099e-38 343 253
0.028446076 0.676 -0.015408293 1.2901643e-38 344 253
0.029631332 0.676 -0.015408293 1.1334317e-38 345 253
0.030907756 0.67799997 -0.015453878 1.1686889e-38 346 253
0.03209652 0.67799997 -0.015453878 1.0580542e-38 347 253
0.033285279 0.67799997 -0.015453878 1.0486532e-38 348 253
0.034524884 0.67900002 -0.015476674 1.076312e-38 349 253
0.035715401 0.67900002 -0.015476674 1.0306091e-38 350 253
0.036960267 0.68000001 -0.015499466 1.0306091e-38 351 253
0.038152531 0.68000001 -0.015499466 1.0123138e-38 352 253
0.039460517 0.68199998 -0.015545053 1.0215693e-38 353 253
0.040656291 0.68199998 -0.015545053 1.0490126e-38 354 253
0.041913435 0.68300003 -0.015567848 1.039793e-38 355 253
0.043110959 0.68300003 -0.015567848 1.0307184e-38 356 253
0.04437336 0.68400002 -0.01559064 1.058341e-38 357 253
0.045705888 0.68599999 -0.015636226 9.5822372e-39 358 253
0.046977058 0.68699998 -0.015659019 1.0965172e-38 359 253
0.048251733 0.68800002 -0.015681813 1.0877675e-38 360 253
0.049601797 0.69 -0.015727401 1.0693643e-38 361 253
0.050811596 0.69 -0.015727401 1.1991568e-38 362 253
0.052021399 0.69 -0.015727401 1.5218415e-38 363 253
0.053231198 0.69 -0.015727401 1.7794125e-38 364 253
-0.050636265 0.722 -0.017722692 1.834513e-38 280 254
-0.04937036 0.722 -0.017722692 1.5210837e-38 281 254
-0.0479712 0.72000003 -0.017673599 1.2434509e-38 282 254
-0.046643924 0.71899998 -0.017649053 1.0959739e-38 283 254
-0.045383278 0.71899998 -0.017649053 1.1690445e-38 284 254
-0.043938532 0.71600002 -0.017575413 1.1322022e-38 285 254
-0.042563915 0.71399999 -0.017526319 1.132022e-38 286 254
-0.041138459 0.71100003 -0.01745268 1.113547e-38 287 254
-0.039723519 0.708 -0.017379038 1.104363e-38 288 254
-0.038427804 0.70700002 -0.017354494 1.0859599e-38 289 254
-0.037030395 0.704 -0.017280852 1.0859246e-38 290 254
-0.035745207 0.70300001 -0.017256306 1.0767049e-38 291 254
-0.034414422 0.70099998 -0.017207211 1.0674498e-38 292 254
-0.033137999 0.69999999 -0.017182667 1.0674498e-38 293 254
-0.031819493 0.69800001 -0.017133573 1.0673426e-38 294 254
-0.030551834 0.69700003 -0.017109027 1.058123e-38 295 254
-0.02932976 0.69700003 -0.017109027 1.0581233e-38 296 254
-0.028067358 0.69599998 -0.017084479 1.0673428e-38 297 254
-0.026769891 0.69400001 -0.017035386 1.0490829e-38 298 254
-0.025553079 0.69400001 -0.017035386 1.0767416e-38 299 254
-0.024301201 0.69300002 -0.01701084 1.1134754e-38 300 254
-0.023019511 0.69099998 -0.016961746 1.1042558e-38 301 254
-0.021713281 0.68800002 -0.016888106 1.0950011e-38 302 254
-0.020506985 0.68800002 -0.016888106 1.0857457e-38 303 254
-0.019272638 0.68699998 -0.01686356 1.0581596e-38 304 254
-0.018068098 0.68699998 -0.01686356 1.0581596e-38 305 254
-0.016789921 0.68400002 -0.016789921 1.0766346e-38 306 254
-0.01559064 0.68400002 -0.016789921 1.0858543e-38 307 254
-0.014370319 0.68300003 -0.016765373 1.0583398e-38 308 254
-0.013172794 0.68300003 -0.016765373 1.0491201e-38 309 254
-0.011957732 0.68199998 -0.016740825 1.0123138e-38 310 254
-0.010761959 0.68199998 -0.016740825 1.0030943e-38 311 254
-0.009566186 0.68199998 -0.016740825 1.0214608e-38 312 254
-0.0083458666 0.68000001 -0.016691733 1.0214608e-38 313 254
-0.0071535995 0.68000001 -0.016691733 1.0306438e-38 314 254
-0.0059613334 0.68000001 -0.016691733 1.0306438e-38 315 254
-0.0047620535 0.67900002 -0.016667187 1.0306441e-38 316 254
-0.0035715401 0.67900002 -0.016667187 1.0214245e-38 317 254
-0.0023810267 0.67900002 -0.016667187 1.0214611e-38 318 254
-0.0011887599 0.67799997 -0.016642639 1.0214611e-38 319 254
0 0.67799997 -0.016642639 1.0399355e-38 320 254
0.0011887599 0.67799997 -0.016642639 1.0399355e-38 321 254
0.0023775198 0.67799997 -0.016642639 1.0490832e-38 322 254
0.0035662798 0.67799997 -0.016642639 1.0214245e-38 323 254
0.0047550397 0.67799997 -0.016642639 9.7543756e-39 324 254
0.0059262668 0.676 -0.016593546 1.2889027e-38 325 254
0.0071115191 0.676 -0.016593546 1.1524476e-38 326 254
0.0082967728 0.676 -0.016593546 1.4105954e-38 327 254
0.0094820261 0.676 -0.016593546 1.309614e-38 328 254
0.0106515 0.67500001 -0.016569 1.2726998e-38 329 254
0.011835 0.67500001 -0.016569 1.2267824e-38 330 254
0.0130185 0.67500001 -0.016569 1.2267824e-38 331 254
0.014202001 0.67500001 -0.016569 1.2451139e-38 332 254
0.0153855 0.67500001 -0.016569 1.2451139e-38 333 254
0.016569 0.67500001 -0.016569 1.2267827e-38 334 254
0.0177525 0.67500001 -0.016569 1.2451858e-38 335 254
0.018935999 0.67500001 -0.016569 1.2451855e-38 336 254
0.020119499 0.67500001 -0.016569 1.2544051e-38 337 254
0.021303 0.67500001 -0.016569 1.2635881e-38 338 254
0.022486499 0.67500001 -0.016569 1.2912468e-38 339 254
0.023669999 0.67500001 -0.016569 1.3095407e-38 340 254
0.0248535 0.67500001 -0.016569 1.3003212e-38 341 254
0.026037 0.67500001 -0.016569 1.3640281e-38 342 254
0.027260827 0.676 -0.016593546 1.1981119e-38 343 254
0.028446076 0.676 -0.016593546 1.1880975e-38 344 254
0.029631332 0.676 -0.016593546 9.8523123e-39 345 254
0.030816587 0.676 -0.016593546 1.002733e-38 346 254
0.03209652 0.67799997 -0.016642639 9.3819609e-39 347 254
0.033285279 0.67799997 -0.016642639 1.0026609e-38 348 254
0.034474038 0.67799997 -0.016642639 1.0579781e-38 349 254
0.035715401 0.67900002 -0.016667187 1.0397558e-38 350 254
0.036905911 0.67900002 -0.016667187 1.0489753e-38 351 254
0.038152531 0.68000001 -0.016691733 1.0031296e-38 352 254
0.039344799 0.68000001 -0.016691733 1.0215687e-38 353 254
0.040656291 0.68199998 -0.016740825 1.0490835e-38 354 254
0.041913435 0.68300003 -0.016765373 1.0490835e-38 355 254
0.043110959 0.68300003 -0.016765373 1.021606e-38 356 254
0.04437336 0.68400002 -0.016789921 9.8472774e-39 357 254
0.045572639 0.68400002 -0.016789921 9.2058919e-39 358 254
0.046977058 0.68699998 -0.01686356 1.0681023e-38 359 254
0.048251733 0.68800002 -0.016888106 1.0047547e-38 360 254
0.049458027 0.68800002 -0.016888106 1.0877309e-38 361 254
0.050664321 0.68800002 -0.016888106 1.0608281e-38 362 254
0.051870614 0.68800002 -0.016888106 1.4480497e-38 363 254
0.053076908 0.68800002 -0.016888106 1.7793772e-38 364 254
-0.050636265 0.722 -0.0189886 1.8346928e-38 280 255
-0.04937036 0.722 -0.0189886 1.6226428e-38 281 255
-0.0479712 0.72000003 -0.018935999 1.2990561e-38 282 255
-0.046643924 0.71899998 -0.018909698 1.1054453e-38 283 255
-0.045383278 0.71899998 -0.018909698 1.1784089e-38 284 255
-0.043999899 0.71700001 -0.018857099 1.1599698e-38 285 255
-0.042563915 0.71399999 -0.018778199 1.1321669e-38 286 255
-0.041138459 0.71100003 -0.0186993 1.1136918e-38 287 255
-0.039723519 0.708 -0.0186204 1.0951805e-38 288 255
-0.038427804 0.70700002 -0.018594101 1.0767413e-38 289 255
-0.037030395 0.704 -0.018515198 1.0767049e-38 290 255
-0.035745207 0.70300001 -0.018488899 1.0767049e-38 291 255
-0.034414422 0.70099998 -0.018436298 1.06745e-38 292 255
-0.033137999 0.69999999 -0.018409999 1.0581946e-38 293 255
-0.031819493 0.69800001 -0.0183574 1.0581596e-38 294 255
-0.030551834 0.69700003 -0.018331099 1.04894e-38 295 255
-0.02932976 0.69700003 -0.018331099 1.0488681e-38 296 255
-0.028067358 0.69599998 -0.018304799 1.0673072e-38 297 255
-0.026769891 0.69400001 -0.0182522 1.085781e-38 298 255
-0.025553079 0.69400001 -0.0182522 1.0950005e-38 299 255
-0.024301201 0.69300002 -0.018225901 1.1042558e-38 300 255
-0.023019511 0.69099998 -0.0181733 1.1042558e-38 301 255
-0.021713281 0.68800002 -0.0180944 1.0857457e-38 302 255
-0.020506985 0.68800002 -0.0180944 1.0673426e-38 303 255
-0.019272638 0.68699998 -0.018068098 1.04894e-38 304 255
-0.018068098 0.68699998 -0.018068098 1.0673791e-38 305 255
-0.016789921 0.68400002 -0.0179892 1.0674863e-38 306 255
-0.01559064 0.68400002 -0.0179892 1.0674863e-38 307 255
-0.014370319 0.68300003 -0.017962901 1.0491554e-38 308 255
-0.013172794 0.68300003 -0.017962901 1.0398999e-38 309 255
-0.011957732 0.68199998 -0.017936599 9.9401821e-39 310 255
-0.010761959 0.68199998 -0.017936599 9.9401821e-39 311 255
-0.0095381327 0.68000001 -0.017883999 1.0214611e-38 312 255
-0.0083458666 0.68000001 -0.017883999 1.0214611e-38 313 255
-0.0071430802 0.67900002 -0.017857701 1.0306085e-38 314 255
-0.0059525664 0.67900002 -0.017857701 1.0213889e-38 315 255
-0.0047620535 0.67900002 -0.017857701 1.0030577e-38 316 255
-0.0035715401 0.67900002 -0.017857701 1.0214608e-38 317 255
-0.0023810267 0.67900002 -0.017857701 1.0031299e-38 318 255
-0.0011887599 0.67799997 -0.0178314 1.0123494e-38 319 255
0 0.67799997 -0.0178314 1.0307886e-38 320 255
0.0011887599 0.67799997 -0.0178314 1.0491918e-38 321 255
0.0023775198 0.67799997 -0.0178314 1.0215337e-38 322 255
0.0035662798 0.67799997 -0.0178314 1.0123141e-38 323 255
0.0047550397 0.67799997 -0.0178314 9.945622e-39 324 255
0.0059262668 0.676 -0.017778801 1.4094785e-38 325 255
0.0071115191 0.676 -0.017778801 1.3002859e-38 326 255
0.0082967728 0.676 -0.017778801 1.3002859e-38 327 255
0.0094820261 0.676 -0.017778801 1.2084146e-38 328 255
0.0106515 0.67500001 -0.0177525 1.2176342e-38 329 255
0.011835 0.67500001 -0.0177525 1.2175626e-38 330 255
0.0130185 0.67500001 -0.0177525 1.2175626e-38 331 255
0.014202001 0.67500001 -0.0177525 1.2267824e-38 332 255
0.0153855 0.67500001 -0.0177525 1.2175629e-38 333 255
0.016569 0.67500001 -0.0177525 1.2267824e-38 334 255
0.0177525 0.67500001 -0.0177525 1.2267824e-38 335 255
0.018935999 0.67500001 -0.0177525 1.2451134e-38 336 255
0.020119499 0.67500001 -0.0177525 1.2543688e-38 337 255
0.021303 0.67500001 -0.0177525 1.2819549e-38 338 255
0.022486499 0.67500001 -0.0177525 1.3096137e-38 339 255
0.023669999 0.67500001 -0.0177525 1.3091076e-38 340 255
0.0248535 0.67500001 -0.0177525 1.069399e-38 341 255
0.026037 0.67500001 -0.0177525 1.0862877e-38 342 255
0.027260827 0.676 -0.017778801 8.7420187e-39 343 255
0.028446076 0.676 -0.017778801 1.0302841e-38 344 255
0.029631332 0.676 -0.017778801 1.0671984e-38 345 255
0.030816587 0.676 -0.017778801 1.0673779e-38 346 255
0.032001842 0.676 -0.017778801 1.085781e-38 347 255
0.033285279 0.67799997 -0.0178314 1.0674144e-38 348 255
0.034474038 0.67799997 -0.0178314 1.0581949e-38 349 255
0.0356628 0.67799997 -0.0178314 1.0490832e-38 350 255
0.036905911 0.67900002 -0.017857701 1.0490832e-38 351 255
0.038096428 0.67900002 -0.017857701 1.0399355e-38 352 255
0.039344799 0.68000001 -0.017883999 1.0399355e-38 353 255
0.040656291 0.68199998 -0.017936599 1.021569e-38 354 255
0.041852064 0.68199998 -0.017936599 1.0123494e-38 355 255
0.043110959 0.68300003 -0.017962901 1.0123144e-38 356 255
0.044308487 0.68300003 -0.017962901 1.0123144e-38 357 255
0.045572639 0.68400002 -0.0179892 9.846574e-39 358 255
0.046977058 0.68699998 -0.018068098 1.0123159e-38 359 255
0.048181597 0.68699998 -0.018068098 9.0301467e-39 360 255
0.049458027 0.68800002 -0.0180944 1.0136853e-38 361 255
0.050664321 0.68800002 -0.0180944 9.317539e-39 362 255
0.051870614 0.68800002 -0.0180944 1.3558538e-38 363 255
0.053076908 0.68800002 -0.0180944 1.7610457e-38 364 255
0.054283202 0.68800002 -0.0180944 1.7426066e-38 365 255
-0.04937036 0.722 -0.020254506 1.7148387e-38 281 256
-0.048104454 0.722 -0.020254506 1.4282743e-38 282 256
-0.0467088 0.72000003 -0.020198401 1.142468e-38 283 256
-0.045383278 0.71899998 -0.020170346 1.1693691e-38 284 256
-0.043938532 0.71600002 -0.020086186 1.1417104e-38 285 256
-0.042563915 0.71399999 -0.020030079 1.1597896e-38 286 256
-0.041254178 0.713 -0.020002026 1.1321669e-38 287 256
-0.039835732 0.70999998 -0.019917866 1.1044359e-38 288 256
-0.038482159 0.708 -0.01986176 1.0951805e-38 289 256
-0.037030395 0.704 -0.019749546 1.0767769e-38 290 256
-0.035643511 0.70099998 -0.019665385 1.0675214e-38 291 256
-0.034365334 0.69999999 -0.019637333 1.0674498e-38 292 256
-0.033043321 0.69800001 -0.019581227 1.0582302e-38 293 256
-0.031819493 0.69800001 -0.019581227 1.0489756e-38 294 256
-0.030551834 0.69700003 -0.019553173 1.0581952e-38 295 256
-0.02932976 0.69700003 -0.019553173 1.0398281e-38 296 256
-0.028067358 0.69599998 -0.019525118 1.0398281e-38 297 256
-0.026769891 0.69400001 -0.019469013 1.06745e-38 298 256
-0.025553079 0.69400001 -0.019469013 1.0766696e-38 299 256
-0.024301201 0.69300002 -0.01944096 1.0950005e-38 300 256
-0.023019511 0.69099998 -0.019384852 1.0950005e-38 301 256
-0.021776399 0.69 -0.019356798 1.0581949e-38 302 256
-0.020506985 0.68800002 -0.019300694 1.0489753e-38 303 256
-0.019272638 0.68699998 -0.019272638 1.0398637e-38 304 256
-0.018068098 0.68699998 -0.019272638 1.0490832e-38 305 256
-0.016789921 0.68400002 -0.01918848 1.0399355e-38 306 256
-0.01559064 0.68400002 -0.01918848 1.030716e-38 307 256
-0.014370319 0.68300003 -0.019160427 1.021569e-38 308 256
-0.013172794 0.68300003 -0.019160427 1.0123494e-38 309 256
-0.011957732 0.68199998 -0.019132372 9.8476306e-39 310 256
-0.010761959 0.68199998 -0.019132372 9.8476306e-39 311 256
-0.0095381327 0.68000001 -0.019076265 1.0214611e-38 312 256
-0.0083458666 0.68000001 -0.019076265 1.003058e-38 313 256
-0.0071430802 0.67900002 -0.019048214 1.0213889e-38 314 256
-0.0059525664 0.67900002 -0.019048214 1.0121694e-38 315 256
-0.0047620535 0.67900002 -0.019048214 9.8465488e-39 316 256
-0.0035715401 0.67900002 -0.019048214 9.9387444e-39 317 256
-0.0023775198 0.67799997 -0.019020159 9.93875e-39 318 256
-0.0011887599 0.67799997 -0.019020159 1.0030946e-38 319 256
0 0.67799997 -0.019020159 1.0215337e-38 320 256
0.0011887599 0.67799997 -0.019020159 1.0491565e-38 321 256
0.0023775198 0.67799997 -0.019020159 1.0769604e-38 322 256
0.0035662798 0.67799997 -0.019020159 1.2152897e-38 323 256
0.0047410131 0.676 -0.018964052 1.1152454e-38 324 256
