# .PCD v.7 - Point Cloud Data file format
FIELDS x y z rgb imX imY
SIZE 4 4 4 4 4 4
TYPE F F F F F F
COUNT 1 1 1 1 1 1
WIDTH 844
HEIGHT 1
VIEWPOINT 0 0 0 1 0 0 0
POINTS 844
DATA ascii
0.0049864799 0.71100003 -0.052358042 1.4342539e-38 324 282
0.0062243328 0.70999998 -0.052284397 1.2867408e-38 325 282
0.0074481601 0.708 -0.052137118 9.645597e-39 326 282
0.008689519 0.708 -0.052137118 1.1950846e-38 327 282
0.0099168532 0.70700002 -0.05206348 1.397917e-38 328 282
0.011140679 0.70599997 -0.051989835 1.54543e-38 329 282
0.012343466 0.704 -0.051842559 1.6278297e-38 330 282
0.013577812 0.704 -0.051842559 1.5725123e-38 331 282
0.014812159 0.704 -0.051842559 1.6091721e-38 332 282
0.016023712 0.70300001 -0.051768921 1.5814776e-38 333 282
0.017256306 0.70300001 -0.051768921 1.5811554e-38 334 282
0.018488899 0.70300001 -0.051768921 1.654912e-38 335 282
0.019721493 0.70300001 -0.051768921 1.8309485e-38 336 282
0.020954086 0.70300001 -0.051768921 1.7295692e-38 337 282
0.02218668 0.70300001 -0.051768921 1.2413286e-38 338 282
0.023419274 0.70300001 -0.051768921 1.0753765e-38 339 282
0.024651866 0.70300001 -0.051768921 6.5361437e-39 340 282
0.025884461 0.70300001 -0.051768921 9.4864038e-39 341 282
0.027117053 0.70300001 -0.051768921 1.4895728e-38 342 282
0.028389972 0.704 -0.051842559 1.5172674e-38 343 282
0.029624319 0.704 -0.051842559 1.5264867e-38 344 282
0.030858666 0.704 -0.051842559 1.5080476e-38 345 282
0.032093015 0.704 -0.051842559 1.5264138e-38 346 282
0.03332736 0.704 -0.051842559 1.5080107e-38 347 282
0.034561705 0.704 -0.051842559 1.4439425e-38 348 282
0.035897743 0.70599997 -0.051989835 1.3886251e-38 349 282
0.037188202 0.70700002 -0.05206348 1.1309109e-38 350 282
0.038427804 0.70700002 -0.05206348 1.2415098e-38 351 282
0.039723519 0.708 -0.052137118 1.4073546e-38 352 282
0.040964879 0.708 -0.052137118 1.4718915e-38 353 282
0.042325463 0.70999998 -0.052284397 1.45356e-38 354 282
0.043570329 0.70999998 -0.052284397 1.45356e-38 355 282
0.044815198 0.70999998 -0.052284397 1.4071015e-38 356 282
0.046124939 0.71100003 -0.052358042 1.3333091e-38 357 282
0.047371563 0.71100003 -0.052358042 1.4914112e-38 358 282
0.048618179 0.71100003 -0.052358042 1.6942416e-38 359 282
0.049864799 0.71100003 -0.052358042 1.3925894e-38 360 282
-0.0114405 0.72500002 -0.054660168 1.2909929e-38 311 283
-0.01014128 0.72299999 -0.054509375 1.2421936e-38 312 283
-0.0088736191 0.72299999 -0.054509375 1.1223395e-38 313 283
-0.0075954394 0.722 -0.054433983 1.4069917e-38 314 283
-0.0063120001 0.72000003 -0.054283202 1.3977721e-38 315 283
-0.0050425865 0.71899998 -0.054207806 1.4159958e-38 316 283
-0.0037714199 0.71700001 -0.054057021 1.4067763e-38 317 283
-0.0025107733 0.71600002 -0.053981625 1.4067044e-38 318 283
-0.0012553866 0.71600002 -0.053981625 1.4067044e-38 319 283
0 0.71399999 -0.053830836 1.4158514e-38 320 283
0.00125188 0.71399999 -0.053830836 1.4250709e-38 321 283
0.0025002533 0.713 -0.053755447 1.4158147e-38 322 283
0.0037398601 0.71100003 -0.053604662 1.4158147e-38 323 283
0.0049794666 0.70999998 -0.053529263 1.3239797e-38 324 283
0.0062067998 0.708 -0.053378478 1.1580636e-38 325 283
0.0074481601 0.708 -0.053378478 9.6470473e-39 326 283
0.008677247 0.70700002 -0.053303085 1.278134e-38 327 283
0.0099028256 0.70599997 -0.053227689 1.4986475e-38 328 283
0.011109119 0.704 -0.053076904 1.5724042e-38 329 283
0.012343466 0.704 -0.053076904 1.6000987e-38 330 283
0.013577812 0.704 -0.053076904 1.6000987e-38 331 283
0.014791119 0.70300001 -0.053001512 1.5816943e-38 332 283
0.016023712 0.70300001 -0.053001512 1.5355965e-38 333 283
0.017256306 0.70300001 -0.053001512 1.5812274e-38 334 283
0.018436298 0.70099998 -0.052850723 1.6181416e-38 335 283
0.019665385 0.70099998 -0.052850723 1.7940708e-38 336 283
0.020894472 0.70099998 -0.052850723 1.8216936e-38 337 283
0.022123558 0.70099998 -0.052850723 1.3612558e-38 338 283
0.023352645 0.70099998 -0.052850723 9.1868076e-39 339 283
0.024581732 0.70099998 -0.052850723 2.1193911e-39 340 283
0.025810819 0.70099998 -0.052850723 7.8351614e-39 341 283
0.027039904 0.70099998 -0.052850723 1.4803536e-38 342 283
0.028349647 0.70300001 -0.053001512 1.4434753e-38 343 283
0.029582238 0.70300001 -0.053001512 1.4803536e-38 344 283
0.030814834 0.70300001 -0.053001512 1.4987927e-38 345 283
0.032047424 0.70300001 -0.053001512 1.5080839e-38 346 283
0.03332736 0.704 -0.053076904 1.5173393e-38 347 283
0.034561705 0.704 -0.053076904 1.4624186e-38 348 283
0.035796054 0.704 -0.053076904 1.4439435e-38 349 283
0.037135597 0.70599997 -0.053227689 1.1957362e-38 350 283
0.038373452 0.70599997 -0.053227689 1.2049558e-38 351 283
0.039667413 0.70700002 -0.053303085 1.3522543e-38 352 283
0.040964879 0.708 -0.053378478 1.4721086e-38 353 283
0.042325463 0.70999998 -0.053529263 1.472073e-38 354 283
0.043570329 0.70999998 -0.053529263 1.4352306e-38 355 283
0.044815198 0.70999998 -0.053529263 1.3792646e-38 356 283
0.046124939 0.71100003 -0.053604662 1.2778135e-38 357 283
0.047371563 0.71100003 -0.053604662 1.5928987e-38 358 283
0.048618179 0.71100003 -0.053604662 1.9801203e-38 359 283
0.049864799 0.71100003 -0.053604662 1.7427883e-38 360 283
-0.0114405 0.72500002 -0.055931333 1.2725889e-38 311 284
-0.010169334 0.72500002 -0.055931333 1.2601646e-38 312 284
-0.0088736191 0.72299999 -0.055777039 1.2785678e-38 313 284
-0.0076059597 0.72299999 -0.055777039 1.397952e-38 314 284
-0.0063120001 0.72000003 -0.055545598 1.3794769e-38 315 284
-0.0050425865 0.71899998 -0.055468451 1.3885169e-38 316 284
-0.0037714199 0.71700001 -0.055314157 1.3701138e-38 317 284
-0.0025107733 0.71600002 -0.055237014 1.3791536e-38 318 284
-0.0012553866 0.71600002 -0.055237014 1.3791536e-38 319 284
0 0.71399999 -0.05508272 1.3699336e-38 320 284
0.0012501266 0.713 -0.055005573 1.3699336e-38 321 284
0.0024932399 0.71100003 -0.054851279 1.3790809e-38 322 284
0.0037398601 0.71100003 -0.054851279 1.3422028e-38 323 284
0.0049794666 0.70999998 -0.054774132 1.0757005e-38 324 284
0.0062067998 0.708 -0.054619838 1.0203831e-38 325 284
0.0074376399 0.70700002 -0.054542694 1.1946194e-38 326 284
0.0086649731 0.70599997 -0.054465543 1.3790105e-38 327 284
0.0098747732 0.704 -0.054311249 1.4708804e-38 328 284
0.011109119 0.704 -0.054311249 1.498539e-38 329 284
0.012325933 0.70300001 -0.054234106 1.5536409e-38 330 284
0.013558527 0.70300001 -0.054234106 1.5813356e-38 331 284
0.014749039 0.70099998 -0.054079808 1.5629678e-38 332 284
0.015978126 0.70099998 -0.054079808 1.5722232e-38 333 284
0.017182667 0.69999999 -0.054002665 1.5812274e-38 334 284
0.018409999 0.69999999 -0.054002665 1.5812274e-38 335 284
0.019581227 0.69800001 -0.053848371 1.6736054e-38 336 284
0.020805053 0.69800001 -0.053848371 1.7749845e-38 337 284
0.02202888 0.69800001 -0.053848371 1.3705122e-38 338 284
0.023252707 0.69800001 -0.053848371 8.3574169e-39 339 284
0.024476532 0.69800001 -0.053848371 1.0101905e-39 340 284
0.025700359 0.69800001 -0.053848371 8.2925522e-39 341 284
0.026924185 0.69800001 -0.053848371 1.4436918e-38 342 284
0.028268991 0.70099998 -0.054079808 1.3791549e-38 343 284
0.029498078 0.70099998 -0.054079808 1.4435472e-38 344 284
0.030814834 0.70300001 -0.054234106 1.4804615e-38 345 284
0.032047424 0.70300001 -0.054234106 1.4622384e-38 346 284
0.033280019 0.70300001 -0.054234106 1.4991527e-38 347 284
0.034512613 0.70300001 -0.054234106 1.4534157e-38 348 284
0.035796054 0.704 -0.054311249 1.4441603e-38 349 284
0.037030395 0.704 -0.054311249 1.2144275e-38 350 284
0.038373452 0.70599997 -0.054465543 1.1683297e-38 351 284
0.039611302 0.70599997 -0.054465543 1.2145725e-38 352 284
0.040907022 0.70700002 -0.054542694 1.3804888e-38 353 284
0.042206239 0.708 -0.054619838 1.4352669e-38 354 284
0.043570329 0.70999998 -0.054774132 1.3892051e-38 355 284
0.044815198 0.70999998 -0.054774132 1.3424589e-38 356 284
0.046124939 0.71100003 -0.054851279 1.2226046e-38 357 284
0.047371563 0.71100003 -0.054851279 1.5284705e-38 358 284
0.048618179 0.71100003 -0.054851279 1.943351e-38 359 284
0.049864799 0.71100003 -0.054851279 1.7702675e-38 360 284
-0.0114405 0.72500002 -0.057202499 1.3278707e-38 311 285
-0.010169334 0.72500002 -0.057202499 1.3247382e-38 312 285
-0.0088736191 0.72299999 -0.057044696 1.2786404e-38 313 285
-0.0076059597 0.72299999 -0.057044696 1.416463e-38 314 285
-0.0063295332 0.722 -0.056965802 1.3796208e-38 315 285
-0.0050496003 0.72000003 -0.056808002 1.3886599e-38 316 285
-0.0037714199 0.71700001 -0.056571297 1.3702207e-38 317 285
-0.0025142799 0.71700001 -0.056571297 1.360929e-38 318 285
-0.0012553866 0.71600002 -0.056492399 1.360929e-38 319 285
0 0.71399999 -0.0563346 1.3607494e-38 320 285
0.0012501266 0.713 -0.056255698 1.3515298e-38 321 285
0.0024932399 0.71100003 -0.056097899 1.3514226e-38 322 285
0.0037345996 0.70999998 -0.056018997 1.2961052e-38 323 285
0.0049794666 0.70999998 -0.056018997 9.3737016e-39 324 285
0.0062067998 0.708 -0.055861197 1.0387852e-38 325 285
0.0074376399 0.70700002 -0.055782299 1.3234762e-38 326 285
0.0086649731 0.70599997 -0.055703394 1.3972327e-38 327 285
0.0098747732 0.704 -0.055545598 1.4065601e-38 328 285
0.011109119 0.704 -0.055545598 1.4157796e-38 329 285
0.012325933 0.70300001 -0.0554667 1.479994e-38 330 285
0.013558527 0.70300001 -0.0554667 1.5168721e-38 331 285
0.014749039 0.70099998 -0.055308893 1.526127e-38 332 285
0.015978126 0.70099998 -0.055308893 1.5353467e-38 333 285
0.017133573 0.69800001 -0.0550722 1.53531e-38 334 285
0.0183574 0.69800001 -0.0550722 1.5168708e-38 335 285
0.019581227 0.69800001 -0.0550722 1.5719374e-38 336 285
0.020805053 0.69800001 -0.0550722 1.6180712e-38 337 285
0.02202888 0.69800001 -0.0550722 1.2694565e-38 338 285
0.023252707 0.69800001 -0.0550722 7.4390549e-39 339 285
0.024476532 0.69800001 -0.0550722 7.3468397e-40 340 285
0.025700359 0.69800001 -0.0550722 8.2911229e-39 341 285
0.026924185 0.69800001 -0.0550722 1.3980259e-38 342 285
0.028148014 0.69800001 -0.0550722 1.3519281e-38 343 285
0.029498078 0.70099998 -0.055308893 1.4161763e-38 344 285
0.030727165 0.70099998 -0.055308893 1.4530186e-38 345 285
0.032047424 0.70300001 -0.0554667 1.4257927e-38 346 285
0.033280019 0.70300001 -0.0554667 1.4534154e-38 347 285
0.034512613 0.70300001 -0.0554667 1.4259009e-38 348 285
0.035796054 0.704 -0.055545598 1.3982782e-38 349 285
0.037030395 0.704 -0.055545598 1.3062987e-38 350 285
0.038264744 0.704 -0.055545598 1.260201e-38 351 285
0.039499093 0.704 -0.055545598 1.0676707e-38 352 285
0.040849157 0.70599997 -0.055703394 1.1875249e-38 353 285
0.042206239 0.708 -0.055861197 1.3892767e-38 354 285
0.043447599 0.708 -0.055861197 1.3431789e-38 355 285
0.044815198 0.70999998 -0.056018997 1.3518224e-38 356 285
0.046124939 0.71100003 -0.056097899 1.2411876e-38 357 285
0.047304932 0.70999998 -0.056018997 1.4269485e-38 358 285
0.048549797 0.70999998 -0.056018997 1.8141702e-38 359 285
0.049864799 0.71100003 -0.056097899 1.7609405e-38 360 285
-0.012746733 0.727 -0.058634974 1.8440941e-38 310 286
-0.01147206 0.727 -0.058634974 1.4015909e-38 311 286
-0.010169334 0.72500002 -0.058473669 1.3524691e-38 312 286
-0.0088981669 0.72500002 -0.058473669 1.2602735e-38 313 286
-0.0076059597 0.72299999 -0.058312356 1.4257199e-38 314 286
-0.0063295332 0.722 -0.058231708 1.3980612e-38 315 286
-0.0050496003 0.72000003 -0.058070403 1.3795855e-38 316 286
-0.0037819401 0.71899998 -0.057989739 1.3703659e-38 317 286
-0.0025142799 0.71700001 -0.057828441 1.351998e-38 318 286
-0.0012553866 0.71600002 -0.057747785 1.3151557e-38 319 286
0 0.71399999 -0.057586476 1.3517463e-38 320 286
0.0012501266 0.713 -0.057505824 1.3056485e-38 321 286
0.0024932399 0.71100003 -0.057344519 1.32398e-38 322 286
0.0037345996 0.70999998 -0.057263866 1.2226008e-38 323 286
0.0049654399 0.708 -0.057102561 9.6484906e-39 324 286
0.0061980332 0.70700002 -0.057021905 1.1492403e-38 325 286
0.0074271196 0.70599997 -0.056941248 1.3882283e-38 326 286
0.0086649731 0.70599997 -0.056941248 1.3605696e-38 327 286
0.0098747732 0.704 -0.056779943 1.4247825e-38 328 286
0.01109334 0.70300001 -0.056699295 1.4247825e-38 329 286
0.012325933 0.70300001 -0.056699295 1.4798844e-38 330 286
0.013558527 0.70300001 -0.056699295 1.4983595e-38 331 286
0.014749039 0.70099998 -0.056537982 1.516834e-38 332 286
0.015978126 0.70099998 -0.056537982 1.516834e-38 333 286
0.017133573 0.69800001 -0.056296028 1.5258382e-38 334 286
0.0183574 0.69800001 -0.056296028 1.5258382e-38 335 286
0.019581227 0.69800001 -0.056296028 1.5258034e-38 336 286
0.020805053 0.69800001 -0.056296028 1.4888891e-38 337 286
0.02202888 0.69800001 -0.056296028 1.1311271e-38 338 286
0.023252707 0.69800001 -0.056296028 6.7958379e-39 339 286
0.024476532 0.69800001 -0.056296028 0 340 286
0.025700359 0.69800001 -0.056296028 7.1890941e-39 341 286
0.026924185 0.69800001 -0.056296028 1.306299e-38 342 286
0.028148014 0.69800001 -0.056296028 1.3247382e-38 343 286
0.029455997 0.69999999 -0.056457333 1.4071378e-38 344 286
0.030727165 0.70099998 -0.056537982 1.4255771e-38 345 286
0.031956252 0.70099998 -0.056537982 1.4165023e-38 346 286
0.033280019 0.70300001 -0.056699295 1.4257218e-38 347 286
0.034512613 0.70300001 -0.056699295 1.3889881e-38 348 286
0.035745207 0.70300001 -0.056699295 1.3797685e-38 349 286
0.037030395 0.704 -0.056779943 1.3337779e-38 350 286
0.038264744 0.704 -0.056779943 1.2323987e-38 351 286
0.039499093 0.704 -0.056779943 8.1009835e-39 352 286
0.040849157 0.70599997 -0.056941248 1.0037092e-38 353 286
0.042146627 0.70700002 -0.057021905 1.3431073e-38 354 286
0.043447599 0.708 -0.057102561 1.3154126e-38 355 286
0.044815198 0.70999998 -0.057263866 1.3704413e-38 356 286
0.046124939 0.71100003 -0.057344519 1.2874652e-38 357 286
0.047304932 0.70999998 -0.057263866 1.2143947e-38 358 286
0.048549797 0.70999998 -0.057263866 1.6384946e-38 359 286
0.049794663 0.70999998 -0.057263866 1.7332097e-38 360 286
0.051039528 0.70999998 -0.057263866 1.7793076e-38 361 286
-0.012746733 0.727 -0.059909642 1.8349101e-38 310 287
-0.01147206 0.727 -0.059909642 1.4661276e-38 311 287
-0.010197386 0.727 -0.059909642 1.3894547e-38 312 287
-0.0088981669 0.72500002 -0.059744831 1.2235024e-38 313 287
-0.0076270006 0.72500002 -0.059744831 1.4625255e-38 314 287
-0.0063382997 0.72299999 -0.059580017 1.4164277e-38 315 287
-0.0050496003 0.72000003 -0.059332799 1.3796924e-38 316 287
-0.0037872 0.72000003 -0.059332799 1.3612533e-38 317 287
-0.0025212932 0.71899998 -0.059250388 1.361181e-38 318 287
-0.0012553866 0.71600002 -0.059003171 1.3427418e-38 319 287
0 0.71399999 -0.058838356 1.3609293e-38 320 287
0.0012501266 0.713 -0.058755953 1.3332346e-38 321 287
0.0024932399 0.71100003 -0.058591139 1.2321088e-38 322 287
0.0037345996 0.70999998 -0.058508728 1.1675718e-38 323 287
0.0049654399 0.708 -0.058343921 1.1121828e-38 324 287
0.0061980332 0.70700002 -0.05826151 1.213562e-38 325 287
0.0074271196 0.70599997 -0.058179103 1.3882286e-38 326 287
0.0086649731 0.70599997 -0.058179103 1.3697536e-38 327 287
0.0098747732 0.704 -0.058014292 1.4064876e-38 328 287
0.01109334 0.70300001 -0.057931885 1.415743e-38 329 287
0.012325933 0.70300001 -0.057931885 1.434039e-38 330 287
0.013519952 0.70099998 -0.057767071 1.4432585e-38 331 287
0.014749039 0.70099998 -0.057767071 1.46159e-38 332 287
0.015955333 0.69999999 -0.05768466 1.4708097e-38 333 287
0.017133573 0.69800001 -0.057519849 1.4800646e-38 334 287
0.0183574 0.69800001 -0.057519849 1.4800646e-38 335 287
0.019581227 0.69800001 -0.057519849 1.4891763e-38 336 287
0.020805053 0.69800001 -0.057519849 1.4246393e-38 337 287
0.02202888 0.69800001 -0.057519849 1.1214393e-38 338 287
0.023219392 0.69700003 -0.05743745 7.8060242e-39 339 287
0.024441468 0.69700003 -0.05743745 7.3468397e-40 340 287
0.025663542 0.69700003 -0.05743745 7.1872963e-39 341 287
0.026885614 0.69700003 -0.05743745 1.2786404e-38 342 287
0.028148014 0.69800001 -0.057519849 1.3523969e-38 343 287
0.029371841 0.69800001 -0.057519849 1.4165373e-38 344 287
0.030727165 0.70099998 -0.057767071 1.4165373e-38 345 287
0.031956252 0.70099998 -0.057767071 1.3797682e-38 346 287
0.03318534 0.70099998 -0.057767071 1.3797682e-38 347 287
0.034512613 0.70300001 -0.057931885 1.3705489e-38 348 287
0.035745207 0.70300001 -0.057931885 1.3613292e-38 349 287
0.037030395 0.704 -0.058014292 1.3429611e-38 350 287
0.038264744 0.704 -0.058014292 1.2322904e-38 351 287
0.039499093 0.704 -0.058014292 6.9967911e-39 352 287
0.040849157 0.70599997 -0.058179103 9.025095e-39 353 287
0.042087011 0.70599997 -0.058179103 1.3338875e-38 354 287
0.043447599 0.708 -0.058343921 1.3062286e-38 355 287
0.044815198 0.70999998 -0.058508728 1.3337426e-38 356 287
0.046060063 0.70999998 -0.058508728 1.2876808e-38 357 287
0.047304932 0.70999998 -0.058508728 1.1494965e-38 358 287
0.048549797 0.70999998 -0.058508728 1.3892051e-38 359 287
0.049794663 0.70999998 -0.058508728 1.6500169e-38 360 287
0.051039528 0.70999998 -0.058508728 1.7883103e-38 361 287
-0.012746733 0.727 -0.061184317 1.8348745e-38 310 288
-0.01147206 0.727 -0.061184317 1.5214094e-38 311 288
-0.010197386 0.727 -0.061184317 1.4270518e-38 312 288
-0.0089227129 0.727 -0.061184317 1.1043671e-38 313 288
-0.0076270006 0.72500002 -0.061016005 1.4257193e-38 314 288
-0.0063558333 0.72500002 -0.061016005 1.4257193e-38 315 288
-0.0050496003 0.72000003 -0.060595199 1.3796937e-38 316 288
-0.0037872 0.72000003 -0.060595199 1.3612906e-38 317 288
-0.0025212932 0.71899998 -0.060511041 1.3704378e-38 318 288
-0.00125714 0.71700001 -0.060342718 1.3519627e-38 319 288
0 0.71600002 -0.06025856 1.3518908e-38 320 288
0.0012501266 0.713 -0.060006075 1.2965734e-38 321 288
0.0024932399 0.71100003 -0.059837762 1.1033946e-38 322 288
0.0037345996 0.70999998 -0.059753593 1.0572608e-38 323 288
0.0049654399 0.708 -0.059585281 1.1308013e-38 324 288
0.0061980332 0.70700002 -0.059501119 1.2137775e-38 325 288
0.0074060797 0.704 -0.059248637 1.3605343e-38 326 288
0.0086404262 0.704 -0.059248637 1.3697538e-38 327 288
0.0098747732 0.704 -0.059248637 1.3973399e-38 328 288
0.01109334 0.70300001 -0.059164476 1.3973399e-38 329 288
0.012325933 0.70300001 -0.059164476 1.4431138e-38 330 288
0.013519952 0.70099998 -0.058996156 1.4431138e-38 331 288
0.014727999 0.69999999 -0.058911994 1.4522614e-38 332 288
0.015955333 0.69999999 -0.058911994 1.47992e-38 333 288
0.017133573 0.69800001 -0.058743682 1.4708081e-38 334 288
0.0183574 0.69800001 -0.058743682 1.4984309e-38 335 288
0.019581227 0.69800001 -0.058743682 1.4525854e-38 336 288
0.020775247 0.69700003 -0.05865952 1.3880485e-38 337 288
0.02199732 0.69700003 -0.05865952 1.0756651e-38 338 288
0.023219392 0.69700003 -0.05865952 7.7145558e-39 339 288
0.024441468 0.69700003 -0.05865952 1.0105492e-39 340 288
0.025663542 0.69700003 -0.05865952 6.7263153e-39 341 288
0.026885614 0.69700003 -0.05865952 1.250946e-38 342 288
0.028148014 0.69800001 -0.058743682 1.3339581e-38 343 288
0.029371841 0.69800001 -0.058743682 1.3614723e-38 344 288
0.030683333 0.69999999 -0.058911994 1.3522527e-38 345 288
0.031956252 0.70099998 -0.058996156 1.3612921e-38 346 288
0.03318534 0.70099998 -0.058996156 1.3520725e-38 347 288
0.034512613 0.70300001 -0.059164476 1.3520372e-38 348 288
0.035745207 0.70300001 -0.059164476 1.3797319e-38 349 288
0.036977798 0.70300001 -0.059164476 1.3799849e-38 350 288
0.038264744 0.704 -0.059248637 1.2693861e-38 351 288
0.039499093 0.704 -0.059248637 7.73328e-39 352 288
0.040733438 0.704 -0.059248637 8.6552363e-39 353 288
0.042087011 0.70599997 -0.059416957 1.2875003e-38 354 288
0.043386232 0.70700002 -0.059501119 1.3059753e-38 355 288
0.044815198 0.70999998 -0.059753593 1.3059753e-38 356 288
0.046060063 0.70999998 -0.059753593 1.2782807e-38 357 288
0.047304932 0.70999998 -0.059753593 1.1587516e-38 358 288
0.048549797 0.70999998 -0.059753593 1.343107e-38 359 288
0.049864799 0.71100003 -0.059837762 1.5852276e-38 360 288
0.051111419 0.71100003 -0.059837762 1.788058e-38 361 288
-0.01147206 0.727 -0.062458992 1.5766549e-38 311 289
-0.010197386 0.727 -0.062458992 1.4829088e-38 312 289
-0.0088981669 0.72500002 -0.062287167 1.0403338e-38 313 289
-0.0076270006 0.72500002 -0.062287167 1.3982404e-38 314 289
-0.0063558333 0.72500002 -0.062287167 1.40746e-38 315 289
-0.0050496003 0.72000003 -0.061857603 1.3889132e-38 316 289
-0.0037872 0.72000003 -0.061857603 1.3796937e-38 317 289
-0.0025212932 0.71899998 -0.061771683 1.3796574e-38 318 289
-0.0012553866 0.71600002 -0.061513945 1.3611824e-38 319 289
0 0.71399999 -0.061342116 1.351998e-38 320 289
0.0012501266 0.713 -0.061256204 1.2966807e-38 321 289
0.0024932399 0.71100003 -0.061084379 1.0481844e-38 322 289
0.00372408 0.708 -0.060826641 1.0297453e-38 323 289
0.0049654399 0.708 -0.060826641 1.1677872e-38 324 289
0.0061892662 0.70599997 -0.060654808 1.2230687e-38 325 289
0.0074060797 0.704 -0.060482983 1.3514226e-38 326 289
0.0086404262 0.704 -0.060482983 1.3790453e-38 327 289
0.0098747732 0.704 -0.060482983 1.3883002e-38 328 289
0.01109334 0.70300001 -0.06039707 1.3790806e-38 329 289
0.012325933 0.70300001 -0.06039707 1.4064876e-38 330 289
0.013519952 0.70099998 -0.060225245 1.4064876e-38 331 289
0.014727999 0.69999999 -0.060139328 1.4340024e-38 332 289
0.015955333 0.69999999 -0.060139328 1.4524055e-38 333 289
0.017133573 0.69800001 -0.059967503 1.4524052e-38 334 289
0.0183574 0.69800001 -0.059967503 1.4616248e-38 335 289
0.019553173 0.69700003 -0.05988159 1.4525135e-38 336 289
0.020775247 0.69700003 -0.05988159 1.3787569e-38 337 289
0.02199732 0.69700003 -0.05988159 1.0389667e-38 338 289
0.023219392 0.69700003 -0.05988159 7.5316037e-39 339 289
0.024441468 0.69700003 -0.05988159 7.3576017e-40 340 289
0.025663542 0.69700003 -0.05988159 6.2671322e-39 341 289
0.026885614 0.69700003 -0.05988159 1.232435e-38 342 289
0.028148014 0.69800001 -0.059967503 1.2969719e-38 343 289
0.029371841 0.69800001 -0.059967503 1.3428179e-38 344 289
0.030683333 0.69999999 -0.060139328 1.3428179e-38 345 289
0.031910665 0.69999999 -0.060139328 1.3611126e-38 346 289
0.03318534 0.70099998 -0.060225245 1.3518572e-38 347 289
0.034512613 0.70300001 -0.06039707 1.315195e-38 348 289
0.035745207 0.70300001 -0.06039707 1.3520372e-38 349 289
0.036977798 0.70300001 -0.06039707 1.3521824e-38 350 289
0.038210396 0.70300001 -0.06039707 1.2507312e-38 351 289
0.039499093 0.704 -0.060482983 8.3739606e-39 352 289
0.040733438 0.704 -0.060482983 8.6509077e-39 353 289
0.042087011 0.70599997 -0.060654808 1.241293e-38 354 289
0.043386232 0.70700002 -0.060740728 1.2689876e-38 355 289
0.044688959 0.708 -0.060826641 1.250658e-38 356 289
0.046254687 0.713 -0.061256204 1.250658e-38 357 289
0.047504812 0.713 -0.061256204 1.2141406e-38 358 289
0.048754938 0.713 -0.061256204 1.3247395e-38 359 289
0.050075196 0.71399999 -0.061342116 1.6036297e-38 360 289
0.05132708 0.71399999 -0.061342116 1.7972405e-38 361 289
-0.01147206 0.727 -0.06373366 1.6595955e-38 311 290
-0.010197386 0.727 -0.06373366 1.5939397e-38 312 290
-0.0088981669 0.72500002 -0.063558333 9.9466813e-39 313 290
-0.0076270006 0.72500002 -0.063558333 1.3706895e-38 314 290
-0.0063558333 0.72500002 -0.063558333 1.4075679e-38 315 290
-0.0050496003 0.72000003 -0.06312 1.3982407e-38 316 290
-0.0037872 0.72000003 -0.06312 1.3798016e-38 317 290
-0.0025248001 0.72000003 -0.06312 1.3889488e-38 318 290
-0.0012553866 0.71600002 -0.062769331 1.3520707e-38 319 290
0 0.71399999 -0.062593997 1.361218e-38 320 290
0.0012501266 0.713 -0.062506333 1.2874613e-38 321 290
0.0024897333 0.70999998 -0.062243331 1.0205983e-38 322 290
0.00372408 0.708 -0.062068 1.0390014e-38 323 290
0.0049654399 0.708 -0.062068 1.2595156e-38 324 290
0.0061892662 0.70599997 -0.061892662 1.2963939e-38 325 290
0.0074060797 0.704 -0.061717331 1.3331633e-38 326 290
0.0086404262 0.704 -0.061717331 1.3423828e-38 327 290
0.0098747732 0.704 -0.061717331 1.3699336e-38 328 290
0.01109334 0.70300001 -0.061629668 1.3607141e-38 329 290
0.012325933 0.70300001 -0.061629668 1.3882283e-38 330 290
0.013519952 0.70099998 -0.06145433 1.3882283e-38 331 290
0.014727999 0.69999999 -0.061366666 1.4156349e-38 332 290
0.015955333 0.69999999 -0.061366666 1.434074e-38 333 290
0.017133573 0.69800001 -0.061191335 1.4340743e-38 334 290
0.018331099 0.69700003 -0.061103668 1.4248547e-38 335 290
0.019553173 0.69700003 -0.061103668 1.4156721e-38 336 290
0.020775247 0.69700003 -0.061103668 1.3326961e-38 337 290
0.02199732 0.69700003 -0.061103668 9.7457436e-39 338 290
0.023219392 0.69700003 -0.061103668 7.3486572e-39 339 290
0.024441468 0.69700003 -0.061103668 1.0119841e-39 340 290
0.025663542 0.69700003 -0.061103668 6.2671294e-39 341 290
0.026885614 0.69700003 -0.061103668 1.2415101e-38 342 290
0.028148014 0.69800001 -0.061191335 1.2599492e-38 343 290
0.029371841 0.69800001 -0.061191335 1.3149795e-38 344 290
0.030683333 0.69999999 -0.061366666 1.3149795e-38 345 290
0.031910665 0.69999999 -0.061366666 1.3149076e-38 346 290
0.03318534 0.70099998 -0.06145433 1.3149076e-38 347 290
0.034414422 0.70099998 -0.06145433 1.3057602e-38 348 290
0.035745207 0.70300001 -0.061629668 1.3057602e-38 349 290
0.036977798 0.70300001 -0.061629668 1.3150151e-38 350 290
0.038210396 0.70300001 -0.061629668 1.2043803e-38 351 290
0.039499093 0.704 -0.061717331 8.4571529e-39 352 290
0.040733438 0.704 -0.061717331 9.1950767e-39 353 290
0.042087011 0.70599997 -0.061892662 1.1767561e-38 354 290
0.043386232 0.70700002 -0.061980337 1.2228539e-38 355 290
0.044688959 0.708 -0.062068 1.2229986e-38 356 290
0.046254687 0.713 -0.062506333 1.278316e-38 357 290
0.047504812 0.713 -0.062506333 1.2419788e-38 358 290
0.048823316 0.71399999 -0.062593997 1.3341744e-38 359 290
0.050075196 0.71399999 -0.062593997 1.64962e-38 360 290
0.05132708 0.71399999 -0.062593997 1.8063526e-38 361 290
-0.01147206 0.727 -0.065008335 1.7610108e-38 311 291
-0.010169334 0.72500002 -0.064829499 1.7324477e-38 312 291
-0.0088981669 0.72500002 -0.064829499 9.6722398e-39 313 291
-0.0076480396 0.727 -0.065008335 1.3429937e-38 314 291
-0.0063558333 0.72500002 -0.064829499 1.4167502e-38 315 291
-0.0050846669 0.72500002 -0.064829499 1.3983133e-38 316 291
-0.0037977197 0.722 -0.064561233 1.3798742e-38 317 291
-0.0025248001 0.72000003 -0.064382397 1.3981331e-38 318 291
-0.0012553866 0.71600002 -0.064024724 1.3612908e-38 319 291
0 0.71399999 -0.063845873 1.3520707e-38 320 291
0.0012501266 0.713 -0.063756458 1.2783142e-38 321 291
0.0024897333 0.70999998 -0.063488193 1.0021592e-38 322 291
0.00372408 0.708 -0.063309364 1.0759157e-38 323 291
0.0049654399 0.708 -0.063309364 1.305829e-38 324 291
0.0061892662 0.70599997 -0.063130513 1.2965734e-38 325 291
0.0074271196 0.70599997 -0.063130513 1.3514942e-38 326 291
0.0086649731 0.70599997 -0.063130513 1.3514942e-38 327 291
0.0098747732 0.704 -0.062951677 1.3514945e-38 328 291
0.011109119 0.704 -0.062951677 1.3514945e-38 329 291
0.012325933 0.70300001 -0.062862262 1.3790087e-38 330 291
0.013558527 0.70300001 -0.062862262 1.3790087e-38 331 291
0.014727999 0.69999999 -0.062593997 1.4157428e-38 332 291
0.015909746 0.69800001 -0.062415157 1.4157428e-38 333 291
0.017133573 0.69800001 -0.062415157 1.4248547e-38 334 291
0.018331099 0.69700003 -0.062325738 1.4248547e-38 335 291
0.019553173 0.69700003 -0.062325738 1.4064892e-38 336 291
0.020775247 0.69700003 -0.062325738 1.30511e-38 337 291
0.02199732 0.69700003 -0.062325738 8.1838156e-39 338 291
0.023186078 0.69599998 -0.062236317 6.062956e-39 339 291
0.0244064 0.69599998 -0.062236317 1.2892871e-39 340 291
0.025663542 0.69700003 -0.062325738 6.4522423e-39 341 291
0.026885614 0.69700003 -0.062325738 1.2414731e-38 342 291
0.028107686 0.69700003 -0.062325738 1.223034e-38 343 291
0.029371841 0.69800001 -0.062415157 1.2872116e-38 344 291
0.030683333 0.69999999 -0.062593997 1.2872116e-38 345 291
0.031910665 0.69999999 -0.062593997 1.2963238e-38 346 291
0.03318534 0.70099998 -0.062683418 1.2963238e-38 347 291
0.034414422 0.70099998 -0.062683418 1.2870684e-38 348 291
0.035745207 0.70300001 -0.062862262 1.2778488e-38 349 291
0.036977798 0.70300001 -0.062862262 1.2595163e-38 350 291
0.038264744 0.704 -0.062951677 1.1857597e-38 351 291
0.039499093 0.704 -0.062951677 8.7308531e-39 352 291
0.040733438 0.704 -0.062951677 9.8368406e-39 353 291
0.042087011 0.70599997 -0.063130513 1.1216545e-38 354 291
0.043447599 0.708 -0.063309364 1.1677163e-38 355 291
0.044878319 0.71100003 -0.063577622 1.2139586e-38 356 291
0.046254687 0.713 -0.063756458 1.2877511e-38 357 291
0.047504812 0.713 -0.063756458 1.2788928e-38 358 291
0.048823316 0.71399999 -0.063845873 1.3434297e-38 359 291
0.050075196 0.71399999 -0.063845873 1.6589115e-38 360 291
0.05132708 0.71399999 -0.063845873 1.8064245e-38 361 291
-0.012746733 0.727 -0.06628301 1.7703378e-38 310 292
-0.01147206 0.727 -0.06628301 1.788777e-38 311 292
-0.010169334 0.72500002 -0.066100664 1.7973791e-38 312 292
-0.0088981669 0.72500002 -0.066100664 1.0967282e-38 313 292
-0.0076480396 0.727 -0.06628301 1.306186e-38 314 292
-0.0063558333 0.72500002 -0.066100664 1.4260404e-38 315 292
-0.0050846669 0.72500002 -0.066100664 1.4259715e-38 316 292
-0.0037872 0.72000003 -0.065644801 1.398313e-38 317 292
-0.0025248001 0.72000003 -0.065644801 1.3982404e-38 318 292
-0.0012606466 0.71899998 -0.065553628 1.3706176e-38 319 292
0 0.71600002 -0.06528011 1.3429583e-38 320 292
0.00125188 0.71399999 -0.065097757 1.287641e-38 321 292
0.0024897333 0.70999998 -0.064733058 1.0299254e-38 322 292
0.00372408 0.708 -0.06455072 1.1036819e-38 323 292
0.0049654399 0.708 -0.06455072 1.3336312e-38 324 292
0.0061892662 0.70599997 -0.064368367 1.2875694e-38 325 292
0.0074271196 0.70599997 -0.064368367 1.3424547e-38 326 292
0.0086649731 0.70599997 -0.064368367 1.3239797e-38 327 292
0.0098747732 0.704 -0.064186029 1.3514592e-38 328 292
0.011109119 0.704 -0.064186029 1.3514592e-38 329 292
0.012325933 0.70300001 -0.064094849 1.3606419e-38 330 292
0.013558527 0.70300001 -0.064094849 1.3606419e-38 331 292
0.014749039 0.70099998 -0.063912503 1.3790087e-38 332 292
0.015909746 0.69800001 -0.063638985 1.3790087e-38 333 292
0.017133573 0.69800001 -0.063638985 1.4065595e-38 334 292
0.018331099 0.69700003 -0.06354782 1.4065595e-38 335 292
0.019553173 0.69700003 -0.06354782 1.3973046e-38 336 292
0.020775247 0.69700003 -0.06354782 1.2682307e-38 337 292
0.02199732 0.69700003 -0.06354782 6.1598404e-39 338 292
0.023186078 0.69599998 -0.063456632 5.4222754e-39 339 292
0.0244064 0.69599998 -0.063456632 3.1310613e-39 340 292
0.025663542 0.69700003 -0.06354782 7.0032777e-39 341 292
0.026885614 0.69700003 -0.06354782 1.2506931e-38 342 292
0.028107686 0.69700003 -0.06354782 1.2045592e-38 343 292
0.029371841 0.69800001 -0.063638985 1.2319663e-38 344 292
0.030683333 0.69999999 -0.063821331 1.2319663e-38 345 292
0.031910665 0.69999999 -0.063821331 1.2502263e-38 346 292
0.03318534 0.70099998 -0.063912503 1.2502263e-38 347 292
0.034414422 0.70099998 -0.063912503 1.250226e-38 348 292
0.035745207 0.70300001 -0.064094849 1.2317869e-38 349 292
0.036977798 0.70300001 -0.064094849 1.2225655e-38 350 292
0.038264744 0.704 -0.064186029 1.1948708e-38 351 292
0.039499093 0.704 -0.064186029 9.0081617e-39 352 292
0.040849157 0.70599997 -0.064368367 9.6535311e-39 353 292
0.042087011 0.70599997 -0.064368367 1.039111e-38 354 292
0.043447599 0.708 -0.06455072 1.122123e-38 355 292
0.044878319 0.71100003 -0.064824238 1.2234656e-38 356 292
0.046254687 0.713 -0.065006584 1.2972221e-38 357 292
0.047504812 0.713 -0.065006584 1.2974038e-38 358 292
0.048823316 0.71399999 -0.065097757 1.3803799e-38 359 292
0.050075196 0.71399999 -0.065097757 1.6682391e-38 360 292
0.05132708 0.71399999 -0.065097757 1.7973128e-38 361 292
-0.012746733 0.727 -0.067557678 1.7518634e-38 310 293
-0.01147206 0.727 -0.067557678 1.7887417e-38 311 293
-0.010169334 0.72500002 -0.067371838 1.889542e-38 312 293
-0.0088981669 0.72500002 -0.067371838 1.465406e-38 313 293
-0.0076480396 0.727 -0.067557678 1.4359799e-38 314 293
-0.0063733663 0.727 -0.067557678 1.2608442e-38 315 293
-0.0050846669 0.72500002 -0.067371838 1.3986707e-38 316 293
-0.0037872 0.72000003 -0.066907197 1.4078903e-38 317 293
-0.0025248001 0.72000003 -0.066907197 1.3894174e-38 318 293
-0.0012606466 0.71899998 -0.066814266 1.3433196e-38 319 293
0 0.71700001 -0.066628419 1.3065843e-38 320 293
0.0012553866 0.71600002 -0.066535495 1.1959495e-38 321 293
0.0024932399 0.71100003 -0.066070862 1.0946066e-38 322 293
0.0037345996 0.70999998 -0.065977924 1.1499239e-38 323 293
0.0049654399 0.708 -0.065792084 1.3152649e-38 324 293
0.0061980332 0.70700002 -0.065699153 1.2968258e-38 325 293
0.0074271196 0.70599997 -0.065606222 1.3609659e-38 326 293
0.0086649731 0.70599997 -0.065606222 1.3517463e-38 327 293
0.0098747732 0.704 -0.065420374 1.3332352e-38 328 293
0.011109119 0.704 -0.065420374 1.3239797e-38 329 293
0.012325933 0.70300001 -0.065327443 1.3606422e-38 330 293
0.013558527 0.70300001 -0.065327443 1.3514226e-38 331 293
0.014749039 0.70099998 -0.065141588 1.3880485e-38 332 293
0.015909746 0.69800001 -0.06486281 1.4064876e-38 333 293
0.017133573 0.69800001 -0.06486281 1.4065951e-38 334 293
0.018331099 0.69700003 -0.064769886 1.4342539e-38 335 293
0.019553173 0.69700003 -0.064769886 1.3793702e-38 336 293
0.020775247 0.69700003 -0.064769886 1.1857594e-38 337 293
0.02199732 0.69700003 -0.064769886 3.7695938e-39 338 293
0.023186078 0.69599998 -0.064676955 4.1380175e-39 339 293
0.0244064 0.69599998 -0.064676955 3.9565032e-39 340 293
0.025626717 0.69599998 -0.064676955 7.4599357e-39 341 293
0.026885614 0.69700003 -0.064769886 1.2320735e-38 342 293
0.028148014 0.69800001 -0.06486281 1.1860115e-38 343 293
0.029371841 0.69800001 -0.06486281 1.2317851e-38 344 293
0.030683333 0.69999999 -0.065048665 1.2225655e-38 345 293
0.031956252 0.70099998 -0.065141588 1.2500447e-38 346 293
0.03318534 0.70099998 -0.065141588 1.2500447e-38 347 293
0.034512613 0.70300001 -0.065327443 1.240932e-38 348 293
0.035745207 0.70300001 -0.065327443 1.240932e-38 349 293
0.037030395 0.704 -0.065420374 1.2134882e-38 350 293
0.038264744 0.704 -0.065420374 1.1950491e-38 351 293
0.039499093 0.704 -0.065420374 9.1032258e-39 352 293
0.040849157 0.70599997 -0.065606222 9.4720069e-39 353 293
0.042146627 0.70700002 -0.065699153 1.1219778e-38 354 293
0.043447599 0.708 -0.065792084 1.158892e-38 355 293
0.044815198 0.70999998 -0.065977924 1.2787111e-38 356 293
0.046254687 0.713 -0.066256717 1.3524676e-38 357 293
0.047571439 0.71399999 -0.066349633 1.315915e-38 358 293
0.048823316 0.71399999 -0.066349633 1.4265496e-38 359 293
0.050075196 0.71399999 -0.066349633 1.6960055e-38 360 293
0.05132708 0.71399999 -0.066349633 1.7513229e-38 361 293
-0.0114405 0.72500002 -0.068643004 1.788634e-38 311 294
-0.010169334 0.72500002 -0.068643004 1.8438776e-38 312 294
-0.0088981669 0.72500002 -0.068643004 1.6594863e-38 313 294
-0.0076480396 0.727 -0.06883236 1.6763002e-38 314 294
-0.0063733663 0.727 -0.06883236 1.3351764e-38 315 294
-0.0050846669 0.72500002 -0.068643004 1.3804815e-38 316 294
-0.0038135003 0.72500002 -0.068643004 1.3989206e-38 317 294
-0.0025318132 0.722 -0.068358958 1.3896673e-38 318 294
-0.0012624001 0.72000003 -0.068169601 1.352825e-38 319 294
0 0.71700001 -0.067885563 1.3248432e-38 320 294
0.0012553866 0.71600002 -0.067790881 1.2695618e-38 321 294
0.0024932399 0.71100003 -0.067317478 1.1958066e-38 322 294
0.0037345996 0.70999998 -0.067222796 1.2234653e-38 323 294
0.0049654399 0.708 -0.067033432 1.3061169e-38 324 294
0.0062067998 0.708 -0.067033432 1.3061169e-38 325 294
0.0074376399 0.70700002 -0.066938758 1.3518542e-38 326 294
0.0086649731 0.70599997 -0.066844068 1.3334151e-38 327 294
0.0099028256 0.70599997 -0.066844068 1.3424547e-38 328 294
0.011109119 0.704 -0.066654719 1.3239797e-38 329 294
0.012325933 0.70300001 -0.066560037 1.3422749e-38 330 294
0.013558527 0.70300001 -0.066560037 1.3422749e-38 331 294
0.014749039 0.70099998 -0.066370681 1.3697538e-38 332 294
0.015909746 0.69800001 -0.066086642 1.3789734e-38 333 294
0.017133573 0.69800001 -0.066086642 1.3607143e-38 334 294
0.0183574 0.69800001 -0.066086642 1.3699339e-38 335 294
0.019553173 0.69700003 -0.06599196 1.2507652e-38 336 294
0.020775247 0.69700003 -0.06599196 1.0386793e-38 337 294
0.02199732 0.69700003 -0.06599196 2.7572523e-39 338 294
0.023186078 0.69599998 -0.065897278 3.5870144e-39 339 294
0.0244064 0.69599998 -0.065897278 4.9706551e-39 340 294
0.025626717 0.69599998 -0.065897278 6.9989589e-39 341 294
0.026885614 0.69700003 -0.06599196 1.2043427e-38 342 294
0.028148014 0.69800001 -0.066086642 1.1674646e-38 343 294
0.029371841 0.69800001 -0.066086642 1.1949794e-38 344 294
0.030683333 0.69999999 -0.066275999 1.2133825e-38 345 294
0.031956252 0.70099998 -0.066370681 1.2133106e-38 346 294
0.03318534 0.70099998 -0.066370681 1.2225302e-38 347 294
0.034512613 0.70300001 -0.066560037 1.2134173e-38 348 294
0.035745207 0.70300001 -0.066560037 1.2226727e-38 349 294
0.037030395 0.704 -0.066654719 1.2043765e-38 350 294
0.038264744 0.704 -0.066654719 1.2043765e-38 351 294
0.039499093 0.704 -0.066654719 9.1053796e-39 352 294
0.040849157 0.70599997 -0.066844068 9.750749e-39 353 294
0.042146627 0.70700002 -0.066938758 1.1588567e-38 354 294
0.043447599 0.708 -0.067033432 1.2602719e-38 355 294
0.044815198 0.70999998 -0.067222796 1.2696007e-38 356 294
0.046254687 0.713 -0.067506835 1.3617963e-38 357 294
0.047571439 0.71399999 -0.067601517 1.3070553e-38 358 294
0.048823316 0.71399999 -0.067601517 1.4269096e-38 359 294
0.050075196 0.71399999 -0.067601517 1.6960053e-38 360 294
0.05132708 0.71399999 -0.067601517 1.7328835e-38 361 294
-0.010169334 0.72500002 -0.069914162 1.7518634e-38 312 295
-0.0088981669 0.72500002 -0.069914162 1.7887417e-38 313 295
-0.0076480396 0.727 -0.070107035 1.8703468e-38 314 295
-0.0063733663 0.727 -0.070107035 1.5200034e-38 315 295
-0.0050846669 0.72500002 -0.069914162 1.4177933e-38 316 295
-0.0038135003 0.72500002 -0.069914162 1.3255975e-38 317 295
-0.0025318132 0.722 -0.069624864 1.3991392e-38 318 295
-0.0012624001 0.72000003 -0.069432005 1.3806642e-38 319 295
0 0.71700001 -0.069142699 1.3249531e-38 320 295
0.00125188 0.71399999 -0.068853401 1.2604161e-38 321 295
0.0025002533 0.713 -0.068756968 1.186875e-38 322 295
0.0037345996 0.70999998 -0.068467662 1.2237174e-38 323 295
0.0049794666 0.70999998 -0.068467662 1.3062972e-38 324 295
0.0062067998 0.708 -0.068274796 1.2970776e-38 325 295
0.0074376399 0.70700002 -0.068178371 1.3519983e-38 326 295
0.008677247 0.70700002 -0.068178371 1.3243397e-38 327 295
0.0099028256 0.70599997 -0.06808193 1.3425267e-38 328 295
0.011109119 0.704 -0.067889065 1.3241235e-38 329 295
0.012325933 0.70300001 -0.067792632 1.333163e-38 330 295
0.013558527 0.70300001 -0.067792632 1.3239434e-38 331 295
0.014749039 0.70099998 -0.067599766 1.3329832e-38 332 295
0.015909746 0.69800001 -0.06731046 1.3514223e-38 333 295
0.017133573 0.69800001 -0.06731046 1.3422396e-38 334 295
0.0183574 0.69800001 -0.06731046 1.3422396e-38 335 295
0.019553173 0.69700003 -0.067214034 1.0665908e-38 336 295
0.020775247 0.69700003 -0.067214034 8.7297994e-39 337 295
0.02199732 0.69700003 -0.067214034 2.2991454e-39 338 295
0.023186078 0.69599998 -0.067117594 3.4976886e-39 339 295
0.0244064 0.69599998 -0.067117594 7.8143199e-39 340 295
0.025626717 0.69599998 -0.067117594 9.2894499e-39 341 295
0.026885614 0.69700003 -0.067214034 1.1765399e-38 342 295
0.028107686 0.69700003 -0.067214034 1.1765399e-38 343 295
0.029371841 0.69800001 -0.06731046 1.2040904e-38 344 295
0.030683333 0.69999999 -0.067503333 1.2133459e-38 345 295
0.031956252 0.70099998 -0.067599766 1.2133822e-38 346 295
0.033280019 0.70300001 -0.067792632 1.2318572e-38 347 295
0.034512613 0.70300001 -0.067792632 1.2135976e-38 348 295
0.035796054 0.704 -0.067889065 1.2320367e-38 349 295
0.037030395 0.704 -0.067889065 1.2138129e-38 350 295
0.038264744 0.704 -0.067889065 1.2230324e-38 351 295
0.039499093 0.704 -0.067889065 9.5681696e-39 352 295
0.040849157 0.70599997 -0.06808193 1.0121343e-38 353 295
0.042206239 0.708 -0.068274796 1.204919e-38 354 295
0.043447599 0.708 -0.068274796 1.306334e-38 355 295
0.045004558 0.713 -0.068756968 1.2607404e-38 356 295
0.046319555 0.71399999 -0.068853401 1.3252773e-38 357 295
0.047571439 0.71399999 -0.068853401 1.3165266e-38 358 295
0.048823316 0.71399999 -0.068853401 1.4824788e-38 359 295
0.050075196 0.71399999 -0.068853401 1.7236284e-38 360 295
-0.0076480396 0.727 -0.071381703 1.8802519e-38 314 296
-0.0063733663 0.727 -0.071381703 1.6589465e-38 315 296
-0.0050986931 0.727 -0.071381703 1.6026183e-38 316 296
-0.0038135003 0.72500002 -0.071185336 1.3905324e-38 317 296
-0.0025353199 0.72299999 -0.070988953 1.4177951e-38 318 296
-0.0012624001 0.72000003 -0.070694394 1.3716973e-38 319 296
0 0.71899998 -0.070596211 1.3159133e-38 320 296
0.00125188 0.71399999 -0.070105277 1.2513763e-38 321 296
0.0025002533 0.713 -0.070007093 1.2330444e-38 322 296
0.0037345996 0.70999998 -0.069712527 1.242264e-38 323 296
0.0049794666 0.70999998 -0.069712527 1.3063688e-38 324 296
0.0062067998 0.708 -0.069516152 1.2787461e-38 325 296
0.0074481601 0.708 -0.069516152 1.3611459e-38 326 296
0.008677247 0.70700002 -0.069417976 1.3519264e-38 327 296
0.0099028256 0.70599997 -0.069319785 1.351746e-38 328 296
0.011140679 0.70599997 -0.069319785 1.3425265e-38 329 296
0.012343466 0.704 -0.06912341 1.3241229e-38 330 296
0.013558527 0.70300001 -0.069025226 1.3149034e-38 331 296
0.014749039 0.70099998 -0.068828844 1.3147236e-38 332 296
0.015909746 0.69800001 -0.068534292 1.3239431e-38 333 296
0.017133573 0.69800001 -0.068534292 1.3055772e-38 334 296
0.0183574 0.69800001 -0.068534292 1.2594433e-38 335 296
0.019553173 0.69700003 -0.068436109 8.551166e-39 336 296
0.020775247 0.69700003 -0.068436109 7.1682316e-39 337 296
0.02199732 0.69700003 -0.068436109 2.1169024e-39 338 296
0.023186078 0.69599998 -0.068337917 4.1452062e-39 339 296
0.0244064 0.69599998 -0.068337917 9.7439415e-39 340 296
0.025663542 0.69700003 -0.068436109 1.0574061e-38 341 296
0.026885614 0.69700003 -0.068436109 1.1582802e-38 342 296
0.028107686 0.69700003 -0.068436109 1.1674999e-38 343 296
0.029371841 0.69800001 -0.068534292 1.1951582e-38 344 296
0.030683333 0.69999999 -0.068730667 1.2043778e-38 345 296
0.031956252 0.70099998 -0.068828844 1.2135976e-38 346 296
0.033280019 0.70300001 -0.069025226 1.2320367e-38 347 296
0.034561705 0.704 -0.06912341 1.2138492e-38 348 296
0.035796054 0.704 -0.06912341 1.2230687e-38 349 296
0.037030395 0.704 -0.06912341 1.2323242e-38 350 296
0.038264744 0.704 -0.06912341 1.2323242e-38 351 296
0.039611302 0.70599997 -0.069319785 9.2923058e-39 352 296
0.040964879 0.708 -0.069516152 1.0214261e-38 353 296
0.042385083 0.71100003 -0.069810718 1.2417615e-38 354 296
0.043754432 0.713 -0.070007093 1.3247736e-38 355 296
0.045004558 0.713 -0.070007093 1.2883994e-38 356 296
0.046319555 0.71399999 -0.070105277 1.3252417e-38 357 296
0.047571439 0.71399999 -0.070105277 1.3535491e-38 358 296
0.048823316 0.71399999 -0.070105277 1.5564153e-38 359 296
0.050075196 0.71399999 -0.070105277 1.7236286e-38 360 296
-0.0025248001 0.72000003 -0.071956798 1.4734737e-38 318 297
-0.0012624001 0.72000003 -0.071956798 1.3443999e-38 319 297
0 0.71899998 -0.071856856 1.3253474e-38 320 297
0.0012553866 0.71600002 -0.071557038 1.2792496e-38 321 297
0.0025002533 0.713 -0.071257219 1.2608102e-38 322 297
0.0037398601 0.71100003 -0.071057342 1.2331874e-38 323 297
0.0049794666 0.70999998 -0.070957392 1.2972571e-38 324 297
0.0062067998 0.708 -0.070757516 1.278818e-38 325 297
0.0074481601 0.708 -0.070757516 1.361218e-38 326 297
0.008677247 0.70700002 -0.070657574 1.3335593e-38 327 297
0.0099168532 0.70700002 -0.070657574 1.3518539e-38 328 297
0.011140679 0.70599997 -0.070557632 1.3426344e-38 329 297
0.012343466 0.704 -0.070357755 1.3242306e-38 330 297
0.013558527 0.70300001 -0.070257813 1.3057554e-38 331 297
0.014749039 0.70099998 -0.070057929 1.3056116e-38 332 297
0.015909746 0.69800001 -0.069758117 1.2871725e-38 333 297
0.017133573 0.69800001 -0.069758117 1.2778822e-38 334 297
0.0183574 0.69800001 -0.069758117 1.2133452e-38 335 297
0.019553173 0.69700003 -0.069658175 6.6200983e-39 336 297
0.020775247 0.69700003 -0.069658175 5.6059478e-39 337 297
0.02199732 0.69700003 -0.069658175 3.0363447e-39 338 297
0.023186078 0.69599998 -0.069558233 5.4334311e-39 339 297
0.0244064 0.69599998 -0.069558233 1.1032512e-38 340 297
0.025663542 0.69700003 -0.069658175 1.1217264e-38 341 297
0.026885614 0.69700003 -0.069658175 1.1584955e-38 342 297
0.028107686 0.69700003 -0.069658175 1.167715e-38 343 297
0.029371841 0.69800001 -0.069758117 1.1770065e-38 344 297
0.030683333 0.69999999 -0.069957994 1.1862261e-38 345 297
0.032047424 0.70300001 -0.070257813 1.2137773e-38 346 297
0.033280019 0.70300001 -0.070257813 1.2322523e-38 347 297
0.034561705 0.704 -0.070357755 1.2140292e-38 348 297
0.035796054 0.704 -0.070357755 1.2140292e-38 349 297
0.037030395 0.704 -0.070357755 1.2507997e-38 350 297
0.038264744 0.704 -0.070357755 1.2139573e-38 351 297
0.039667413 0.70700002 -0.070657574 9.1079131e-39 352 297
0.041080594 0.70999998 -0.070957392 1.0490849e-38 353 297
0.042385083 0.71100003 -0.071057342 1.2603082e-38 354 297
0.043754432 0.713 -0.071257219 1.3525397e-38 355 297
0.045004558 0.713 -0.071257219 1.2884714e-38 356 297
0.046319555 0.71399999 -0.071357153 1.2792158e-38 357 297
0.047571439 0.71399999 -0.071357153 1.390679e-38 358 297
0.048823316 0.71399999 -0.071357153 1.6119487e-38 359 297
0.0012553866 0.71600002 -0.072812423 1.2793217e-38 321 298
0.0025002533 0.713 -0.072507344 1.2791777e-38 322 298
0.0037345996 0.70999998 -0.072202265 1.2791777e-38 323 298
0.0049794666 0.70999998 -0.072202265 1.3248802e-38 324 298
0.0062067998 0.708 -0.071998879 1.2972574e-38 325 298
0.0074481601 0.708 -0.071998879 1.3704378e-38 326 298
0.008677247 0.70700002 -0.071897186 1.3519627e-38 327 298
0.0099168532 0.70700002 -0.071897186 1.3518545e-38 328 298
0.011140679 0.70599997 -0.071795486 1.3518545e-38 329 298
0.012343466 0.704 -0.071592107 1.3334148e-38 330 298
0.013558527 0.70300001 -0.071490414 1.3241952e-38 331 298
0.014749039 0.70099998 -0.071287021 1.2873526e-38 332 298
0.015909746 0.69800001 -0.07098195 1.2689135e-38 333 298
0.017133573 0.69800001 -0.07098195 1.2412564e-38 334 298
0.0183574 0.69800001 -0.07098195 1.1674999e-38 335 298
0.019553173 0.69700003 -0.070880257 5.424076e-39 336 298
0.020775247 0.69700003 -0.070880257 4.6861523e-39 337 298
0.02199732 0.69700003 -0.070880257 4.1376504e-39 338 298
0.023219392 0.69700003 -0.070880257 6.9038794e-39 339 298
0.024441468 0.69700003 -0.070880257 1.1495276e-38 340 298
0.025663542 0.69700003 -0.070880257 1.1310526e-38 341 298
0.026885614 0.69700003 -0.070880257 1.1770418e-38 342 298
0.028107686 0.69700003 -0.070880257 1.2046646e-38 343 298
0.029371841 0.69800001 -0.07098195 1.1955176e-38 344 298
0.030683333 0.69999999 -0.071185328 1.2047731e-38 345 298
0.032047424 0.70300001 -0.071490414 1.2139571e-38 346 298
0.033280019 0.70300001 -0.071490414 1.232396e-38 347 298
0.034561705 0.704 -0.071592107 1.2232488e-38 348 298
0.035796054 0.704 -0.071592107 1.2324685e-38 349 298
0.037135597 0.70599997 -0.071795486 1.2049896e-38 350 298
0.038373452 0.70599997 -0.071795486 1.1588918e-38 351 298
0.039835732 0.70999998 -0.072202265 9.2008318e-39 352 298
0.041254178 0.713 -0.072507344 1.113694e-38 353 298
0.042504307 0.713 -0.072507344 1.2789641e-38 354 298
0.043815799 0.71399999 -0.072609037 1.3619761e-38 355 298
0.045067675 0.71399999 -0.072609037 1.2886524e-38 356 298
0.046449307 0.71600002 -0.072812423 1.3070917e-38 357 298
0.047571439 0.71399999 -0.072609037 1.4738719e-38 358 298
0.048823316 0.71399999 -0.072609037 1.6767024e-38 359 298
0.0025002533 0.713 -0.07375747 1.3159836e-38 322 299
0.0037345996 0.70999998 -0.073447131 1.3159836e-38 323 299
0.0049794666 0.70999998 -0.073447131 1.3158757e-38 324 299
0.0062067998 0.708 -0.073240235 1.2790334e-38 325 299
0.0074481601 0.708 -0.073240235 1.3613259e-38 326 299
0.008677247 0.70700002 -0.073136792 1.3336312e-38 327 299
0.0099168532 0.70700002 -0.073136792 1.3519983e-38 328 299
0.011140679 0.70599997 -0.07303334 1.3243397e-38 329 299
0.012343466 0.704 -0.072826453 1.3150836e-38 330 299
0.013558527 0.70300001 -0.072723009 1.305864e-38 331 299
0.014749039 0.70099998 -0.072516106 1.2874598e-38 332 299
0.015955333 0.69999999 -0.072412662 1.2689848e-38 333 299
0.017182667 0.69999999 -0.072412662 1.2228872e-38 334 299
0.0183574 0.69800001 -0.072205767 1.1306916e-38 335 299
0.019581227 0.69800001 -0.072205767 4.7815625e-39 336 299
0.020805053 0.69800001 -0.072205767 4.5046154e-39 337 299
