# .PCD v.7 - Point Cloud Data file format
FIELDS x y z rgb imX imY
SIZE 4 4 4 4 4 4
TYPE F F F F F F
COUNT 1 1 1 1 1 1
WIDTH 842
HEIGHT 1
VIEWPOINT 0 0 0 1 0 0 0
POINTS 842
DATA ascii
-0.0027387065 0.78100002 0.017801592 1.0487585e-38 318 227
-0.0013675999 0.77999997 0.017778799 1.0671978e-38 319 227
0 0.77999997 0.017778799 1.3146137e-38 320 227
0.0013675999 0.77999997 0.017778799 1.4160649e-38 321 227
0.0027281865 0.778 0.017733213 1.4898933e-38 322 227
0.0040922803 0.778 0.017733213 1.4898933e-38 323 227
0.0054563731 0.778 0.017733213 1.5721858e-38 324 227
0.0068204664 0.778 0.017733213 1.5537466e-38 325 227
0.0081845606 0.778 0.017733213 1.5997375e-38 326 227
0.0095731998 0.77999997 0.017778799 1.673494e-38 327 227
0.010954826 0.78100002 0.017801592 1.654912e-38 328 227
0.01232418 0.78100002 0.017801592 1.5996305e-38 329 227
0.013693534 0.78100002 0.017801592 1.5814444e-38 330 227
0.015062887 0.78100002 0.017801592 1.5906639e-38 331 227
0.016432239 0.78100002 0.017801592 1.5811596e-38 332 227
0.017801592 0.78100002 0.017801592 1.6456965e-38 333 227
-0.0247746 0.78500003 0.016516401 1.6826798e-38 302 228
-0.023398234 0.78500003 0.016516401 1.6642406e-38 303 228
-0.022021867 0.78500003 0.016516401 1.8571647e-38 304 228
-0.0205929 0.78299999 0.01647432 1.9124821e-38 305 228
-0.019220039 0.78299999 0.01647432 1.9590814e-38 306 228
-0.017847179 0.78299999 0.01647432 1.903764e-38 307 228
-0.016432239 0.78100002 0.016432239 1.9216639e-38 308 228
-0.015062887 0.78100002 0.016432239 1.9493228e-38 309 228
-0.013693534 0.78100002 0.016432239 1.8946187e-38 310 228
-0.01232418 0.78100002 0.016432239 1.8393013e-38 311 228
-0.010954826 0.78100002 0.016432239 1.7931678e-38 312 228
-0.0095854728 0.78100002 0.016432239 1.7931678e-38 313 228
-0.0082161194 0.78100002 0.016432239 1.6647426e-38 314 228
-0.0068379994 0.77999997 0.016411198 1.7292795e-38 315 228
-0.0054703997 0.77999997 0.016411198 1.5824132e-38 316 228
-0.0041080597 0.78100002 0.016432239 1.3519243e-38 317 228
-0.0027387065 0.78100002 0.016432239 1.3786809e-38 318 228
-0.0013675999 0.77999997 0.016411198 1.3602417e-38 319 228
0 0.77999997 0.016411198 1.3604935e-38 320 228
0.0013675999 0.77999997 0.016411198 1.3604935e-38 321 228
0.0027281865 0.778 0.016369121 1.4802068e-38 322 228
0.0040922803 0.778 0.016369121 1.5078655e-38 323 228
0.0054563731 0.778 0.016369121 1.5076857e-38 324 228
0.0068204664 0.778 0.016369121 1.3878314e-38 325 228
0.0081845606 0.778 0.016369121 1.2867755e-38 326 228
0.0095731998 0.77999997 0.016411198 1.3328733e-38 327 228
0.010940799 0.77999997 0.016411198 1.3142917e-38 328 228
0.012308398 0.77999997 0.016411198 1.2497548e-38 329 228
0.013675999 0.77999997 0.016411198 1.0663347e-38 330 228
0.0150436 0.77999997 0.016411198 1.0478597e-38 331 228
0.016432239 0.78100002 0.016432239 9.2836696e-39 332 228
0.017801592 0.78100002 0.016432239 8.9152472e-39 333 228
0.019170946 0.78100002 0.016432239 7.9976223e-39 334 228
0.020540299 0.78100002 0.016432239 7.7210354e-39 335 228
-0.0247746 0.78500003 0.015140033 1.7468204e-38 302 229
-0.023398234 0.78500003 0.015140033 1.7744792e-38 303 229
-0.021965759 0.78299999 0.01510146 1.8572015e-38 304 229
-0.0205929 0.78299999 0.01510146 1.9032635e-38 305 229
-0.019220039 0.78299999 0.01510146 2.0051815e-38 306 229
-0.017801592 0.78100002 0.015062887 1.9867423e-38 307 229
-0.016432239 0.78100002 0.015062887 1.9217379e-38 308 229
-0.015062887 0.78100002 0.015062887 1.9125183e-38 309 229
-0.013693534 0.78100002 0.015062887 1.8668524e-38 310 229
-0.01232418 0.78100002 0.015062887 1.8576329e-38 311 229
-0.010954826 0.78100002 0.015062887 1.8667801e-38 312 229
-0.0095854728 0.78100002 0.015062887 1.9589757e-38 313 229
-0.0082161194 0.78100002 0.015062887 1.9226382e-38 314 229
-0.0068379994 0.77999997 0.0150436 2.0424926e-38 315 229
-0.0054703997 0.77999997 0.0150436 1.9692757e-38 316 229
-0.0041027996 0.77999997 0.0150436 1.8217626e-38 317 229
-0.0027351999 0.77999997 0.0150436 1.7011507e-38 318 229
-0.0013640933 0.778 0.015005025 1.6642726e-38 319 229
0 0.778 0.015005025 1.5914512e-38 320 229
0.0013640933 0.778 0.015005025 1.5361338e-38 321 229
0.0027211732 0.77600002 0.014966453 1.5543231e-38 322 229
0.0040817601 0.77600002 0.014966453 1.6372631e-38 323 229
0.0054423464 0.77600002 0.014966453 1.6098906e-38 324 229
0.0068029333 0.77600002 0.014966453 1.3978406e-38 325 229
0.0081635201 0.77600002 0.014966453 1.3144323e-38 326 229
0.0095486529 0.778 0.015005025 1.1945789e-38 327 229
0.010940799 0.77999997 0.0150436 1.1849649e-38 328 229
0.012308398 0.77999997 0.0150436 1.2033679e-38 329 229
0.013675999 0.77999997 0.0150436 8.8215998e-39 330 229
0.0150436 0.77999997 0.0150436 8.268426e-39 331 229
0.016411198 0.77999997 0.0150436 6.6143291e-39 332 229
0.017801592 0.78100002 0.015062887 5.9693185e-39 333 229
0.019170946 0.78100002 0.015062887 5.0509845e-39 334 229
0.020540299 0.78100002 0.015062887 4.224451e-39 335 229
0.021965759 0.78299999 0.01510146 2.3877818e-39 336 229
-0.026150968 0.78500003 0.013763667 1.0862892e-38 301 230
-0.0247746 0.78500003 0.013763667 1.7650429e-38 302 230
-0.023398234 0.78500003 0.013763667 1.848019e-38 303 230
-0.021965759 0.78299999 0.013728599 1.8664574e-38 304 230
-0.0205929 0.78299999 0.013728599 1.9125912e-38 305 230
-0.019170946 0.78100002 0.013693534 2.0426359e-38 306 230
-0.017801592 0.78100002 0.013693534 1.978099e-38 307 230
-0.016432239 0.78100002 0.013693534 1.885112e-38 308 230
-0.015062887 0.78100002 0.013693534 1.8482336e-38 309 230
-0.013693534 0.78100002 0.013693534 1.8941874e-38 310 230
-0.012308398 0.77999997 0.013675999 1.8941874e-38 311 230
-0.010940799 0.77999997 0.013675999 1.8851471e-38 312 230
-0.0095731998 0.77999997 0.013675999 1.949684e-38 313 230
-0.0082055992 0.77999997 0.013675999 1.9406448e-38 314 230
-0.0068204664 0.778 0.013640933 2.0420241e-38 315 230
-0.0054563731 0.778 0.013640933 1.9874623e-38 316 230
-0.0040922803 0.778 0.013640933 1.9413645e-38 317 230
-0.0027281865 0.778 0.013640933 1.8854698e-38 318 230
-0.0013640933 0.778 0.013640933 1.8209328e-38 319 230
0 0.778 0.013640933 1.8394085e-38 320 230
0.0013640933 0.778 0.013640933 1.9039455e-38 321 230
0.0027141599 0.77399999 0.013570799 1.8951596e-38 322 230
0.0040712398 0.77399999 0.013570799 1.8306227e-38 323 230
0.0054423464 0.77600002 0.013605867 1.8490967e-38 324 230
0.0068029333 0.77600002 0.013605867 1.8122543e-38 325 230
0.0081635201 0.77600002 0.013605867 1.7747271e-38 326 230
0.009524107 0.77600002 0.013605867 1.6456532e-38 327 230
0.010912746 0.778 0.013640933 1.6363266e-38 328 230
0.012276839 0.778 0.013640933 1.6823886e-38 329 230
0.013675999 0.77999997 0.013675999 1.6089939e-38 330 230
0.0150436 0.77999997 0.013675999 1.6182134e-38 331 230
0.016411198 0.77999997 0.013675999 1.5450347e-38 332 230
0.017778799 0.77999997 0.013675999 1.4989728e-38 333 230
0.0191464 0.77999997 0.013675999 1.4528416e-38 334 230
0.020540299 0.78100002 0.013693534 1.3422068e-38 335 230
0.021965759 0.78299999 0.013728599 1.1943012e-38 336 230
0.023398234 0.78500003 0.013763667 1.3694727e-38 337 230
-0.026217593 0.787 0.01241886 1.2053158e-38 301 231
-0.0247746 0.78500003 0.0123873 1.7742981e-38 302 231
-0.02333862 0.78299999 0.012355739 1.838835e-38 303 231
-0.021965759 0.78299999 0.012355739 1.8665657e-38 304 231
-0.020540299 0.78100002 0.01232418 1.9311026e-38 305 231
-0.019170946 0.78100002 0.01232418 2.0705107e-38 306 231
-0.017801592 0.78100002 0.01232418 1.9230336e-38 307 231
-0.016411198 0.77999997 0.012308398 1.8666013e-38 308 231
-0.0150436 0.77999997 0.012308398 1.8481262e-38 309 231
-0.013675999 0.77999997 0.012308398 1.8666007e-38 310 231
-0.012308398 0.77999997 0.012308398 1.8850397e-38 311 231
-0.010940799 0.77999997 0.012308398 1.885112e-38 312 231
-0.0095731998 0.77999997 0.012308398 1.9219903e-38 313 231
-0.0082055992 0.77999997 0.012308398 1.9221348e-38 314 231
-0.0068204664 0.778 0.012276839 1.9866717e-38 315 231
-0.0054563731 0.778 0.012276839 1.9780262e-38 316 231
-0.0040922803 0.778 0.012276839 1.9964654e-38 317 231
-0.0027281865 0.778 0.012276839 1.9590827e-38 318 231
-0.0013605866 0.77600002 0.01224528 1.8577035e-38 319 231
0 0.77600002 0.01224528 1.922242e-38 320 231
0.0013605866 0.77600002 0.01224528 2.0697551e-38 321 231
0.0027141599 0.77399999 0.01221372 2.0612191e-38 322 231
0.0040712398 0.77399999 0.01221372 1.8860475e-38 323 231
0.0054283198 0.77399999 0.01221372 1.9224938e-38 324 231
0.0068029333 0.77600002 0.01224528 1.9317133e-38 325 231
0.0081635201 0.77600002 0.01224528 1.9036941e-38 326 231
0.009524107 0.77600002 0.01224528 1.7469255e-38 327 231
0.010912746 0.778 0.012276839 1.7927715e-38 328 231
0.012276839 0.778 0.012276839 1.8019911e-38 329 231
0.013640933 0.778 0.012276839 1.7835539e-38 330 231
0.015005025 0.778 0.012276839 1.8204322e-38 331 231
0.016411198 0.77999997 0.012308398 1.7383568e-38 332 231
0.017778799 0.77999997 0.012308398 1.7660155e-38 333 231
0.0191464 0.77999997 0.012308398 1.7016596e-38 334 231
0.020540299 0.78100002 0.01232418 1.6371227e-38 335 231
0.021965759 0.78299999 0.012355739 1.5078713e-38 336 231
0.023398234 0.78500003 0.0123873 1.4618095e-38 337 231
0.024837719 0.787 0.01241886 1.3814618e-38 338 231
-0.029087799 0.79000002 0.011081067 1.383118e-38 299 232
-0.027667599 0.78899997 0.011067039 1.6932329e-38 300 232
-0.026217593 0.787 0.011038986 1.3890234e-38 301 232
-0.0247746 0.78500003 0.011010934 1.8294349e-38 302 232
-0.02333862 0.78299999 0.010982879 1.8939719e-38 303 232
-0.021965759 0.78299999 0.010982879 1.8943685e-38 304 232
-0.020540299 0.78100002 0.010954826 2.0234423e-38 305 232
-0.019170946 0.78100002 0.010954826 2.1168261e-38 306 232
-0.017801592 0.78100002 0.010954826 1.9139599e-38 307 232
-0.016411198 0.77999997 0.010940799 1.8480192e-38 308 232
-0.0150436 0.77999997 0.010940799 1.8756419e-38 309 232
-0.013675999 0.77999997 0.010940799 1.9126265e-38 310 232
-0.012308398 0.77999997 0.010940799 1.9310296e-38 311 232
-0.010940799 0.77999997 0.010940799 1.9127337e-38 312 232
-0.0095731998 0.77999997 0.010940799 1.8850392e-38 313 232
-0.0081845606 0.778 0.010912746 1.930958e-38 314 232
-0.0068204664 0.778 0.010912746 1.9862754e-38 315 232
-0.0054563731 0.778 0.010912746 2.0241613e-38 316 232
-0.0040922803 0.778 0.010912746 2.0979178e-38 317 232
-0.0027281865 0.778 0.010912746 2.0146175e-38 318 232
-0.0013605866 0.77600002 0.010884693 1.9777393e-38 319 232
0 0.77600002 0.010884693 1.9598765e-38 320 232
0.0013605866 0.77600002 0.010884693 2.033633e-38 321 232
0.0027141599 0.77399999 0.01085664 2.1444473e-38 322 232
0.0040712398 0.77399999 0.01085664 1.9508364e-38 323 232
0.0054283198 0.77399999 0.01085664 1.9039107e-38 324 232
0.0067853997 0.77399999 0.01085664 1.8854357e-38 325 232
0.0081424797 0.77399999 0.01085664 1.8573813e-38 326 232
0.009524107 0.77600002 0.010884693 1.7836248e-38 327 232
0.010884693 0.77600002 0.010884693 1.7651135e-38 328 232
0.01224528 0.77600002 0.010884693 1.7743331e-38 329 232
0.013640933 0.778 0.010912746 1.7468552e-38 330 232
0.015005025 0.778 0.010912746 1.7745499e-38 331 232
0.016411198 0.77999997 0.010940799 1.7196659e-38 332 232
0.017778799 0.77999997 0.010940799 1.7749833e-38 333 232
0.0191464 0.77999997 0.010940799 1.6557776e-38 334 232
0.020540299 0.78100002 0.010954826 1.6004603e-38 335 232
0.021965759 0.78299999 0.010982879 1.5356729e-38 336 232
0.023398234 0.78500003 0.011010934 1.4526968e-38 337 232
0.0247746 0.78500003 0.011010934 1.38085e-38 338 232
0.026217593 0.787 0.011038986 2.1922074e-38 339 232
-0.030472934 0.79000002 0.0096959332 1.9453316e-38 298 233
-0.02905098 0.78899997 0.0096836593 1.2169861e-38 299 233
-0.027667599 0.78899997 0.0096836593 1.5270317e-38 300 233
-0.026217593 0.787 0.0096591124 1.3242013e-38 301 233
-0.0247746 0.78500003 0.0096345674 1.5632221e-38 302 233
-0.02333862 0.78299999 0.0096100196 1.5632221e-38 303 233
-0.021965759 0.78299999 0.0096100196 1.5635817e-38 304 233
-0.020540299 0.78100002 0.0095854728 1.7295339e-38 305 233
-0.019170946 0.78100002 0.0095854728 1.7674571e-38 306 233
-0.017778799 0.77999997 0.0095731998 1.6937005e-38 307 233
-0.016411198 0.77999997 0.0095731998 1.5818043e-38 308 233
-0.0150436 0.77999997 0.0095731998 1.6002436e-38 309 233
-0.013640933 0.778 0.0095486529 1.6739975e-38 310 233
-0.012276839 0.778 0.0095486529 1.6924367e-38 311 233
-0.010912746 0.778 0.0095486529 1.7198432e-38 312 233
-0.0095486529 0.778 0.0095486529 1.7198432e-38 313 233
-0.0081845606 0.778 0.0095486529 1.8026047e-38 314 233
-0.0068204664 0.778 0.0095486529 1.90402e-38 315 233
-0.0054423464 0.77600002 0.009524107 1.9600577e-38 316 233
-0.0040817601 0.77600002 0.009524107 2.1444488e-38 317 233
-0.0027211732 0.77600002 0.009524107 2.0982798e-38 318 233
-0.0013605866 0.77600002 0.009524107 2.0152677e-38 319 233
0 0.77600002 0.009524107 1.9969365e-38 320 233
0.0013605866 0.77600002 0.009524107 2.0890962e-38 321 233
0.0027141599 0.77399999 0.0094995592 2.1909411e-38 322 233
0.0040712398 0.77399999 0.0094995592 2.0065857e-38 323 233
0.0054283198 0.77399999 0.0094995592 1.8851098e-38 324 233
0.0067853997 0.77399999 0.0094995592 1.7652555e-38 325 233
0.0081424797 0.77399999 0.0094995592 1.857127e-38 326 233
0.0094995592 0.77399999 0.0094995592 1.8202489e-38 327 233
0.010884693 0.77600002 0.009524107 1.8109955e-38 328 233
0.01224528 0.77600002 0.009524107 1.8202151e-38 329 233
0.013605867 0.77600002 0.009524107 1.7469631e-38 330 233
0.014966453 0.77600002 0.009524107 1.7746218e-38 331 233
0.016369121 0.778 0.0095486529 1.7106263e-38 332 233
0.017778799 0.77999997 0.0095731998 1.7198458e-38 333 233
0.0191464 0.77999997 0.0095731998 1.6557786e-38 334 233
0.020540299 0.78100002 0.0095854728 1.6004971e-38 335 233
0.021909652 0.78100002 0.0095854728 1.5540041e-38 336 233
0.02333862 0.78299999 0.0096100196 1.4526248e-38 337 233
0.0247746 0.78500003 0.0096345674 1.3892414e-38 338 233
0.026217593 0.787 0.0096591124 2.2282577e-38 339 233
-0.031858064 0.79000002 0.0083108004 1.9455834e-38 297 234
-0.030434359 0.78899997 0.0083002793 1.8897252e-38 298 234
-0.02905098 0.78899997 0.0083002793 1.0784037e-38 299 234
-0.027667599 0.78899997 0.0083002793 1.286815e-38 300 234
-0.026217593 0.787 0.0082792398 9.9182476e-39 301 234
-0.0247746 0.78500003 0.0082582003 1.1112095e-38 302 234
-0.02333862 0.78299999 0.0082371598 1.1112095e-38 303 234
-0.021909652 0.78100002 0.0082161194 1.0561086e-38 304 234
-0.020540299 0.78100002 0.0082161194 1.322938e-38 305 234
-0.0191464 0.77999997 0.0082055992 1.3535103e-38 306 234
-0.017778799 0.77999997 0.0082055992 1.381169e-38 307 234
-0.016369121 0.778 0.0081845606 1.2873501e-38 308 234
-0.015005025 0.778 0.0081845606 1.1121784e-38 309 234
-0.013640933 0.778 0.0081845606 1.276908e-38 310 234
-0.01224528 0.77600002 0.0081635201 1.3229692e-38 311 234
-0.010884693 0.77600002 0.0081635201 1.360136e-38 312 234
-0.009524107 0.77600002 0.0081635201 1.4892099e-38 313 234
-0.0081635201 0.77600002 0.0081635201 1.63694e-38 314 234
-0.0068029333 0.77600002 0.0081635201 1.8305508e-38 315 234
-0.0054423464 0.77600002 0.0081635201 1.8589667e-38 316 234
-0.0040817601 0.77600002 0.0081635201 2.0802363e-38 317 234
-0.0027211732 0.77600002 0.0081635201 2.1727929e-38 318 234
-0.0013570799 0.77399999 0.0081424797 2.1820483e-38 319 234
0 0.77399999 0.0081424797 2.1355902e-38 320 234
0.0013605866 0.77600002 0.0081635201 2.1725045e-38 321 234
0.0027141599 0.77399999 0.0081424797 2.1728635e-38 322 234
0.0040712398 0.77399999 0.0081424797 1.9976918e-38 323 234
0.0054283198 0.77399999 0.0081424797 1.9038751e-38 324 234
0.0067853997 0.77399999 0.0081424797 1.7010448e-38 325 234
0.0081424797 0.77399999 0.0081424797 1.8292536e-38 326 234
0.0094995592 0.77399999 0.0081424797 1.8384732e-38 327 234
0.01085664 0.77399999 0.0081424797 1.7741896e-38 328 234
0.01221372 0.77399999 0.0081424797 1.7926646e-38 329 234
0.013570799 0.77399999 0.0081424797 1.7377441e-38 330 234
0.014966453 0.77600002 0.0081635201 1.7930256e-38 331 234
0.016369121 0.778 0.0081845606 1.7016233e-38 332 234
0.017733213 0.778 0.0081845606 1.7569049e-38 333 234
0.0191464 0.77999997 0.0082055992 1.6470262e-38 334 234
0.020540299 0.78100002 0.0082161194 1.5363916e-38 335 234
0.021909652 0.78100002 0.0082161194 1.5724786e-38 336 234
0.02333862 0.78299999 0.0082371598 1.5171971e-38 337 234
0.0247746 0.78500003 0.0082582003 1.4074287e-38 338 234
0.026150968 0.78500003 0.0082582003 2.1910916e-38 339 234
-0.031858064 0.79000002 0.0069256667 1.871755e-38 297 235
-0.030434359 0.78899997 0.0069168997 1.7148037e-38 298 235
-0.02905098 0.78899997 0.0069168997 9.4036039e-39 299 235
-0.027597465 0.787 0.0068993662 1.3964399e-38 300 235
-0.026217593 0.787 0.0068993662 1.4701964e-38 301 235
-0.0247746 0.78500003 0.0068818335 1.5158606e-38 302 235
-0.023279008 0.78100002 0.0068467669 1.5435193e-38 303 235
-0.021909652 0.78100002 0.0068467669 1.5531377e-38 304 235
-0.020513998 0.77999997 0.0068379994 1.6084551e-38 305 235
-0.019097306 0.778 0.0068204664 1.8499955e-38 306 235
-0.017733213 0.778 0.0068204664 1.8223367e-38 307 235
-0.016369121 0.778 0.0068204664 1.7752288e-38 308 235
-0.014966453 0.77600002 0.0068029333 1.4894222e-38 309 235
-0.013605867 0.77600002 0.0068029333 1.4882743e-38 310 235
-0.01224528 0.77600002 0.0068029333 1.4237373e-38 311 235
-0.010884693 0.77600002 0.0068029333 1.3778568e-38 312 235
-0.009524107 0.77600002 0.0068029333 1.4331383e-38 313 235
-0.0081635201 0.77600002 0.0068029333 1.3880119e-38 314 235
-0.0068029333 0.77600002 0.0068029333 1.6737824e-38 315 235
-0.0054423464 0.77600002 0.0068029333 1.4822614e-38 316 235
-0.0040712398 0.77399999 0.0067853997 1.6574331e-38 317 235
-0.0027141599 0.77399999 0.0067853997 1.6396435e-38 318 235
-0.0013570799 0.77399999 0.0067853997 1.7686815e-38 319 235
0 0.77399999 0.0067853997 1.8975016e-38 320 235
0.0013570799 0.77399999 0.0067853997 1.9067212e-38 321 235
0.0027106532 0.773 0.0067766332 1.9893007e-38 322 235
0.0040659797 0.773 0.0067766332 1.7772507e-38 323 235
0.0054213065 0.773 0.0067766332 1.8212959e-38 324 235
0.0067766332 0.773 0.0067766332 1.6369047e-38 325 235
0.0081319595 0.773 0.0067766332 1.8019195e-38 326 235
0.0094872871 0.773 0.0067766332 1.811139e-38 327 235
0.01085664 0.77399999 0.0067853997 1.7468189e-38 328 235
0.01221372 0.77399999 0.0067853997 1.7468189e-38 329 235
0.013570799 0.77399999 0.0067853997 1.7194495e-38 330 235
0.014927879 0.77399999 0.0067853997 1.7655113e-38 331 235
0.01632704 0.77600002 0.0068029333 1.6925483e-38 332 235
0.017733213 0.778 0.0068204664 1.7293906e-38 333 235
0.019097306 0.778 0.0068204664 1.6471346e-38 334 235
0.020513998 0.77999997 0.0068379994 1.5549029e-38 335 235
0.021909652 0.78100002 0.0068467669 1.5819853e-38 336 235
0.02333862 0.78299999 0.0068642995 1.4990092e-38 337 235
0.024711479 0.78299999 0.0068642995 1.407284e-38 338 235
0.026084339 0.78299999 0.0068642995 2.1725437e-38 339 235
-0.031858064 0.79000002 0.0055405335 1.8164376e-38 297 236
-0.030434359 0.78899997 0.0055335197 1.6593065e-38 298 236
-0.02897734 0.787 0.005519493 9.5861973e-39 299 236
-0.027527334 0.78500003 0.0055054668 1.5076857e-38 300 236
-0.026150968 0.78500003 0.0055054668 1.6552346e-38 301 236
-0.024711479 0.78299999 0.0054914397 1.8299725e-38 302 236
-0.023279008 0.78100002 0.0054774131 1.8852899e-38 303 236
-0.021881599 0.77999997 0.0054703997 1.8855805e-38 304 236
-0.020461399 0.778 0.0054563731 1.9224587e-38 305 236
-0.019097306 0.778 0.0054563731 2.1262975e-38 306 236
-0.017687626 0.77600002 0.0054423464 2.1170779e-38 307 236
-0.01632704 0.77600002 0.0054423464 2.0519642e-38 308 236
-0.014966453 0.77600002 0.0054423464 1.7938165e-38 309 236
-0.013605867 0.77600002 0.0054423464 1.7376694e-38 310 236
-0.01224528 0.77600002 0.0054423464 1.6454377e-38 311 236
-0.010884693 0.77600002 0.0054423464 1.562533e-38 312 236
-0.009524107 0.77600002 0.0054423464 1.5163992e-38 313 236
-0.0081424797 0.77399999 0.0054283198 1.4342892e-38 314 236
-0.0067853997 0.77399999 0.0054283198 1.6371196e-38 315 236
-0.0054283198 0.77399999 0.0054283198 1.4639308e-38 316 236
-0.0040712398 0.77399999 0.0054283198 1.5560904e-38 317 236
-0.0027141599 0.77399999 0.0054283198 1.4369212e-38 318 236
-0.0013553266 0.773 0.0054213065 1.5475918e-38 319 236
0 0.773 0.0054213065 1.7871552e-38 320 236
0.0013570799 0.77399999 0.0054283198 1.8148499e-38 321 236
0.0027106532 0.773 0.0054213065 1.8973569e-38 322 236
0.0040659797 0.773 0.0054213065 1.5931113e-38 323 236
0.0054072798 0.77100003 0.0054072798 1.572583e-38 324 236
0.0067590997 0.77100003 0.0054072798 1.508046e-38 325 236
0.0081319595 0.773 0.0054213065 1.6824965e-38 326 236
0.0094872871 0.773 0.0054213065 1.7378138e-38 327 236
0.01085664 0.77399999 0.0054283198 1.6460148e-38 328 236
0.01221372 0.77399999 0.0054283198 1.6367952e-38 329 236
0.013570799 0.77399999 0.0054283198 1.6826798e-38 330 236
0.014927879 0.77399999 0.0054283198 1.7564364e-38 331 236
0.01632704 0.77600002 0.0054423464 1.6741465e-38 332 236
0.017733213 0.778 0.0054563731 1.7202442e-38 333 236
0.019097306 0.778 0.0054563731 1.6286247e-38 334 236
0.020513998 0.77999997 0.0054703997 1.5363932e-38 335 236
0.021881599 0.77999997 0.0054703997 1.5727662e-38 336 236
0.023279008 0.78100002 0.0054774131 1.5082293e-38 337 236
0.024648361 0.78100002 0.0054774131 1.4074272e-38 338 236
0.026017714 0.78100002 0.0054774131 2.1265531e-38 339 236
-0.03035721 0.787 0.0041396199 1.7782606e-38 298 237
-0.0289037 0.78500003 0.0041291001 1.1697336e-38 299 237
-0.027527334 0.78500003 0.0041291001 1.6824617e-38 300 237
-0.026084339 0.78299999 0.0041185799 1.7654019e-38 301 237
-0.024648361 0.78100002 0.0041080597 1.839012e-38 302 237
-0.023279008 0.78100002 0.0041080597 1.857487e-38 303 237
-0.021881599 0.77999997 0.0041027996 1.8943687e-38 304 237
-0.020461399 0.778 0.0040922803 2.0418819e-38 305 237
-0.019097306 0.778 0.0040922803 2.1079678e-38 306 237
-0.017687626 0.77600002 0.0040817601 2.1448102e-38 307 237
-0.01632704 0.77600002 0.0040817601 2.0338142e-38 308 237
-0.014966453 0.77600002 0.0040817601 1.738824e-38 309 237
-0.013605867 0.77600002 0.0040817601 1.82947e-38 310 237
-0.01221372 0.77399999 0.0040712398 1.8571647e-38 311 237
-0.01085664 0.77399999 0.0040712398 1.8206457e-38 312 237
-0.0094995592 0.77399999 0.0040712398 1.7929512e-38 313 237
-0.0081424797 0.77399999 0.0040712398 1.8021725e-38 314 237
-0.0067853997 0.77399999 0.0040712398 2.0695399e-38 315 237
-0.0054283198 0.77399999 0.0040712398 1.978786e-38 316 237
-0.0040712398 0.77399999 0.0040712398 2.0894209e-38 317 237
-0.0027141599 0.77399999 0.0040712398 1.9425562e-38 318 237
-0.0013553266 0.773 0.0040659797 1.9517757e-38 319 237
0 0.773 0.0040659797 1.988941e-38 320 237
0.0013553266 0.773 0.0040659797 1.988941e-38 321 237
0.0027106532 0.773 0.0040659797 1.906324e-38 322 237
0.0040554604 0.77100003 0.0040554604 1.4730406e-38 323 237
0.0054072798 0.77100003 0.0040554604 1.1122885e-38 324 237
0.0067590997 0.77100003 0.0040554604 9.8321462e-39 325 237
0.0081109209 0.77100003 0.0040554604 1.1942565e-38 326 237
0.0094872871 0.773 0.0040659797 1.2403184e-38 327 237
0.01085664 0.77399999 0.0040712398 1.2685532e-38 328 237
0.01221372 0.77399999 0.0040712398 1.4160662e-38 329 237
0.013570799 0.77399999 0.0040712398 1.5817334e-38 330 237
0.014927879 0.77399999 0.0040712398 1.7108073e-38 331 237
0.01632704 0.77600002 0.0040817601 1.6558885e-38 332 237
0.017687626 0.77600002 0.0040817601 1.6743635e-38 333 237
0.019097306 0.778 0.0040922803 1.6286611e-38 334 237
0.020513998 0.77999997 0.0041027996 1.5088068e-38 335 237
0.021881599 0.77999997 0.0041027996 1.5542192e-38 336 237
0.023279008 0.78100002 0.0041080597 1.5357801e-38 337 237
0.024648361 0.78100002 0.0041080597 1.4075714e-38 338 237
0.026017714 0.78100002 0.0041080597 2.089819e-38 339 237
-0.03035721 0.787 0.0027597465 1.7776487e-38 298 238
-0.0289037 0.78500003 0.0027527334 1.2060358e-38 299 238
-0.027457198 0.78299999 0.0027457199 1.7558236e-38 300 238
-0.026084339 0.78299999 0.0027457199 1.8203606e-38 301 238
-0.024648361 0.78100002 0.0027387065 1.8204675e-38 302 238
-0.023249198 0.77999997 0.0027351999 1.8389066e-38 303 238
-0.021825492 0.778 0.0027281865 1.8665688e-38 304 238
-0.020461399 0.778 0.0027281865 2.0233374e-38 305 238
-0.019048214 0.77600002 0.0027211732 2.0892431e-38 306 238
-0.017687626 0.77600002 0.0027211732 2.1906584e-38 307 238
-0.01632704 0.77600002 0.0027211732 2.0429624e-38 308 238
-0.014966453 0.77600002 0.0027211732 1.7110582e-38 309 238
-0.013605867 0.77600002 0.0027211732 1.8381861e-38 310 238
-0.01221372 0.77399999 0.0027141599 1.9119784e-38 311 238
-0.01085664 0.77399999 0.0027141599 1.8756404e-38 312 238
-0.0094995592 0.77399999 0.0027141599 1.9032991e-38 313 238
-0.0081424797 0.77399999 0.0027141599 1.8946909e-38 314 238
-0.0067853997 0.77399999 0.0027141599 2.1436191e-38 315 238
-0.0054283198 0.77399999 0.0027141599 2.1445194e-38 316 238
-0.0040712398 0.77399999 0.0027141599 2.2735574e-38 317 238
-0.0027106532 0.773 0.0027106532 2.1357341e-38 318 238
-0.0013553266 0.773 0.0027106532 2.1264787e-38 319 238
0 0.773 0.0027106532 2.0807758e-38 320 238
0.0013553266 0.773 0.0027106532 2.0807758e-38 321 238
0.0027036399 0.77100003 0.0027036399 2.0257099e-38 322 238
0.0040554604 0.77100003 0.0027036399 1.6753664e-38 323 238
0.0053932532 0.76899999 0.0026966266 1.3328017e-38 324 238
0.006724033 0.76700002 0.0026896133 1.0838741e-38 325 238
0.00806884 0.76700002 0.0026896133 1.2856969e-38 326 238
0.0094627403 0.77100003 0.0027036399 1.2856969e-38 327 238
0.010842613 0.773 0.0027106532 1.2397819e-38 328 238
0.012197939 0.773 0.0027106532 1.4239938e-38 329 238
0.013553266 0.773 0.0027106532 1.3882691e-38 330 238
0.014927879 0.77399999 0.0027141599 1.5726603e-38 331 238
0.016284959 0.77399999 0.0027141599 1.536431e-38 332 238
0.017687626 0.77600002 0.0027211732 1.6009679e-38 333 238
0.019097306 0.778 0.0027281865 1.5919986e-38 334 238
0.020513998 0.77999997 0.0027351999 1.499767e-38 335 238
0.021881599 0.77999997 0.0027351999 1.508229e-38 336 238
0.023279008 0.78100002 0.0027387065 1.508229e-38 337 238
0.024648361 0.78100002 0.0027387065 1.39846e-38 338 238
-0.03035721 0.787 0.0013798733 1.6851287e-38 298 239
-0.0289037 0.78500003 0.0013763667 1.1780887e-38 299 239
-0.027457198 0.78299999 0.0013728599 1.7374921e-38 300 239
-0.026017714 0.78100002 0.0013693533 1.802029e-38 301 239
-0.024648361 0.78100002 0.0013693533 1.8293996e-38 302 239
-0.023249198 0.77999997 0.0013675999 1.8478748e-38 303 239
-0.021825492 0.778 0.0013640933 1.8110701e-38 304 239
-0.0204088 0.77600002 0.0013605866 1.9125212e-38 305 239
-0.019048214 0.77600002 0.0013605866 2.0057261e-38 306 239
-0.017687626 0.77600002 0.0013605866 2.1532391e-38 307 239
-0.01632704 0.77600002 0.0013605866 2.0886998e-38 308 239
-0.014966453 0.77600002 0.0013605866 1.7752348e-38 309 239
-0.013570799 0.77399999 0.0013570799 1.8568044e-38 310 239
-0.01221372 0.77399999 0.0013570799 1.884499e-38 311 239
-0.01085664 0.77399999 0.0013570799 1.8754945e-38 312 239
-0.0094995592 0.77399999 0.0013570799 1.8754945e-38 313 239
-0.0081424797 0.77399999 0.0013570799 1.9407887e-38 314 239
-0.0067853997 0.77399999 0.0013570799 2.2450343e-38 315 239
-0.0054213065 0.773 0.0013553266 2.1262975e-38 316 239
-0.0040659797 0.773 0.0013553266 2.1908344e-38 317 239
-0.0027106532 0.773 0.0013553266 2.1080028e-38 318 239
-0.00135182 0.77100003 0.00135182 2.1356255e-38 319 239
0 0.76899999 0.0013483133 2.1084342e-38 320 239
0.0013483133 0.76899999 0.0013483133 2.1453124e-38 321 239
0.0026896133 0.76700002 0.0013448066 2.1818666e-38 322 239
0.00403442 0.76700002 0.0013448066 1.9052797e-38 323 239
0.0053932532 0.76899999 0.0013483133 1.8296868e-38 324 239
0.006724033 0.76700002 0.0013448066 1.7098683e-38 325 239
0.00806884 0.76700002 0.0013448066 1.7739728e-38 326 239
0.0094136465 0.76700002 0.0013448066 1.6541544e-38 327 239
0.01081456 0.77100003 0.00135182 1.4609048e-38 328 239
0.01216638 0.77100003 0.00135182 1.3779287e-38 329 239
0.013518199 0.77100003 0.00135182 1.0840212e-38 330 239
0.014908593 0.773 0.0013553266 1.1762529e-38 331 239
0.016263919 0.773 0.0013553266 1.1955587e-38 332 239
0.01764204 0.77399999 0.0013570799 1.3891695e-38 333 239
0.019048214 0.77600002 0.0013605866 1.499767e-38 334 239
0.020461399 0.778 0.0013640933 1.4444855e-38 335 239
0.021825492 0.778 0.0013640933 1.4899341e-38 336 239
0.023279008 0.78100002 0.0013693533 1.5084091e-38 337 239
-0.030280067 0.78500003 -0 1.6752244e-38 298 240
-0.028830061 0.78299999 -0 1.3248452e-38 299 240
-0.027457198 0.78299999 -0 1.8202507e-38 300 240
-0.026017714 0.78100002 -0 1.8386898e-38 301 240
-0.024648361 0.78100002 -0 1.8204309e-38 302 240
-0.023249198 0.77999997 -0 1.83887e-38 303 240
-0.021825492 0.778 -0 1.8389063e-38 304 240
-0.0204088 0.77600002 -0 1.8204672e-38 305 240
-0.019048214 0.77600002 -0 1.8853644e-38 306 240
-0.017687626 0.77600002 -0 1.9959631e-38 307 240
-0.01632704 0.77600002 -0 1.9684842e-38 308 240
-0.014966453 0.77600002 -0 1.8025323e-38 309 240
-0.013570799 0.77399999 -0 1.8294703e-38 310 240
-0.01221372 0.77399999 -0 1.8386898e-38 311 240
-0.01085664 0.77399999 -0 1.8022066e-38 312 240
-0.0094995592 0.77399999 -0 1.8114262e-38 313 240
-0.0081424797 0.77399999 -0 1.9039123e-38 314 240
-0.0067766332 0.773 -0 2.2634754e-38 315 240
-0.0054213065 0.773 -0 2.1447735e-38 316 240
-0.0040659797 0.773 -0 2.1447735e-38 317 240
-0.0027106532 0.773 -0 2.1539202e-38 318 240
-0.00135182 0.77100003 -0 2.1908344e-38 319 240
0 0.76899999 -0 2.2096338e-38 320 240
0.0013483133 0.76899999 -0 2.228109e-38 321 240
0.0026896133 0.76700002 -0 2.181831e-38 322 240
0.00403442 0.76700002 -0 1.8499267e-38 323 240
0.0053792265 0.76700002 -0 1.8573827e-38 324 240
0.006724033 0.76700002 -0 1.7467838e-38 325 240
0.00806884 0.76700002 -0 1.7926277e-38 326 240
0.0094136465 0.76700002 -0 1.7557135e-38 327 240
0.010786506 0.76899999 -0 1.6913553e-38 328 240
0.01216638 0.77100003 -0 1.617563e-38 329 240
0.013518199 0.77100003 -0 1.4153475e-38 330 240
0.014908593 0.773 -0 1.3600301e-38 331 240
0.016263919 0.773 -0 1.2867097e-38 332 240
0.017619247 0.773 -0 1.3788693e-38 333 240
0.018999118 0.77399999 -0 1.2328672e-38 334 240
0.020356199 0.77399999 -0 1.2697095e-38 335 240
0.021713279 0.77399999 -0 1.3982429e-38 336 240
-0.031656433 0.78500003 -0.0013763667 1.6319372e-38 297 241
-0.030280067 0.78500003 -0.0013763667 1.6935557e-38 298 241
-0.028830061 0.78299999 -0.0013728599 1.4170048e-38 299 241
-0.027387068 0.78100002 -0.0013693533 1.8296868e-38 300 241
-0.026017714 0.78100002 -0.0013693533 1.8296868e-38 301 241
-0.024616797 0.77999997 -0.0013675999 1.83887e-38 302 241
-0.023189586 0.778 -0.0013640933 1.8941874e-38 303 241
-0.021825492 0.778 -0.0013640933 1.8486654e-38 304 241
-0.0204088 0.77600002 -0.0013605866 1.8578849e-38 305 241
-0.019048214 0.77600002 -0.0013605866 1.8393034e-38 306 241
-0.01764204 0.77399999 -0.0013570799 1.8116089e-38 307 241
-0.016284959 0.77399999 -0.0013570799 1.793098e-38 308 241
-0.014927879 0.77399999 -0.0013570799 1.7654395e-38 309 241
-0.013570799 0.77399999 -0.0013570799 1.7654372e-38 310 241
-0.01221372 0.77399999 -0.0013570799 1.7746568e-38 311 241
-0.01085664 0.77399999 -0.0013570799 1.7656173e-38 312 241
-0.0094995592 0.77399999 -0.0013570799 1.8393738e-38 313 241
-0.0081424797 0.77399999 -0.0013570799 1.7938913e-38 314 241
-0.0067766332 0.773 -0.0013553266 2.1257956e-38 315 241
-0.0054072798 0.77100003 -0.00135182 2.1082212e-38 316 241
-0.0040554604 0.77100003 -0.00135182 2.1174407e-38 317 241
-0.0027036399 0.77100003 -0.00135182 2.1542101e-38 318 241
-0.00135182 0.77100003 -0.00135182 2.218747e-38 319 241
0 0.76899999 -0.0013483133 2.237186e-38 320 241
0.0013483133 0.76899999 -0.0013483133 2.2740641e-38 321 241
0.0026896133 0.76700002 -0.0013448066 2.181831e-38 322 241
0.00403442 0.76700002 -0.0013448066 1.7669506e-38 323 241
0.0053792265 0.76700002 -0.0013448066 1.7739753e-38 324 241
0.006724033 0.76700002 -0.0013448066 1.8200731e-38 325 241
0.00806884 0.76700002 -0.0013448066 1.7924128e-38 326 241
0.0094136465 0.76700002 -0.0013448066 1.7647182e-38 327 241
0.010758453 0.76700002 -0.0013448066 1.7832282e-38 328 241
0.01216638 0.77100003 -0.00135182 1.8477652e-38 329 241
0.013518199 0.77100003 -0.00135182 1.7106965e-38 330 241
0.01487002 0.77100003 -0.00135182 1.6922215e-38 331 241
0.016263919 0.773 -0.0013553266 1.5079769e-38 332 241
0.017619247 0.773 -0.0013553266 1.3696835e-38 333 241
0.018999118 0.77399999 -0.0013570799 9.6614611e-39 334 241
0.020356199 0.77399999 -0.0013570799 1.0122438e-38 335 241
0.021713279 0.77399999 -0.0013570799 1.2512331e-38 336 241
-0.033201117 0.78899997 -0.0027667598 2.0467449e-38 296 242
-0.031656433 0.78500003 -0.0027527334 1.641084e-38 297 242
-0.030280067 0.78500003 -0.0027527334 1.6199789e-38 298 242
-0.028830061 0.78299999 -0.0027457199 1.3987096e-38 299 242
-0.027387068 0.78100002 -0.0027387065 1.8113921e-38 300 242
-0.026017714 0.78100002 -0.0027387065 1.8298671e-38 301 242
-0.024616797 0.77999997 -0.0027351999 1.8760725e-38 302 242
-0.023189586 0.778 -0.0027281865 1.9313899e-38 303 242
-0.021769386 0.77600002 -0.0027211732 1.8766483e-38 304 242
-0.0204088 0.77600002 -0.0027211732 1.8673929e-38 305 242
-0.018999118 0.77399999 -0.0027141599 1.7750899e-38 306 242
-0.01764204 0.77399999 -0.0027141599 1.6737107e-38 307 242
-0.016284959 0.77399999 -0.0027141599 1.5909142e-38 308 242
-0.014927879 0.77399999 -0.0027141599 1.5448164e-38 309 242
-0.013570799 0.77399999 -0.0027141599 1.370076e-38 310 242
-0.01221372 0.77399999 -0.0027141599 1.2686967e-38 311 242
-0.01085664 0.77399999 -0.0027141599 1.2043412e-38 312 242
-0.0094995592 0.77399999 -0.0027141599 1.1951216e-38 313 242
-0.0081319595 0.773 -0.0027106532 1.0862887e-38 314 242
-0.0067590997 0.77100003 -0.0027036399 1.4366681e-38 315 242
-0.0054072798 0.77100003 -0.0027036399 1.6575075e-38 316 242
-0.0040449398 0.76899999 -0.0026966266 1.7773619e-38 317 242
-0.0026966266 0.76899999 -0.0026966266 2.0258212e-38 318 242
-0.0013483133 0.76899999 -0.0026966266 2.1087974e-38 319 242
0 0.76899999 -0.0026966266 2.2188189e-38 320 242
0.0013483133 0.76899999 -0.0026966266 2.1727213e-38 321 242
0.0026896133 0.76700002 -0.0026896133 2.033994e-38 322 242
0.00403442 0.76700002 -0.0026896133 1.7113093e-38 323 242
0.0053792265 0.76700002 -0.0026896133 1.7738662e-38 324 242
0.006724033 0.76700002 -0.0026896133 1.8107084e-38 325 242
0.00806884 0.76700002 -0.0026896133 1.7831573e-38 326 242
0.0094136465 0.76700002 -0.0026896133 1.7739378e-38 327 242
0.010758453 0.76700002 -0.0026896133 1.7463867e-38 328 242
0.012134819 0.76899999 -0.0026966266 1.8201432e-38 329 242
0.013518199 0.77100003 -0.0027036399 1.7290627e-38 330 242
0.01487002 0.77100003 -0.0027036399 1.7198432e-38 331 242
0.016263919 0.773 -0.0027106532 1.6001703e-38 332 242
0.017619247 0.773 -0.0027106532 1.5356334e-38 333 242
0.018999118 0.77399999 -0.0027141599 1.3243766e-38 334 242
0.020356199 0.77399999 -0.0027141599 1.2598396e-38 335 242
0.021713279 0.77399999 -0.0027141599 1.0303233e-38 336 242
-0.033201117 0.78899997 -0.0041501396 2.0375252e-38 296 243
-0.031656433 0.78500003 -0.0041291001 1.6318645e-38 297 243
-0.030280067 0.78500003 -0.0041291001 1.5738815e-38 298 243
-0.0289037 0.78500003 -0.0041291001 1.3802707e-38 299 243
-0.027457198 0.78299999 -0.0041185799 1.7195212e-38 300 243
-0.026017714 0.78100002 -0.0041080597 1.7840581e-38 301 243
-0.024616797 0.77999997 -0.0041027996 1.7847045e-38 302 243
-0.023189586 0.778 -0.0040922803 1.8215828e-38 303 243
-0.021769386 0.77600002 -0.0040817601 1.6837206e-38 304 243
-0.0204088 0.77600002 -0.0040817601 1.5823413e-38 305 243
-0.018999118 0.77399999 -0.0040712398 1.4899302e-38 306 243
-0.01764204 0.77399999 -0.0040712398 1.3424532e-38 307 243
-0.016284959 0.77399999 -0.0040712398 1.3236172e-38 308 243
-0.014927879 0.77399999 -0.0040712398 1.2129824e-38 309 243
-0.013570799 0.77399999 -0.0040712398 1.1115682e-38 310 243
-0.01221372 0.77399999 -0.0040712398 9.8263981e-39 311 243
-0.01085664 0.77399999 -0.0040712398 7.2550042e-39 312 243
-0.0094995592 0.77399999 -0.0040712398 6.4284847e-39 313 243
-0.0081319595 0.773 -0.0040659797 6.250922e-39 314 243
-0.0067415666 0.76899999 -0.0040449398 1.0676312e-38 315 243
-0.0053932532 0.76899999 -0.0040449398 1.2698525e-38 316 243
-0.0040449398 0.76899999 -0.0040449398 1.4911218e-38 317 243
-0.0026966266 0.76899999 -0.0040449398 1.7496309e-38 318 243
-0.0013483133 0.76899999 -0.0040449398 1.9432417e-38 319 243
0 0.76899999 -0.0040449398 2.0440414e-38 320 243
0.0013483133 0.76899999 -0.0040449398 1.9426621e-38 321 243
0.0026896133 0.76700002 -0.00403442 1.8769349e-38 322 243
0.00403442 0.76700002 -0.00403442 1.6833241e-38 323 243
0.0053792265 0.76700002 -0.00403442 1.7924841e-38 324 243
0.006724033 0.76700002 -0.00403442 1.8017397e-38 325 243
0.00806884 0.76700002 -0.00403442 1.7649336e-38 326 243
0.0094136465 0.76700002 -0.00403442 1.7556782e-38 327 243
0.010786506 0.76899999 -0.0040449398 1.7190879e-38 328 243
0.012134819 0.76899999 -0.0040449398 1.7836248e-38 329 243
0.013518199 0.77100003 -0.0040554604 1.6921867e-38 330 243
0.01487002 0.77100003 -0.0040554604 1.6829672e-38 331 243
0.016263919 0.773 -0.0040659797 1.5910957e-38 332 243
0.017619247 0.773 -0.0040659797 1.5726564e-38 333 243
0.018974574 0.773 -0.0040659797 1.4805684e-38 334 243
0.020356199 0.77399999 -0.0040712398 1.3883729e-38 335 243
0.021713279 0.77399999 -0.0040712398 1.0022689e-38 336 243
-0.033201117 0.78899997 -0.0055335197 2.0467447e-38 296 244
-0.031656433 0.78500003 -0.0055054668 1.6687785e-38 297 244
-0.030280067 0.78500003 -0.0055054668 1.5463668e-38 298 244
-0.0289037 0.78500003 -0.0055054668 1.2052429e-38 299 244
-0.027457198 0.78299999 -0.0054914397 1.4714211e-38 300 244
-0.026017714 0.78100002 -0.0054774131 1.3331277e-38 301 244
-0.024648361 0.78100002 -0.0054774131 1.1857942e-38 302 244
-0.023189586 0.778 -0.0054563731 1.0014389e-38 303 244
-0.021825492 0.778 -0.0054563731 5.1499722e-39 304 244
-0.0204088 0.77600002 -0.0054423464 4.5046028e-39 305 244
-0.018999118 0.77399999 -0.0054283198 4.1369091e-39 306 244
-0.01764204 0.77399999 -0.0054283198 6.5339941e-39 307 244
-0.016284959 0.77399999 -0.0054283198 1.1032497e-38 308 244
-0.014908593 0.773 -0.0054213065 1.2046649e-38 309 244
-0.013553266 0.773 -0.0054213065 1.3604974e-38 310 244
-0.012197939 0.773 -0.0054213065 1.2314235e-38 311 244
-0.010842613 0.773 -0.0054213065 7.995802e-39 312 244
-0.0094872871 0.773 -0.0054213065 1.0208856e-38 313 244
-0.0081109209 0.77100003 -0.0054072798 1.2776658e-38 314 244
-0.0067415666 0.76899999 -0.0053932532 1.3883004e-38 315 244
-0.0053932532 0.76899999 -0.0053932532 1.3517839e-38 316 244
-0.0040449398 0.76899999 -0.0053932532 1.3886621e-38 317 244
-0.0026966266 0.76899999 -0.0053932532 1.1687265e-38 318 244
-0.0013483133 0.76899999 -0.0053932532 1.2885808e-38 319 244
0 0.76899999 -0.0053932532 1.5651283e-38 320 244
0.0013483133 0.76899999 -0.0053932532 1.5651283e-38 321 244
0.0026896133 0.76700002 -0.0053792265 1.7846316e-38 322 244
0.00403442 0.76700002 -0.0053792265 1.6648132e-38 323 244
0.0053792265 0.76700002 -0.0053792265 1.7741882e-38 324 244
0.006724033 0.76700002 -0.0053792265 1.7649686e-38 325 244
0.00806884 0.76700002 -0.0053792265 1.7282346e-38 326 244
0.0094136465 0.76700002 -0.0053792265 1.7006119e-38 327 244
0.010786506 0.76899999 -0.0053932532 1.7007929e-38 328 244
0.01216638 0.77100003 -0.0054072798 1.7561103e-38 329 244
0.013518199 0.77100003 -0.0054072798 1.6554174e-38 330 244
0.01487002 0.77100003 -0.0054072798 1.6277947e-38 331 244
0.016221842 0.77100003 -0.0054072798 1.5819134e-38 332 244
0.017619247 0.773 -0.0054213065 1.5726938e-38 333 244
0.018974574 0.773 -0.0054213065 1.4807852e-38 334 244
0.020356199 0.77399999 -0.0054283198 1.4346873e-38 335 244
0.021713279 0.77399999 -0.0054283198 1.3242709e-38 336 244
-0.033201117 0.78899997 -0.0069168997 2.0375606e-38 296 245
-0.031656433 0.78500003 -0.0068818335 1.7333151e-38 297 245
-0.030280067 0.78500003 -0.0068818335 1.6200514e-38 298 245
-0.0289037 0.78500003 -0.0068818335 1.1498537e-38 299 245
-0.027527334 0.78500003 -0.0068818335 1.3426359e-38 300 245
-0.026084339 0.78299999 -0.0068642995 1.0476459e-38 301 245
-0.024648361 0.78100002 -0.0068467669 7.5341232e-39 302 245
-0.023249198 0.77999997 -0.0068379994 6.7043626e-39 303 245
-0.021825492 0.778 -0.0068204664 6.8876832e-39 304 245
-0.0204088 0.77600002 -0.0068029333 7.3468677e-39 305 245
-0.018999118 0.77399999 -0.0067853997 9.2797488e-39 306 245
-0.01764204 0.77399999 -0.0067853997 1.1861226e-38 307 245
-0.016284959 0.77399999 -0.0067853997 1.4069227e-38 308 245
-0.014908593 0.773 -0.0067766332 1.526813e-38 309 245
-0.013553266 0.773 -0.0067766332 1.6094294e-38 310 245
-0.012197939 0.773 -0.0067766332 1.3420621e-38 311 245
-0.010842613 0.773 -0.0067766332 9.0024234e-39 312 245
-0.0094872871 0.773 -0.0067766332 1.4165379e-38 313 245
-0.0081109209 0.77100003 -0.0067590997 1.6187546e-38 314 245
-0.0067415666 0.76899999 -0.0067415666 1.5080839e-38 315 245
-0.0053932532 0.76899999 -0.0067415666 1.5632577e-38 316 245
-0.0040449398 0.76899999 -0.0067415666 1.6093195e-38 317 245
-0.0026966266 0.76899999 -0.0067415666 1.3610753e-38 318 245
-0.0013483133 0.76899999 -0.0067415666 1.1766842e-38 319 245
0 0.76899999 -0.0067415666 1.4165349e-38 320 245
0.0013483133 0.76899999 -0.0067415666 1.5087307e-38 321 245
0.0026896133 0.76700002 -0.006724033 1.5638313e-38 322 245
0.00403442 0.76700002 -0.006724033 1.5177693e-38 323 245
0.0053932532 0.76899999 -0.0067415666 1.6642375e-38 324 245
0.0067415666 0.76899999 -0.0067415666 1.6365428e-38 325 245
0.0080898795 0.76899999 -0.0067415666 1.691357e-38 326 245
0.0094381925 0.76899999 -0.0067415666 1.7005766e-38 327 245
0.010786506 0.76899999 -0.0067415666 1.6732438e-38 328 245
0.012134819 0.76899999 -0.0067415666 1.7285611e-38 329 245
0.013518199 0.77100003 -0.0067590997 1.6186117e-38 330 245
0.01487002 0.77100003 -0.0067590997 1.6278313e-38 331 245
0.016221842 0.77100003 -0.0067590997 1.5636187e-38 332 245
0.017619247 0.773 -0.0067766332 1.5451796e-38 333 245
0.018974574 0.773 -0.0067766332 1.5082287e-38 334 245
0.020356199 0.77399999 -0.0067853997 1.5174483e-38 335 245
0.021713279 0.77399999 -0.0067853997 1.4260105e-38 336 245
0.02307036 0.77399999 -0.0067853997 1.7118528e-38 337 245
-0.033201117 0.78899997 -0.0083002793 2.0191937e-38 296 246
-0.031656433 0.78500003 -0.0082582003 1.7886688e-38 297 246
-0.030280067 0.78500003 -0.0082582003 1.7681405e-38 298 246
-0.0289037 0.78500003 -0.0082582003 1.1043318e-38 299 246
-0.027527334 0.78500003 -0.0082582003 1.2780639e-38 300 246
-0.026084339 0.78299999 -0.0082371598 8.540718e-39 301 246
-0.024648361 0.78100002 -0.0082161194 4.7837261e-39 302 246
-0.023249198 0.77999997 -0.0082055992 8.1027687e-39 303 246
-0.021825492 0.778 -0.0081845606 1.4438368e-38 304 246
-0.0204088 0.77600002 -0.0081635201 1.6374477e-38 305 246
-0.018999118 0.77399999 -0.0081424797 1.7475781e-38 306 246
-0.01764204 0.77399999 -0.0081424797 1.7199193e-38 307 246
-0.016284959 0.77399999 -0.0081424797 1.8207218e-38 308 246
-0.014908593 0.773 -0.0081319595 1.7654044e-38 309 246
-0.013553266 0.773 -0.0081319595 1.7284907e-38 310 246
-0.012197939 0.773 -0.0081319595 1.3320495e-38 311 246
-0.010842613 0.773 -0.0081319595 9.5508944e-39 312 246
-0.0094872871 0.773 -0.0081319595 1.5630425e-38 313 246
-0.0081109209 0.77100003 -0.0081109209 1.7195214e-38 314 246
-0.0067415666 0.76899999 -0.0080898795 1.6365094e-38 315 246
-0.0053932532 0.76899999 -0.0080898795 1.7467848e-38 316 246
-0.0040449398 0.76899999 -0.0080898795 1.8297969e-38 317 246
-0.0026966266 0.76899999 -0.0080898795 1.8028941e-38 318 246
-0.0013483133 0.76899999 -0.0080898795 1.701443e-38 319 246
0 0.76899999 -0.0080898795 1.5448535e-38 320 246
0.0013483133 0.76899999 -0.0080898795 1.3789015e-38 321 246
0.0026896133 0.76700002 -0.00806884 1.0107304e-38 322 246
0.00403442 0.76700002 -0.00806884 1.1766465e-38 323 246
0.0053932532 0.76899999 -0.0080898795 1.4435459e-38 324 246
0.006724033 0.76700002 -0.00806884 1.5173024e-38 325 246
0.00806884 0.76700002 -0.00806884 1.6641672e-38 326 246
0.0094136465 0.76700002 -0.00806884 1.581191e-38 327 246
0.010758453 0.76700002 -0.00806884 1.6641672e-38 328 246
0.012134819 0.76899999 -0.0080898795 1.7010094e-38 329 246
0.013518199 0.77100003 -0.0081109209 1.600208e-38 330 246
0.01487002 0.77100003 -0.0081109209 1.618647e-38 331 246
0.016221842 0.77100003 -0.0081109209 1.5545066e-38 332 246
0.017619247 0.773 -0.0081319595 1.5452871e-38 333 246
0.018974574 0.773 -0.0081319595 1.5175208e-38 334 246
0.0203299 0.773 -0.0081319595 1.4898622e-38 335 246
0.021685226 0.773 -0.0081319595 1.4259389e-38 336 246
0.023040552 0.773 -0.0081319595 1.7762463e-38 337 246
-0.033201117 0.78899997 -0.0096836593 1.9914997e-38 296 247
-0.031656433 0.78500003 -0.0096345674 1.8255476e-38 297 247
-0.030280067 0.78500003 -0.0096345674 1.7597847e-38 298 247
-0.0289037 0.78500003 -0.0096345674 8.9310973e-39 299 247
-0.027527334 0.78500003 -0.0096345674 8.6397519e-39 300 247
-0.026084339 0.78299999 -0.0096100196 8.7319476e-39 301 247
-0.024648361 0.78100002 -0.0095854728 1.0386077e-38 302 247
-0.023249198 0.77999997 -0.0095731998 1.2506578e-38 303 247
-0.021881599 0.77999997 -0.0095731998 1.4531282e-38 304 247
-0.0204088 0.77600002 -0.009524107 1.5637628e-38 305 247
-0.019048214 0.77600002 -0.009524107 1.6918274e-38 306 247
-0.01764204 0.77399999 -0.0094995592 1.6549492e-38 307 247
-0.016284959 0.77399999 -0.0094995592 1.7098327e-38 308 247
-0.014908593 0.773 -0.0094872871 1.6913936e-38 309 247
-0.013553266 0.773 -0.0094872871 1.6269658e-38 310 247
-0.012197939 0.773 -0.0094872871 1.2950615e-38 311 247
-0.010842613 0.773 -0.0094872871 9.3672206e-39 312 247
-0.0094627403 0.77100003 -0.0094627403 1.5168718e-38 313 247
-0.0081109209 0.77100003 -0.0094627403 1.6732436e-38 314 247
-0.0067415666 0.76899999 -0.0094381925 1.6179262e-38 315 247
-0.0053932532 0.76899999 -0.0094381925 1.6548043e-38 316 247
-0.0040449398 0.76899999 -0.0094381925 1.6640238e-38 317 247
-0.0026966266 0.76899999 -0.0094381925 1.7101945e-38 318 247
-0.0013483133 0.76899999 -0.0094381925 1.7839512e-38 319 247
0 0.76899999 -0.0094381925 1.6091019e-38 320 247
0.0013483133 0.76899999 -0.0094381925 1.5076507e-38 321 247
0.0026896133 0.76700002 -0.0094136465 1.406056e-38 322 247
0.00403442 0.76700002 -0.0094136465 1.406056e-38 323 247
0.0053792265 0.76700002 -0.0094136465 1.3053268e-38 324 247
0.006724033 0.76700002 -0.0094136465 1.3329494e-38 325 247
0.00806884 0.76700002 -0.0094136465 1.3701151e-38 326 247
0.0094136465 0.76700002 -0.0094136465 1.4438716e-38 327 247
0.010758453 0.76700002 -0.0094136465 1.6459813e-38 328 247
0.012134819 0.76899999 -0.0094381925 1.6644206e-38 329 247
0.013483133 0.76899999 -0.0094381925 1.5910609e-38 330 247
0.01487002 0.77100003 -0.0094627403 1.6002805e-38 331 247
0.016221842 0.77100003 -0.0094627403 1.536212e-38 332 247
0.017619247 0.773 -0.0094872871 1.4901143e-38 333 247
0.018974574 0.773 -0.0094872871 1.4898622e-38 334 247
0.0203299 0.773 -0.0094872871 1.5175208e-38 335 247
0.021685226 0.773 -0.0094872871 1.416971e-38 336 247
0.023040552 0.773 -0.0094872871 1.7488753e-38 337 247
-0.031737085 0.787 -0.011038986 1.853171e-38 297 248
-0.03035721 0.787 -0.011038986 1.7969866e-38 298 248
-0.0289037 0.78500003 -0.011010934 7.3673687e-39 299 248
-0.027527334 0.78500003 -0.011010934 3.9489263e-39 300 248
-0.026084339 0.78299999 -0.010982879 8.9235219e-39 301 248
-0.024711479 0.78299999 -0.010982879 1.3603923e-38 302 248
-0.023279008 0.78100002 -0.010954826 1.3972346e-38 303 248
-0.021881599 0.77999997 -0.010940799 1.4067062e-38 304 248
-0.020461399 0.778 -0.010912746 1.45284e-38 305 248
-0.019048214 0.77600002 -0.010884693 1.5629706e-38 306 248
-0.01764204 0.77399999 -0.01085664 1.553751e-38 307 248
-0.016284959 0.77399999 -0.01085664 1.6637003e-38 308 248
-0.014908593 0.773 -0.010842613 1.6544806e-38 309 248
-0.013553266 0.773 -0.010842613 1.5719008e-38 310 248
-0.012197939 0.773 -0.010842613 1.2492161e-38 311 248
-0.01081456 0.77100003 -0.01081456 9.4590561e-39 312 248
-0.0094627403 0.77100003 -0.01081456 1.498504e-38 313 248
-0.0081109209 0.77100003 -0.01081456 1.6455123e-38 314 248
-0.0067415666 0.76899999 -0.010786506 1.5994503e-38 315 248
