# .PCD v.7 - Point Cloud Data file format
FIELDS x y z rgb imX imY
SIZE 4 4 4 4 4 4
TYPE F F F F F F
COUNT 1 1 1 1 1 1
WIDTH 837
HEIGHT 1
VIEWPOINT 0 0 0 1 0 0 0
POINTS 837
DATA ascii
-0.0027351999 0.77999997 0.0068379994 1.2345224e-38 318 235
-0.0013675999 0.77999997 0.0068379994 1.0225083e-38 319 235
0 0.77999997 0.0068379994 8.9285834e-39 320 235
0.0013675999 0.77999997 0.0068379994 8.3754096e-39 321 235
0.0027351999 0.77999997 0.0068379994 8.8381856e-39 322 235
0.0041027996 0.77999997 0.0068379994 9.483555e-39 323 235
0.0054774131 0.78100002 0.0068467669 8.8439239e-39 324 235
0.0068467669 0.78100002 0.0068467669 6.078055e-39 325 235
0.0082161194 0.78100002 0.0068467669 1.7610917e-39 326 235
-0.032180678 0.79799998 0.0055966396 1.0339635e-38 297 236
-0.030781519 0.79799998 0.0055966396 1.3832979e-38 298 236
-0.029308718 0.796 0.0055826134 7.2870897e-39 299 236
-0.027772799 0.792 0.0055545596 7.1775853e-39 300 236
-0.026317533 0.79000002 0.0055405335 7.9151517e-39 301 236
-0.024900839 0.78899997 0.0055335197 9.7550818e-39 302 236
-0.023517458 0.78899997 0.0055335197 9.6628862e-39 303 236
-0.022077972 0.787 0.005519493 1.2338723e-38 304 236
-0.0205929 0.78299999 0.0054914397 1.5104952e-38 305 236
-0.019220039 0.78299999 0.0054914397 1.6307824e-38 306 236
-0.017801592 0.78100002 0.0054774131 1.6492215e-38 307 236
-0.016432239 0.78100002 0.0054774131 1.5016717e-38 308 236
-0.015062887 0.78100002 0.0054774131 1.1052304e-38 309 236
-0.013693534 0.78100002 0.0054774131 9.5678165e-39 310 236
-0.01232418 0.78100002 0.0054774131 1.0028795e-38 311 236
-0.010940799 0.77999997 0.0054703997 1.0123144e-38 312 236
-0.0095731998 0.77999997 0.0054703997 9.4777746e-39 313 236
-0.0082055992 0.77999997 0.0054703997 1.0680281e-38 314 236
-0.0068379994 0.77999997 0.0054703997 1.6119824e-38 315 236
-0.0054703997 0.77999997 0.0054703997 1.6036282e-38 316 236
-0.0041027996 0.77999997 0.0054703997 1.5206162e-38 317 236
-0.0027351999 0.77999997 0.0054703997 1.0133959e-38 318 236
-0.0013675999 0.77999997 0.0054703997 6.8149166e-39 319 236
0 0.77999997 0.0054703997 8.6494727e-39 320 236
0.0013675999 0.77999997 0.0054703997 8.833864e-39 321 236
0.0027351999 0.77999997 0.0054703997 8.9271344e-39 322 236
0.0041027996 0.77999997 0.0054703997 9.4803082e-39 323 236
0.0054703997 0.77999997 0.0054703997 9.3924258e-39 324 236
0.0068467669 0.78100002 0.0054774131 9.853764e-39 325 236
0.0082161194 0.78100002 0.0054774131 8.3815431e-39 326 236
0.0095854728 0.78100002 0.0054774131 3.2185878e-39 327 236
-0.032180678 0.79799998 0.0041974802 1.0973132e-38 297 237
-0.030704373 0.796 0.0041869599 1.1432281e-38 298 237
-0.029161438 0.792 0.00416592 5.7161515e-39 299 237
-0.027702667 0.79000002 0.0041554002 8.7373524e-39 300 237
-0.026284218 0.78899997 0.0041501396 1.0028091e-38 301 237
-0.024900839 0.78899997 0.0041501396 9.661817e-39 302 237
-0.023457846 0.787 0.0041396199 9.661817e-39 303 237
-0.022077972 0.787 0.0041396199 1.3355756e-38 304 237
-0.0205929 0.78299999 0.0041185799 1.6490049e-38 305 237
-0.019170946 0.78100002 0.0041080597 1.6497257e-38 306 237
-0.017801592 0.78100002 0.0041080597 1.6589453e-38 307 237
-0.016432239 0.78100002 0.0041080597 1.5479139e-38 308 237
-0.015062887 0.78100002 0.0041080597 1.1330336e-38 309 237
-0.013693534 0.78100002 0.0041080597 9.1997598e-39 310 237
-0.012308398 0.77999997 0.0041027996 9.6607366e-39 311 237
-0.010940799 0.77999997 0.0041027996 9.3873783e-39 312 237
-0.0095731998 0.77999997 0.0041027996 9.8479963e-39 313 237
-0.0082055992 0.77999997 0.0041027996 1.2615314e-38 314 237
-0.0068379994 0.77999997 0.0041027996 1.7778269e-38 315 237
-0.0054703997 0.77999997 0.0041027996 1.4472196e-38 316 237
-0.0041027996 0.77999997 0.0041027996 1.1706327e-38 317 237
-0.0027351999 0.77999997 0.0041027996 7.274457e-39 318 237
-0.0013640933 0.778 0.0040922803 5.4305444e-39 319 237
0 0.778 0.0040922803 8.9246177e-39 320 237
0.0013675999 0.77999997 0.0041027996 9.6621827e-39 321 237
0.0027351999 0.77999997 0.0041027996 9.575022e-39 322 237
0.0041027996 0.77999997 0.0041027996 1.0865761e-38 323 237
0.0054703997 0.77999997 0.0041027996 1.1600086e-38 324 237
0.0068379994 0.77999997 0.0041027996 1.1231303e-38 325 237
0.0082055992 0.77999997 0.0041027996 1.0036357e-38 326 237
0.0095731998 0.77999997 0.0041027996 6.6251177e-39 327 237
0.010940799 0.77999997 0.0041027996 4.2435521e-39 328 237
-0.034978997 0.79799998 0.0027983198 1.3742582e-38 295 238
-0.033411518 0.79400003 0.0027842934 1.1707435e-38 296 238
-0.032019373 0.79400003 0.0027842934 1.0601446e-38 297 238
-0.030550079 0.792 0.0027772798 8.6584761e-39 298 238
-0.029087799 0.79000002 0.0027702667 6.5383367e-39 299 238
-0.027702667 0.79000002 0.0027702667 9.8447761e-39 300 238
-0.026284218 0.78899997 0.0027667598 9.8447761e-39 301 238
-0.024837719 0.787 0.0027597465 9.4792236e-39 302 238
-0.023398234 0.78500003 0.0027527334 1.0953994e-38 303 238
-0.022021867 0.78500003 0.0027527334 1.5016717e-38 304 238
-0.020540299 0.78100002 0.0027387065 1.7966975e-38 305 238
-0.019170946 0.78100002 0.0027387065 1.7694727e-38 306 238
-0.017801592 0.78100002 0.0027387065 1.7602531e-38 307 238
-0.016432239 0.78100002 0.0027387065 1.5111448e-38 308 238
-0.015062887 0.78100002 0.0027387065 1.0778613e-38 309 238
-0.013675999 0.77999997 0.0027351999 8.9235443e-39 310 238
-0.012308398 0.77999997 0.0027351999 9.1997724e-39 311 238
-0.010940799 0.77999997 0.0027351999 8.5594253e-39 312 238
-0.0095731998 0.77999997 0.0027351999 1.0772479e-38 313 238
-0.0082055992 0.77999997 0.0027351999 1.345047e-38 314 238
-0.0068379994 0.77999997 0.0027351999 1.7230489e-38 315 238
-0.0054703997 0.77999997 0.0027351999 1.3089979e-38 316 238
-0.0041027996 0.77999997 0.0027351999 8.3880002e-39 317 238
-0.0027351999 0.77999997 0.0027351999 6.6287079e-39 318 238
-0.0013640933 0.778 0.0027281865 6.0755341e-39 319 238
0 0.778 0.0027281865 8.930356e-39 320 238
0.0013675999 0.77999997 0.0027351999 1.031329e-38 321 238
0.0027351999 0.77999997 0.0027351999 1.0409104e-38 322 238
0.0041027996 0.77999997 0.0027351999 1.1146671e-38 323 238
0.0054703997 0.77999997 0.0027351999 1.2887581e-38 324 238
0.0068379994 0.77999997 0.0027351999 1.205818e-38 325 238
0.0082055992 0.77999997 0.0027351999 1.0770676e-38 326 238
0.0095731998 0.77999997 0.0027351999 9.1115131e-39 327 238
0.010940799 0.77999997 0.0027351999 5.8937254e-39 328 238
0.012308398 0.77999997 0.0027351999 6.1699522e-39 329 238
-0.036195815 0.79400003 0.0013921467 1.6416255e-38 294 239
-0.034803666 0.79400003 0.0013921467 1.4203201e-38 295 239
-0.033411518 0.79400003 0.0013921467 1.2447153e-38 296 239
-0.032019373 0.79400003 0.0013921467 8.4827406e-39 297 239
-0.030550079 0.792 0.0013886399 7.6396424e-39 298 239
-0.029087799 0.79000002 0.0013851334 7.9158706e-39 299 239
-0.027702667 0.79000002 0.0013851334 9.386672e-39 300 239
-0.026284218 0.78899997 0.0013833799 9.294475e-39 301 239
-0.024837719 0.787 0.0013798733 1.0217152e-38 302 239
-0.023398234 0.78500003 0.0013763667 1.2798629e-38 303 239
-0.022021867 0.78500003 0.0013763667 1.6674814e-38 304 239
-0.020540299 0.78100002 0.0013693533 1.8795314e-38 305 239
-0.019170946 0.78100002 0.0013693533 1.7602178e-38 306 239
-0.017778799 0.77999997 0.0013675999 1.7417428e-38 307 239
-0.016411198 0.77999997 0.0013675999 1.3914707e-38 308 239
-0.0150436 0.77999997 0.0013675999 9.8580983e-39 309 239
-0.013675999 0.77999997 0.0013675999 8.4647115e-39 310 239
-0.012308398 0.77999997 0.0013675999 8.7412998e-39 311 239
-0.010912746 0.778 0.0013640933 8.3735921e-39 312 239
-0.0095486529 0.778 0.0013640933 1.2522035e-38 313 239
-0.0082055992 0.77999997 0.0013675999 1.4646861e-38 314 239
-0.0068379994 0.77999997 0.0013675999 1.5937599e-38 315 239
-0.0054703997 0.77999997 0.0013675999 1.0043913e-38 316 239
-0.0041027996 0.77999997 0.0013675999 6.0795012e-39 317 239
-0.0027351999 0.77999997 0.0013675999 7.7404644e-39 318 239
-0.0013640933 0.778 0.0013640933 1.013791e-38 319 239
0 0.778 0.0013640933 1.1891441e-38 320 239
0.0013640933 0.778 0.0013640933 1.2629006e-38 321 239
0.0027281865 0.778 0.0013640933 1.3732477e-38 322 239
0.0040922803 0.778 0.0013640933 1.410162e-38 323 239
0.0054563731 0.778 0.0013640933 1.510748e-38 324 239
0.0068204664 0.778 0.0013640933 1.2802948e-38 325 239
0.0081845606 0.778 0.0013640933 1.1230936e-38 326 239
0.0095731998 0.77999997 0.0013675999 9.4792208e-39 327 239
0.010940799 0.77999997 0.0013675999 5.988065e-39 328 239
0.012308398 0.77999997 0.0013675999 5.0664689e-39 329 239
0.013675999 0.77999997 0.0013675999 7.7545741e-39 330 239
-0.036195815 0.79400003 -0 1.7428612e-38 294 240
-0.034803666 0.79400003 -0 1.493897e-38 295 240
-0.033411518 0.79400003 -0 1.1159289e-38 296 240
-0.032019373 0.79400003 -0 6.6417035e-39 297 240
-0.030550079 0.792 -0 7.9126364e-39 298 240
-0.029087799 0.79000002 -0 9.0186252e-39 299 240
-0.027667599 0.78899997 -0 9.3873937e-39 300 240
-0.026284218 0.78899997 -0 9.4795893e-39 301 240
-0.024837719 0.787 -0 9.6665141e-39 302 240
-0.023398234 0.78500003 -0 1.2063961e-38 303 240
-0.021965759 0.78299999 -0 1.5115064e-38 304 240
-0.020540299 0.78100002 -0 1.7696541e-38 305 240
-0.0191464 0.77999997 -0 1.7603627e-38 306 240
-0.017778799 0.77999997 -0 1.6405084e-38 307 240
-0.016411198 0.77999997 -0 1.2438857e-38 308 240
-0.0150436 0.77999997 -0 9.1198144e-39 309 240
-0.013675999 0.77999997 -0 8.4650619e-39 310 240
-0.012308398 0.77999997 -0 8.6494531e-39 311 240
-0.010912746 0.778 -0 8.4665108e-39 312 240
-0.0095486529 0.778 -0 1.2984095e-38 313 240
-0.0082055992 0.77999997 -0 1.3636667e-38 314 240
-0.0068379994 0.77999997 -0 1.2622876e-38 315 240
-0.0054563731 0.778 -0 9.582212e-39 316 240
-0.0040922803 0.778 -0 8.9368426e-39 317 240
-0.0027351999 0.77999997 -0 1.161161e-38 318 240
-0.0013640933 0.778 -0 1.3455523e-38 319 240
0 0.778 -0 1.492743e-38 320 240
0.0013640933 0.778 -0 1.5480604e-38 321 240
0.0027281865 0.778 -0 1.5849369e-38 322 240
0.0040922803 0.778 -0 1.5664619e-38 323 240
0.0054563731 0.778 -0 1.529434e-38 324 240
0.0068029333 0.77600002 -0 1.2712863e-38 325 240
0.0081635201 0.77600002 -0 1.0498741e-38 326 240
0.0095486529 0.778 -0 9.1158066e-39 327 240
0.010912746 0.778 -0 7.9184167e-39 328 240
0.012276839 0.778 -0 6.4432852e-39 329 240
0.013640933 0.778 -0 4.7099435e-39 330 240
-0.034803666 0.79400003 -0.0013921467 1.5214845e-38 295 241
-0.03332736 0.792 -0.0013886399 8.851519e-39 296 241
-0.031938717 0.792 -0.0013886399 5.4402806e-39 297 241
-0.030472934 0.79000002 -0.0013851334 8.9246177e-39 298 241
-0.029087799 0.79000002 -0.0013851334 9.4777901e-39 299 241
-0.027667599 0.78899997 -0.0013833799 9.2044318e-39 300 241
-0.026284218 0.78899997 -0.0013833799 9.2966274e-39 301 241
-0.024837719 0.787 -0.0013798733 8.7449152e-39 302 241
-0.023398234 0.78500003 -0.0013763667 1.0404435e-38 303 241
-0.021965759 0.78299999 -0.0013728599 1.3088205e-38 304 241
-0.020540299 0.78100002 -0.0013693533 1.5761879e-38 305 241
-0.0191464 0.77999997 -0.0013675999 1.6408321e-38 306 241
-0.017778799 0.77999997 -0.0013675999 1.4933189e-38 307 241
-0.016411198 0.77999997 -0.0013675999 1.0686058e-38 308 241
-0.0150436 0.77999997 -0.0013675999 8.197135e-39 309 241
-0.013675999 0.77999997 -0.0013675999 8.9242449e-39 310 241
-0.012276839 0.778 -0.0013640933 8.8320493e-39 311 241
-0.010912746 0.778 -0.0013640933 8.5569072e-39 312 241
-0.0095486529 0.778 -0.0013640933 1.3258884e-38 313 241
-0.0081845606 0.778 -0.0013640933 1.3270057e-38 314 241
-0.0068204664 0.778 -0.0013640933 1.3823231e-38 315 241
-0.0054423464 0.77600002 -0.0013605866 1.3643151e-38 316 241
-0.0040817601 0.77600002 -0.0013605866 1.4565468e-38 317 241
-0.0027211732 0.77600002 -0.0013605866 1.622391e-38 318 241
-0.0013605866 0.77600002 -0.0013605866 1.6777084e-38 319 241
0 0.77600002 -0.0013605866 1.7787626e-38 320 241
0.0013605866 0.77600002 -0.0013605866 1.6404691e-38 321 241
0.0027211732 0.77600002 -0.0013605866 1.5108172e-38 322 241
0.0040817601 0.77600002 -0.0013605866 1.0682783e-38 323 241
0.0054423464 0.77600002 -0.0013605866 8.6444211e-39 324 241
0.0068029333 0.77600002 -0.0013605866 8.9206478e-39 325 241
0.0081635201 0.77600002 -0.0013605866 8.0077187e-39 326 241
0.009524107 0.77600002 -0.0013605866 8.6530881e-39 327 241
0.010884693 0.77600002 -0.0013605866 8.3768739e-39 328 241
0.01224528 0.77600002 -0.0013605866 8.0999269e-39 329 241
0.013675999 0.77999997 -0.0013675999 2.6791215e-39 330 241
0.0150436 0.77999997 -0.0013675999 5.2605992e-39 331 241
-0.036013465 0.79000002 -0.0027702667 1.7061993e-38 294 242
-0.034628332 0.79000002 -0.0027702667 1.2636604e-38 295 242
-0.033243202 0.79000002 -0.0027702667 5.6221538e-39 296 242
-0.031858064 0.79000002 -0.0027702667 4.9767844e-39 297 242
-0.030472934 0.79000002 -0.0027702667 8.9274847e-39 298 242
-0.029087799 0.79000002 -0.0027702667 9.1118774e-39 299 242
-0.027667599 0.78899997 -0.0027667598 9.1122333e-39 300 242
-0.026284218 0.78899997 -0.0027667598 9.0200363e-39 301 242
-0.024837719 0.787 -0.0027597465 8.8342325e-39 302 242
-0.023398234 0.78500003 -0.0027527334 9.756549e-39 303 242
-0.021965759 0.78299999 -0.0027457199 1.0688241e-38 304 242
-0.020540299 0.78100002 -0.0027387065 1.2993492e-38 305 242
-0.0191464 0.77999997 -0.0027351999 1.4284947e-38 306 242
-0.017778799 0.77999997 -0.0027351999 1.3178958e-38 307 242
-0.016411198 0.77999997 -0.0027351999 1.0680296e-38 308 242
-0.0150436 0.77999997 -0.0027351999 8.7441879e-39 309 242
-0.013640933 0.778 -0.0027281865 9.2011822e-39 310 242
-0.012276839 0.778 -0.0027281865 9.017151e-39 311 242
-0.010912746 0.778 -0.0027281865 8.7405725e-39 312 242
-0.0095486529 0.778 -0.0027281865 1.2336562e-38 313 242
-0.0081845606 0.778 -0.0027281865 1.28098e-38 314 242
-0.0068029333 0.77600002 -0.0027211732 1.4653713e-38 315 242
-0.0054423464 0.77600002 -0.0027211732 1.5482755e-38 316 242
-0.0040817601 0.77600002 -0.0027211732 1.6128124e-38 317 242
-0.0027211732 0.77600002 -0.0027211732 1.7141906e-38 318 242
-0.0013605866 0.77600002 -0.0027211732 1.751033e-38 319 242
0 0.77600002 -0.0027211732 1.6311031e-38 320 242
0.0013605866 0.77600002 -0.0027211732 1.3452608e-38 321 242
0.0027211732 0.77600002 -0.0027211732 1.1504964e-38 322 242
0.0040817601 0.77600002 -0.0027211732 9.2919106e-39 323 242
0.0054423464 0.77600002 -0.0027211732 7.2643677e-39 324 242
0.0068029333 0.77600002 -0.0027211732 8.6473021e-39 325 242
0.0081635201 0.77600002 -0.0027211732 8.6530881e-39 326 242
0.009524107 0.77600002 -0.0027211732 8.2843056e-39 327 242
0.010884693 0.77600002 -0.0027211732 8.2850314e-39 328 242
0.01224528 0.77600002 -0.0027211732 8.2850314e-39 329 242
0.013675999 0.77999997 -0.0027351999 4.8813812e-39 330 242
0.0150436 0.77999997 -0.0027351999 4.9739355e-39 331 242
0.016411198 0.77999997 -0.0027351999 1.1988376e-38 332 242
-0.036013465 0.79000002 -0.0041554002 1.5954548e-38 294 243
-0.034628332 0.79000002 -0.0041554002 1.0330975e-38 295 243
-0.033243202 0.79000002 -0.0041554002 3.2268498e-39 296 243
-0.031858064 0.79000002 -0.0041554002 5.0704037e-39 297 243
-0.030472934 0.79000002 -0.0041554002 9.1111599e-39 298 243
-0.02905098 0.78899997 -0.0041501396 9.0189643e-39 299 243
-0.027667599 0.78899997 -0.0041501396 9.1104341e-39 300 243
-0.026217593 0.787 -0.0041396199 9.0178797e-39 301 243
-0.024837719 0.787 -0.0041396199 9.0175322e-39 302 243
-0.023398234 0.78500003 -0.0041291001 9.0175322e-39 303 243
-0.021965759 0.78299999 -0.0041185799 8.3772243e-39 304 243
-0.020540299 0.78100002 -0.0041080597 9.2069849e-39 305 243
-0.019170946 0.78100002 -0.0041080597 1.0778622e-38 306 243
-0.017778799 0.77999997 -0.0041027996 1.0871178e-38 307 243
-0.016411198 0.77999997 -0.0041027996 1.0493018e-38 308 243
-0.015005025 0.778 -0.0040922803 9.2022794e-39 309 243
-0.013640933 0.778 -0.0040922803 9.200829e-39 310 243
-0.012276839 0.778 -0.0040922803 9.2930247e-39 311 243
-0.010884693 0.77600002 -0.0040817601 8.7420187e-39 312 243
-0.009524107 0.77600002 -0.0040817601 1.0955073e-38 313 243
-0.0081635201 0.77600002 -0.0040817601 1.1610541e-38 314 243
-0.0068029333 0.77600002 -0.0040817601 1.4652638e-38 315 243
-0.0054423464 0.77600002 -0.0040817601 1.6311439e-38 316 243
-0.0040817601 0.77600002 -0.0040817601 1.7049004e-38 317 243
-0.0027211732 0.77600002 -0.0040817601 1.7601807e-38 318 243
-0.0013605866 0.77600002 -0.0040817601 1.7325218e-38 319 243
0 0.77600002 -0.0040817601 1.2619999e-38 320 243
0.0013605866 0.77600002 -0.0040817601 7.9180216e-39 321 243
0.0027211732 0.77600002 -0.0040817601 7.3515284e-39 322 243
0.0040817601 0.77600002 -0.0040817601 8.8270172e-39 323 243
0.0054423464 0.77600002 -0.0040817601 8.5594253e-39 324 243
0.0068029333 0.77600002 -0.0040817601 8.9285679e-39 325 243
0.0081635201 0.77600002 -0.0040817601 8.46868e-39 326 243
0.009524107 0.77600002 -0.0040817601 7.3623338e-39 327 243
0.010884693 0.77600002 -0.0040817601 6.0780943e-39 328 243
0.01224528 0.77600002 -0.0040817601 6.631268e-39 329 243
0.013675999 0.77999997 -0.0041027996 4.8831692e-39 330 243
0.0150436 0.77999997 -0.0041027996 4.3299954e-39 331 243
0.016432239 0.78100002 -0.0041080597 9.0398983e-39 332 243
0.017801592 0.78100002 -0.0041080597 1.4756027e-38 333 243
-0.034628332 0.79000002 -0.0055405335 1.0697936e-38 295 244
-0.033243202 0.79000002 -0.0055405335 3.9589947e-39 296 244
-0.031817738 0.78899997 -0.0055335197 5.9876573e-39 297 244
-0.030434359 0.78899997 -0.0055335197 9.0193174e-39 298 244
-0.02905098 0.78899997 -0.0055335197 8.9267631e-39 299 244
-0.027667599 0.78899997 -0.0055335197 8.7416529e-39 300 244
-0.026217593 0.787 -0.005519493 8.7416529e-39 301 244
-0.024837719 0.787 -0.005519493 8.6494559e-39 302 244
-0.023398234 0.78500003 -0.0055054668 8.7416529e-39 303 244
-0.021965759 0.78299999 -0.0054914397 8.2810461e-39 304 244
-0.020540299 0.78100002 -0.0054774131 8.0966549e-39 305 244
-0.0191464 0.77999997 -0.0054703997 8.9267785e-39 306 244
-0.017778799 0.77999997 -0.0054703997 9.1115299e-39 307 244
-0.016369121 0.778 -0.0054563731 9.109725e-39 308 244
-0.015005025 0.778 -0.0054563731 9.0175294e-39 309 244
-0.013640933 0.778 -0.0054563731 9.0171636e-39 310 244
-0.012276839 0.778 -0.0054563731 9.0171636e-39 311 244
-0.010884693 0.77600002 -0.0054423464 8.4672297e-39 312 244
-0.009524107 0.77600002 -0.0054423464 1.012711e-38 313 244
-0.0081635201 0.77600002 -0.0054423464 1.0133257e-38 314 244
-0.0068029333 0.77600002 -0.0054423464 1.1608387e-38 315 244
-0.0054423464 0.77600002 -0.0054423464 1.3086041e-38 316 244
-0.0040817601 0.77600002 -0.0054423464 1.4192387e-38 317 244
-0.0027211732 0.77600002 -0.0054423464 1.4924539e-38 318 244
-0.0013605866 0.77600002 -0.0054423464 1.4002584e-38 319 244
0 0.77600002 -0.0054423464 8.8360178e-39 320 244
0.0013570799 0.77399999 -0.0054283198 7.3608877e-39 321 244
0.0027141599 0.77399999 -0.0054283198 7.5452762e-39 322 244
0.0040712398 0.77399999 -0.0054283198 8.5594281e-39 323 244
0.0054283198 0.77399999 -0.0054283198 8.5615903e-39 324 244
0.0068029333 0.77600002 -0.0054423464 8.1931665e-39 325 244
0.0081635201 0.77600002 -0.0054423464 7.457063e-39 326 244
0.009524107 0.77600002 -0.0054423464 9.3009756e-39 327 244
0.010884693 0.77600002 -0.0054423464 8.2097649e-39 328 244
0.01224528 0.77600002 -0.0054423464 9.5005037e-39 329 244
0.013675999 0.77999997 -0.0054703997 9.1281283e-39 330 244
0.0150436 0.77999997 -0.0054703997 7.7451938e-39 331 244
0.016411198 0.77999997 -0.0054703997 6.5574406e-39 332 244
0.017778799 0.77999997 -0.0054703997 1.1720037e-38 333 244
-0.034628332 0.79000002 -0.0069256667 1.2449284e-38 295 245
-0.033201117 0.78899997 -0.0069168997 5.9833202e-39 296 245
-0.031817738 0.78899997 -0.0069168997 6.536494e-39 297 245
-0.030434359 0.78899997 -0.0069168997 8.3768137e-39 298 245
-0.02905098 0.78899997 -0.0069168997 8.3768137e-39 299 245
-0.027597465 0.787 -0.0068993662 8.6501734e-39 300 245
-0.026217593 0.787 -0.0068993662 8.3739452e-39 301 245
-0.024711479 0.78299999 -0.0068642995 8.3739452e-39 302 245
-0.02333862 0.78299999 -0.0068642995 8.3739452e-39 303 245
-0.021965759 0.78299999 -0.0068642995 8.3735921e-39 304 245
-0.020513998 0.77999997 -0.0068379994 8.0970052e-39 305 245
-0.0191464 0.77999997 -0.0068379994 8.188482e-39 306 245
-0.017733213 0.778 -0.0068204664 7.9115349e-39 307 245
-0.016369121 0.778 -0.0068204664 8.3725159e-39 308 245
-0.015005025 0.778 -0.0068204664 8.7412998e-39 309 245
-0.013640933 0.778 -0.0068204664 8.55691e-39 310 245
-0.012276839 0.778 -0.0068204664 8.55691e-39 311 245
-0.010884693 0.77600002 -0.0068029333 8.1906456e-39 312 245
-0.009524107 0.77600002 -0.0068029333 8.836015e-39 313 245
-0.0081635201 0.77600002 -0.0068029333 8.562319e-39 314 245
-0.0068029333 0.77600002 -0.0068029333 8.9311001e-39 315 245
-0.0054423464 0.77600002 -0.0068029333 1.0131443e-38 316 245
-0.0040817601 0.77600002 -0.0068029333 1.1975355e-38 317 245
-0.0027211732 0.77600002 -0.0068029333 1.2248329e-38 318 245
-0.0013605866 0.77600002 -0.0068029333 1.1141982e-38 319 245
0 0.77399999 -0.0067853997 7.8193421e-39 320 245
0.0013570799 0.77399999 -0.0067853997 8.1884848e-39 321 245
0.0027141599 0.77399999 -0.0067853997 8.6523398e-39 322 245
0.0040712398 0.77399999 -0.0067853997 8.8370912e-39 323 245
0.0054283198 0.77399999 -0.0067853997 8.3775578e-39 324 245
0.0067853997 0.77399999 -0.0067853997 7.2708515e-39 325 245
0.0081424797 0.77399999 -0.0067853997 5.3470116e-39 326 245
0.009524107 0.77600002 -0.0068029333 1.1339729e-38 327 245
0.010884693 0.77600002 -0.0068029333 1.2360033e-38 328 245
0.01224528 0.77600002 -0.0068029333 1.3281989e-38 329 245
0.013675999 0.77999997 -0.0068379994 1.2360389e-38 330 245
0.0150436 0.77999997 -0.0068379994 1.0977454e-38 331 245
0.016411198 0.77999997 -0.0068379994 7.7588663e-39 332 245
0.017778799 0.77999997 -0.0068379994 9.8793672e-39 333 245
-0.034628332 0.79000002 -0.0083108004 1.5948771e-38 295 246
-0.033201117 0.78899997 -0.0083002793 9.1197821e-39 296 246
-0.031817738 0.78899997 -0.0083002793 6.7230559e-39 297 246
-0.030434359 0.78899997 -0.0083002793 7.3659016e-39 298 246
-0.02905098 0.78899997 -0.0083002793 7.5506529e-39 299 246
-0.027597465 0.787 -0.0082792398 8.0091228e-39 300 246
-0.026150968 0.78500003 -0.0082582003 7.9169271e-39 301 246
-0.024711479 0.78299999 -0.0082371598 8.2821125e-39 302 246
-0.02333862 0.78299999 -0.0082371598 8.2821125e-39 303 246
-0.021909652 0.78100002 -0.0082161194 8.2824685e-39 304 246
-0.020513998 0.77999997 -0.0082055992 8.3746641e-39 305 246
-0.0191464 0.77999997 -0.0082055992 8.373948e-39 306 246
-0.017733213 0.778 -0.0081845606 8.2813937e-39 307 246
-0.016369121 0.778 -0.0081845606 8.5572603e-39 308 246
-0.015005025 0.778 -0.0081845606 8.4650647e-39 309 246
-0.013640933 0.778 -0.0081845606 8.3725103e-39 310 246
-0.012276839 0.778 -0.0081845606 8.4650647e-39 311 246
-0.010912746 0.778 -0.0081845606 8.4650647e-39 312 246
-0.009524107 0.77600002 -0.0081635201 8.5572603e-39 313 246
-0.0081635201 0.77600002 -0.0081635201 8.9246149e-39 314 246
-0.0068029333 0.77600002 -0.0081635201 9.0168105e-39 315 246
-0.0054423464 0.77600002 -0.0081635201 8.8363849e-39 316 246
-0.0040817601 0.77600002 -0.0081635201 9.1133305e-39 317 246
-0.0027211732 0.77600002 -0.0081635201 9.3855916e-39 318 246
-0.0013570799 0.77399999 -0.0081424797 9.3855916e-39 319 246
0 0.77399999 -0.0081424797 8.4665108e-39 320 246
0.0013570799 0.77399999 -0.0081424797 8.9274875e-39 321 246
0.0027141599 0.77399999 -0.0081424797 8.6534202e-39 322 246
0.0040712398 0.77399999 -0.0081424797 8.2846363e-39 323 246
0.0054283198 0.77399999 -0.0081424797 7.3641443e-39 324 246
0.0067853997 0.77399999 -0.0081424797 1.0130373e-38 325 246
0.0081424797 0.77399999 -0.0081424797 1.0423186e-38 326 246
0.0094995592 0.77399999 -0.0081424797 1.5217359e-38 327 246
0.010884693 0.77600002 -0.0081635201 1.4298309e-38 328 246
0.01224528 0.77600002 -0.0081635201 1.3468548e-38 329 246
0.013640933 0.778 -0.0081845606 1.1999532e-38 330 246
0.015005025 0.778 -0.0081845606 1.1907336e-38 331 246
0.016411198 0.77999997 -0.0082055992 1.1903005e-38 332 246
0.017778799 0.77999997 -0.0082055992 1.1534222e-38 333 246
-0.033201117 0.78899997 -0.0096836593 1.2809788e-38 296 247
-0.031817738 0.78899997 -0.0096836593 8.5684286e-39 297 247
-0.03035721 0.787 -0.0096591124 8.1938728e-39 298 247
-0.02897734 0.787 -0.0096591124 8.378264e-39 299 247
-0.027527334 0.78500003 -0.0096345674 8.6526957e-39 300 247
-0.026150968 0.78500003 -0.0096345674 8.191719e-39 301 247
-0.024711479 0.78299999 -0.0096100196 7.9162069e-39 302 247
-0.02333862 0.78299999 -0.0096100196 7.9162069e-39 303 247
-0.021909652 0.78100002 -0.0095854728 8.0995191e-39 304 247
-0.020513998 0.77999997 -0.0095731998 8.0995191e-39 305 247
-0.0191464 0.77999997 -0.0095731998 8.0998751e-39 306 247
-0.017733213 0.778 -0.0095486529 8.0073207e-39 307 247
-0.016369121 0.778 -0.0095486529 8.1902728e-39 308 247
-0.014966453 0.77600002 -0.009524107 8.1902728e-39 309 247
-0.013605867 0.77600002 -0.009524107 8.3725103e-39 310 247
-0.01224528 0.77600002 -0.009524107 8.3725103e-39 311 247
-0.010884693 0.77600002 -0.009524107 8.2813993e-39 312 247
-0.009524107 0.77600002 -0.009524107 8.2813993e-39 313 247
-0.0081635201 0.77600002 -0.009524107 8.4658045e-39 314 247
-0.0068029333 0.77600002 -0.009524107 8.8345857e-39 315 247
-0.0054423464 0.77600002 -0.009524107 8.8363821e-39 316 247
-0.0040817601 0.77600002 -0.009524107 9.1133277e-39 317 247
-0.0027211732 0.77600002 -0.009524107 9.2962743e-39 318 247
-0.0013570799 0.77399999 -0.0094995592 9.2040786e-39 319 247
0 0.77399999 -0.0094995592 8.8363709e-39 320 247
0.0013570799 0.77399999 -0.0094995592 8.8363709e-39 321 247
0.0027141599 0.77399999 -0.0094995592 8.3768347e-39 322 247
0.0040712398 0.77399999 -0.0094995592 7.6389109e-39 323 247
0.0054283198 0.77399999 -0.0094995592 8.1899463e-39 324 247
0.0067853997 0.77399999 -0.0094995592 1.4551443e-38 325 247
0.0081424797 0.77399999 -0.0094995592 1.3191573e-38 326 247
0.0094995592 0.77399999 -0.0094995592 1.5312072e-38 327 247
0.010884693 0.77600002 -0.009524107 1.4116081e-38 328 247
0.01224528 0.77600002 -0.009524107 1.2825344e-38 329 247
0.013640933 0.778 -0.0095486529 1.2640229e-38 330 247
0.015005025 0.778 -0.0095486529 1.2917176e-38 331 247
0.016411198 0.77999997 -0.0095731998 1.2823532e-38 332 247
0.017778799 0.77999997 -0.0095731998 1.2731336e-38 333 247
-0.033201117 0.78899997 -0.011067039 1.5210484e-38 296 248
-0.031737085 0.787 -0.011038986 1.0415951e-38 297 248
-0.03035721 0.787 -0.011038986 9.2073128e-39 298 248
-0.02897734 0.787 -0.011038986 8.6541391e-39 299 248
-0.027527334 0.78500003 -0.011010934 8.1938826e-39 300 248
-0.026150968 0.78500003 -0.011010934 8.1016869e-39 301 248
-0.024711479 0.78299999 -0.010982879 7.8251071e-39 302 248
-0.02333862 0.78299999 -0.010982879 7.8251071e-39 303 248
-0.021909652 0.78100002 -0.010954826 8.0080536e-39 304 248
-0.020513998 0.77999997 -0.010940799 8.0080536e-39 305 248
-0.0191464 0.77999997 -0.010940799 8.0080564e-39 306 248
-0.017733213 0.778 -0.010912746 7.9155006e-39 307 248
-0.016369121 0.778 -0.010912746 8.0984499e-39 308 248
-0.014966453 0.77600002 -0.010884693 8.0062543e-39 309 248
-0.013605867 0.77600002 -0.010884693 8.189198e-39 310 248
-0.01224528 0.77600002 -0.010884693 8.189198e-39 311 248
-0.010884693 0.77600002 -0.010884693 8.189554e-39 312 248
-0.009524107 0.77600002 -0.010884693 8.189554e-39 313 248
-0.0081635201 0.77600002 -0.010884693 8.2813965e-39 314 248
-0.0068029333 0.77600002 -0.010884693 8.650179e-39 315 248
-0.0054423464 0.77600002 -0.010884693 8.8349332e-39 316 248
-0.0040817601 0.77600002 -0.010884693 9.0196832e-39 317 248
-0.0027211732 0.77600002 -0.010884693 8.9285679e-39 318 248
-0.0013570799 0.77399999 -0.01085664 8.8363709e-39 319 248
0 0.77399999 -0.01085664 8.7438194e-39 320 248
0.0013570799 0.77399999 -0.01085664 8.1906456e-39 321 248
0.0027141599 0.77399999 -0.01085664 7.266188e-39 322 248
0.0040712398 0.77399999 -0.01085664 9.7558287e-39 323 248
0.0054283198 0.77399999 -0.01085664 1.0147672e-38 324 248
0.0067853997 0.77399999 -0.01085664 1.4480866e-38 325 248
0.0081424797 0.77399999 -0.01085664 1.4483776e-38 326 248
0.0094995592 0.77399999 -0.01085664 1.4022798e-38 327 248
0.010884693 0.77600002 -0.010884693 1.3655457e-38 328 248
0.01224528 0.77600002 -0.010884693 1.2180327e-38 329 248
0.013640933 0.778 -0.010912746 1.1714663e-38 330 248
0.015005025 0.778 -0.010912746 1.1714663e-38 331 248
0.016369121 0.778 -0.010912746 1.25455e-38 332 248
0.017733213 0.778 -0.010912746 1.273025e-38 333 248
0.019097306 0.778 -0.010912746 1.2732768e-38 334 248
-0.033201117 0.78899997 -0.012450419 1.5766551e-38 296 249
-0.031737085 0.787 -0.01241886 1.198617e-38 297 249
-0.03035721 0.787 -0.01241886 1.0409099e-38 298 249
-0.02897734 0.787 -0.01241886 8.2885991e-39 299 249
-0.027597465 0.787 -0.01241886 8.1016869e-39 300 249
-0.026150968 0.78500003 -0.0123873 8.378634e-39 301 249
-0.024711479 0.78299999 -0.012355739 7.9173027e-39 302 249
-0.02333862 0.78299999 -0.012355739 7.8251071e-39 303 249
-0.021909652 0.78100002 -0.01232418 7.9162237e-39 304 249
-0.020513998 0.77999997 -0.012308398 7.7321912e-39 305 249
-0.0191464 0.77999997 -0.012308398 7.6403585e-39 306 249
-0.017733213 0.778 -0.012276839 7.6403585e-39 307 249
-0.016369121 0.778 -0.012276839 8.0980968e-39 308 249
-0.014966453 0.77600002 -0.01224528 8.0059012e-39 309 249
-0.013605867 0.77600002 -0.01224528 8.1899225e-39 310 249
-0.01224528 0.77600002 -0.01224528 8.1899225e-39 311 249
-0.010884693 0.77600002 -0.01224528 8.1899197e-39 312 249
-0.009524107 0.77600002 -0.01224528 8.0058886e-39 313 249
-0.0081635201 0.77600002 -0.01224528 8.0062543e-39 314 249
-0.0067853997 0.77399999 -0.01221372 8.0984499e-39 315 249
-0.0054283198 0.77399999 -0.01221372 8.3739606e-39 316 249
-0.0040817601 0.77600002 -0.01224528 8.6509077e-39 317 249
-0.0027211732 0.77600002 -0.01224528 8.9264184e-39 318 249
-0.0013570799 0.77399999 -0.01221372 8.9264184e-39 319 249
0 0.77399999 -0.01221372 8.4658045e-39 320 249
0.0013570799 0.77399999 -0.01221372 7.8204351e-39 321 249
0.0027141599 0.77399999 -0.01221372 6.901018e-39 322 249
0.0040712398 0.77399999 -0.01221372 1.1879582e-38 323 249
0.0054283198 0.77399999 -0.01221372 1.3006475e-38 324 249
0.0067766332 0.773 -0.012197939 1.4666355e-38 325 249
0.0081319595 0.773 -0.012197939 1.3840207e-38 326 249
0.0094872871 0.773 -0.012197939 1.3748012e-38 327 249
0.010884693 0.77600002 -0.01224528 1.2732412e-38 328 249
0.01224528 0.77600002 -0.01224528 9.1367813e-39 329 249
0.013640933 0.778 -0.012276839 8.6642831e-39 330 249
0.015005025 0.778 -0.012276839 8.7564787e-39 331 249
0.016369121 0.778 -0.012276839 8.6804737e-39 332 249
0.017733213 0.778 -0.012276839 1.0616582e-38 333 249
0.019097306 0.778 -0.012276839 1.2178513e-38 334 249
-0.033201117 0.78899997 -0.013833799 1.5767636e-38 296 250
-0.031817738 0.78899997 -0.013833799 1.3186158e-38 297 250
-0.030434359 0.78899997 -0.013833799 1.1888908e-38 298 250
-0.02897734 0.787 -0.013798732 8.2929179e-39 299 250
-0.027597465 0.787 -0.013798732 8.1935168e-39 300 250
-0.026150968 0.78500003 -0.013763667 8.7466906e-39 301 250
-0.024711479 0.78299999 -0.013728599 8.285009e-39 302 250
-0.02333862 0.78299999 -0.013728599 8.1006178e-39 303 250
-0.021965759 0.78299999 -0.013728599 8.0080662e-39 304 250
-0.020513998 0.77999997 -0.013675999 7.7318394e-39 305 250
-0.0191464 0.77999997 -0.013675999 7.5492488e-39 306 250
-0.017733213 0.778 -0.013640933 7.5492488e-39 307 250
-0.01632704 0.77600002 -0.013605867 7.8233106e-39 308 250
-0.014966453 0.77600002 -0.013605867 7.8233106e-39 309 250
-0.013605867 0.77600002 -0.013605867 8.006976e-39 310 250
-0.01221372 0.77399999 -0.013570799 7.8225861e-39 311 250
-0.01085664 0.77399999 -0.013570799 7.9144118e-39 312 250
-0.0094995592 0.77399999 -0.013570799 7.9144118e-39 313 250
-0.0081424797 0.77399999 -0.013570799 7.9144118e-39 314 250
-0.0067853997 0.77399999 -0.013570799 7.9144118e-39 315 250
-0.0054283198 0.77399999 -0.013570799 8.2810433e-39 316 250
-0.0040817601 0.77600002 -0.013605867 8.4657933e-39 317 250
-0.0027211732 0.77600002 -0.013605867 8.6494755e-39 318 250
-0.0013570799 0.77399999 -0.013570799 8.6494755e-39 319 250
0 0.77399999 -0.013570799 7.1750811e-39 320 250
0.0013570799 0.77399999 -0.013570799 7.5442238e-39 321 250
0.0027141599 0.77399999 -0.013570799 8.389843e-39 322 250
0.0040712398 0.77399999 -0.013570799 1.3091821e-38 323 250
0.0054283198 0.77399999 -0.013570799 1.4483779e-38 324 250
0.0067766332 0.773 -0.013553266 1.4391223e-38 325 250
0.0081319595 0.773 -0.013553266 1.402352e-38 326 250
0.0094872871 0.773 -0.013553266 1.3009728e-38 327 250
0.010884693 0.77600002 -0.013605867 1.0516475e-38 328 250
0.01224528 0.77600002 -0.013605867 4.3393659e-39 329 250
0.013640933 0.778 -0.013640933 4.0483807e-39 330 250
0.015005025 0.778 -0.013640933 3.3108157e-39 331 250
0.016369121 0.778 -0.013640933 3.7958975e-39 332 250
0.017733213 0.778 -0.013640933 8.2212864e-39 333 250
0.019097306 0.778 -0.013640933 1.2638415e-38 334 250
-0.031858064 0.79000002 -0.015236467 1.3557465e-38 297 251
-0.030434359 0.78899997 -0.015217179 1.3181456e-38 298 251
-0.02905098 0.78899997 -0.015217179 9.4936289e-39 299 251
-0.027667599 0.78899997 -0.015217179 8.4719016e-39 300 251
-0.026217593 0.787 -0.015178605 8.0109234e-39 301 251
-0.0247746 0.78500003 -0.015140033 8.56087e-39 302 251
-0.02333862 0.78299999 -0.01510146 8.3764788e-39 303 251
-0.021965759 0.78299999 -0.01510146 7.8247539e-39 304 251
-0.020513998 0.77999997 -0.0150436 7.7325583e-39 305 251
-0.0191464 0.77999997 -0.0150436 7.5488929e-39 306 251
-0.017733213 0.778 -0.015005025 7.5488929e-39 307 251
-0.01632704 0.77600002 -0.014966453 7.6400095e-39 308 251
-0.014966453 0.77600002 -0.014966453 7.6400095e-39 309 251
-0.013605867 0.77600002 -0.014966453 7.732194e-39 310 251
-0.01221372 0.77399999 -0.014927879 7.6396396e-39 311 251
-0.01085664 0.77399999 -0.014927879 7.8225861e-39 312 251
-0.0094995592 0.77399999 -0.014927879 7.8225861e-39 313 251
-0.0081424797 0.77399999 -0.014927879 7.8229421e-39 314 251
-0.0067853997 0.77399999 -0.014927879 7.7307464e-39 315 251
-0.0054283198 0.77399999 -0.014927879 8.1895666e-39 316 251
-0.0040817601 0.77600002 -0.014966453 8.1895666e-39 317 251
-0.0027141599 0.77399999 -0.014927879 8.2810461e-39 318 251
-0.0013570799 0.77399999 -0.014927879 8.2810461e-39 319 251
0 0.77399999 -0.014927879 5.6128001e-39 320 251
0.0013570799 0.77399999 -0.014927879 8.8396472e-39 321 251
0.0027141599 0.77399999 -0.014927879 1.245007e-38 322 251
0.0040712398 0.77399999 -0.014927879 1.457021e-38 323 251
0.0054283198 0.77399999 -0.014927879 1.4115362e-38 324 251
0.0067766332 0.773 -0.014908593 1.4207916e-38 325 251
0.0081319595 0.773 -0.014908593 1.3560746e-38 326 251
0.0094872871 0.773 -0.014908593 7.8446173e-39 327 251
0.01085664 0.77399999 -0.014927879 7.1898704e-39 328 251
0.01224528 0.77600002 -0.014966453 4.8849811e-39 329 251
0.013640933 0.778 -0.015005025 6.0759447e-39 330 251
0.015005025 0.778 -0.015005025 4.8774029e-39 331 251
0.016369121 0.778 -0.015005025 5.2580656e-39 332 251
0.017733213 0.778 -0.015005025 9.1299233e-39 333 251
0.019097306 0.778 -0.015005025 1.3006108e-38 334 251
-0.030472934 0.79000002 -0.016621601 1.3737161e-38 298 252
-0.02905098 0.78899997 -0.016600559 1.0695066e-38 299 252
-0.027667599 0.78899997 -0.016600559 9.7633635e-39 300 252
-0.026217593 0.787 -0.01655848 8.1960378e-39 301 252
-0.0247746 0.78500003 -0.016516401 8.1942329e-39 302 252
-0.023398234 0.78500003 -0.016516401 8.2867873e-39 303 252
-0.021965759 0.78299999 -0.01647432 7.8258259e-39 304 252
-0.020513998 0.77999997 -0.016411198 7.7336303e-39 305 252
-0.0191464 0.77999997 -0.016411198 7.4574134e-39 306 252
-0.017733213 0.778 -0.016369121 7.4574134e-39 307 252
-0.01632704 0.77600002 -0.01632704 7.3648646e-39 308 252
-0.014966453 0.77600002 -0.01632704 7.3648646e-39 309 252
-0.013605867 0.77600002 -0.01632704 7.6403655e-39 310 252
-0.01221372 0.77399999 -0.016284959 7.6403655e-39 311 252
-0.01085664 0.77399999 -0.016284959 8.0066229e-39 312 252
-0.0094995592 0.77399999 -0.016284959 7.7300374e-39 313 252
-0.0081424797 0.77399999 -0.016284959 7.9140587e-39 314 252
-0.0067853997 0.77399999 -0.016284959 8.0062543e-39 315 252
-0.0054283198 0.77399999 -0.016284959 8.0066074e-39 316 252
-0.0040712398 0.77399999 -0.016284959 8.0066074e-39 317 252
-0.0027141599 0.77399999 -0.016284959 7.8211386e-39 318 252
-0.0013570799 0.77399999 -0.016284959 7.1757692e-39 319 252
0 0.77399999 -0.016284959 6.3536021e-39 320 252
0.0013570799 0.77399999 -0.016284959 1.1516557e-38 321 252
0.0027141599 0.77399999 -0.016284959 1.4848243e-38 322 252
0.0040712398 0.77399999 -0.016284959 1.5217025e-38 323 252
0.0054283198 0.77399999 -0.016284959 1.3746584e-38 324 252
0.0067766332 0.773 -0.016263919 1.3562193e-38 325 252
0.0081319595 0.773 -0.016263919 1.2360033e-38 326 252
0.0094872871 0.773 -0.016263919 2.6798516e-39 327 252
0.01085664 0.77399999 -0.016284959 4.600837e-39 328 252
0.01224528 0.77600002 -0.01632704 6.6291423e-39 329 252
0.013640933 0.778 -0.016369121 7.2734159e-39 330 252
0.015005025 0.778 -0.016369121 6.6280464e-39 331 252
0.016369121 0.778 -0.016369121 6.0842137e-39 332 252
0.017733213 0.778 -0.016369121 8.020322e-39 333 252
0.019097306 0.778 -0.016369121 1.2544038e-38 334 252
-0.02905098 0.78899997 -0.017983939 1.1435162e-38 299 253
-0.027667599 0.78899997 -0.017983939 1.1332502e-38 300 253
-0.026284218 0.78899997 -0.017983939 9.3041986e-39 301 253
-0.024837719 0.787 -0.017938353 8.0138073e-39 302 253
-0.023398234 0.78500003 -0.017892767 7.3684379e-39 303 253
-0.021965759 0.78299999 -0.017847179 7.4595671e-39 304 253
-0.020540299 0.78100002 -0.017801592 7.2751759e-39 305 253
-0.0191464 0.77999997 -0.017778799 7.5488929e-39 306 253
-0.017733213 0.778 -0.017733213 7.5488929e-39 307 253
-0.016369121 0.778 -0.017733213 7.2737508e-39 308 253
-0.014966453 0.77600002 -0.017687626 7.2737508e-39 309 253
-0.013605867 0.77600002 -0.017687626 7.5488957e-39 310 253
-0.01221372 0.77399999 -0.01764204 7.5488957e-39 311 253
-0.01085664 0.77399999 -0.01764204 7.7318422e-39 312 253
-0.0094995592 0.77399999 -0.01764204 7.7318422e-39 313 253
-0.0081424797 0.77399999 -0.01764204 8.0066229e-39 314 253
-0.0067853997 0.77399999 -0.01764204 8.0988185e-39 315 253
-0.0054283198 0.77399999 -0.01764204 7.7321912e-39 316 253
-0.0040712398 0.77399999 -0.01764204 7.9162237e-39 317 253
-0.0027141599 0.77399999 -0.01764204 6.8088097e-39 318 253
-0.0013570799 0.77399999 -0.01764204 6.5318627e-39 319 253
0 0.77399999 -0.01764204 1.1061718e-38 320 253
0.0013570799 0.77399999 -0.01764204 1.3919784e-38 321 253
0.0027141599 0.77399999 -0.01764204 1.4390507e-38 322 253
0.0040712398 0.77399999 -0.01764204 1.4206116e-38 323 253
0.0054283198 0.77399999 -0.01764204 1.3654388e-38 324 253
0.0067766332 0.773 -0.017619247 1.0058757e-38 325 253
0.0081319595 0.773 -0.017619247 7.656245e-39 326 253
0.0094995592 0.77399999 -0.01764204 2.3088971e-39 327 253
0.01085664 0.77399999 -0.01764204 7.7268326e-39 328 253
0.01224528 0.77600002 -0.017687626 8.556952e-39 329 253
0.013640933 0.778 -0.017733213 6.9057067e-39 330 253
0.015005025 0.778 -0.017733213 7.3666835e-39 331 253
0.016369121 0.778 -0.017733213 6.8192718e-39 332 253
0.017733213 0.778 -0.017733213 7.7412267e-39 333 253
0.019097306 0.778 -0.017733213 1.2268177e-38 334 253
-0.027667599 0.78899997 -0.019367319 1.1522311e-38 300 254
-0.026284218 0.78899997 -0.019367319 9.5862029e-39 301 254
-0.024837719 0.787 -0.019318225 9.3960285e-39 302 254
-0.023398234 0.78500003 -0.019269135 8.2896809e-39 303 254
-0.021965759 0.78299999 -0.019220039 8.1027687e-39 304 254
-0.020540299 0.78100002 -0.019170946 7.9183775e-39 305 254
-0.0191464 0.77999997 -0.0191464 7.5499677e-39 306 254
-0.017733213 0.778 -0.019097306 7.4574134e-39 307 254
-0.016369121 0.778 -0.019097306 7.2741039e-39 308 254
-0.014966453 0.77600002 -0.019048214 7.3662995e-39 309 254
-0.013605867 0.77600002 -0.019048214 7.5499677e-39 310 254
-0.01221372 0.77399999 -0.018999118 7.5499677e-39 311 254
-0.01085664 0.77399999 -0.018999118 7.9151517e-39 312 254
-0.0094995592 0.77399999 -0.018999118 7.9151517e-39 313 254
-0.0081424797 0.77399999 -0.018999118 7.6403585e-39 314 254
-0.0067853997 0.77399999 -0.018999118 7.7325555e-39 315 254
-0.0054283198 0.77399999 -0.018999118 8.0080564e-39 316 254
-0.0040712398 0.77399999 -0.018999118 8.0080564e-39 317 254
-0.0027141599 0.77399999 -0.018999118 6.4389636e-39 318 254
-0.0013570799 0.77399999 -0.018999118 7.7297025e-39 319 254
0 0.77399999 -0.018999118 1.3462064e-38 320 254
0.0013570799 0.77399999 -0.018999118 1.4844999e-38 321 254
0.0027141599 0.77399999 -0.018999118 1.3930618e-38 322 254
0.0040712398 0.77399999 -0.018999118 1.3654391e-38 323 254
0.0054283198 0.77399999 -0.018999118 1.2274339e-38 324 254
0.0067766332 0.773 -0.018974574 5.1752769e-39 325 254
0.0081319595 0.773 -0.018974574 3.8715522e-39 326 254
0.0094995592 0.77399999 -0.018999118 4.1481377e-39 327 254
0.01085664 0.77399999 -0.018999118 7.2734004e-39 328 254
0.01224528 0.77600002 -0.019048214 7.1812048e-39 329 254
0.013640933 0.778 -0.019097306 6.9982555e-39 330 254
0.015005025 0.778 -0.019097306 7.0904511e-39 331 254
0.016369121 0.778 -0.019097306 7.001868e-39 332 254
0.017733213 0.778 -0.019097306 8.0160186e-39 333 254
-0.026284218 0.78899997 -0.0207507 1.0050791e-38 301 255
-0.024837719 0.787 -0.0206981 1.0410553e-38 302 255
-0.023398234 0.78500003 -0.020645501 9.1198144e-39 303 255
-0.022021867 0.78500003 -0.020645501 8.2893278e-39 304 255
-0.020540299 0.78100002 -0.020540299 7.6439584e-39 305 255
-0.0191464 0.77999997 -0.020513998 7.5517656e-39 306 255
-0.017778799 0.77999997 -0.020513998 7.27482e-39 307 255
-0.016369121 0.778 -0.020461399 7.5499649e-39 308 255
-0.014966453 0.77600002 -0.0204088 7.5499649e-39 309 255
-0.013605867 0.77600002 -0.0204088 7.5499621e-39 310 255
-0.01221372 0.77399999 -0.020356199 7.5499621e-39 311 255
-0.01085664 0.77399999 -0.020356199 7.7325583e-39 312 255
-0.0094995592 0.77399999 -0.020356199 7.6403627e-39 313 255
-0.0081424797 0.77399999 -0.020356199 7.7325583e-39 314 255
-0.0067853997 0.77399999 -0.020356199 7.8247539e-39 315 255
-0.0054283198 0.77399999 -0.020356199 7.7318394e-39 316 255
-0.0040712398 0.77399999 -0.020356199 7.2705012e-39 317 255
-0.0027141599 0.77399999 -0.020356199 7.0882987e-39 318 255
-0.0013570799 0.77399999 -0.020356199 1.086832e-38 319 255
0 0.77399999 -0.020356199 1.4756047e-38 320 255
0.0013570799 0.77399999 -0.020356199 1.4571656e-38 321 255
0.0027141599 0.77399999 -0.020356199 1.3379246e-38 322 255
0.0040712398 0.77399999 -0.020356199 1.2273257e-38 323 255
0.0054283198 0.77399999 -0.020356199 1.0241704e-38 324 255
0.0067853997 0.77399999 -0.020356199 1.944097e-39 325 255
0.0081424797 0.77399999 -0.020356199 3.3147687e-39 326 255
0.0094995592 0.77399999 -0.020356199 5.5271037e-39 327 255
0.010884693 0.77600002 -0.0204088 6.9964534e-39 328 255
0.01224528 0.77600002 -0.0204088 7.088649e-39 329 255
0.013640933 0.778 -0.020461399 6.9053368e-39 330 255
0.015005025 0.778 -0.020461399 7.3663149e-39 331 255
0.016369121 0.778 -0.020461399 7.0944168e-39 332 255
0.017733213 0.778 -0.020461399 7.6475906e-39 333 255
0.019097306 0.778 -0.020461399 1.3554597e-38 334 255
-0.026284218 0.78899997 -0.022134079 1.0789442e-38 301 256
-0.024900839 0.78899997 -0.022134079 1.0782578e-38 302 256
-0.023457846 0.787 -0.022077972 9.3992851e-39 303 256
-0.022021867 0.78500003 -0.022021867 8.9361364e-39 304 256
-0.020540299 0.78100002 -0.021909652 8.0145388e-39 305 256
-0.019170946 0.78100002 -0.021909652 7.7379491e-39 306 256
-0.017778799 0.77999997 -0.021881599 7.3691666e-39 307 256
-0.016369121 0.778 -0.021825492 7.55176e-39 308 256
-0.014966453 0.77600002 -0.021769386 7.4595643e-39 309 256
-0.013605867 0.77600002 -0.021769386 7.550681e-39 310 256
-0.01224528 0.77600002 -0.021769386 7.3666498e-39 311 256
-0.01085664 0.77399999 -0.021713279 7.549246e-39 312 256
-0.0094995592 0.77399999 -0.021713279 7.549246e-39 313 256
-0.0081424797 0.77399999 -0.021713279 7.7325611e-39 314 256
-0.0067853997 0.77399999 -0.021713279 7.7325611e-39 315 256
-0.0054283198 0.77399999 -0.021713279 7.0875602e-39 316 256
-0.0040712398 0.77399999 -0.021713279 6.257801e-39 317 256
-0.0027141599 0.77399999 -0.021713279 8.5706385e-39 318 256
-0.0013570799 0.77399999 -0.021713279 1.2166627e-38 319 256
0 0.77399999 -0.021713279 1.3930252e-38 320 256
0.0013570799 0.77399999 -0.021713279 1.3653664e-38 321 256
0.0027141599 0.77399999 -0.021713279 1.3379249e-38 322 256
0.0040712398 0.77399999 -0.021713279 9.9680091e-39 323 256
0.0054283198 0.77399999 -0.021713279 6.0925248e-39 324 256
0.0067853997 0.77399999 -0.021713279 1.574939e-39 325 256
0.0081424797 0.77399999 -0.021713279 5.0617941e-39 326 256
0.0094995592 0.77399999 -0.021713279 6.2603373e-39 327 256
0.010884693 0.77600002 -0.021769386 6.7209455e-39 328 256
0.012276839 0.778 -0.021825492 6.9053368e-39 329 256
0.013640933 0.778 -0.021825492 6.9982583e-39 330 256
0.015005025 0.778 -0.021825492 7.6436277e-39 331 256
0.016369121 0.778 -0.021825492 6.8167551e-39 332 256
0.017733213 0.778 -0.021825492 7.9231013e-39 333 256
-0.024900839 0.78899997 -0.023517458 1.1155324e-38 302 257
-0.023457846 0.787 -0.023457846 9.7720305e-39 303 257
-0.022021867 0.78500003 -0.023398234 9.2156001e-39 304 257
-0.020540299 0.78100002 -0.023279008 8.4780351e-39 305 257
-0.019170946 0.78100002 -0.023279008 8.108877e-39 306 257
-0.017778799 0.77999997 -0.023249198 7.6478989e-39 307 257
-0.016411198 0.77999997 -0.023249198 7.9212459e-39 308 257
-0.015005025 0.778 -0.023189586 7.6450178e-39 309 257
-0.013605867 0.77600002 -0.023129974 7.5524662e-39 310 257
-0.01224528 0.77600002 -0.023129974 7.4602706e-39 311 257
-0.010884693 0.77600002 -0.023129974 7.5503152e-39 312 257
-0.0094995592 0.77399999 -0.02307036 7.4581196e-39 313 257
-0.0081424797 0.77399999 -0.02307036 7.5496118e-39 314 257
-0.0067853997 0.77399999 -0.02307036 7.4574162e-39 315 257
-0.0054283198 0.77399999 -0.02307036 6.1699424e-39 316 257
-0.0040712398 0.77399999 -0.02307036 6.1699424e-39 317 257
-0.0027141599 0.77399999 -0.02307036 1.0234145e-38 318 257
-0.0013570799 0.77399999 -0.02307036 1.3184404e-38 319 257
0 0.77399999 -0.02307036 1.2734242e-38 320 257
0.0013570799 0.77399999 -0.02307036 1.2642047e-38 321 257
0.0027141599 0.77399999 -0.02307036 1.2458737e-38 322 257
0.0040712398 0.77399999 -0.02307036 6.4656626e-39 323 257
0.0054283198 0.77399999 -0.02307036 1.7571694e-39 324 257
0.0067853997 0.77399999 -0.02307036 2.2181476e-39 325 257
0.0081424797 0.77399999 -0.02307036 6.2603233e-39 326 257
0.009524107 0.77600002 -0.023129974 6.4443558e-39 327 257
0.010912746 0.778 -0.023189586 6.445432e-39 328 257
0.012276839 0.778 -0.023189586 6.8142132e-39 329 257
0.013640933 0.778 -0.023189586 6.6319939e-39 330 257
0.015005025 0.778 -0.023189586 7.2773633e-39 331 257
0.016369121 0.778 -0.023189586 5.989158e-39 332 257
0.017733213 0.778 -0.023189586 8.2022119e-39 333 257
-0.023457846 0.787 -0.024837719 1.0144426e-38 303 258
-0.022021867 0.78500003 -0.0247746 9.6794663e-39 304 258
-0.020540299 0.78100002 -0.024648361 8.7575086e-39 305 258
-0.019170946 0.78100002 -0.024648361 8.7538961e-39 306 258
-0.017778799 0.77999997 -0.024616797 8.2929179e-39 307 258
-0.016411198 0.77999997 -0.024616797 7.7404644e-39 308 258
-0.015005025 0.778 -0.024553679 7.4642363e-39 309 258
-0.013640933 0.778 -0.024553679 7.554634e-39 310 258
-0.01224528 0.77600002 -0.024490559 7.3702428e-39 311 258
-0.010884693 0.77600002 -0.024490559 7.4602832e-39 312 258
-0.0094995592 0.77399999 -0.02442744 7.3680876e-39 313 258
-0.0081424797 0.77399999 -0.02442744 7.183353e-39 314 258
-0.0067853997 0.77399999 -0.02442744 6.9989617e-39 315 258
-0.0054283198 0.77399999 -0.02442744 6.4515809e-39 316 258
-0.0040712398 0.77399999 -0.02442744 8.0192668e-39 317 258
-0.0027141599 0.77399999 -0.02442744 1.1529218e-38 318 258
-0.0013570799 0.77399999 -0.02442744 1.2819957e-38 319 258
0 0.77399999 -0.02442744 1.0987217e-38 320 258
0.0013570799 0.77399999 -0.02442744 1.0341848e-38 321 258
0.0027141599 0.77399999 -0.02442744 8.311729e-39 322 258
0.0040712398 0.77399999 -0.02442744 3.0565781e-39 323 258
0.0054283198 0.77399999 -0.02442744 2.1219821e-39 324 258
0.0068029333 0.77600002 -0.024490559 3.9658947e-39 325 258
0.0081635201 0.77600002 -0.024490559 6.0784474e-39 326 258
