# .PCD v.7 - Point Cloud Data file format
FIELDS x y z rgb imX imY
SIZE 4 4 4 4 4 4
TYPE F F F F F F
COUNT 1 1 1 1 1 1
WIDTH 837
HEIGHT 1
VIEWPOINT 0 0 0 1 0 0 0
POINTS 837
DATA ascii
-0.027281865 0.778 0.0027281865 7.1631687e-39 300 238
-0.025851147 0.77600002 0.0027211732 9.1860677e-39 301 238
-0.024490559 0.77600002 0.0027211732 1.1116459e-38 302 238
-0.02307036 0.77399999 0.0027141599 1.3328794e-38 303 238
-0.021713279 0.77399999 0.0027141599 1.5174852e-38 304 238
-0.020356199 0.77399999 0.0027141599 1.6834733e-38 305 238
-0.018974574 0.773 0.0027106532 1.8400234e-38 306 238
-0.017619247 0.773 0.0027106532 1.8677181e-38 307 238
-0.016263919 0.773 0.0027106532 1.9409332e-38 308 238
-0.014908593 0.773 0.0027106532 1.9040551e-38 309 238
-0.013553266 0.773 0.0027106532 1.9227073e-38 310 238
-0.01216638 0.77100003 0.0027036399 2.0978432e-38 311 238
-0.010786506 0.76899999 0.0026966266 2.1165715e-38 312 238
-0.0094136465 0.76700002 0.0026896133 1.9229607e-38 313 238
-0.00806884 0.76700002 0.0026896133 1.2142792e-38 314 238
-0.006724033 0.76700002 0.0026896133 9.7457043e-39 315 238
-0.0053722127 0.76599997 0.0026861064 1.0108376e-38 316 238
-0.0040291594 0.76599997 0.0026861064 8.7250896e-39 317 238
-0.0026861064 0.76599997 0.0026861064 1.0377422e-38 318 238
-0.0013430532 0.76599997 0.0026861064 1.2309584e-38 319 238
0 0.76700002 0.0026896133 1.4252525e-38 320 238
0.0013448066 0.76700002 0.0026896133 1.5635461e-38 321 238
0.0026966266 0.76899999 0.0026966266 1.7382843e-38 322 238
0.0040449398 0.76899999 0.0026966266 1.7382843e-38 323 238
0.0053932532 0.76899999 0.0026966266 1.8110684e-38 324 238
0.0067415666 0.76899999 0.0026966266 1.7926293e-38 325 238
0.0081109209 0.77100003 0.0027036399 1.7742625e-38 326 238
0.0094627403 0.77100003 0.0027036399 1.7927014e-38 327 238
0.010842613 0.773 0.0027106532 1.7194839e-38 328 238
0.012197939 0.773 0.0027106532 1.7655817e-38 329 238
0.013570799 0.77399999 0.0027141599 1.572403e-38 330 238
0.014966453 0.77600002 0.0027211732 1.3418781e-38 331 238
0.01632704 0.77600002 0.0027211732 1.2688431e-38 332 238
0.017778799 0.77999997 0.0027351999 1.4071366e-38 333 238
0.019170946 0.78100002 0.0027387065 1.3887728e-38 334 238
0.0205929 0.78299999 0.0027457199 1.8036892e-38 335 238
0.022021867 0.78500003 0.0027527334 1.9358957e-38 336 238
-0.034189999 0.77999997 0.0013675999 1.4000081e-38 295 239
-0.032822397 0.77999997 0.0013675999 1.3883028e-38 296 239
-0.031454798 0.77999997 0.0013675999 1.047179e-38 297 239
-0.03001005 0.778 0.0013640933 2.4795584e-39 298 239
-0.028645959 0.778 0.0013640933 5.4276297e-39 299 239
-0.027281865 0.778 0.0013640933 1.1677882e-38 300 239
-0.025851147 0.77600002 0.0013605866 1.5181676e-38 301 239
-0.02442744 0.77399999 0.0013570799 1.8306616e-38 302 239
-0.02307036 0.77399999 0.0013570799 1.885979e-38 303 239
-0.021713279 0.77399999 0.0013570799 1.9227834e-38 304 239
-0.020356199 0.77399999 0.0013570799 1.8398074e-38 305 239
-0.018974574 0.773 0.0013553266 1.8849322e-38 306 239
-0.017619247 0.773 0.0013553266 1.8296149e-38 307 239
-0.016221842 0.77100003 0.00135182 1.8202857e-38 308 239
-0.01487002 0.77100003 0.00135182 1.7834435e-38 309 239
-0.013518199 0.77100003 0.00135182 1.8022063e-38 310 239
-0.01216638 0.77100003 0.00135182 2.124891e-38 311 239
-0.010786506 0.76899999 0.0013483133 2.0890946e-38 312 239
-0.0094136465 0.76700002 0.0013448066 1.9968989e-38 313 239
-0.00806884 0.76700002 0.0013448066 1.3825363e-38 314 239
-0.006724033 0.76700002 0.0013448066 1.5669276e-38 315 239
-0.0053722127 0.76599997 0.0013430532 2.0066615e-38 316 239
-0.0040291594 0.76599997 0.0013430532 1.7577333e-38 317 239
-0.0026861064 0.76599997 0.0013430532 1.4888529e-38 318 239
-0.0013430532 0.76599997 0.0013430532 1.0744753e-38 319 239
0 0.76700002 0.0013448066 6.5203202e-39 320 239
0.0013448066 0.76700002 0.0013448066 7.993637e-39 321 239
0.0026896133 0.76700002 0.0013448066 1.3518555e-38 322 239
0.00403442 0.76700002 0.0013448066 1.4994045e-38 323 239
0.0053792265 0.76700002 0.0013448066 1.7562921e-38 324 239
0.0067415666 0.76899999 0.0013483133 1.6640966e-38 325 239
0.0080898795 0.76899999 0.0013483133 1.7467482e-38 326 239
0.0094627403 0.77100003 0.00135182 1.7559678e-38 327 239
0.01081456 0.77100003 0.00135182 1.7103742e-38 328 239
0.01216638 0.77100003 0.00135182 1.7472523e-38 329 239
0.013553266 0.773 0.0013553266 1.6186455e-38 330 239
0.014927879 0.77399999 0.0013570799 1.4987911e-38 331 239
0.01632704 0.77600002 0.0013605866 1.2961052e-38 332 239
0.017733213 0.778 0.0013640933 1.3145083e-38 333 239
0.0191464 0.77999997 0.0013675999 1.2878971e-38 334 239
0.0205929 0.78299999 0.0013728599 1.7396557e-38 335 239
0.022021867 0.78500003 0.0013763667 1.9174208e-38 336 239
-0.034321502 0.78299999 -0 1.0591008e-38 295 240
-0.032822397 0.77999997 -0 7.901468e-39 296 240
-0.031454798 0.77999997 -0 7.901468e-39 297 240
-0.03001005 0.778 -0 1.0652927e-38 298 240
-0.028645959 0.778 -0 1.4524785e-38 299 240
-0.027211733 0.77600002 -0 1.6461256e-38 300 240
-0.025851147 0.77600002 -0 1.8397364e-38 301 240
-0.02442744 0.77399999 -0 1.9135243e-38 302 240
-0.02307036 0.77399999 -0 1.8213647e-38 303 240
-0.021713279 0.77399999 -0 1.8763199e-38 304 240
-0.020356199 0.77399999 -0 1.7933438e-38 305 240
-0.018974574 0.773 -0 1.8202842e-38 306 240
-0.01757366 0.77100003 -0 1.7557472e-38 307 240
-0.016221842 0.77100003 -0 1.774116e-38 308 240
-0.01487002 0.77100003 -0 1.792555e-38 309 240
-0.013518199 0.77100003 -0 1.7833394e-38 310 240
-0.01216638 0.77100003 -0 1.9769502e-38 311 240
-0.010758453 0.76700002 -0 1.9413667e-38 312 240
-0.0094136465 0.76700002 -0 1.7846342e-38 313 240
-0.00806884 0.76700002 -0 1.3450117e-38 314 240
-0.006724033 0.76700002 -0 1.7506364e-38 315 240
-0.0053722127 0.76599997 -0 2.1451017e-38 316 240
-0.0040291594 0.76599997 -0 2.0897843e-38 317 240
-0.0026861064 0.76599997 -0 1.9692014e-38 318 240
-0.0013430532 0.76599997 -0 1.6188222e-38 319 240
0 0.76700002 -0 1.415307e-38 320 240
0.0013448066 0.76700002 -0 1.157199e-38 321 240
0.0026896133 0.76700002 -0 1.0476106e-38 322 240
0.00403442 0.76700002 -0 1.2227821e-38 323 240
0.0053792265 0.76700002 -0 1.4713878e-38 324 240
0.006724033 0.76700002 -0 1.5174854e-38 325 240
0.0080898795 0.76899999 -0 1.7011196e-38 326 240
0.0094381925 0.76899999 -0 1.7287423e-38 327 240
0.01081456 0.77100003 -0 1.6828612e-38 328 240
0.01216638 0.77100003 -0 1.6736417e-38 329 240
0.013553266 0.773 -0 1.5910233e-38 330 240
0.014927879 0.77399999 -0 1.535742e-38 331 240
0.01632704 0.77600002 -0 1.4253935e-38 332 240
0.017733213 0.778 -0 1.3239785e-38 333 240
0.0191464 0.77999997 -0 1.2326518e-38 334 240
0.0205929 0.78299999 -0 1.7028495e-38 335 240
0.021965759 0.78299999 -0 1.899054e-38 336 240
-0.034321502 0.78299999 -0.0013728599 5.3398061e-39 295 241
-0.032864477 0.78100002 -0.0013693533 1.3775324e-39 296 241
-0.031454798 0.77999997 -0.0013675999 5.9847846e-39 297 241
-0.03001005 0.778 -0.0013640933 1.5914922e-38 298 241
-0.028645959 0.778 -0.0013640933 1.7297857e-38 299 241
-0.027211733 0.77600002 -0.0013605866 1.8673216e-38 300 241
-0.025851147 0.77600002 -0.0013605866 1.7566868e-38 301 241
-0.02442744 0.77399999 -0.0013570799 1.8206457e-38 302 241
-0.02307036 0.77399999 -0.0013570799 1.7468892e-38 303 241
-0.021713279 0.77399999 -0.0013570799 1.7649683e-38 304 241
-0.020356199 0.77399999 -0.0013570799 1.7649683e-38 305 241
-0.018974574 0.773 -0.0013553266 1.7466374e-38 306 241
-0.01757366 0.77100003 -0.00135182 1.7466374e-38 307 241
-0.016221842 0.77100003 -0.00135182 1.7741516e-38 308 241
-0.01487002 0.77100003 -0.00135182 1.7925547e-38 309 241
-0.013518199 0.77100003 -0.00135182 1.8017044e-38 310 241
-0.01216638 0.77100003 -0.00135182 1.7648261e-38 311 241
-0.010758453 0.76700002 -0.0013448066 1.6356819e-38 312 241
-0.0094136465 0.76700002 -0.0013448066 1.2765135e-38 313 241
-0.00806884 0.76700002 -0.0013448066 9.0189615e-39 314 241
-0.006724033 0.76700002 -0.0013448066 1.4827286e-38 315 241
-0.0053722127 0.76599997 -0.0013430532 1.9327628e-38 316 241
-0.0040291594 0.76599997 -0.0013430532 2.0526171e-38 317 241
-0.0026861064 0.76599997 -0.0013430532 2.1722529e-38 318 241
-0.0013430532 0.76599997 -0.0013430532 2.1814726e-38 319 241
0 0.76700002 -0.0013448066 1.9322548e-38 320 241
0.0013448066 0.76700002 -0.0013448066 1.4067397e-38 321 241
0.0026861064 0.76599997 -0.0013430532 7.4386752e-39 322 241
0.0040291594 0.76599997 -0.0013430532 7.7141817e-39 323 241
0.0053792265 0.76700002 -0.0013448066 1.0850296e-38 324 241
0.006724033 0.76700002 -0.0013448066 1.3155185e-38 325 241
0.00806884 0.76700002 -0.0013448066 1.6462707e-38 326 241
0.0094381925 0.76899999 -0.0013483133 1.6185761e-38 327 241
0.01081456 0.77100003 -0.00135182 1.6187196e-38 328 241
0.01216638 0.77100003 -0.00135182 1.5818053e-38 329 241
0.013518199 0.77100003 -0.00135182 1.6001003e-38 330 241
0.014908593 0.773 -0.0013553266 1.6001003e-38 331 241
0.016284959 0.77399999 -0.0013570799 1.4901848e-38 332 241
0.017687626 0.77600002 -0.0013605866 1.4809294e-38 333 241
0.019097306 0.778 -0.0013640933 1.1589679e-38 334 241
0.020513998 0.77999997 -0.0013675999 1.6015069e-38 335 241
0.021881599 0.77999997 -0.0013675999 1.9174211e-38 336 241
-0.035603184 0.78100002 -0.0027387065 5.0700408e-39 294 242
-0.034233831 0.78100002 -0.0027387065 3.5023549e-39 295 242
-0.032822397 0.77999997 -0.0027351999 1.167715e-38 296 242
-0.031454798 0.77999997 -0.0027351999 1.3428867e-38 297 242
-0.03001005 0.778 -0.0027281865 1.6922921e-38 298 242
-0.028645959 0.778 -0.0027281865 1.6922921e-38 299 242
-0.027211733 0.77600002 -0.0027211732 1.7195542e-38 300 242
-0.025851147 0.77600002 -0.0027211732 1.682676e-38 301 242
-0.024490559 0.77600002 -0.0027211732 1.7742249e-38 302 242
-0.02307036 0.77399999 -0.0027141599 1.7466021e-38 303 242
-0.021713279 0.77399999 -0.0027141599 1.719017e-38 304 242
-0.020356199 0.77399999 -0.0027141599 1.719017e-38 305 242
-0.018974574 0.773 -0.0027106532 1.7465671e-38 306 242
-0.017619247 0.773 -0.0027106532 1.7465671e-38 307 242
-0.016221842 0.77100003 -0.0027036399 1.7374176e-38 308 242
-0.01487002 0.77100003 -0.0027036399 1.7466371e-38 309 242
-0.013518199 0.77100003 -0.0027036399 1.7650779e-38 310 242
-0.01216638 0.77100003 -0.0027036399 1.6913214e-38 311 242
-0.010758453 0.76700002 -0.0026896133 1.3694654e-38 312 242
-0.0094136465 0.76700002 -0.0026896133 1.0744753e-38 313 242
-0.00806884 0.76700002 -0.0026896133 1.1853626e-38 314 242
-0.006724033 0.76700002 -0.0026896133 1.6279016e-38 315 242
-0.0053792265 0.76700002 -0.0026896133 1.7838806e-38 316 242
-0.0040291594 0.76599997 -0.0026861064 1.9037347e-38 317 242
-0.0026861064 0.76599997 -0.0026861064 1.9413693e-38 318 242
-0.0013430532 0.76599997 -0.0026861064 2.0519681e-38 319 242
0 0.76599997 -0.0026861064 1.9500841e-38 320 242
0.0013430532 0.76599997 -0.0026861064 1.7380701e-38 321 242
0.0026861064 0.76599997 -0.0026861064 1.3961528e-38 322 242
0.0040291594 0.76599997 -0.0026861064 1.2214121e-38 323 242
0.0053722127 0.76599997 -0.0026861064 7.1649722e-39 324 242
0.006724033 0.76700002 -0.0026896133 1.1037189e-38 325 242
0.00806884 0.76700002 -0.0026896133 1.4810395e-38 326 242
0.0094381925 0.76899999 -0.0026966266 1.5178817e-38 327 242
0.010786506 0.76899999 -0.0026966266 1.6004249e-38 328 242
0.012134819 0.76899999 -0.0026966266 1.5542911e-38 329 242
0.013518199 0.77100003 -0.0027036399 1.554218e-38 330 242
0.014908593 0.773 -0.0027106532 1.554218e-38 331 242
0.016284959 0.77399999 -0.0027141599 1.5176637e-38 332 242
0.01764204 0.77399999 -0.0027141599 1.5637615e-38 333 242
0.018999118 0.77399999 -0.0027141599 1.2233969e-38 334 242
0.020513998 0.77999997 -0.0027351999 1.6106184e-38 335 242
-0.034233831 0.78100002 -0.0041080597 4.7848247e-39 295 243
-0.032822397 0.77999997 -0.0041027996 1.5269187e-38 296 243
-0.031374145 0.778 -0.0040922803 1.5545414e-38 297 243
-0.03001005 0.778 -0.0040922803 1.6826782e-38 298 243
-0.028572321 0.77600002 -0.0040817601 1.6734587e-38 299 243
-0.027211733 0.77600002 -0.0040817601 1.6824987e-38 300 243
-0.025851147 0.77600002 -0.0040817601 1.6640236e-38 301 243
-0.024490559 0.77600002 -0.0040817601 1.7006857e-38 302 243
-0.02307036 0.77399999 -0.0040712398 1.719089e-38 303 243
-0.021713279 0.77399999 -0.0040712398 1.7007213e-38 304 243
-0.020356199 0.77399999 -0.0040712398 1.6915018e-38 305 243
-0.018999118 0.77399999 -0.0040712398 1.7097961e-38 306 243
-0.017619247 0.773 -0.0040659797 1.7281993e-38 307 243
-0.016221842 0.77100003 -0.0040554604 1.7098312e-38 308 243
-0.01487002 0.77100003 -0.0040554604 1.7098312e-38 309 243
-0.013518199 0.77100003 -0.0040554604 1.7376356e-38 310 243
-0.01216638 0.77100003 -0.0040554604 1.580939e-38 311 243
-0.010786506 0.76899999 -0.0040449398 1.0566464e-38 312 243
-0.0094136465 0.76700002 -0.00403442 1.065866e-38 313 243
-0.00806884 0.76700002 -0.00403442 1.4614067e-38 314 243
-0.006724033 0.76700002 -0.00403442 1.6550176e-38 315 243
-0.0053792265 0.76700002 -0.00403442 1.7188009e-38 316 243
-0.00403442 0.76700002 -0.00403442 1.7095813e-38 317 243
-0.0026861064 0.76599997 -0.0040291594 1.7282735e-38 318 243
-0.0013430532 0.76599997 -0.0040291594 1.7559681e-38 319 243
0 0.76599997 -0.0040291594 1.8480914e-38 320 243
0.0013430532 0.76599997 -0.0040291594 1.8480914e-38 321 243
0.0026861064 0.76599997 -0.0040291594 1.6819219e-38 322 243
0.0040291594 0.76599997 -0.0040291594 1.4237742e-38 323 243
0.0053722127 0.76599997 -0.0040291594 6.0611427e-39 324 243
0.006724033 0.76700002 -0.00403442 9.8361273e-39 325 243
0.00806884 0.76700002 -0.00403442 1.2329765e-38 326 243
0.0094381925 0.76899999 -0.0040449398 1.3436111e-38 327 243
0.010786506 0.76899999 -0.0040449398 1.5636556e-38 328 243
0.012134819 0.76899999 -0.0040449398 1.5175938e-38 329 243
0.013518199 0.77100003 -0.0040554604 1.5542545e-38 330 243
0.014908593 0.773 -0.0040659797 1.5542545e-38 331 243
0.016263919 0.773 -0.0040659797 1.5085534e-38 332 243
0.01764204 0.77399999 -0.0040712398 1.5638708e-38 333 243
0.018999118 0.77399999 -0.0040712398 1.288042e-38 334 243
0.020356199 0.77399999 -0.0040712398 1.6752637e-38 335 243
-0.034189999 0.77999997 -0.0054703997 1.112833e-38 295 244
-0.032738242 0.778 -0.0054563731 1.6277214e-38 296 244
-0.031374145 0.778 -0.0054563731 1.6000987e-38 297 244
-0.03001005 0.778 -0.0054563731 1.6824981e-38 298 244
-0.028572321 0.77600002 -0.0054423464 1.6824981e-38 299 244
-0.027211733 0.77600002 -0.0054423464 1.6641316e-38 300 244
-0.025851147 0.77600002 -0.0054423464 1.6364728e-38 301 244
-0.024490559 0.77600002 -0.0054423464 1.654804e-38 302 244
-0.023129974 0.77600002 -0.0054423464 1.6640236e-38 303 244
-0.021713279 0.77399999 -0.0054283198 1.6823188e-38 304 244
-0.020356199 0.77399999 -0.0054283198 1.6546602e-38 305 244
-0.018999118 0.77399999 -0.0054283198 1.6913936e-38 306 244
-0.017619247 0.773 -0.0054213065 1.6913936e-38 307 244
-0.016221842 0.77100003 -0.0054072798 1.6912847e-38 308 244
-0.01487002 0.77100003 -0.0054072798 1.6912847e-38 309 244
-0.013518199 0.77100003 -0.0054072798 1.6732791e-38 310 244
-0.01216638 0.77100003 -0.0054072798 1.4335705e-38 311 244
-0.010786506 0.76899999 -0.0053932532 7.7148991e-39 312 244
-0.0094136465 0.76700002 -0.0053792265 1.1126118e-38 313 244
-0.00806884 0.76700002 -0.0053792265 1.6085958e-38 314 244
-0.006724033 0.76700002 -0.0053792265 1.6823523e-38 315 244
-0.0053792265 0.76700002 -0.0053792265 1.709688e-38 316 244
-0.00403442 0.76700002 -0.0053792265 1.6912847e-38 317 244
-0.0026896133 0.76700002 -0.0053792265 1.7096529e-38 318 244
-0.0013448066 0.76700002 -0.0053792265 1.7280921e-38 319 244
0 0.76700002 -0.0053792265 1.755894e-38 320 244
0.0013448066 0.76700002 -0.0053792265 1.7651135e-38 321 244
0.0026861064 0.76599997 -0.0053722127 1.7375978e-38 322 244
0.0040291594 0.76599997 -0.0053722127 1.5716096e-38 323 244
0.0053722127 0.76599997 -0.0053722127 1.0101927e-38 324 244
0.0067152665 0.76599997 -0.0053722127 9.9182518e-39 325 244
0.00806884 0.76700002 -0.0053792265 5.5267211e-39 326 244
0.0094381925 0.76899999 -0.0053932532 9.4911346e-39 327 244
0.010786506 0.76899999 -0.0053932532 1.545289e-38 328 244
0.012134819 0.76899999 -0.0053932532 1.4991911e-38 329 244
0.013518199 0.77100003 -0.0054072798 1.5542545e-38 330 244
0.014908593 0.773 -0.0054213065 1.5634741e-38 331 244
0.016263919 0.773 -0.0054213065 1.5269205e-38 332 244
0.01764204 0.77399999 -0.0054283198 1.5914575e-38 333 244
0.018999118 0.77399999 -0.0054283198 1.3896364e-38 334 244
-0.034189999 0.77999997 -0.0068379994 1.2969366e-38 295 245
-0.032738242 0.778 -0.0068204664 1.6092107e-38 296 245
-0.031374145 0.778 -0.0068204664 1.5907717e-38 297 245
-0.03001005 0.778 -0.0068204664 1.6366527e-38 298 245
-0.028572321 0.77600002 -0.0068029333 1.6274331e-38 299 245
-0.027211733 0.77600002 -0.0068029333 1.5998469e-38 300 245
-0.025851147 0.77600002 -0.0068029333 1.5906273e-38 301 245
-0.024490559 0.77600002 -0.0068029333 1.5906273e-38 302 245
-0.023129974 0.77600002 -0.0068029333 1.5998469e-38 303 245
-0.021713279 0.77399999 -0.0067853997 1.6181062e-38 304 245
-0.020356199 0.77399999 -0.0067853997 1.6088867e-38 305 245
-0.018974574 0.773 -0.0067766332 1.6271813e-38 306 245
-0.017619247 0.773 -0.0067766332 1.6179618e-38 307 245
-0.016221842 0.77100003 -0.0067590997 1.636256e-38 308 245
-0.01487002 0.77100003 -0.0067590997 1.6178169e-38 309 245
-0.013518199 0.77100003 -0.0067590997 1.5996303e-38 310 245
-0.01216638 0.77100003 -0.0067590997 1.350666e-38 311 245
-0.010786506 0.76899999 -0.0067415666 6.7965442e-39 312 245
-0.0094381925 0.76899999 -0.0067415666 1.1590693e-38 313 245
-0.0080898795 0.76899999 -0.0067415666 1.645511e-38 314 245
-0.0067415666 0.76899999 -0.0067415666 1.645511e-38 315 245
-0.0053792265 0.76700002 -0.006724033 1.6454757e-38 316 245
-0.00403442 0.76700002 -0.006724033 1.6546953e-38 317 245
-0.0026896133 0.76700002 -0.006724033 1.672992e-38 318 245
-0.0013448066 0.76700002 -0.006724033 1.6822116e-38 319 245
0 0.76700002 -0.006724033 1.7006134e-38 320 245
0.0013448066 0.76700002 -0.006724033 1.7006134e-38 321 245
0.0026861064 0.76599997 -0.0067152665 1.7099033e-38 322 245
0.0040291594 0.76599997 -0.0067152665 1.6268914e-38 323 245
0.0053722127 0.76599997 -0.0067152665 1.3047503e-38 324 245
0.0067152665 0.76599997 -0.0067152665 1.0377417e-38 325 245
0.00806884 0.76700002 -0.006724033 2.4828234e-39 326 245
0.0094381925 0.76899999 -0.0067415666 8.5673763e-39 327 245
0.010786506 0.76899999 -0.0067415666 1.4075363e-38 328 245
0.01216638 0.77100003 -0.0067590997 1.3798777e-38 329 245
0.013518199 0.77100003 -0.0067590997 1.5174138e-38 330 245
0.014908593 0.773 -0.0067766332 1.5266334e-38 331 245
0.016284959 0.77399999 -0.0067853997 1.5085537e-38 332 245
0.01764204 0.77399999 -0.0067853997 1.5638711e-38 333 245
0.018999118 0.77399999 -0.0067853997 1.4637166e-38 334 245
-0.034189999 0.77999997 -0.0082055992 1.2877527e-38 295 246
-0.032738242 0.778 -0.0081845606 1.6091388e-38 296 246
-0.031374145 0.778 -0.0081845606 1.5814441e-38 297 246
-0.03001005 0.778 -0.0081845606 1.6089586e-38 298 246
-0.028572321 0.77600002 -0.0081635201 1.6089586e-38 299 246
-0.027211733 0.77600002 -0.0081635201 1.5813722e-38 300 246
-0.025851147 0.77600002 -0.0081635201 1.5721526e-38 301 246
-0.024490559 0.77600002 -0.0081635201 1.5630056e-38 302 246
-0.02307036 0.77399999 -0.0081424797 1.5814088e-38 303 246
-0.021713279 0.77399999 -0.0081424797 1.5812653e-38 304 246
-0.020356199 0.77399999 -0.0081424797 1.5812653e-38 305 246
-0.018974574 0.773 -0.0081319595 1.6086716e-38 306 246
-0.017619247 0.773 -0.0081319595 1.6086716e-38 307 246
-0.016263919 0.773 -0.0081319595 1.5901955e-38 308 246
-0.014908593 0.773 -0.0081319595 1.5717563e-38 309 246
-0.013553266 0.773 -0.0081319595 1.4984311e-38 310 246
-0.012197939 0.773 -0.0081319595 1.2771975e-38 311 246
-0.01081456 0.77100003 -0.0081109209 7.2560804e-39 312 246
-0.0094627403 0.77100003 -0.0081109209 1.2419022e-38 313 246
-0.0081109209 0.77100003 -0.0081109209 1.654839e-38 314 246
-0.0067415666 0.76899999 -0.0080898795 1.5903021e-38 315 246
-0.0053932532 0.76899999 -0.0080898795 1.645403e-38 316 246
-0.00403442 0.76700002 -0.00806884 1.6546225e-38 317 246
-0.0026896133 0.76700002 -0.00806884 1.6545153e-38 318 246
-0.0013448066 0.76700002 -0.00806884 1.6545153e-38 319 246
0 0.76700002 -0.00806884 1.7003248e-38 320 246
0.0013448066 0.76700002 -0.00806884 1.7095443e-38 321 246
0.0026861064 0.76599997 -0.0080583189 1.67281e-38 322 246
0.0040291594 0.76599997 -0.0080583189 1.6635904e-38 323 246
0.0053722127 0.76599997 -0.0080583189 1.4520465e-38 324 246
0.006724033 0.76700002 -0.00806884 1.1112096e-38 325 246
0.00806884 0.76700002 -0.00806884 4.4081178e-39 326 246
0.0094136465 0.76700002 -0.00806884 8.7387999e-39 327 246
0.010786506 0.76899999 -0.0080898795 1.1868779e-38 328 246
0.01216638 0.77100003 -0.0081109209 1.2606344e-38 329 246
0.013553266 0.773 -0.0081319595 1.5264533e-38 330 246
0.014908593 0.773 -0.0081319595 1.554112e-38 331 246
0.016284959 0.77399999 -0.0081424797 1.4991905e-38 332 246
0.01764204 0.77399999 -0.0081424797 1.6006417e-38 333 246
0.018999118 0.77399999 -0.0081424797 1.5288652e-38 334 246
-0.035557598 0.77999997 -0.0095731998 1.2139603e-38 294 247
-0.034189999 0.77999997 -0.0095731998 1.260094e-38 295 247
-0.032822397 0.77999997 -0.0095731998 1.535563e-38 296 247
-0.031454798 0.77999997 -0.0095731998 1.5263435e-38 297 247
-0.03001005 0.778 -0.0095486529 1.5263435e-38 298 247
-0.028572321 0.77600002 -0.009524107 1.5079404e-38 299 247
-0.027211733 0.77600002 -0.009524107 1.5079053e-38 300 247
-0.025851147 0.77600002 -0.009524107 1.5079053e-38 301 247
-0.024490559 0.77600002 -0.009524107 1.4987223e-38 302 247
-0.02307036 0.77399999 -0.0094995592 1.4987223e-38 303 247
-0.021713279 0.77399999 -0.0094995592 1.4986507e-38 304 247
-0.020356199 0.77399999 -0.0094995592 1.5078703e-38 305 247
-0.018974574 0.773 -0.0094872871 1.5169814e-38 306 247
-0.017619247 0.773 -0.0094872871 1.5077618e-38 307 247
-0.016263919 0.773 -0.0094872871 1.5260198e-38 308 247
-0.014908593 0.773 -0.0094872871 1.4983611e-38 309 247
-0.013553266 0.773 -0.0094872871 1.3239081e-38 310 247
-0.012197939 0.773 -0.0094872871 1.1671754e-38 311 247
-0.01081456 0.77100003 -0.0094627403 9.9207601e-39 312 247
-0.0094381925 0.76899999 -0.0094381925 1.4069563e-38 313 247
-0.0080898795 0.76899999 -0.0094381925 1.6089233e-38 314 247
-0.0067415666 0.76899999 -0.0094381925 1.5536059e-38 315 247
-0.0053792265 0.76700002 -0.0094136465 1.5811201e-38 316 247
-0.00403442 0.76700002 -0.0094136465 1.5995952e-38 317 247
-0.0026896133 0.76700002 -0.0094136465 1.6087422e-38 318 247
-0.0013448066 0.76700002 -0.0094136465 1.5994866e-38 319 247
0 0.76700002 -0.0094136465 1.6453679e-38 320 247
0.0013430532 0.76599997 -0.0094013726 1.6453679e-38 321 247
0.0026861064 0.76599997 -0.0094013726 1.6360762e-38 322 247
0.0040291594 0.76599997 -0.0094013726 1.6360762e-38 323 247
0.0053722127 0.76599997 -0.0094013726 1.572043e-38 324 247
0.0067152665 0.76599997 -0.0094013726 1.2862726e-38 325 247
0.00806884 0.76700002 -0.0094136465 5.2346233e-39 326 247
0.0094136465 0.76700002 -0.0094136465 7.3533263e-39 327 247
0.010786506 0.76899999 -0.0094381925 9.0157441e-39 328 247
0.01216638 0.77100003 -0.0094627403 1.1781253e-38 329 247
0.013553266 0.773 -0.0094872871 1.4807874e-38 330 247
0.014908593 0.773 -0.0094872871 1.5084102e-38 331 247
0.016284959 0.77399999 -0.0094995592 1.4259386e-38 332 247
0.017619247 0.773 -0.0094872871 1.5457929e-38 333 247
0.018974574 0.773 -0.0094872871 1.5846148e-38 334 247
-0.035557598 0.77999997 -0.010940799 1.204704e-38 294 248
-0.034189999 0.77999997 -0.010940799 1.2600214e-38 295 248
-0.032822397 0.77999997 -0.010940799 1.498828e-38 296 248
-0.031454798 0.77999997 -0.010940799 1.4895726e-38 297 248
-0.03001005 0.778 -0.010912746 1.4987205e-38 298 248
-0.028645959 0.778 -0.010912746 1.4802813e-38 299 248
-0.027211733 0.77600002 -0.010884693 1.4802459e-38 300 248
-0.025851147 0.77600002 -0.010884693 1.4894656e-38 301 248
-0.024490559 0.77600002 -0.010884693 1.4985423e-38 302 248
-0.02307036 0.77399999 -0.01085664 1.480139e-38 303 248
-0.021713279 0.77399999 -0.01085664 1.5168018e-38 304 248
-0.020356199 0.77399999 -0.01085664 1.5168018e-38 305 248
-0.018999118 0.77399999 -0.01085664 1.5168015e-38 306 248
-0.017619247 0.773 -0.010842613 1.4983984e-38 307 248
-0.016263919 0.773 -0.010842613 1.4892141e-38 308 248
-0.014908593 0.773 -0.010842613 1.4707391e-38 309 248
-0.013553266 0.773 -0.010842613 1.1676813e-38 310 248
-0.012197939 0.773 -0.010842613 1.0847052e-38 311 248
-0.01081456 0.77100003 -0.01081456 1.1488829e-38 312 248
-0.0094381925 0.76899999 -0.010786506 1.3885915e-38 313 248
-0.0080898795 0.76899999 -0.010786506 1.5538227e-38 314 248
-0.0067415666 0.76899999 -0.010786506 1.5169804e-38 315 248
-0.0053792265 0.76700002 -0.010758453 1.5813006e-38 316 248
-0.00403442 0.76700002 -0.010758453 1.572081e-38 317 248
-0.0026896133 0.76700002 -0.010758453 1.5995949e-38 318 248
-0.0013448066 0.76700002 -0.010758453 1.5995949e-38 319 248
0 0.76700002 -0.010758453 1.6086696e-38 320 248
0.0013430532 0.76599997 -0.010744425 1.5717914e-38 321 248
0.0026861064 0.76599997 -0.010744425 1.6085617e-38 322 248
0.0040291594 0.76599997 -0.010744425 1.6362564e-38 323 248
0.0053722127 0.76599997 -0.010744425 1.6182134e-38 324 248
0.0067152665 0.76599997 -0.010744425 1.4153831e-38 325 248
0.00806884 0.76700002 -0.010758453 6.9813068e-39 326 248
0.0094136465 0.76700002 -0.010758453 6.4284917e-39 327 248
0.010786506 0.76899999 -0.010786506 5.3390677e-39 328 248
0.01216638 0.77100003 -0.01081456 9.487871e-39 329 248
0.013553266 0.773 -0.010842613 1.4440168e-38 330 248
0.014908593 0.773 -0.010842613 1.4901146e-38 331 248
0.016263919 0.773 -0.010842613 1.4074991e-38 332 248
0.017619247 0.773 -0.010842613 1.5273534e-38 333 248
0.018974574 0.773 -0.010842613 1.6032704e-38 334 248
-0.035603184 0.78100002 -0.01232418 1.2322538e-38 294 249
-0.034189999 0.77999997 -0.012308398 1.2967907e-38 295 249
-0.032822397 0.77999997 -0.012308398 1.4715283e-38 296 249
-0.031454798 0.77999997 -0.012308398 1.4530892e-38 297 249
-0.030087199 0.77999997 -0.012308398 1.4713132e-38 298 249
-0.028645959 0.778 -0.012276839 1.4713132e-38 299 249
-0.027281865 0.778 -0.012276839 1.4528751e-38 300 249
-0.025851147 0.77600002 -0.01224528 1.4528751e-38 301 249
-0.024490559 0.77600002 -0.01224528 1.4527314e-38 302 249
-0.02307036 0.77399999 -0.01221372 1.4435119e-38 303 249
-0.021713279 0.77399999 -0.01221372 1.4709195e-38 304 249
-0.020356199 0.77399999 -0.01221372 1.4616999e-38 305 249
-0.018999118 0.77399999 -0.01221372 1.4616999e-38 306 249
-0.01764204 0.77399999 -0.01221372 1.4524445e-38 307 249
-0.016284959 0.77399999 -0.01221372 1.4615195e-38 308 249
-0.014927879 0.77399999 -0.01221372 1.3969826e-38 309 249
-0.013553266 0.773 -0.012197939 1.0113806e-38 310 249
-0.012197939 0.773 -0.012197939 1.0113806e-38 311 249
-0.01081456 0.77100003 -0.01216638 1.2685219e-38 312 249
-0.0094381925 0.76899999 -0.012134819 1.416071e-38 313 249
-0.0080898795 0.76899999 -0.012134819 1.5079769e-38 314 249
-0.0067415666 0.76899999 -0.012134819 1.4987574e-38 315 249
-0.0053792265 0.76700002 -0.01210326 1.5354911e-38 316 249
-0.00403442 0.76700002 -0.01210326 1.517052e-38 317 249
-0.0026896133 0.76700002 -0.01210326 1.590412e-38 318 249
-0.0013448066 0.76700002 -0.01210326 1.6181065e-38 319 249
0 0.76700002 -0.01210326 1.6003505e-38 320 249
0.0013430532 0.76599997 -0.012087479 1.591131e-38 321 249
0.0026861064 0.76599997 -0.012087479 1.6184299e-38 322 249
0.0040291594 0.76599997 -0.012087479 1.4985756e-38 323 249
0.0053722127 0.76599997 -0.012087479 1.6180334e-38 324 249
0.0067152665 0.76599997 -0.012087479 1.4889595e-38 325 249
0.0080583189 0.76599997 -0.012087479 1.0566858e-38 326 249
0.0094136465 0.76700002 -0.01210326 7.9896882e-39 327 249
0.010786506 0.76899999 -0.012134819 2.9452155e-39 328 249
0.01216638 0.77100003 -0.01216638 8.2929207e-39 329 249
0.013553266 0.773 -0.012197939 1.3983151e-38 330 249
0.014908593 0.773 -0.012197939 1.4351935e-38 331 249
0.016263919 0.773 -0.012197939 1.3708733e-38 332 249
0.017619247 0.773 -0.012197939 1.4907275e-38 333 249
0.018974574 0.773 -0.012197939 1.5849759e-38 334 249
-0.035603184 0.78100002 -0.013693534 1.2876062e-38 294 250
-0.034233831 0.78100002 -0.013693534 1.3336682e-38 295 250
-0.032822397 0.77999997 -0.013675999 1.4993299e-38 296 250
-0.031454798 0.77999997 -0.013675999 1.4624518e-38 297 250
-0.030087199 0.77999997 -0.013675999 1.4532688e-38 298 250
-0.028645959 0.778 -0.013640933 1.4440491e-38 299 250
-0.027281865 0.778 -0.013640933 1.462309e-38 300 250
-0.025851147 0.77600002 -0.013605867 1.4530536e-38 301 250
-0.024490559 0.77600002 -0.013605867 1.4529817e-38 302 250
-0.023129974 0.77600002 -0.013605867 1.4437622e-38 303 250
-0.021769386 0.77600002 -0.013605867 1.4528021e-38 304 250
-0.020356199 0.77399999 -0.013570799 1.4435825e-38 305 250
-0.018999118 0.77399999 -0.013570799 1.4527655e-38 306 250
-0.01764204 0.77399999 -0.013570799 1.4435459e-38 307 250
-0.016284959 0.77399999 -0.013570799 1.4616978e-38 308 250
-0.014927879 0.77399999 -0.013570799 1.3602825e-38 309 250
-0.013570799 0.77399999 -0.013570799 9.0081617e-39 310 250
-0.012197939 0.773 -0.013553266 9.7457267e-39 311 250
-0.01081456 0.77100003 -0.013518199 1.314438e-38 312 250
-0.0094381925 0.76899999 -0.013483133 1.4251088e-38 313 250
-0.0080898795 0.76899999 -0.013483133 1.4253606e-38 314 250
-0.0067415666 0.76899999 -0.013483133 1.4529833e-38 315 250
-0.0053792265 0.76700002 -0.013448066 1.4987577e-38 316 250
-0.00403442 0.76700002 -0.013448066 1.4895022e-38 317 250
-0.0026896133 0.76700002 -0.013448066 1.5538229e-38 318 250
-0.0013448066 0.76700002 -0.013448066 1.6183599e-38 319 250
0 0.76700002 -0.013448066 1.5919607e-38 320 250
0.0013448066 0.76700002 -0.013448066 1.6657172e-38 321 250
0.0026861064 0.76599997 -0.013430533 1.6284796e-38 322 250
0.0040291594 0.76599997 -0.013430533 1.4164297e-38 323 250
0.0053722127 0.76599997 -0.013430533 1.5718289e-38 324 250
0.0067152665 0.76599997 -0.013430533 1.507292e-38 325 250
0.0080583189 0.76599997 -0.013430533 1.2407895e-38 326 250
0.0094136465 0.76700002 -0.013448066 8.2651947e-39 327 250
0.010758453 0.76700002 -0.013448066 1.3807666e-39 328 250
0.01216638 0.77100003 -0.013518199 7.373484e-39 329 250
0.013553266 0.773 -0.013553266 1.3432493e-38 330 250
0.014927879 0.77399999 -0.013570799 1.4077862e-38 331 250
0.016284959 0.77399999 -0.013570799 1.3802369e-38 332 250
0.01764204 0.77399999 -0.013570799 1.52775e-38 333 250
0.018999118 0.77399999 -0.013570799 1.5666813e-38 334 250
-0.035603184 0.78100002 -0.015062887 1.3525382e-38 294 251
-0.034233831 0.78100002 -0.015062887 1.2787458e-38 295 251
-0.032822397 0.77999997 -0.0150436 1.4625956e-38 296 251
-0.031454798 0.77999997 -0.0150436 1.4810706e-38 297 251
-0.030087199 0.77999997 -0.0150436 1.444194e-38 298 251
-0.028719598 0.77999997 -0.0150436 1.4349745e-38 299 251
-0.027281865 0.778 -0.015005025 1.4532341e-38 300 251
-0.025917772 0.778 -0.015005025 1.4440144e-38 301 251
-0.024553679 0.778 -0.015005025 1.4439422e-38 302 251
-0.023129974 0.77600002 -0.014966453 1.4439422e-38 303 251
-0.021769386 0.77600002 -0.014966453 1.4346505e-38 304 251
-0.0204088 0.77600002 -0.014966453 1.4254309e-38 305 251
-0.019048214 0.77600002 -0.014966453 1.4254306e-38 306 251
-0.017687626 0.77600002 -0.014966453 1.4162111e-38 307 251
-0.016284959 0.77399999 -0.014927879 1.4436903e-38 308 251
-0.014927879 0.77399999 -0.014927879 1.3330195e-38 309 251
-0.013570799 0.77399999 -0.014927879 9.0989098e-39 310 251
-0.012197939 0.773 -0.014908593 1.0666594e-38 311 251
-0.01081456 0.77100003 -0.01487002 1.370041e-38 312 251
-0.0094627403 0.77100003 -0.01487002 1.3792605e-38 313 251
-0.0080898795 0.76899999 -0.014831445 1.4069198e-38 314 251
-0.0067415666 0.76899999 -0.014831445 1.4345426e-38 315 251
-0.0053792265 0.76700002 -0.014792874 1.4618795e-38 316 251
-0.00403442 0.76700002 -0.014792874 1.4895022e-38 317 251
-0.0026896133 0.76700002 -0.014792874 1.4897919e-38 318 251
-0.0013448066 0.76700002 -0.014792874 1.5819874e-38 319 251
0 0.76700002 -0.014792874 1.5460464e-38 320 251
0.0013448066 0.76700002 -0.014792874 1.5737053e-38 321 251
0.0026896133 0.76700002 -0.014792874 1.5547607e-38 322 251
0.00403442 0.76700002 -0.014792874 1.3980281e-38 323 251
0.0053792265 0.76700002 -0.014792874 1.5167634e-38 324 251
0.006724033 0.76700002 -0.014792874 1.5075438e-38 325 251
0.00806884 0.76700002 -0.014792874 1.332841e-38 326 251
0.0094136465 0.76700002 -0.014792874 8.1733592e-39 327 251
0.010758453 0.76700002 -0.014792874 1.1956551e-39 328 251
0.01216638 0.77100003 -0.01487002 7.3727595e-39 329 251
0.013553266 0.773 -0.014908593 1.2791076e-38 330 251
0.014927879 0.77399999 -0.014927879 1.3620477e-38 331 251
0.016284959 0.77399999 -0.014927879 1.398856e-38 332 251
0.01764204 0.77399999 -0.014927879 1.5740277e-38 333 251
0.018999118 0.77399999 -0.014927879 1.5115079e-38 334 251
-0.034233831 0.78100002 -0.016432239 1.1689388e-38 295 252
-0.032822397 0.77999997 -0.016411198 1.4441928e-38 296 252
-0.031454798 0.77999997 -0.016411198 1.4902546e-38 297 252
-0.030125774 0.78100002 -0.016432239 1.4809647e-38 298 252
-0.028719598 0.77999997 -0.016411198 1.4717451e-38 299 252
-0.027351998 0.77999997 -0.016411198 1.4716732e-38 300 252
-0.025984399 0.77999997 -0.016411198 1.4716732e-38 301 252
-0.024616797 0.77999997 -0.016411198 1.4808202e-38 302 252
-0.023189586 0.778 -0.016369121 1.4624171e-38 303 252
-0.021825492 0.778 -0.016369121 1.4531968e-38 304 252
-0.0204088 0.77600002 -0.01632704 1.4439773e-38 305 252
-0.019048214 0.77600002 -0.01632704 1.4347574e-38 306 252
-0.017687626 0.77600002 -0.01632704 1.4255378e-38 307 252
-0.01632704 0.77600002 -0.01632704 1.4347227e-38 308 252
-0.014927879 0.77399999 -0.016284959 1.3148683e-38 309 252
-0.013570799 0.77399999 -0.016284959 8.9141626e-39 310 252
-0.01221372 0.77399999 -0.016284959 1.0850269e-38 311 252
-0.010842613 0.773 -0.016263919 1.3795478e-38 312 252
-0.0094627403 0.77100003 -0.016221842 1.3426697e-38 313 252
-0.0081109209 0.77100003 -0.016221842 1.4069198e-38 314 252
-0.0067415666 0.76899999 -0.016179759 1.4069198e-38 315 252
-0.0053932532 0.76899999 -0.016179759 1.4251088e-38 316 252
-0.0040449398 0.76899999 -0.016179759 1.4527314e-38 317 252
-0.0026896133 0.76700002 -0.01613768 1.4437679e-38 318 252
-0.0013448066 0.76700002 -0.01613768 1.628159e-38 319 252
0 0.76700002 -0.01613768 1.6296007e-38 320 252
0.0013448066 0.76700002 -0.01613768 1.5282214e-38 321 252
0.0026896133 0.76700002 -0.01613768 1.4997307e-38 322 252
0.00403442 0.76700002 -0.01613768 1.324523e-38 323 252
0.0053792265 0.76700002 -0.01613768 1.4527655e-38 324 252
0.006724033 0.76700002 -0.01613768 1.4435459e-38 325 252
0.00806884 0.76700002 -0.01613768 1.4338965e-38 326 252
0.0094136465 0.76700002 -0.01613768 8.9998786e-39 327 252
0.010758453 0.76700002 -0.01613768 1.6551913e-39 328 252
0.01216638 0.77100003 -0.016221842 7.8322943e-39 329 252
0.013570799 0.77399999 -0.016284959 1.306694e-38 330 252
0.014927879 0.77399999 -0.016284959 1.4080733e-38 331 252
0.016284959 0.77399999 -0.016284959 1.4269464e-38 332 252
0.01764204 0.77399999 -0.016284959 1.56524e-38 333 252
-0.032864477 0.78100002 -0.017801592 1.4347592e-38 296 253
-0.031495128 0.78100002 -0.017801592 1.5177354e-38 297 253
-0.030125774 0.78100002 -0.017801592 1.4811814e-38 298 253
-0.028756421 0.78100002 -0.017801592 1.4719619e-38 299 253
-0.027387068 0.78100002 -0.017801592 1.4810012e-38 300 253
-0.026017714 0.78100002 -0.017801592 1.4625981e-38 301 253
-0.024616797 0.77999997 -0.017778799 1.4625258e-38 302 253
-0.023249198 0.77999997 -0.017778799 1.4625258e-38 303 253
-0.021881599 0.77999997 -0.017778799 1.4349747e-38 304 253
-0.020461399 0.778 -0.017733213 1.4257193e-38 305 253
-0.019097306 0.778 -0.017733213 1.4349392e-38 306 253
-0.017733213 0.778 -0.017733213 1.3980968e-38 307 253
-0.01632704 0.77600002 -0.017687626 1.3979533e-38 308 253
-0.014966453 0.77600002 -0.017687626 1.2596598e-38 309 253
-0.013605867 0.77600002 -0.017687626 9.0081617e-39 310 253
-0.01221372 0.77399999 -0.01764204 1.1404889e-38 311 253
-0.010842613 0.773 -0.017619247 1.4164633e-38 312 253
-0.0094872871 0.773 -0.017619247 1.3611459e-38 313 253
-0.0081109209 0.77100003 -0.01757366 1.4162467e-38 314 253
-0.0067415666 0.76899999 -0.017528072 1.407027e-38 315 253
-0.0053932532 0.76899999 -0.017528072 1.4160314e-38 316 253
-0.0040449398 0.76899999 -0.017528072 1.4160314e-38 317 253
-0.0026966266 0.76899999 -0.017528072 1.415604e-38 318 253
-0.0013483133 0.76899999 -0.017528072 1.5723366e-38 319 253
0 0.76700002 -0.017482487 1.6205612e-38 320 253
0.0013448066 0.76700002 -0.017482487 1.6205612e-38 321 253
0.0026896133 0.76700002 -0.017482487 1.6017993e-38 322 253
0.00403442 0.76700002 -0.017482487 1.5280428e-38 323 253
0.0053792265 0.76700002 -0.017482487 1.5090967e-38 324 253
0.006724033 0.76700002 -0.017482487 1.2970468e-38 325 253
0.00806884 0.76700002 -0.017482487 1.4985804e-38 326 253
0.0094136465 0.76700002 -0.017482487 1.0469294e-38 327 253
0.010758453 0.76700002 -0.017482487 3.2236072e-39 328 253
0.01216638 0.77100003 -0.01757366 8.2943669e-39 329 253
0.013553266 0.773 -0.017619247 1.3709805e-38 330 253
0.014908593 0.773 -0.017619247 1.4631762e-38 331 253
0.016284959 0.77399999 -0.01764204 1.4273431e-38 332 253
0.01764204 0.77399999 -0.01764204 1.5010996e-38 333 253
-0.031495128 0.78100002 -0.019170946 1.4352991e-38 297 254
-0.030125774 0.78100002 -0.019170946 1.5180227e-38 298 254
-0.028756421 0.78100002 -0.019170946 1.5088031e-38 299 254
-0.027387068 0.78100002 -0.019170946 1.4903997e-38 300 254
-0.026017714 0.78100002 -0.019170946 1.4811802e-38 301 254
-0.024648361 0.78100002 -0.019170946 1.4810719e-38 302 254
-0.023279008 0.78100002 -0.019170946 1.4626688e-38 303 254
-0.021881599 0.77999997 -0.0191464 1.4534136e-38 304 254
-0.020513998 0.77999997 -0.0191464 1.4349745e-38 305 254
-0.019097306 0.778 -0.019097306 1.4349026e-38 306 254
-0.017733213 0.778 -0.019097306 1.4256829e-38 307 254
-0.01632704 0.77600002 -0.019048214 1.3520707e-38 308 254
-0.014966453 0.77600002 -0.019048214 1.2229968e-38 309 254
-0.013605867 0.77600002 -0.019048214 1.0204551e-38 310 254
-0.01221372 0.77399999 -0.018999118 1.2325051e-38 311 254
-0.01085664 0.77399999 -0.018999118 1.4073881e-38 312 254
-0.0094872871 0.773 -0.018974574 1.3613261e-38 313 254
-0.0081319595 0.773 -0.018974574 1.4255016e-38 314 254
-0.0067590997 0.77100003 -0.018925481 1.4162461e-38 315 254
-0.0053932532 0.76899999 -0.018876385 1.4345776e-38 316 254
-0.0040449398 0.76899999 -0.018876385 1.4253579e-38 317 254
-0.0026966266 0.76899999 -0.018876385 1.4064541e-38 318 254
-0.0013483133 0.76899999 -0.018876385 1.3788314e-38 319 254
0 0.76899999 -0.018876385 1.490227e-38 320 254
0.0013483133 0.76899999 -0.018876385 1.6930574e-38 321 254
0.0026966266 0.76899999 -0.018876385 1.6292801e-38 322 254
0.0040449398 0.76899999 -0.018876385 1.7030367e-38 323 254
0.0053792265 0.76700002 -0.018827293 1.6110179e-38 324 254
0.006724033 0.76700002 -0.018827293 1.2514189e-38 325 254
0.00806884 0.76700002 -0.018827293 1.3609363e-38 326 254
0.0094136465 0.76700002 -0.018827293 9.2765272e-39 327 254
0.010758453 0.76700002 -0.018827293 3.7749958e-39 328 254
0.01216638 0.77100003 -0.018925481 8.7539185e-39 329 254
0.013553266 0.773 -0.018974574 1.3804172e-38 330 254
0.014908593 0.773 -0.018974574 1.5002355e-38 331 254
0.016263919 0.773 -0.018974574 1.3356164e-38 332 254
-0.03020292 0.78299999 -0.0205929 1.4447708e-38 298 255
-0.028830061 0.78299999 -0.0205929 1.4723935e-38 299 255
-0.027457198 0.78299999 -0.0205929 1.4814689e-38 300 255
-0.026017714 0.78100002 -0.020540299 1.4538102e-38 301 255
-0.024648361 0.78100002 -0.020540299 1.4721048e-38 302 255
-0.023279008 0.78100002 -0.020540299 1.4536657e-38 303 255
-0.021909652 0.78100002 -0.020540299 1.4443741e-38 304 255
-0.020513998 0.77999997 -0.020513998 1.4351545e-38 305 255
-0.0191464 0.77999997 -0.020513998 1.4442662e-38 306 255
-0.017733213 0.778 -0.020461399 1.4442662e-38 307 255
-0.016369121 0.778 -0.020461399 1.3338833e-38 308 255
-0.014966453 0.77600002 -0.0204088 1.2048094e-38 309 255
-0.013605867 0.77600002 -0.0204088 1.0851355e-38 310 255
-0.01224528 0.77600002 -0.0204088 1.2694909e-38 311 255
-0.01085664 0.77399999 -0.020356199 1.4166082e-38 312 255
-0.0094872871 0.773 -0.0203299 1.3889135e-38 313 255
-0.0081319595 0.773 -0.0203299 1.4347224e-38 314 255
-0.0067590997 0.77100003 -0.020277301 1.4255028e-38 315 255
-0.0054072798 0.77100003 -0.020277301 1.4255381e-38 316 255
-0.0040554604 0.77100003 -0.020277301 1.4163186e-38 317 255
-0.0027036399 0.77100003 -0.020277301 1.4437624e-38 318 255
-0.00135182 0.77100003 -0.020277301 1.4345429e-38 319 255
0 0.77100003 -0.020277301 1.4065287e-38 320 255
0.00135182 0.77100003 -0.020277301 1.3880895e-38 321 255
0.0027036399 0.77100003 -0.020277301 1.3882008e-38 322 255
0.0040449398 0.76899999 -0.0202247 1.5449335e-38 323 255
0.0053932532 0.76899999 -0.0202247 1.4261199e-38 324 255
0.0067415666 0.76899999 -0.0202247 1.2693874e-38 325 255
0.0080898795 0.76899999 -0.0202247 1.2046339e-38 326 255
0.0094381925 0.76899999 -0.0202247 8.0819272e-39 327 255
0.010786506 0.76899999 -0.0202247 4.3245682e-39 328 255
0.012134819 0.76899999 -0.0202247 1.0225089e-38 329 255
0.013483133 0.76899999 -0.0202247 1.4176194e-38 330 255
-0.028830061 0.78299999 -0.021965759 1.399537e-38 299 256
-0.027457198 0.78299999 -0.021965759 1.4818649e-38 300 256
-0.026084339 0.78299999 -0.021965759 1.4265834e-38 301 256
-0.024711479 0.78299999 -0.021965759 1.4448061e-38 302 256
-0.02333862 0.78299999 -0.021965759 1.426331e-38 303 256
-0.021909652 0.78100002 -0.021909652 1.4537376e-38 304 256
-0.020540299 0.78100002 -0.021909652 1.4261149e-38 305 256
-0.019170946 0.78100002 -0.021909652 1.4443741e-38 306 256
-0.017778799 0.77999997 -0.021881599 1.4351545e-38 307 256
-0.016411198 0.77999997 -0.021881599 1.315517e-38 308 256
-0.015005025 0.778 -0.021825492 1.2325051e-38 309 256
-0.013640933 0.778 -0.021825492 1.1590008e-38 310 256
-0.012276839 0.778 -0.021825492 1.2696357e-38 311 256
-0.01085664 0.77399999 -0.021713279 1.4442312e-38 312 256
-0.0094995592 0.77399999 -0.021713279 1.3981334e-38 313 256
-0.0081424797 0.77399999 -0.021713279 1.4530539e-38 314 256
-0.0067766332 0.773 -0.021685226 1.4622734e-38 315 256
-0.0054213065 0.773 -0.021685226 1.4623088e-38 316 256
-0.0040659797 0.773 -0.021685226 1.4530892e-38 317 256
-0.0027106532 0.773 -0.021685226 1.4530536e-38 318 256
-0.0013553266 0.773 -0.021685226 1.4530536e-38 319 256
0 0.773 -0.021685226 1.4252523e-38 320 256
0.0013553266 0.773 -0.021685226 1.3699709e-38 321 256
0.0027036399 0.77100003 -0.021629119 1.3698637e-38 322 256
0.0040554604 0.77100003 -0.021629119 1.4251809e-38 323 256
0.0054072798 0.77100003 -0.021629119 1.4071728e-38 324 256
0.0067590997 0.77100003 -0.021629119 1.3518555e-38 325 256
0.0080898795 0.76899999 -0.021573013 1.1493866e-38 326 256
0.0094381925 0.76899999 -0.021573013 8.3592162e-39 327 256
0.010786506 0.76899999 -0.021573013 6.1641564e-39 328 256
0.012134819 0.76899999 -0.021573013 1.2064677e-38 329 256
-0.026084339 0.78299999 -0.02333862 1.3538009e-38 301 257
-0.024711479 0.78299999 -0.02333862 1.3901737e-38 302 257
-0.023279008 0.78100002 -0.023279008 1.3348563e-38 303 257
-0.021909652 0.78100002 -0.023279008 1.4081434e-38 304 257
-0.020540299 0.78100002 -0.023279008 1.3805206e-38 305 257
-0.019170946 0.78100002 -0.023279008 1.4261512e-38 306 257
-0.017801592 0.78100002 -0.023279008 1.4169316e-38 307 257
-0.016411198 0.77999997 -0.023249198 1.2697076e-38 308 257
-0.015005025 0.778 -0.023189586 1.2051706e-38 309 257
-0.013640933 0.778 -0.023189586 1.1500337e-38 310 257
-0.012276839 0.778 -0.023189586 1.2514131e-38 311 257
-0.010884693 0.77600002 -0.023129974 1.4350836e-38 312 257
-0.0094995592 0.77399999 -0.02307036 1.4074249e-38 313 257
-0.0081424797 0.77399999 -0.02307036 1.4440144e-38 314 257
-0.0067853997 0.77399999 -0.02307036 1.4440144e-38 315 257
-0.0054283198 0.77399999 -0.02307036 1.4439422e-38 316 257
-0.0040712398 0.77399999 -0.02307036 1.4347227e-38 317 257
-0.0027106532 0.773 -0.023040552 1.4530539e-38 318 257
-0.0013553266 0.773 -0.023040552 1.4530539e-38 319 257
0 0.773 -0.023040552 1.4346871e-38 320 257
0.0013553266 0.773 -0.023040552 1.4346871e-38 321 257
0.0027106532 0.773 -0.023040552 1.4347592e-38 322 257
0.0040659797 0.773 -0.023040552 1.4439788e-38 323 257
0.0054213065 0.773 -0.023040552 1.4256478e-38 324 257
0.0067766332 0.773 -0.023040552 1.3426359e-38 325 257
0.0081319595 0.773 -0.023040552 1.0854239e-38 326 257
0.0094872871 0.773 -0.023040552 9.0103267e-39 327 257
0.010842613 0.773 -0.023040552 8.5594253e-39 328 257
-0.023279008 0.78100002 -0.024648361 1.2805484e-38 303 258
-0.021909652 0.78100002 -0.024648361 1.3719512e-38 304 258
-0.020540299 0.78100002 -0.024648361 1.3074143e-38 305 258
-0.019170946 0.78100002 -0.024648361 1.3712675e-38 306 258
-0.017801592 0.78100002 -0.024648361 1.3712675e-38 307 258
-0.015062887 0.78100002 -0.024648361 1.1684371e-38 309 258
-0.013693534 0.78100002 -0.024648361 1.2144272e-38 310 258
-0.01232418 0.78100002 -0.024648361 1.2974391e-38 311 258
-0.010912746 0.778 -0.024553679 1.398637e-38 312 258
-0.0095486529 0.778 -0.024553679 1.3433196e-38 313 258
-0.0081635201 0.77600002 -0.024490559 1.4441221e-38 314 258
-0.0067853997 0.77399999 -0.02442744 1.4349026e-38 315 258
-0.0054283198 0.77399999 -0.02442744 1.4440141e-38 316 258
-0.0040712398 0.77399999 -0.02442744 1.4347945e-38 317 258
-0.0027141599 0.77399999 -0.02442744 1.4439422e-38 318 258
-0.0013570799 0.77399999 -0.02442744 1.4439422e-38 319 258
0 0.77399999 -0.02442744 1.4347589e-38 320 258
0.0013570799 0.77399999 -0.02442744 1.4347589e-38 321 258
0.0027141599 0.77399999 -0.02442744 1.4163924e-38 322 258
0.0040712398 0.77399999 -0.02442744 1.4348675e-38 323 258
0.0054283198 0.77399999 -0.02442744 1.4257927e-38 324 258
0.0067853997 0.77399999 -0.02442744 1.315122e-38 325 258
0.0081424797 0.77399999 -0.02442744 8.9264127e-39 326 258
0.0094995592 0.77399999 -0.02442744 8.9264127e-39 327 258
0.01085664 0.77399999 -0.02442744 1.1411752e-38 328 258
-0.013693534 0.78100002 -0.026017714 1.1319909e-38 310 259
-0.01232418 0.78100002 -0.026017714 1.2241505e-38 311 259
-0.010940799 0.77999997 -0.025984399 1.4261159e-38 312 259
-0.0095486529 0.778 -0.025917772 1.4076766e-38 313 259
-0.0081845606 0.778 -0.025917772 1.4442293e-38 314 259
-0.0068029333 0.77600002 -0.025851147 1.4442293e-38 315 259
-0.0054423464 0.77600002 -0.025851147 1.4442293e-38 316 259
-0.0040817601 0.77600002 -0.025851147 1.4257902e-38 317 259
-0.0027211732 0.77600002 -0.025851147 1.4531974e-38 318 259
-0.0013605866 0.77600002 -0.025851147 1.4439419e-38 319 259
0 0.77399999 -0.025784519 1.4439069e-38 320 259
0.0013570799 0.77399999 -0.025784519 1.4439069e-38 321 259
0.0027211732 0.77600002 -0.025851147 1.4163924e-38 322 259
0.0040817601 0.77600002 -0.025851147 1.4256478e-38 323 259
0.0054423464 0.77600002 -0.025851147 1.4256476e-38 324 259
0.0067853997 0.77399999 -0.025784519 1.3057934e-38 325 259
0.0081424797 0.77399999 -0.025784519 8.0040837e-39 326 259
0.0094995592 0.77399999 -0.025784519 1.0124943e-38 327 259
-0.012355739 0.78299999 -0.027457198 1.1599751e-38 311 260
-0.010940799 0.77999997 -0.027351998 1.4353729e-38 312 260
-0.0095731998 0.77999997 -0.027351998 1.3892752e-38 313 260
-0.0081845606 0.778 -0.027281865 1.4351558e-38 314 260
-0.0068204664 0.778 -0.027281865 1.4351558e-38 315 260
-0.0054563731 0.778 -0.027281865 1.4351192e-38 316 260
-0.0040922803 0.778 -0.027281865 1.4166801e-38 317 260
-0.0027211732 0.77600002 -0.027211733 1.4349747e-38 318 260
-0.0013605866 0.77600002 -0.027211733 1.3980965e-38 319 260
0 0.77600002 -0.027211733 1.4346871e-38 320 260
0.0013605866 0.77600002 -0.027211733 1.4439425e-38 321 260
0.0027211732 0.77600002 -0.027211733 1.4163924e-38 322 260
0.0040817601 0.77600002 -0.027211733 1.4163924e-38 323 260
0.0054423464 0.77600002 -0.027211733 1.3613271e-38 324 260
0.0068029333 0.77600002 -0.027211733 1.2138141e-38 325 260
0.0081635201 0.77600002 -0.027211733 8.09485e-39 326 260
0.009524107 0.77600002 -0.027211733 1.2428405e-38 327 260
-0.010954826 0.78100002 -0.028756421 1.2059289e-38 312 261
