# .PCD v.7 - Point Cloud Data file format
FIELDS x y z rgb imX imY
SIZE 4 4 4 4 4 4
TYPE F F F F F F
COUNT 1 1 1 1 1 1
WIDTH 854
HEIGHT 1
VIEWPOINT 0 0 0 1 0 0 0
POINTS 854
DATA ascii
0.017186172 0.75400001 0.046270464 1.6323688e-38 333 205
0.018508185 0.75400001 0.046270464 1.7430754e-38 334 205
-0.031854562 0.75700003 0.045127295 1.9639487e-38 296 206
-0.030446632 0.755 0.045008067 1.8994117e-38 297 206
-0.029122867 0.755 0.045008067 1.7798445e-38 298 206
-0.027799098 0.755 0.045008067 1.7337467e-38 299 206
-0.026475333 0.755 0.045008067 1.8347652e-38 300 206
-0.025151566 0.755 0.045008067 1.8532045e-38 301 206
-0.02379624 0.75400001 0.044948451 1.8626388e-38 302 206
-0.022414612 0.75199997 0.044829223 1.8902975e-38 303 206
-0.021096105 0.75199997 0.044829223 1.8628182e-38 304 206
-0.0197776 0.75199997 0.044829223 1.890477e-38 305 206
-0.018409999 0.75 0.044709999 1.9180281e-38 306 206
-0.017095 0.75 0.044709999 1.9272477e-38 307 206
-0.015716879 0.74699998 0.044531155 1.9456875e-38 308 206
-0.014407139 0.74699998 0.044531155 1.9364679e-38 309 206
-0.013079867 0.74599999 0.044471547 1.973202e-38 310 206
-0.011771879 0.74599999 0.044471547 1.9639824e-38 311 206
-0.01043584 0.74400002 0.044352323 1.9270679e-38 312 206
-0.009106813 0.74199998 0.044233091 1.8994452e-38 313 206
-0.0078058392 0.74199998 0.044233091 1.8986179e-38 314 206
-0.0065223998 0.74400002 0.044352323 1.7327018e-38 315 206
-0.0052179201 0.74400002 0.044352323 1.539343e-38 316 206
-0.0039134403 0.74400002 0.044352323 1.3825745e-38 317 206
-0.00260896 0.74400002 0.044352323 1.1988321e-38 318 206
-0.00130448 0.74400002 0.044352323 1.327906e-38 319 206
0 0.74400002 0.044352323 1.4668481e-38 320 206
0.0013079866 0.74599999 0.044471547 1.6051416e-38 321 206
0.0026159731 0.74599999 0.044471547 1.752295e-38 322 206
0.0039239596 0.74599999 0.044471547 1.7892091e-38 323 206
0.0052319462 0.74599999 0.044471547 1.8167599e-38 324 206
0.0065486995 0.74699998 0.044531155 1.8259796e-38 325 206
0.0078584393 0.74699998 0.044531155 1.8075768e-38 326 206
0.0091927266 0.74900001 0.044650383 1.7707344e-38 327 206
0.010505973 0.74900001 0.044650383 1.7614783e-38 328 206
0.011835 0.75 0.044709999 1.7614783e-38 329 206
0.013185065 0.75199997 0.044829223 1.7615499e-38 330 206
0.014503572 0.75199997 0.044829223 1.7431106e-38 331 206
0.015822079 0.75199997 0.044829223 1.7428233e-38 332 206
0.017140586 0.75199997 0.044829223 1.6967255e-38 333 206
0.018459093 0.75199997 0.044829223 1.5957422e-38 334 206
0.0198565 0.755 0.045008067 1.6326205e-38 335 206
-0.033094164 0.755 0.043684296 1.8995918e-38 295 207
-0.031770397 0.755 0.043684296 1.871896e-38 296 207
-0.030446632 0.755 0.043684296 1.7981034e-38 297 207
-0.029122867 0.755 0.043684296 1.7060861e-38 298 207
-0.027762281 0.75400001 0.043626439 1.7429643e-38 299 207
-0.026440267 0.75400001 0.043626439 1.8074294e-38 300 207
-0.025118252 0.75400001 0.043626439 1.8627107e-38 301 207
-0.023733119 0.75199997 0.04351072 1.8995168e-38 302 207
-0.022414612 0.75199997 0.04351072 1.8995168e-38 303 207
-0.021096105 0.75199997 0.04351072 1.8995171e-38 304 207
-0.019724999 0.75 0.043394998 1.9179562e-38 305 207
-0.018336359 0.74699998 0.043221418 1.9179928e-38 306 207
-0.017026618 0.74699998 0.043221418 1.9179928e-38 307 207
-0.015695838 0.74599999 0.04316356 1.9547992e-38 308 207
-0.014387853 0.74599999 0.04316356 1.9640187e-38 309 207
-0.013079867 0.74599999 0.04316356 1.9732383e-38 310 207
-0.011771879 0.74599999 0.04316356 1.9917133e-38 311 207
-0.01043584 0.74400002 0.043047838 2.0375953e-38 312 207
-0.0091313599 0.74400002 0.043047838 2.06529e-38 313 207
-0.0078268806 0.74400002 0.043047838 2.0743294e-38 314 207
-0.0065223998 0.74400002 0.043047838 2.0466707e-38 315 207
-0.0052038929 0.74199998 0.042932119 1.926961e-38 316 207
-0.0039029196 0.74199998 0.042932119 1.7702283e-38 317 207
-0.0026019465 0.74199998 0.042932119 1.6690296e-38 318 207
-0.00130448 0.74400002 0.043047838 1.7428221e-38 319 207
0 0.74400002 0.043047838 1.853601e-38 320 207
0.00130448 0.74400002 0.043047838 1.918138e-38 321 207
0.0026159731 0.74599999 0.04316356 1.9457244e-38 322 207
0.0039239596 0.74599999 0.04316356 1.9088461e-38 323 207
0.0052319462 0.74599999 0.04316356 1.8904789e-38 324 207
0.0065399334 0.74599999 0.04316356 1.8720758e-38 325 207
0.0078584393 0.74699998 0.043221418 1.8258713e-38 326 207
0.0091927266 0.74900001 0.04333714 1.8258713e-38 327 207
0.010505973 0.74900001 0.04333714 1.7982839e-38 328 207
0.01181922 0.74900001 0.04333714 1.7705892e-38 329 207
0.01315 0.75 0.043394998 1.7522933e-38 330 207
0.014503572 0.75199997 0.04351072 1.7799161e-38 331 207
0.015822079 0.75199997 0.04351072 1.7430738e-38 332 207
0.017140586 0.75199997 0.04351072 1.7153792e-38 333 207
0.018459093 0.75199997 0.04351072 1.6325113e-38 334 207
0.0197776 0.75199997 0.04351072 1.5956331e-38 335 207
0.021152213 0.75400001 0.043626439 1.6048899e-38 336 207
0.022474226 0.75400001 0.043626439 1.6694268e-38 337 207
-0.034372345 0.75400001 0.042304426 1.899447e-38 294 208
-0.033050332 0.75400001 0.042304426 1.8256547e-38 295 208
-0.03172832 0.75400001 0.042304426 1.7703363e-38 296 208
-0.030406307 0.75400001 0.042304426 1.7887394e-38 297 208
-0.029084291 0.75400001 0.042304426 1.7705877e-38 298 208
-0.027762281 0.75400001 0.042304426 1.8351246e-38 299 208
-0.026440267 0.75400001 0.042304426 1.8810778e-38 300 208
-0.025118252 0.75400001 0.042304426 1.8995171e-38 301 208
-0.023733119 0.75199997 0.04219221 1.8812575e-38 302 208
-0.022355 0.75 0.04208 1.8720379e-38 303 208
-0.020955838 0.74699998 0.041911677 1.8811859e-38 304 208
-0.019646099 0.74699998 0.041911677 1.8811859e-38 305 208
-0.018336359 0.74699998 0.041911677 1.8811506e-38 306 208
-0.017026618 0.74699998 0.041911677 1.8811506e-38 307 208
-0.015695838 0.74599999 0.04185557 1.8994818e-38 308 208
-0.014387853 0.74599999 0.04185557 1.8994818e-38 309 208
-0.013079867 0.74599999 0.04185557 1.9087369e-38 310 208
-0.011771879 0.74599999 0.04185557 1.9087369e-38 311 208
-0.01043584 0.74400002 0.04174336 1.9088088e-38 312 208
-0.0091313599 0.74400002 0.04174336 1.927248e-38 313 208
-0.0078058392 0.74199998 0.041631144 1.9547271e-38 314 208
-0.0065048663 0.74199998 0.041631144 1.9547271e-38 315 208
-0.0052038929 0.74199998 0.041631144 1.9456878e-38 316 208
-0.0039029196 0.74199998 0.041631144 1.9549073e-38 317 208
-0.0026019465 0.74199998 0.041631144 1.9822786e-38 318 208
-0.0013009732 0.74199998 0.041631144 1.9361808e-38 319 208
0 0.74199998 0.041631144 1.8534208e-38 320 208
0.0013009732 0.74199998 0.041631144 1.8626404e-38 321 208
0.00260896 0.74400002 0.04174336 1.8168303e-38 322 208
0.0039134403 0.74400002 0.04174336 1.7983911e-38 323 208
0.0052179201 0.74400002 0.04174336 1.7983911e-38 324 208
0.0065399334 0.74599999 0.04185557 1.7983911e-38 325 208
0.0078584393 0.74699998 0.041911677 1.7982837e-38 326 208
0.0091681797 0.74699998 0.041911677 1.7890641e-38 327 208
0.010477919 0.74699998 0.041911677 1.7890641e-38 328 208
0.011787659 0.74699998 0.041911677 1.7798445e-38 329 208
0.013132467 0.74900001 0.042023893 1.7522933e-38 330 208
0.014465 0.75 0.04208 1.7522933e-38 331 208
0.01578 0.75 0.04208 1.7247069e-38 332 208
0.017095 0.75 0.04208 1.7431101e-38 333 208
0.018459093 0.75199997 0.04219221 1.7338186e-38 334 208
0.0197776 0.75199997 0.04219221 1.6969764e-38 335 208
0.021152213 0.75400001 0.042304426 1.6508425e-38 336 208
0.022474226 0.75400001 0.042304426 1.6139643e-38 337 208
0.02379624 0.75400001 0.042304426 1.5958501e-38 338 208
-0.035694357 0.75400001 0.040982414 1.8810805e-38 293 209
-0.034372345 0.75400001 0.040982414 1.8164703e-38 294 209
-0.033050332 0.75400001 0.040982414 1.7888476e-38 295 209
-0.03172832 0.75400001 0.040982414 1.7979946e-38 296 209
-0.030406307 0.75400001 0.040982414 1.8256533e-38 297 209
-0.029084291 0.75400001 0.040982414 1.8258332e-38 298 209
-0.027762281 0.75400001 0.040982414 1.8811506e-38 299 209
-0.02637013 0.75199997 0.040873703 1.8719307e-38 300 209
-0.024984999 0.75 0.040764999 1.8904057e-38 301 209
-0.02363844 0.74900001 0.040710647 1.8811859e-38 302 209
-0.022265578 0.74699998 0.040601939 1.8811859e-38 303 209
-0.020955838 0.74699998 0.040601939 1.8811503e-38 304 209
-0.019619798 0.74599999 0.040547583 1.8811503e-38 305 209
-0.018311813 0.74599999 0.040547583 1.8811506e-38 306 209
-0.017003827 0.74599999 0.040547583 1.8811506e-38 307 209
-0.015695838 0.74599999 0.040547583 1.9087014e-38 308 209
-0.01434928 0.74400002 0.040438879 1.8994818e-38 309 209
-0.0130448 0.74400002 0.040438879 1.9087369e-38 310 209
-0.011740319 0.74400002 0.040438879 1.9179565e-38 311 209
-0.010407786 0.74199998 0.040330172 1.9179565e-38 312 209
-0.009106813 0.74199998 0.040330172 1.9179565e-38 313 209
-0.0078058392 0.74199998 0.040330172 1.9179928e-38 314 209
-0.0065048663 0.74199998 0.040330172 1.9087732e-38 315 209
-0.0051968796 0.741 0.04027582 1.9272482e-38 316 209
-0.0038976599 0.741 0.04027582 1.9364679e-38 317 209
-0.0025984398 0.741 0.04027582 1.9638388e-38 318 209
-0.0012992199 0.741 0.04027582 1.9269966e-38 319 209
0 0.74199998 0.040330172 1.8533845e-38 320 209
0.0013009732 0.74199998 0.040330172 1.8533845e-38 321 209
0.0026019465 0.74199998 0.040330172 1.8076107e-38 322 209
0.0039029196 0.74199998 0.040330172 1.8168303e-38 323 209
0.0052038929 0.74199998 0.040330172 1.8351615e-38 324 209
0.0065223998 0.74400002 0.040438879 1.8351615e-38 325 209
0.0078479191 0.74599999 0.040547583 1.8075388e-38 326 209
0.0091559067 0.74599999 0.040547583 1.7983192e-38 327 209
0.010463892 0.74599999 0.040547583 1.7983192e-38 328 209
0.011787659 0.74699998 0.040601939 1.7983192e-38 329 209
0.013097399 0.74699998 0.040601939 1.7890638e-38 330 209
0.014445714 0.74900001 0.040710647 1.7798443e-38 331 209
0.01575896 0.74900001 0.040710647 1.7248144e-38 332 209
0.017072206 0.74900001 0.040710647 1.7340341e-38 333 209
0.018385453 0.74900001 0.040710647 1.761513e-38 334 209
0.0197776 0.75199997 0.040873703 1.7522933e-38 335 209
0.021096105 0.75199997 0.040873703 1.7245269e-38 336 209
0.022414612 0.75199997 0.040873703 1.6692454e-38 337 209
0.023733119 0.75199997 0.040873703 1.623149e-38 338 209
0.025051624 0.75199997 0.040873703 1.6600271e-38 339 209
-0.037016369 0.75400001 0.039660402 1.8441297e-38 292 210
-0.035694357 0.75400001 0.039660402 1.7888123e-38 293 210
-0.034372345 0.75400001 0.039660402 1.7611886e-38 294 210
-0.033050332 0.75400001 0.039660402 1.7980669e-38 295 210
-0.03172832 0.75400001 0.039660402 1.834873e-38 296 210
-0.030325651 0.75199997 0.039555199 1.8809706e-38 297 210
-0.029007144 0.75199997 0.039555199 1.8627828e-38 298 210
-0.027615 0.75 0.039449997 1.8904773e-38 299 210
-0.0263 0.75 0.039449997 1.8904054e-38 300 210
-0.024885058 0.74699998 0.039292198 1.8904054e-38 301 210
-0.023575317 0.74699998 0.039292198 1.8811503e-38 302 210
-0.022235774 0.74599999 0.039239597 1.8811503e-38 303 210
-0.020927785 0.74599999 0.039239597 1.8995174e-38 304 210
-0.019567199 0.74400002 0.039134398 1.8995174e-38 305 210
-0.01826272 0.74400002 0.039134398 1.9087369e-38 306 210
-0.017003827 0.74599999 0.039239597 1.9087369e-38 307 210
-0.015653761 0.74400002 0.039134398 1.9087369e-38 308 210
-0.01434928 0.74400002 0.039134398 1.8995174e-38 309 210
-0.0130448 0.74400002 0.039134398 1.9087014e-38 310 210
-0.01170876 0.74199998 0.0390292 1.9179209e-38 311 210
-0.010407786 0.74199998 0.0390292 1.9087735e-38 312 210
-0.009106813 0.74199998 0.0390292 1.9087735e-38 313 210
-0.0077953199 0.741 0.038976599 1.8996616e-38 314 210
-0.0064960998 0.741 0.038976599 1.9088811e-38 315 210
-0.0051968796 0.741 0.038976599 1.9273196e-38 316 210
-0.0038976599 0.741 0.038976599 1.9273196e-38 317 210
-0.0025984398 0.741 0.038976599 1.9179562e-38 318 210
-0.0012992199 0.741 0.038976599 1.8995171e-38 319 210
0 0.741 0.038976599 1.8626757e-38 320 210
0.0012992199 0.741 0.038976599 1.8534561e-38 321 210
0.0025984398 0.741 0.038976599 1.7892439e-38 322 210
0.0038976599 0.741 0.038976599 1.807647e-38 323 210
0.0051968796 0.741 0.038976599 1.807647e-38 324 210
0.0065048663 0.74199998 0.0390292 1.807647e-38 325 210
0.0078268806 0.74400002 0.039134398 1.8076107e-38 326 210
0.0091313599 0.74400002 0.039134398 1.7983911e-38 327 210
0.01043584 0.74400002 0.039134398 1.7983555e-38 328 210
0.011740319 0.74400002 0.039134398 1.789136e-38 329 210
0.013079867 0.74599999 0.039239597 1.789136e-38 330 210
0.014407139 0.74699998 0.039292198 1.7799164e-38 331 210
0.015716879 0.74699998 0.039292198 1.7615849e-38 332 210
0.017026618 0.74699998 0.039292198 1.7523653e-38 333 210
0.018336359 0.74699998 0.039292198 1.7431101e-38 334 210
0.019646099 0.74699998 0.039292198 1.7431101e-38 335 210
0.02104 0.75 0.039449997 1.7430382e-38 336 210
0.022355 0.75 0.039449997 1.724599e-38 337 210
0.023669999 0.75 0.039449997 1.7060523e-38 338 210
0.025051624 0.75199997 0.039555199 1.6322958e-38 339 210
0.02637013 0.75199997 0.039555199 1.5222378e-38 340 210
-0.037016369 0.75400001 0.038338386 1.7796277e-38 292 211
-0.035694357 0.75400001 0.038338386 1.7980669e-38 293 211
-0.034281172 0.75199997 0.038236689 1.8072139e-38 294 211
-0.032962665 0.75199997 0.038236689 1.8625312e-38 295 211
-0.031644158 0.75199997 0.038236689 1.8534912e-38 296 211
-0.030325651 0.75199997 0.038236689 1.8719663e-38 297 211
-0.028929999 0.75 0.038135 1.8720382e-38 298 211
-0.027578179 0.74900001 0.038084153 1.8812578e-38 299 211
-0.026264934 0.74900001 0.038084153 1.8812222e-38 300 211
-0.024851745 0.74599999 0.03793161 1.8812222e-38 301 211
-0.023543758 0.74599999 0.03793161 1.8811506e-38 302 211
-0.022235774 0.74599999 0.03793161 1.8811506e-38 303 211
-0.02087168 0.74400002 0.037829921 1.8811506e-38 304 211
-0.019567199 0.74400002 0.037829921 1.8903701e-38 305 211
-0.01826272 0.74400002 0.037829921 1.890442e-38 306 211
-0.016958239 0.74400002 0.037829921 1.890442e-38 307 211
-0.015653761 0.74400002 0.037829921 1.8812224e-38 308 211
-0.014310705 0.74199998 0.037728224 1.8720029e-38 309 211
-0.013009733 0.74199998 0.037728224 1.8903701e-38 310 211
-0.01170876 0.74199998 0.037728224 1.8903701e-38 311 211
-0.010407786 0.74199998 0.037728224 1.8904423e-38 312 211
-0.0090945391 0.741 0.037677377 1.8904423e-38 313 211
-0.0077953199 0.741 0.037677377 1.9088814e-38 314 211
-0.0064960998 0.741 0.037677377 1.9272847e-38 315 211
-0.0051828534 0.73900002 0.037575684 1.9182083e-38 316 211
-0.00388714 0.73900002 0.037575684 1.9089888e-38 317 211
-0.0025914267 0.73900002 0.037575684 1.9272477e-38 318 211
-0.0012957134 0.73900002 0.037575684 1.9088086e-38 319 211
0 0.741 0.037677377 1.8904067e-38 320 211
0.0012992199 0.741 0.037677377 1.8443448e-38 321 211
0.0025984398 0.741 0.037677377 1.8076473e-38 322 211
0.0038976599 0.741 0.037677377 1.8076473e-38 323 211
0.0051968796 0.741 0.037677377 1.8076473e-38 324 211
0.0064960998 0.741 0.037677377 1.8076473e-38 325 211
0.0078058392 0.74199998 0.037728224 1.8167947e-38 326 211
0.009106813 0.74199998 0.037728224 1.8075751e-38 327 211
0.010407786 0.74199998 0.037728224 1.8075751e-38 328 211
0.011740319 0.74400002 0.037829921 1.7983555e-38 329 211
0.0130448 0.74400002 0.037829921 1.7707692e-38 330 211
0.014387853 0.74599999 0.03793161 1.7615496e-38 331 211
0.015695838 0.74599999 0.03793161 1.7615496e-38 332 211
0.017003827 0.74599999 0.03793161 1.75233e-38 333 211
0.018311813 0.74599999 0.03793161 1.75233e-38 334 211
0.019646099 0.74699998 0.03798246 1.75233e-38 335 211
0.020955838 0.74699998 0.03798246 1.7247072e-38 336 211
0.022355 0.75 0.038135 1.7154877e-38 337 211
0.02363844 0.74900001 0.038084153 1.6877931e-38 338 211
0.024951685 0.74900001 0.038084153 1.6416953e-38 339 211
0.026264934 0.74900001 0.038084153 1.5955983e-38 340 211
-0.037016369 0.75400001 0.037016369 1.7521486e-38 292 212
-0.035599679 0.75199997 0.036918186 1.8074659e-38 293 212
-0.034281172 0.75199997 0.036918186 1.8166136e-38 294 212
-0.032874998 0.75 0.036819998 1.8534559e-38 295 212
-0.03156 0.75 0.036819998 1.8627828e-38 296 212
-0.030244999 0.75 0.036819998 1.8812578e-38 297 212
-0.028891427 0.74900001 0.036770906 1.8628912e-38 298 212
-0.027504537 0.74699998 0.036672719 1.8628912e-38 299 212
-0.026194798 0.74699998 0.036672719 1.8812227e-38 300 212
-0.02478512 0.74400002 0.036525439 1.8719673e-38 301 212
-0.023480639 0.74400002 0.036525439 1.8811508e-38 302 212
-0.022176161 0.74400002 0.036525439 1.8903704e-38 303 212
-0.020815572 0.74199998 0.036427252 1.8903701e-38 304 212
-0.0195146 0.74199998 0.036427252 1.9087732e-38 305 212
-0.018213626 0.74199998 0.036427252 1.9087735e-38 306 212
-0.016912652 0.74199998 0.036427252 1.8903704e-38 307 212
-0.015611678 0.74199998 0.036427252 1.8903704e-38 308 212
-0.01429142 0.741 0.036378156 1.8903704e-38 309 212
-0.0129922 0.741 0.036378156 1.8903704e-38 310 212
-0.01169298 0.741 0.036378156 1.9087735e-38 311 212
-0.010393759 0.741 0.036378156 1.9087379e-38 312 212
-0.0090945391 0.741 0.036378156 1.9087379e-38 313 212
-0.0077742799 0.73900002 0.036279973 1.8721474e-38 314 212
-0.0064785667 0.73900002 0.036279973 1.8813669e-38 315 212
-0.0051828534 0.73900002 0.036279973 1.8997335e-38 316 212
-0.00388714 0.73900002 0.036279973 1.8997335e-38 317 212
-0.0025914267 0.73900002 0.036279973 1.9271761e-38 318 212
-0.0012957134 0.73900002 0.036279973 1.9179565e-38 319 212
0 0.73900002 0.036279973 1.8628556e-38 320 212
0.0012957134 0.73900002 0.036279973 1.8536361e-38 321 212
0.0025914267 0.73900002 0.036279973 1.8167947e-38 322 212
0.00388714 0.73900002 0.036279973 1.8167947e-38 323 212
0.0051828534 0.73900002 0.036279973 1.807647e-38 324 212
0.0064785667 0.73900002 0.036279973 1.807647e-38 325 212
0.0077953199 0.741 0.036378156 1.8351618e-38 326 212
0.0090945391 0.741 0.036378156 1.8259422e-38 327 212
0.010393759 0.741 0.036378156 1.8075754e-38 328 212
0.01169298 0.741 0.036378156 1.7983558e-38 329 212
0.013009733 0.74199998 0.036427252 1.7707694e-38 330 212
0.01434928 0.74400002 0.036525439 1.7707694e-38 331 212
0.015653761 0.74400002 0.036525439 1.7523303e-38 332 212
0.016958239 0.74400002 0.036525439 1.7615499e-38 333 212
0.018311813 0.74599999 0.036623627 1.7339988e-38 334 212
0.019619798 0.74599999 0.036623627 1.7247791e-38 335 212
0.020955838 0.74699998 0.036672719 1.7155595e-38 336 212
0.022265578 0.74699998 0.036672719 1.7063041e-38 337 212
0.023575317 0.74699998 0.036672719 1.7153439e-38 338 212
0.024885058 0.74699998 0.036672719 1.6877211e-38 339 212
0.026194798 0.74699998 0.036672719 1.6967261e-38 340 212
0.027504537 0.74699998 0.036672719 1.6321892e-38 341 212
-0.036918186 0.75199997 0.035599679 1.6878634e-38 292 213
-0.035599679 0.75199997 0.035599679 1.715558e-38 293 213
-0.034281172 0.75199997 0.035599679 1.8810425e-38 294 213
-0.032874998 0.75 0.035505001 1.8810425e-38 295 213
-0.031517919 0.74900001 0.03545766 1.8720029e-38 296 213
-0.030204674 0.74900001 0.03545766 1.8812224e-38 297 213
-0.028814279 0.74699998 0.035362978 1.8628559e-38 298 213
-0.027467718 0.74599999 0.03531564 1.8536363e-38 299 213
-0.026089599 0.74400002 0.035220962 1.8628562e-38 300 213
-0.024718491 0.74199998 0.03512628 1.8628562e-38 301 213
-0.023417519 0.74199998 0.03512628 1.8812227e-38 302 213
-0.022116546 0.74199998 0.03512628 1.8904423e-38 303 213
-0.020815572 0.74199998 0.03512628 1.8903704e-38 304 213
-0.019488299 0.741 0.035078939 1.9087735e-38 305 213
-0.018189078 0.741 0.035078939 1.8904423e-38 306 213
-0.016889861 0.741 0.035078939 1.8904423e-38 307 213
-0.01559064 0.741 0.035078939 1.9087735e-38 308 213
-0.01429142 0.741 0.035078939 1.9087735e-38 309 213
-0.0129922 0.741 0.035078939 1.8903704e-38 310 213
-0.01169298 0.741 0.035078939 1.9087735e-38 311 213
-0.010365707 0.73900002 0.034984261 1.8904067e-38 312 213
-0.0090699932 0.73900002 0.034984261 1.8904067e-38 313 213
-0.0077742799 0.73900002 0.034984261 1.8904786e-38 314 213
-0.0064785667 0.73900002 0.034984261 1.8996981e-38 315 213
-0.0051828534 0.73900002 0.034984261 1.9272847e-38 316 213
-0.0038818798 0.73799998 0.034936916 1.9088814e-38 317 213
-0.0025879198 0.73799998 0.034936916 1.8996263e-38 318 213
-0.0012939599 0.73799998 0.034936916 1.8904067e-38 319 213
0 0.73799998 0.034936916 1.853601e-38 320 213
0.0012939599 0.73799998 0.034936916 1.8628206e-38 321 213
0.0025879198 0.73799998 0.034936916 1.8260147e-38 322 213
0.0038818798 0.73799998 0.034936916 1.8167949e-38 323 213
0.0051758396 0.73799998 0.034936916 1.8167949e-38 324 213
0.0064697997 0.73799998 0.034936916 1.8260147e-38 325 213
0.0077742799 0.73900002 0.034984261 1.8167949e-38 326 213
0.0090699932 0.73900002 0.034984261 1.8167949e-38 327 213
0.010365707 0.73900002 0.034984261 1.8075757e-38 328 213
0.01166142 0.73900002 0.034984261 1.7983202e-38 329 213
0.0129922 0.741 0.035078939 1.7524026e-38 330 213
0.01429142 0.741 0.035078939 1.7524026e-38 331 213
0.015611678 0.74199998 0.03512628 1.7431833e-38 332 213
0.016912652 0.74199998 0.03512628 1.7339638e-38 333 213
0.018213626 0.74199998 0.03512628 1.7339635e-38 334 213
0.019567199 0.74400002 0.035220962 1.7247438e-38 335 213
0.020927785 0.74599999 0.03531564 1.7155242e-38 336 213
0.022235774 0.74599999 0.03531564 1.6970492e-38 337 213
0.023543758 0.74599999 0.03531564 1.6969776e-38 338 213
0.024851745 0.74599999 0.03531564 1.6785385e-38 339 213
0.026159734 0.74599999 0.03531564 1.6508801e-38 340 213
0.027467718 0.74599999 0.03531564 1.632441e-38 341 213
0.028775707 0.74599999 0.03531564 1.549681e-38 342 213
-0.036819998 0.75 0.034189999 1.2555169e-38 292 214
-0.035505001 0.75 0.034189999 1.4767864e-38 293 214
-0.034144413 0.74900001 0.034144413 1.8811508e-38 294 214
-0.032831166 0.74900001 0.034144413 1.8811508e-38 295 214
-0.031517919 0.74900001 0.034144413 1.8719673e-38 296 214
-0.030124018 0.74699998 0.034053236 1.8812227e-38 297 214
-0.028814279 0.74699998 0.034053236 1.8628559e-38 298 214
-0.027394081 0.74400002 0.033916477 1.8720755e-38 299 214
-0.026089599 0.74400002 0.033916477 1.8628559e-38 300 214
-0.024685178 0.741 0.033779722 1.8628559e-38 301 214
-0.023385961 0.741 0.033779722 1.8903704e-38 302 214
-0.02208674 0.741 0.033779722 1.9087735e-38 303 214
-0.020787518 0.741 0.033779722 1.8904423e-38 304 214
-0.019488299 0.741 0.033779722 1.8904423e-38 305 214
-0.018189078 0.741 0.033779722 1.8904423e-38 306 214
-0.016889861 0.741 0.033779722 1.8904423e-38 307 214
-0.01559064 0.741 0.033779722 1.8904423e-38 308 214
-0.014252847 0.73900002 0.033688545 1.8904423e-38 309 214
-0.012957133 0.73900002 0.033688545 1.8904423e-38 310 214
-0.01166142 0.73900002 0.033688545 1.8904423e-38 311 214
-0.010351679 0.73799998 0.033642959 1.9087379e-38 312 214
-0.0090577193 0.73799998 0.033642959 1.9087379e-38 313 214
-0.0077637597 0.73799998 0.033642959 1.8996263e-38 314 214
-0.0064697997 0.73799998 0.033642959 1.9088817e-38 315 214
-0.0051758396 0.73799998 0.033642959 1.9089534e-38 316 214
-0.0038818798 0.73799998 0.033642959 1.9089534e-38 317 214
-0.0025879198 0.73799998 0.033642959 1.9087735e-38 318 214
-0.0012939599 0.73799998 0.033642959 1.8903704e-38 319 214
0 0.73799998 0.033642959 1.8629281e-38 320 214
0.0012939599 0.73799998 0.033642959 1.8536726e-38 321 214
0.0025809065 0.736 0.033551786 1.8260502e-38 322 214
0.0038713599 0.736 0.033551786 1.8167947e-38 323 214
0.005161813 0.736 0.033551786 1.8076473e-38 324 214
0.0064522666 0.736 0.033551786 1.8076473e-38 325 214
0.0077427197 0.736 0.033551786 1.8350546e-38 326 214
0.0090577193 0.73799998 0.033642959 1.8350546e-38 327 214
0.010351679 0.73799998 0.033642959 1.8075401e-38 328 214
0.011645639 0.73799998 0.033642959 1.7983205e-38 329 214
0.012939599 0.73799998 0.033642959 1.7707341e-38 330 214
0.014252847 0.73900002 0.033688545 1.7707341e-38 331 214
0.01559064 0.741 0.033779722 1.7615143e-38 332 214
0.016889861 0.741 0.033779722 1.7615143e-38 333 214
0.018213626 0.74199998 0.033825304 1.7523303e-38 334 214
0.019567199 0.74400002 0.033916477 1.7431106e-38 335 214
0.02087168 0.74400002 0.033916477 1.715524e-38 336 214
0.022235774 0.74599999 0.034007654 1.7063044e-38 337 214
0.023543758 0.74599999 0.034007654 1.7062325e-38 338 214
0.024851745 0.74599999 0.034007654 1.6877934e-38 339 214
0.026159734 0.74599999 0.034007654 1.6877213e-38 340 214
0.027467718 0.74599999 0.034007654 1.6877213e-38 341 214
0.028775707 0.74599999 0.034007654 1.4852521e-38 342 214
-0.036819998 0.75 0.032874998 9.0556811e-39 292 215
-0.03545766 0.74900001 0.032831166 1.4863647e-38 293 215
-0.034053236 0.74699998 0.032743499 1.9272129e-38 294 215
-0.032743499 0.74699998 0.032743499 1.8903348e-38 295 215
-0.031433757 0.74699998 0.032743499 1.8719679e-38 296 215
-0.03008369 0.74599999 0.032699663 1.8811874e-38 297 215
-0.028775707 0.74599999 0.032699663 1.8811874e-38 298 215
-0.027320439 0.74199998 0.032524332 1.8811874e-38 299 215
-0.026019465 0.74199998 0.032524332 1.8903348e-38 300 215
-0.024685178 0.741 0.032480497 1.8903348e-38 301 215
-0.023385961 0.741 0.032480497 1.9087019e-38 302 215
-0.02208674 0.741 0.032480497 1.9179215e-38 303 215
-0.020787518 0.741 0.032480497 1.8904067e-38 304 215
-0.019488299 0.741 0.032480497 1.8904067e-38 305 215
-0.018139986 0.73900002 0.032392833 1.890407e-38 306 215
-0.016844273 0.73900002 0.032392833 1.890407e-38 307 215
-0.01554856 0.73900002 0.032392833 1.890407e-38 308 215
-0.014252847 0.73900002 0.032392833 1.890407e-38 309 215
-0.012957133 0.73900002 0.032392833 1.8904067e-38 310 215
-0.011645639 0.73799998 0.032348998 1.8904067e-38 311 215
-0.010323626 0.736 0.032261331 1.9087379e-38 312 215
-0.0090331733 0.736 0.032261331 1.9179934e-38 313 215
-0.0077427197 0.736 0.032261331 1.9087379e-38 314 215
-0.0064522666 0.736 0.032261331 1.9179934e-38 315 215
-0.005161813 0.736 0.032261331 1.927285e-38 316 215
-0.0038713599 0.736 0.032261331 1.9365045e-38 317 215
-0.0025809065 0.736 0.032261331 1.8628206e-38 318 215
-0.0012904532 0.736 0.032261331 1.8351618e-38 319 215
0 0.736 0.032261331 1.8536732e-38 320 215
0.0012904532 0.736 0.032261331 1.8536732e-38 321 215
0.0025809065 0.736 0.032261331 1.8167949e-38 322 215
0.0038713599 0.736 0.032261331 1.8075754e-38 323 215
0.0051477868 0.73400003 0.032173667 1.8075757e-38 324 215
0.006434733 0.73400003 0.032173667 1.8167952e-38 325 215
0.0077427197 0.736 0.032261331 1.8258713e-38 326 215
0.0090331733 0.736 0.032261331 1.8258713e-38 327 215
0.010323626 0.736 0.032261331 1.7983208e-38 328 215
0.01161408 0.736 0.032261331 1.7983208e-38 329 215
0.012904533 0.736 0.032261331 1.7890654e-38 330 215
0.014252847 0.73900002 0.032392833 1.7890654e-38 331 215
0.01554856 0.73900002 0.032392833 1.7615143e-38 332 215
0.016889861 0.741 0.032480497 1.7615143e-38 333 215
0.018189078 0.741 0.032480497 1.7339991e-38 334 215
0.0195146 0.74199998 0.032524332 1.7339991e-38 335 215
0.020815572 0.74199998 0.032524332 1.7247438e-38 336 215
0.022176161 0.74400002 0.032612 1.7063047e-38 337 215
0.023480639 0.74400002 0.032612 1.6786461e-38 338 215
0.024851745 0.74599999 0.032699663 1.6694266e-38 339 215
0.026159734 0.74599999 0.032699663 1.660207e-38 340 215
0.027467718 0.74599999 0.032699663 1.6786461e-38 341 215
0.028775707 0.74599999 0.032699663 1.347174e-38 342 215
0.03008369 0.74599999 0.032699663 8.0318392e-39 343 215
0.031433757 0.74699998 0.032743499 2.1536304e-39 344 215
-0.035362978 0.74699998 0.031433757 1.7339985e-38 293 216
-0.034007654 0.74599999 0.031391677 1.9272496e-38 294 216
-0.032612 0.74400002 0.031307522 1.8904073e-38 295 216
-0.031307522 0.74400002 0.031307522 1.8719679e-38 296 216
-0.030003037 0.74400002 0.031307522 1.8811874e-38 297 216
-0.028621411 0.74199998 0.031223357 1.8720755e-38 298 216
-0.027320439 0.74199998 0.031223357 1.8720755e-38 299 216
-0.025984399 0.741 0.03118128 1.8812227e-38 300 216
-0.024685178 0.741 0.03118128 1.8812227e-38 301 216
-0.023322839 0.73900002 0.03109712 1.8903704e-38 302 216
-0.022027127 0.73900002 0.03109712 1.9087735e-38 303 216
-0.020731414 0.73900002 0.03109712 1.8996263e-38 304 216
-0.0194357 0.73900002 0.03109712 1.8904067e-38 305 216
-0.018139986 0.73900002 0.03109712 1.8720755e-38 306 216
-0.016844273 0.73900002 0.03109712 1.8720755e-38 307 216
-0.01554856 0.73900002 0.03109712 1.8904067e-38 308 216
-0.014233559 0.73799998 0.031055039 1.8904067e-38 309 216
-0.012939599 0.73799998 0.031055039 1.8904067e-38 310 216
-0.01161408 0.736 0.030970879 1.8996263e-38 311 216
-0.010323626 0.736 0.030970879 1.8904423e-38 312 216
-0.0090331733 0.736 0.030970879 1.8996619e-38 313 216
-0.0077216802 0.73400003 0.030886721 1.8904067e-38 314 216
-0.006434733 0.73400003 0.030886721 1.8996263e-38 315 216
-0.0051477868 0.73400003 0.030886721 1.9089181e-38 316 216
-0.0038713599 0.736 0.030970879 1.9273931e-38 317 216
-0.0025809065 0.736 0.030970879 1.8627853e-38 318 216
-0.0012904532 0.736 0.030970879 1.8075038e-38 319 216
0 0.736 0.030970879 1.8813686e-38 320 216
0.0012904532 0.736 0.030970879 1.8445262e-38 321 216
0.0025738934 0.73400003 0.030886721 1.8168317e-38 322 216
0.0038608401 0.73400003 0.030886721 1.807612e-38 323 216
0.0051477868 0.73400003 0.030886721 1.7892088e-38 324 216
0.006434733 0.73400003 0.030886721 1.7892088e-38 325 216
0.0077216802 0.73400003 0.030886721 1.8075401e-38 326 216
0.0090331733 0.736 0.030970879 1.7983205e-38 327 216
0.010323626 0.736 0.030970879 1.7799537e-38 328 216
0.01161408 0.736 0.030970879 1.7707341e-38 329 216
0.012904533 0.736 0.030970879 1.7615146e-38 330 216
0.014252847 0.73900002 0.03109712 1.7615146e-38 331 216
0.01554856 0.73900002 0.03109712 1.7615143e-38 332 216
0.016844273 0.73900002 0.03109712 1.7522947e-38 333 216
0.018189078 0.741 0.03118128 1.7523303e-38 334 216
0.019488299 0.741 0.03118128 1.7431106e-38 335 216
0.020815572 0.74199998 0.031223357 1.7246719e-38 336 216
0.022176161 0.74400002 0.031307522 1.7062328e-38 337 216
0.023480639 0.74400002 0.031307522 1.6969776e-38 338 216
0.02478512 0.74400002 0.031307522 1.6785385e-38 339 216
0.026089599 0.74400002 0.031307522 1.6417321e-38 340 216
0.027394081 0.74400002 0.031307522 1.6786464e-38 341 216
0.028775707 0.74599999 0.031391677 1.4851428e-38 342 216
0.030124018 0.74699998 0.031433757 9.6884725e-39 343 216
0.031433757 0.74699998 0.031433757 1.2151262e-39 344 216
0.032743499 0.74699998 0.031433757 2.0448868e-39 345 216
-0.03531564 0.74599999 0.03008369 1.7428965e-38 293 217
-0.034007654 0.74599999 0.03008369 1.9088108e-38 294 217
-0.032612 0.74400002 0.030003037 1.8995912e-38 295 217
-0.031307522 0.74400002 0.030003037 1.8811874e-38 296 217
-0.029922385 0.74199998 0.029922385 1.8811874e-38 297 217
-0.028621411 0.74199998 0.029922385 1.8720755e-38 298 217
-0.027283618 0.741 0.029882059 1.8628559e-38 299 217
-0.025984399 0.741 0.029882059 1.8903348e-38 300 217
-0.024618553 0.73900002 0.029801406 1.8903348e-38 301 217
-0.023322839 0.73900002 0.029801406 1.8903351e-38 302 217
-0.022027127 0.73900002 0.029801406 1.9087382e-38 303 217
-0.020731414 0.73900002 0.029801406 1.8720758e-38 304 217
-0.0194357 0.73900002 0.029801406 1.8720758e-38 305 217
-0.018139986 0.73900002 0.029801406 1.8720758e-38 306 217
-0.016821479 0.73799998 0.029761078 1.8720758e-38 307 217
-0.015527519 0.73799998 0.029761078 1.890407e-38 308 217
-0.014194986 0.736 0.029680425 1.890407e-38 309 217
-0.012904533 0.736 0.029680425 1.8904067e-38 310 217
-0.011582521 0.73400003 0.029599773 1.8996263e-38 311 217
-0.010295574 0.73400003 0.029599773 1.8904067e-38 312 217
-0.0090086265 0.73400003 0.029599773 1.8996263e-38 313 217
-0.0077216802 0.73400003 0.029599773 1.8904791e-38 314 217
-0.006434733 0.73400003 0.029599773 1.8996987e-38 315 217
-0.0051477868 0.73400003 0.029599773 1.8997712e-38 316 217
-0.0038608401 0.73400003 0.029599773 1.9366493e-38 317 217
-0.0025738934 0.73400003 0.029599773 1.8169048e-38 318 217
-0.0012869467 0.73400003 0.029599773 1.7339287e-38 319 217
0 0.73400003 0.029599773 1.8538919e-38 320 217
0.0012869467 0.73400003 0.029599773 1.8446724e-38 321 217
0.0025738934 0.73400003 0.029599773 1.7984654e-38 322 217
0.0038608401 0.73400003 0.029599773 1.7892458e-38 323 217
0.0051477868 0.73400003 0.029599773 1.8076122e-38 324 217
0.006434733 0.73400003 0.029599773 1.7892091e-38 325 217
0.0077216802 0.73400003 0.029599773 1.7983205e-38 326 217
0.0090086265 0.73400003 0.029599773 1.7983205e-38 327 217
0.010295574 0.73400003 0.029599773 1.7524032e-38 328 217
0.011582521 0.73400003 0.029599773 1.7431836e-38 329 217
0.012904533 0.736 0.029680425 1.7339282e-38 330 217
0.014233559 0.73799998 0.029761078 1.7339282e-38 331 217
0.015527519 0.73799998 0.029761078 1.7339635e-38 332 217
0.016844273 0.73900002 0.029801406 1.7339635e-38 333 217
0.018139986 0.73900002 0.029801406 1.7522947e-38 334 217
0.019488299 0.741 0.029882059 1.7522947e-38 335 217
0.020815572 0.74199998 0.029922385 1.7247089e-38 336 217
0.022116546 0.74199998 0.029922385 1.6970142e-38 337 217
0.023480639 0.74400002 0.030003037 1.6602438e-38 338 217
0.02478512 0.74400002 0.030003037 1.6325852e-38 339 217
0.026089599 0.74400002 0.030003037 1.6234731e-38 340 217
0.027394081 0.74400002 0.030003037 1.6603515e-38 341 217
0.028775707 0.74599999 0.03008369 1.5586845e-38 342 217
0.03008369 0.74599999 0.03008369 1.1806824e-38 343 217
0.031433757 0.74699998 0.030124018 2.7669955e-39 344 217
0.032743499 0.74699998 0.030124018 4.0637655e-43 345 217
-0.03531564 0.74599999 0.028775707 1.595528e-38 293 218
-0.033916477 0.74400002 0.02869856 1.8995912e-38 294 218
-0.032524332 0.74199998 0.028621411 1.8995912e-38 295 218
-0.031223357 0.74199998 0.028621411 1.8719676e-38 296 218
-0.029922385 0.74199998 0.028621411 1.8904067e-38 297 218
-0.028582839 0.741 0.028582839 1.8904067e-38 298 218
-0.027283618 0.741 0.028582839 1.8904067e-38 299 218
-0.025984399 0.741 0.028582839 1.8903348e-38 300 218
-0.024618553 0.73900002 0.028505694 1.8903348e-38 301 218
-0.023322839 0.73900002 0.028505694 1.8903351e-38 302 218
-0.022027127 0.73900002 0.028505694 1.9087382e-38 303 218
-0.020731414 0.73900002 0.028505694 1.890407e-38 304 218
-0.019409399 0.73799998 0.028467119 1.890407e-38 305 218
-0.018115439 0.73799998 0.028467119 1.8904073e-38 306 218
-0.016775893 0.736 0.028389972 1.8904073e-38 307 218
-0.01544336 0.73400003 0.028312827 1.8904073e-38 308 218
-0.014156413 0.73400003 0.028312827 1.8904073e-38 309 218
-0.012869466 0.73400003 0.028312827 1.8904789e-38 310 218
-0.011582521 0.73400003 0.028312827 1.8996984e-38 311 218
-0.010295574 0.73400003 0.028312827 1.8721476e-38 312 218
-0.0090086265 0.73400003 0.028312827 1.8813672e-38 313 218
-0.0077216802 0.73400003 0.028312827 1.8814042e-38 314 218
-0.006434733 0.73400003 0.028312827 1.8998433e-38 315 218
-0.0051477868 0.73400003 0.028312827 1.8721489e-38 316 218
-0.0038608401 0.73400003 0.028312827 1.7707697e-38 317 218
-0.0025738934 0.73400003 0.028312827 1.5578229e-38 318 218
-0.0012869467 0.73400003 0.028312827 1.4010902e-38 319 218
0 0.73400003 0.028312827 1.4949419e-38 320 218
0.0012869467 0.73400003 0.028312827 1.6793332e-38 321 218
0.0025738934 0.73400003 0.028312827 1.8537478e-38 322 218
0.0038608401 0.73400003 0.028312827 1.8168695e-38 323 218
0.005140773 0.73299998 0.028274251 1.8167603e-38 324 218
0.0064259665 0.73299998 0.028274251 1.7982852e-38 325 218
0.0077111595 0.73299998 0.028274251 1.7708063e-38 326 218
0.0090086265 0.73400003 0.028312827 1.7708063e-38 327 218
0.010295574 0.73400003 0.028312827 1.7431836e-38 328 218
0.011582521 0.73400003 0.028312827 1.7431836e-38 329 218
0.012869466 0.73400003 0.028312827 1.7247805e-38 330 218
0.014194986 0.736 0.028389972 1.7063774e-38 331 218
0.015485439 0.736 0.028389972 1.7430754e-38 332 218
0.016821479 0.73799998 0.028467119 1.7430754e-38 333 218
0.018115439 0.73799998 0.028467119 1.7522953e-38 334 218
0.0194357 0.73900002 0.028505694 1.7246366e-38 335 218
0.020787518 0.741 0.028582839 1.6879028e-38 336 218
0.022116546 0.74199998 0.028621411 1.6694637e-38 337 218
0.023417519 0.74199998 0.028621411 1.6418051e-38 338 218
0.02478512 0.74400002 0.02869856 1.6325854e-38 339 218
0.026089599 0.74400002 0.02869856 1.6050346e-38 340 218
0.027394081 0.74400002 0.02869856 1.6510966e-38 341 218
0.02869856 0.74400002 0.02869856 1.5586489e-38 342 218
0.03008369 0.74599999 0.028775707 1.217525e-38 343 218
0.031391677 0.74599999 0.028775707 3.0471768e-39 344 218
0.032699663 0.74599999 0.028775707 3.7835059e-44 345 218
-0.03531564 0.74599999 0.027467718 1.4019536e-38 293 219
-0.033916477 0.74400002 0.027394081 1.9272499e-38 294 219
-0.032524332 0.74199998 0.027320439 1.8995912e-38 295 219
-0.031223357 0.74199998 0.027320439 1.8536008e-38 296 219
-0.029922385 0.74199998 0.027320439 1.8628562e-38 297 219
-0.028582839 0.741 0.027283618 1.8628562e-38 298 219
-0.027283618 0.741 0.027283618 1.8628562e-38 299 219
-0.025984399 0.741 0.027283618 1.890407e-38 300 219
-0.024618553 0.73900002 0.027209979 1.8811874e-38 301 219
-0.023291279 0.73799998 0.027173158 1.890407e-38 302 219
-0.021997318 0.73799998 0.027173158 1.890407e-38 303 219
-0.020703359 0.73799998 0.027173158 1.8904073e-38 304 219
-0.019356798 0.736 0.02709952 1.8904073e-38 305 219
-0.018066347 0.736 0.02709952 1.8720402e-38 306 219
-0.016775893 0.736 0.02709952 1.8720402e-38 307 219
-0.01544336 0.73400003 0.02702588 1.8720758e-38 308 219
-0.014156413 0.73400003 0.02702588 1.8720758e-38 309 219
-0.012869466 0.73400003 0.02702588 1.8720402e-38 310 219
-0.011582521 0.73400003 0.02702588 1.8904791e-38 311 219
-0.010281546 0.73299998 0.026989058 1.8721845e-38 312 219
-0.0089963535 0.73299998 0.026989058 1.8814042e-38 313 219
-0.0077111595 0.73299998 0.026989058 1.899843e-38 314 219
-0.0064259665 0.73299998 0.026989058 1.9367212e-38 315 219
-0.005140773 0.73299998 0.026989058 1.8536717e-38 316 219
-0.0038555798 0.73299998 0.026989058 1.5955239e-38 317 219
-0.0025703865 0.73299998 0.026989058 1.0423518e-38 318 219
-0.0012851933 0.73299998 0.026989058 5.7215395e-39 319 219
0 0.73299998 0.026989058 1.0159197e-38 320 219
0.0012869467 0.73400003 0.02702588 1.3570435e-38 321 219
0.0025703865 0.73299998 0.026989058 1.7157433e-38 322 219
0.0038555798 0.73299998 0.026989058 1.7710606e-38 323 219
0.005140773 0.73299998 0.026989058 1.798502e-38 324 219
0.0064259665 0.73299998 0.026989058 1.7708793e-38 325 219
0.0077111595 0.73299998 0.026989058 1.761659e-38 326 219
0.0089963535 0.73299998 0.026989058 1.7432199e-38 327 219
0.010295574 0.73400003 0.02702588 1.7156688e-38 328 219
0.011582521 0.73400003 0.02702588 1.7064493e-38 329 219
0.012869466 0.73400003 0.02702588 1.7063774e-38 330 219
0.014156413 0.73400003 0.02702588 1.7063774e-38 331 219
0.01544336 0.73400003 0.02702588 1.7154889e-38 332 219
0.016821479 0.73799998 0.027173158 1.7154889e-38 333 219
0.018115439 0.73799998 0.027173158 1.7063777e-38 334 219
0.0194357 0.73900002 0.027209979 1.6879025e-38 335 219
0.020731414 0.73900002 0.027209979 1.660352e-38 336 219
0.02208674 0.741 0.027283618 1.6510966e-38 337 219
0.023385961 0.741 0.027283618 1.6418051e-38 338 219
0.024718491 0.74199998 0.027320439 1.6233659e-38 339 219
0.026019465 0.74199998 0.027320439 1.6233656e-38 340 219
0.027394081 0.74400002 0.027394081 1.6602438e-38 341 219
0.02869856 0.74400002 0.027394081 1.5770883e-38 342 219
0.030003037 0.74400002 0.027394081 1.2175253e-38 343 219
0.031307522 0.74400002 0.027394081 2.9582111e-39 344 219
0.032612 0.74400002 0.027394081 1.8286945e-42 345 219
-0.03512628 0.74199998 0.026019465 1.1902985e-38 293 220
-0.033825304 0.74199998 0.026019465 1.9456893e-38 294 220
-0.032524332 0.74199998 0.026019465 1.8995915e-38 295 220
-0.031223357 0.74199998 0.026019465 1.871896e-38 296 220
-0.029882059 0.741 0.025984399 1.8903351e-38 297 220
-0.028582839 0.741 0.025984399 1.8720758e-38 298 220
-0.027283618 0.741 0.025984399 1.8720758e-38 299 220
-0.025914267 0.73900002 0.025914267 1.8811874e-38 300 220
-0.024618553 0.73900002 0.025914267 1.890407e-38 301 220
-0.023291279 0.73799998 0.025879199 1.8811874e-38 302 220
-0.021997318 0.73799998 0.025879199 1.890407e-38 303 220
-0.020647252 0.736 0.025809066 1.8720402e-38 304 220
-0.019304199 0.73400003 0.025738932 1.8628206e-38 305 220
-0.018017253 0.73400003 0.025738932 1.8903354e-38 306 220
-0.016730307 0.73400003 0.025738932 1.8903354e-38 307 220
-0.01544336 0.73400003 0.025738932 1.8903717e-38 308 220
-0.014156413 0.73400003 0.025738932 1.8903717e-38 309 220
-0.012869466 0.73400003 0.025738932 1.8721123e-38 310 220
-0.011566739 0.73299998 0.025703866 1.8813319e-38 311 220
-0.010281546 0.73299998 0.025703866 1.8814042e-38 312 220
-0.0089963535 0.73299998 0.025703866 1.9366856e-38 313 220
-0.0077111595 0.73299998 0.025703866 1.9456893e-38 314 220
-0.0064259665 0.73299998 0.025703866 1.7428231e-38 315 220
-0.005140773 0.73299998 0.025703866 1.4282061e-38 316 220
-0.0038555798 0.73299998 0.025703866 7.3673869e-39 317 220
-0.0025703865 0.73299998 0.025703866 4.0526575e-39 318 220
-0.0012851933 0.73299998 0.025703866 4.6980269e-39 319 220
0 0.73299998 0.025703866 1.695431e-41 320 220
0.0012851933 0.73299998 0.025703866 3.3392382e-39 321 220
0.0025703865 0.73299998 0.025703866 7.4012745e-39 322 220
0.0038555798 0.73299998 0.025703866 1.1642275e-38 323 220
0.005140773 0.73299998 0.025703866 1.7065604e-38 324 220
0.0064259665 0.73299998 0.025703866 1.7618776e-38 325 220
0.0077111595 0.73299998 0.025703866 1.75262e-38 326 220
0.0089963535 0.73299998 0.025703866 1.7157057e-38 327 220
0.010295574 0.73400003 0.025738932 1.7064496e-38 328 220
0.011566739 0.73299998 0.025703866 1.6971941e-38 329 220
0.012851933 0.73299998 0.025703866 1.7154892e-38 330 220
0.014156413 0.73400003 0.025738932 1.7062338e-38 331 220
0.01544336 0.73400003 0.025738932 1.7247086e-38 332 220
0.016775893 0.736 0.025809066 1.7154889e-38 333 220
0.018066347 0.736 0.025809066 1.7154889e-38 334 220
0.019409399 0.73799998 0.025879199 1.6970498e-38 335 220
0.020731414 0.73900002 0.025914267 1.6694637e-38 336 220
0.02208674 0.741 0.025984399 1.6602083e-38 337 220
0.023385961 0.741 0.025984399 1.6326577e-38 338 220
0.024685178 0.741 0.025984399 1.6234022e-38 339 220
0.026019465 0.74199998 0.026019465 1.6233662e-38 340 220
0.027394081 0.74400002 0.026089599 1.6786477e-38 341 220
0.02869856 0.74400002 0.026089599 1.5679409e-38 342 220
0.030003037 0.74400002 0.026089599 1.1807192e-38 343 220
0.031307522 0.74400002 0.026089599 2.5908733e-39 344 220
0.032612 0.74400002 0.026089599 5.075503e-42 345 220
-0.03512628 0.74199998 0.024718491 9.2314768e-39 293 221
-0.033825304 0.74199998 0.024718491 1.8904088e-38 294 221
-0.032480497 0.741 0.024685178 1.8996284e-38 295 221
-0.03118128 0.741 0.024685178 1.853601e-38 296 221
-0.029882059 0.741 0.024685178 1.8628206e-38 297 221
-0.028582839 0.741 0.024685178 1.8720758e-38 298 221
-0.027209979 0.73900002 0.024618553 1.8720758e-38 299 221
-0.025914267 0.73900002 0.024618553 1.890407e-38 300 221
-0.024585238 0.73799998 0.024585238 1.890407e-38 301 221
-0.023228159 0.736 0.024518613 1.890407e-38 302 221
-0.021937706 0.736 0.024518613 1.890407e-38 303 221
-0.020647252 0.736 0.024518613 1.8628206e-38 304 221
-0.019304199 0.73400003 0.024451986 1.8628206e-38 305 221
-0.018017253 0.73400003 0.024451986 1.8628209e-38 306 221
-0.016730307 0.73400003 0.024451986 1.8628209e-38 307 221
-0.015422319 0.73299998 0.024418673 1.8536376e-38 308 221
-0.014137126 0.73299998 0.024418673 1.8628572e-38 309 221
-0.012851933 0.73299998 0.024418673 1.8721845e-38 310 221
-0.011566739 0.73299998 0.024418673 1.8906238e-38 311 221
-0.010281546 0.73299998 0.024418673 1.9273222e-38 312 221
-0.0089963535 0.73299998 0.024418673 1.8996634e-38 313 221
-0.0077111595 0.73299998 0.024418673 1.8069267e-38 314 221
-0.0064259665 0.73299998 0.024418673 1.3459486e-38 315 221
-0.005140773 0.73299998 0.024418673 7.0151313e-39 316 221
-0.0038555798 0.73299998 0.024418673 2.4053498e-39 317 221
-0.0025703865 0.73299998 0.024418673 4.9818052e-39 318 221
-0.0012851933 0.73299998 0.024418673 6.7335208e-39 319 221
0 0.73299998 0.024418673 2.9592831e-39 320 221
0.0012851933 0.73299998 0.024418673 2.0373268e-39 321 221
0.0025703865 0.73299998 0.024418673 8.5681554e-40 322 221
0.0038555798 0.73299998 0.024418673 5.3744e-39 323 221
0.005140773 0.73299998 0.024418673 1.0531967e-38 324 221
0.0064259665 0.73299998 0.024418673 1.366626e-38 325 221
0.0077111595 0.73299998 0.024418673 1.7525496e-38 326 221
0.0089963535 0.73299998 0.024418673 1.7340745e-38 327 221
0.010281546 0.73299998 0.024418673 1.7064142e-38 328 221
0.011566739 0.73299998 0.024418673 1.6879391e-38 329 221
0.012851933 0.73299998 0.024418673 1.6695713e-38 330 221
0.014156413 0.73400003 0.024451986 1.6695713e-38 331 221
0.01544336 0.73400003 0.024451986 1.6879744e-38 332 221
0.016730307 0.73400003 0.024451986 1.6879744e-38 333 221
0.018066347 0.736 0.024518613 1.678683e-38 334 221
0.019409399 0.73799998 0.024585238 1.6694634e-38 335 221
0.020731414 0.73900002 0.024618553 1.6418773e-38 336 221
0.022027127 0.73900002 0.024618553 1.6326577e-38 337 221
0.023385961 0.741 0.024685178 1.6234022e-38 338 221
0.024685178 0.741 0.024685178 1.6049991e-38 339 221
0.025984399 0.741 0.024685178 1.6049991e-38 340 221
0.027283618 0.741 0.024685178 1.6879391e-38 341 221
0.028621411 0.74199998 0.024718491 1.5220952e-38 342 221
0.029922385 0.74199998 0.024718491 1.0887758e-38 343 221
0.031223357 0.74199998 0.024718491 2.3150095e-39 344 221
-0.036427252 0.74199998 0.023417519 3.281841e-42 292 222
-0.035078939 0.741 0.023385961 6.6453301e-39 293 222
-0.033779722 0.741 0.023385961 1.807507e-38 294 222
-0.032480497 0.741 0.023385961 1.8812635e-38 295 222
-0.03118128 0.741 0.023385961 1.8903364e-38 296 222
-0.029882059 0.741 0.023385961 1.8811168e-38 297 222
-0.028582839 0.741 0.023385961 1.8720404e-38 298 222
-0.027209979 0.73900002 0.023322839 1.8720404e-38 299 222
-0.025914267 0.73900002 0.023322839 1.8904073e-38 300 222
-0.024518613 0.736 0.023228159 1.8904073e-38 301 222
-0.023165042 0.73400003 0.023165042 1.8720402e-38 302 222
-0.021878093 0.73400003 0.023165042 1.8720402e-38 303 222
-0.020591147 0.73400003 0.023165042 1.8628209e-38 304 222
-0.019304199 0.73400003 0.023165042 1.8628209e-38 305 222
-0.017992707 0.73299998 0.023133477 1.8627853e-38 306 222
-0.016707512 0.73299998 0.023133477 1.8627853e-38 307 222
-0.015422319 0.73299998 0.023133477 1.8536379e-38 308 222
-0.014137126 0.73299998 0.023133477 1.8812966e-38 309 222
-0.012851933 0.73299998 0.023133477 1.9273944e-38 310 222
-0.011566739 0.73299998 0.023133477 1.9550532e-38 311 222
-0.010281546 0.73299998 0.023133477 1.9916429e-38 312 222
-0.0089963535 0.73299998 0.023133477 1.6504832e-38 313 222
-0.0077111595 0.73299998 0.023133477 1.289983e-38 314 222
-0.0064259665 0.73299998 0.023133477 5.063201e-39 315 222
-0.0051267464 0.73100001 0.02307036 2.4082365e-39 316 222
-0.0038397999 0.73000002 0.023038799 5.5428865e-39 317 222
-0.0025598668 0.73000002 0.023038799 8.0213897e-39 318 222
-0.0012799334 0.73000002 0.023038799 7.9291927e-39 319 222
0 0.73000002 0.023038799 7.7440826e-39 320 222
0.0012799334 0.73000002 0.023038799 6.3611481e-39 321 222
0.0025598668 0.73000002 0.023038799 1.117188e-39 322 222
0.00384506 0.73100001 0.02307036 3.7962296e-40 323 222
0.0051267464 0.73100001 0.02307036 2.9575805e-41 324 222
0.006408433 0.73100001 0.02307036 6.1209698e-39 325 222
0.00769012 0.73100001 0.02307036 1.5039116e-38 326 222
0.0089718066 0.73100001 0.02307036 1.6698633e-38 327 222
0.010281546 0.73299998 0.023133477 1.7248902e-38 328 222
0.011566739 0.73299998 0.023133477 1.6695729e-38 329 222
0.012851933 0.73299998 0.023133477 1.660352e-38 330 222
0.014156413 0.73400003 0.023165042 1.6695716e-38 331 222
0.01544336 0.73400003 0.023165042 1.669536e-38 332 222
0.016730307 0.73400003 0.023165042 1.6603164e-38 333 222
0.018066347 0.736 0.023228159 1.6603164e-38 334 222
0.019409399 0.73799998 0.023291279 1.6418773e-38 335 222
0.020703359 0.73799998 0.023291279 1.6142909e-38 336 222
0.021997318 0.73799998 0.023291279 1.6050712e-38 337 222
0.023322839 0.73900002 0.023322839 1.5958161e-38 338 222
0.024618553 0.73900002 0.023322839 1.5958161e-38 339 222
0.025984399 0.741 0.023385961 1.5774848e-38 340 222
0.027283618 0.741 0.023385961 1.6696446e-38 341 222
0.028582839 0.741 0.023385961 1.4117135e-38 342 222
0.029882059 0.741 0.023385961 9.3233221e-39 343 222
0.03118128 0.741 0.023385961 1.6728827e-39 344 222
-0.036378156 0.741 0.02208674 3.5032462e-44 292 223
-0.035078939 0.741 0.02208674 3.7818635e-39 293 223
-0.033779722 0.741 0.02208674 1.5864893e-38 294 223
-0.032480497 0.741 0.02208674 1.7801001e-38 295 223
