# .PCD v.7 - Point Cloud Data file format
FIELDS x y z rgb imX imY
SIZE 4 4 4 4 4 4
TYPE F F F F F F
COUNT 1 1 1 1 1 1
WIDTH 836
HEIGHT 1
VIEWPOINT 0 0 0 1 0 0 0
POINTS 836
DATA ascii
-0.022596961 0.71600002 -0.025107734 1.5627495e-38 302 260
-0.021341572 0.71600002 -0.025107734 1.5996276e-38 303 260
-0.020086186 0.71600002 -0.025107734 1.4708798e-38 304 260
-0.0188308 0.71600002 -0.025107734 1.3971232e-38 305 260
-0.017526319 0.71399999 -0.025037598 7.445152e-39 306 260
-0.016251646 0.713 -0.025002534 6.8919782e-39 307 260
-0.014959441 0.71100003 -0.024932399 1.361398e-38 308 260
-0.013693533 0.70999998 -0.024897331 1.361398e-38 309 260
-0.012448666 0.70999998 -0.024897331 1.5441683e-38 310 260
-0.011203799 0.70999998 -0.024897331 1.5256933e-38 311 260
-0.0099589331 0.70999998 -0.024897331 1.4981422e-38 312 260
-0.0087140659 0.70999998 -0.024897331 1.4428607e-38 313 260
-0.0074797203 0.71100003 -0.024932399 1.4244576e-38 314 260
-0.0062330998 0.71100003 -0.024932399 1.4060545e-38 315 260
-0.0049864799 0.71100003 -0.024932399 1.4428607e-38 316 260
-0.0037345996 0.70999998 -0.024897331 1.4428607e-38 317 260
-0.0024897333 0.70999998 -0.024897331 1.3877954e-38 318 260
-0.00124662 0.71100003 -0.024932399 1.3877954e-38 319 260
0 0.71100003 -0.024932399 1.3876516e-38 320 260
0.00124662 0.71100003 -0.024932399 1.3876516e-38 321 260
0.0024932399 0.71100003 -0.024932399 1.3418059e-38 322 260
0.0037398601 0.71100003 -0.024932399 1.2865244e-38 323 260
0.0049864799 0.71100003 -0.024932399 8.7294042e-39 324 260
0.0062506334 0.713 -0.025002534 9.3747736e-39 325 260
0.0075112795 0.71399999 -0.025037598 1.1029979e-38 326 260
0.0087631596 0.71399999 -0.025037598 1.1767545e-38 327 260
0.01001504 0.71399999 -0.025037598 1.2868481e-38 328 260
0.011266919 0.71399999 -0.025037598 1.2684449e-38 329 260
0.012518799 0.71399999 -0.025037598 1.314255e-38 330 260
0.013809253 0.71600002 -0.025107734 1.3234747e-38 331 260
0.01506464 0.71600002 -0.025107734 1.3418059e-38 332 260
0.016320027 0.71600002 -0.025107734 1.3325862e-38 333 260
0.017575413 0.71600002 -0.025107734 1.3326218e-38 334 260
0.018857099 0.71700001 -0.0251428 1.3510611e-38 335 260
0.020114239 0.71700001 -0.0251428 1.3235469e-38 336 260
0.021371379 0.71700001 -0.0251428 1.3696087e-38 337 260
0.022691639 0.71899998 -0.025212931 1.3790809e-38 338 260
0.023952285 0.71899998 -0.025212931 1.2039093e-38 339 260
0.025212931 0.71899998 -0.025212931 8.6325675e-39 340 260
0.026510401 0.72000003 -0.025248 1.7022011e-38 341 260
0.027772799 0.72000003 -0.025248 1.4664516e-38 342 260
0.029035201 0.72000003 -0.025248 1.7245993e-38 343 260
-0.028914221 0.71700001 -0.02639994 1.2968593e-38 297 261
-0.027618507 0.71600002 -0.026363119 1.4710952e-38 298 261
-0.026363119 0.71600002 -0.026363119 1.4526561e-38 299 261
-0.025107734 0.71600002 -0.026363119 1.4984292e-38 300 261
-0.023852346 0.71600002 -0.026363119 1.5076489e-38 301 261
-0.022596961 0.71600002 -0.026363119 1.5352356e-38 302 261
-0.021341572 0.71600002 -0.026363119 1.5720778e-38 303 261
-0.020086186 0.71600002 -0.026363119 1.3605693e-38 304 261
-0.018778199 0.71399999 -0.026289478 1.1301161e-38 305 261
-0.017526319 0.71399999 -0.026289478 8.6426232e-39 306 261
-0.016251646 0.713 -0.026252659 9.656415e-39 307 261
-0.014959441 0.71100003 -0.026179021 1.4162479e-38 308 261
-0.013693533 0.70999998 -0.026142199 1.3886251e-38 309 261
-0.012448666 0.70999998 -0.026142199 1.4888876e-38 310 261
-0.011203799 0.70999998 -0.026142199 1.479668e-38 311 261
-0.0099589331 0.70999998 -0.026142199 1.4521171e-38 312 261
-0.0087140659 0.70999998 -0.026142199 1.4428617e-38 313 261
-0.0074691991 0.70999998 -0.026142199 1.4153109e-38 314 261
-0.0062243328 0.70999998 -0.026142199 1.4060913e-38 315 261
-0.0049794666 0.70999998 -0.026142199 1.3785768e-38 316 261
-0.0037345996 0.70999998 -0.026142199 1.3693573e-38 317 261
-0.0024897333 0.70999998 -0.026142199 1.3510979e-38 318 261
-0.00124662 0.71100003 -0.026179021 1.3510979e-38 319 261
0 0.71100003 -0.026179021 1.3235466e-38 320 261
0.00124662 0.71100003 -0.026179021 1.3235466e-38 321 261
0.0024932399 0.71100003 -0.026179021 1.3142547e-38 322 261
0.0037398601 0.71100003 -0.026179021 1.286596e-38 323 261
0.0049864799 0.71100003 -0.026179021 9.3740547e-39 324 261
0.0062506334 0.713 -0.026252659 9.9272285e-39 325 261
0.0075007593 0.713 -0.026252659 1.029745e-38 326 261
0.0087631596 0.71399999 -0.026289478 1.0850623e-38 327 261
0.01001504 0.71399999 -0.026289478 1.2227428e-38 328 261
0.011266919 0.71399999 -0.026289478 1.2135232e-38 329 261
0.012518799 0.71399999 -0.026289478 1.2960677e-38 330 261
0.01377068 0.71399999 -0.026289478 1.2960677e-38 331 261
0.01506464 0.71600002 -0.026363119 1.2959602e-38 332 261
0.016320027 0.71600002 -0.026363119 1.2959602e-38 333 261
0.017575413 0.71600002 -0.026363119 1.2959605e-38 334 261
0.018857099 0.71700001 -0.02639994 1.3143996e-38 335 261
0.020114239 0.71700001 -0.02639994 1.2869929e-38 336 261
0.021371379 0.71700001 -0.02639994 1.2962124e-38 337 261
0.02262852 0.71700001 -0.02639994 1.3329835e-38 338 261
0.02388566 0.71700001 -0.02639994 1.2868857e-38 339 261
0.025212931 0.71899998 -0.02647358 1.1487036e-38 340 261
0.02647358 0.71899998 -0.02647358 1.5358894e-38 341 261
0.027734226 0.71899998 -0.02647358 1.4475082e-38 342 261
0.028994869 0.71899998 -0.02647358 1.8347299e-38 343 261
-0.028914221 0.71700001 -0.027657079 1.288071e-38 297 262
-0.027618507 0.71600002 -0.027618507 1.4345406e-38 298 262
-0.026363119 0.71600002 -0.027618507 1.3792593e-38 299 262
-0.025107734 0.71600002 -0.027618507 1.4984292e-38 300 262
-0.023852346 0.71600002 -0.027618507 1.4892096e-38 301 262
-0.022596961 0.71600002 -0.027618507 1.5076489e-38 302 262
-0.021341572 0.71600002 -0.027618507 1.5076489e-38 303 262
-0.020030079 0.71399999 -0.02754136 1.1488439e-38 304 262
-0.018778199 0.71399999 -0.02754136 7.8060172e-39 305 262
-0.017501773 0.713 -0.027502786 8.9181115e-39 306 262
-0.01620606 0.71100003 -0.027425639 1.0577633e-38 307 262
-0.014959441 0.71100003 -0.027425639 1.41585e-38 308 262
-0.013693533 0.70999998 -0.027387066 1.3789719e-38 309 262
-0.012448666 0.70999998 -0.027387066 1.4612282e-38 310 262
-0.011203799 0.70999998 -0.027387066 1.4612282e-38 311 262
-0.0099589331 0.70999998 -0.027387066 1.4153459e-38 312 262
-0.0087140659 0.70999998 -0.027387066 1.4061264e-38 313 262
-0.0074691991 0.70999998 -0.027387066 1.37854e-38 314 262
-0.0062243328 0.70999998 -0.027387066 1.37854e-38 315 262
-0.0049794666 0.70999998 -0.027387066 1.3601727e-38 316 262
-0.0037345996 0.70999998 -0.027387066 1.3601727e-38 317 262
-0.0024897333 0.70999998 -0.027387066 1.3419134e-38 318 262
-0.0012448666 0.70999998 -0.027387066 1.3419134e-38 319 262
0 0.70999998 -0.027387066 1.2959955e-38 320 262
0.00124662 0.71100003 -0.027425639 1.2959955e-38 321 262
0.0024932399 0.71100003 -0.027425639 1.3051803e-38 322 262
0.0037398601 0.71100003 -0.027425639 1.2867411e-38 323 262
0.0049864799 0.71100003 -0.027425639 9.3758554e-39 324 262
0.0062330998 0.71100003 -0.027425639 9.6520836e-39 325 262
0.0075007593 0.713 -0.027502786 1.075519e-38 326 262
0.0087508867 0.713 -0.027502786 1.1216168e-38 327 262
0.010001013 0.713 -0.027502786 1.2409671e-38 328 262
0.011266919 0.71399999 -0.02754136 1.2409671e-38 329 262
0.012518799 0.71399999 -0.02754136 1.2685532e-38 330 262
0.01377068 0.71399999 -0.02754136 1.2501501e-38 331 262
0.01506464 0.71600002 -0.027618507 1.2684093e-38 332 262
0.016320027 0.71600002 -0.027618507 1.2868125e-38 333 262
0.017575413 0.71600002 -0.027618507 1.2684816e-38 334 262
0.0188308 0.71600002 -0.027618507 1.2777011e-38 335 262
0.020114239 0.71700001 -0.027657079 1.2777374e-38 336 262
0.021371379 0.71700001 -0.027657079 1.2777374e-38 337 262
0.02262852 0.71700001 -0.027657079 1.2961768e-38 338 262
0.02388566 0.71700001 -0.027657079 1.2961768e-38 339 262
0.0251428 0.71700001 -0.027657079 1.250263e-38 340 262
0.02647358 0.71899998 -0.027734226 1.3332391e-38 341 262
0.027734226 0.71899998 -0.027734226 1.3738247e-38 342 262
0.028994869 0.71899998 -0.027734226 1.8348029e-38 343 262
-0.0302976 0.72000003 -0.029035201 1.38999e-38 296 263
-0.028994869 0.71899998 -0.028994869 1.2793552e-38 297 263
-0.027657079 0.71700001 -0.028914221 1.4163533e-38 298 263
-0.02639994 0.71700001 -0.028914221 1.3610359e-38 299 263
-0.0251428 0.71700001 -0.028914221 1.4893171e-38 300 263
-0.02388566 0.71700001 -0.028914221 1.4893171e-38 301 263
-0.022596961 0.71600002 -0.028873893 1.4525837e-38 302 263
-0.021341572 0.71600002 -0.028873893 1.3880469e-38 303 263
-0.020030079 0.71399999 -0.028793238 9.0989126e-39 304 263
-0.018751899 0.713 -0.028752912 6.2448137e-39 305 263
-0.017501773 0.713 -0.028752912 1.0668028e-38 306 263
-0.01620606 0.71100003 -0.028672259 1.1774734e-38 307 263
-0.014938398 0.70999998 -0.028631933 1.3881191e-38 308 263
-0.013693533 0.70999998 -0.028631933 1.3788637e-38 309 263
-0.012448666 0.70999998 -0.028631933 1.4154181e-38 310 263
-0.011203799 0.70999998 -0.028631933 1.4061985e-38 311 263
-0.0099589331 0.70999998 -0.028631933 1.3877954e-38 312 263
-0.0087140659 0.70999998 -0.028631933 1.37854e-38 313 263
-0.0074691991 0.70999998 -0.028631933 1.3693926e-38 314 263
-0.0062243328 0.70999998 -0.028631933 1.360173e-38 315 263
-0.0049794666 0.70999998 -0.028631933 1.3234747e-38 316 263
-0.0037345996 0.70999998 -0.028631933 1.3418778e-38 317 263
-0.0024897333 0.70999998 -0.028631933 1.3052156e-38 318 263
-0.0012448666 0.70999998 -0.028631933 1.3052156e-38 319 263
0 0.70999998 -0.028631933 1.2685535e-38 320 263
0.00124662 0.71100003 -0.028672259 1.2685535e-38 321 263
0.0024932399 0.71100003 -0.028672259 1.2592266e-38 322 263
0.0037398601 0.71100003 -0.028672259 1.1946896e-38 323 263
0.0049864799 0.71100003 -0.028672259 8.5482569e-39 324 263
0.0062330998 0.71100003 -0.028672259 8.4560613e-39 325 263
0.0075007593 0.713 -0.028752912 1.0110914e-38 326 263
0.0087508867 0.713 -0.028752912 1.0756283e-38 327 263
0.010001013 0.713 -0.028752912 1.2040541e-38 328 263
0.011266919 0.71399999 -0.028793238 1.2040541e-38 329 263
0.012518799 0.71399999 -0.028793238 1.2316036e-38 330 263
0.01377068 0.71399999 -0.028793238 1.2500067e-38 331 263
0.01506464 0.71600002 -0.028873893 1.2500064e-38 332 263
0.016320027 0.71600002 -0.028873893 1.2500064e-38 333 263
0.017575413 0.71600002 -0.028873893 1.2316399e-38 334 263
0.0188308 0.71600002 -0.028873893 1.2408953e-38 335 263
0.020086186 0.71600002 -0.028873893 1.2409318e-38 336 263
0.021371379 0.71700001 -0.028914221 1.2501513e-38 337 263
0.02262852 0.71700001 -0.028914221 1.2319273e-38 338 263
0.02388566 0.71700001 -0.028914221 1.2411469e-38 339 263
0.0251428 0.71700001 -0.028914221 1.1123289e-38 340 263
0.02647358 0.71899998 -0.028994869 1.0109137e-38 341 263
0.027734226 0.71899998 -0.028994869 1.1896854e-38 342 263
0.028994869 0.71899998 -0.028994869 1.7612625e-38 343 263
-0.0302976 0.72000003 -0.0302976 1.3718385e-38 296 264
-0.028994869 0.71899998 -0.030255521 1.279607e-38 297 264
-0.027657079 0.71700001 -0.030171359 1.416318e-38 298 264
-0.02639994 0.71700001 -0.030171359 1.3610365e-38 299 264
-0.0251428 0.71700001 -0.030171359 1.4616951e-38 300 264
-0.02388566 0.71700001 -0.030171359 1.4524756e-38 301 264
-0.022596961 0.71600002 -0.03012928 1.4065585e-38 302 264
-0.021281958 0.71399999 -0.030045118 1.2867042e-38 303 264
-0.020030079 0.71399999 -0.030045118 7.7192221e-39 304 264
-0.018751899 0.713 -0.030003037 6.0611427e-39 305 264
-0.01745268 0.71100003 -0.029918881 1.1773658e-38 306 264
-0.016183265 0.70999998 -0.029876797 1.3156592e-38 307 264
-0.014938398 0.70999998 -0.029876797 1.406558e-38 308 264
-0.013693533 0.70999998 -0.029876797 1.3881188e-38 309 264
-0.0124136 0.708 -0.02979264 1.3970866e-38 310 264
-0.01117224 0.708 -0.02979264 1.387867e-38 311 264
-0.0099308798 0.708 -0.02979264 1.3418059e-38 312 264
-0.008689519 0.708 -0.02979264 1.3418059e-38 313 264
-0.0074691991 0.70999998 -0.029876797 1.3234394e-38 314 264
-0.0062243328 0.70999998 -0.029876797 1.3418784e-38 315 264
-0.0049794666 0.70999998 -0.029876797 1.2960321e-38 316 264
-0.0037345996 0.70999998 -0.029876797 1.3052875e-38 317 264
-0.0024897333 0.70999998 -0.029876797 1.2869923e-38 318 264
-0.00124662 0.71100003 -0.029918881 1.2869923e-38 319 264
0 0.71100003 -0.029918881 1.2687332e-38 320 264
0.00124662 0.71100003 -0.029918881 1.2410747e-38 321 264
0.0024932399 0.71100003 -0.029918881 1.2408951e-38 322 264
0.0037398601 0.71100003 -0.029918881 1.157919e-38 323 264
0.0049864799 0.71100003 -0.029918881 8.2705939e-39 324 264
0.0062330998 0.71100003 -0.029918881 8.3627895e-39 325 264
0.0074797203 0.71100003 -0.029918881 9.1922012e-39 326 264
0.0087263398 0.71100003 -0.029918881 9.8375706e-39 327 264
0.01001504 0.71399999 -0.030045118 1.1305494e-38 328 264
0.011266919 0.71399999 -0.030045118 1.1397689e-38 329 264
0.012518799 0.71399999 -0.030045118 1.2130936e-38 330 264
0.013809253 0.71600002 -0.03012928 1.2130936e-38 331 264
0.01506464 0.71600002 -0.03012928 1.2314607e-38 332 264
0.016320027 0.71600002 -0.03012928 1.2406802e-38 333 264
0.017575413 0.71600002 -0.03012928 1.2039462e-38 334 264
0.0188308 0.71600002 -0.03012928 1.2223853e-38 335 264
0.020086186 0.71600002 -0.03012928 1.2040541e-38 336 264
0.021341572 0.71600002 -0.03012928 1.2408965e-38 337 264
0.022596961 0.71600002 -0.03012928 1.195086e-38 338 264
0.02388566 0.71700001 -0.030171359 1.195086e-38 339 264
0.0251428 0.71700001 -0.030171359 1.0570469e-38 340 264
0.02639994 0.71700001 -0.030171359 7.6223602e-39 341 264
0.027734226 0.71899998 -0.030255521 1.0417753e-38 342 264
0.028994869 0.71899998 -0.030255521 1.8162186e-38 343 264
-0.0302976 0.72000003 -0.03156 1.3810951e-38 296 265
-0.029035201 0.72000003 -0.03156 1.3073026e-38 297 265
-0.027657079 0.71700001 -0.031428497 1.3982384e-38 298 265
-0.02639994 0.71700001 -0.031428497 1.2507254e-38 299 265
-0.0251428 0.71700001 -0.031428497 1.452404e-38 300 265
-0.023852346 0.71600002 -0.031384666 1.452404e-38 301 265
-0.022596961 0.71600002 -0.031384666 1.3513144e-38 302 265
-0.021281958 0.71399999 -0.031296998 1.1393004e-38 303 265
-0.020002026 0.713 -0.031253166 7.9032561e-39 304 265
-0.0186993 0.71100003 -0.031165501 7.719225e-39 305 265
-0.01745268 0.71100003 -0.031165501 1.2601268e-38 306 265
-0.016183265 0.70999998 -0.031121666 1.3431028e-38 307 265
-0.014938398 0.70999998 -0.031121666 1.4247823e-38 308 265
-0.013693533 0.70999998 -0.031121666 1.3971234e-38 309 265
-0.0124136 0.708 -0.031034 1.3602809e-38 310 265
-0.01117224 0.708 -0.031034 1.3510614e-38 311 265
-0.0099308798 0.708 -0.031034 1.3234394e-38 312 265
-0.008689519 0.708 -0.031034 1.3234394e-38 313 265
-0.0074691991 0.70999998 -0.031121666 1.2960326e-38 314 265
-0.0062243328 0.70999998 -0.031121666 1.2960326e-38 315 265
-0.0049794666 0.70999998 -0.031121666 1.2686263e-38 316 265
-0.0037345996 0.70999998 -0.031121666 1.3054687e-38 317 265
-0.0024897333 0.70999998 -0.031121666 1.2505832e-38 318 265
-0.00124662 0.71100003 -0.031165501 1.2505832e-38 319 265
0 0.71100003 -0.031165501 1.2415432e-38 320 265
0.00124662 0.71100003 -0.031165501 1.1862616e-38 321 265
0.0024932399 0.71100003 -0.031165501 1.2134529e-38 322 265
0.0037398601 0.71100003 -0.031165501 1.1120377e-38 323 265
0.0049864799 0.71100003 -0.031165501 8.2713127e-39 324 265
0.0062330998 0.71100003 -0.031165501 8.4557054e-39 325 265
0.0074797203 0.71100003 -0.031165501 9.6513675e-39 326 265
0.0087263398 0.71100003 -0.031165501 9.7435631e-39 327 265
0.01001504 0.71399999 -0.031296998 1.1305124e-38 328 265
0.011266919 0.71399999 -0.031296998 1.1305124e-38 329 265
0.012518799 0.71399999 -0.031296998 1.203837e-38 330 265
0.013809253 0.71600002 -0.031384666 1.203837e-38 331 265
0.01506464 0.71600002 -0.031384666 1.2038726e-38 332 265
0.016320027 0.71600002 -0.031384666 1.2222759e-38 333 265
0.017575413 0.71600002 -0.031384666 1.2039093e-38 334 265
0.0188308 0.71600002 -0.031384666 1.2131289e-38 335 265
0.020086186 0.71600002 -0.031384666 1.1948698e-38 336 265
0.021341572 0.71600002 -0.031384666 1.213309e-38 337 265
0.022596961 0.71600002 -0.031384666 1.1857945e-38 338 265
0.02388566 0.71700001 -0.031428497 1.1857945e-38 339 265
0.0251428 0.71700001 -0.031428497 1.0571539e-38 340 265
0.02639994 0.71700001 -0.031428497 6.4284847e-39 341 265
0.027734226 0.71899998 -0.031516165 8.2064845e-39 342 265
0.028994869 0.71899998 -0.031516165 1.7702633e-38 343 265
-0.0302976 0.72000003 -0.0328224 1.417867e-38 296 266
-0.029035201 0.72000003 -0.0328224 1.3625496e-38 297 266
-0.027657079 0.71700001 -0.032685637 1.4445161e-38 298 266
-0.02639994 0.71700001 -0.032685637 1.2324661e-38 299 266
-0.0251428 0.71700001 -0.032685637 1.4434345e-38 300 266
-0.023852346 0.71600002 -0.032640055 1.3973369e-38 301 266
-0.022596961 0.71600002 -0.032640055 1.3327667e-38 302 266
-0.021252153 0.713 -0.032503292 1.1114612e-38 303 266
-0.01994592 0.71100003 -0.032412119 7.5344736e-39 304 266
-0.018672999 0.70999998 -0.032366529 8.5486255e-39 305 266
-0.017428132 0.70999998 -0.032366529 1.2509072e-38 306 266
-0.016183265 0.70999998 -0.032366529 1.3338833e-38 307 266
-0.014938398 0.70999998 -0.032366529 1.3696092e-38 308 266
-0.013693533 0.70999998 -0.032366529 1.3327311e-38 309 266
-0.0124136 0.708 -0.03227536 1.3418428e-38 310 266
-0.01117224 0.708 -0.03227536 1.3418428e-38 311 266
-0.0099308798 0.708 -0.03227536 1.3051803e-38 312 266
-0.008689519 0.708 -0.03227536 1.3051803e-38 313 266
-0.0074691991 0.70999998 -0.032366529 1.2593712e-38 314 266
-0.0062243328 0.70999998 -0.032366529 1.2962493e-38 315 266
-0.0049794666 0.70999998 -0.032366529 1.2505482e-38 316 266
-0.0037345996 0.70999998 -0.032366529 1.2873904e-38 317 266
-0.0024897333 0.70999998 -0.032366529 1.2508e-38 318 266
-0.00124662 0.71100003 -0.032412119 1.2323607e-38 319 266
0 0.71100003 -0.032412119 1.2047378e-38 320 266
0.00124662 0.71100003 -0.032412119 1.1494204e-38 321 266
0.0024932399 0.71100003 -0.032412119 1.2040894e-38 322 266
0.0037398601 0.71100003 -0.032412119 1.1210774e-38 323 266
0.0049864799 0.71100003 -0.032412119 8.269875e-39 324 266
0.0062330998 0.71100003 -0.032412119 8.6386561e-39 325 266
0.0074797203 0.71100003 -0.032412119 9.0081617e-39 326 266
0.0087263398 0.71100003 -0.032412119 9.5613355e-39 327 266
0.01001504 0.71399999 -0.032548878 1.1121452e-38 328 266
0.011266919 0.71399999 -0.032548878 1.1121452e-38 329 266
0.012518799 0.71399999 -0.032548878 1.1671383e-38 330 266
0.013809253 0.71600002 -0.032640055 1.1763578e-38 331 266
0.01506464 0.71600002 -0.032640055 1.1671383e-38 332 266
0.016320027 0.71600002 -0.032640055 1.1763578e-38 333 266
0.017575413 0.71600002 -0.032640055 1.1580989e-38 334 266
0.0188308 0.71600002 -0.032640055 1.1673185e-38 335 266
0.020086186 0.71600002 -0.032640055 1.1672832e-38 336 266
0.021371379 0.71700001 -0.032685637 1.1949058e-38 337 266
0.02262852 0.71700001 -0.032685637 1.1856863e-38 338 266
0.02388566 0.71700001 -0.032685637 1.2041613e-38 339 266
0.0251428 0.71700001 -0.032685637 1.11229e-38 340 266
0.02647358 0.71899998 -0.032776814 6.6121557e-39 341 266
0.027772799 0.72000003 -0.0328224 8.3833129e-39 342 266
0.029035201 0.72000003 -0.0328224 1.8986169e-38 343 266
-0.030255521 0.71899998 -0.03403746 1.3994636e-38 296 267
-0.028994869 0.71899998 -0.03403746 1.3810245e-38 297 267
-0.027657079 0.71700001 -0.033942781 1.5090178e-38 298 267
-0.02639994 0.71700001 -0.033942781 1.315407e-38 299 267
-0.0251428 0.71700001 -0.033942781 1.4158494e-38 300 267
-0.023852346 0.71600002 -0.03389544 1.4251048e-38 301 267
-0.022533838 0.71399999 -0.033800758 1.2686614e-38 302 267
-0.021192541 0.71100003 -0.033658739 1.0197332e-38 303 267
-0.01994592 0.71100003 -0.033658739 7.7199382e-39 304 267
-0.018672999 0.70999998 -0.033611398 8.3653076e-39 305 267
-0.017428132 0.70999998 -0.033611398 1.1957333e-38 306 267
-0.01613768 0.708 -0.033516716 1.2602702e-38 307 267
-0.01489632 0.708 -0.033516716 1.3143999e-38 308 267
-0.013654959 0.708 -0.033516716 1.3051803e-38 309 267
-0.0124136 0.708 -0.033516716 1.3235115e-38 310 267
-0.01117224 0.708 -0.033516716 1.3235115e-38 311 267
-0.0099308798 0.708 -0.033516716 1.2776655e-38 312 267
-0.008689519 0.708 -0.033516716 1.2776655e-38 313 267
-0.0074691991 0.70999998 -0.033611398 1.2410397e-38 314 267
-0.0062243328 0.70999998 -0.033611398 1.2779178e-38 315 267
-0.0049794666 0.70999998 -0.033611398 1.2596596e-38 316 267
-0.0037345996 0.70999998 -0.033611398 1.2412564e-38 317 267
-0.0024932399 0.71100003 -0.033658739 1.2503328e-38 318 267
-0.00124662 0.71100003 -0.033658739 1.2134904e-38 319 267
0 0.71100003 -0.033658739 1.240897e-38 320 267
0.00124662 0.71100003 -0.033658739 1.1855796e-38 321 267
0.0024932399 0.71100003 -0.033658739 1.2222055e-38 322 267
0.0037398601 0.71100003 -0.033658739 1.1668881e-38 323 267
0.0049864799 0.71100003 -0.033658739 8.178401e-39 324 267
0.0062330998 0.71100003 -0.033658739 8.547185e-39 325 267
0.0074797203 0.71100003 -0.033658739 1.0017269e-38 326 267
0.0087508867 0.713 -0.033753417 1.020202e-38 327 267
0.01001504 0.71399999 -0.033800758 1.1488073e-38 328 267
0.011266919 0.71399999 -0.033800758 1.1395519e-38 329 267
0.012518799 0.71399999 -0.033800758 1.1670664e-38 330 267
0.01377068 0.71399999 -0.033800758 1.1854695e-38 331 267
0.01506464 0.71600002 -0.03389544 1.1671733e-38 332 267
0.016320027 0.71600002 -0.03389544 1.1764287e-38 333 267
0.017575413 0.71600002 -0.03389544 1.1672452e-38 334 267
0.0188308 0.71600002 -0.03389544 1.1765008e-38 335 267
0.020086186 0.71600002 -0.03389544 1.1764299e-38 336 267
0.021371379 0.71700001 -0.033942781 1.1856853e-38 337 267
0.02262852 0.71700001 -0.033942781 1.1766096e-38 338 267
0.02388566 0.71700001 -0.033942781 1.1950846e-38 339 267
0.0251428 0.71700001 -0.033942781 1.139804e-38 340 267
0.02647358 0.71899998 -0.03403746 7.2550042e-39 341 267
0.027772799 0.72000003 -0.034084801 8.4751428e-39 342 267
0.029236834 0.72500002 -0.034321502 1.8985445e-38 343 267
-0.030171359 0.71700001 -0.035199918 1.4919109e-38 296 268
-0.028914221 0.71700001 -0.035199918 1.3812762e-38 297 268
-0.027657079 0.71700001 -0.035199918 1.4909385e-38 298 268
-0.02639994 0.71700001 -0.035199918 1.3249505e-38 299 268
-0.0251428 0.71700001 -0.035199918 1.4253561e-38 300 268
-0.023852346 0.71600002 -0.035150826 1.3792942e-38 301 268
-0.022533838 0.71399999 -0.035052639 1.3053223e-38 302 268
-0.021192541 0.71100003 -0.034905359 1.0932729e-38 303 268
-0.01994592 0.71100003 -0.034905359 7.3525878e-39 304 268
-0.018672999 0.70999998 -0.034856264 7.9979572e-39 305 268
-0.017428132 0.70999998 -0.034856264 1.1959495e-38 306 268
-0.01613768 0.708 -0.034758076 1.2420473e-38 307 268
-0.01489632 0.708 -0.034758076 1.305432e-38 308 268
-0.013654959 0.708 -0.034758076 1.2777374e-38 309 268
-0.0124136 0.708 -0.034758076 1.2776658e-38 310 268
-0.01117224 0.708 -0.034758076 1.2592266e-38 311 268
-0.0099589331 0.70999998 -0.034856264 1.2317123e-38 312 268
-0.0087140659 0.70999998 -0.034856264 1.240932e-38 313 268
-0.0074691991 0.70999998 -0.034856264 1.2226374e-38 314 268
-0.0062243328 0.70999998 -0.034856264 1.2226374e-38 315 268
-0.0049794666 0.70999998 -0.034856264 1.2042355e-38 316 268
-0.0037345996 0.70999998 -0.034856264 1.1857964e-38 317 268
-0.0024932399 0.71100003 -0.034905359 1.213168e-38 318 268
-0.00124662 0.71100003 -0.034905359 1.1947289e-38 319 268
0 0.71100003 -0.034905359 1.2130588e-38 320 268
0.00124662 0.71100003 -0.034905359 1.2038393e-38 321 268
0.0024932399 0.71100003 -0.034905359 1.1854345e-38 322 268
0.0037398601 0.71100003 -0.034905359 1.1393727e-38 323 268
0.0049864799 0.71100003 -0.034905359 7.9954391e-39 324 268
0.0062330998 0.71100003 -0.034905359 8.0876347e-39 325 268
0.0074797203 0.71100003 -0.034905359 1.0200218e-38 326 268
0.0087508867 0.713 -0.035003547 1.0753392e-38 327 268
0.01001504 0.71399999 -0.035052639 1.1305474e-38 328 268
0.011266919 0.71399999 -0.035052639 1.1213279e-38 329 268
0.012518799 0.71399999 -0.035052639 1.1763934e-38 330 268
0.01377068 0.71399999 -0.035052639 1.1671739e-38 331 268
0.01506464 0.71600002 -0.035150826 1.1763931e-38 332 268
0.016320027 0.71600002 -0.035150826 1.1671736e-38 333 268
0.017575413 0.71600002 -0.035150826 1.1764652e-38 334 268
0.0188308 0.71600002 -0.035150826 1.1764652e-38 335 268
0.020086186 0.71600002 -0.035150826 1.1764299e-38 336 268
0.021371379 0.71700001 -0.035199918 1.2041244e-38 337 268
0.02262852 0.71700001 -0.035199918 1.1676052e-38 338 268
0.02388566 0.71700001 -0.035199918 1.213703e-38 339 268
0.025212931 0.71899998 -0.035298105 1.1125402e-38 340 268
0.02647358 0.71899998 -0.035298105 6.6121557e-39 341 268
0.027849946 0.722 -0.035445385 9.21091e-39 342 268
0.029156178 0.72299999 -0.035494477 1.9444623e-38 343 268
-0.0302976 0.72000003 -0.036609601 1.6120893e-38 296 269
-0.028914221 0.71700001 -0.036457058 1.3908197e-38 297 269
-0.027618507 0.71600002 -0.036406212 1.4633872e-38 298 269
-0.026363119 0.71600002 -0.036406212 1.3619719e-38 299 269
-0.0251428 0.71700001 -0.036457058 1.4531595e-38 300 269
-0.023852346 0.71600002 -0.036406212 1.4162813e-38 301 269
-0.022596961 0.71600002 -0.036406212 1.305647e-38 302 269
-0.021192541 0.71100003 -0.036151983 1.0566827e-38 303 269
-0.01994592 0.71100003 -0.036151983 7.5369763e-39 304 269
-0.018672999 0.70999998 -0.036101133 8.1823457e-39 305 269
-0.017428132 0.70999998 -0.036101133 1.1869816e-38 306 269
-0.01613768 0.708 -0.03599944 1.1962013e-38 307 269
-0.01489632 0.708 -0.03599944 1.2871375e-38 308 269
-0.013654959 0.708 -0.03599944 1.2318201e-38 309 269
-0.0124136 0.708 -0.03599944 1.250115e-38 310 269
-0.01117224 0.708 -0.03599944 1.2316399e-38 311 269
-0.0099589331 0.70999998 -0.036101133 1.2224206e-38 312 269
-0.0087140659 0.70999998 -0.036101133 1.2224206e-38 313 269
-0.0074691991 0.70999998 -0.036101133 1.2040894e-38 314 269
-0.0062243328 0.70999998 -0.036101133 1.2040894e-38 315 269
-0.0049794666 0.70999998 -0.036101133 1.222385e-38 316 269
-0.0037345996 0.70999998 -0.036101133 1.2131655e-38 317 269
-0.0024932399 0.71100003 -0.036151983 1.2131289e-38 318 269
-0.00124662 0.71100003 -0.036151983 1.2223484e-38 319 269
0 0.71100003 -0.036151983 1.204016e-38 320 269
0.00124662 0.71100003 -0.036151983 1.204016e-38 321 269
0.0024932399 0.71100003 -0.036151983 1.2040516e-38 322 269
0.0037398601 0.71100003 -0.036151983 1.1579537e-38 323 269
0.0049864799 0.71100003 -0.036151983 7.6280859e-39 324 269
0.0062506334 0.713 -0.036253672 8.0887011e-39 325 269
0.0075112795 0.71399999 -0.036304519 1.0661897e-38 326 269
0.0087631596 0.71399999 -0.036304519 1.1031038e-38 327 269
0.01001504 0.71399999 -0.036304519 1.1582762e-38 328 269
0.01129848 0.71600002 -0.036406212 1.1582762e-38 329 269
0.012553867 0.71600002 -0.036406212 1.1765005e-38 330 269
0.013809253 0.71600002 -0.036406212 1.1765005e-38 331 269
0.01506464 0.71600002 -0.036406212 1.1765008e-38 332 269
0.016320027 0.71600002 -0.036406212 1.1765008e-38 333 269
0.017575413 0.71600002 -0.036406212 1.1857203e-38 334 269
0.0188308 0.71600002 -0.036406212 1.1765008e-38 335 269
0.020086186 0.71600002 -0.036406212 1.1949043e-38 336 269
0.021371379 0.71700001 -0.036457058 1.2133793e-38 337 269
0.02262852 0.71700001 -0.036457058 1.1861166e-38 338 269
0.02388566 0.71700001 -0.036457058 1.2045557e-38 339 269
0.025212931 0.71899998 -0.036558751 1.085026e-38 340 269
0.02647358 0.71899998 -0.036558751 7.0713332e-39 341 269
0.02788852 0.72299999 -0.036762137 1.0503449e-38 342 269
0.029156178 0.72299999 -0.036762137 1.9354229e-38 343 269
-0.0302976 0.72000003 -0.037871998 1.7230837e-38 296 270
-0.028914221 0.71700001 -0.037714198 1.3819598e-38 297 270
-0.027618507 0.71600002 -0.037661601 1.4357281e-38 298 270
-0.026363119 0.71600002 -0.037661601 1.3804108e-38 299 270
-0.0251428 0.71700001 -0.037714198 1.462559e-38 300 270
-0.023852346 0.71600002 -0.037661601 1.4072417e-38 301 270
-0.022596961 0.71600002 -0.037661601 1.3149384e-38 302 270
-0.021281958 0.71399999 -0.037556399 1.0844493e-38 303 270
-0.01994592 0.71100003 -0.037398599 8.0890697e-39 304 270
-0.018672999 0.70999998 -0.037345998 8.5504079e-39 305 270
-0.017428132 0.70999998 -0.037345998 1.2237524e-38 306 270
-0.01613768 0.708 -0.0372408 1.2053131e-38 307 270
-0.01489632 0.708 -0.0372408 1.259551e-38 308 270
-0.013654959 0.708 -0.0372408 1.2226727e-38 309 270
-0.0124136 0.708 -0.0372408 1.2317118e-38 310 270
-0.01117224 0.708 -0.0372408 1.2133087e-38 311 270
-0.0099589331 0.70999998 -0.037345998 1.2316755e-38 312 270
-0.0087140659 0.70999998 -0.037345998 1.2316755e-38 313 270
-0.0074691991 0.70999998 -0.037345998 1.2224556e-38 314 270
-0.0062330998 0.71100003 -0.037398599 1.2316752e-38 315 270
-0.0049864799 0.71100003 -0.037398599 1.2134161e-38 316 270
-0.0037398601 0.71100003 -0.037398599 1.2041607e-38 317 270
-0.0024932399 0.71100003 -0.037398599 1.2041963e-38 318 270
-0.00124662 0.71100003 -0.037398599 1.2134159e-38 319 270
0 0.71100003 -0.037398599 1.185972e-38 320 270
0.00124662 0.71100003 -0.037398599 1.185972e-38 321 270
0.0024932399 0.71100003 -0.037398599 1.2134509e-38 322 270
0.0037398601 0.71100003 -0.037398599 1.148914e-38 323 270
0.0050005065 0.713 -0.037503798 7.353657e-39 324 270
0.0062506334 0.713 -0.037503798 8.2756133e-39 325 270
0.0075112795 0.71399999 -0.037556399 1.1123233e-38 326 270
0.0087877065 0.71600002 -0.037661601 1.1492014e-38 327 270
0.010043093 0.71600002 -0.037661601 1.1860423e-38 328 270
0.01129848 0.71600002 -0.037661601 1.1768228e-38 329 270
0.012553867 0.71600002 -0.037661601 1.1950471e-38 330 270
0.013809253 0.71600002 -0.037661601 1.1857917e-38 331 270
0.015085679 0.71700001 -0.037714198 1.1950115e-38 332 270
0.016342819 0.71700001 -0.037714198 1.1950115e-38 333 270
0.017599959 0.71700001 -0.037714198 1.1950471e-38 334 270
0.018857099 0.71700001 -0.037714198 1.1950471e-38 335 270
0.020114239 0.71700001 -0.037714198 1.1859001e-38 336 270
0.021371379 0.71700001 -0.037714198 1.2135229e-38 337 270
0.02262852 0.71700001 -0.037714198 1.1677501e-38 338 270
0.023952285 0.71899998 -0.037819397 1.2046282e-38 339 270
0.025248 0.72000003 -0.037871998 1.03918e-38 340 270
0.026584039 0.722 -0.0379772 8.2713001e-39 341 270
0.02788852 0.72299999 -0.038029801 1.2439908e-38 342 270
0.029156178 0.72299999 -0.038029801 1.9538972e-38 343 270
-0.028873893 0.71600002 -0.038916986 1.4743723e-38 297 271
-0.027618507 0.71600002 -0.038916986 1.4727505e-38 298 271
-0.026363119 0.71600002 -0.038916986 1.3805909e-38 299 271
-0.0251428 0.71700001 -0.038971342 1.4443716e-38 300 271
-0.02388566 0.71700001 -0.038971342 1.3798346e-38 301 271
-0.022596961 0.71600002 -0.038916986 1.3241938e-38 302 271
-0.021252153 0.713 -0.038753927 1.1028885e-38 303 271
-0.01994592 0.71100003 -0.038645219 8.3638615e-39 304 271
-0.0186993 0.71100003 -0.038645219 8.7330041e-39 305 271
-0.017428132 0.70999998 -0.038590867 1.1867668e-38 306 271
-0.016183265 0.70999998 -0.038590867 1.1775473e-38 307 271
-0.01489632 0.708 -0.038482159 1.268591e-38 308 271
-0.013654959 0.708 -0.038482159 1.2501519e-38 309 271
-0.0124136 0.708 -0.038482159 1.2408951e-38 310 271
-0.01117224 0.708 -0.038482159 1.2408951e-38 311 271
-0.0099589331 0.70999998 -0.038590867 1.2410024e-38 312 271
-0.0087140659 0.70999998 -0.038590867 1.2410024e-38 313 271
-0.0074691991 0.70999998 -0.038590867 1.2317821e-38 314 271
-0.0062330998 0.71100003 -0.038645219 1.2410377e-38 315 271
-0.0049864799 0.71100003 -0.038645219 1.2226706e-38 316 271
-0.0037398601 0.71100003 -0.038645219 1.2226706e-38 317 271
-0.0024932399 0.71100003 -0.038645219 1.2318904e-38 318 271
-0.00124662 0.71100003 -0.038645219 1.2318904e-38 319 271
0 0.71100003 -0.038645219 1.2136661e-38 320 271
0.00124662 0.71100003 -0.038645219 1.2044466e-38 321 271
0.0024932399 0.71100003 -0.038645219 1.2227425e-38 322 271
0.0037398601 0.71100003 -0.038645219 1.148986e-38 323 271
0.0050005065 0.713 -0.038753927 7.2629061e-39 324 271
0.0062593995 0.71399999 -0.038808275 8.5536449e-39 325 271
0.00753232 0.71600002 -0.038916986 1.1676775e-38 326 271
0.0087877065 0.71600002 -0.038916986 1.1584578e-38 327 271
0.010043093 0.71600002 -0.038916986 1.195227e-38 328 271
0.01129848 0.71600002 -0.038916986 1.195227e-38 329 271
0.0125714 0.71700001 -0.038971342 1.195155e-38 330 271
0.013828539 0.71700001 -0.038971342 1.1859354e-38 331 271
0.015085679 0.71700001 -0.038971342 1.1951547e-38 332 271
0.016342819 0.71700001 -0.038971342 1.1951547e-38 333 271
0.017599959 0.71700001 -0.038971342 1.1951547e-38 334 271
0.018857099 0.71700001 -0.038971342 1.1951547e-38 335 271
0.020114239 0.71700001 -0.038971342 1.2135585e-38 336 271
0.021430992 0.71899998 -0.039080046 1.2319976e-38 337 271
0.022691639 0.71899998 -0.039080046 1.1953014e-38 338 271
0.0239856 0.72000003 -0.039134402 1.204521e-38 339 271
0.025318133 0.722 -0.039243106 9.011749e-39 340 271
0.026620859 0.72299999 -0.039297458 1.0486879e-38 341 271
0.02788852 0.72299999 -0.039297458 1.4283821e-38 342 271
-0.027618507 0.71600002 -0.040172372 1.5651634e-38 298 272
-0.026363119 0.71600002 -0.040172372 1.3715525e-38 299 272
-0.0251428 0.71700001 -0.040228479 1.4445165e-38 300 272
-0.02388566 0.71700001 -0.040228479 1.3615044e-38 301 272
-0.022596961 0.71600002 -0.040172372 1.3334504e-38 302 272
-0.021252153 0.713 -0.040004052 1.1121449e-38 303 272
-0.01994592 0.71100003 -0.039891839 8.5489758e-39 304 272
-0.0186993 0.71100003 -0.039891839 8.8255627e-39 305 272
-0.017428132 0.70999998 -0.039835732 1.1587486e-38 306 272
-0.016183265 0.70999998 -0.039835732 1.1772236e-38 307 272
-0.014938398 0.70999998 -0.039835732 1.2593715e-38 308 272
-0.013693533 0.70999998 -0.039835732 1.2501519e-38 309 272
-0.012448666 0.70999998 -0.039835732 1.2594062e-38 310 272
-0.011203799 0.70999998 -0.039835732 1.2594062e-38 311 272
-0.0099589331 0.70999998 -0.039835732 1.2319273e-38 312 272
-0.0087140659 0.70999998 -0.039835732 1.2319273e-38 313 272
-0.0074797203 0.71100003 -0.039891839 1.2594418e-38 314 272
-0.0062330998 0.71100003 -0.039891839 1.2686614e-38 315 272
-0.0049864799 0.71100003 -0.039891839 1.2411103e-38 316 272
-0.0037398601 0.71100003 -0.039891839 1.2318907e-38 317 272
-0.0024932399 0.71100003 -0.039891839 1.2410747e-38 318 272
-0.00124662 0.71100003 -0.039891839 1.2595137e-38 319 272
0 0.71100003 -0.039891839 1.222851e-38 320 272
0.00124662 0.71100003 -0.039891839 1.2135955e-38 321 272
0.0024932399 0.71100003 -0.039891839 1.22278e-38 322 272
0.0037398601 0.71100003 -0.039891839 1.1490235e-38 323 272
0.0050005065 0.713 -0.040004052 6.3434764e-39 324 272
0.0062769335 0.71600002 -0.040172372 8.0948346e-39 325 272
0.00753232 0.71600002 -0.040172372 1.1768264e-38 326 272
0.0087877065 0.71600002 -0.040172372 1.1583872e-38 327 272
0.010043093 0.71600002 -0.040172372 1.2044478e-38 328 272
0.01131426 0.71700001 -0.040228479 1.2044478e-38 329 272
0.0125714 0.71700001 -0.040228479 1.2044478e-38 330 272
0.013828539 0.71700001 -0.040228479 1.1952283e-38 331 272
0.015085679 0.71700001 -0.040228479 1.2044113e-38 332 272
0.016342819 0.71700001 -0.040228479 1.2044113e-38 333 272
0.017599959 0.71700001 -0.040228479 1.2044115e-38 334 272
0.018909698 0.71899998 -0.040340692 1.2136311e-38 335 272
0.020170346 0.71899998 -0.040340692 1.2135958e-38 336 272
0.021460801 0.72000003 -0.040396802 1.2228154e-38 337 272
0.022786319 0.722 -0.040509012 1.2411481e-38 338 272
0.024052227 0.722 -0.040509012 1.1582081e-38 339 272
0.025318133 0.722 -0.040509012 7.3529536e-39 340 272
0.026620859 0.72299999 -0.040565118 1.2977246e-38 341 272
0.02788852 0.72299999 -0.040565118 1.5667477e-38 342 272
-0.027657079 0.71700001 -0.041485619 1.6393886e-38 298 273
-0.02639994 0.71700001 -0.041485619 1.3167039e-38 299 273
-0.0251428 0.71700001 -0.041485619 1.4722836e-38 300 273
-0.02388566 0.71700001 -0.041485619 1.3709044e-38 301 273
-0.02262852 0.71700001 -0.041485619 1.3428862e-38 302 273
-0.021252153 0.713 -0.041254178 1.112397e-38 303 273
-0.020002026 0.713 -0.041254178 9.0992755e-39 304 273
-0.0186993 0.71100003 -0.041138459 9.2840255e-39 305 273
-0.017428132 0.70999998 -0.041080594 1.1680034e-38 306 273
-0.016183265 0.70999998 -0.041080594 1.195698e-38 307 273
-0.014938398 0.70999998 -0.041080594 1.2778812e-38 308 273
-0.013693533 0.70999998 -0.041080594 1.2778812e-38 309 273
-0.012448666 0.70999998 -0.041080594 1.2595134e-38 310 273
-0.011203799 0.70999998 -0.041080594 1.2595134e-38 311 273
-0.0099589331 0.70999998 -0.041080594 1.2503664e-38 312 273
-0.0087140659 0.70999998 -0.041080594 1.2411469e-38 313 273
-0.0074797203 0.71100003 -0.041138459 1.2594781e-38 314 273
-0.0062330998 0.71100003 -0.041138459 1.2594781e-38 315 273
-0.0049864799 0.71100003 -0.041138459 1.2410747e-38 316 273
-0.0037398601 0.71100003 -0.041138459 1.2595137e-38 317 273
-0.0024932399 0.71100003 -0.041138459 1.2595134e-38 318 273
-0.00124662 0.71100003 -0.041138459 1.2595134e-38 319 273
0 0.71100003 -0.041138459 1.2318907e-38 320 273
0.0012501266 0.713 -0.041254178 1.2318907e-38 321 273
0.0025002533 0.713 -0.041254178 1.2685179e-38 322 273
0.0037503797 0.713 -0.041254178 1.1671385e-38 323 273
0.0050075199 0.71399999 -0.041312039 6.3409568e-39 324 273
0.0062769335 0.71600002 -0.041427758 8.5532918e-39 325 273
0.00753232 0.71600002 -0.041427758 1.1952658e-38 326 273
0.0087877065 0.71600002 -0.041427758 1.1768267e-38 327 273
0.01005712 0.71700001 -0.041485619 1.2135955e-38 328 273
0.01131426 0.71700001 -0.041485619 1.2135955e-38 329 273
0.0125714 0.71700001 -0.041485619 1.2319626e-38 330 273
0.013828539 0.71700001 -0.041485619 1.2319626e-38 331 273
0.015085679 0.71700001 -0.041485619 1.2319623e-38 332 273
0.016388407 0.71899998 -0.041601337 1.2227428e-38 333 273
0.017649053 0.71899998 -0.041601337 1.2135955e-38 334 273
0.018909698 0.71899998 -0.041601337 1.2135955e-38 335 273
0.020198401 0.72000003 -0.041659199 1.2319273e-38 336 273
0.021520413 0.722 -0.041774917 1.2411469e-38 337 273
0.022786319 0.722 -0.041774917 1.2411837e-38 338 273
0.024052227 0.722 -0.041774917 1.0567926e-38 339 273
0.025318133 0.722 -0.041774917 6.9809326e-39 340 273
0.026620859 0.72299999 -0.041832779 1.6477081e-38 341 273
0.02788852 0.72299999 -0.041832779 1.6773471e-38 342 273
-0.02647358 0.71899998 -0.042861983 1.3263202e-38 299 274
-0.025212931 0.71899998 -0.042861983 1.4817553e-38 300 274
-0.023952285 0.71899998 -0.042861983 1.3803761e-38 301 274
-0.02262852 0.71700001 -0.042742759 1.3613975e-38 302 274
-0.021341572 0.71600002 -0.042683143 1.1585671e-38 303 274
-0.020002026 0.713 -0.042504307 8.8241208e-39 304 274
-0.0186993 0.71100003 -0.042385083 9.1929047e-39 305 274
-0.017428132 0.70999998 -0.042325463 1.1773658e-38 306 274
-0.016183265 0.70999998 -0.042325463 1.1865853e-38 307 274
-0.014938398 0.70999998 -0.042325463 1.2686979e-38 308 274
-0.013693533 0.70999998 -0.042325463 1.2594784e-38 309 274
-0.012448666 0.70999998 -0.042325463 1.2503667e-38 310 274
-0.011203799 0.70999998 -0.042325463 1.2503667e-38 311 274
-0.0099589331 0.70999998 -0.042325463 1.2503667e-38 312 274
-0.0087263398 0.71100003 -0.042385083 1.2411471e-38 313 274
-0.0074797203 0.71100003 -0.042385083 1.2319273e-38 314 274
-0.0062330998 0.71100003 -0.042385083 1.2411469e-38 315 274
-0.0049864799 0.71100003 -0.042385083 1.2410747e-38 316 274
-0.0037398601 0.71100003 -0.042385083 1.2410747e-38 317 274
-0.0024932399 0.71100003 -0.042385083 1.2594418e-38 318 274
-0.0012501266 0.713 -0.042504307 1.2594418e-38 319 274
0 0.713 -0.042504307 1.2410747e-38 320 274
0.0012501266 0.713 -0.042504307 1.2410747e-38 321 274
0.0025037599 0.71399999 -0.042563915 1.2226724e-38 322 274
0.0037556398 0.71399999 -0.042563915 1.1305127e-38 323 274
0.0050215465 0.71600002 -0.042683143 6.5242719e-39 324 274
0.0062769335 0.71600002 -0.042683143 8.6447714e-39 325 274
0.00753232 0.71600002 -0.042683143 1.2045926e-38 326 274
0.0087877065 0.71600002 -0.042683143 1.1492754e-38 327 274
0.01005712 0.71700001 -0.042742759 1.2136674e-38 328 274
0.01131426 0.71700001 -0.042742759 1.2136674e-38 329 274
0.0125714 0.71700001 -0.042742759 1.2228154e-38 330 274
0.013828539 0.71700001 -0.042742759 1.2135958e-38 331 274
0.01512776 0.71899998 -0.042861983 1.2318554e-38 332 274
0.016388407 0.71899998 -0.042861983 1.241075e-38 333 274
0.017649053 0.71899998 -0.042861983 1.22278e-38 334 274
0.018935999 0.72000003 -0.042921603 1.22278e-38 335 274
0.020198401 0.72000003 -0.042921603 1.2228522e-38 336 274
0.021520413 0.722 -0.043040827 1.2228522e-38 337 274
0.022786319 0.722 -0.043040827 1.204486e-38 338 274
0.024052227 0.722 -0.043040827 9.0942407e-39 339 274
0.025318133 0.722 -0.043040827 6.6121571e-39 340 274
0.026620859 0.72299999 -0.043100435 1.859723e-38 341 274
0.02788852 0.72299999 -0.043100435 1.7419566e-38 342 274
-0.025212931 0.71899998 -0.044122629 1.4728241e-38 300 275
-0.023952285 0.71899998 -0.044122629 1.3805925e-38 301 275
-0.02262852 0.71700001 -0.043999899 1.3891285e-38 302 275
-0.021341572 0.71600002 -0.043938532 1.2139926e-38 303 275
-0.020002026 0.713 -0.043754432 9.2840199e-39 304 275
-0.0186993 0.71100003 -0.043631699 9.2840199e-39 305 275
-0.01745268 0.71100003 -0.043631699 1.1497072e-38 306 275
-0.01620606 0.71100003 -0.043631699 1.1589268e-38 307 275
-0.014959441 0.71100003 -0.043631699 1.2595863e-38 308 275
-0.01371282 0.71100003 -0.043631699 1.2503667e-38 309 275
-0.0124662 0.71100003 -0.043631699 1.2503664e-38 310 275
-0.01121958 0.71100003 -0.043631699 1.259586e-38 311 275
-0.0099729598 0.71100003 -0.043631699 1.2504739e-38 312 275
-0.0087263398 0.71100003 -0.043631699 1.2412185e-38 313 275
-0.0074797203 0.71100003 -0.043631699 1.250402e-38 314 275
-0.0062330998 0.71100003 -0.043631699 1.2411466e-38 315 275
-0.0049864799 0.71100003 -0.043631699 1.2411466e-38 316 275
-0.0037398601 0.71100003 -0.043631699 1.2411466e-38 317 275
-0.0025002533 0.713 -0.043754432 1.241075e-38 318 275
-0.00125188 0.71399999 -0.043815799 1.2318554e-38 319 275
0 0.71399999 -0.043815799 1.2410747e-38 320 275
0.00125188 0.71399999 -0.043815799 1.2410747e-38 321 275
0.0025037599 0.71399999 -0.043815799 1.2226359e-38 322 275
0.0037556398 0.71399999 -0.043815799 1.1027815e-38 323 275
0.0050215465 0.71600002 -0.043938532 6.7072198e-39 324 275
0.0062769335 0.71600002 -0.043938532 9.1961403e-39 325 275
0.00753232 0.71600002 -0.043938532 1.2138479e-38 326 275
0.0087877065 0.71600002 -0.043938532 1.1585305e-38 327 275
0.01005712 0.71700001 -0.043999899 1.2136311e-38 328 275
0.01131426 0.71700001 -0.043999899 1.2228507e-38 329 275
0.0125714 0.71700001 -0.043999899 1.231927e-38 330 275
0.013828539 0.71700001 -0.043999899 1.231927e-38 331 275
0.01512776 0.71899998 -0.044122629 1.2319273e-38 332 275
0.0164112 0.72000003 -0.044183999 1.2411469e-38 333 275
0.017673599 0.72000003 -0.044183999 1.2412188e-38 334 275
0.018935999 0.72000003 -0.044183999 1.2412188e-38 335 275
0.020198401 0.72000003 -0.044183999 1.22278e-38 336 275
0.021520413 0.722 -0.044306733 1.241219e-38 337 275
0.022786319 0.722 -0.044306733 1.2135976e-38 338 275
0.024052227 0.722 -0.044306733 7.8060172e-39 339 275
0.025318133 0.722 -0.044306733 5.2371428e-39 340 275
0.026584039 0.722 -0.044306733 1.8697705e-38 341 275
-0.025212931 0.71899998 -0.045383278 1.4639652e-38 300 276
-0.023952285 0.71899998 -0.045383278 1.3533303e-38 301 276
-0.02262852 0.71700001 -0.045257039 1.4077119e-38 302 276
-0.021341572 0.71600002 -0.045193922 1.2602349e-38 303 276
-0.020030079 0.71399999 -0.045067675 9.8368434e-39 304 276
-0.018751899 0.713 -0.045004558 8.8230516e-39 305 276
-0.01745268 0.71100003 -0.044878319 1.1221933e-38 306 276
-0.01620606 0.71100003 -0.044878319 1.1406324e-38 307 276
-0.014959441 0.71100003 -0.044878319 1.2778822e-38 308 276
-0.01371282 0.71100003 -0.044878319 1.2594431e-38 309 276
-0.0124662 0.71100003 -0.044878319 1.2594784e-38 310 276
-0.01121958 0.71100003 -0.044878319 1.2686979e-38 311 276
-0.0099729598 0.71100003 -0.044878319 1.2596216e-38 312 276
-0.0087508867 0.713 -0.045004558 1.250402e-38 313 276
-0.0074797203 0.71100003 -0.044878319 1.2412185e-38 314 276
-0.0062330998 0.71100003 -0.044878319 1.2412185e-38 315 276
-0.0049864799 0.71100003 -0.044878319 1.2411469e-38 316 276
-0.0037398601 0.71100003 -0.044878319 1.2319273e-38 317 276
-0.0025037599 0.71399999 -0.045067675 1.2594781e-38 318 276
-0.00125188 0.71399999 -0.045067675 1.241075e-38 319 276
0 0.71600002 -0.045193922 1.231927e-38 320 276
0.0012553866 0.71600002 -0.045193922 1.231927e-38 321 276
0.0025107733 0.71600002 -0.045193922 1.1951214e-38 322 276
0.00376616 0.71600002 -0.045193922 1.0660475e-38 323 276
0.0050285598 0.71700001 -0.045257039 7.2600349e-39 324 276
0.0062769335 0.71600002 -0.045193922 9.4730901e-39 325 276
0.00753232 0.71600002 -0.045193922 1.2228522e-38 326 276
0.0087999795 0.71700001 -0.045257039 1.1951935e-38 327 276
0.01005712 0.71700001 -0.045257039 1.231927e-38 328 276
0.01131426 0.71700001 -0.045257039 1.231927e-38 329 276
0.0125714 0.71700001 -0.045257039 1.231927e-38 330 276
0.013867113 0.71899998 -0.045383278 1.2227075e-38 331 276
0.0151488 0.72000003 -0.045446403 1.231927e-38 332 276
0.0164112 0.72000003 -0.045446403 1.231927e-38 333 276
0.017722692 0.722 -0.045572639 1.2228154e-38 334 276
0.0189886 0.722 -0.045572639 1.2228154e-38 335 276
0.020254506 0.722 -0.045572639 1.2228522e-38 336 276
0.021520413 0.722 -0.045572639 1.2412915e-38 337 276
0.022786319 0.722 -0.045572639 1.1860819e-38 338 276
0.024052227 0.722 -0.045572639 8.3570302e-39 339 276
0.025318133 0.722 -0.045572639 6.9031339e-39 340 276
0.026584039 0.722 -0.045572639 1.8704175e-38 341 276
-0.024052227 0.722 -0.046838548 1.2892247e-38 301 277
-0.022786319 0.722 -0.046838548 1.3988155e-38 302 277
-0.021371379 0.71700001 -0.046514176 1.2605221e-38 303 277
-0.020086186 0.71600002 -0.046449307 1.01138e-38 304 277
-0.018778199 0.71399999 -0.046319555 8.0854963e-39 305 277
-0.017501773 0.713 -0.046254687 1.0302863e-38 306 277
-0.016251646 0.713 -0.046254687 1.104043e-38 307 277
-0.015001519 0.713 -0.046254687 1.2686626e-38 308 277
-0.013751393 0.713 -0.046254687 1.2686626e-38 309 277
-0.012501267 0.713 -0.046254687 1.2594784e-38 310 277
-0.011251139 0.713 -0.046254687 1.2686979e-38 311 277
-0.010001013 0.713 -0.046254687 1.2687332e-38 312 277
-0.0087508867 0.713 -0.046254687 1.2687332e-38 313 277
-0.0075007593 0.713 -0.046254687 1.250402e-38 314 277
-0.0062593995 0.71399999 -0.046319555 1.250402e-38 315 277
-0.0050075199 0.71399999 -0.046319555 1.2411469e-38 316 277
-0.0037556398 0.71399999 -0.046319555 1.2411469e-38 317 277
-0.0025107733 0.71600002 -0.046449307 1.2594781e-38 318 277
-0.0012553866 0.71600002 -0.046449307 1.241075e-38 319 277
0 0.71600002 -0.046449307 1.2410747e-38 320 277
0.0012553866 0.71600002 -0.046449307 1.2318551e-38 321 277
0.0025107733 0.71600002 -0.046449307 1.1766821e-38 322 277
0.00376616 0.71600002 -0.046449307 1.0476082e-38 323 277
0.0050285598 0.71700001 -0.046514176 8.0883536e-39 324 277
0.0062769335 0.71600002 -0.046449307 1.0116657e-38 325 277
0.00753232 0.71600002 -0.046449307 1.22278e-38 326 277
0.0087999795 0.71700001 -0.046514176 1.2135605e-38 327 277
0.01005712 0.71700001 -0.046514176 1.2411466e-38 328 277
0.01131426 0.71700001 -0.046514176 1.2411466e-38 329 277
0.012606465 0.71899998 -0.046643924 1.241075e-38 330 277
0.0138864 0.72000003 -0.0467088 1.241075e-38 331 277
0.0151488 0.72000003 -0.0467088 1.231927e-38 332 277
0.016456785 0.722 -0.046838548 1.231927e-38 333 277
0.017722692 0.722 -0.046838548 1.222851e-38 334 277
0.0189886 0.722 -0.046838548 1.2412541e-38 335 277
0.020254506 0.722 -0.046838548 1.2321074e-38 336 277
0.021520413 0.722 -0.046838548 1.1951932e-38 337 277
0.022786319 0.722 -0.046838548 1.1122176e-38 338 277
0.0239856 0.72000003 -0.0467088 1.26895e-38 339 277
0.025248 0.72000003 -0.0467088 1.2708585e-38 340 277
0.026510401 0.72000003 -0.0467088 1.934667e-38 341 277
-0.024052227 0.722 -0.048104454 1.2895121e-38 301 278
-0.022786319 0.722 -0.048104454 1.3989587e-38 302 278
-0.021371379 0.71700001 -0.04777132 1.28836e-38 303 278
-0.020086186 0.71600002 -0.047704693 1.0482946e-38 304 278
-0.018778199 0.71399999 -0.047571439 7.7167166e-39 305 278
-0.017526319 0.71399999 -0.047571439 9.4752677e-39 306 278
-0.016274439 0.71399999 -0.047571439 1.0766007e-38 307 278
-0.015001519 0.713 -0.047504812 1.259551e-38 308 278
-0.013751393 0.713 -0.047504812 1.2503314e-38 309 278
-0.012501267 0.713 -0.047504812 1.2686258e-38 310 278
-0.011251139 0.713 -0.047504812 1.2778812e-38 311 278
