# .PCD v.7 - Point Cloud Data file format
FIELDS x y z rgb imX imY
SIZE 4 4 4 4 4 4
TYPE F F F F F F
COUNT 1 1 1 1 1 1
WIDTH 835
HEIGHT 1
VIEWPOINT 0 0 0 1 0 0 0
POINTS 835
DATA ascii
-0.031121666 0.70999998 -0.024897331 1.5582506e-38 295 260
-0.029918881 0.71100003 -0.024932399 1.5491406e-38 296 260
-0.028631933 0.70999998 -0.024897331 1.668995e-38 297 260
-0.027387066 0.70999998 -0.024897331 1.6323688e-38 298 260
-0.026142199 0.70999998 -0.024897331 1.60471e-38 299 260
-0.024827199 0.708 -0.024827199 1.5954182e-38 300 260
-0.023585839 0.708 -0.024827199 1.6046378e-38 301 260
-0.022312919 0.70700002 -0.024792133 1.687506e-38 302 260
-0.021073313 0.70700002 -0.024792133 1.7428233e-38 303 260
-0.019833706 0.70700002 -0.024792133 1.5399211e-38 304 260
-0.018594101 0.70700002 -0.024792133 1.2909929e-38 305 260
-0.017379038 0.708 -0.024827199 8.5439816e-39 306 260
-0.01613768 0.708 -0.024827199 6.6121781e-39 307 260
-0.01489632 0.708 -0.024827199 4.4199574e-39 308 260
-0.013654959 0.708 -0.024827199 4.6043487e-39 309 260
-0.012448666 0.70999998 -0.024897331 3.411548e-39 310 260
-0.011203799 0.70999998 -0.024897331 2.3055732e-39 311 260
-0.0099308798 0.708 -0.024827199 2.0869538e-41 312 260
-0.008689519 0.708 -0.024827199 4.9126399e-39 313 260
-0.0074481601 0.708 -0.024827199 1.2915362e-38 314 260
-0.0061892662 0.70599997 -0.024757065 1.6050013e-38 315 260
-0.0049514128 0.70599997 -0.024757065 1.7517195e-38 316 260
-0.0037188199 0.70700002 -0.024792133 1.6871825e-38 317 260
-0.0024757064 0.70599997 -0.024757065 1.6412268e-38 318 260
-0.0012378532 0.70599997 -0.024757065 1.5951289e-38 319 260
0 0.70599997 -0.024757065 1.5305919e-38 320 260
0.0012378532 0.70599997 -0.024757065 1.4844941e-38 321 260
0.0024757064 0.70599997 -0.024757065 1.4294651e-38 322 260
0.0037135598 0.70599997 -0.024757065 1.4479403e-38 323 260
0.0049514128 0.70599997 -0.024757065 1.5036536e-38 324 260
0.0061892662 0.70599997 -0.024757065 1.5866656e-38 325 260
0.0074271196 0.70599997 -0.024757065 1.6506986e-38 326 260
0.0086649731 0.70599997 -0.024757065 1.6414791e-38 327 260
0.0099028256 0.70599997 -0.024757065 1.687145e-38 328 260
0.011140679 0.70599997 -0.024757065 1.6502667e-38 329 260
0.012378532 0.70599997 -0.024757065 1.6133529e-38 330 260
0.013635674 0.70700002 -0.024792133 1.5672551e-38 331 260
0.01489632 0.708 -0.024827199 1.4198856e-38 332 260
0.016183265 0.70999998 -0.024897331 1.3276541e-38 333 260
0.017428132 0.70999998 -0.024897331 1.171029e-38 334 260
0.018672999 0.70999998 -0.024897331 1.1986877e-38 335 260
0.020282559 0.72299999 -0.025353199 1.2078716e-38 336 260
0.021550218 0.72299999 -0.025353199 1.2355662e-38 337 260
0.02281788 0.72299999 -0.025353199 1.2452178e-38 338 260
0.024085538 0.72299999 -0.025353199 1.5402078e-38 339 260
0.025353199 0.72299999 -0.025353199 1.7148753e-38 340 260
-0.033611398 0.70999998 -0.026142199 1.7516819e-38 293 261
-0.032366529 0.70999998 -0.026142199 1.5582876e-38 294 261
-0.031121666 0.70999998 -0.026142199 1.5029702e-38 295 261
-0.029918881 0.71100003 -0.026179021 1.4571611e-38 296 261
-0.028631933 0.70999998 -0.026142199 1.521698e-38 297 261
-0.027387066 0.70999998 -0.026142199 1.5862355e-38 298 261
-0.026068559 0.708 -0.026068559 1.5862355e-38 299 261
-0.024827199 0.708 -0.026068559 1.5861631e-38 300 261
-0.023585839 0.708 -0.026068559 1.5861631e-38 301 261
-0.022312919 0.70700002 -0.02603174 1.6230056e-38 302 261
-0.021073313 0.70700002 -0.02603174 1.6691394e-38 303 261
-0.019833706 0.70700002 -0.02603174 1.3835493e-38 304 261
-0.018594101 0.70700002 -0.02603174 1.116182e-38 305 261
-0.017354494 0.70700002 -0.02603174 1.0798406e-41 306 261
-0.016114887 0.70700002 -0.02603174 1.0078139e-41 307 261
-0.01487528 0.70700002 -0.02603174 3.9629645e-39 308 261
-0.013635674 0.70700002 -0.02603174 4.2399102e-39 309 261
-0.012396066 0.70700002 -0.02603174 4.4253902e-39 310 261
-0.011156459 0.70700002 -0.02603174 4.0566077e-39 311 261
-0.0098607466 0.70300001 -0.025884461 4.7467444e-40 312 261
-0.0086281532 0.70300001 -0.025884461 1.3962706e-39 313 261
-0.0074060797 0.704 -0.02592128 4.7236174e-39 314 261
-0.0061717331 0.704 -0.02592128 1.0624138e-38 315 261
-0.0049373866 0.704 -0.02592128 1.5310625e-38 316 261
-0.0037135598 0.70599997 -0.025994917 1.5310625e-38 317 261
-0.0024757064 0.70599997 -0.025994917 1.5399913e-38 318 261
-0.0012378532 0.70599997 -0.025994917 1.4570152e-38 319 261
0 0.70599997 -0.025994917 1.4571598e-38 320 261
0.0012378532 0.70599997 -0.025994917 1.4571598e-38 321 261
0.0024757064 0.70599997 -0.025994917 1.438685e-38 322 261
0.0037030398 0.704 -0.02592128 1.5124416e-38 323 261
0.0049373866 0.704 -0.02592128 1.650665e-38 324 261
0.0061717331 0.704 -0.02592128 1.7705193e-38 325 261
0.0074060797 0.704 -0.02592128 1.6608555e-38 326 261
0.0086404262 0.704 -0.02592128 1.5410013e-38 327 261
0.0098747732 0.704 -0.02592128 1.6782142e-38 328 261
0.011140679 0.70599997 -0.025994917 1.6044577e-38 329 261
0.012378532 0.70599997 -0.025994917 1.5031503e-38 330 261
0.013616386 0.70599997 -0.025994917 1.4386134e-38 331 261
0.01487528 0.70700002 -0.02603174 1.3371979e-38 332 261
0.016114887 0.70700002 -0.02603174 1.2726609e-38 333 261
0.017354494 0.70700002 -0.02603174 1.1803206e-38 334 261
0.018857099 0.71700001 -0.02639994 1.189576e-38 335 261
0.020114239 0.71700001 -0.02639994 1.1712092e-38 336 261
0.021550218 0.72299999 -0.026620859 1.2080514e-38 337 261
0.02281788 0.72299999 -0.026620859 1.2633335e-38 338 261
0.024085538 0.72299999 -0.026620859 1.5307367e-38 339 261
0.025353199 0.72299999 -0.026620859 1.7423901e-38 340 261
0.026694499 0.72500002 -0.026694499 1.7331705e-38 341 261
-0.033658739 0.71100003 -0.027425639 1.7055841e-38 293 262
-0.032412119 0.71100003 -0.027425639 1.4937507e-38 294 262
-0.031165501 0.71100003 -0.027425639 1.484531e-38 295 262
-0.029918881 0.71100003 -0.027425639 1.4663446e-38 296 262
-0.028631933 0.70999998 -0.027387066 1.4939673e-38 297 262
-0.027387066 0.70999998 -0.027387066 1.5032596e-38 298 262
-0.026068559 0.708 -0.027309919 1.5216986e-38 299 262
-0.024827199 0.708 -0.027309919 1.5401377e-38 300 262
-0.023552528 0.70700002 -0.027271347 1.5493573e-38 301 262
-0.022312919 0.70700002 -0.027271347 1.558577e-38 302 262
-0.021073313 0.70700002 -0.027271347 1.5954551e-38 303 262
-0.019805651 0.70599997 -0.027232772 1.2269966e-38 304 262
-0.018567799 0.70599997 -0.027232772 8.7668917e-39 305 262
-0.017354494 0.70700002 -0.027271347 1.0443877e-41 306 262
-0.016114887 0.70700002 -0.027271347 2.8883144e-40 307 262
-0.01487528 0.70700002 -0.027271347 3.6885511e-39 308 262
-0.013635674 0.70700002 -0.027271347 3.5963554e-39 309 262
-0.012396066 0.70700002 -0.027271347 3.9637114e-39 310 262
-0.0098326923 0.70099998 -0.027039904 3.0453495e-39 312 262
-0.0086281532 0.70300001 -0.027117053 4.6387183e-40 313 262
-0.0073955595 0.70300001 -0.027117053 1.1203914e-39 314 262
-0.0061629666 0.70300001 -0.027117053 8.4960404e-39 315 262
-0.0049373866 0.704 -0.027155625 1.1996604e-38 316 262
-0.0037030398 0.704 -0.027155625 1.3287343e-38 317 262
-0.0024686933 0.704 -0.027155625 1.4570892e-38 318 262
-0.0012343467 0.704 -0.027155625 1.5031869e-38 319 262
0 0.704 -0.027155625 1.5587195e-38 320 262
0.0012343467 0.704 -0.027155625 1.5587195e-38 321 262
0.0024686933 0.704 -0.027155625 1.5861621e-38 322 262
0.0037030398 0.704 -0.027155625 1.6414435e-38 323 262
0.0049373866 0.704 -0.027155625 1.7518284e-38 324 262
0.0061717331 0.704 -0.027155625 1.8255849e-38 325 262
0.0074060797 0.704 -0.027155625 1.75262e-38 326 262
0.0086404262 0.704 -0.027155625 1.6603883e-38 327 262
0.0098747732 0.704 -0.027155625 1.595598e-38 328 262
0.011109119 0.704 -0.027155625 1.512622e-38 329 262
0.012343466 0.704 -0.027155625 1.4387933e-38 330 262
0.013616386 0.70599997 -0.027232772 1.3650368e-38 331 262
0.014854239 0.70599997 -0.027232772 1.2636212e-38 332 262
0.016114887 0.70700002 -0.027271347 1.2175234e-38 333 262
0.017329946 0.70599997 -0.027232772 1.1988319e-38 334 262
0.018567799 0.70599997 -0.027232772 1.1712092e-38 335 262
0.020114239 0.71700001 -0.027657079 1.1620259e-38 336 262
0.021520413 0.722 -0.027849946 1.2173433e-38 337 262
0.022786319 0.722 -0.027849946 1.2450023e-38 338 262
0.024085538 0.72299999 -0.02788852 1.4570882e-38 339 262
0.025353199 0.72299999 -0.02788852 1.7331702e-38 340 262
0.026694499 0.72500002 -0.027965667 1.7423898e-38 341 262
-0.033658739 0.71100003 -0.028672259 1.6318995e-38 293 263
-0.032412119 0.71100003 -0.028672259 1.4936786e-38 294 263
-0.031165501 0.71100003 -0.028672259 1.5121179e-38 295 263
-0.029876797 0.70999998 -0.028631933 1.4663446e-38 296 263
-0.028631933 0.70999998 -0.028631933 1.4663446e-38 297 263
-0.027309919 0.708 -0.02855128 1.4756008e-38 298 263
-0.026068559 0.708 -0.02855128 1.4848203e-38 299 263
-0.024792133 0.70700002 -0.028510952 1.4665258e-38 300 263
-0.023552528 0.70700002 -0.028510952 1.4757454e-38 301 263
-0.022312919 0.70700002 -0.028510952 1.5034034e-38 302 263
-0.021043506 0.70599997 -0.028470624 1.5403176e-38 303 263
-0.019805651 0.70599997 -0.028470624 1.1533844e-38 304 263
-0.018567799 0.70599997 -0.028470624 6.0024648e-39 305 263
-0.017329946 0.70599997 -0.028470624 4.6957512e-42 306 263
-0.016092092 0.70599997 -0.028470624 1.0049412e-40 307 263
-0.01487528 0.70700002 -0.028510952 3.2261436e-39 308 263
-0.013635674 0.70700002 -0.028510952 3.2261436e-39 309 263
-0.012396066 0.70700002 -0.028510952 3.0428439e-39 310 263
-0.011061779 0.70099998 -0.028268991 2.9506483e-39 311 263
-0.0098326923 0.70099998 -0.028268991 1.7556798e-39 312 263
-0.0086036054 0.70099998 -0.028268991 5.5713665e-40 313 263
-0.0073745195 0.70099998 -0.028268991 5.9865853e-39 314 263
-0.0061629666 0.70300001 -0.028349647 1.5021757e-38 315 263
-0.0049303733 0.70300001 -0.028349647 1.4571231e-38 316 263
-0.0037030398 0.704 -0.028389972 1.5124405e-38 317 263
-0.0024686933 0.704 -0.028389972 1.5401011e-38 318 263
-0.0012343467 0.704 -0.028389972 1.5677238e-38 319 263
0 0.704 -0.028389972 1.5493923e-38 320 263
0.0012343467 0.704 -0.028389972 1.5493923e-38 321 263
0.0024686933 0.704 -0.028389972 1.5585043e-38 322 263
0.0037030398 0.704 -0.028389972 1.5769435e-38 323 263
0.0049303733 0.70300001 -0.028349647 1.567869e-38 324 263
0.0061629666 0.70300001 -0.028349647 1.6324059e-38 325 263
0.0073955595 0.70300001 -0.028349647 1.6969429e-38 326 263
0.0086281532 0.70300001 -0.028349647 1.6600646e-38 327 263
0.0098607466 0.70300001 -0.028349647 1.5586842e-38 328 263
0.011109119 0.704 -0.028389972 1.457269e-38 329 263
0.012343466 0.704 -0.028389972 1.4294301e-38 330 263
0.013577812 0.704 -0.028389972 1.3648932e-38 331 263
0.014854239 0.70599997 -0.028470624 1.2359629e-38 332 263
0.016114887 0.70700002 -0.028510952 1.2082682e-38 333 263
0.017329946 0.70599997 -0.028470624 1.2081237e-38 334 263
0.018567799 0.70599997 -0.028470624 1.1805009e-38 335 263
0.020114239 0.71700001 -0.028914221 1.1622413e-38 336 263
0.021520413 0.722 -0.029115854 1.1898641e-38 337 263
0.022786319 0.722 -0.029115854 1.162278e-38 338 263
0.024085538 0.72299999 -0.029156178 1.3466691e-38 339 263
0.025353199 0.72299999 -0.029156178 1.6871444e-38 340 263
0.026694499 0.72500002 -0.029236834 1.7240586e-38 341 263
-0.034856264 0.70999998 -0.029876797 1.6780331e-38 292 264
-0.033611398 0.70999998 -0.029876797 1.5489592e-38 293 264
-0.032366529 0.70999998 -0.029876797 1.5121179e-38 294 264
-0.031121666 0.70999998 -0.029876797 1.5397765e-38 295 264
-0.029876797 0.70999998 -0.029876797 1.4846756e-38 296 264
-0.028631933 0.70999998 -0.029876797 1.4846756e-38 297 264
-0.027309919 0.708 -0.02979264 1.4571261e-38 298 264
-0.026068559 0.708 -0.02979264 1.4663456e-38 299 264
-0.024792133 0.70700002 -0.029750559 1.448051e-38 300 264
-0.023552528 0.70700002 -0.029750559 1.448051e-38 301 264
-0.022281358 0.70599997 -0.029708479 1.4940766e-38 302 264
-0.021043506 0.70599997 -0.029708479 1.549394e-38 303 264
-0.019749546 0.704 -0.029624319 1.0612967e-38 304 264
-0.018515198 0.704 -0.029624319 3.1451191e-39 305 264
-0.017329946 0.70599997 -0.029708479 1.8188854e-42 306 264
-0.016092092 0.70599997 -0.029708479 7.5810247e-42 307 264
-0.014854239 0.70599997 -0.029708479 2.5814902e-39 308 264
-0.013616386 0.70599997 -0.029708479 2.5814902e-39 309 264
-0.012325933 0.70300001 -0.029582238 2.3070614e-39 310 264
-0.011061779 0.70099998 -0.029498078 1.4773007e-39 311 264
-0.0098326923 0.70099998 -0.029498078 7.5333805e-42 312 264
-0.0086036054 0.70099998 -0.029498078 4.2506679e-39 313 264
-0.0073745195 0.70099998 -0.029498078 1.1334988e-38 314 264
-0.0061454331 0.70099998 -0.029498078 1.7788682e-38 315 264
-0.0049163462 0.70099998 -0.029498078 1.6689226e-38 316 264
-0.0036977797 0.70300001 -0.029582238 1.6320444e-38 317 264
-0.0024651866 0.70300001 -0.029582238 1.5493923e-38 318 264
-0.0012325933 0.70300001 -0.029582238 1.5309532e-38 319 264
0 0.70300001 -0.029582238 1.5309535e-38 320 264
0.0012343467 0.704 -0.029624319 1.521698e-38 321 264
0.0024651866 0.70300001 -0.029582238 1.5216986e-38 322 264
0.0036977797 0.70300001 -0.029582238 1.5216986e-38 323 264
0.0049163462 0.70099998 -0.029498078 1.5033318e-38 324 264
0.0061454331 0.70099998 -0.029498078 1.5033318e-38 325 264
0.0073955595 0.70300001 -0.029582238 1.5125866e-38 326 264
0.0086281532 0.70300001 -0.029582238 1.5310258e-38 327 264
0.0098607466 0.70300001 -0.029582238 1.5308813e-38 328 264
0.01109334 0.70300001 -0.029582238 1.4663444e-38 329 264
0.012325933 0.70300001 -0.029582238 1.3926595e-38 330 264
0.013577812 0.704 -0.029624319 1.3097194e-38 331 264
0.014854239 0.70599997 -0.029708479 1.2174515e-38 332 264
0.016114887 0.70700002 -0.029750559 1.1897569e-38 333 264
0.017354494 0.70700002 -0.029750559 1.2081237e-38 334 264
0.018594101 0.70700002 -0.029750559 1.2081237e-38 335 264
0.020114239 0.71700001 -0.030171359 1.2081234e-38 336 264
0.021550218 0.72299999 -0.030423839 1.2081234e-38 337 264
0.02281788 0.72299999 -0.030423839 1.1250756e-38 338 264
0.024085538 0.72299999 -0.030423839 1.3186865e-38 339 264
0.025353199 0.72299999 -0.030423839 1.6411544e-38 340 264
0.026694499 0.72500002 -0.030508002 1.7149109e-38 341 264
-0.034856264 0.70999998 -0.031121666 1.6320794e-38 292 265
-0.033611398 0.70999998 -0.031121666 1.4845663e-38 293 265
-0.032366529 0.70999998 -0.031121666 1.5215168e-38 294 265
-0.031121666 0.70999998 -0.031121666 1.5215168e-38 295 265
-0.029876797 0.70999998 -0.031121666 1.4663444e-38 296 265
-0.02855128 0.708 -0.031034 1.4663444e-38 297 265
-0.027309919 0.708 -0.031034 1.4387948e-38 298 265
-0.026068559 0.708 -0.031034 1.4387948e-38 299 265
-0.024792133 0.70700002 -0.030990168 1.4387595e-38 300 265
-0.023552528 0.70700002 -0.030990168 1.4387595e-38 301 265
-0.022281358 0.70599997 -0.030946331 1.457234e-38 302 265
-0.021043506 0.70599997 -0.030946331 1.5033318e-38 303 265
-0.019749546 0.704 -0.030858666 9.3225612e-39 304 265
-0.018515198 0.704 -0.030858666 3.792264e-40 305 265
-0.017329946 0.70599997 -0.030946331 0 306 265
-0.016092092 0.70599997 -0.030946331 3.671402e-43 307 265
-0.014812159 0.704 -0.030858666 3.7383981e-40 308 265
-0.013558527 0.70300001 -0.030814834 8.3481795e-40 309 265
-0.012325933 0.70300001 -0.030814834 1.5694963e-39 310 265
-0.011061779 0.70099998 -0.030727165 9.8090893e-45 311 265
-0.0098326923 0.70099998 -0.030727165 5.023655e-42 312 265
-0.0086036054 0.70099998 -0.030727165 1.0608962e-38 313 265
-0.0073745195 0.70099998 -0.030727165 1.4934973e-38 314 265
-0.0061454331 0.70099998 -0.030727165 1.7147308e-38 315 265
-0.0049163462 0.70099998 -0.030727165 1.5677238e-38 316 265
-0.0036977797 0.70300001 -0.030814834 1.5308816e-38 317 265
-0.0024651866 0.70300001 -0.030814834 1.530846e-38 318 265
-0.0012325933 0.70300001 -0.030814834 1.5124069e-38 319 265
0 0.70300001 -0.030814834 1.5215545e-38 320 265
0.0012325933 0.70300001 -0.030814834 1.5215545e-38 321 265
0.0024581731 0.70099998 -0.030727165 1.5124069e-38 322 265
0.0036872597 0.70099998 -0.030727165 1.5124069e-38 323 265
0.0049163462 0.70099998 -0.030727165 1.4848201e-38 324 265
0.0061454331 0.70099998 -0.030727165 1.4756005e-38 325 265
0.0073745195 0.70099998 -0.030727165 1.4571611e-38 326 265
0.0086036054 0.70099998 -0.030727165 1.4571611e-38 327 265
0.0098326923 0.70099998 -0.030727165 1.4110989e-38 328 265
0.011061779 0.70099998 -0.030727165 1.3281228e-38 329 265
0.012290866 0.70099998 -0.030727165 1.2358549e-38 330 265
0.013558527 0.70300001 -0.030814834 1.1436594e-38 331 265
0.014812159 0.704 -0.030858666 1.1344398e-38 332 265
0.016092092 0.70599997 -0.030946331 1.1805375e-38 333 265
0.017329946 0.70599997 -0.030946331 1.2356029e-38 334 265
0.018594101 0.70700002 -0.030990168 1.2356029e-38 335 265
0.020114239 0.71700001 -0.031428497 1.2172714e-38 336 265
0.021460801 0.72000003 -0.03156 1.2172714e-38 337 265
0.02281788 0.72299999 -0.031691495 1.0974174e-38 338 265
0.024085538 0.72299999 -0.031691495 1.2725889e-38 339 265
0.025353199 0.72299999 -0.031691495 1.6226081e-38 340 265
-0.036253672 0.713 -0.032503292 1.7884876e-38 291 266
-0.034856264 0.70999998 -0.032366529 1.6503386e-38 292 266
-0.033611398 0.70999998 -0.032366529 1.4659475e-38 293 266
-0.032366529 0.70999998 -0.032366529 1.4571248e-38 294 266
-0.031121666 0.70999998 -0.032366529 1.4663444e-38 295 266
-0.029876797 0.70999998 -0.032366529 1.44805e-38 296 266
-0.02855128 0.708 -0.03227536 1.429575e-38 297 266
-0.027309919 0.708 -0.03227536 1.42954e-38 298 266
-0.026068559 0.708 -0.03227536 1.4203204e-38 299 266
-0.024792133 0.70700002 -0.032229774 1.3836223e-38 300 266
-0.023552528 0.70700002 -0.032229774 1.3836223e-38 301 266
-0.022281358 0.70599997 -0.032184184 1.4113159e-38 302 266
-0.021043506 0.70599997 -0.032184184 1.4020605e-38 303 266
-0.019749546 0.704 -0.032093015 1.0423902e-38 304 266
-0.018515198 0.704 -0.032093015 1.1125035e-39 305 266
-0.017329946 0.70599997 -0.032184184 3.7835059e-44 306 266
-0.016092092 0.70599997 -0.032184184 3.3631163e-44 307 266
-0.014812159 0.704 -0.032093015 1.9618179e-44 308 266
-0.013558527 0.70300001 -0.032047424 1.9618179e-44 309 266
-0.012325933 0.70300001 -0.032047424 1.2611686e-44 310 266
-0.011061779 0.70099998 -0.031956252 1.6815582e-44 311 266
-0.0098326923 0.70099998 -0.031956252 6.2534878e-39 312 266
-0.0086036054 0.70099998 -0.031956252 1.7224766e-38 313 266
-0.0073745195 0.70099998 -0.031956252 1.5767633e-38 314 266
-0.0061454331 0.70099998 -0.031956252 1.5491406e-38 315 266
-0.0049163462 0.70099998 -0.031956252 1.4480866e-38 316 266
-0.0036872597 0.70099998 -0.031956252 1.4480866e-38 317 266
-0.0024581731 0.70099998 -0.031956252 1.4572342e-38 318 266
-0.0012290865 0.70099998 -0.031956252 1.4572342e-38 319 266
0 0.70099998 -0.031956252 1.457234e-38 320 266
0.0012290865 0.70099998 -0.031956252 1.457234e-38 321 266
0.0024581731 0.70099998 -0.031956252 1.4756011e-38 322 266
0.0036872597 0.70099998 -0.031956252 1.4756011e-38 323 266
0.0049093333 0.69999999 -0.031910665 1.4572342e-38 324 266
0.0061366665 0.69999999 -0.031910665 1.4387951e-38 325 266
0.0073639993 0.69999999 -0.031910665 1.4295397e-38 326 266
0.0085913334 0.69999999 -0.031910665 1.4111004e-38 327 266
0.0098186666 0.69999999 -0.031910665 1.3742566e-38 328 266
0.011061779 0.70099998 -0.031956252 1.282025e-38 329 266
0.012290866 0.70099998 -0.031956252 1.1990118e-38 330 266
0.013558527 0.70300001 -0.032047424 1.1344748e-38 331 266
0.014791119 0.70300001 -0.032047424 1.134188e-38 332 266
0.016092092 0.70599997 -0.032184184 1.1895054e-38 333 266
0.017329946 0.70599997 -0.032184184 1.1987965e-38 334 266
0.018594101 0.70700002 -0.032229774 1.189577e-38 335 266
0.020114239 0.71700001 -0.032685637 1.2079798e-38 336 266
0.021460801 0.72000003 -0.0328224 1.2356026e-38 337 266
0.022723202 0.72000003 -0.0328224 1.0973823e-38 338 266
0.0239856 0.72000003 -0.0328224 1.1711388e-38 339 266
-0.036253672 0.713 -0.033753417 1.7977069e-38 291 267
-0.035003547 0.713 -0.033753417 1.6320074e-38 292 267
-0.033658739 0.71100003 -0.033658739 1.4383967e-38 293 267
-0.032366529 0.70999998 -0.033611398 1.3097916e-38 294 267
-0.031121666 0.70999998 -0.033611398 1.3927676e-38 295 267
-0.029876797 0.70999998 -0.033611398 1.4571616e-38 296 267
-0.02855128 0.708 -0.033516716 1.4295031e-38 297 267
-0.027309919 0.708 -0.033516716 1.4111004e-38 298 267
-0.026068559 0.708 -0.033516716 1.4111004e-38 299 267
-0.024792133 0.70700002 -0.033469379 1.3652184e-38 300 267
-0.023519212 0.70599997 -0.033422034 1.3836577e-38 301 267
-0.022281358 0.70599997 -0.033422034 1.291426e-38 302 267
-0.021043506 0.70599997 -0.033422034 1.1623521e-38 303 267
-0.019749546 0.704 -0.03332736 1.2175602e-38 304 267
-0.018515198 0.704 -0.03332736 1.2820972e-38 305 267
-0.017329946 0.70599997 -0.033422034 1.3001396e-38 306 267
-0.016092092 0.70599997 -0.033422034 1.1434429e-38 307 267
-0.014812159 0.704 -0.03332736 9.4972415e-39 308 267
-0.013577812 0.704 -0.03332736 5.1640469e-39 309 267
-0.012325933 0.70300001 -0.033280019 1.6563348e-41 310 267
-0.011061779 0.70099998 -0.03318534 3.8913007e-39 311 267
-0.0098326923 0.70099998 -0.03318534 1.1709953e-38 312 267
-0.0086036054 0.70099998 -0.03318534 1.5951311e-38 313 267
-0.0073745195 0.70099998 -0.03318534 1.5032596e-38 314 267
-0.0061454331 0.70099998 -0.03318534 1.4663812e-38 315 267
-0.0049163462 0.70099998 -0.03318534 1.4387948e-38 316 267
-0.0036872597 0.70099998 -0.03318534 1.4480144e-38 317 267
-0.0024581731 0.70099998 -0.03318534 1.4663456e-38 318 267
-0.0012290865 0.70099998 -0.03318534 1.4663456e-38 319 267
0 0.70099998 -0.03318534 1.44805e-38 320 267
0.0012273333 0.69999999 -0.033137999 1.44805e-38 321 267
0.0024546667 0.69999999 -0.033137999 1.4755289e-38 322 267
0.0036819996 0.69999999 -0.033137999 1.4755289e-38 323 267
0.0049093333 0.69999999 -0.033137999 1.4571261e-38 324 267
0.0061366665 0.69999999 -0.033137999 1.4295034e-38 325 267
0.0073639993 0.69999999 -0.033137999 1.411136e-38 326 267
0.0085913334 0.69999999 -0.033137999 1.392697e-38 327 267
0.0098186666 0.69999999 -0.033137999 1.374221e-38 328 267
0.011045999 0.69999999 -0.033137999 1.3650015e-38 329 267
0.012290866 0.70099998 -0.03318534 1.4384336e-38 330 267
0.013519952 0.70099998 -0.03318534 1.3554215e-38 331 267
0.014791119 0.70300001 -0.033280019 1.0974895e-38 332 267
0.016046507 0.704 -0.03332736 1.0421722e-38 333 267
0.017280852 0.704 -0.03332736 1.0331674e-38 334 267
0.018567799 0.70599997 -0.033422034 9.594109e-39 335 267
0.019917866 0.70999998 -0.033611398 9.8696197e-39 336 267
0.022407599 0.70999998 -0.033611398 1.1342955e-38 338 267
-0.036304519 0.71399999 -0.035052639 1.7793757e-38 291 268
-0.035003547 0.713 -0.035003547 1.6595939e-38 292 268
-0.033658739 0.71100003 -0.034905359 1.4844222e-38 293 268
-0.032366529 0.70999998 -0.034856264 1.3096841e-38 294 268
-0.031121666 0.70999998 -0.034856264 1.3557818e-38 295 268
-0.029876797 0.70999998 -0.034856264 1.4203201e-38 296 268
-0.02855128 0.708 -0.034758076 1.4111004e-38 297 268
-0.027309919 0.708 -0.034758076 1.3926976e-38 298 268
-0.02603174 0.70700002 -0.034708988 1.3834421e-38 299 268
-0.024757065 0.70599997 -0.034659892 1.3467437e-38 300 268
-0.023519212 0.70599997 -0.034659892 1.3283045e-38 301 268
-0.022281358 0.70599997 -0.034659892 1.2085225e-38 302 268
-0.020983893 0.704 -0.034561705 1.0978876e-38 303 268
-0.019749546 0.704 -0.034561705 1.2454008e-38 304 268
-0.018515198 0.704 -0.034561705 1.429792e-38 305 268
-0.017329946 0.70599997 -0.034659892 1.4939673e-38 306 268
-0.016092092 0.70599997 -0.034659892 1.3925523e-38 307 268
-0.014812159 0.704 -0.034561705 1.3003549e-38 308 268
-0.013577812 0.704 -0.034561705 1.1435865e-38 309 268
-0.012325933 0.70300001 -0.034512613 7.2045953e-39 310 268
-0.011061779 0.70099998 -0.034414422 8.4953341e-39 311 268
-0.0098326923 0.70099998 -0.034414422 1.3462046e-38 312 268
-0.0086036054 0.70099998 -0.034414422 1.549035e-38 313 268
-0.0073745195 0.70099998 -0.034414422 1.448051e-38 314 268
-0.0061629666 0.70300001 -0.034512613 1.4019892e-38 315 268
-0.0049303733 0.70300001 -0.034512613 1.3836579e-38 316 268
-0.0036977797 0.70300001 -0.034512613 1.4020611e-38 317 268
-0.0024581731 0.70099998 -0.034414422 1.4112087e-38 318 268
-0.0012290865 0.70099998 -0.034414422 1.4204283e-38 319 268
0 0.70099998 -0.034414422 1.4112803e-38 320 268
0.0012273333 0.69999999 -0.034365334 1.4112803e-38 321 268
0.0024546667 0.69999999 -0.034365334 1.4295397e-38 322 268
0.0036819996 0.69999999 -0.034365334 1.4387951e-38 323 268
0.0049093333 0.69999999 -0.034365334 1.4111004e-38 324 268
0.0061366665 0.69999999 -0.034365334 1.3926973e-38 325 268
0.0073639993 0.69999999 -0.034365334 1.3834777e-38 326 268
0.0085667865 0.69800001 -0.034267146 1.3742582e-38 327 268
0.0097906133 0.69800001 -0.034267146 1.3649662e-38 328 268
0.011045999 0.69999999 -0.034365334 1.3741857e-38 329 268
0.012273333 0.69999999 -0.034365334 1.3925525e-38 330 268
0.013519952 0.70099998 -0.034414422 1.318796e-38 331 268
0.014749039 0.70099998 -0.034414422 1.1805372e-38 332 268
0.016023712 0.70300001 -0.034512613 1.1160003e-38 333 268
0.017280852 0.704 -0.034561705 1.0236956e-38 334 268
0.018567799 0.70599997 -0.034659892 8.8540203e-39 335 268
0.019917866 0.70999998 -0.034856264 9.1313358e-39 336 268
-0.036304519 0.71399999 -0.036304519 1.7609365e-38 291 269
-0.035003547 0.713 -0.036253672 1.6687779e-38 292 269
-0.033658739 0.71100003 -0.036151983 1.5765821e-38 293 269
-0.032366529 0.70999998 -0.036101133 1.3096488e-38 294 269
-0.031121666 0.70999998 -0.036101133 1.3465269e-38 295 269
-0.029876797 0.70999998 -0.036101133 1.4295397e-38 296 269
-0.02855128 0.708 -0.03599944 1.4295397e-38 297 269
-0.027271347 0.70700002 -0.035948593 1.3926973e-38 298 269
-0.02603174 0.70700002 -0.035948593 1.3834777e-38 299 269
-0.024757065 0.70599997 -0.035897743 1.3650027e-38 300 269
-0.023519212 0.70599997 -0.035897743 1.2359289e-38 301 269
-0.022281358 0.70599997 -0.035897743 1.1165423e-38 302 269
-0.020983893 0.704 -0.035796054 1.1902988e-38 303 269
-0.019749546 0.704 -0.035796054 1.3467437e-38 304 269
-0.018515198 0.704 -0.035796054 1.3651828e-38 305 269
-0.017329946 0.70599997 -0.035897743 1.3836577e-38 306 269
-0.016046507 0.704 -0.035796054 1.4020608e-38 307 269
-0.014812159 0.704 -0.035796054 1.4388667e-38 308 269
-0.013577812 0.704 -0.035796054 1.4388667e-38 309 269
-0.012325933 0.70300001 -0.035745207 1.3927676e-38 310 269
-0.01109334 0.70300001 -0.035745207 1.2544742e-38 311 269
-0.0098326923 0.70099998 -0.035643511 1.3096488e-38 312 269
-0.0086036054 0.70099998 -0.035643511 1.4571616e-38 313 269
-0.0073955595 0.70300001 -0.035745207 1.3835143e-38 314 269
-0.0061629666 0.70300001 -0.035745207 1.3835143e-38 315 269
-0.0049303733 0.70300001 -0.035745207 1.383514e-38 316 269
-0.0036872597 0.70099998 -0.035643511 1.3927696e-38 317 269
-0.0024581731 0.70099998 -0.035643511 1.4019892e-38 318 269
-0.0012290865 0.70099998 -0.035643511 1.4019892e-38 319 269
0 0.69999999 -0.035592664 1.4019889e-38 320 269
0.0012273333 0.69999999 -0.035592664 1.3927692e-38 321 269
0.0024546667 0.69999999 -0.035592664 1.4203201e-38 322 269
0.0036714801 0.69800001 -0.035490975 1.4111004e-38 323 269
0.0048953067 0.69800001 -0.035490975 1.4110285e-38 324 269
0.0061366665 0.69999999 -0.035592664 1.401809e-38 325 269
0.0073429602 0.69800001 -0.035490975 1.3742582e-38 326 269
0.0085667865 0.69800001 -0.035490975 1.3557832e-38 327 269
0.0097906133 0.69800001 -0.035490975 1.3465272e-38 328 269
0.011045999 0.69999999 -0.035592664 1.3465272e-38 329 269
0.012273333 0.69999999 -0.035592664 1.3280878e-38 330 269
0.013519952 0.70099998 -0.035643511 1.28199e-38 331 269
0.014749039 0.70099998 -0.035643511 1.2174517e-38 332 269
0.016023712 0.70300001 -0.035745207 1.1897572e-38 333 269
0.017256306 0.70300001 -0.035745207 1.0144043e-38 334 269
0.018515198 0.704 -0.035796054 8.7611086e-39 335 269
-0.037556399 0.71399999 -0.037556399 1.7608646e-38 290 270
-0.036304519 0.71399999 -0.037556399 1.7516451e-38 291 270
-0.035003547 0.713 -0.037503798 1.6596305e-38 292 270
-0.033658739 0.71100003 -0.037398599 1.5950936e-38 293 270
-0.032366529 0.70999998 -0.037345998 1.3004292e-38 294 270
-0.031121666 0.70999998 -0.037345998 1.3004292e-38 295 270
-0.029876797 0.70999998 -0.037345998 1.3925891e-38 296 270
-0.02855128 0.708 -0.0372408 1.4018087e-38 297 270
-0.027271347 0.70700002 -0.037188202 1.3558185e-38 298 270
-0.02603174 0.70700002 -0.037188202 1.3465988e-38 299 270
-0.024757065 0.70599997 -0.037135597 1.3095414e-38 300 270
-0.023519212 0.70599997 -0.037135597 1.171212e-38 301 270
-0.022281358 0.70599997 -0.037135597 1.1257263e-38 302 270
-0.020983893 0.704 -0.037030395 1.2548001e-38 303 270
-0.019749546 0.704 -0.037030395 1.3099374e-38 304 270
-0.018515198 0.704 -0.037030395 1.3007179e-38 305 270
-0.017329946 0.70599997 -0.037135597 1.3374885e-38 306 270
-0.016046507 0.704 -0.037030395 1.3559635e-38 307 270
-0.014812159 0.704 -0.037030395 1.3742947e-38 308 270
-0.013577812 0.704 -0.037030395 1.3835143e-38 309 270
-0.012325933 0.70300001 -0.036977798 1.3742579e-38 310 270
-0.01109334 0.70300001 -0.036977798 1.2267449e-38 311 270
-0.0098326923 0.70099998 -0.036872596 1.1626395e-38 312 270
-0.0086036054 0.70099998 -0.036872596 1.3193721e-38 313 270
-0.0073955595 0.70300001 -0.036977798 1.355856e-38 314 270
-0.0061629666 0.70300001 -0.036977798 1.3742591e-38 315 270
-0.0049303733 0.70300001 -0.036977798 1.3742947e-38 316 270
-0.0036872597 0.70099998 -0.036872596 1.3742947e-38 317 270
-0.0024581731 0.70099998 -0.036872596 1.383514e-38 318 270
-0.0012290865 0.70099998 -0.036872596 1.383514e-38 319 270
0 0.69999999 -0.036819998 1.383514e-38 320 270
0.0012273333 0.69999999 -0.036819998 1.383514e-38 321 270
0.0024476533 0.69800001 -0.0367148 1.3926976e-38 322 270
0.0036714801 0.69800001 -0.0367148 1.3926976e-38 323 270
0.0048953067 0.69800001 -0.0367148 1.3834777e-38 324 270
0.006119133 0.69800001 -0.0367148 1.3834777e-38 325 270
0.0073429602 0.69800001 -0.0367148 1.3466715e-38 326 270
0.0085667865 0.69800001 -0.0367148 1.3282324e-38 327 270
0.0097906133 0.69800001 -0.0367148 1.3189052e-38 328 270
0.011045999 0.69999999 -0.036819998 1.3004661e-38 329 270
0.012273333 0.69999999 -0.036819998 1.2820267e-38 330 270
0.013500666 0.69999999 -0.036819998 1.2544038e-38 331 270
0.014727999 0.69999999 -0.036819998 1.2082685e-38 332 270
0.015978126 0.70099998 -0.036872596 1.1990489e-38 333 270
0.017182667 0.69999999 -0.036819998 1.0236959e-38 334 270
0.018409999 0.69999999 -0.036819998 8.6696318e-39 335 270
-0.037556399 0.71399999 -0.038808275 1.7516095e-38 290 271
-0.036304519 0.71399999 -0.038808275 1.7331702e-38 291 271
-0.035003547 0.713 -0.038753927 1.6043857e-38 292 271
-0.033658739 0.71100003 -0.038645219 1.5675075e-38 293 271
-0.032366529 0.70999998 -0.038590867 1.2268878e-38 294 271
-0.031121666 0.70999998 -0.038590867 1.1623509e-38 295 271
-0.029876797 0.70999998 -0.038590867 1.1713909e-38 296 271
-0.02855128 0.708 -0.038482159 1.1436962e-38 297 271
-0.027271347 0.70700002 -0.038427804 1.1344767e-38 298 271
-0.02603174 0.70700002 -0.038427804 1.106854e-38 299 271
-0.024757065 0.70599997 -0.038373452 9.7824828e-39 300 271
-0.023519212 0.70599997 -0.038373452 1.0335657e-38 301 271
-0.022281358 0.70599997 -0.038373452 1.1901909e-38 302 271
-0.020983893 0.704 -0.038264744 1.3008258e-38 303 271
-0.019749546 0.704 -0.038264744 1.2823513e-38 304 271
-0.018515198 0.704 -0.038264744 1.2731316e-38 305 271
-0.017329946 0.70599997 -0.038373452 1.3006829e-38 306 271
-0.016046507 0.704 -0.038264744 1.3099024e-38 307 271
-0.014812159 0.704 -0.038264744 1.3098661e-38 308 271
-0.013577812 0.704 -0.038264744 1.3098661e-38 309 271
-0.012343466 0.704 -0.038264744 1.3099012e-38 310 271
-0.01109334 0.70300001 -0.038210396 1.1623521e-38 311 271
-0.0098607466 0.70300001 -0.038210396 1.0337104e-38 312 271
-0.0086281532 0.70300001 -0.038210396 1.2549441e-38 313 271
-0.0073955595 0.70300001 -0.038210396 1.3374888e-38 314 271
-0.0061629666 0.70300001 -0.038210396 1.3282692e-38 315 271
-0.0049303733 0.70300001 -0.038210396 1.3374885e-38 316 271
-0.0036872597 0.70099998 -0.038101684 1.3374885e-38 317 271
-0.0024581731 0.70099998 -0.038101684 1.3467081e-38 318 271
-0.0012273333 0.69999999 -0.038047329 1.3467081e-38 319 271
0 0.69999999 -0.038047329 1.3558916e-38 320 271
0.0012273333 0.69999999 -0.038047329 1.3558916e-38 321 271
0.0024476533 0.69800001 -0.037938625 1.3743301e-38 322 271
0.0036714801 0.69800001 -0.037938625 1.3835496e-38 323 271
0.0048953067 0.69800001 -0.037938625 1.3927326e-38 324 271
0.006119133 0.69800001 -0.037938625 1.383513e-38 325 271
0.0073429602 0.69800001 -0.037938625 1.3557832e-38 326 271
0.0085667865 0.69800001 -0.037938625 1.3281604e-38 327 271
0.0097906133 0.69800001 -0.037938625 1.3096137e-38 328 271
0.011045999 0.69999999 -0.038047329 1.3003942e-38 329 271
0.012273333 0.69999999 -0.038047329 1.2544036e-38 330 271
0.013500666 0.69999999 -0.038047329 1.2359644e-38 331 271
0.014727999 0.69999999 -0.038047329 1.1990489e-38 332 271
0.015955333 0.69999999 -0.038047329 1.1713904e-38 333 271
0.017182667 0.69999999 -0.038047329 1.0237312e-38 334 271
0.018409999 0.69999999 -0.038047329 8.7621806e-39 335 271
-0.037556399 0.71399999 -0.040060159 1.7424621e-38 290 272
-0.036304519 0.71399999 -0.040060159 1.6963643e-38 291 272
-0.035003547 0.713 -0.040004052 1.5214818e-38 292 272
-0.033658739 0.71100003 -0.039891839 1.4846037e-38 293 272
-0.032366529 0.70999998 -0.039835732 1.0796632e-38 294 272
-0.031121666 0.70999998 -0.039835732 5.8180679e-39 295 272
-0.029876797 0.70999998 -0.039835732 8.2942996e-40 296 272
-0.02855128 0.708 -0.039723519 8.2942996e-40 297 272
-0.027271347 0.70700002 -0.039667413 6.4683096e-40 298 272
-0.025994917 0.70599997 -0.039611302 4.624383e-40 299 272
-0.024757065 0.70599997 -0.039611302 7.6098494e-40 300 272
-0.023452586 0.704 -0.039499093 5.8317446e-39 301 272
-0.022218239 0.704 -0.039499093 1.1625339e-38 302 272
-0.020983893 0.704 -0.039499093 1.2823882e-38 303 272
-0.019749546 0.704 -0.039499093 1.27306e-38 304 272
-0.018515198 0.704 -0.039499093 1.27306e-38 305 272
-0.017329946 0.70599997 -0.039611302 1.2914631e-38 306 272
-0.016046507 0.704 -0.039499093 1.2914631e-38 307 272
-0.014812159 0.704 -0.039499093 1.2914629e-38 308 272
-0.013577812 0.704 -0.039499093 1.2914629e-38 309 272
-0.012343466 0.704 -0.039499093 1.328269e-38 310 272
-0.01109334 0.70300001 -0.039442986 1.180792e-38 311 272
-0.0098607466 0.70300001 -0.039442986 9.7860953e-39 312 272
-0.0086281532 0.70300001 -0.039442986 1.1722204e-38 313 272
-0.0073955595 0.70300001 -0.039442986 1.3006108e-38 314 272
-0.0061629666 0.70300001 -0.039442986 1.3006108e-38 315 272
-0.0049163462 0.70099998 -0.039330769 1.3006461e-38 316 272
-0.0036872597 0.70099998 -0.039330769 1.3098658e-38 317 272
-0.0024546667 0.69999999 -0.039274666 1.3557834e-38 318 272
-0.0012273333 0.69999999 -0.039274666 1.3557834e-38 319 272
0 0.69999999 -0.039274666 1.3649314e-38 320 272
0.0012273333 0.69999999 -0.039274666 1.4109932e-38 321 272
0.0024476533 0.69800001 -0.039162453 1.4388314e-38 322 272
0.0036714801 0.69800001 -0.039162453 1.448051e-38 323 272
0.0048953067 0.69800001 -0.039162453 1.4480866e-38 324 272
0.006119133 0.69800001 -0.039162453 1.438867e-38 325 272
0.0073429602 0.69800001 -0.039162453 1.4018092e-38 326 272
0.0085667865 0.69800001 -0.039162453 1.3096137e-38 327 272
0.0097906133 0.69800001 -0.039162453 1.3003942e-38 328 272
0.011045999 0.69999999 -0.039274666 1.2819549e-38 329 272
0.012273333 0.69999999 -0.039274666 1.245184e-38 330 272
0.013500666 0.69999999 -0.039274666 1.2267449e-38 331 272
0.014727999 0.69999999 -0.039274666 1.2450388e-38 332 272
0.015955333 0.69999999 -0.039274666 1.198977e-38 333 272
0.017182667 0.69999999 -0.039274666 9.8692484e-39 334 272
0.018409999 0.69999999 -0.039274666 8.9472921e-39 335 272
-0.036304519 0.71399999 -0.041312039 1.7239507e-38 291 273
-0.035003547 0.713 -0.041254178 1.5489604e-38 292 273
-0.033658739 0.71100003 -0.041138459 1.4752039e-38 293 273
-0.032366529 0.70999998 -0.041080594 1.0886307e-38 294 273
-0.031121666 0.70999998 -0.041080594 4.9857863e-39 295 273
-0.029876797 0.70999998 -0.041080594 0 296 273
-0.02855128 0.708 -0.040964879 0 297 273
-0.027271347 0.70700002 -0.040907022 0 298 273
-0.025994917 0.70599997 -0.040849157 0 299 273
-0.024757065 0.70599997 -0.040849157 7.6090507e-43 300 273
-0.023452586 0.704 -0.040733438 5.8130485e-39 301 273
-0.022218239 0.704 -0.040733438 1.0151656e-38 302 273
-0.020983893 0.704 -0.040733438 1.2272156e-38 303 273
-0.019749546 0.704 -0.040733438 1.2087393e-38 304 273
-0.018515198 0.704 -0.040733438 1.2087393e-38 305 273
-0.017329946 0.70599997 -0.040849157 1.2363623e-38 306 273
-0.016046507 0.704 -0.040733438 1.2363623e-38 307 273
-0.014812159 0.704 -0.040733438 1.27306e-38 308 273
-0.013577812 0.704 -0.040733438 1.2914631e-38 309 273
-0.012343466 0.704 -0.040733438 1.3098661e-38 310 273
-0.01109334 0.70300001 -0.040675577 1.1623171e-38 311 273
-0.0098607466 0.70300001 -0.040675577 9.4169569e-39 312 273
-0.0086281532 0.70300001 -0.040675577 1.1537815e-38 313 273
-0.0073955595 0.70300001 -0.040675577 1.2913557e-38 314 273
-0.0061629666 0.70300001 -0.040675577 1.2821361e-38 315 273
-0.0049163462 0.70099998 -0.040559858 1.2455809e-38 316 273
-0.0036872597 0.70099998 -0.040559858 1.2455809e-38 317 273
-0.0024546667 0.69999999 -0.040502001 1.2914631e-38 318 273
-0.0012273333 0.69999999 -0.040502001 1.2914631e-38 319 273
0 0.69999999 -0.040502001 1.319122e-38 320 273
0.0012273333 0.69999999 -0.040502001 1.3560001e-38 321 273
0.0024476533 0.69800001 -0.040386278 1.4021336e-38 322 273
0.0036714801 0.69800001 -0.040386278 1.4205368e-38 323 273
0.0048953067 0.69800001 -0.040386278 1.43894e-38 324 273
0.006119133 0.69800001 -0.040386278 1.4020257e-38 325 273
0.0073429602 0.69800001 -0.040386278 1.3466362e-38 326 273
0.0085667865 0.69800001 -0.040386278 1.2636601e-38 327 273
0.0097906133 0.69800001 -0.040386278 1.2636957e-38 328 273
0.01101444 0.69800001 -0.040386278 1.2452206e-38 329 273
0.012273333 0.69999999 -0.040502001 1.2451121e-38 330 273
0.013500666 0.69999999 -0.040502001 1.226673e-38 331 273
0.014727999 0.69999999 -0.040502001 1.2726256e-38 332 273
0.015955333 0.69999999 -0.040502001 1.2265278e-38 333 273
0.017182667 0.69999999 -0.040502001 9.5923056e-39 334 273
0.018409999 0.69999999 -0.040502001 9.2238818e-39 335 273
-0.034905359 0.71100003 -0.042385083 1.5674356e-38 292 274
-0.033658739 0.71100003 -0.042385083 1.4752039e-38 293 274
-0.032366529 0.70999998 -0.042325463 1.0608999e-38 294 274
-0.031121666 0.70999998 -0.042325463 5.6304368e-39 295 274
-0.029876797 0.70999998 -0.042325463 4.3398213e-42 296 274
-0.02855128 0.708 -0.042206239 1.5723858e-39 297 274
-0.027117053 0.70300001 -0.041908171 2.9506357e-39 298 274
-0.025884461 0.70300001 -0.041908171 2.3974619e-39 299 274
-0.024651866 0.70300001 -0.041908171 8.3197052e-40 300 274
-0.023452586 0.704 -0.041967787 2.3067405e-39 301 274
-0.022218239 0.704 -0.041967787 7.296833e-39 302 274
-0.020983893 0.704 -0.041967787 1.1445995e-38 303 274
-0.019749546 0.704 -0.041967787 1.217851e-38 304 274
-0.018515198 0.704 -0.041967787 1.2271064e-38 305 274
-0.017329946 0.70599997 -0.042087011 1.2546569e-38 306 274
-0.016046507 0.704 -0.041967787 1.2638765e-38 307 274
-0.014812159 0.704 -0.041967787 1.2821717e-38 308 274
-0.013577812 0.704 -0.041967787 1.3098305e-38 309 274
-0.012343466 0.704 -0.041967787 1.3374522e-38 310 274
-0.01109334 0.70300001 -0.041908171 1.0793045e-38 311 274
-0.0098607466 0.70300001 -0.041908171 9.0434926e-39 312 274
-0.0086281532 0.70300001 -0.041908171 1.1993751e-38 313 274
-0.0073955595 0.70300001 -0.041908171 1.2914276e-38 314 274
-0.0061629666 0.70300001 -0.041908171 1.2730244e-38 315 274
-0.0049163462 0.70099998 -0.041788943 1.2638402e-38 316 274
-0.0036872597 0.70099998 -0.041788943 1.2730598e-38 317 274
-0.0024546667 0.69999999 -0.041729331 1.2913913e-38 318 274
-0.0012273333 0.69999999 -0.041729331 1.3006108e-38 319 274
0 0.69999999 -0.041729331 1.3099027e-38 320 274
0.0012273333 0.69999999 -0.041729331 1.3283418e-38 321 274
0.0024476533 0.69800001 -0.041610107 1.3559648e-38 322 274
0.0036714801 0.69800001 -0.041610107 1.3375617e-38 323 274
0.0048953067 0.69800001 -0.041610107 1.3374891e-38 324 274
0.006119133 0.69800001 -0.041610107 1.3006108e-38 325 274
0.0073429602 0.69800001 -0.041610107 1.2178497e-38 326 274
0.0085667865 0.69800001 -0.041610107 1.1625323e-38 327 274
0.0097906133 0.69800001 -0.041610107 1.2267449e-38 328 274
0.01101444 0.69800001 -0.041610107 1.2359644e-38 329 274
0.012273333 0.69999999 -0.041729331 1.2357842e-38 330 274
0.013500666 0.69999999 -0.041729331 1.2081616e-38 331 274
0.014727999 0.69999999 -0.041729331 1.2633338e-38 332 274
0.015955333 0.69999999 -0.041729331 1.2172361e-38 333 274
0.017182667 0.69999999 -0.041729331 9.2238818e-39 334 274
0.018409999 0.69999999 -0.041729331 9.7770556e-39 335 274
-0.033611398 0.70999998 -0.043570329 1.5212652e-38 293 275
-0.032366529 0.70999998 -0.043570329 1.0516435e-38 294 275
-0.031121666 0.70999998 -0.043570329 5.7222625e-39 295 275
-0.029876797 0.70999998 -0.043570329 5.4104134e-42 296 275
-0.02855128 0.708 -0.043447599 1.5738151e-39 297 275
-0.027117053 0.70300001 -0.043140765 3.2261436e-39 298 275
-0.025810819 0.70099998 -0.043018032 3.133948e-39 299 275
-0.024581732 0.70099998 -0.043018032 1.9368663e-39 300 275
-0.023452586 0.704 -0.043202132 7.3868187e-40 301 275
-0.022218239 0.704 -0.043202132 4.6220667e-39 302 275
-0.021043506 0.70599997 -0.043324865 1.1075402e-38 303 275
-0.019749546 0.704 -0.043202132 1.2362541e-38 304 275
-0.018515198 0.704 -0.043202132 1.2270345e-38 305 275
-0.017329946 0.70599997 -0.043324865 1.2362541e-38 306 275
-0.016092092 0.70599997 -0.043324865 1.2362541e-38 307 275
-0.014812159 0.704 -0.043202132 1.2731319e-38 308 275
-0.013577812 0.704 -0.043202132 1.2731319e-38 309 275
-0.012343466 0.704 -0.043202132 1.2728054e-38 310 275
-0.011109119 0.704 -0.043202132 8.302664e-39 311 275
-0.0098607466 0.70300001 -0.043140765 3.6107734e-39 312 275
-0.0086281532 0.70300001 -0.043140765 6.5606734e-39 313 275
-0.0073955595 0.70300001 -0.043140765 9.6957144e-39 314 275
-0.0061629666 0.70300001 -0.043140765 1.1079008e-38 315 275
-0.0049093333 0.69999999 -0.042956665 1.2455458e-38 316 275
-0.0036819996 0.69999999 -0.042956665 1.2362904e-38 317 275
-0.0024546667 0.69999999 -0.042956665 1.2546575e-38 318 275
-0.0012273333 0.69999999 -0.042956665 1.263877e-38 319 275
0 0.69999999 -0.042956665 1.3193023e-38 320 275
0.0012273333 0.69999999 -0.042956665 1.3377056e-38 321 275
0.0024476533 0.69800001 -0.042833932 1.3376333e-38 322 275
0.0036714801 0.69800001 -0.042833932 1.282316e-38 323 275
0.0048953067 0.69800001 -0.042833932 1.2912112e-38 324 275
0.006119133 0.69800001 -0.042833932 1.2174547e-38 325 275
0.0073429602 0.69800001 -0.042833932 1.1163622e-38 326 275
0.0085667865 0.69800001 -0.042833932 1.0702644e-38 327 275
0.0097906133 0.69800001 -0.042833932 1.0061944e-38 328 275
0.01101444 0.69800001 -0.042833932 1.1168291e-38 329 275
0.012273333 0.69999999 -0.042956665 1.2725903e-38 330 275
0.013500666 0.69999999 -0.042956665 1.2449675e-38 331 275
0.014727999 0.69999999 -0.042956665 1.2357827e-38 332 275
0.015955333 0.69999999 -0.042956665 1.2173436e-38 333 275
0.017182667 0.69999999 -0.042956665 1.0605018e-38 334 275
-0.028349647 0.70300001 -0.04437336 1.8496537e-39 297 276
-0.027117053 0.70300001 -0.04437336 3.6863861e-39 298 276
-0.025810819 0.70099998 -0.044247117 3.5016361e-39 299 276
-0.024581732 0.70099998 -0.044247117 2.8580869e-39 300 276
-0.023519212 0.70599997 -0.044562716 3.6880494e-40 301 276
-0.022281358 0.70599997 -0.044562716 2.3150095e-39 302 276
-0.021043506 0.70599997 -0.044562716 9.6902998e-39 303 276
-0.019749546 0.704 -0.044436477 1.2453658e-38 304 276
-0.018515198 0.704 -0.044436477 1.2638049e-38 305 276
-0.017329946 0.70599997 -0.044562716 1.254585e-38 306 276
-0.016092092 0.70599997 -0.044562716 1.2638405e-38 307 276
-0.014812159 0.704 -0.044436477 1.3098658e-38 308 276
-0.013577812 0.704 -0.044436477 1.180792e-38 309 276
-0.012343466 0.704 -0.044436477 8.9484061e-39 310 276
-0.011109119 0.704 -0.044436477 1.1117776e-39 311 276
-0.0098747732 0.704 -0.044436477 3.3631163e-44 312 276
-0.0086281532 0.70300001 -0.04437336 6.5116798e-40 313 276
-0.0073955595 0.70300001 -0.04437336 2.4230482e-39 314 276
-0.0061717331 0.704 -0.044436477 7.4012535e-39 315 276
-0.0049093333 0.69999999 -0.044183996 1.2269636e-38 316 276
-0.0036819996 0.69999999 -0.044183996 1.2730613e-38 317 276
-0.0024546667 0.69999999 -0.044183996 1.2913559e-38 318 276
-0.0012273333 0.69999999 -0.044183996 1.3005755e-38 319 276
0 0.69999999 -0.044183996 1.3837308e-38 320 276
0.0012273333 0.69999999 -0.044183996 1.3468886e-38 321 276
0.0024476533 0.69800001 -0.04405776 1.2085581e-38 322 276
0.0036714801 0.69800001 -0.04405776 1.0794842e-38 323 276
0.0048953067 0.69800001 -0.04405776 1.0240592e-38 324 276
0.006119133 0.69800001 -0.04405776 9.6874187e-39 325 276
0.0073429602 0.69800001 -0.04405776 9.1367659e-39 326 276
0.0085667865 0.69800001 -0.04405776 9.2289615e-39 327 276
0.0097906133 0.69800001 -0.04405776 9.7853667e-39 328 276
0.01101444 0.69800001 -0.04405776 1.1260855e-38 329 276
0.012273333 0.69999999 -0.044183996 1.2910294e-38 330 276
0.013500666 0.69999999 -0.044183996 1.2449675e-38 331 276
0.014727999 0.69999999 -0.044183996 1.2265629e-38 332 276
0.015955333 0.69999999 -0.044183996 1.2265629e-38 333 276
0.017182667 0.69999999 -0.044183996 1.1896479e-38 334 276
-0.027309919 0.708 -0.045930319 3.317228e-39 298 277
-0.026068559 0.708 -0.045930319 3.9625974e-39 299 277
-0.024827199 0.708 -0.045930319 3.135743e-39 300 277
-0.023519212 0.70599997 -0.04580057 6.4682115e-40 301 277
-0.022281358 0.70599997 -0.04580057 3.7817262e-40 302 277
-0.021073313 0.70700002 -0.045865446 6.9240623e-39 303 277
-0.019805651 0.70599997 -0.04580057 1.1258349e-38 304 277
-0.018567799 0.70599997 -0.04580057 1.2365056e-38 305 277
-0.017329946 0.70599997 -0.04580057 1.2914266e-38 306 277
-0.016092092 0.70599997 -0.04580057 1.2729516e-38 307 277
-0.014812159 0.704 -0.045670826 1.1623527e-38 308 277
-0.013577812 0.704 -0.045670826 7.6591149e-39 309 277
-0.012343466 0.704 -0.045670826 1.9433361e-39 310 277
-0.011109119 0.704 -0.045670826 3.9866941e-42 311 277
-0.0098747732 0.704 -0.045670826 1.8369341e-40 312 277
-0.0086404262 0.704 -0.045670826 5.521172e-40 313 277
-0.0074060797 0.704 -0.045670826 1.1927853e-41 314 277
-0.0061717331 0.704 -0.045670826 2.5048112e-39 315 277
-0.0049093333 0.69999999 -0.04541133 6.3781221e-39 316 277
-0.0036819996 0.69999999 -0.04541133 9.1439924e-39 317 277
-0.0024546667 0.69999999 -0.04541133 1.1255836e-38 318 277
-0.0012273333 0.69999999 -0.04541133 1.0979251e-38 319 277
0 0.69999999 -0.04541133 1.0980325e-38 320 277
0.0012273333 0.69999999 -0.04541133 1.0611543e-38 321 277
0.0024546667 0.69999999 -0.04541133 8.9570507e-39 322 277
0.0036714801 0.69800001 -0.045281585 9.0496051e-39 323 277
0.0048953067 0.69800001 -0.045281585 1.0885606e-38 324 277
0.006119133 0.69800001 -0.045281585 1.1162553e-38 325 277
0.0073429602 0.69800001 -0.045281585 1.1163269e-38 326 277
0.0085667865 0.69800001 -0.045281585 1.1255465e-38 327 277
0.0097906133 0.69800001 -0.045281585 1.1807917e-38 328 277
0.01101444 0.69800001 -0.045281585 1.2361089e-38 329 277
0.012273333 0.69999999 -0.04541133 1.2726985e-38 330 277
0.013500666 0.69999999 -0.04541133 1.2450039e-38 331 277
0.014727999 0.69999999 -0.04541133 1.2541139e-38 332 277
0.015955333 0.69999999 -0.04541133 1.2541139e-38 333 277
-0.02603174 0.70700002 -0.047105055 3.5937953e-39 299 278
-0.024792133 0.70700002 -0.047105055 1.3897714e-39 300 278
-0.023552528 0.70700002 -0.047105055 5.0362667e-42 301 278
-0.022312919 0.70700002 -0.047105055 3.8668285e-39 302 278
-0.021103119 0.708 -0.047171678 1.0135771e-38 303 278
-0.019805651 0.70599997 -0.047038425 1.1258319e-38 304 278
-0.018567799 0.70599997 -0.047038425 1.2825286e-38 305 278
-0.017354494 0.70700002 -0.047105055 1.3465639e-38 306 278
-0.016092092 0.70599997 -0.047038425 1.2543683e-38 307 278
-0.014854239 0.70599997 -0.047038425 7.5705136e-39 308 278
-0.013616386 0.70599997 -0.047038425 2.3153627e-39 309 278
-0.012343466 0.704 -0.046905171 2.8025969e-44 310 278
-0.011109119 0.704 -0.046905171 4.7111654e-42 311 278
-0.0098747732 0.704 -0.046905171 2.3949606e-39 312 278
