# .PCD v.7 - Point Cloud Data file format
FIELDS x y z rgb imX imY
SIZE 4 4 4 4 4 4
TYPE F F F F F F
COUNT 1 1 1 1 1 1
WIDTH 832
HEIGHT 1
VIEWPOINT 0 0 0 1 0 0 0
POINTS 832
DATA ascii
0.0024476533 0.69800001 -0.024476532 1.3341687e-38 322 260
0.00366622 0.69700003 -0.024441468 1.3341687e-38 323 260
0.0048882933 0.69700003 -0.024441468 1.288358e-38 324 260
0.0061015999 0.69599998 -0.0244064 1.3160167e-38 325 260
0.0073219193 0.69599998 -0.0244064 1.2977571e-38 326 260
0.0085176928 0.69400001 -0.024336265 1.3069766e-38 327 260
0.0097345067 0.69400001 -0.024336265 1.3344558e-38 328 260
0.010935539 0.69300002 -0.024301201 1.3344558e-38 329 260
0.012150601 0.69300002 -0.024301201 1.3344202e-38 330 260
0.01336566 0.69300002 -0.024301201 1.3436757e-38 331 260
0.014538639 0.69099998 -0.024231065 1.3528952e-38 332 260
0.015727401 0.69 -0.024195999 1.3528952e-38 333 260
0.0169372 0.69 -0.024195999 1.3252363e-38 334 260
0.0180944 0.68800002 -0.024125867 1.2699189e-38 335 260
0.019300694 0.68800002 -0.024125867 1.2422243e-38 336 260
0.020477179 0.68699998 -0.024090799 1.2422243e-38 337 260
0.021681719 0.68699998 -0.024090799 1.2513726e-38 338 260
0.022886258 0.68699998 -0.024090799 1.2513726e-38 339 260
0.024055731 0.68599999 -0.024055731 1.2605921e-38 340 260
0.025258519 0.68599999 -0.024055731 1.2605921e-38 341 260
0.026461305 0.68599999 -0.024055731 1.2882148e-38 342 260
0.027664091 0.68599999 -0.024055731 1.2882148e-38 343 260
0.02878272 0.68400002 -0.0239856 1.3065823e-38 344 260
0.029982001 0.68400002 -0.0239856 1.2973628e-38 345 260
0.03118128 0.68400002 -0.0239856 1.3065826e-38 346 260
0.032380559 0.68400002 -0.0239856 1.3249859e-38 347 260
0.033579841 0.68400002 -0.0239856 1.3066546e-38 348 260
0.03477912 0.68400002 -0.0239856 1.3250938e-38 349 260
0.035925802 0.68300003 -0.023950534 1.325201e-38 350 260
0.037123326 0.68300003 -0.023950534 1.3344205e-38 351 260
0.038320854 0.68300003 -0.023950534 1.334636e-38 352 260
0.039518382 0.68300003 -0.023950534 1.3622587e-38 353 260
0.040715907 0.68300003 -0.023950534 1.3901332e-38 354 260
0.041913435 0.68300003 -0.023950534 1.4269754e-38 355 260
0.043110959 0.68300003 -0.023950534 1.4271203e-38 356 260
0.044308487 0.68300003 -0.023950534 1.454743e-38 357 260
0.045506012 0.68300003 -0.023950534 1.4823658e-38 358 260
0.04670354 0.68300003 -0.023950534 1.4823658e-38 359 260
0.047901068 0.68300003 -0.023950534 1.5190633e-38 360 260
0.049098592 0.68300003 -0.023950534 1.4822209e-38 361 260
0.05029612 0.68300003 -0.023950534 1.4637815e-38 362 260
0.051493648 0.68300003 -0.023950534 1.4269033e-38 363 260
0.052691177 0.68300003 -0.023950534 1.3992449e-38 364 260
0.053809796 0.68199998 -0.023915464 1.3623666e-38 365 260
0.055005573 0.68199998 -0.023915464 1.3621147e-38 366 260
0.056283753 0.68300003 -0.023950534 1.3436754e-38 367 260
0.057481278 0.68300003 -0.023950534 1.3251997e-38 368 260
0.05867881 0.68300003 -0.023950534 1.3251997e-38 369 260
0.059876334 0.68300003 -0.023950534 1.3343114e-38 370 260
0.061073858 0.68300003 -0.023950534 1.3250558e-38 371 260
0.06227139 0.68300003 -0.023950534 1.3250563e-38 372 260
0.063468911 0.68300003 -0.023950534 1.334276e-38 373 260
0.064666435 0.68300003 -0.023950534 1.3159448e-38 374 260
0.0659604 0.68400002 -0.0239856 1.3159448e-38 375 260
0.067159683 0.68400002 -0.0239856 1.3159445e-38 376 260
0.068358958 0.68400002 -0.0239856 1.3251641e-38 377 260
0.069761619 0.68599999 -0.024055731 1.3159811e-38 378 260
0.071171306 0.68800002 -0.024125867 1.297578e-38 379 260
0.072693199 0.69099998 -0.024231065 1.316089e-38 380 260
0.074118659 0.69300002 -0.024301201 1.316089e-38 381 260
0.075333714 0.69300002 -0.024301201 1.3069413e-38 382 260
0.076548778 0.69300002 -0.024301201 1.3161609e-38 383 260
0.077876054 0.69400001 -0.024336265 1.2794274e-38 384 260
0.079320796 0.69599998 -0.0244064 1.2609884e-38 385 260
0.080656841 0.69700003 -0.024441468 1.1963476e-38 386 260
0.081878915 0.69700003 -0.024441468 1.1963476e-38 387 260
0.083220214 0.69800001 -0.024476532 7.2910372e-39 388 260
0.084444039 0.69800001 -0.024476532 1.1992654e-38 389 260
0.085667863 0.69800001 -0.024476532 1.5859481e-38 390 260
0.086891696 0.69800001 -0.024476532 1.6781798e-38 391 260
0.088115521 0.69800001 -0.024476532 1.6873618e-38 392 260
0.089339346 0.69800001 -0.024476532 1.6689226e-38 393 260
0.090563171 0.69800001 -0.024476532 1.6873611e-38 394 260
-0.026915418 0.73100001 -0.026915418 1.493462e-38 299 261
-0.025633732 0.73100001 -0.026915418 1.160296e-38 300 261
-0.024318734 0.73000002 -0.026878599 8.7445354e-39 301 261
-0.023038799 0.73000002 -0.026878599 1.2433442e-38 302 261
-0.021758866 0.73000002 -0.026878599 1.5568094e-38 303 261
-0.020478934 0.73000002 -0.026878599 1.3919395e-38 304 261
-0.0191464 0.72799999 -0.026804959 1.4287817e-38 305 261
-0.017869972 0.72799999 -0.026804959 1.4101971e-38 306 261
-0.016320027 0.71600002 -0.026363119 1.2349896e-38 307 261
-0.015001519 0.713 -0.026252659 1.223823e-38 308 261
-0.01371282 0.71100003 -0.026179021 1.2053838e-38 309 261
-0.012448666 0.70999998 -0.026142199 1.2606993e-38 310 261
-0.011156459 0.70700002 -0.02603174 1.2606993e-38 311 261
-0.0099028256 0.70599997 -0.025994917 1.2423325e-38 312 261
-0.0086404262 0.704 -0.02592128 1.2423325e-38 313 261
-0.0074060797 0.704 -0.02592128 1.2330779e-38 314 261
-0.0061629666 0.70300001 -0.025884461 1.2238583e-38 315 261
-0.0049303733 0.70300001 -0.025884461 1.2513375e-38 316 261
-0.0036872597 0.70099998 -0.025810819 1.2605571e-38 317 261
-0.0024546667 0.69999999 -0.025773998 1.2606287e-38 318 261
-0.0012238267 0.69800001 -0.025700359 1.2698483e-38 319 261
0 0.69800001 -0.025700359 1.2698483e-38 320 261
0.0012238267 0.69800001 -0.025700359 1.2790678e-38 321 261
0.0024441467 0.69700003 -0.025663542 1.3065823e-38 322 261
0.00366622 0.69700003 -0.025663542 1.3249856e-38 323 261
0.0048812795 0.69599998 -0.025626717 1.2700635e-38 324 261
0.0061015999 0.69599998 -0.025626717 1.2700635e-38 325 261
0.0073008798 0.69400001 -0.025553079 1.2609161e-38 326 261
0.0085176928 0.69400001 -0.025553079 1.2609161e-38 327 261
0.0097204801 0.69300002 -0.02551626 1.2976148e-38 328 261
0.010935539 0.69300002 -0.02551626 1.2883953e-38 329 261
0.012115533 0.69099998 -0.025442619 1.2975427e-38 330 261
0.013327086 0.69099998 -0.025442619 1.3159458e-38 331 261
0.014517599 0.69 -0.025405798 1.3159461e-38 332 261
0.015727401 0.69 -0.025405798 1.3159461e-38 333 261
0.0169372 0.69 -0.025405798 1.2699201e-38 334 261
0.0180944 0.68800002 -0.02533216 1.2330779e-38 335 261
0.019300694 0.68800002 -0.02533216 1.2145309e-38 336 261
0.020477179 0.68699998 -0.025295338 1.2145309e-38 337 261
0.021681719 0.68699998 -0.025295338 1.2146029e-38 338 261
0.022886258 0.68699998 -0.025295338 1.2238583e-38 339 261
0.024055731 0.68599999 -0.025258519 1.2238581e-38 340 261
0.025258519 0.68599999 -0.025258519 1.2330776e-38 341 261
0.026461305 0.68599999 -0.025258519 1.2331495e-38 342 261
0.027583439 0.68400002 -0.025184879 1.2331495e-38 343 261
0.02878272 0.68400002 -0.025184879 1.2330423e-38 344 261
0.029982001 0.68400002 -0.025184879 1.2330423e-38 345 261
0.03118128 0.68400002 -0.025184879 1.2421543e-38 346 261
0.032333218 0.68300003 -0.02514806 1.2605934e-38 347 261
0.033530746 0.68300003 -0.02514806 1.2514817e-38 348 261
0.034728274 0.68300003 -0.02514806 1.2699207e-38 349 261
0.035925802 0.68300003 -0.02514806 1.2700285e-38 350 261
0.037068974 0.68199998 -0.025111238 1.2976511e-38 351 261
0.038264744 0.68199998 -0.025111238 1.2886114e-38 352 261
0.039460517 0.68199998 -0.025111238 1.3163061e-38 353 261
0.040656291 0.68199998 -0.025111238 1.3440371e-38 354 261
0.041852064 0.68199998 -0.025111238 1.3808793e-38 355 261
0.043047838 0.68199998 -0.025111238 1.3627286e-38 356 261
0.044243611 0.68199998 -0.025111238 1.4087904e-38 357 261
0.045439381 0.68199998 -0.025111238 1.454708e-38 358 261
0.046635158 0.68199998 -0.025111238 1.454708e-38 359 261
0.047830928 0.68199998 -0.025111238 1.4639263e-38 360 261
0.049026705 0.68199998 -0.025111238 1.4454872e-38 361 261
0.050222475 0.68199998 -0.025111238 1.4178636e-38 362 261
0.051418249 0.68199998 -0.025111238 1.3902048e-38 363 261
0.052614026 0.68199998 -0.025111238 1.3991727e-38 364 261
0.053809796 0.68199998 -0.025111238 1.3622584e-38 365 261
0.055005573 0.68199998 -0.025111238 1.3529305e-38 366 261
0.056201346 0.68199998 -0.025111238 1.3344555e-38 367 261
0.05739712 0.68199998 -0.025111238 1.3160161e-38 368 261
0.058592889 0.68199998 -0.025111238 1.297613e-38 369 261
0.059788663 0.68199998 -0.025111238 1.2883936e-38 370 261
0.061073858 0.68300003 -0.02514806 1.2883936e-38 371 261
0.06227139 0.68300003 -0.02514806 1.3066898e-38 372 261
0.063468911 0.68300003 -0.02514806 1.3066898e-38 373 261
0.064666435 0.68300003 -0.02514806 1.2883227e-38 374 261
0.065863967 0.68300003 -0.02514806 1.2883227e-38 375 261
0.067061491 0.68300003 -0.02514806 1.2883227e-38 376 261
0.068259016 0.68300003 -0.02514806 1.2975783e-38 377 261
0.069761619 0.68599999 -0.025258519 1.2883947e-38 378 261
0.070964411 0.68599999 -0.025258519 1.2976502e-38 379 261
0.0723776 0.68800002 -0.02533216 1.2792831e-38 380 261
0.0737978 0.69 -0.025405798 1.297722e-38 381 261
0.075116299 0.69099998 -0.025442619 1.2976865e-38 382 261
0.076327853 0.69099998 -0.025442619 1.306906e-38 383 261
0.077763841 0.69300002 -0.02551626 1.2888266e-38 384 261
0.079092868 0.69400001 -0.025553079 1.3349243e-38 385 261
0.080656841 0.69700003 -0.025663542 1.0964072e-38 386 261
0.081878915 0.69700003 -0.025663542 1.1148822e-38 387 261
0.083220214 0.69800001 -0.025700359 8.3995483e-39 388 261
0.084444039 0.69800001 -0.025700359 1.0520048e-38 389 261
0.085667863 0.69800001 -0.025700359 1.4387583e-38 390 261
0.086891696 0.69800001 -0.025700359 1.5954548e-38 391 261
0.088115521 0.69800001 -0.025700359 1.7148407e-38 392 261
0.089339346 0.69800001 -0.025700359 1.705621e-38 393 261
0.090822659 0.69999999 -0.025773998 1.6872892e-38 394 261
0.092049994 0.69999999 -0.025773998 1.6872892e-38 395 261
-0.026915418 0.73100001 -0.028197108 1.5118288e-38 299 262
-0.025633732 0.73100001 -0.028197108 1.178696e-38 300 262
-0.024318734 0.73000002 -0.028158534 9.2976784e-39 301 262
-0.023038799 0.73000002 -0.028158534 1.2254421e-38 302 262
-0.021758866 0.73000002 -0.028158534 1.4835899e-38 303 262
-0.020478934 0.73000002 -0.028158534 1.2724089e-38 304 262
-0.0191464 0.72799999 -0.028081384 1.2540057e-38 305 262
-0.017869972 0.72799999 -0.028081384 1.2625038e-38 306 262
-0.016251646 0.713 -0.027502786 1.0965875e-38 307 262
-0.014959441 0.71100003 -0.027425639 1.260989e-38 308 262
-0.013693533 0.70999998 -0.027387066 1.2240747e-38 309 262
-0.012448666 0.70999998 -0.027387066 1.2331848e-38 310 262
-0.011156459 0.70700002 -0.027271347 1.2147817e-38 311 262
-0.0099028256 0.70599997 -0.027232772 1.2146029e-38 312 262
-0.0086404262 0.704 -0.027155625 1.2053832e-38 313 262
-0.0074060797 0.704 -0.027155625 1.2145314e-38 314 262
-0.0061629666 0.70300001 -0.027117053 1.2145314e-38 315 262
-0.0049303733 0.70300001 -0.027117053 1.2053832e-38 316 262
-0.0036819996 0.69999999 -0.027001332 1.2146029e-38 317 262
-0.0024476533 0.69800001 -0.026924185 1.2513723e-38 318 262
-0.0012238267 0.69800001 -0.026924185 1.2605918e-38 319 262
0 0.69800001 -0.026924185 1.2606272e-38 320 262
0.0012220733 0.69700003 -0.026885614 1.2882498e-38 321 262
0.0024441467 0.69700003 -0.026885614 1.2882498e-38 322 262
0.00366622 0.69700003 -0.026885614 1.2975053e-38 323 262
0.0048812795 0.69599998 -0.026847038 1.2792106e-38 324 262
0.0060840664 0.69400001 -0.026769891 1.2792106e-38 325 262
0.0073008798 0.69400001 -0.026769891 1.2608442e-38 326 262
0.0085176928 0.69400001 -0.026769891 1.2515886e-38 327 262
0.0097204801 0.69300002 -0.02673132 1.2883231e-38 328 262
0.010935539 0.69300002 -0.02673132 1.2883231e-38 329 262
0.012115533 0.69099998 -0.026654173 1.2974344e-38 330 262
0.013327086 0.69099998 -0.026654173 1.2882148e-38 331 262
0.014517599 0.69 -0.026615599 1.2973628e-38 332 262
0.015727401 0.69 -0.026615599 1.2881432e-38 333 262
0.0169372 0.69 -0.026615599 1.2421177e-38 334 262
0.018068098 0.68699998 -0.026499879 1.2052394e-38 335 262
0.019272638 0.68699998 -0.026499879 1.1960199e-38 336 262
0.020477179 0.68699998 -0.026499879 1.2052394e-38 337 262
0.021650158 0.68599999 -0.026461305 1.2053466e-38 338 262
0.022852944 0.68599999 -0.026461305 1.2145662e-38 339 262
0.024055731 0.68599999 -0.026461305 1.2239287e-38 340 262
0.025258519 0.68599999 -0.026461305 1.2239287e-38 341 262
0.02638416 0.68400002 -0.02638416 1.2238931e-38 342 262
0.027583439 0.68400002 -0.02638416 1.2146734e-38 343 262
0.028740639 0.68300003 -0.026345588 1.2145662e-38 344 262
0.029938167 0.68300003 -0.026345588 1.2053466e-38 345 262
0.03118128 0.68400002 -0.02638416 1.2328258e-38 346 262
0.032333218 0.68300003 -0.026345588 1.2697041e-38 347 262
0.033530746 0.68300003 -0.026345588 1.2605568e-38 348 262
0.034728274 0.68300003 -0.026345588 1.2882154e-38 349 262
0.035925802 0.68300003 -0.026345588 1.2791034e-38 350 262
0.037068974 0.68199998 -0.026307013 1.2883231e-38 351 262
0.038264744 0.68199998 -0.026307013 1.2975783e-38 352 262
0.039460517 0.68199998 -0.026307013 1.325201e-38 353 262
0.040656291 0.68199998 -0.026307013 1.3345651e-38 354 262
0.041852064 0.68199998 -0.026307013 1.3806628e-38 355 262
0.043047838 0.68199998 -0.026307013 1.3901347e-38 356 262
0.044243611 0.68199998 -0.026307013 1.4177936e-38 357 262
0.045439381 0.68199998 -0.026307013 1.4454518e-38 358 262
0.046635158 0.68199998 -0.026307013 1.4546714e-38 359 262
0.047830928 0.68199998 -0.026307013 1.445415e-38 360 262
0.049026705 0.68199998 -0.026307013 1.4361954e-38 361 262
0.050222475 0.68199998 -0.026307013 1.3902048e-38 362 262
0.051267464 0.68000001 -0.026229866 1.3717657e-38 363 262
0.052459732 0.68000001 -0.026229866 1.3807697e-38 364 262
0.053809796 0.68199998 -0.026307013 1.3347079e-38 365 262
0.055005573 0.68199998 -0.026307013 1.3436401e-38 366 262
0.056201346 0.68199998 -0.026307013 1.325201e-38 367 262
0.05739712 0.68199998 -0.026307013 1.3159811e-38 368 262
0.058592889 0.68199998 -0.026307013 1.297578e-38 369 262
0.059788663 0.68199998 -0.026307013 1.29747e-38 370 262
0.060984433 0.68199998 -0.026307013 1.29747e-38 371 262
0.062180214 0.68199998 -0.026307013 1.2974344e-38 372 262
0.063375987 0.68199998 -0.026307013 1.2974344e-38 373 262
0.064571753 0.68199998 -0.026307013 1.29747e-38 374 262
0.065863967 0.68300003 -0.026345588 1.29747e-38 375 262
0.067061491 0.68300003 -0.026345588 1.2974346e-38 376 262
0.068259016 0.68300003 -0.026345588 1.3066543e-38 377 262
0.069456547 0.68300003 -0.026345588 1.297543e-38 378 262
0.070654072 0.68300003 -0.026345588 1.297543e-38 379 262
0.072167195 0.68599999 -0.026461305 1.279248e-38 380 262
0.073476933 0.68699998 -0.026499879 1.279248e-38 381 262
0.074790187 0.68800002 -0.026538454 1.2701006e-38 382 262
0.076217398 0.69 -0.026615599 1.2793202e-38 383 262
0.077539407 0.69099998 -0.026654173 1.2526358e-38 384 262
0.078978904 0.69300002 -0.02673132 1.4554662e-38 385 262
0.080309682 0.69400001 -0.026769891 1.3829363e-38 386 262
0.081761435 0.69599998 -0.026847038 1.4198147e-38 387 262
0.083100989 0.69700003 -0.026885614 1.309756e-38 388 262
0.084444039 0.69800001 -0.026924185 1.3005364e-38 389 262
0.085667863 0.69800001 -0.026924185 1.3282673e-38 390 262
0.086891696 0.69800001 -0.026924185 1.5218781e-38 391 262
0.088115521 0.69800001 -0.026924185 1.6965457e-38 392 262
0.089339346 0.69800001 -0.026924185 1.6689229e-38 393 262
0.090822659 0.69999999 -0.027001332 1.668958e-38 394 262
0.092049994 0.69999999 -0.027001332 1.668958e-38 395 262
0.093277335 0.69999999 -0.027001332 1.6780696e-38 396 262
-0.026915418 0.73100001 -0.029478792 1.4934617e-38 299 263
-0.025598666 0.73000002 -0.029438468 1.2247937e-38 300 263
-0.024318734 0.73000002 -0.029438468 1.0496222e-38 301 263
-0.023038799 0.73000002 -0.029438468 1.2440614e-38 302 263
-0.021758866 0.73000002 -0.029438468 1.4560754e-38 303 263
-0.020422826 0.72799999 -0.029357811 1.2724089e-38 304 263
-0.0191464 0.72799999 -0.029357811 1.2447862e-38 305 263
-0.017869972 0.72799999 -0.029357811 1.0964791e-38 306 263
-0.01620606 0.71100003 -0.028672259 9.2134323e-39 307 263
-0.014959441 0.71100003 -0.028672259 1.1595378e-38 308 263
-0.013693533 0.70999998 -0.028631933 1.1871966e-38 309 263
-0.012448666 0.70999998 -0.028631933 1.2055268e-38 310 263
-0.011156459 0.70700002 -0.028510952 1.1963073e-38 311 263
-0.0099028256 0.70599997 -0.028470624 1.168721e-38 312 263
-0.0086404262 0.704 -0.028389972 1.150246e-38 313 263
-0.0074060797 0.704 -0.028389972 1.1592505e-38 314 263
-0.0061629666 0.70300001 -0.028349647 1.1777255e-38 315 263
-0.0049163462 0.70099998 -0.028268991 1.1503182e-38 316 263
-0.0036819996 0.69999999 -0.028228667 1.1687575e-38 317 263
-0.0024476533 0.69800001 -0.028148014 1.2054912e-38 318 263
-0.0012238267 0.69800001 -0.028148014 1.2147467e-38 319 263
0 0.69800001 -0.028148014 1.2606637e-38 320 263
0.0012220733 0.69700003 -0.028107686 1.2514442e-38 321 263
0.0024441467 0.69700003 -0.028107686 1.2606993e-38 322 263
0.0036609597 0.69599998 -0.028067358 1.2699189e-38 323 263
0.0048812795 0.69599998 -0.028067358 1.2699552e-38 324 263
0.0060840664 0.69400001 -0.027986705 1.2699552e-38 325 263
0.0072903596 0.69300002 -0.027946379 1.2699557e-38 326 263
0.0085054198 0.69300002 -0.027946379 1.2699557e-38 327 263
0.0097204801 0.69300002 -0.027946379 1.2698839e-38 328 263
0.01090398 0.69099998 -0.027865725 1.2606643e-38 329 263
0.012115533 0.69099998 -0.027865725 1.2605924e-38 330 263
0.013327086 0.69099998 -0.027865725 1.251337e-38 331 263
0.014517599 0.69 -0.027825398 1.2697041e-38 332 263
0.015681813 0.68800002 -0.027744746 1.2420454e-38 333 263
0.016888106 0.68800002 -0.027744746 1.2235709e-38 334 263
0.018068098 0.68699998 -0.027704418 1.2051318e-38 335 263
0.019272638 0.68699998 -0.027704418 1.1775452e-38 336 263
0.020477179 0.68699998 -0.027704418 1.1960202e-38 337 263
0.021650158 0.68599999 -0.027664091 1.1870151e-38 338 263
0.022852944 0.68599999 -0.027664091 1.2054182e-38 339 263
0.024055731 0.68599999 -0.027664091 1.2146731e-38 340 263
0.025184879 0.68400002 -0.027583439 1.2054536e-38 341 263
0.02638416 0.68400002 -0.027583439 1.2237135e-38 342 263
0.027583439 0.68400002 -0.027583439 1.2053103e-38 343 263
0.028740639 0.68300003 -0.027543113 1.1776524e-38 344 263
0.029938167 0.68300003 -0.027543113 1.1868719e-38 345 263
0.031135695 0.68300003 -0.027543113 1.205275e-38 346 263
0.032333218 0.68300003 -0.027543113 1.2328977e-38 347 263
0.033530746 0.68300003 -0.027543113 1.251337e-38 348 263
0.034728274 0.68300003 -0.027543113 1.2605924e-38 349 263
0.035873197 0.68199998 -0.027502786 1.2697764e-38 350 263
0.037068974 0.68199998 -0.027502786 1.2697764e-38 351 263
0.038264744 0.68199998 -0.027502786 1.2790678e-38 352 263
0.039460517 0.68199998 -0.027502786 1.2883234e-38 353 263
0.040656291 0.68199998 -0.027502786 1.3343855e-38 354 263
0.041852064 0.68199998 -0.027502786 1.3804833e-38 355 263
0.043047838 0.68199998 -0.027502786 1.3715879e-38 356 263
0.044243611 0.68199998 -0.027502786 1.408466e-38 357 263
0.045439381 0.68199998 -0.027502786 1.4177933e-38 358 263
0.046498399 0.68000001 -0.027422134 1.4177933e-38 359 263
0.047690667 0.68000001 -0.027422134 1.4268682e-38 360 263
0.049026705 0.68199998 -0.027502786 1.4176487e-38 361 263
0.050222475 0.68199998 -0.027502786 1.3808778e-38 362 263
0.051267464 0.68000001 -0.027422134 1.3624385e-38 363 263
0.052459732 0.68000001 -0.027422134 1.3438919e-38 364 263
0.053652 0.68000001 -0.027422134 1.2978299e-38 365 263
0.054844268 0.68000001 -0.027422134 1.3251293e-38 366 263
0.056036532 0.68000001 -0.027422134 1.3251293e-38 367 263
0.057228796 0.68000001 -0.027422134 1.2975783e-38 368 263
0.058421064 0.68000001 -0.027422134 1.2883227e-38 369 263
0.059613332 0.68000001 -0.027422134 1.2698839e-38 370 263
0.0608056 0.68000001 -0.027422134 1.2606643e-38 371 263
0.062180214 0.68199998 -0.027502786 1.2698839e-38 372 263
0.063375987 0.68199998 -0.027502786 1.2606643e-38 373 263
0.064571753 0.68199998 -0.027502786 1.2882148e-38 374 263
0.065767527 0.68199998 -0.027502786 1.2882148e-38 375 263
0.0669633 0.68199998 -0.027502786 1.2697764e-38 376 263
0.068259016 0.68300003 -0.027543113 1.2882154e-38 377 263
0.069456547 0.68300003 -0.027543113 1.2699204e-38 378 263
0.070654072 0.68300003 -0.027543113 1.2883597e-38 379 263
0.071956798 0.68400002 -0.027583439 1.2701006e-38 380 263
0.073156074 0.68400002 -0.027583439 1.2332224e-38 381 263
0.074681476 0.68699998 -0.027704418 1.2704619e-38 382 263
0.075886011 0.68699998 -0.027704418 1.4179749e-38 383 263
0.077202775 0.68800002 -0.027744746 1.3548083e-38 384 263
0.078636996 0.69 -0.027825398 1.4931376e-38 385 263
0.080193959 0.69300002 -0.027946379 1.4200317e-38 386 263
0.081526496 0.69400001 -0.027986705 1.4108122e-38 387 263
0.083100989 0.69700003 -0.028107686 1.3281957e-38 388 263
0.084323063 0.69700003 -0.028107686 1.3005011e-38 389 263
0.085667863 0.69800001 -0.028148014 1.2730222e-38 390 263
0.086891696 0.69800001 -0.028148014 1.4205352e-38 391 263
0.088115521 0.69800001 -0.028148014 1.6229693e-38 392 263
0.089339346 0.69800001 -0.028148014 1.6321889e-38 393 263
0.090563171 0.69800001 -0.028148014 1.6597384e-38 394 263
0.091787003 0.69800001 -0.028148014 1.668958e-38 395 263
0.093010828 0.69800001 -0.028148014 1.6872529e-38 396 263
-0.026915418 0.73100001 -0.03076048 1.5120805e-38 299 264
-0.025598666 0.73000002 -0.030718399 1.2525635e-38 300 264
-0.024318734 0.73000002 -0.030718399 1.1327452e-38 301 264
-0.023038799 0.73000002 -0.030718399 1.2441723e-38 302 264
-0.021758866 0.73000002 -0.030718399 1.4009047e-38 303 264
-0.020422826 0.72799999 -0.030634239 1.2539701e-38 304 264
-0.019120099 0.727 -0.030592158 1.2355309e-38 305 264
-0.017599959 0.71700001 -0.030171359 9.581503e-39 306 264
-0.01620606 0.71100003 -0.029918881 7.9223404e-39 307 264
-0.014938398 0.70999998 -0.029876797 1.0858187e-38 308 264
-0.013693533 0.70999998 -0.029876797 1.1319164e-38 309 264
-0.0124136 0.708 -0.02979264 1.1503182e-38 310 264
-0.011140679 0.70599997 -0.029708479 1.1319151e-38 311 264
-0.0098747732 0.704 -0.029624319 1.1410265e-38 312 264
-0.0086404262 0.704 -0.029624319 1.1410265e-38 313 264
-0.0074060797 0.704 -0.029624319 1.1134404e-38 314 264
-0.0061629666 0.70300001 -0.029582238 1.1318795e-38 315 264
-0.0049163462 0.70099998 -0.029498078 1.159538e-38 316 264
-0.0036819996 0.69999999 -0.029455997 1.1779773e-38 317 264
-0.0024476533 0.69800001 -0.029371841 1.1964518e-38 318 264
-0.0012238267 0.69800001 -0.029371841 1.1964518e-38 319 264
0 0.69800001 -0.029371841 1.2055987e-38 320 264
0.0012220733 0.69700003 -0.02932976 1.2055987e-38 321 264
0.0024441467 0.69700003 -0.02932976 1.2147461e-38 322 264
0.0036609597 0.69599998 -0.029287677 1.2331851e-38 323 264
0.0048672534 0.69400001 -0.029203519 1.2423691e-38 324 264
0.0060840664 0.69400001 -0.029203519 1.2423691e-38 325 264
0.0072903596 0.69300002 -0.029161438 1.2423694e-38 326 264
0.0085054198 0.69300002 -0.029161438 1.2331498e-38 327 264
0.0097204801 0.69300002 -0.029161438 1.2514091e-38 328 264
0.01090398 0.69099998 -0.029077278 1.2421896e-38 329 264
0.012115533 0.69099998 -0.029077278 1.2421174e-38 330 264
0.013327086 0.69099998 -0.029077278 1.2328977e-38 331 264
0.014475521 0.68800002 -0.028951041 1.2236781e-38 332 264
0.015681813 0.68800002 -0.028951041 1.205275e-38 333 264
0.01686356 0.68699998 -0.028908957 1.177617e-38 334 264
0.018068098 0.68699998 -0.028908957 1.1592139e-38 335 264
0.019272638 0.68699998 -0.028908957 1.1499942e-38 336 264
0.020447372 0.68599999 -0.02886688 1.1868725e-38 337 264
0.021650158 0.68599999 -0.02886688 1.1870154e-38 338 264
0.022786319 0.68400002 -0.02878272 1.2146382e-38 339 264
0.0239856 0.68400002 -0.02878272 1.2146015e-38 340 264
0.02514806 0.68300003 -0.028740639 1.2053819e-38 341 264
0.026345588 0.68300003 -0.028740639 1.2143511e-38 342 264
0.027543113 0.68300003 -0.028740639 1.2051315e-38 343 264
0.028740639 0.68300003 -0.028740639 1.1776526e-38 344 264
0.029938167 0.68300003 -0.028740639 1.1868722e-38 345 264
0.031135695 0.68300003 -0.028740639 1.2052747e-38 346 264
0.032285877 0.68199998 -0.02869856 1.2328974e-38 347 264
0.03348165 0.68199998 -0.02869856 1.242081e-38 348 264
0.034677424 0.68199998 -0.02869856 1.2604842e-38 349 264
0.035873197 0.68199998 -0.02869856 1.2697041e-38 350 264
0.037068974 0.68199998 -0.02869856 1.2789236e-38 351 264
0.038264744 0.68199998 -0.02869856 1.2515526e-38 352 264
0.039344799 0.68000001 -0.028614398 1.2791754e-38 353 264
0.040537067 0.68000001 -0.028614398 1.3159461e-38 354 264
0.041729335 0.68000001 -0.028614398 1.3436048e-38 355 264
0.042921599 0.68000001 -0.028614398 1.343929e-38 356 264
0.044113863 0.68000001 -0.028614398 1.3715879e-38 357 264
0.045306131 0.68000001 -0.028614398 1.3900991e-38 358 264
0.046498399 0.68000001 -0.028614398 1.3900991e-38 359 264
0.047690667 0.68000001 -0.028614398 1.3808074e-38 360 264
0.048882935 0.68000001 -0.028614398 1.3623683e-38 361 264
0.050075196 0.68000001 -0.028614398 1.353112e-38 362 264
0.051267464 0.68000001 -0.028614398 1.334637e-38 363 264
0.052459732 0.68000001 -0.028614398 1.3253456e-38 364 264
0.053652 0.68000001 -0.028614398 1.3069063e-38 365 264
0.054844268 0.68000001 -0.028614398 1.2975074e-38 366 264
0.056036532 0.68000001 -0.028614398 1.2882878e-38 367 264
0.057228796 0.68000001 -0.028614398 1.2790678e-38 368 264
0.058421064 0.68000001 -0.028614398 1.2698483e-38 369 264
0.059613332 0.68000001 -0.028614398 1.2422978e-38 370 264
0.0608056 0.68000001 -0.028614398 1.2422978e-38 371 264
0.061997864 0.68000001 -0.028614398 1.2606287e-38 372 264
0.063375987 0.68199998 -0.02869856 1.2606287e-38 373 264
0.064571753 0.68199998 -0.02869856 1.2606287e-38 374 264
0.065767527 0.68199998 -0.02869856 1.2606287e-38 375 264
0.0669633 0.68199998 -0.02869856 1.260629e-38 376 264
0.068259016 0.68300003 -0.028740639 1.2790681e-38 377 264
0.069456547 0.68300003 -0.028740639 1.2515539e-38 378 264
0.070654072 0.68300003 -0.028740639 1.2699932e-38 379 264
0.071851604 0.68300003 -0.028740639 1.2425493e-38 380 264
0.073156074 0.68400002 -0.02878272 1.2794274e-38 381 264
0.074572764 0.68599999 -0.02886688 1.344363e-38 382 264
0.075886011 0.68699998 -0.028908957 1.6486084e-38 383 264
0.077090554 0.68699998 -0.028908957 1.4750967e-38 384 264
0.078295097 0.68699998 -0.028908957 1.5027553e-38 385 264
0.079846799 0.69 -0.029035198 1.420067e-38 386 264
0.081174068 0.69099998 -0.029077278 1.4015919e-38 387 264
0.082743309 0.69400001 -0.029203519 1.3648932e-38 388 264
0.084323063 0.69700003 -0.02932976 1.3372705e-38 389 264
0.08554513 0.69700003 -0.02932976 1.27295e-38 390 264
0.086767212 0.69700003 -0.02932976 1.355962e-38 391 264
0.087989278 0.69700003 -0.02932976 1.4849277e-38 392 264
0.089211352 0.69700003 -0.02932976 1.5955983e-38 393 264
0.090433426 0.69700003 -0.02932976 1.7056563e-38 394 264
0.091787003 0.69800001 -0.029371841 1.7056563e-38 395 264
0.093010828 0.69800001 -0.029371841 1.6781052e-38 396 264
-0.026915418 0.73100001 -0.032042164 1.5489589e-38 299 265
-0.025598666 0.73000002 -0.031998333 1.3174244e-38 300 265
-0.024318734 0.73000002 -0.031998333 1.1699475e-38 301 265
-0.023038799 0.73000002 -0.031998333 1.2719031e-38 302 265
-0.021758866 0.73000002 -0.031998333 1.3733183e-38 303 265
-0.020422826 0.72799999 -0.031910665 1.2448581e-38 304 265
-0.018909698 0.71899998 -0.031516165 1.1803211e-38 305 265
-0.017501773 0.713 -0.031253166 9.1183626e-39 306 265
-0.01620606 0.71100003 -0.031165501 8.3807976e-39 307 265
-0.014938398 0.70999998 -0.031121666 1.1227321e-38 308 265
-0.013693533 0.70999998 -0.031121666 1.085854e-38 309 265
-0.0124136 0.708 -0.031034 1.122515e-38 310 265
-0.011140679 0.70599997 -0.030946331 1.122515e-38 311 265
-0.0098747732 0.704 -0.030858666 1.1317347e-38 312 265
-0.0086404262 0.704 -0.030858666 1.122515e-38 313 265
-0.0073955595 0.70300001 -0.030814834 1.1319145e-38 314 265
-0.0061629666 0.70300001 -0.030814834 1.1687928e-38 315 265
-0.0049163462 0.70099998 -0.030727165 1.1689726e-38 316 265
-0.0036819996 0.69999999 -0.030683333 1.1781921e-38 317 265
-0.0024476533 0.69800001 -0.030595668 1.1690091e-38 318 265
-0.0012238267 0.69800001 -0.030595668 1.1413865e-38 319 265
0 0.69700003 -0.030551834 1.1871966e-38 320 265
0.0012220733 0.69700003 -0.030551834 1.1687575e-38 321 265
0.0024441467 0.69700003 -0.030551834 1.196272e-38 322 265
0.0036609597 0.69599998 -0.030507999 1.2054915e-38 323 265
0.0048672534 0.69400001 -0.030420333 1.2330776e-38 324 265
0.0060840664 0.69400001 -0.030420333 1.2330776e-38 325 265
0.0072903596 0.69300002 -0.0303765 1.2330776e-38 326 265
0.0085054198 0.69300002 -0.0303765 1.2146385e-38 327 265
0.0096924258 0.69099998 -0.030288832 1.2421177e-38 328 265
0.01090398 0.69099998 -0.030288832 1.232898e-38 329 265
0.012115533 0.69099998 -0.030288832 1.2236779e-38 330 265
0.0133078 0.69 -0.030244999 1.2052747e-38 331 265
0.014475521 0.68800002 -0.030157333 1.1960552e-38 332 265
0.015681813 0.68800002 -0.030157333 1.1776161e-38 333 265
0.01686356 0.68699998 -0.030113498 1.1500298e-38 334 265
0.018068098 0.68699998 -0.030113498 1.1407744e-38 335 265
0.019244585 0.68599999 -0.030069664 1.1592139e-38 336 265
0.020447372 0.68599999 -0.030069664 1.1868725e-38 337 265
0.021650158 0.68599999 -0.030069664 1.1870873e-38 338 265
0.022786319 0.68400002 -0.029982001 1.2055266e-38 339 265
0.0239856 0.68400002 -0.029982001 1.2053822e-38 340 265
0.02514806 0.68300003 -0.029938167 1.1961268e-38 341 265
0.026345588 0.68300003 -0.029938167 1.195912e-38 342 265
0.027543113 0.68300003 -0.029938167 1.1775087e-38 343 265
0.02869856 0.68199998 -0.029894331 1.1592495e-38 344 265
0.029894331 0.68199998 -0.029894331 1.1776526e-38 345 265
0.031090107 0.68199998 -0.029894331 1.1961268e-38 346 265
0.032285877 0.68199998 -0.029894331 1.2146018e-38 347 265
0.03348165 0.68199998 -0.029894331 1.2420807e-38 348 265
0.034677424 0.68199998 -0.029894331 1.2420807e-38 349 265
0.035873197 0.68199998 -0.029894331 1.2420454e-38 350 265
0.037068974 0.68199998 -0.029894331 1.2604486e-38 351 265
0.038152531 0.68000001 -0.029806666 1.2605918e-38 352 265
0.039344799 0.68000001 -0.029806666 1.2698473e-38 353 265
0.040537067 0.68000001 -0.029806666 1.288358e-38 354 265
0.041729335 0.68000001 -0.029806666 1.3344558e-38 355 265
0.042921599 0.68000001 -0.029806666 1.334636e-38 356 265
0.044113863 0.68000001 -0.029806666 1.3714783e-38 357 265
0.045306131 0.68000001 -0.029806666 1.3806625e-38 358 265
0.046498399 0.68000001 -0.029806666 1.371443e-38 359 265
0.047690667 0.68000001 -0.029806666 1.3714435e-38 360 265
0.048882935 0.68000001 -0.029806666 1.3253458e-38 361 265
0.050075196 0.68000001 -0.029806666 1.3436048e-38 362 265
0.051267464 0.68000001 -0.029806666 1.3251656e-38 363 265
0.052459732 0.68000001 -0.029806666 1.2975427e-38 364 265
0.053652 0.68000001 -0.029806666 1.2975427e-38 365 265
0.054844268 0.68000001 -0.029806666 1.2791034e-38 366 265
0.056036532 0.68000001 -0.029806666 1.2698839e-38 367 265
0.057144642 0.67900002 -0.029762832 1.269812e-38 368 265
0.058335152 0.67900002 -0.029762832 1.2605924e-38 369 265
0.059525665 0.67900002 -0.029762832 1.2514444e-38 370 265
0.0608056 0.68000001 -0.029806666 1.2422249e-38 371 265
0.061997864 0.68000001 -0.029806666 1.2421893e-38 372 265
0.063190132 0.68000001 -0.029806666 1.2421893e-38 373 265
0.064382397 0.68000001 -0.029806666 1.2421893e-38 374 265
0.065574668 0.68000001 -0.029806666 1.2421893e-38 375 265
0.0669633 0.68199998 -0.029894331 1.2605924e-38 376 265
0.068159081 0.68199998 -0.029894331 1.269812e-38 377 265
0.069354847 0.68199998 -0.029894331 1.2698132e-38 378 265
0.070550621 0.68199998 -0.029894331 1.2237156e-38 379 265
0.071746394 0.68199998 -0.029894331 1.2517354e-38 380 265
0.073049128 0.68300003 -0.029938167 1.5375778e-38 381 265
0.074572764 0.68599999 -0.030069664 1.409982e-38 382 265
0.075775556 0.68599999 -0.030069664 1.5943733e-38 383 265
0.077090554 0.68699998 -0.030113498 1.4476544e-38 384 265
0.078295097 0.68699998 -0.030113498 1.4292513e-38 385 265
0.079615362 0.68800002 -0.030157333 1.4108838e-38 386 265
0.081056595 0.69 -0.030244999 1.3924807e-38 387 265
0.082385622 0.69099998 -0.030288832 1.3650015e-38 388 265
0.084202074 0.69599998 -0.030507999 1.3465622e-38 389 265
0.085422389 0.69599998 -0.030507999 1.3280875e-38 390 265
0.08664272 0.69599998 -0.030507999 1.3096844e-38 391 265
0.087863036 0.69599998 -0.030507999 1.346814e-38 392 265
0.089083351 0.69599998 -0.030507999 1.558864e-38 393 265
0.090433426 0.69700003 -0.030551834 1.7516466e-38 394 265
0.0916555 0.69700003 -0.030551834 1.7055488e-38 395 265
-0.026915418 0.73100001 -0.033323854 1.6226075e-38 299 266
-0.025598666 0.73000002 -0.033278264 1.4188754e-38 300 266
-0.024252106 0.72799999 -0.033187091 1.2805819e-38 301 266
-0.022944121 0.727 -0.033141505 1.2813022e-38 302 266
-0.021669446 0.727 -0.033141505 1.3182163e-38 303 266
-0.020394772 0.727 -0.033141505 1.2538971e-38 304 266
-0.018909698 0.71899998 -0.032776814 1.152518e-38 305 266
-0.017501773 0.713 -0.032503292 9.116199e-39 306 266
-0.01620606 0.71100003 -0.032412119 8.839252e-39 307 266
-0.014938398 0.70999998 -0.032366529 1.0858896e-38 308 266
-0.013693533 0.70999998 -0.032366529 1.076634e-38 309 266
-0.0124136 0.708 -0.03227536 1.0581946e-38 310 266
-0.011140679 0.70599997 -0.032184184 1.048975e-38 311 266
-0.0098747732 0.704 -0.032093015 1.0490832e-38 312 266
-0.0086404262 0.704 -0.032093015 1.0674863e-38 313 266
-0.0073955595 0.70300001 -0.032047424 1.095181e-38 314 266
-0.0061629666 0.70300001 -0.032047424 1.1504984e-38 315 266
-0.0049163462 0.70099998 -0.031956252 1.1690094e-38 316 266
-0.0036819996 0.69999999 -0.031910665 1.178229e-38 317 266
-0.0024476533 0.69800001 -0.031819493 1.1782293e-38 318 266
-0.0012238267 0.69800001 -0.031819493 1.1689738e-38 319 266
0 0.69700003 -0.03177391 1.1688294e-38 320 266
0.0012220733 0.69700003 -0.03177391 1.1780489e-38 321 266
0.0024406398 0.69599998 -0.031728316 1.1962722e-38 322 266
0.0036609597 0.69599998 -0.031728316 1.1962722e-38 323 266
0.0048672534 0.69400001 -0.031637147 1.1687575e-38 324 266
0.0060840664 0.69400001 -0.031637147 1.1687575e-38 325 266
0.0072903596 0.69300002 -0.031591557 1.1412065e-38 326 266
0.008480873 0.69099998 -0.031500384 1.131987e-38 327 266
0.0096924258 0.69099998 -0.031500384 1.1594659e-38 328 266
0.01090398 0.69099998 -0.031500384 1.1502463e-38 329 266
0.012115533 0.69099998 -0.031500384 1.168541e-38 330 266
0.0133078 0.69 -0.031454802 1.168541e-38 331 266
0.014475521 0.68800002 -0.031363625 1.150066e-38 332 266
0.015681813 0.68800002 -0.031363625 1.1224432e-38 333 266
0.01686356 0.68699998 -0.031318039 1.1224078e-38 334 266
0.018068098 0.68699998 -0.031318039 1.1408468e-38 335 266
0.019244585 0.68599999 -0.031272452 1.1409546e-38 336 266
0.020447372 0.68599999 -0.031272452 1.1778327e-38 337 266
0.02158704 0.68400002 -0.03118128 1.1963073e-38 338 266
0.022786319 0.68400002 -0.03118128 1.1870876e-38 339 266
0.023950534 0.68300003 -0.031135695 1.1960918e-38 340 266
0.02514806 0.68300003 -0.031135695 1.1592495e-38 341 266
0.026345588 0.68300003 -0.031135695 1.1408468e-38 342 266
0.027543113 0.68300003 -0.031135695 1.1408468e-38 343 266
0.02869856 0.68199998 -0.031090107 1.1317347e-38 344 266
0.029894331 0.68199998 -0.031090107 1.1686129e-38 345 266
0.031090107 0.68199998 -0.031090107 1.2328974e-38 346 266
0.032285877 0.68199998 -0.031090107 1.2236779e-38 347 266
0.03348165 0.68199998 -0.031090107 1.2328977e-38 348 266
0.034677424 0.68199998 -0.031090107 1.2328977e-38 349 266
0.035767999 0.68000001 -0.030998932 1.2420457e-38 350 266
0.036960267 0.68000001 -0.030998932 1.2420457e-38 351 266
0.038152531 0.68000001 -0.030998932 1.2237865e-38 352 266
0.039344799 0.68000001 -0.030998932 1.2606287e-38 353 266
0.040537067 0.68000001 -0.030998932 1.2699557e-38 354 266
0.041729335 0.68000001 -0.030998932 1.2976146e-38 355 266
0.042858478 0.67900002 -0.030953348 1.2885395e-38 356 266
0.044048995 0.67900002 -0.030953348 1.3254177e-38 357 266
0.045239504 0.67900002 -0.030953348 1.3161275e-38 358 266
0.046430022 0.67900002 -0.030953348 1.2977243e-38 359 266
0.047620531 0.67900002 -0.030953348 1.2792499e-38 360 266
0.048882935 0.68000001 -0.030998932 1.2700303e-38 361 266
0.050075196 0.68000001 -0.030998932 1.2883247e-38 362 266
0.051267464 0.68000001 -0.030998932 1.2791051e-38 363 266
0.052382588 0.67900002 -0.030953348 1.2515892e-38 364 266
0.053573098 0.67900002 -0.030953348 1.2423696e-38 365 266
0.054763615 0.67900002 -0.030953348 1.2515173e-38 366 266
0.055954125 0.67900002 -0.030953348 1.2330423e-38 367 266
0.057144642 0.67900002 -0.030953348 1.242154e-38 368 266
0.058335152 0.67900002 -0.030953348 1.242154e-38 369 266
0.059525665 0.67900002 -0.030953348 1.2146029e-38 370 266
0.060716182 0.67900002 -0.030953348 1.2238583e-38 371 266
0.061997864 0.68000001 -0.030998932 1.2238583e-38 372 266
0.063190132 0.68000001 -0.030998932 1.2238583e-38 373 266
0.064382397 0.68000001 -0.030998932 1.2237509e-38 374 266
0.065574668 0.68000001 -0.030998932 1.242154e-38 375 266
0.066766933 0.68000001 -0.030998932 1.2421543e-38 376 266
0.068159081 0.68199998 -0.031090107 1.2513738e-38 377 266
0.069354847 0.68199998 -0.031090107 1.2147482e-38 378 266
0.070550621 0.68199998 -0.031090107 1.1870537e-38 379 266
0.071746394 0.68199998 -0.031090107 1.1785566e-38 380 266
0.073049128 0.68300003 -0.031135695 1.6026924e-38 381 266
0.074355356 0.68400002 -0.03118128 1.4290711e-38 382 266
0.075554639 0.68400002 -0.03118128 1.4843885e-38 383 266
0.076978341 0.68599999 -0.031272452 1.3741863e-38 384 266
0.078181133 0.68599999 -0.031272452 1.3649308e-38 385 266
0.079499632 0.68699998 -0.031318039 1.3925528e-38 386 266
0.080704175 0.68699998 -0.031318039 1.3832974e-38 387 266
0.082027942 0.68800002 -0.031363625 1.3833683e-38 388 266
0.083839141 0.69300002 -0.031591557 1.3741127e-38 389 266
0.085176937 0.69400001 -0.031637147 1.3832963e-38 390 266
0.08664272 0.69599998 -0.031728316 1.3463821e-38 391 266
0.087610558 0.69400001 -0.031637147 1.2637306e-38 392 266
0.088827372 0.69400001 -0.031637147 1.4481219e-38 393 266
0.090044186 0.69400001 -0.031637147 1.6505204e-38 394 266
0.091260992 0.69400001 -0.031637147 1.6505204e-38 395 266
-0.026915418 0.73100001 -0.034605537 1.6779252e-38 299 267
-0.025598666 0.73000002 -0.034558199 1.5021035e-38 300 267
-0.024252106 0.72799999 -0.034463517 1.2715784e-38 301 267
-0.022880999 0.72500002 -0.034321502 1.3089612e-38 302 267
-0.021609833 0.72500002 -0.034321502 1.3458394e-38 303 267
-0.020282559 0.72299999 -0.03422682 1.2538255e-38 304 267
-0.018909698 0.71899998 -0.03403746 1.1339712e-38 305 267
-0.017575413 0.71600002 -0.03389544 9.2083946e-39 306 267
-0.01620606 0.71100003 -0.033658739 9.0240034e-39 307 267
-0.014938398 0.70999998 -0.033611398 1.0858893e-38 308 267
-0.013693533 0.70999998 -0.033611398 1.06745e-38 309 267
-0.0124136 0.708 -0.033516716 1.058158e-38 310 267
-0.011140679 0.70599997 -0.033422034 1.058158e-38 311 267
-0.0098747732 0.704 -0.03332736 1.0948558e-38 312 267
-0.0086404262 0.704 -0.03332736 1.0948558e-38 313 267
-0.0073955595 0.70300001 -0.033280019 1.1225506e-38 314 267
-0.0061629666 0.70300001 -0.033280019 1.1317703e-38 315 267
-0.0049163462 0.70099998 -0.03318534 1.1502107e-38 316 267
-0.0036819996 0.69999999 -0.033137999 1.187089e-38 317 267
-0.0024476533 0.69800001 -0.033043321 1.1780492e-38 318 267
-0.0012238267 0.69800001 -0.033043321 1.2057079e-38 319 267
0 0.69700003 -0.03299598 1.1600051e-38 320 267
0.0012220733 0.69700003 -0.03299598 1.1231268e-38 321 267
0.0024406398 0.69599998 -0.032948639 1.1780489e-38 322 267
0.0036504399 0.69400001 -0.032853961 1.1688294e-38 323 267
0.0048672534 0.69400001 -0.032853961 1.1412419e-38 324 267
0.0060753003 0.69300002 -0.03280662 1.1135473e-38 325 267
0.0072903596 0.69300002 -0.03280662 1.1318417e-38 326 267
0.008480873 0.69099998 -0.032711938 1.1318417e-38 327 267
0.0096924258 0.69099998 -0.032711938 1.1776877e-38 328 267
0.01090398 0.69099998 -0.032711938 1.1776877e-38 329 267
0.012097999 0.69 -0.032664597 1.159249e-38 330 267
0.0133078 0.69 -0.032664597 1.1500293e-38 331 267
0.014475521 0.68800002 -0.032569919 1.1407744e-38 332 267
0.015659019 0.68699998 -0.032522578 1.1315548e-38 333 267
0.01686356 0.68699998 -0.032522578 1.1224434e-38 334 267
0.018041799 0.68599999 -0.032475237 1.1408465e-38 335 267
0.019244585 0.68599999 -0.032475237 1.150066e-38 336 267
0.020387759 0.68400002 -0.032380559 1.1777605e-38 337 267
0.02158704 0.68400002 -0.032380559 1.1869801e-38 338 267
0.022786319 0.68400002 -0.032380559 1.1777605e-38 339 267
0.023950534 0.68300003 -0.032333218 1.177617e-38 340 267
0.02514806 0.68300003 -0.032333218 1.1499942e-38 341 267
0.026345588 0.68300003 -0.032333218 1.1315548e-38 342 267
0.027543113 0.68300003 -0.032333218 1.1592495e-38 343 267
0.02869856 0.68199998 -0.032285877 1.1409896e-38 344 267
0.029894331 0.68199998 -0.032285877 1.1686482e-38 345 267
0.031090107 0.68199998 -0.032285877 1.2146018e-38 346 267
0.032285877 0.68199998 -0.032285877 1.2146018e-38 347 267
0.03348165 0.68199998 -0.032285877 1.2420807e-38 348 267
0.034575731 0.68000001 -0.032191198 1.2328611e-38 349 267
0.035767999 0.68000001 -0.032191198 1.2237135e-38 350 267
0.036960267 0.68000001 -0.032191198 1.2237135e-38 351 267
0.038152531 0.68000001 -0.032191198 1.2604838e-38 352 267
0.039344799 0.68000001 -0.032191198 1.2697035e-38 353 267
0.040477451 0.67900002 -0.032143861 1.2699189e-38 354 267
0.041667968 0.67900002 -0.032143861 1.2791384e-38 355 267
0.042858478 0.67900002 -0.032143861 1.3159092e-38 356 267
0.044048995 0.67900002 -0.032143861 1.3159092e-38 357 267
0.045239504 0.67900002 -0.032143861 1.3066546e-38 358 267
0.046430022 0.67900002 -0.032143861 1.2697764e-38 359 267
0.047620531 0.67900002 -0.032143861 1.2880363e-38 360 267
0.048811045 0.67900002 -0.032143861 1.2880363e-38 361 267
0.050001562 0.67900002 -0.032143861 1.2789236e-38 362 267
0.051192071 0.67900002 -0.032143861 1.2881432e-38 363 267
0.052382588 0.67900002 -0.032143861 1.2514444e-38 364 267
0.053494196 0.67799997 -0.03209652 1.2422249e-38 365 267
0.054682959 0.67799997 -0.03209652 1.2237865e-38 366 267
0.055871718 0.67799997 -0.03209652 1.2421896e-38 367 267
0.057060476 0.67799997 -0.03209652 1.2421174e-38 368 267
0.058249239 0.67799997 -0.03209652 1.2421174e-38 369 267
0.059437994 0.67799997 -0.03209652 1.242081e-38 370 267
0.060626756 0.67799997 -0.03209652 1.242081e-38 371 267
0.061906695 0.67900002 -0.032143861 1.2236781e-38 372 267
0.063097201 0.67900002 -0.032143861 1.2328977e-38 373 267
0.064382397 0.68000001 -0.032191198 1.2145312e-38 374 267
0.065574668 0.68000001 -0.032191198 1.2237509e-38 375 267
0.066766933 0.68000001 -0.032191198 1.2237509e-38 376 267
0.067959204 0.68000001 -0.032191198 1.2053116e-38 377 267
0.069354847 0.68199998 -0.032285877 1.1869463e-38 378 267
0.070550621 0.68199998 -0.032285877 1.4543138e-38 379 267
0.071746394 0.68199998 -0.032285877 1.3364056e-38 380 267
0.073049128 0.68300003 -0.032333218 1.5945175e-38 381 267
0.074246652 0.68300003 -0.032333218 1.3924453e-38 382 267
0.075444184 0.68300003 -0.032333218 1.3740061e-38 383 267
0.076753922 0.68400002 -0.032380559 1.3832261e-38 384 267
0.077953197 0.68400002 -0.032380559 1.3924456e-38 385 267
0.079383917 0.68599999 -0.032475237 1.3925528e-38 386 267
0.080586702 0.68599999 -0.032475237 1.3925528e-38 387 267
0.081908718 0.68699998 -0.032522578 1.3650018e-38 388 267
0.083234236 0.68800002 -0.032569919 1.3650018e-38 389 267
0.085054204 0.69300002 -0.03280662 1.3648934e-38 390 267
0.086269259 0.69300002 -0.03280662 1.3464903e-38 391 267
0.087484315 0.69300002 -0.03280662 1.318796e-38 392 267
0.088443391 0.69099998 -0.032711938 1.3280156e-38 393 267
0.089654945 0.69099998 -0.032711938 1.4205352e-38 394 267
0.090866491 0.69099998 -0.032711938 1.5496091e-38 395 267
-0.025528532 0.72799999 -0.035739943 1.5944436e-38 300 268
-0.024218792 0.727 -0.035690852 1.3731381e-38 301 268
-0.022880999 0.72500002 -0.035592668 1.3092133e-38 302 268
-0.021550218 0.72299999 -0.035494477 1.3276524e-38 303 268
-0.020198401 0.72000003 -0.035347197 1.262865e-38 304 268
-0.018909698 0.71899998 -0.035298105 1.1337911e-38 305 268
-0.017575413 0.71600002 -0.035150826 9.5746562e-39 306 268
-0.01620606 0.71100003 -0.034905359 9.6668519e-39 307 268
-0.014938398 0.70999998 -0.034856264 1.0950008e-38 308 268
-0.013693533 0.70999998 -0.034856264 1.0857813e-38 309 268
-0.0124136 0.708 -0.034758076 1.058158e-38 310 268
-0.011140679 0.70599997 -0.034659892 1.058158e-38 311 268
-0.0098747732 0.704 -0.034561705 1.058158e-38 312 268
-0.0086404262 0.704 -0.034561705 1.0673776e-38 313 268
-0.0074060797 0.704 -0.034561705 1.0857457e-38 314 268
-0.0061629666 0.70300001 -0.034512613 1.0857457e-38 315 268
-0.0049303733 0.70300001 -0.034512613 1.0858192e-38 316 268
-0.0036872597 0.70099998 -0.034414422 1.1134419e-38 317 268
-0.0024546667 0.69999999 -0.034365334 1.1135501e-38 318 268
-0.0012238267 0.69800001 -0.034267146 1.1411729e-38 319 268
0 0.69700003 -0.034218054 1.1320966e-38 320 268
0.0012220733 0.69700003 -0.034218054 1.1136214e-38 321 268
0.0024406398 0.69599998 -0.034168959 1.113692e-38 322 268
0.0036504399 0.69400001 -0.034070771 1.113692e-38 323 268
0.0048672534 0.69400001 -0.034070771 1.1136908e-38 324 268
0.0060753003 0.69300002 -0.034021679 1.0952158e-38 325 268
0.0072903596 0.69300002 -0.034021679 1.1318773e-38 326 268
0.008480873 0.69099998 -0.033923492 1.1226576e-38 327 268
0.0096783992 0.69 -0.0338744 1.1318052e-38 328 268
0.010888199 0.69 -0.0338744 1.1318052e-38 329 268
0.012097999 0.69 -0.0338744 1.1041835e-38 330 268
0.013269227 0.68800002 -0.033776212 1.0857444e-38 331 268
0.014454478 0.68699998 -0.033727121 1.0949292e-38 332 268
0.015659019 0.68699998 -0.033727121 1.0949292e-38 333 268
0.016839013 0.68599999 -0.033678025 1.0949289e-38 334 268
0.018041799 0.68599999 -0.033678025 1.1041485e-38 335 268
0.01918848 0.68400002 -0.033579841 1.1317353e-38 336 268
0.020387759 0.68400002 -0.033579841 1.1409549e-38 337 268
0.02158704 0.68400002 -0.033579841 1.1500309e-38 338 268
0.022753006 0.68300003 -0.033530746 1.1500309e-38 339 268
0.023950534 0.68300003 -0.033530746 1.12248e-38 340 268
0.02514806 0.68300003 -0.033530746 1.1132604e-38 341 268
0.026345588 0.68300003 -0.033530746 1.0949287e-38 342 268
0.027502786 0.68199998 -0.03348165 1.1225873e-38 343 268
0.02869856 0.68199998 -0.03348165 1.1686482e-38 344 268
0.029894331 0.68199998 -0.03348165 1.1870873e-38 345 268
0.031090107 0.68199998 -0.03348165 1.2237135e-38 346 268
0.032191198 0.68000001 -0.033383466 1.2053103e-38 347 268
0.033383466 0.68000001 -0.033383466 1.1960555e-38 348 268
0.034575731 0.68000001 -0.033383466 1.1960555e-38 349 268
0.035767999 0.68000001 -0.033383466 1.1777605e-38 350 268
0.036960267 0.68000001 -0.033383466 1.1869801e-38 351 268
0.038096428 0.67900002 -0.033334374 1.2146382e-38 352 268
0.039286941 0.67900002 -0.033334374 1.2331132e-38 353 268
0.040477451 0.67900002 -0.033334374 1.260664e-38 354 268
0.041667968 0.67900002 -0.033334374 1.2698836e-38 355 268
0.042858478 0.67900002 -0.033334374 1.2790678e-38 356 268
0.044048995 0.67900002 -0.033334374 1.2698483e-38 357 268
0.045239504 0.67900002 -0.033334374 1.2512666e-38 358 268
0.046430022 0.67900002 -0.033334374 1.2328274e-38 359 268
0.047550395 0.67799997 -0.033285279 1.1777621e-38 360 268
0.048739154 0.67799997 -0.033285279 1.1869816e-38 361 268
0.049927916 0.67799997 -0.033285279 1.2053838e-38 362 268
0.051116679 0.67799997 -0.033285279 1.2053838e-38 363 268
0.052305438 0.67799997 -0.033285279 1.2053832e-38 364 268
0.053336397 0.676 -0.033187091 1.2053832e-38 365 268
0.054521654 0.676 -0.033187091 1.2053835e-38 366 268
0.055706903 0.676 -0.033187091 1.2053835e-38 367 268
0.056892153 0.676 -0.033187091 1.1869804e-38 368 268
0.058077414 0.676 -0.033187091 1.1869804e-38 369 268
0.059437994 0.67799997 -0.033285279 1.1777605e-38 370 268
0.060626756 0.67799997 -0.033285279 1.1777605e-38 371 268
0.061815511 0.67799997 -0.033285279 1.1777608e-38 372 268
0.063004278 0.67799997 -0.033285279 1.1777608e-38 373 268
0.064287722 0.67900002 -0.033334374 1.1777255e-38 374 268
0.065574668 0.68000001 -0.033383466 1.1869451e-38 375 268
0.066766933 0.68000001 -0.033383466 1.1686857e-38 376 268
