# .PCD v.7 - Point Cloud Data file format
FIELDS x y z rgb imX imY
SIZE 4 4 4 4 4 4
TYPE F F F F F F
COUNT 1 1 1 1 1 1
WIDTH 834
HEIGHT 1
VIEWPOINT 0 0 0 1 0 0 0
POINTS 834
DATA ascii
-0.039162453 0.69800001 0.017133573 1.6690283e-38 288 226
-0.037938625 0.69800001 0.017133573 1.7059066e-38 289 226
-0.0367148 0.69800001 0.017133573 1.7151261e-38 290 226
-0.035440128 0.69700003 0.017109027 1.7151261e-38 291 226
-0.034168959 0.69599998 0.017084479 1.7059784e-38 292 226
-0.032948639 0.69599998 0.017084479 1.715198e-38 293 226
-0.031728316 0.69599998 0.017084479 1.7151624e-38 294 226
-0.030420333 0.69400001 0.017035386 1.7151624e-38 295 226
-0.029203519 0.69400001 0.017035386 1.724346e-38 296 226
-0.027946379 0.69300002 0.01701084 1.7150905e-38 297 226
-0.02673132 0.69300002 0.01701084 1.7059075e-38 298 226
-0.02551626 0.69300002 0.01701084 1.715163e-38 299 226
-0.024231065 0.69099998 0.016961746 1.7336385e-38 300 226
-0.023019511 0.69099998 0.016961746 1.7521135e-38 301 226
-0.021776399 0.69 0.0169372 1.7886675e-38 302 226
-0.020566599 0.69 0.0169372 1.7517893e-38 303 226
-0.019356798 0.69 0.0169372 1.5769421e-38 304 226
-0.018146999 0.69 0.0169372 1.4939302e-38 305 226
-0.0169372 0.69 0.0169372 1.5220936e-38 306 226
-0.015681813 0.68800002 0.016888106 1.6050697e-38 307 226
-0.014475521 0.68800002 0.016888106 1.7428231e-38 308 226
-0.013269227 0.68800002 0.016888106 1.7612981e-38 309 226
-0.012045399 0.68699998 0.01686356 1.7979593e-38 310 226
-0.010840859 0.68699998 0.01686356 1.7887397e-38 311 226
-0.0096363192 0.68699998 0.01686356 1.7887391e-38 312 226
-0.0084317802 0.68699998 0.01686356 1.7518968e-38 313 226
-0.0072272392 0.68699998 0.01686356 1.7151261e-38 314 226
-0.0060226996 0.68699998 0.01686356 1.7059066e-38 315 226
-0.0048181596 0.68699998 0.01686356 1.7241656e-38 316 226
-0.0036188802 0.68800002 0.016888106 1.7149459e-38 317 226
-0.0024125867 0.68800002 0.016888106 1.687467e-38 318 226
-0.0012062934 0.68800002 0.016888106 1.687467e-38 319 226
0 0.68800002 0.016888106 1.6690636e-38 320 226
0.0012062934 0.68800002 0.016888106 1.6690636e-38 321 226
0.0024125867 0.68800002 0.016888106 1.7057261e-38 322 226
0.0036188802 0.68800002 0.016888106 1.687323e-38 323 226
0.0048251734 0.68800002 0.016888106 1.6781037e-38 324 226
0.0060314666 0.68800002 0.016888106 1.6688482e-38 325 226
0.0072377604 0.68800002 0.016888106 1.6412977e-38 326 226
0.0084440531 0.68800002 0.016888106 1.6320422e-38 327 226
0.0096783992 0.69 0.0169372 1.6228229e-38 328 226
0.010888199 0.69 0.0169372 1.6136033e-38 329 226
0.012097999 0.69 0.0169372 1.5860166e-38 330 226
0.0133078 0.69 0.0169372 1.5767971e-38 331 226
0.014517599 0.69 0.0169372 1.6043837e-38 332 226
0.015727401 0.69 0.0169372 1.5767252e-38 333 226
-0.04405776 0.69800001 0.015909746 1.6595567e-38 284 227
-0.042833932 0.69800001 0.015909746 1.7056545e-38 285 227
-0.041550495 0.69700003 0.015886955 1.6872879e-38 286 227
-0.040328421 0.69700003 0.015886955 1.7241303e-38 287 227
-0.039106347 0.69700003 0.015886955 1.6875397e-38 288 227
-0.037884273 0.69700003 0.015886955 1.724382e-38 289 227
-0.036609598 0.69599998 0.015864158 1.7151624e-38 290 227
-0.035287585 0.69400001 0.015818574 1.7151624e-38 291 227
-0.034021679 0.69300002 0.015795778 1.7151627e-38 292 227
-0.03280662 0.69300002 0.015795778 1.7151627e-38 293 227
-0.031591557 0.69300002 0.015795778 1.7151627e-38 294 227
-0.0303765 0.69300002 0.015795778 1.7151627e-38 295 227
-0.029161438 0.69300002 0.015795778 1.7336018e-38 296 227
-0.027825398 0.69 0.015727401 1.7704801e-38 297 227
-0.026615599 0.69 0.015727401 1.7888473e-38 298 227
-0.025405798 0.69 0.015727401 1.7980669e-38 299 227
-0.024231065 0.69099998 0.015750192 1.7514283e-38 300 227
-0.022919573 0.68800002 0.015681813 1.4932805e-38 301 227
-0.021713281 0.68800002 0.015681813 1.225768e-38 302 227
-0.020506985 0.68800002 0.015681813 8.846442e-39 303 227
-0.019300694 0.68800002 0.015681813 5.1654734e-39 304 227
-0.0180944 0.68800002 0.015681813 6.8253535e-39 305 227
-0.016888106 0.68800002 0.015681813 8.8684424e-39 306 227
-0.015681813 0.68800002 0.015681813 1.2187485e-38 307 227
-0.014454478 0.68699998 0.015659019 1.6416252e-38 308 227
-0.013249939 0.68699998 0.015659019 1.7061622e-38 309 227
-0.012045399 0.68699998 0.015659019 1.788777e-38 310 227
-0.010825079 0.68599999 0.015636226 1.7795574e-38 311 227
-0.0096222926 0.68599999 0.015636226 1.7520416e-38 312 227
-0.0084195063 0.68599999 0.015636226 1.7335665e-38 313 227
-0.0072167199 0.68599999 0.015636226 1.7336021e-38 314 227
-0.0060139326 0.68599999 0.015636226 1.7243825e-38 315 227
-0.0048181596 0.68699998 0.015659019 1.6876116e-38 316 227
-0.0036136196 0.68699998 0.015659019 1.6783921e-38 317 227
-0.0024090798 0.68699998 0.015659019 1.6691722e-38 318 227
-0.0012045399 0.68699998 0.015659019 1.650769e-38 319 227
0 0.68699998 0.015659019 1.6874314e-38 320 227
0.0012045399 0.68699998 0.015659019 1.6690283e-38 321 227
0.0024090798 0.68699998 0.015659019 1.6873598e-38 322 227
0.0036136196 0.68699998 0.015659019 1.6781403e-38 323 227
0.0048251734 0.68800002 0.015681813 1.6596653e-38 324 227
0.0060314666 0.68800002 0.015681813 1.6596653e-38 325 227
0.0072272392 0.68699998 0.015659019 1.6320424e-38 326 227
0.0084317802 0.68699998 0.015659019 1.6320424e-38 327 227
0.0096503468 0.68800002 0.015681813 1.6228229e-38 328 227
0.010856641 0.68800002 0.015681813 1.6136033e-38 329 227
0.012062933 0.68800002 0.015681813 1.5860166e-38 330 227
0.013269227 0.68800002 0.015681813 1.5767971e-38 331 227
0.014475521 0.68800002 0.015681813 1.5767974e-38 332 227
0.015681813 0.68800002 0.015681813 1.5583222e-38 333 227
0.016888106 0.68800002 0.015681813 1.3648903e-38 334 227
0.018225901 0.69300002 0.015795778 1.1251457e-38 335 227
-0.045281585 0.69800001 0.01468592 1.6038783e-38 283 228
-0.04405776 0.69800001 0.01468592 1.6872876e-38 284 228
-0.042772565 0.69700003 0.01466488 1.6872876e-38 285 228
-0.041550495 0.69700003 0.01466488 1.6873598e-38 286 228
-0.040328421 0.69700003 0.01466488 1.7242022e-38 287 228
-0.039106347 0.69700003 0.01466488 1.7059784e-38 288 228
-0.037829921 0.69599998 0.014643839 1.715198e-38 289 228
-0.036504399 0.69400001 0.01460176 1.7151624e-38 290 228
-0.035236739 0.69300002 0.014580719 1.7151624e-38 291 228
-0.034021679 0.69300002 0.014580719 1.724346e-38 292 228
-0.032711938 0.69099998 0.014538639 1.7335655e-38 293 228
-0.031500384 0.69099998 0.014538639 1.7336018e-38 294 228
-0.030288832 0.69099998 0.014538639 1.7428215e-38 295 228
-0.029077278 0.69099998 0.014538639 1.7886675e-38 296 228
-0.027825398 0.69 0.014517599 1.7517893e-38 297 228
-0.026538454 0.68800002 0.014475521 1.7056189e-38 298 228
-0.02533216 0.68800002 0.014475521 1.4659461e-38 299 228
-0.024195999 0.69 0.014517599 1.1800292e-38 300 228
-0.022919573 0.68800002 0.014475521 8.9425879e-39 301 228
-0.021713281 0.68800002 0.014475521 6.2706901e-39 302 228
-0.020506985 0.68800002 0.014475521 2.859456e-39 303 228
-0.019300694 0.68800002 0.014475521 8.624992e-42 304 228
-0.018068098 0.68699998 0.014454478 4.7248421e-40 305 228
-0.01686356 0.68699998 0.014454478 3.2459664e-39 306 228
-0.015659019 0.68699998 0.014454478 7.5795211e-39 307 228
-0.014454478 0.68699998 0.014454478 1.2089911e-38 308 228
-0.013249939 0.68699998 0.014454478 1.4394801e-38 309 228
-0.012027865 0.68599999 0.01443344 1.6876509e-38 310 228
-0.01079352 0.68400002 0.01439136 1.724529e-38 311 228
-0.0095942402 0.68400002 0.01439136 1.7796646e-38 312 228
-0.0084195063 0.68599999 0.01443344 1.7427865e-38 313 228
-0.0071956799 0.68400002 0.01439136 1.7520767e-38 314 228
-0.0059964 0.68400002 0.01439136 1.7336374e-38 315 228
-0.0047971201 0.68400002 0.01439136 1.752004e-38 316 228
-0.00359784 0.68400002 0.01439136 1.733565e-38 317 228
-0.0024055731 0.68599999 0.01443344 1.7151614e-38 318 228
-0.0012027866 0.68599999 0.01443344 1.705906e-38 319 228
0 0.68599999 0.01443344 1.6966864e-38 320 228
0.0012045399 0.68699998 0.014454478 1.6874667e-38 321 228
0.0024090798 0.68699998 0.014454478 1.687467e-38 322 228
0.0036136196 0.68699998 0.014454478 1.669028e-38 323 228
0.0048181596 0.68699998 0.014454478 1.6689204e-38 324 228
0.0060226996 0.68699998 0.014454478 1.6412977e-38 325 228
0.0072272392 0.68699998 0.014454478 1.6412621e-38 326 228
0.0084317802 0.68699998 0.014454478 1.6320424e-38 327 228
0.0096363192 0.68699998 0.014454478 1.6319348e-38 328 228
0.010840859 0.68699998 0.014454478 1.6134958e-38 329 228
0.012062933 0.68800002 0.014475521 1.5767974e-38 330 228
0.013249939 0.68699998 0.014454478 1.5675778e-38 331 228
0.014454478 0.68699998 0.014454478 1.5583225e-38 332 228
0.015659019 0.68699998 0.014454478 1.5583225e-38 333 228
0.01686356 0.68699998 0.014454478 1.2728036e-38 334 228
0.018146999 0.69 0.014517599 8.5792312e-39 335 228
-0.046638668 0.69999999 0.013500666 1.5396295e-38 282 229
-0.045216713 0.69700003 0.013442807 1.6871785e-38 283 229
-0.043994639 0.69700003 0.013442807 1.705691e-38 284 229
-0.042772565 0.69700003 0.013442807 1.6872879e-38 285 229
-0.041550495 0.69700003 0.013442807 1.6966514e-38 286 229
-0.040270556 0.69599998 0.013423519 1.7519686e-38 287 229
-0.039050236 0.69599998 0.013423519 1.6968312e-38 288 229
-0.037721213 0.69400001 0.013384946 1.7060508e-38 289 229
-0.036451802 0.69300002 0.01336566 1.7243823e-38 290 229
-0.035236739 0.69300002 0.01336566 1.7243823e-38 291 229
-0.033923492 0.69099998 0.013327086 1.7336018e-38 292 229
-0.032664597 0.69 0.0133078 1.7428215e-38 293 229
-0.031363625 0.68800002 0.013269227 1.7888826e-38 294 229
-0.030157333 0.68800002 0.013269227 1.7796631e-38 295 229
-0.029035198 0.69 0.0133078 1.7241289e-38 296 229
-0.027744746 0.68800002 0.013269227 1.5212985e-38 297 229
-0.026499879 0.68699998 0.013249939 1.2170154e-38 298 229
-0.025295338 0.68699998 0.013249939 5.8086568e-39 299 229
-0.024125867 0.68800002 0.013269227 2.7909381e-40 300 229
-0.022886258 0.68699998 0.013249939 7.1746481e-43 301 229
-0.021681719 0.68699998 0.013249939 6.4787073e-40 302 229
-0.020477179 0.68699998 0.013249939 1.8464139e-39 303 229
-0.019272638 0.68699998 0.013249939 1.3861714e-39 304 229
-0.018041799 0.68599999 0.013230653 1.3861714e-39 305 229
-0.016839013 0.68599999 0.013230653 1.1196375e-41 306 229
-0.015636226 0.68599999 0.013230653 1.3073372e-39 307 229
-0.01443344 0.68599999 0.013230653 4.263735e-39 308 229
-0.013230653 0.68599999 0.013230653 8.7813209e-39 309 229
-0.0119928 0.68400002 0.01319208 1.4483756e-38 310 229
-0.01079352 0.68400002 0.01319208 1.6143278e-38 311 229
-0.0095942402 0.68400002 0.01319208 1.7613346e-38 312 229
-0.0083949603 0.68400002 0.01319208 1.733712e-38 313 229
-0.0071956799 0.68400002 0.01319208 1.7704445e-38 314 229
-0.0059964 0.68400002 0.01319208 1.7428218e-38 315 229
-0.0047971201 0.68400002 0.01319208 1.7337094e-38 316 229
-0.00359784 0.68400002 0.01319208 1.7152703e-38 317 229
-0.0023985601 0.68400002 0.01319208 1.7244173e-38 318 229
-0.00119928 0.68400002 0.01319208 1.7151977e-38 319 229
0 0.68599999 0.013230653 1.7059779e-38 320 229
0.0012027866 0.68599999 0.013230653 1.6875748e-38 321 229
0.0024055731 0.68599999 0.013230653 1.6966867e-38 322 229
0.00360836 0.68599999 0.013230653 1.687467e-38 323 229
0.0048111463 0.68599999 0.013230653 1.659809e-38 324 229
0.0060139326 0.68599999 0.013230653 1.641334e-38 325 229
0.0072167199 0.68599999 0.013230653 1.6320427e-38 326 229
0.0084195063 0.68599999 0.013230653 1.6320427e-38 327 229
0.0096222926 0.68599999 0.013230653 1.6043484e-38 328 229
0.010840859 0.68699998 0.013249939 1.6043484e-38 329 229
0.012045399 0.68699998 0.013249939 1.5675422e-38 330 229
0.013249939 0.68699998 0.013249939 1.5583225e-38 331 229
0.014454478 0.68699998 0.013249939 1.5490311e-38 332 229
0.015659019 0.68699998 0.013249939 1.5582506e-38 333 229
0.01686356 0.68699998 0.013249939 1.1622057e-38 334 229
0.0180944 0.68800002 0.013269227 5.8140924e-39 335 229
0.019300694 0.68800002 0.013269227 0 336 229
0.020506985 0.68800002 0.013269227 0 337 229
-0.046505414 0.69800001 0.012238266 1.6318261e-38 282 230
-0.045216713 0.69700003 0.012220734 1.6871435e-38 283 230
-0.043994639 0.69700003 0.012220734 1.6781047e-38 284 230
-0.042772565 0.69700003 0.012220734 1.733422e-38 285 230
-0.041490879 0.69599998 0.0122032 1.724346e-38 286 230
-0.040270556 0.69599998 0.0122032 1.7519686e-38 287 230
-0.038938027 0.69400001 0.012168133 1.7335655e-38 288 230
-0.037721213 0.69400001 0.012168133 1.7335655e-38 289 230
-0.036451802 0.69300002 0.012150601 1.751933e-38 290 230
-0.035135046 0.69099998 0.012115533 1.7611886e-38 291 230
-0.033923492 0.69099998 0.012115533 1.7888473e-38 292 230
-0.032569919 0.68800002 0.012062933 1.7704082e-38 293 230
-0.031318039 0.68699998 0.012045399 1.6779955e-38 294 230
-0.030113498 0.68699998 0.012045399 1.4290673e-38 295 230
-0.028908957 0.68699998 0.012045399 1.1796332e-38 296 230
-0.027704418 0.68699998 0.012045399 8.4772896e-39 297 230
-0.026499879 0.68699998 0.012045399 6.4504151e-39 298 230
-0.025295338 0.68699998 0.012045399 3.8689374e-39 299 230
-0.0239856 0.68400002 0.0119928 1.2042815e-39 300 230
-0.022786319 0.68400002 0.0119928 1.4808698e-39 301 230
-0.02155548 0.68300003 0.011975267 3.0421027e-39 302 230
-0.020357953 0.68300003 0.011975267 3.4108852e-39 303 230
-0.019160427 0.68300003 0.011975267 3.0431845e-39 304 230
-0.017962901 0.68300003 0.011975267 2.7662374e-39 305 230
-0.016789921 0.68400002 0.0119928 5.6220094e-40 306 230
-0.01559064 0.68400002 0.0119928 1.2075704e-39 307 230
-0.01439136 0.68400002 0.0119928 1.4017034e-39 308 230
-0.01319208 0.68400002 0.0119928 4.351965e-39 309 230
-0.011975267 0.68300003 0.011975267 8.1327047e-39 310 230
-0.01077774 0.68300003 0.011975267 1.2097117e-38 311 230
-0.0095802136 0.68300003 0.011975267 1.6784679e-38 312 230
-0.0083826864 0.68300003 0.011975267 1.7430048e-38 313 230
-0.0071851597 0.68300003 0.011975267 1.7980318e-38 314 230
-0.0059876335 0.68300003 0.011975267 1.7795927e-38 315 230
-0.0047901068 0.68300003 0.011975267 1.7521488e-38 316 230
-0.0035925799 0.68300003 0.011975267 1.7428934e-38 317 230
-0.0023950534 0.68300003 0.011975267 1.7428568e-38 318 230
-0.0011975267 0.68300003 0.011975267 1.7336371e-38 319 230
0 0.68300003 0.011975267 1.733565e-38 320 230
0.0011975267 0.68300003 0.011975267 1.733565e-38 321 230
0.0023950534 0.68300003 0.011975267 1.7243457e-38 322 230
0.00359784 0.68400002 0.0119928 1.7059066e-38 323 230
0.0047971201 0.68400002 0.0119928 1.6874317e-38 324 230
0.0059964 0.68400002 0.0119928 1.6505536e-38 325 230
0.0071956799 0.68400002 0.0119928 1.6412268e-38 326 230
0.0083949603 0.68400002 0.0119928 1.6320071e-38 327 230
0.0095942402 0.68400002 0.0119928 1.6043128e-38 328 230
0.010825079 0.68599999 0.012027865 1.5950933e-38 329 230
0.012045399 0.68699998 0.012045399 1.5674705e-38 330 230
0.013249939 0.68699998 0.012045399 1.5582509e-38 331 230
0.014454478 0.68699998 0.012045399 1.5122251e-38 332 230
0.015659019 0.68699998 0.012045399 1.493786e-38 333 230
0.01686356 0.68699998 0.012045399 9.7788702e-39 334 230
0.0180944 0.68800002 0.012062933 4.615915e-39 335 230
0.019300694 0.68800002 0.012062933 9.8090893e-45 336 230
0.020477179 0.68699998 0.012045399 9.4729177e-41 337 230
0.021681719 0.68699998 0.012045399 5.5391507e-40 338 230
-0.047865998 0.69999999 0.011045999 1.2536805e-38 281 231
-0.046505414 0.69800001 0.01101444 1.5582506e-38 282 231
-0.045216713 0.69700003 0.01099866 1.5766899e-38 283 231
-0.043994639 0.69700003 0.01099866 1.6044213e-38 284 231
-0.042711195 0.69599998 0.010982879 1.6873614e-38 285 231
-0.041490879 0.69599998 0.010982879 1.6692098e-38 286 231
-0.040154841 0.69400001 0.01095132 1.6692098e-38 287 231
-0.038938027 0.69400001 0.01095132 1.7243825e-38 288 231
-0.037666857 0.69300002 0.010935539 1.7336021e-38 289 231
-0.036346599 0.69099998 0.01090398 1.7887394e-38 290 231
-0.035135046 0.69099998 0.01090398 1.8163981e-38 291 231
-0.0338744 0.69 0.010888199 1.8072126e-38 292 231
-0.032522578 0.68699998 0.010840859 1.7057614e-38 293 231
-0.031318039 0.68699998 0.010840859 1.4198458e-38 294 231
-0.030113498 0.68699998 0.010840859 9.4964806e-39 295 231
-0.028908957 0.68699998 0.010840859 3.7774817e-39 296 231
-0.027704418 0.68699998 0.010840859 2.1179589e-39 297 231
-0.026345588 0.68300003 0.01077774 3.2246764e-39 298 231
-0.02514806 0.68300003 0.01077774 4.5154153e-39 299 231
-0.023950534 0.68300003 0.01077774 3.7843368e-39 300 231
-0.022753006 0.68300003 0.01077774 3.3233587e-39 301 231
-0.02155548 0.68300003 0.01077774 3.8718633e-39 302 231
-0.020357953 0.68300003 0.01077774 3.6874721e-39 303 231
-0.019160427 0.68300003 0.01077774 3.4105349e-39 304 231
-0.017962901 0.68300003 0.01077774 3.4105349e-39 305 231
-0.016765373 0.68300003 0.01077774 3.136113e-39 306 231
-0.01559064 0.68400002 0.01079352 2.9520804e-39 307 231
-0.01439136 0.68400002 0.01079352 2.1302483e-39 308 231
-0.013172794 0.68300003 0.01077774 2.7756177e-39 309 231
-0.011975267 0.68300003 0.01077774 8.5788193e-40 310 231
-0.010761959 0.68199998 0.010761959 6.2977828e-39 311 231
-0.009566186 0.68199998 0.010761959 1.4114624e-38 312 231
-0.0083704125 0.68199998 0.010761959 1.6235123e-38 313 231
-0.00717464 0.68199998 0.010761959 1.8073606e-38 314 231
-0.005978866 0.68199998 0.010761959 1.779702e-38 315 231
-0.004783093 0.68199998 0.010761959 1.7888839e-38 316 231
-0.0035925799 0.68300003 0.01077774 1.7796643e-38 317 231
-0.0023915465 0.68199998 0.010761959 1.7704448e-38 318 231
-0.0011957732 0.68199998 0.010761959 1.7428221e-38 319 231
0 0.68199998 0.010761959 1.7703726e-38 320 231
0.0011957732 0.68199998 0.010761959 1.761153e-38 321 231
0.0023915465 0.68199998 0.010761959 1.7519333e-38 322 231
0.0035925799 0.68300003 0.01077774 1.7150911e-38 323 231
0.0047901068 0.68300003 0.01077774 1.650626e-38 324 231
0.0059876335 0.68300003 0.01077774 1.6413706e-38 325 231
0.0071851597 0.68300003 0.01077774 1.6228592e-38 326 231
0.0083826864 0.68300003 0.01077774 1.5952365e-38 327 231
0.0095942402 0.68400002 0.01079352 1.5951286e-38 328 231
0.010825079 0.68599999 0.010825079 1.5767255e-38 329 231
0.012027865 0.68599999 0.010825079 1.5306642e-38 330 231
0.013230653 0.68599999 0.010825079 1.5214447e-38 331 231
0.014454478 0.68699998 0.010840859 1.484639e-38 332 231
0.015659019 0.68699998 0.010840859 1.4201021e-38 333 231
0.01686356 0.68699998 0.010840859 7.015165e-39 334 231
0.0180944 0.68800002 0.010856641 2.5897761e-39 335 231
0.019300694 0.68800002 0.010856641 1.8944855e-40 336 231
0.020477179 0.68699998 0.010840859 1.2036019e-39 337 231
0.021681719 0.68699998 0.010840859 2.5804239e-39 338 231
0.022919573 0.68800002 0.010856641 2.0272501e-39 339 231
-0.049093332 0.69999999 0.0098186666 6.002071e-39 280 232
-0.047729239 0.69800001 0.0097906133 1.0519657e-38 281 232
-0.046505414 0.69800001 0.0097906133 1.3467774e-38 282 232
-0.045216713 0.69700003 0.0097765867 1.355997e-38 283 232
-0.043994639 0.69700003 0.0097765867 1.3925879e-38 284 232
-0.042711195 0.69599998 0.0097625591 1.3925879e-38 285 232
-0.041371655 0.69400001 0.0097345067 1.3653603e-38 286 232
-0.040154841 0.69400001 0.0097345067 1.4022746e-38 287 232
-0.03888192 0.69300002 0.0097204801 1.540388e-38 288 232
-0.03755815 0.69099998 0.0096924258 1.6510226e-38 289 232
-0.036293998 0.69 0.0096783992 1.74257e-38 290 232
-0.03498251 0.68800002 0.0096503468 1.6411188e-38 291 232
-0.033727121 0.68699998 0.0096363192 1.4375313e-38 292 232
-0.032522578 0.68699998 0.0096363192 1.0134312e-38 293 232
-0.031272452 0.68599999 0.0096222926 7.3626814e-39 294 232
-0.029982001 0.68400002 0.0095942402 6.5329193e-39 295 232
-0.028740639 0.68300003 0.0095802136 4.1455593e-39 296 232
-0.027543113 0.68300003 0.0095802136 4.9753214e-39 297 232
-0.026307013 0.68199998 0.009566186 4.9774906e-39 298 232
-0.025111238 0.68199998 0.009566186 4.9774906e-39 299 232
-0.023915464 0.68199998 0.009566186 4.2424437e-39 300 232
-0.022719691 0.68199998 0.009566186 3.8736612e-39 301 232
-0.021523919 0.68199998 0.009566186 3.6871161e-39 302 232
-0.020328145 0.68199998 0.009566186 3.410888e-39 303 232
-0.019132372 0.68199998 0.009566186 3.3186924e-39 304 232
-0.017936599 0.68199998 0.009566186 3.410888e-39 305 232
-0.016740825 0.68199998 0.009566186 3.5030864e-39 306 232
-0.015545053 0.68199998 0.009566186 3.8715102e-39 307 232
-0.014307199 0.68000001 0.0095381327 3.6903657e-39 308 232
-0.013114933 0.68000001 0.0095381327 3.6903657e-39 309 232
-0.011957732 0.68199998 0.009566186 1.2122675e-39 310 232
-0.0107304 0.68000001 0.0095381327 2.1345839e-39 311 232
-0.0095381327 0.68000001 0.0095381327 4.2691258e-39 312 232
-0.0083704125 0.68199998 0.009566186 9.8926991e-39 313 232
-0.00717464 0.68199998 0.009566186 1.6324422e-38 314 232
-0.005978866 0.68199998 0.009566186 1.7061987e-38 315 232
-0.004783093 0.68199998 0.009566186 1.7336035e-38 316 232
-0.00358732 0.68199998 0.009566186 1.6967611e-38 317 232
-0.0023845332 0.68000001 0.0095381327 1.7059081e-38 318 232
-0.0011922666 0.68000001 0.0095381327 1.6782496e-38 319 232
0 0.68199998 0.009566186 1.668958e-38 320 232
0.0011957732 0.68199998 0.009566186 1.6505188e-38 321 232
0.0023915465 0.68199998 0.009566186 1.6228241e-38 322 232
0.00358732 0.68199998 0.009566186 1.5675069e-38 323 232
0.004783093 0.68199998 0.009566186 1.4663794e-38 324 232
0.005978866 0.68199998 0.009566186 1.4387206e-38 325 232
0.00717464 0.68199998 0.009566186 1.4570879e-38 326 232
0.0083826864 0.68300003 0.0095802136 1.4386487e-38 327 232
0.0095802136 0.68300003 0.0095802136 1.4294654e-38 328 232
0.01079352 0.68400002 0.0095942402 1.4110623e-38 329 232
0.0119928 0.68400002 0.0095942402 1.3926232e-38 330 232
0.01319208 0.68400002 0.0095942402 1.3833677e-38 331 232
0.01443344 0.68599999 0.0096222926 1.383368e-38 332 232
0.015659019 0.68699998 0.0096363192 1.2819887e-38 333 232
0.01686356 0.68699998 0.0096363192 3.5146093e-39 334 232
0.018068098 0.68699998 0.0096363192 9.3313165e-40 335 232
0.019272638 0.68699998 0.0096363192 1.3854708e-39 336 232
0.020477179 0.68699998 0.0096363192 1.8468091e-39 337 232
0.021681719 0.68699998 0.0096363192 2.3052607e-39 338 232
0.022919573 0.68800002 0.0096503468 2.3052607e-39 339 232
0.024195999 0.69 0.0096783992 2.2123448e-39 340 232
-0.050320663 0.69999999 0.0085913334 4.51899e-39 279 233
-0.048953064 0.69800001 0.0085667865 1.1066693e-38 280 233
-0.047729239 0.69800001 0.0085667865 1.3279748e-38 281 233
-0.046505414 0.69800001 0.0085667865 1.4294288e-38 282 233
-0.045216713 0.69700003 0.0085545136 1.4570877e-38 283 233
-0.043994639 0.69700003 0.0085545136 1.4754911e-38 284 233
-0.042588469 0.69400001 0.0085176928 1.4570879e-38 285 233
-0.041371655 0.69400001 0.0085176928 1.392803e-38 286 233
-0.04009698 0.69300002 0.0085054198 1.3835834e-38 287 233
-0.038769703 0.69099998 0.008480873 1.4571967e-38 288 233
-0.037503798 0.69 0.0084686 1.5862706e-38 289 233
-0.0361888 0.68800002 0.0084440531 1.5307364e-38 290 233
-0.034931656 0.68699998 0.0084317802 1.2910279e-38 291 233
-0.033678025 0.68599999 0.0084195063 8.2082851e-39 292 233
-0.032380559 0.68400002 0.0083949603 4.1516774e-39 293 233
-0.03118128 0.68400002 0.0083949603 3.778946e-39 294 233
-0.029938167 0.68300003 0.0083826864 4.6090654e-39 295 233
-0.028740639 0.68300003 0.0083826864 5.4373912e-39 296 233
-0.027502786 0.68199998 0.0083704125 5.6221412e-39 297 233
-0.026307013 0.68199998 0.0083704125 5.4377443e-39 298 233
-0.025111238 0.68199998 0.0083704125 5.161156e-39 299 233
-0.023915464 0.68199998 0.0083704125 4.9760431e-39 300 233
-0.022719691 0.68199998 0.0083704125 4.3306737e-39 301 233
-0.021523919 0.68199998 0.0083704125 3.6867518e-39 302 233
-0.020328145 0.68199998 0.0083704125 3.5020018e-39 303 233
-0.019076265 0.68000001 0.0083458666 2.8602351e-39 304 233
-0.017883999 0.68000001 0.0083458666 2.8602351e-39 305 233
-0.016691733 0.68000001 0.0083458666 3.2279457e-39 306 233
-0.015476674 0.67900002 0.0083335936 3.5041724e-39 307 233
-0.01428616 0.67900002 0.0083335936 3.781118e-39 308 233
-0.013095647 0.67900002 0.0083335936 3.781118e-39 309 233
-0.011922667 0.68000001 0.0083458666 2.0362394e-39 310 233
-0.0107304 0.68000001 0.0083458666 9.2953172e-40 311 233
-0.0095381327 0.68000001 0.0083458666 2.0908774e-41 312 233
-0.0083458666 0.68000001 0.0083458666 5.372937e-39 313 233
-0.00717464 0.68199998 0.0083704125 1.1261601e-38 314 233
-0.0059613334 0.68000001 0.0083458666 1.3658327e-38 315 233
-0.0047690663 0.68000001 0.0083458666 1.5403895e-38 316 233
-0.0035767998 0.68000001 0.0083458666 1.5035113e-38 317 233
-0.0023845332 0.68000001 0.0083458666 1.5402078e-38 318 233
-0.0011922666 0.68000001 0.0083458666 1.5586828e-38 319 233
0 0.68199998 0.0083704125 1.5584308e-38 320 233
0.0011922666 0.68000001 0.0083458666 1.5215166e-38 321 233
0.0023845332 0.68000001 0.0083458666 1.44794e-38 322 233
0.00358732 0.68199998 0.0083704125 1.401878e-38 323 233
0.004783093 0.68199998 0.0083704125 1.3373421e-38 324 233
0.005978866 0.68199998 0.0083704125 1.3373421e-38 325 233
0.00717464 0.68199998 0.0083704125 1.3372708e-38 326 233
0.0083704125 0.68199998 0.0083704125 1.3464903e-38 327 233
0.0095802136 0.68300003 0.0083826864 1.355602e-38 328 233
0.01077774 0.68300003 0.0083826864 1.3463824e-38 329 233
0.0119928 0.68400002 0.0083949603 1.3097197e-38 330 233
0.01319208 0.68400002 0.0083949603 1.3281228e-38 331 233
0.01439136 0.68400002 0.0083949603 1.2544389e-38 332 233
0.015636226 0.68599999 0.0084195063 1.0516085e-38 333 233
0.016839013 0.68599999 0.0084195063 3.8319768e-40 334 233
0.018068098 0.68699998 0.0084317802 1.4055024e-41 335 233
0.019272638 0.68699998 0.0084317802 2.857717e-39 336 233
0.020477179 0.68699998 0.0084317802 2.6733257e-39 337 233
0.021681719 0.68699998 0.0084317802 1.9386264e-39 338 233
0.022919573 0.68800002 0.0084440531 2.030822e-39 339 233
0.024195999 0.69 0.0084686 2.0301031e-39 340 233
0.025405798 0.69 0.0084686 2.2141343e-39 341 233
-0.051547997 0.69999999 0.0073639993 4.9832107e-39 278 234
-0.050320663 0.69999999 0.0073639993 8.1178621e-39 279 234
-0.048953064 0.69800001 0.0073429602 1.6779952e-38 280 234
-0.047729239 0.69800001 0.0073429602 1.7056898e-38 281 234
-0.046505414 0.69800001 0.0073429602 1.6321147e-38 282 234
-0.045216713 0.69700003 0.00733244 1.6321147e-38 283 234
-0.043994639 0.69700003 0.00733244 1.6505907e-38 284 234
-0.042527102 0.69300002 0.0072903596 1.6782496e-38 285 234
-0.041312039 0.69300002 0.0072903596 1.6690298e-38 286 234
-0.04009698 0.69300002 0.0072903596 1.6505907e-38 287 234
-0.038769703 0.69099998 0.0072693196 1.6137126e-38 288 234
-0.037395094 0.68800002 0.0072377604 1.5768342e-38 289 234
-0.036136195 0.68699998 0.0072272392 8.2169367e-39 290 234
-0.034880809 0.68599999 0.0072167199 2.3164164e-39 291 234
-0.033678025 0.68599999 0.0072167199 3.418078e-39 292 234
-0.032380559 0.68400002 0.0071956799 4.7088169e-39 293 234
-0.03118128 0.68400002 0.0071956799 6.0834696e-39 294 234
-0.029938167 0.68300003 0.0071851597 5.9909153e-39 295 234
-0.028740639 0.68300003 0.0071851597 5.6232132e-39 296 234
-0.027502786 0.68199998 0.00717464 5.4384632e-39 297 234
-0.026307013 0.68199998 0.00717464 5.1625993e-39 298 234
-0.025111238 0.68199998 0.00717464 4.7941756e-39 299 234
-0.023915464 0.68199998 0.00717464 4.6079864e-39 300 234
-0.022719691 0.68199998 0.00717464 4.0548127e-39 301 234
-0.021523919 0.68199998 0.00717464 3.5023549e-39 302 234
-0.020328145 0.68199998 0.00717464 3.4101593e-39 303 234
-0.019048214 0.67900002 0.0071430802 2.9513392e-39 304 234
-0.017857701 0.67900002 0.0071430802 3.0435348e-39 305 234
-0.016667187 0.67900002 0.0071430802 3.3190455e-39 306 234
-0.015453878 0.67799997 0.0071325595 3.5034367e-39 307 234
-0.014265119 0.67799997 0.0071325595 3.8715004e-39 308 234
-0.013076359 0.67799997 0.0071325595 4.1477271e-39 309 234
-0.011905133 0.67900002 0.0071430802 4.4250399e-39 310 234
-0.010714619 0.67900002 0.0071430802 4.4250399e-39 311 234
-0.009524107 0.67900002 0.0071430802 2.4911219e-39 312 234
-0.0083458666 0.68000001 0.0071535995 3.7835059e-44 313 234
-0.0071535995 0.68000001 0.0071535995 6.7275498e-40 314 234
-0.0059525664 0.67900002 0.0071430802 7.8640141e-39 315 234
-0.0047620535 0.67900002 0.0071430802 1.1540311e-38 316 234
-0.0035715401 0.67900002 0.0071430802 1.1909093e-38 317 234
-0.0023810267 0.67900002 0.0071430802 1.3562138e-38 318 234
-0.0011905134 0.67900002 0.0071430802 1.393056e-38 319 234
0 0.68000001 0.0071535995 1.4295381e-38 320 234
0.0011922666 0.68000001 0.0071535995 1.4110989e-38 321 234
0.0023845332 0.68000001 0.0071535995 1.4018793e-38 322 234
0.0035767998 0.68000001 0.0071535995 1.4018793e-38 323 234
0.0047690663 0.68000001 0.0071535995 1.4018077e-38 324 234
0.0059613334 0.68000001 0.0071535995 1.4110273e-38 325 234
0.0071535995 0.68000001 0.0071535995 1.3925523e-38 326 234
0.0083704125 0.68199998 0.00717464 1.3925523e-38 327 234
0.009566186 0.68199998 0.00717464 1.374113e-38 328 234
0.01077774 0.68300003 0.0071851597 1.3648934e-38 329 234
0.011975267 0.68300003 0.0071851597 1.3650368e-38 330 234
0.013172794 0.68300003 0.0071851597 1.3558171e-38 331 234
0.014370319 0.68300003 0.0071851597 9.6895417e-39 332 234
0.01559064 0.68400002 0.0071956799 5.9095223e-39 333 234
0.016839013 0.68599999 0.0072167199 3.2454072e-42 334 234
0.018041799 0.68599999 0.0072167199 3.7671107e-40 335 234
0.019272638 0.68699998 0.0072272392 2.8562821e-39 336 234
0.020477179 0.68699998 0.0072272392 2.4878597e-39 337 234
0.021713281 0.68800002 0.0072377604 1.9386292e-39 338 234
0.022986198 0.69 0.0072587994 2.0308248e-39 339 234
0.024195999 0.69 0.0072587994 2.2144902e-39 340 234
0.025405798 0.69 0.0072587994 2.0304591e-39 341 234
-0.052775331 0.69999999 0.0061366665 5.6235425e-39 277 235
-0.051547997 0.69999999 0.0061366665 8.5759662e-39 278 235
-0.050176892 0.69800001 0.006119133 1.2448183e-38 279 235
-0.048953064 0.69800001 0.006119133 1.6779955e-38 280 235
-0.047660861 0.69700003 0.0061103669 1.6503368e-38 281 235
-0.046438783 0.69700003 0.0061103669 1.5767974e-38 282 235
-0.045216713 0.69700003 0.0061103669 1.6044561e-38 283 235
-0.043742158 0.69300002 0.0060753003 1.6229675e-38 284 235
-0.042404365 0.69099998 0.0060577663 1.650626e-38 285 235
-0.041192811 0.69099998 0.0060577663 1.6414788e-38 286 235
-0.0399234 0.69 0.0060489997 1.6691016e-38 287 235
-0.038601387 0.68800002 0.0060314666 1.7058359e-38 288 235
-0.037340738 0.68699998 0.0060226996 1.5767621e-38 289 235
-0.036083598 0.68599999 0.0060139326 7.1087969e-39 290 235
-0.034880809 0.68599999 0.0060139326 1.4845034e-39 291 235
-0.033579841 0.68400002 0.0059964 4.7041477e-39 292 235
-0.032380559 0.68400002 0.0059964 5.8101366e-39 293 235
-0.03118128 0.68400002 0.0059964 5.807603e-39 294 235
-0.029938167 0.68300003 0.0059876335 5.6232104e-39 295 235
-0.028740639 0.68300003 0.0059876335 5.2551509e-39 296 235
-0.027543113 0.68300003 0.0059876335 5.1629553e-39 297 235
-0.026307013 0.68199998 0.005978866 4.9782081e-39 298 235
-0.025111238 0.68199998 0.005978866 4.5175887e-39 299 235
-0.023915464 0.68199998 0.005978866 4.2392039e-39 300 235
-0.022653066 0.68000001 0.0059613334 3.6860301e-39 301 235
-0.0214608 0.68000001 0.0059613334 3.4101621e-39 302 235
-0.020268533 0.68000001 0.0059613334 3.0413796e-39 303 235
-0.019048214 0.67900002 0.0059525664 2.674039e-39 304 235
-0.017857701 0.67900002 0.0059525664 2.7662346e-39 305 235
-0.016642639 0.67799997 0.0059437994 2.8591533e-39 306 235
-0.015453878 0.67799997 0.0059437994 2.951349e-39 307 235
-0.014265119 0.67799997 0.0059437994 3.4108852e-39 308 235
-0.013076359 0.67799997 0.0059437994 3.7796677e-39 309 235
-0.011887599 0.67799997 0.0059437994 3.5988722e-39 310 235
-0.010698839 0.67799997 0.0059437994 3.967296e-39 311 235
-0.0095100794 0.67799997 0.0059437994 2.6758383e-39 312 235
-0.0083335936 0.67900002 0.0059525664 0 313 235
-0.0071430802 0.67900002 0.0059525664 4.0533637e-39 314 235
-0.0059525664 0.67900002 0.0059525664 1.5762209e-38 315 235
-0.0047550397 0.67799997 0.0059437994 1.4939658e-38 316 235
-0.0035662798 0.67799997 0.0059437994 1.5400636e-38 317 235
-0.0023775198 0.67799997 0.0059437994 1.5216267e-38 318 235
-0.0011905134 0.67900002 0.0059525664 1.5031516e-38 319 235
0 0.67900002 0.0059525664 1.4388301e-38 320 235
0.0011905134 0.67900002 0.0059525664 1.4203551e-38 321 235
0.0023810267 0.67900002 0.0059525664 1.3928039e-38 322 235
0.0035715401 0.67900002 0.0059525664 1.3928039e-38 323 235
0.0047620535 0.67900002 0.0059525664 1.38362e-38 324 235
0.0059613334 0.68000001 0.0059613334 1.3744004e-38 325 235
0.0071535995 0.68000001 0.0059613334 1.3835481e-38 326 235
0.0083458666 0.68000001 0.0059613334 1.3743285e-38 327 235
0.0095381327 0.68000001 0.0059613334 1.3650731e-38 328 235
0.010761959 0.68199998 0.005978866 1.3558535e-38 329 235
0.011957732 0.68199998 0.005978866 1.3835834e-38 330 235
0.013172794 0.68300003 0.0059876335 1.3835834e-38 331 235
0.014370319 0.68300003 0.0059876335 1.2449985e-38 332 235
0.01559064 0.68400002 0.0059964 7.1026368e-39 333 235
0.016839013 0.68599999 0.0060139326 0 334 235
0.018041799 0.68599999 0.0060139326 2.8017001e-40 335 235
0.019244585 0.68599999 0.0060139326 2.3052607e-39 336 235
0.020477179 0.68699998 0.0060226996 2.2130651e-39 337 235
0.021681719 0.68699998 0.0060226996 1.754961e-39 338 235
0.022919573 0.68800002 0.0060314666 1.754961e-39 339 235
0.024195999 0.69 0.0060489997 1.7549582e-39 340 235
0.025405798 0.69 0.0060489997 1.7549582e-39 341 235
0.02673132 0.69300002 0.0060753003 2.0297556e-39 342 235
-0.054002665 0.69999999 0.0049093333 7.5585717e-39 276 236
-0.052775331 0.69999999 0.0049093333 6.3600285e-39 277 236
-0.051400717 0.69800001 0.0048953067 1.235275e-38 278 236
-0.050176892 0.69800001 0.0048953067 1.5671793e-38 279 236
-0.048953064 0.69800001 0.0048953067 1.6135311e-38 280 236
-0.047660861 0.69700003 0.0048882933 1.5766169e-38 281 236
-0.046438783 0.69700003 0.0048882933 1.5400633e-38 282 236
-0.044957221 0.69300002 0.00486024 1.5585024e-38 283 236
-0.043742158 0.69300002 0.00486024 1.5677942e-38 284 236
-0.042404365 0.69099998 0.0048462129 1.5862334e-38 285 236
-0.041133199 0.69 0.0048391996 1.5954533e-38 286 236
-0.039807681 0.68800002 0.0048251734 1.6323314e-38 287 236
-0.038545277 0.68699998 0.0048181596 1.7059078e-38 288 236
-0.037177678 0.68400002 0.0047971201 1.5492113e-38 289 236
-0.035978399 0.68400002 0.0047971201 7.0144335e-39 290 236
-0.03477912 0.68400002 0.0047971201 2.957467e-39 291 236
-0.033530746 0.68300003 0.0047901068 5.8079744e-39 292 236
-0.032333218 0.68300003 0.0047901068 5.90017e-39 293 236
-0.031135695 0.68300003 0.0047901068 5.5306588e-39 294 236
-0.029938167 0.68300003 0.0047901068 5.254432e-39 295 236
-0.028740639 0.68300003 0.0047901068 5.1618833e-39 296 236
-0.027502786 0.68199998 0.004783093 4.885295e-39 297 236
-0.026307013 0.68199998 0.004783093 4.6087151e-39 298 236
-0.025037598 0.68000001 0.0047690663 4.2395725e-39 299 236
-0.023845334 0.68000001 0.0047690663 3.8700669e-39 300 236
-0.022653066 0.68000001 0.0047690663 3.5012857e-39 301 236
-0.021429239 0.67900002 0.0047620535 3.0410265e-39 302 236
-0.020238725 0.67900002 0.0047620535 2.9488308e-39 303 236
-0.019020159 0.67799997 0.0047550397 2.5811273e-39 304 236
-0.0178314 0.67799997 0.0047550397 2.6733229e-39 305 236
-0.016642639 0.67799997 0.0047550397 2.8577142e-39 306 236
-0.015453878 0.67799997 0.0047550397 3.0417467e-39 307 236
-0.014265119 0.67799997 0.0047550397 3.4101621e-39 308 236
-0.013076359 0.67799997 0.0047550397 3.686749e-39 309 236
-0.011887599 0.67799997 0.0047550397 3.6896203e-39 310 236
-0.010698839 0.67799997 0.0047550397 3.6896203e-39 311 236
-0.0095100794 0.67799997 0.0047550397 1.8475069e-39 312 236
-0.0083213197 0.67799997 0.0047550397 9.2554923e-40 313 236
-0.0071325595 0.67799997 0.0047550397 9.4925597e-39 314 236
-0.0059437994 0.67799997 0.0047550397 1.8066753e-38 315 236
-0.0047550397 0.67799997 0.0047550397 1.7055491e-38 316 236
-0.0035662798 0.67799997 0.0047550397 1.6410121e-38 317 236
-0.0023775198 0.67799997 0.0047550397 1.5582526e-38 318 236
-0.0011887599 0.67799997 0.0047550397 1.4937156e-38 319 236
0 0.67799997 0.0047550397 1.4295387e-38 320 236
0.0011905134 0.67900002 0.0047620535 1.4202831e-38 321 236
0.0023810267 0.67900002 0.0047620535 1.3835847e-38 322 236
0.0035715401 0.67900002 0.0047620535 1.3743651e-38 323 236
0.0047620535 0.67900002 0.0047620535 1.3742932e-38 324 236
0.0059525664 0.67900002 0.0047620535 1.3650736e-38 325 236
0.0071430802 0.67900002 0.0047620535 1.3742929e-38 326 236
0.0083335936 0.67900002 0.0047620535 1.3650734e-38 327 236
0.0095381327 0.68000001 0.0047690663 1.3650731e-38 328 236
0.0107304 0.68000001 0.0047690663 1.3650731e-38 329 236
0.011957732 0.68199998 0.004783093 1.3650731e-38 330 236
0.013153506 0.68199998 0.004783093 1.3835481e-38 331 236
0.01434928 0.68199998 0.004783093 1.4200644e-38 332 236
0.015567848 0.68300003 0.0047901068 1.1250385e-38 333 236
0.016789921 0.68400002 0.0047971201 2.2090854e-39 334 236
0.018041799 0.68599999 0.0048111463 8.2651947e-40 335 236
0.019244585 0.68599999 0.0048111463 1.5698494e-39 336 236
0.020477179 0.68699998 0.0048181596 1.8460762e-39 337 236
0.021681719 0.68699998 0.0048181596 1.663487e-39 338 236
0.022919573 0.68800002 0.0048251734 1.663487e-39 339 236
0.024195999 0.69 0.0048391996 1.6634842e-39 340 236
0.025405798 0.69 0.0048391996 1.6634842e-39 341 236
0.026615599 0.69 0.0048391996 1.9375558e-39 342 236
-0.055229999 0.69999999 0.0036819996 8.1128273e-39 275 237
-0.054002665 0.69999999 0.0036819996 7.9302311e-39 276 237
-0.052775331 0.69999999 0.0036819996 9.4053611e-39 277 237
-0.051400717 0.69800001 0.0036714801 1.4564013e-38 278 237
-0.050176892 0.69800001 0.0036714801 1.6500121e-38 279 237
-0.048882935 0.69700003 0.00366622 1.5583225e-38 280 237
-0.047592476 0.69599998 0.0036609597 1.5306998e-38 281 237
-0.046372157 0.69599998 0.0036609597 1.5491757e-38 282 237
-0.044957221 0.69300002 0.0036451798 1.5768342e-38 283 237
-0.043615919 0.69099998 0.0036346598 1.5677226e-38 284 237
-0.042342998 0.69 0.0036293997 1.5861617e-38 285 237
-0.041013971 0.68800002 0.0036188802 1.5861617e-38 286 237
-0.039749816 0.68699998 0.0036136196 1.6322595e-38 287 237
-0.038376961 0.68400002 0.00359784 1.7058359e-38 288 237
-0.037123326 0.68300003 0.0035925799 1.5399197e-38 289 237
-0.035925802 0.68300003 0.0035925799 6.7356858e-39 290 237
-0.034728274 0.68300003 0.0035925799 2.4950455e-39 291 237
-0.03348165 0.68199998 0.00358732 5.6235803e-39 292 237
-0.032285877 0.68199998 0.00358732 5.3469934e-39 293 237
-0.031090107 0.68199998 0.00358732 5.253353e-39 294 237
-0.029894331 0.68199998 0.00358732 5.161156e-39 295 237
-0.02869856 0.68199998 0.00358732 4.7927406e-39 296 237
-0.027502786 0.68199998 0.00358732 4.4243182e-39 297 237
-0.026307013 0.68199998 0.00358732 4.2388536e-39 298 237
-0.025037598 0.68000001 0.0035767998 3.961908e-39 299 237
-0.023845334 0.68000001 0.0035767998 3.5012885e-39 300 237
-0.022619752 0.67900002 0.0035715401 3.2243415e-39 301 237
-0.021429239 0.67900002 0.0035715401 2.5814902e-39 302 237
-0.020208918 0.67799997 0.0035662798 2.3974591e-39 303 237
-0.019020159 0.67799997 0.0035662798 2.4889317e-39 304 237
-0.0178314 0.67799997 0.0035662798 2.4889317e-39 305 237
-0.016642639 0.67799997 0.0035662798 2.5818462e-39 306 237
-0.015408293 0.676 0.0035557596 2.6740418e-39 307 237
-0.014223038 0.676 0.0035557596 2.9509832e-39 308 237
-0.013037786 0.676 0.0035557596 3.3197643e-39 309 237
-0.011852534 0.676 0.0035557596 3.7807439e-39 310 237
-0.01066728 0.676 0.0035557596 1.6602444e-39 311 237
-0.0094820261 0.676 0.0035557596 4.3131967e-42 312 237
-0.0082967728 0.676 0.0035557596 8.1193293e-39 313 237
-0.0071325595 0.67799997 0.0035662798 1.4655159e-38 314 237
-0.0059437994 0.67799997 0.0035662798 1.7513582e-38 315 237
-0.0047550397 0.67799997 0.0035662798 1.5492125e-38 316 237
-0.0035662798 0.67799997 0.0035662798 1.4846756e-38 317 237
-0.0023775198 0.67799997 0.0035662798 1.4203187e-38 318 237
-0.0011887599 0.67799997 0.0035662798 1.4110991e-38 319 237
0 0.67799997 0.0035662798 1.4110638e-38 320 237
0.0011887599 0.67799997 0.0035662798 1.3926247e-38 321 237
0.0023775198 0.67799997 0.0035662798 1.3742576e-38 322 237
0.0035662798 0.67799997 0.0035662798 1.365038e-38 323 237
0.0047550397 0.67799997 0.0035662798 1.3742213e-38 324 237
0.0059437994 0.67799997 0.0035662798 1.3742213e-38 325 237
0.0071325595 0.67799997 0.0035662798 1.374221e-38 326 237
0.0083335936 0.67900002 0.0035715401 1.374221e-38 327 237
0.009524107 0.67900002 0.0035715401 1.3650731e-38 328 237
0.0107304 0.68000001 0.0035767998 1.3558535e-38 329 237
0.011922667 0.68000001 0.0035767998 1.3466338e-38 330 237
0.013114933 0.68000001 0.0035767998 1.3466338e-38 331 237
0.014307199 0.68000001 0.0035767998 1.4386481e-38 332 237
0.015545053 0.68199998 0.00358732 1.3003547e-38 333 237
0.016765373 0.68300003 0.0035925799 8.109956e-39 334 237
0.017962901 0.68300003 0.0035925799 2.7626095e-39 335 237
0.01918848 0.68400002 0.00359784 6.4607706e-40 336 237
0.020447372 0.68599999 0.00360836 1.9368117e-39 337 237
0.021681719 0.68699998 0.0036136196 1.6634842e-39 338 237
0.022919573 0.68800002 0.0036188802 1.4794517e-39 339 237
0.024195999 0.69 0.0036293997 1.6627667e-39 340 237
0.025405798 0.69 0.0036293997 1.6627667e-39 341 237
0.026615599 0.69 0.0036293997 1.8457245e-39 342 237
-0.055229999 0.69999999 0.0024546667 7.5578584e-39 275 238
-0.053848371 0.69800001 0.0024476533 9.4943296e-39 276 238
-0.052624546 0.69800001 0.0024476533 1.3458742e-38 277 238
-0.051400717 0.69800001 0.0024476533 1.5580696e-38 278 238
-0.050105009 0.69700003 0.0024441467 1.5949118e-38 279 238
-0.048882935 0.69700003 0.0024441467 1.5215166e-38 280 238
-0.047592476 0.69599998 0.0024406398 1.5215166e-38 281 238
-0.046372157 0.69599998 0.0024406398 1.5399561e-38 282 238
-0.044827472 0.69099998 0.0024231065 1.5583952e-38 283 238
-0.043552797 0.69 0.0024195998 1.5584671e-38 284 238
-0.042220265 0.68800002 0.0024125867 1.5677226e-38 285 238
-0.040954359 0.68699998 0.0024090798 1.5677942e-38 286 238
-0.03957624 0.68400002 0.0023985601 1.6047084e-38 287 238
-0.038320854 0.68300003 0.0023950534 1.6690649e-38 288 238
-0.037068974 0.68199998 0.0023915465 1.5215519e-38 289 238
-0.035873197 0.68199998 0.0023915465 5.9995557e-39 290 238
-0.034677424 0.68199998 0.0023915465 1.4819698e-39 291 238
-0.03348165 0.68199998 0.0023915465 4.7948986e-39 292 238
-0.032285877 0.68199998 0.0023915465 4.8870943e-39 293 238
-0.031090107 0.68199998 0.0023915465 4.7930966e-39 294 238
-0.029894331 0.68199998 0.0023915465 4.5168698e-39 295 238
-0.02869856 0.68199998 0.0023915465 4.2399256e-39 296 238
-0.027502786 0.68199998 0.0023915465 3.8711445e-39 297 238
-0.026229866 0.68000001 0.0023845332 3.8700669e-39 298 238
-0.025037598 0.68000001 0.0023845332 3.5012857e-39 299 238
-0.023810266 0.67900002 0.0023810267 3.0410265e-39 300 238
-0.022619752 0.67900002 0.0023810267 2.7644396e-39 301 238
-0.021397678 0.67799997 0.0023775198 2.2137839e-39 302 238
-0.020208918 0.67799997 0.0023775198 2.2137839e-39 303 238
-0.019020159 0.67799997 0.0023775198 2.3963773e-39 304 238
-0.017778801 0.676 0.0023705065 2.3963773e-39 305 238
-0.016593546 0.676 0.0023705065 2.3059796e-39 306 238
-0.015408293 0.676 0.0023705065 2.3985339e-39 307 238
-0.014223038 0.676 0.0023705065 2.8587904e-39 308 238
-0.013037786 0.676 0.0023705065 3.1353773e-39 309 238
-0.011852534 0.676 0.0023705065 2.7683898e-39 310 238
-0.01066728 0.676 0.0023705065 2.1608022e-42 311 238
-0.0094820261 0.676 0.0023705065 4.1326085e-39 312 238
-0.0082967728 0.676 0.0023705065 1.7312996e-38 313 238
-0.0071115191 0.676 0.0023705065 1.6044213e-38 314 238
-0.0059262668 0.676 0.0023705065 1.5582876e-38 315 238
-0.0047410131 0.676 0.0023705065 1.3927689e-38 316 238
-0.0035662798 0.67799997 0.0023775198 1.3835493e-38 317 238
-0.0023775198 0.67799997 0.0023775198 1.3559985e-38 318 238
-0.0011887599 0.67799997 0.0023775198 1.346779e-38 319 238
0 0.67799997 0.0023775198 1.3559264e-38 320 238
0.0011887599 0.67799997 0.0023775198 1.3467068e-38 321 238
0.0023775198 0.67799997 0.0023775198 1.365038e-38 322 238
0.0035662798 0.67799997 0.0023775198 1.365038e-38 323 238
0.0047550397 0.67799997 0.0023775198 1.3558185e-38 324 238
0.0059437994 0.67799997 0.0023775198 1.3558185e-38 325 238
0.0071325595 0.67799997 0.0023775198 1.3558182e-38 326 238
0.0083335936 0.67900002 0.0023810267 1.3558182e-38 327 238
0.009524107 0.67900002 0.0023810267 1.3557462e-38 328 238
0.0107304 0.68000001 0.0023845332 1.3465266e-38 329 238
0.011922667 0.68000001 0.0023845332 1.328231e-38 330 238
0.013114933 0.68000001 0.0023845332 1.3189755e-38 331 238
0.014307199 0.68000001 0.0023845332 1.392551e-38 332 238
0.015499466 0.68000001 0.0023845332 1.3833313e-38 333 238
0.016740825 0.68199998 0.0023915465 1.2168003e-38 334 238
0.017936599 0.68199998 0.0023915465 6.4518738e-39 335 238
0.019160427 0.68300003 0.0023950534 8.2903059e-40 336 238
0.020357953 0.68300003 0.0023950534 1.6587801e-39 337 238
0.021650158 0.68599999 0.0024055731 2.4889261e-39 338 238
0.022886258 0.68699998 0.0024090798 2.2126979e-39 339 238
0.024125867 0.68800002 0.0024125867 1.6627639e-39 340 238
0.02533216 0.68800002 0.0024125867 1.6627639e-39 341 238
-0.0550722 0.69800001 0.0012238267 7.7404504e-39 275 239
-0.053848371 0.69800001 0.0012238267 1.1154575e-38 276 239
-0.052624546 0.69800001 0.0012238267 1.530338e-38 277 239
-0.051327083 0.69700003 0.0012220733 1.5489945e-38 278 239
-0.050105009 0.69700003 0.0012220733 1.5305195e-38 279 239
-0.048882935 0.69700003 0.0012220733 1.5122251e-38 280 239
-0.047387339 0.69300002 0.00121506 1.5399197e-38 281 239
-0.04617228 0.69300002 0.00121506 1.5399916e-38 282 239
-0.0447626 0.69 0.0012097999 1.5584308e-38 283 239
-0.043426562 0.68800002 0.0012062934 1.5585024e-38 284 239
-0.042220265 0.68800002 0.0012062934 1.567722e-38 285 239
-0.040775519 0.68400002 0.00119928 1.5769418e-38 286 239
-0.03957624 0.68400002 0.00119928 1.6045647e-38 287 239
-0.038320854 0.68300003 0.0011975267 1.6322589e-38 288 239
-0.037068974 0.68199998 0.0011957732 1.5124405e-38 289 239
-0.035873197 0.68199998 0.0011957732 5.7244135e-39 290 239
-0.034677424 0.68199998 0.0011957732 6.5365389e-40 291 239
-0.03348165 0.68199998 0.0011957732 3.873664e-39 292 239
-0.032285877 0.68199998 0.0011957732 4.2420878e-39 293 239
-0.031090107 0.68199998 0.0011957732 4.6072634e-39 294 239
-0.029894331 0.68199998 0.0011957732 4.4228721e-39 295 239
-0.02869856 0.68199998 0.0011957732 4.2381221e-39 296 239
-0.027502786 0.68199998 0.0011957732 3.8696983e-39 297 239
-0.026229866 0.68000001 0.0011922666 3.4094432e-39 298 239
-0.024963958 0.67799997 0.0011887599 3.2246918e-39 299 239
-0.023775198 0.67799997 0.0011887599 2.3978094e-39 300 239
-0.022619752 0.67900002 0.0011905134 2.3056138e-39 301 239
-0.021397678 0.67799997 0.0011887599 2.2127007e-39 302 239
-0.020208918 0.67799997 0.0011887599 2.2127007e-39 303 239
-0.019020159 0.67799997 0.0011887599 2.5793252e-39 304 239
-0.017778801 0.676 0.0011852533 2.5793252e-39 305 239
-0.016593546 0.676 0.0011852533 2.3967332e-39 306 239
-0.015408293 0.676 0.0011852533 2.5811245e-39 307 239
-0.014202001 0.67500001 0.0011834999 2.9488308e-39 308 239
-0.0130185 0.67500001 0.0011834999 2.7644396e-39 309 239
-0.011835 0.67500001 0.0011834999 3.7202653e-40 310 239
-0.0106515 0.67500001 0.0011834999 3.6910692e-39 311 239
-0.0094679995 0.67500001 0.0011834999 1.0136853e-38 312 239
-0.0082844999 0.67500001 0.0011834999 1.7051525e-38 313 239
-0.0071010003 0.67500001 0.0011834999 1.5308816e-38 314 239
-0.0059262668 0.676 0.0011852533 1.4386499e-38 315 239
-0.0047410131 0.676 0.0011852533 1.4018087e-38 316 239
-0.0035557596 0.676 0.0011852533 1.3925891e-38 317 239
-0.0023705065 0.676 0.0011852533 1.365038e-38 318 239
-0.0011887599 0.67799997 0.0011887599 1.3558185e-38 319 239
0 0.67799997 0.0011887599 1.337487e-38 320 239
0.0011887599 0.67799997 0.0011887599 1.337487e-38 321 239
0.0023775198 0.67799997 0.0011887599 1.3374873e-38 322 239
0.0035662798 0.67799997 0.0011887599 1.3374873e-38 323 239
0.0047550397 0.67799997 0.0011887599 1.3282676e-38 324 239
0.0059437994 0.67799997 0.0011887599 1.3374873e-38 325 239
0.0071325595 0.67799997 0.0011887599 1.3465988e-38 326 239
0.0083213197 0.67799997 0.0011887599 1.3465988e-38 327 239
0.009524107 0.67900002 0.0011905134 1.3282673e-38 328 239
0.010714619 0.67900002 0.0011905134 1.3190477e-38 329 239
