# .PCD v.7 - Point Cloud Data file format
FIELDS x y z rgb imX imY
SIZE 4 4 4 4 4 4
TYPE F F F F F F
COUNT 1 1 1 1 1 1
WIDTH 839
HEIGHT 1
VIEWPOINT 0 0 0 1 0 0 0
POINTS 839
DATA ascii
-0.026620859 0.72299999 -0.017747238 1.5994856e-38 299 254
-0.025318133 0.722 -0.017722692 1.5905529e-38 300 254
-0.0239856 0.72000003 -0.017673599 1.5905529e-38 301 254
-0.022723202 0.72000003 -0.017673599 1.6088121e-38 302 254
-0.021460801 0.72000003 -0.017673599 1.6180318e-38 303 254
-0.020170346 0.71899998 -0.017649053 1.6275031e-38 304 254
-0.018909698 0.71899998 -0.017649053 1.6736009e-38 305 254
-0.017599959 0.71700001 -0.017599959 1.5081867e-38 306 254
-0.016342819 0.71700001 -0.017599959 1.3606377e-38 307 254
-0.015085679 0.71700001 -0.017599959 1.2962437e-38 308 254
-0.013809253 0.71600002 -0.017575413 1.3423049e-38 309 254
-0.012553867 0.71600002 -0.017575413 1.4431473e-38 310 254
-0.01129848 0.71600002 -0.017575413 1.701295e-38 311 254
-0.0087263398 0.71100003 -0.01745268 1.2324311e-38 313 254
-0.0074797203 0.71100003 -0.01745268 9.2937155e-39 314 254
-0.0062330998 0.71100003 -0.01745268 1.2520561e-38 315 254
-0.0049864799 0.71100003 -0.01745268 1.674248e-38 316 254
-0.0037398601 0.71100003 -0.01745268 1.7203098e-38 317 254
-0.0024932399 0.71100003 -0.01745268 1.7017245e-38 318 254
-0.00124662 0.71100003 -0.01745268 1.5357725e-38 319 254
0 0.71100003 -0.01745268 1.6737438e-38 320 254
0.00124662 0.71100003 -0.01745268 1.775159e-38 321 254
0.0024932399 0.71100003 -0.01745268 1.5353072e-38 322 254
0.0037398601 0.71100003 -0.01745268 1.2587563e-38 323 254
0.0049864799 0.71100003 -0.01745268 1.1938615e-38 324 254
0.0062330998 0.71100003 -0.01745268 1.4981048e-38 325 254
0.00753232 0.71600002 -0.017575413 1.5720768e-38 326 254
0.0087999795 0.71700001 -0.017599959 1.5720768e-38 327 254
0.01005712 0.71700001 -0.017599959 1.5811516e-38 328 254
0.01131426 0.71700001 -0.017599959 1.5350538e-38 329 254
0.012606465 0.71899998 -0.017649053 1.5075393e-38 330 254
0.013867113 0.71899998 -0.017649053 1.5167589e-38 331 254
0.01512776 0.71899998 -0.017649053 1.2783087e-38 332 254
0.016342819 0.71700001 -0.017599959 1.0662245e-38 333 254
0.017599959 0.71700001 -0.017599959 9.2807899e-39 334 254
0.018857099 0.71700001 -0.017599959 1.2415081e-38 335 254
-0.033323854 0.73100001 -0.019225299 1.7885952e-38 294 255
-0.031910665 0.72799999 -0.0191464 1.3829344e-38 295 255
-0.030634239 0.72799999 -0.0191464 1.3150854e-38 296 255
-0.029317487 0.727 -0.019120099 1.30583e-38 297 255
-0.027965667 0.72500002 -0.0190675 1.5446722e-38 298 255
-0.026620859 0.72299999 -0.019014901 1.5446722e-38 299 255
-0.025318133 0.722 -0.0189886 1.5629661e-38 300 255
-0.0239856 0.72000003 -0.018935999 1.5537466e-38 301 255
-0.022723202 0.72000003 -0.018935999 1.599556e-38 302 255
-0.021460801 0.72000003 -0.018935999 1.6179951e-38 303 255
-0.020114239 0.71700001 -0.018857099 1.6092441e-38 304 255
-0.018857099 0.71700001 -0.018857099 1.6645614e-38 305 255
-0.017575413 0.71600002 -0.0188308 1.4070968e-38 306 255
-0.016320027 0.71600002 -0.0188308 1.1397294e-38 307 255
-0.01506464 0.71600002 -0.0188308 1.2409271e-38 308 255
-0.013751393 0.713 -0.018751899 1.416062e-38 309 255
-0.0124662 0.71100003 -0.0186993 1.6456535e-38 310 255
-0.011203799 0.70999998 -0.018672999 1.8023861e-38 311 255
-0.0099589331 0.70999998 -0.018672999 1.8856859e-38 312 255
-0.0087140659 0.70999998 -0.018672999 1.4062686e-38 313 255
-0.0074691991 0.70999998 -0.018672999 8.9220421e-39 314 255
-0.0062330998 0.71100003 -0.0186993 1.2886454e-38 315 255
-0.0049864799 0.71100003 -0.0186993 1.6102888e-38 316 255
-0.0037398601 0.71100003 -0.0186993 1.5918496e-38 317 255
-0.0024932399 0.71100003 -0.0186993 1.6831076e-38 318 255
-0.00124662 0.71100003 -0.0186993 1.590948e-38 319 255
0 0.71100003 -0.0186993 1.6549447e-38 320 255
0.00124662 0.71100003 -0.0186993 1.5627851e-38 321 255
0.0024932399 0.71100003 -0.0186993 1.5994107e-38 322 255
0.0037398601 0.71100003 -0.0186993 1.4518977e-38 323 255
0.0049864799 0.71100003 -0.0186993 1.2032961e-38 324 255
0.0062330998 0.71100003 -0.0186993 1.4430029e-38 325 255
0.0074797203 0.71100003 -0.0186993 1.5632888e-38 326 255
0.0087877065 0.71600002 -0.0188308 1.4987519e-38 327 255
0.010043093 0.71600002 -0.0188308 1.5535652e-38 328 255
0.01129848 0.71600002 -0.0188308 1.5443455e-38 329 255
0.0125714 0.71700001 -0.018857099 1.535199e-38 330 255
0.013828539 0.71700001 -0.018857099 1.5720412e-38 331 255
0.015085679 0.71700001 -0.018857099 1.4438308e-38 332 255
0.016342819 0.71700001 -0.018857099 1.2778787e-38 333 255
0.017599959 0.71700001 -0.018857099 1.2406431e-38 334 255
0.018857099 0.71700001 -0.018857099 1.2129843e-38 335 255
-0.033323854 0.73100001 -0.020506985 1.7146942e-38 294 256
-0.032042164 0.73100001 -0.020506985 1.2444965e-38 295 256
-0.030634239 0.72799999 -0.020422826 1.2591196e-38 296 256
-0.029317487 0.727 -0.020394772 1.3881935e-38 297 256
-0.028042812 0.727 -0.020394772 1.5354167e-38 298 256
-0.026694499 0.72500002 -0.020338668 1.526197e-38 299 256
-0.025353199 0.72299999 -0.020282559 1.5354156e-38 300 256
-0.0239856 0.72000003 -0.020198401 1.5261602e-38 301 256
-0.022691639 0.71899998 -0.020170346 1.55371e-38 302 256
-0.021371379 0.71700001 -0.020114239 1.5075762e-38 303 256
-0.020114239 0.71700001 -0.020114239 1.4153815e-38 304 256
-0.0188308 0.71600002 -0.020086186 1.4246011e-38 305 256
-0.017575413 0.71600002 -0.020086186 1.3983812e-38 306 256
-0.016320027 0.71600002 -0.020086186 1.4352596e-38 307 256
-0.015001519 0.713 -0.020002026 1.6276809e-38 308 256
-0.013693533 0.70999998 -0.019917866 1.5815832e-38 309 256
-0.0124136 0.708 -0.01986176 1.6546929e-38 310 256
-0.01117224 0.708 -0.01986176 1.7561441e-38 311 256
-0.0099308798 0.708 -0.01986176 1.857883e-38 312 256
-0.008689519 0.708 -0.01986176 1.5536374e-38 313 256
-0.0074481601 0.708 -0.01986176 9.4723446e-39 314 256
-0.0062067998 0.708 -0.01986176 1.2514442e-38 315 256
-0.0049794666 0.70999998 -0.019917866 1.4814683e-38 316 256
-0.0037345996 0.70999998 -0.019917866 1.4814683e-38 317 256
-0.0024897333 0.70999998 -0.019917866 1.6737808e-38 318 256
-0.0012448666 0.70999998 -0.019917866 1.627683e-38 319 256
0 0.70999998 -0.019917866 1.6456886e-38 320 256
0.0012448666 0.70999998 -0.019917866 1.5995907e-38 321 256
0.0024897333 0.70999998 -0.019917866 1.6088456e-38 322 256
0.0037345996 0.70999998 -0.019917866 1.51665e-38 323 256
0.0049864799 0.71100003 -0.01994592 1.212946e-38 324 256
0.0062330998 0.71100003 -0.01994592 1.3420188e-38 325 256
0.0074797203 0.71100003 -0.01994592 1.4163519e-38 326 256
0.0087508867 0.713 -0.020002026 1.4347912e-38 327 256
0.01001504 0.71399999 -0.020030079 1.5259437e-38 328 256
0.01129848 0.71600002 -0.020086186 1.5167241e-38 329 256
0.012553867 0.71600002 -0.020086186 1.5167241e-38 330 256
0.013809253 0.71600002 -0.020086186 1.5535665e-38 331 256
0.015085679 0.71700001 -0.020114239 1.6099277e-38 332 256
0.016342819 0.71700001 -0.020114239 1.56383e-38 333 256
0.017599959 0.71700001 -0.020114239 1.3145421e-38 334 256
0.018857099 0.71700001 -0.020114239 1.0656146e-38 335 256
0.020114239 0.71700001 -0.020114239 1.1113189e-38 336 256
-0.033278264 0.73000002 -0.021758866 1.59466e-38 294 257
-0.031998333 0.73000002 -0.021758866 1.1705961e-38 295 257
-0.030634239 0.72799999 -0.021699252 1.2684831e-38 296 257
-0.029357811 0.72799999 -0.021699252 1.4067766e-38 297 257
-0.028042812 0.727 -0.021669446 1.5079381e-38 298 257
-0.026694499 0.72500002 -0.021609833 1.4986825e-38 299 257
-0.025353199 0.72299999 -0.021550218 1.5262323e-38 300 257
-0.0239856 0.72000003 -0.021460801 1.4986097e-38 301 257
-0.022691639 0.71899998 -0.021430992 1.5169394e-38 302 257
-0.021371379 0.71700001 -0.021371379 1.3786459e-38 303 257
-0.020086186 0.71600002 -0.021341572 1.2493932e-38 304 257
-0.0188308 0.71600002 -0.021341572 1.2309544e-38 305 257
-0.017526319 0.71399999 -0.021281958 1.4811054e-38 306 257
-0.016274439 0.71399999 -0.021281958 1.7392531e-38 307 257
-0.014959441 0.71100003 -0.021192541 1.812361e-38 308 257
-0.013693533 0.70999998 -0.021162732 1.6372253e-38 309 257
-0.0124136 0.708 -0.021103119 1.6637314e-38 310 257
-0.01117224 0.708 -0.021103119 1.7467075e-38 311 257
-0.0099308798 0.708 -0.021103119 1.8301174e-38 312 257
-0.008677247 0.70700002 -0.021073313 1.6825685e-38 313 257
-0.0074376399 0.70700002 -0.021073313 9.7489455e-39 314 257
-0.0061980332 0.70700002 -0.021073313 1.1039684e-38 315 257
-0.0049654399 0.708 -0.021103119 1.3893436e-38 316 257
-0.00372408 0.708 -0.021103119 1.4907588e-38 317 257
-0.0024897333 0.70999998 -0.021162732 1.6737808e-38 318 257
-0.0012448666 0.70999998 -0.021162732 1.6184634e-38 319 257
0 0.70999998 -0.021162732 1.645975e-38 320 257
0.0012448666 0.70999998 -0.021162732 1.5999132e-38 321 257
0.0024897333 0.70999998 -0.021162732 1.6182074e-38 322 257
0.0037345996 0.70999998 -0.021162732 1.5444509e-38 323 257
0.0049794666 0.70999998 -0.021162732 1.3051044e-38 324 257
0.0062243328 0.70999998 -0.021162732 1.3235073e-38 325 257
0.0074797203 0.71100003 -0.021192541 1.241756e-38 326 257
0.0087508867 0.713 -0.021252153 1.3616103e-38 327 257
0.010001013 0.713 -0.021252153 1.5444554e-38 328 257
0.011266919 0.71399999 -0.021281958 1.5075411e-38 329 257
0.012518799 0.71399999 -0.021281958 1.5166888e-38 330 257
0.013809253 0.71600002 -0.021341572 1.5720062e-38 331 257
0.01506464 0.71600002 -0.021341572 1.6837209e-38 332 257
0.016320027 0.71600002 -0.021341572 1.7574774e-38 333 257
0.017575413 0.71600002 -0.021341572 1.5266642e-38 334 257
0.0188308 0.71600002 -0.021341572 1.2224188e-38 335 257
0.020086186 0.71600002 -0.021341572 1.1295774e-38 336 257
-0.033278264 0.73000002 -0.023038799 1.437855e-38 294 258
-0.031998333 0.73000002 -0.023038799 1.0506333e-38 295 258
-0.030634239 0.72799999 -0.022975679 1.2959254e-38 296 258
-0.029317487 0.727 -0.022944121 1.4342189e-38 297 258
-0.028042812 0.727 -0.022944121 1.4986825e-38 298 258
-0.026694499 0.72500002 -0.022880999 1.4618403e-38 299 258
-0.025353199 0.72299999 -0.02281788 1.4894617e-38 300 258
-0.0239856 0.72000003 -0.022723202 1.4894617e-38 301 258
-0.022691639 0.71899998 -0.022691639 1.3879018e-38 302 258
-0.021371379 0.71700001 -0.02262852 1.1666337e-38 303 258
-0.020086186 0.71600002 -0.022596961 1.1857901e-38 304 258
-0.0188308 0.71600002 -0.022596961 1.3241194e-38 305 258
-0.017526319 0.71399999 -0.022533838 1.7200947e-38 306 258
-0.016274439 0.71399999 -0.022533838 1.9414001e-38 307 258
-0.014959441 0.71100003 -0.022439159 1.85882e-38 308 258
-0.013693533 0.70999998 -0.022407599 1.6559896e-38 309 258
-0.012396066 0.70700002 -0.022312919 1.71941e-38 310 258
-0.011156459 0.70700002 -0.022312919 1.6640927e-38 311 258
-0.0099168532 0.70700002 -0.022312919 1.7195548e-38 312 258
-0.0086649731 0.70599997 -0.022281358 1.7010798e-38 313 258
-0.0074271196 0.70599997 -0.022281358 1.0303194e-38 314 258
-0.0061892662 0.70599997 -0.022281358 1.0487585e-38 315 258
-0.0049584266 0.70700002 -0.022312919 1.389451e-38 316 258
-0.0037188199 0.70700002 -0.022312919 1.5277445e-38 317 258
-0.0024792133 0.70700002 -0.022312919 1.7013316e-38 318 258
-0.0012448666 0.70999998 -0.022407599 1.6367947e-38 319 258
0 0.70999998 -0.022407599 1.6647018e-38 320 258
0.0012448666 0.70999998 -0.022407599 1.6186041e-38 321 258
0.0024897333 0.70999998 -0.022407599 1.5999132e-38 322 258
0.0037345996 0.70999998 -0.022407599 1.5353762e-38 323 258
0.0049794666 0.70999998 -0.022407599 1.4522938e-38 324 258
0.0062243328 0.70999998 -0.022407599 1.2679397e-38 325 258
0.0074797203 0.71100003 -0.022439159 9.1961249e-39 326 258
0.0087263398 0.71100003 -0.022439159 1.2976146e-38 327 258
0.010001013 0.713 -0.022502279 1.5538561e-38 328 258
0.011251139 0.713 -0.022502279 1.4616604e-38 329 258
0.012518799 0.71399999 -0.022533838 1.5075046e-38 330 258
0.01377068 0.71399999 -0.022533838 1.5259437e-38 331 258
0.01506464 0.71600002 -0.022596961 1.5728699e-38 332 258
0.016320027 0.71600002 -0.022596961 1.7664808e-38 333 258
0.017526319 0.71399999 -0.022533838 1.8032515e-38 334 258
0.018778199 0.71399999 -0.022533838 1.5174091e-38 335 258
0.020030079 0.71399999 -0.022533838 1.1112095e-38 336 258
-0.033187091 0.72799999 -0.024252106 1.4004357e-38 294 259
-0.031910665 0.72799999 -0.024252106 1.0224695e-38 295 259
-0.030592158 0.727 -0.024218792 1.3422734e-38 296 259
-0.029317487 0.727 -0.024218792 1.3975549e-38 297 259
-0.028042812 0.727 -0.024218792 1.4343964e-38 298 259
-0.026694499 0.72500002 -0.024152167 1.4343964e-38 299 259
-0.025353199 0.72299999 -0.024085538 1.4435791e-38 300 259
-0.0239856 0.72000003 -0.0239856 1.3974453e-38 301 259
-0.022691639 0.71899998 -0.023952285 1.2869913e-38 302 259
-0.021341572 0.71600002 -0.023852346 1.2131989e-38 303 259
-0.020030079 0.71399999 -0.02378572 1.3606399e-38 304 259
-0.018778199 0.71399999 -0.02378572 1.4343964e-38 305 259
-0.01745268 0.71100003 -0.023685781 1.673674e-38 306 259
-0.01620606 0.71100003 -0.023685781 1.9317859e-38 307 259
-0.014938398 0.70999998 -0.023652466 1.8216919e-38 308 259
-0.013654959 0.708 -0.023585839 1.7756301e-38 309 259
-0.012396066 0.70700002 -0.023552528 1.7662288e-38 310 259
-0.011140679 0.70599997 -0.023519212 1.6187157e-38 311 259
-0.0099028256 0.70599997 -0.023519212 1.7105149e-38 312 259
-0.0086649731 0.70599997 -0.023519212 1.6920756e-38 313 259
-0.0074271196 0.70599997 -0.023519212 9.0214404e-39 314 259
-0.0061892662 0.70599997 -0.023519212 9.4824186e-39 315 259
-0.0049514128 0.70599997 -0.023519212 1.3343855e-38 316 259
-0.0037135598 0.70599997 -0.023519212 1.4634594e-38 317 259
-0.0024757064 0.70599997 -0.023519212 1.636975e-38 318 259
-0.0012378532 0.70599997 -0.023519212 1.6277554e-38 319 259
0 0.708 -0.023585839 1.6463716e-38 320 259
0.00124136 0.708 -0.023585839 1.5910902e-38 321 259
0.00248272 0.708 -0.023585839 1.5998776e-38 322 259
0.00372408 0.708 -0.023585839 1.5538156e-38 323 259
0.0049654399 0.708 -0.023585839 1.5257989e-38 324 259
0.0062243328 0.70999998 -0.023652466 1.3045304e-38 325 259
0.0074691991 0.70999998 -0.023652466 8.0858369e-39 326 259
0.0087263398 0.71100003 -0.023685781 1.288001e-38 327 259
0.0099729598 0.71100003 -0.023685781 1.5356337e-38 328 259
0.011251139 0.713 -0.023752406 1.4065598e-38 329 259
0.012518799 0.71399999 -0.02378572 1.4707002e-38 330 259
0.01377068 0.71399999 -0.02378572 1.4799197e-38 331 259
0.015022559 0.71399999 -0.02378572 1.4990431e-38 332 259
0.016274439 0.71399999 -0.02378572 1.6833985e-38 333 259
0.017526319 0.71399999 -0.02378572 1.8125783e-38 334 259
0.018778199 0.71399999 -0.02378572 1.6835044e-38 335 259
0.020030079 0.71399999 -0.02378572 1.1846796e-38 336 259
0.021281958 0.71399999 -0.02378572 1.7654044e-38 337 259
-0.033187091 0.72799999 -0.025528532 1.4277355e-38 294 260
-0.031910665 0.72799999 -0.025528532 1.188027e-38 295 260
-0.030592158 0.727 -0.025493465 1.4443363e-38 296 260
-0.029317487 0.727 -0.025493465 1.3244819e-38 297 260
-0.028042812 0.727 -0.025493465 1.4158494e-38 298 260
-0.026694499 0.72500002 -0.025423333 1.4251048e-38 299 260
-0.025353199 0.72299999 -0.025353199 1.3974106e-38 300 260
-0.023952285 0.71899998 -0.025212931 1.2130193e-38 301 260
-0.02262852 0.71700001 -0.0251428 1.0755175e-38 302 260
-0.021341572 0.71600002 -0.025107734 1.2322141e-38 303 260
-0.020002026 0.713 -0.025002534 1.5169056e-38 304 260
-0.0186993 0.71100003 -0.024932399 1.5353447e-38 305 260
-0.017428132 0.70999998 -0.024897331 1.5352368e-38 306 260
-0.016183265 0.70999998 -0.024897331 1.6182488e-38 307 260
-0.01489632 0.708 -0.024827199 1.7016566e-38 308 260
-0.013654959 0.708 -0.024827199 1.8952674e-38 309 260
-0.012396066 0.70700002 -0.024792133 1.8679307e-38 310 260
-0.011140679 0.70599997 -0.024757065 1.6097829e-38 311 260
-0.0098747732 0.704 -0.024686933 1.7658691e-38 312 260
-0.0086404262 0.704 -0.024686933 1.7105517e-38 313 260
-0.0074060797 0.704 -0.024686933 6.8112704e-39 314 260
-0.0061892662 0.70599997 -0.024757065 6.8112704e-39 315 260
-0.0049514128 0.70599997 -0.024757065 1.2694164e-38 316 260
-0.0037135598 0.70599997 -0.024757065 1.361648e-38 317 260
-0.0024757064 0.70599997 -0.024757065 1.5445273e-38 318 260
-0.0012378532 0.70599997 -0.024757065 1.5352718e-38 319 260
0 0.70599997 -0.024757065 1.5445973e-38 320 260
0.0012396066 0.70700002 -0.024792133 1.5353778e-38 321 260
0.0024792133 0.70700002 -0.024792133 1.5442736e-38 322 260
0.0037188199 0.70700002 -0.024792133 1.5534932e-38 323 260
0.0049584266 0.70700002 -0.024792133 1.4616232e-38 324 260
0.0062067998 0.708 -0.024827199 1.2680124e-38 325 260
0.0074691991 0.70999998 -0.024897331 9.094591e-39 326 260
0.0087140659 0.70999998 -0.024897331 1.204521e-38 327 260
0.0099729598 0.71100003 -0.024932399 1.4615885e-38 328 260
0.01121958 0.71100003 -0.024932399 1.387832e-38 329 260
0.0124662 0.71100003 -0.024932399 1.4431122e-38 330 260
0.013751393 0.713 -0.025002534 1.4431122e-38 331 260
0.015001519 0.713 -0.025002534 1.4528721e-38 332 260
0.016251646 0.713 -0.025002534 1.6004212e-38 333 260
0.017501773 0.713 -0.025002534 1.7206362e-38 334 260
0.018778199 0.71399999 -0.025037598 1.7483307e-38 335 260
0.020030079 0.71399999 -0.025037598 1.2958917e-38 336 260
0.021341572 0.71600002 -0.025107734 1.6923329e-38 337 260
0.02262852 0.71700001 -0.0251428 1.6593418e-38 338 260
0.024152167 0.72500002 -0.025423333 1.7791962e-38 339 260
-0.033187091 0.72799999 -0.026804959 1.4369195e-38 294 261
-0.031910665 0.72799999 -0.026804959 1.2433086e-38 295 261
-0.030592158 0.727 -0.026768139 1.4724275e-38 296 261
-0.029317487 0.727 -0.026768139 1.3340982e-38 297 261
-0.028042812 0.727 -0.026768139 1.4251769e-38 298 261
-0.026768139 0.727 -0.026768139 1.3975182e-38 299 261
-0.025248 0.72000003 -0.026510401 1.3695008e-38 300 261
-0.02388566 0.71700001 -0.02639994 1.3049638e-38 301 261
-0.022596961 0.71600002 -0.026363119 1.2592613e-38 302 261
-0.021281958 0.71399999 -0.026289478 1.4068103e-38 303 261
-0.020002026 0.713 -0.026252659 1.5167255e-38 304 261
-0.0186993 0.71100003 -0.026179021 1.5444201e-38 305 261
-0.017428132 0.70999998 -0.026142199 1.5536399e-38 306 261
-0.016183265 0.70999998 -0.026142199 1.5075061e-38 307 261
-0.01487528 0.70700002 -0.02603174 1.6461593e-38 308 261
-0.013616386 0.70599997 -0.025994917 1.8766483e-38 309 261
-0.012378532 0.70599997 -0.025994917 1.8127951e-38 310 261
-0.011109119 0.704 -0.02592128 1.5177691e-38 311 261
-0.0098747732 0.704 -0.02592128 1.6003508e-38 312 261
-0.0086404262 0.704 -0.02592128 1.3145083e-38 313 261
-0.0074060797 0.704 -0.02592128 3.2235694e-39 314 261
-0.0061717331 0.704 -0.02592128 5.2518705e-39 315 261
-0.0049373866 0.704 -0.02592128 1.2412538e-38 316 261
-0.0037030398 0.704 -0.02592128 1.3519246e-38 317 261
-0.0024686933 0.704 -0.02592128 1.4892818e-38 318 261
-0.0012343467 0.704 -0.02592128 1.4524037e-38 319 261
0 0.70599997 -0.025994917 1.4800251e-38 320 261
0.0012396066 0.70700002 -0.02603174 1.4892447e-38 321 261
0.0024757064 0.70599997 -0.025994917 1.4799888e-38 322 261
0.0037135598 0.70599997 -0.025994917 1.4615138e-38 323 261
0.0049514128 0.70599997 -0.025994917 1.4428604e-38 324 261
0.0061980332 0.70700002 -0.02603174 1.3506648e-38 325 261
0.0074481601 0.708 -0.026068559 9.5555551e-39 326 261
0.008689519 0.708 -0.026068559 1.0938484e-38 327 261
0.0099589331 0.70999998 -0.026142199 1.2686961e-38 328 261
0.011203799 0.70999998 -0.026142199 1.3055744e-38 329 261
0.0124662 0.71100003 -0.026179021 1.4156349e-38 330 261
0.01371282 0.71100003 -0.026179021 1.4432936e-38 331 261
0.014959441 0.71100003 -0.026179021 1.4160312e-38 332 261
0.01620606 0.71100003 -0.026179021 1.5174824e-38 333 261
0.017501773 0.713 -0.026252659 1.6750424e-38 334 261
0.018751899 0.713 -0.026252659 1.6012859e-38 335 261
0.020030079 0.71399999 -0.026289478 1.2220999e-38 336 261
0.021341572 0.71600002 -0.026363119 1.6370161e-38 337 261
0.02262852 0.71700001 -0.02639994 1.548779e-38 338 261
0.024152167 0.72500002 -0.026694499 1.7516095e-38 339 261
0.025423333 0.72500002 -0.026694499 1.7424621e-38 340 261
-0.031998333 0.73000002 -0.028158534 1.2618201e-38 295 262
-0.030634239 0.72799999 -0.028081384 1.5002304e-38 296 262
-0.029357811 0.72799999 -0.028081384 1.3803761e-38 297 262
-0.028081384 0.72799999 -0.028081384 1.4347208e-38 298 262
-0.026694499 0.72500002 -0.027965667 1.3517448e-38 299 262
-0.025248 0.72000003 -0.027772799 1.2868481e-38 300 262
-0.023852346 0.71600002 -0.027618507 1.2684449e-38 301 262
-0.022596961 0.71600002 -0.027618507 1.2686964e-38 302 262
-0.021252153 0.713 -0.027502786 1.3700757e-38 303 262
-0.01994592 0.71100003 -0.027425639 1.5167244e-38 304 262
-0.0186204 0.708 -0.027309919 1.5535668e-38 305 262
-0.017354494 0.70700002 -0.027271347 1.5719343e-38 306 262
-0.016114887 0.70700002 -0.027271347 1.6087765e-38 307 262
-0.014854239 0.70599997 -0.027232772 1.6276851e-38 308 262
-0.013616386 0.70599997 -0.027232772 1.8673579e-38 309 262
-0.012378532 0.70599997 -0.027232772 1.739363e-38 310 262
-0.011109119 0.704 -0.027155625 1.3613609e-38 311 262
-0.0098747732 0.704 -0.027155625 1.34249e-38 312 262
-0.0086281532 0.70300001 -0.027117053 8.4488656e-39 313 262
-0.0073955595 0.70300001 -0.027117053 6.453596e-40 314 262
-0.0061717331 0.704 -0.027155625 4.9788793e-39 315 262
-0.0049373866 0.704 -0.027155625 1.2594062e-38 316 262
-0.0037030398 0.704 -0.027155625 1.3147236e-38 317 262
-0.0024686933 0.704 -0.027155625 1.4062714e-38 318 262
-0.0012343467 0.704 -0.027155625 1.4246746e-38 319 262
0 0.70599997 -0.027232772 1.4061985e-38 320 262
0.0012378532 0.70599997 -0.027232772 1.4061985e-38 321 262
0.0024757064 0.70599997 -0.027232772 1.3970866e-38 322 262
0.0037135598 0.70599997 -0.027232772 1.3970866e-38 323 262
0.0049514128 0.70599997 -0.027232772 1.4062708e-38 324 262
0.0061892662 0.70599997 -0.027232772 1.3325143e-38 325 262
0.0074376399 0.70700002 -0.027271347 1.0477516e-38 326 262
0.008677247 0.70700002 -0.027271347 9.5551992e-39 327 262
0.0099308798 0.708 -0.027309919 1.0848093e-38 328 262
0.01117224 0.708 -0.027309919 1.2138832e-38 329 262
0.012448666 0.70999998 -0.027387066 1.3972312e-38 330 262
0.01371282 0.71100003 -0.027425639 1.4248897e-38 331 262
0.014959441 0.71100003 -0.027425639 1.4068119e-38 332 262
0.01620606 0.71100003 -0.027425639 1.4897879e-38 333 262
0.01745268 0.71100003 -0.027425639 1.6288019e-38 334 262
0.0186993 0.71100003 -0.027425639 1.4536304e-38 335 262
0.01994592 0.71100003 -0.027425639 1.1479476e-38 336 262
0.021281958 0.71399999 -0.02754136 1.5995627e-38 337 262
0.022596961 0.71600002 -0.027618507 1.493102e-38 338 262
0.024152167 0.72500002 -0.027965667 1.7973835e-38 339 262
0.025423333 0.72500002 -0.027965667 1.7516817e-38 340 262
-0.028081384 0.72799999 -0.029357811 1.48107e-38 298 263
-0.026694499 0.72500002 -0.029236834 1.2413974e-38 299 263
-0.025212931 0.71899998 -0.028994869 1.1764285e-38 300 263
-0.02378572 0.71399999 -0.028793238 1.2778078e-38 301 263
-0.022502279 0.713 -0.028752912 1.3606399e-38 302 263
-0.021192541 0.71100003 -0.028672259 1.3882986e-38 303 263
-0.019917866 0.70999998 -0.028631933 1.4891733e-38 304 263
-0.018594101 0.70700002 -0.028510952 1.5352353e-38 305 263
-0.017329946 0.70599997 -0.028470624 1.5537468e-38 306 263
-0.016092092 0.70599997 -0.028470624 1.6275033e-38 307 263
-0.014854239 0.70599997 -0.028470624 1.6830748e-38 308 263
-0.013577812 0.704 -0.028389972 1.766015e-38 309 263
-0.012343466 0.704 -0.028389972 1.6283332e-38 310 263
-0.011109119 0.704 -0.028389972 1.3609659e-38 311 263
-0.0098607466 0.70300001 -0.028349647 1.1767545e-38 312 263
-0.0086281532 0.70300001 -0.028349647 8.1733592e-39 313 263
-0.0073955595 0.70300001 -0.028349647 1.9303391e-39 314 263
-0.0061629666 0.70300001 -0.028349647 6.7241223e-39 315 263
-0.0049303733 0.70300001 -0.028349647 1.2960326e-38 316 263
-0.0037030398 0.704 -0.028389972 1.3144718e-38 317 263
-0.0024686933 0.704 -0.028389972 1.3970515e-38 318 263
-0.0012343467 0.704 -0.028389972 1.3970515e-38 319 263
0 0.704 -0.028389972 1.4061629e-38 320 263
0.0012378532 0.70599997 -0.028470624 1.4061629e-38 321 263
0.0024757064 0.70599997 -0.028470624 1.3879389e-38 322 263
0.0037135598 0.70599997 -0.028470624 1.3971585e-38 323 263
0.0049514128 0.70599997 -0.028470624 1.3696796e-38 324 263
0.0061892662 0.70599997 -0.028470624 1.3512406e-38 325 263
0.0074271196 0.70599997 -0.028470624 1.1673904e-38 326 263
0.0086649731 0.70599997 -0.028470624 9.5534041e-39 327 263
0.0099168532 0.70700002 -0.028510952 9.834307e-39 328 263
0.011156459 0.70700002 -0.028510952 1.2139198e-38 329 263
0.0124136 0.708 -0.02855128 1.3697523e-38 330 263
0.013693533 0.70999998 -0.028631933 1.397375e-38 331 263
0.014959441 0.71100003 -0.028672259 1.3975201e-38 332 263
0.01620606 0.71100003 -0.028672259 1.4528374e-38 333 263
0.01745268 0.71100003 -0.028672259 1.4900047e-38 334 263
0.0186993 0.71100003 -0.028672259 1.3609308e-38 335 263
0.019917866 0.70999998 -0.028631933 1.1203961e-38 336 263
0.021162732 0.70999998 -0.028631933 1.4705241e-38 337 263
0.022439159 0.71100003 -0.028672259 1.4190218e-38 338 263
0.023685781 0.71100003 -0.028672259 1.8339021e-38 339 263
-0.026694499 0.72500002 -0.030508002 1.250941e-38 299 264
-0.0251428 0.71700001 -0.030171359 1.1581337e-38 300 264
-0.02378572 0.71399999 -0.030045118 1.2779878e-38 301 264
-0.022502279 0.713 -0.030003037 1.3606043e-38 302 264
-0.021162732 0.70999998 -0.029876797 1.3882989e-38 303 264
-0.01986176 0.708 -0.02979264 1.4616588e-38 304 264
-0.018567799 0.70599997 -0.029708479 1.5169762e-38 305 264
-0.017329946 0.70599997 -0.029708479 1.5445996e-38 306 264
-0.016092092 0.70599997 -0.029708479 1.6275398e-38 307 264
-0.014854239 0.70599997 -0.029708479 1.6741423e-38 308 264
-0.013577812 0.704 -0.029624319 1.6649228e-38 309 264
-0.012343466 0.704 -0.029624319 1.5357414e-38 310 264
-0.01109334 0.70300001 -0.029582238 1.3697891e-38 311 264
-0.0098607466 0.70300001 -0.029582238 1.0023387e-38 312 264
-0.0086281532 0.70300001 -0.029582238 7.3497138e-39 313 264
-0.0073955595 0.70300001 -0.029582238 3.3114588e-39 314 264
-0.0061629666 0.70300001 -0.029582238 7.5524438e-39 315 264
-0.0049303733 0.70300001 -0.029582238 1.3420935e-38 316 264
-0.0037030398 0.704 -0.029624319 1.332838e-38 317 264
-0.0024686933 0.704 -0.029624319 1.3695721e-38 318 264
-0.0012343467 0.704 -0.029624319 1.3603525e-38 319 264
0 0.704 -0.029624319 1.3603162e-38 320 264
0.0012378532 0.70599997 -0.029708479 1.3695358e-38 321 264
0.0024686933 0.704 -0.029624319 1.3512406e-38 322 264
0.0037030398 0.704 -0.029624319 1.3696796e-38 323 264
0.0049373866 0.704 -0.029624319 1.3513834e-38 324 264
0.0061717331 0.704 -0.029624319 1.3606029e-38 325 264
0.0074271196 0.70599997 -0.029708479 1.2682645e-38 326 264
0.0086649731 0.70599997 -0.029708479 9.6427271e-39 327 264
0.0099028256 0.70599997 -0.029708479 9.006347e-39 328 264
0.011140679 0.70599997 -0.029708479 1.1864053e-38 329 264
0.012396066 0.70700002 -0.029750559 1.3514579e-38 330 264
0.013693533 0.70999998 -0.029876797 1.3606775e-38 331 264
0.014938398 0.70999998 -0.029876797 1.3881932e-38 332 264
0.016183265 0.70999998 -0.029876797 1.4250356e-38 333 264
0.017428132 0.70999998 -0.029876797 1.4067044e-38 334 264
0.0186993 0.71100003 -0.029918881 1.3145086e-38 335 264
0.019917866 0.70999998 -0.029876797 1.1203946e-38 336 264
0.021162732 0.70999998 -0.029876797 1.3324445e-38 337 264
0.022439159 0.71100003 -0.029918881 1.3542678e-38 338 264
0.023685781 0.71100003 -0.029918881 1.8705633e-38 339 264
-0.02639994 0.71700001 -0.031428497 1.297363e-38 299 265
-0.025037598 0.71399999 -0.031296998 1.2506889e-38 300 265
-0.023752406 0.713 -0.031253166 1.2875311e-38 301 265
-0.022439159 0.71100003 -0.031165501 1.3790074e-38 302 265
-0.021162732 0.70999998 -0.031121666 1.3790074e-38 303 265
-0.019833706 0.70700002 -0.030990168 1.4707349e-38 304 265
-0.018567799 0.70599997 -0.030946331 1.4984295e-38 305 265
-0.017280852 0.704 -0.030858666 1.5444198e-38 306 265
-0.016046507 0.704 -0.030858666 1.6366153e-38 307 265
-0.014812159 0.704 -0.030858666 1.6003856e-38 308 265
-0.013577812 0.704 -0.030858666 1.5081898e-38 309 265
-0.012343466 0.704 -0.030858666 1.4893914e-38 310 265
-0.01109334 0.70300001 -0.030814834 1.3879763e-38 311 265
-0.0098607466 0.70300001 -0.030814834 8.3699795e-39 312 265
-0.0086036054 0.70099998 -0.030727165 6.3416757e-39 313 265
-0.0073745195 0.70099998 -0.030727165 4.5049616e-39 314 265
-0.0061629666 0.70300001 -0.030814834 8.8381436e-39 315 265
-0.0049303733 0.70300001 -0.030814834 1.3605676e-38 316 265
-0.0036977797 0.70300001 -0.030814834 1.3144699e-38 317 265
-0.0024651866 0.70300001 -0.030814834 1.3604231e-38 318 265
-0.0012343467 0.704 -0.030858666 1.3512036e-38 319 265
0 0.704 -0.030858666 1.3603159e-38 320 265
0.0012343467 0.704 -0.030858666 1.3510964e-38 321 265
0.0024686933 0.704 -0.030858666 1.3328015e-38 322 265
0.0037030398 0.704 -0.030858666 1.342021e-38 323 265
0.0049373866 0.704 -0.030858666 1.3328015e-38 324 265
0.0061717331 0.704 -0.030858666 1.3512406e-38 325 265
0.0074060797 0.704 -0.030858666 1.277773e-38 326 265
0.0086404262 0.704 -0.030858666 8.6325366e-39 327 265
0.0098747732 0.704 -0.030858666 7.9932811e-39 328 265
0.011109119 0.704 -0.030858666 1.1312683e-38 329 265
0.012378532 0.70599997 -0.030946331 1.3422025e-38 330 265
0.013654959 0.708 -0.031034 1.3422025e-38 331 265
0.014938398 0.70999998 -0.031121666 1.3697523e-38 332 265
0.016183265 0.70999998 -0.031121666 1.397375e-38 333 265
0.017428132 0.70999998 -0.031121666 1.3973387e-38 334 265
0.0186993 0.71100003 -0.031165501 1.3328017e-38 335 265
0.019917866 0.70999998 -0.031121666 1.1300808e-38 336 265
0.021162732 0.70999998 -0.031121666 1.2222405e-38 337 265
0.022439159 0.71100003 -0.031165501 1.280367e-38 338 265
0.023685781 0.71100003 -0.031165501 1.8888583e-38 339 265
-0.026363119 0.71600002 -0.032640055 1.3251306e-38 299 266
-0.025037598 0.71399999 -0.032548878 1.26034e-38 300 266
-0.023685781 0.71100003 -0.032412119 1.2419009e-38 301 266
-0.022407599 0.70999998 -0.032366529 1.4065936e-38 302 266
-0.021103119 0.708 -0.03227536 1.4065936e-38 303 266
-0.019833706 0.70700002 -0.032229774 1.4524403e-38 304 266
-0.018567799 0.70599997 -0.032184184 1.4709154e-38 305 266
-0.017280852 0.704 -0.032093015 1.5168706e-38 306 266
-0.016046507 0.704 -0.032093015 1.5629684e-38 307 266
-0.014812159 0.704 -0.032093015 1.5170152e-38 308 266
-0.013577812 0.704 -0.032093015 1.4616978e-38 309 266
-0.012325933 0.70300001 -0.032047424 1.4157075e-38 310 266
-0.01109334 0.70300001 -0.032047424 1.3050367e-38 311 266
-0.0098326923 0.70099998 -0.031956252 5.7953515e-39 312 266
-0.0086036054 0.70099998 -0.031956252 5.334732e-39 313 266
-0.0073745195 0.70099998 -0.031956252 6.163764e-39 314 266
-0.0061454331 0.70099998 -0.031956252 8.653046e-39 315 266
-0.0049303733 0.70300001 -0.032047424 1.3330168e-38 316 266
-0.0036977797 0.70300001 -0.032047424 1.3145418e-38 317 266
-0.0024651866 0.70300001 -0.032047424 1.3328733e-38 318 266
-0.0012325933 0.70300001 -0.032047424 1.3144702e-38 319 266
0 0.704 -0.032093015 1.3235466e-38 320 266
0.0012343467 0.704 -0.032093015 1.3235466e-38 321 266
0.0024686933 0.704 -0.032093015 1.3144349e-38 322 266
0.0037030398 0.704 -0.032093015 1.3052154e-38 323 266
0.0049373866 0.704 -0.032093015 1.3235819e-38 324 266
0.0061717331 0.704 -0.032093015 1.342021e-38 325 266
0.0074060797 0.704 -0.032093015 1.2957808e-38 326 266
0.0086404262 0.704 -0.032093015 9.3672206e-39 327 266
0.0098747732 0.704 -0.032093015 7.1642463e-39 328 266
0.011109119 0.704 -0.032093015 1.1036463e-38 329 266
0.012378532 0.70599997 -0.032184184 1.3054687e-38 330 266
0.013654959 0.708 -0.03227536 1.296249e-38 331 266
0.014938398 0.70999998 -0.032366529 1.3146517e-38 332 266
0.016183265 0.70999998 -0.032366529 1.3330548e-38 333 266
0.017428132 0.70999998 -0.032366529 1.3329459e-38 334 266
0.0186993 0.71100003 -0.032412119 1.3052872e-38 335 266
0.01994592 0.71100003 -0.032412119 1.1304045e-38 336 266
0.021192541 0.71100003 -0.032412119 1.1027818e-38 337 266
0.022439159 0.71100003 -0.032412119 1.2155778e-38 338 266
0.023685781 0.71100003 -0.032412119 1.9162644e-38 339 266
-0.026363119 0.71600002 -0.03389544 1.3437502e-38 299 267
-0.025002534 0.713 -0.033753417 1.2700282e-38 300 267
-0.023685781 0.71100003 -0.033658739 1.2423694e-38 301 267
-0.022407599 0.70999998 -0.033611398 1.3795462e-38 302 267
-0.021103119 0.708 -0.033516716 1.3242289e-38 303 267
-0.019805651 0.70599997 -0.033422034 1.4431478e-38 304 267
-0.018515198 0.704 -0.03332736 1.4707705e-38 305 267
-0.017280852 0.704 -0.03332736 1.4982497e-38 306 267
-0.016046507 0.704 -0.03332736 1.5166888e-38 307 267
-0.014812159 0.704 -0.03332736 1.507362e-38 308 267
-0.013558527 0.70300001 -0.033280019 1.507362e-38 309 267
-0.012325933 0.70300001 -0.033280019 1.3425267e-38 310 267
-0.01109334 0.70300001 -0.033280019 9.7374423e-39 311 267
-0.0098326923 0.70099998 -0.03318534 0 312 267
-0.0086036054 0.70099998 -0.03318534 2.857326e-39 313 267
-0.0073745195 0.70099998 -0.03318534 9.466263e-39 314 267
-0.0061454331 0.70099998 -0.03318534 1.121798e-38 315 267
-0.0049303733 0.70300001 -0.033280019 1.3235819e-38 316 267
-0.0036977797 0.70300001 -0.033280019 1.3143623e-38 317 267
-0.0024651866 0.70300001 -0.033280019 1.3235097e-38 318 267
-0.0012325933 0.70300001 -0.033280019 1.3419487e-38 319 267
0 0.704 -0.03332736 1.3419131e-38 320 267
0.0012343467 0.704 -0.03332736 1.32351e-38 321 267
0.0024651866 0.70300001 -0.033280019 1.3143267e-38 322 267
0.0036977797 0.70300001 -0.033280019 1.3143267e-38 323 267
0.0049373866 0.704 -0.03332736 1.2959958e-38 324 267
0.0061717331 0.704 -0.03332736 1.2959958e-38 325 267
0.0074060797 0.704 -0.03332736 1.2318204e-38 326 267
0.0086404262 0.704 -0.03332736 8.6325366e-39 327 267
0.0098747732 0.704 -0.03332736 6.2476836e-39 328 267
0.011109119 0.704 -0.03332736 9.8433118e-39 329 267
0.012378532 0.70599997 -0.033422034 1.2777009e-38 330 267
0.013654959 0.708 -0.033516716 1.2869204e-38 331 267
0.014938398 0.70999998 -0.033611398 1.3144699e-38 332 267
0.016183265 0.70999998 -0.033611398 1.3421285e-38 333 267
0.01745268 0.71100003 -0.033658739 1.3329089e-38 334 267
0.018751899 0.713 -0.033753417 1.3329089e-38 335 267
0.020002026 0.713 -0.033753417 1.1492759e-38 336 267
0.021252153 0.713 -0.033753417 1.0294216e-38 337 267
0.022502279 0.713 -0.033753417 1.1047638e-38 338 267
0.023852346 0.71600002 -0.03389544 1.8976462e-38 339 267
0.025107734 0.71600002 -0.03389544 1.7517167e-38 340 267
-0.026289478 0.71399999 -0.035052639 1.389884e-38 299 268
-0.025002534 0.713 -0.035003547 1.3437122e-38 300 268
-0.023685781 0.71100003 -0.034905359 1.3068341e-38 301 268
-0.022407599 0.70999998 -0.034856264 1.4073476e-38 302 268
-0.021073313 0.70700002 -0.034708988 1.3335552e-38 303 268
-0.019805651 0.70599997 -0.034659892 1.4249245e-38 304 268
-0.018515198 0.704 -0.034561705 1.4249245e-38 305 268
-0.017280852 0.704 -0.034561705 1.4522968e-38 306 268
-0.016046507 0.704 -0.034561705 1.4799194e-38 307 268
-0.014812159 0.704 -0.034561705 1.4891396e-38 308 268
-0.013558527 0.70300001 -0.034512613 1.4706646e-38 309 268
-0.012325933 0.70300001 -0.034512613 1.1127585e-38 310 268
-0.01109334 0.70300001 -0.034512613 8.0851306e-39 311 268
-0.0098607466 0.70300001 -0.034512613 9.1835496e-41 312 268
-0.0086281532 0.70300001 -0.034512613 3.9636666e-39 313 268
-0.0073955595 0.70300001 -0.034512613 1.057008e-38 314 268
-0.0061629666 0.70300001 -0.034512613 1.1860819e-38 315 268
-0.0049303733 0.70300001 -0.034512613 1.2685532e-38 316 268
-0.0036977797 0.70300001 -0.034512613 1.2685532e-38 317 268
-0.0024651866 0.70300001 -0.034512613 1.2777364e-38 318 268
-0.0012325933 0.70300001 -0.034512613 1.2777364e-38 319 268
0 0.70300001 -0.034512613 1.2777009e-38 320 268
0.0012325933 0.70300001 -0.034512613 1.2684813e-38 321 268
0.0024651866 0.70300001 -0.034512613 1.2868125e-38 322 268
0.0036977797 0.70300001 -0.034512613 1.2868125e-38 323 268
0.0049373866 0.704 -0.034561705 1.2685163e-38 324 268
0.0061717331 0.704 -0.034561705 1.2500771e-38 325 268
0.0074060797 0.704 -0.034561705 1.2589749e-38 326 268
0.0086404262 0.704 -0.034561705 9.9182336e-39 327 268
0.0099028256 0.70599997 -0.034659892 5.5137171e-39 328 268
0.011140679 0.70599997 -0.034659892 9.3859265e-39 329 268
0.012378532 0.70599997 -0.034659892 1.2594415e-38 330 268
0.013654959 0.708 -0.034758076 1.250222e-38 331 268
0.014938398 0.70999998 -0.034856264 1.2778083e-38 332 268
0.016183265 0.70999998 -0.034856264 1.2778083e-38 333 268
0.01745268 0.71100003 -0.034905359 1.2685532e-38 334 268
0.0186993 0.71100003 -0.034905359 1.2777727e-38 335 268
0.020002026 0.713 -0.035003547 1.1952661e-38 336 268
0.021252153 0.713 -0.035003547 1.0384977e-38 337 268
0.022502279 0.713 -0.035003547 1.0397948e-38 338 268
0.02378572 0.71399999 -0.035052639 1.9064339e-38 339 268
0.025037598 0.71399999 -0.035052639 1.7424974e-38 340 268
-0.026289478 0.71399999 -0.036304519 1.4176505e-38 299 269
-0.024932399 0.71100003 -0.036151983 1.3898475e-38 300 269
-0.023652466 0.70999998 -0.036101133 1.3621886e-38 301 269
-0.022407599 0.70999998 -0.036101133 1.4535195e-38 302 269
-0.021073313 0.70700002 -0.035948593 1.3336652e-38 303 269
-0.019805651 0.70599997 -0.035897743 1.4157775e-38 304 269
-0.018515198 0.704 -0.035796054 1.3973384e-38 305 269
-0.017280852 0.704 -0.035796054 1.4431122e-38 306 269
-0.016046507 0.704 -0.035796054 1.4984295e-38 307 269
-0.014812159 0.704 -0.035796054 1.5079025e-38 308 269
-0.013577812 0.704 -0.035796054 1.4341459e-38 309 269
-0.012325933 0.70300001 -0.035745207 8.7344685e-39 310 269
-0.01109334 0.70300001 -0.035745207 6.7061646e-39 311 269
-0.0098326923 0.70099998 -0.035643511 1.6551913e-39 312 269
-0.0086036054 0.70099998 -0.035643511 5.5274022e-39 313 269
-0.0073745195 0.70099998 -0.035643511 1.1490238e-38 314 269
-0.0061454331 0.70099998 -0.035643511 1.2227803e-38 315 269
-0.0049303733 0.70300001 -0.035745207 1.2412541e-38 316 269
-0.0036872597 0.70099998 -0.035643511 1.222851e-38 317 269
-0.0024581731 0.70099998 -0.035643511 1.2686611e-38 318 269
-0.0012325933 0.70300001 -0.035745207 1.250222e-38 319 269
0 0.70300001 -0.035745207 1.2685179e-38 320 269
0.0012325933 0.70300001 -0.035745207 1.2685179e-38 321 269
0.0024651866 0.70300001 -0.035745207 1.2685535e-38 322 269
0.0036977797 0.70300001 -0.035745207 1.2501503e-38 323 269
0.0049303733 0.70300001 -0.035745207 1.2501498e-38 324 269
0.0061717331 0.704 -0.035796054 1.2317105e-38 325 269
0.0074060797 0.704 -0.035796054 1.2315686e-38 326 269
0.0086404262 0.704 -0.035796054 9.6427299e-39 327 269
0.0099028256 0.70599997 -0.035897743 4.8723092e-39 328 269
0.011140679 0.70599997 -0.035897743 8.7445256e-39 329 269
0.012378532 0.70599997 -0.035897743 1.241219e-38 330 269
0.013654959 0.708 -0.03599944 1.2043409e-38 331 269
0.014938398 0.70999998 -0.036101133 1.2502217e-38 332 269
0.016183265 0.70999998 -0.036101133 1.2410021e-38 333 269
0.01745268 0.71100003 -0.036151983 1.2409668e-38 334 269
0.0186993 0.71100003 -0.036151983 1.2594418e-38 335 269
0.020002026 0.713 -0.036253672 1.2045207e-38 336 269
0.021252153 0.713 -0.036253672 1.0109099e-38 337 269
0.022502279 0.713 -0.036253672 1.0021239e-38 338 269
0.02378572 0.71399999 -0.036304519 1.9793974e-38 339 269
0.025107734 0.71600002 -0.036406212 1.7240936e-38 340 269
0.026363119 0.71600002 -0.036406212 1.6872153e-38 341 269
-0.026179021 0.71100003 -0.037398599 1.4544563e-38 299 270
-0.024897331 0.70999998 -0.037345998 1.4084304e-38 300 270
-0.023652466 0.70999998 -0.037345998 1.3715881e-38 301 270
-0.022407599 0.70999998 -0.037345998 1.4902899e-38 302 270
-0.021103119 0.708 -0.0372408 1.3704357e-38 303 270
-0.019805651 0.70599997 -0.037135597 1.4249248e-38 304 270
-0.018515198 0.704 -0.037030395 1.3880465e-38 305 270
-0.017280852 0.704 -0.037030395 1.4248532e-38 306 270
-0.016046507 0.704 -0.037030395 1.4616954e-38 307 270
-0.014812159 0.704 -0.037030395 1.3790453e-38 308 270
-0.013577812 0.704 -0.037030395 1.2776661e-38 309 270
-0.012325933 0.70300001 -0.036977798 5.7928501e-39 310 270
-0.011061779 0.70099998 -0.036872596 4.5021113e-39 311 270
-0.0098326923 0.70099998 -0.036872596 3.4007916e-39 312 270
-0.0086036054 0.70099998 -0.036872596 6.904227e-39 313 270
-0.0073745195 0.70099998 -0.036872596 1.2135605e-38 314 270
-0.0061454331 0.70099998 -0.036872596 1.2596583e-38 315 270
-0.0049163462 0.70099998 -0.036872596 1.2231391e-38 316 270
-0.0036872597 0.70099998 -0.036872596 1.2139195e-38 317 270
-0.0024581731 0.70099998 -0.036872596 1.2321074e-38 318 270
-0.0012290865 0.70099998 -0.036872596 1.2044128e-38 319 270
0 0.70300001 -0.036977798 1.231892e-38 320 270
0.0012325933 0.70300001 -0.036977798 1.1950496e-38 321 270
0.0024651866 0.70300001 -0.036977798 1.2408953e-38 322 270
0.0036977797 0.70300001 -0.036977798 1.2408953e-38 323 270
0.0049303733 0.70300001 -0.036977798 1.2316752e-38 324 270
0.0061629666 0.70300001 -0.036977798 1.2316752e-38 325 270
0.0074060797 0.704 -0.037030395 1.2406446e-38 326 270
0.0086404262 0.704 -0.037030395 9.8264037e-39 327 270
0.0099028256 0.70599997 -0.037135597 5.0556214e-39 328 270
0.011140679 0.70599997 -0.037135597 8.5590568e-39 329 270
0.012378532 0.70599997 -0.037135597 1.2043412e-38 330 270
0.013654959 0.708 -0.0372408 1.1858661e-38 331 270
0.014938398 0.70999998 -0.037345998 1.2317474e-38 332 270
0.016183265 0.70999998 -0.037345998 1.2317474e-38 333 270
0.01745268 0.71100003 -0.037398599 1.2133806e-38 334 270
0.0186993 0.71100003 -0.037398599 1.2594784e-38 335 270
0.020002026 0.713 -0.037503798 1.2230675e-38 336 270
0.021252153 0.713 -0.037503798 1.0939936e-38 337 270
0.022533838 0.71399999 -0.037556399 1.1032503e-38 338 270
0.02378572 0.71399999 -0.037556399 2.015987e-38 339 270
0.025107734 0.71600002 -0.037661601 1.7332408e-38 340 270
0.026363119 0.71600002 -0.037661601 1.7239854e-38 341 270
-0.027425639 0.71100003 -0.038645219 1.5376477e-38 298 271
-0.026179021 0.71100003 -0.038645219 1.4638912e-38 299 271
-0.024897331 0.70999998 -0.038590867 1.4085384e-38 300 271
-0.023652466 0.70999998 -0.038590867 1.37166e-38 301 271
-0.022407599 0.70999998 -0.038590867 1.4813221e-38 302 271
-0.021103119 0.708 -0.038482159 1.3799428e-38 303 271
-0.019805651 0.70599997 -0.038373452 1.4252116e-38 304 271
-0.018515198 0.704 -0.038264744 1.3791138e-38 305 271
-0.017280852 0.704 -0.038264744 1.3973021e-38 306 271
-0.016046507 0.704 -0.038264744 1.3880465e-38 307 271
-0.014812159 0.704 -0.038264744 1.1950507e-38 308 271
-0.013558527 0.70300001 -0.038210396 1.0844518e-38 309 271
-0.012290866 0.70099998 -0.038101684 3.8624956e-39 310 271
-0.011061779 0.70099998 -0.038101684 3.58555e-39 311 271
-0.0098326923 0.70099998 -0.038101684 5.8825122e-39 312 271
-0.0086036054 0.70099998 -0.038101684 8.5561855e-39 313 271
-0.0073745195 0.70099998 -0.038101684 1.2596233e-38 314 271
-0.0061454331 0.70099998 -0.038101684 1.287282e-38 315 271
-0.0049163462 0.70099998 -0.038101684 1.2324685e-38 316 271
-0.0036872597 0.70099998 -0.038101684 1.2232488e-38 317 271
-0.0024581731 0.70099998 -0.038101684 1.2230324e-38 318 271
-0.0012290865 0.70099998 -0.038101684 1.1861182e-38 319 271
0 0.70300001 -0.038210396 1.2133452e-38 320 271
0.0012325933 0.70300001 -0.038210396 1.1949061e-38 321 271
0.0024651866 0.70300001 -0.038210396 1.2223131e-38 322 271
0.0036977797 0.70300001 -0.038210396 1.2315686e-38 323 271
0.0049303733 0.70300001 -0.038210396 1.2040888e-38 324 271
0.0061629666 0.70300001 -0.038210396 1.1948693e-38 325 271
0.0074060797 0.704 -0.038264744 1.2314604e-38 326 271
0.0086404262 0.704 -0.038264744 9.7345626e-39 327 271
0.0099028256 0.70599997 -0.038373452 5.3286112e-39 328 271
0.011140679 0.70599997 -0.038373452 8.9238694e-39 329 271
0.012396066 0.70700002 -0.038427804 1.1949414e-38 330 271
0.013654959 0.708 -0.038482159 1.1857219e-38 331 271
0.014938398 0.70999998 -0.038590867 1.213309e-38 332 271
0.016183265 0.70999998 -0.038590867 1.2317121e-38 333 271
0.01745268 0.71100003 -0.038645219 1.2226721e-38 334 271
0.018751899 0.713 -0.038753927 1.2595863e-38 335 271
0.020030079 0.71399999 -0.038808275 1.2141714e-38 336 271
0.021281958 0.71399999 -0.038808275 1.1496345e-38 337 271
0.022596961 0.71600002 -0.038916986 1.1590358e-38 338 271
0.023852346 0.71600002 -0.038916986 1.9519182e-38 339 271
0.0251428 0.71700001 -0.038971342 1.7607919e-38 340 271
0.02639994 0.71700001 -0.038971342 1.7331334e-38 341 271
-0.026179021 0.71100003 -0.039891839 1.4641428e-38 299 272
-0.024897331 0.70999998 -0.039835732 1.3994986e-38 300 272
-0.023585839 0.708 -0.039723519 1.3902791e-38 301 272
-0.022344479 0.708 -0.039723519 1.4356565e-38 302 272
-0.021073313 0.70700002 -0.039667413 1.3711195e-38 303 272
-0.019805651 0.70599997 -0.039611302 1.4073491e-38 304 272
-0.018515198 0.704 -0.039499093 1.3151536e-38 305 272
-0.017280852 0.704 -0.039499093 1.3882636e-38 306 272
-0.016046507 0.704 -0.039499093 1.3513495e-38 307 272
-0.014812159 0.704 -0.039499093 9.7442974e-39 308 272
-0.013558527 0.70300001 -0.039442986 8.5457542e-39 309 272
-0.012290866 0.70099998 -0.039330769 3.3107582e-39 310 272
-0.011061779 0.70099998 -0.039330769 4.1408776e-39 311 272
-0.0098186666 0.69999999 -0.039274666 8.455711e-39 312 272
-0.0085913334 0.69999999 -0.039274666 1.0023037e-38 313 272
-0.0073745195 0.70099998 -0.039330769 1.1767548e-38 314 272
-0.0061454331 0.70099998 -0.039330769 1.2043775e-38 315 272
-0.0049163462 0.70099998 -0.039330769 1.2228169e-38 316 272
-0.0036872597 0.70099998 -0.039330769 1.2320365e-38 317 272
-0.0024581731 0.70099998 -0.039330769 1.2227806e-38 318 272
-0.0012290865 0.70099998 -0.039330769 1.1858663e-38 319 272
0 0.70300001 -0.039442986 1.2132011e-38 320 272
0.0012325933 0.70300001 -0.039442986 1.2039815e-38 321 272
0.0024651866 0.70300001 -0.039442986 1.2039096e-38 322 272
0.0036977797 0.70300001 -0.039442986 1.2131292e-38 323 272
0.0049303733 0.70300001 -0.039442986 1.1856144e-38 324 272
0.0061717331 0.704 -0.039499093 1.1763948e-38 325 272
0.0074060797 0.704 -0.039499093 1.1580283e-38 326 272
0.0086649731 0.70599997 -0.039611302 8.8162076e-39 327 272
0.0099028256 0.70599997 -0.039611302 5.3268175e-39 328 272
0.011140679 0.70599997 -0.039611302 8.8302346e-39 329 272
0.012396066 0.70700002 -0.039667413 1.1855778e-38 330 272
0.013654959 0.708 -0.039723519 1.2132005e-38 331 272
0.014938398 0.70999998 -0.039835732 1.2040888e-38 332 272
0.016183265 0.70999998 -0.039835732 1.2594062e-38 333 272
0.01745268 0.71100003 -0.039891839 1.2045563e-38 334 272
0.018751899 0.713 -0.040004052 1.2598378e-38 335 272
0.020030079 0.71399999 -0.040060159 1.2142442e-38 336 272
0.021341572 0.71600002 -0.040172372 1.1865853e-38 337 272
0.022596961 0.71600002 -0.040172372 1.1869836e-38 338 272
0.02388566 0.71700001 -0.040228479 1.9429878e-38 339 272
0.0251428 0.71700001 -0.040228479 1.7424251e-38 340 272
0.02639994 0.71700001 -0.040228479 1.723986e-38 341 272
-0.026179021 0.71100003 -0.041138459 1.5104207e-38 299 273
-0.024897331 0.70999998 -0.041080594 1.4363399e-38 300 273
-0.023585839 0.708 -0.040964879 1.3902061e-38 301 273
-0.022344479 0.708 -0.040964879 1.4724973e-38 302 273
-0.021073313 0.70700002 -0.040907022 1.3987407e-38 303 273
-0.019805651 0.70599997 -0.040849157 1.4165672e-38 304 273
-0.018515198 0.704 -0.040733438 1.3428106e-38 305 273
-0.017280852 0.704 -0.040733438 1.3698945e-38 306 273
-0.016046507 0.704 -0.040733438 1.3053576e-38 307 273
-0.014812159 0.704 -0.040733438 8.6419001e-39 308 273
-0.013558527 0.70300001 -0.040675577 7.7199438e-39 309 273
-0.012290866 0.70099998 -0.040559858 4.6911773e-39 310 273
-0.011061779 0.70099998 -0.040559858 5.5209394e-39 311 273
-0.0098186666 0.69999999 -0.040502001 1.0294216e-38 312 273
-0.0085913334 0.69999999 -0.040502001 1.0939585e-38 313 273
-0.0073745195 0.70099998 -0.040559858 1.1856149e-38 314 273
-0.0061454331 0.70099998 -0.040559858 1.2132736e-38 315 273
-0.0049163462 0.70099998 -0.040559858 1.1949441e-38 316 273
-0.0036872597 0.70099998 -0.040559858 1.1857244e-38 317 273
-0.0024581731 0.70099998 -0.040559858 1.2040188e-38 318 273
-0.0012290865 0.70099998 -0.040559858 1.1947992e-38 319 273
0 0.70300001 -0.040675577 1.2130936e-38 320 273
0.0012325933 0.70300001 -0.040675577 1.203874e-38 321 273
0.0024651866 0.70300001 -0.040675577 1.194654e-38 322 273
0.0036977797 0.70300001 -0.040675577 1.2039096e-38 323 273
0.0049373866 0.704 -0.040733438 1.1764299e-38 324 273
0.0061717331 0.704 -0.040733438 1.148807e-38 325 273
