# .PCD v.7 - Point Cloud Data file format
FIELDS x y z rgb imX imY
SIZE 4 4 4 4 4 4
TYPE F F F F F F
COUNT 1 1 1 1 1 1
WIDTH 835
HEIGHT 1
VIEWPOINT 0 0 0 1 0 0 0
POINTS 835
DATA ascii
0.01140894 0.72299999 -0.021550218 5.7081781e-39 329 257
0.012676599 0.72299999 -0.021550218 5.9123921e-39 330 257
-0.030634239 0.72799999 -0.022975679 7.5517221e-39 296 258
-0.029317487 0.727 -0.022944121 7.5517221e-39 297 258
-0.027965667 0.72500002 -0.022880999 8.1006051e-39 298 258
-0.026620859 0.72299999 -0.02281788 8.9300057e-39 299 258
-0.025318133 0.722 -0.022786319 1.0033113e-38 300 258
-0.024052227 0.722 -0.022786319 1.0125309e-38 301 258
-0.022723202 0.72000003 -0.022723202 9.2069331e-39 302 258
-0.021460801 0.72000003 -0.022723202 9.1143787e-39 303 258
-0.020198401 0.72000003 -0.022723202 9.2058513e-39 304 258
-0.018935999 0.72000003 -0.022723202 9.1136557e-39 305 258
-0.017722692 0.722 -0.022786319 8.7470283e-39 306 258
-0.0164112 0.72000003 -0.022723202 8.9310595e-39 307 258
-0.0151488 0.72000003 -0.022723202 9.113636e-39 308 258
-0.013867113 0.71899998 -0.022691639 9.113636e-39 309 258
-0.012606465 0.71899998 -0.022691639 1.0676312e-38 310 258
-0.01134582 0.71899998 -0.022691639 1.0860703e-38 311 258
-0.01005712 0.71700001 -0.02262852 1.0032395e-38 312 258
-0.0087999795 0.71700001 -0.02262852 9.3870252e-39 313 258
-0.0075638802 0.71899998 -0.022691639 9.9427003e-39 314 258
-0.0063032326 0.71899998 -0.022691639 1.1140885e-38 315 258
-0.0050425865 0.71899998 -0.022691639 1.0768861e-38 316 258
-0.0037872 0.72000003 -0.022723202 9.5703178e-39 317 258
-0.0025248001 0.72000003 -0.022723202 7.821842e-39 318 258
-0.0012624001 0.72000003 -0.022723202 7.269027e-39 319 258
0 0.722 -0.022786319 1.1979668e-38 320 258
0.0012624001 0.72000003 -0.022723202 1.4561146e-38 321 258
0.0025248001 0.72000003 -0.022723202 1.4754194e-38 322 258
0.0037872 0.72000003 -0.022723202 1.4569443e-38 323 258
0.0050496003 0.72000003 -0.022723202 1.3926229e-38 324 258
0.0063120001 0.72000003 -0.022723202 1.2358543e-38 325 258
0.0075743999 0.72000003 -0.022723202 1.1520113e-38 326 258
0.0088367993 0.72000003 -0.022723202 5.8965392e-39 327 258
0.010099201 0.72000003 -0.022723202 6.4399656e-39 328 258
0.011361601 0.72000003 -0.022723202 4.5960796e-39 329 258
0.012624 0.72000003 -0.022723202 1.6577291e-39 330 258
0.01394426 0.72299999 -0.02281788 6.6359344e-39 331 258
-0.035985414 0.73299998 -0.024418673 1.6961475e-38 292 259
-0.034700219 0.73299998 -0.024418673 1.3550237e-38 293 259
-0.033187091 0.72799999 -0.024252106 7.3641065e-39 294 259
-0.031910665 0.72799999 -0.024252106 5.3358026e-39 295 259
-0.030592158 0.727 -0.024218792 6.0784025e-39 296 259
-0.029236834 0.72500002 -0.024152167 7.000719e-39 297 259
-0.02788852 0.72299999 -0.024085538 8.1942385e-39 298 259
-0.026584039 0.722 -0.024052227 1.0130347e-38 299 259
-0.025318133 0.722 -0.024052227 1.1788423e-38 300 259
-0.024052227 0.722 -0.024052227 1.0958663e-38 301 259
-0.022723202 0.72000003 -0.0239856 9.8551681e-39 302 259
-0.021460801 0.72000003 -0.0239856 9.6707755e-39 303 259
-0.020170346 0.71899998 -0.023952285 9.5775079e-39 304 259
-0.018909698 0.71899998 -0.023952285 9.2083652e-39 305 259
-0.017673599 0.72000003 -0.0239856 8.5655434e-39 306 259
-0.016388407 0.71899998 -0.023952285 8.2889551e-39 307 259
-0.01512776 0.71899998 -0.023952285 1.0216756e-38 308 259
-0.013828539 0.71700001 -0.02388566 1.0216756e-38 309 259
-0.0125714 0.71700001 -0.02388566 9.9408954e-39 310 259
-0.01131426 0.71700001 -0.02388566 9.8486998e-39 311 259
-0.010043093 0.71600002 -0.023852346 9.756549e-39 312 259
-0.0087877065 0.71600002 -0.023852346 1.1231679e-38 313 259
-0.0075428397 0.71700001 -0.02388566 1.1425402e-38 314 259
-0.0062857 0.71700001 -0.02388566 1.1333206e-38 315 259
-0.0050285598 0.71700001 -0.02388566 1.1052262e-38 316 259
-0.0037714199 0.71700001 -0.02388566 9.3005454e-39 317 259
-0.0025142799 0.71700001 -0.02388566 7.4512434e-39 318 259
-0.0012624001 0.72000003 -0.0239856 7.6356347e-39 319 259
0 0.72000003 -0.0239856 1.4655858e-38 320 259
0.0012624001 0.72000003 -0.0239856 1.5946597e-38 321 259
0.0025248001 0.72000003 -0.0239856 1.466057e-38 322 259
0.0037872 0.72000003 -0.0239856 1.4291787e-38 323 259
0.0050496003 0.72000003 -0.0239856 1.392337e-38 324 259
0.0063120001 0.72000003 -0.0239856 9.9589581e-39 325 259
0.0075743999 0.72000003 -0.0239856 7.5542781e-39 326 259
0.0088367993 0.72000003 -0.0239856 3.9586471e-39 327 259
0.010099201 0.72000003 -0.0239856 6.6229275e-39 328 259
0.011361601 0.72000003 -0.0239856 6.7151231e-39 329 259
0.012676599 0.72299999 -0.024085538 1.928921e-39 330 259
0.01394426 0.72299999 -0.024085538 1.3775409e-39 331 259
0.015211919 0.72299999 -0.024085538 9.1346093e-39 332 259
-0.037270606 0.73299998 -0.025703866 1.5026816e-38 291 260
-0.035985414 0.73299998 -0.025703866 1.2134198e-38 292 260
-0.034700219 0.73299998 -0.025703866 9.7371102e-39 293 260
-0.033141505 0.727 -0.025493465 6.077346e-39 294 260
-0.03186683 0.727 -0.025493465 8.751378e-39 295 260
-0.030508002 0.72500002 -0.025423333 9.6816327e-39 296 260
-0.029156178 0.72299999 -0.025353199 1.0327002e-38 297 260
-0.02788852 0.72299999 -0.025353199 1.188675e-38 298 260
-0.026510401 0.72000003 -0.025248 1.1517967e-38 299 260
-0.025248 0.72000003 -0.025248 1.1791295e-38 300 260
-0.0239856 0.72000003 -0.025248 1.105373e-38 301 260
-0.022723202 0.72000003 -0.025248 1.0410527e-38 302 260
-0.021430992 0.71899998 -0.025212931 1.0687115e-38 303 260
-0.020170346 0.71899998 -0.025212931 1.0962278e-38 304 260
-0.018909698 0.71899998 -0.025212931 1.0869724e-38 305 260
-0.017673599 0.72000003 -0.025248 9.6794719e-39 306 260
-0.016388407 0.71899998 -0.025212931 9.7716676e-39 307 260
-0.015085679 0.71700001 -0.0251428 1.0503831e-38 308 260
-0.013809253 0.71600002 -0.025107734 9.6744301e-39 309 260
-0.012553867 0.71600002 -0.025107734 1.0039597e-38 310 260
-0.01129848 0.71600002 -0.025107734 1.0316184e-38 311 260
-0.010043093 0.71600002 -0.025107734 1.06846e-38 312 260
-0.0087877065 0.71600002 -0.025107734 1.1422165e-38 313 260
-0.00753232 0.71600002 -0.025107734 1.0599235e-38 314 260
-0.0062769335 0.71600002 -0.025107734 9.6772775e-39 315 260
-0.0050215465 0.71600002 -0.025107734 1.040442e-38 316 260
-0.00376616 0.71600002 -0.025107734 1.021967e-38 317 260
-0.0025107733 0.71600002 -0.025107734 8.5587064e-39 318 260
-0.00125714 0.71700001 -0.0251428 1.0218226e-38 319 260
0 0.71700001 -0.0251428 1.5487424e-38 320 260
0.00125714 0.71700001 -0.0251428 1.5763652e-38 321 260
0.0025142799 0.71700001 -0.0251428 1.4844959e-38 322 260
0.0037714199 0.71700001 -0.0251428 1.40152e-38 323 260
0.0050425865 0.71899998 -0.025212931 1.1990118e-38 324 260
0.0063032326 0.71899998 -0.025212931 4.5222704e-39 325 260
0.0075743999 0.72000003 -0.025248 5.702437e-39 326 260
0.0088367993 0.72000003 -0.025248 7.1779258e-39 327 260
0.010085173 0.71899998 -0.025212931 8.0966339e-39 328 260
0.01134582 0.71899998 -0.025212931 8.0044368e-39 329 260
0.012659066 0.722 -0.025318133 6.6233199e-39 330 260
0.0138864 0.72000003 -0.025248 5.3325811e-39 331 260
0.0151488 0.72000003 -0.025248 2.2220656e-39 332 260
0.0164112 0.72000003 -0.025248 9.4133247e-39 333 260
-0.038608398 0.73400003 -0.02702588 1.4384316e-38 290 261
-0.037270606 0.73299998 -0.026989058 1.0143317e-38 291 261
-0.035887226 0.73100001 -0.026915418 5.4323325e-39 292 261
-0.03441618 0.727 -0.026768139 5.7089208e-39 293 261
-0.033050332 0.72500002 -0.026694499 8.4787764e-39 294 261
-0.031779166 0.72500002 -0.026694499 1.0137939e-38 295 261
-0.030423839 0.72299999 -0.026620859 1.0511063e-38 296 261
-0.029156178 0.72299999 -0.026620859 1.1433378e-38 297 261
-0.027849946 0.722 -0.026584039 1.2997063e-38 298 261
-0.026510401 0.72000003 -0.026510401 1.2167302e-38 299 261
-0.025248 0.72000003 -0.026510401 1.1888172e-38 300 261
-0.0239856 0.72000003 -0.026510401 1.151975e-38 301 261
-0.022723202 0.72000003 -0.026510401 1.1704512e-38 302 261
-0.021430992 0.71899998 -0.02647358 1.2165132e-38 303 261
-0.020170346 0.71899998 -0.02647358 1.225411e-38 304 261
-0.018909698 0.71899998 -0.02647358 1.1793132e-38 305 261
-0.017649053 0.71899998 -0.02647358 1.0509251e-38 306 261
-0.016342819 0.71700001 -0.02639994 1.0601446e-38 307 261
-0.015085679 0.71700001 -0.02639994 1.051105e-38 308 261
-0.013809253 0.71600002 -0.026363119 1.0326299e-38 309 261
-0.012518799 0.71399999 -0.026289478 1.1336468e-38 310 261
-0.011266919 0.71399999 -0.026289478 1.0230122e-38 311 261
-0.01001504 0.71399999 -0.026289478 1.0411257e-38 312 261
-0.0087631596 0.71399999 -0.026289478 1.0871876e-38 313 261
-0.0075112795 0.71399999 -0.026289478 1.0319774e-38 314 261
-0.0062593995 0.71399999 -0.026289478 8.4758617e-39 315 261
-0.0050075199 0.71399999 -0.026289478 9.8530382e-39 316 261
-0.0037556398 0.71399999 -0.026289478 1.1328168e-38 317 261
-0.0025037599 0.71399999 -0.026289478 1.0869714e-38 318 261
-0.0012553866 0.71600002 -0.026363119 1.2160453e-38 319 261
0 0.71700001 -0.02639994 1.5672904e-38 320 261
0.0012553866 0.71600002 -0.026363119 1.57651e-38 321 261
0.0025107733 0.71600002 -0.026363119 1.5122267e-38 322 261
0.00376616 0.71600002 -0.026363119 1.337055e-38 323 261
0.0050285598 0.71700001 -0.02639994 1.0237681e-38 324 261
0.0062857 0.71700001 -0.02639994 3.5992365e-39 325 261
0.0075638802 0.71899998 -0.02647358 5.4265759e-39 326 261
0.0088245263 0.71899998 -0.02647358 7.3626842e-39 327 261
0.01005712 0.71700001 -0.02639994 7.3619541e-39 328 261
0.01131426 0.71700001 -0.02639994 7.3619541e-39 329 261
0.012624 0.72000003 -0.026510401 7.1782761e-39 330 261
0.0138864 0.72000003 -0.026510401 6.2559611e-39 331 261
0.0151488 0.72000003 -0.026510401 2.7873508e-40 332 261
0.0164112 0.72000003 -0.026510401 4.9807122e-39 333 261
-0.039840993 0.73299998 -0.028274251 1.4569796e-38 289 262
-0.038555797 0.73299998 -0.028274251 7.7508999e-39 290 262
-0.037168913 0.73100001 -0.028197108 2.2188034e-39 291 262
-0.035887226 0.73100001 -0.028197108 6.1695444e-39 292 262
-0.03441618 0.727 -0.028042812 1.0871523e-38 293 262
-0.032913569 0.722 -0.027849946 1.2081963e-38 294 262
-0.031647664 0.722 -0.027849946 1.2174517e-38 295 262
-0.030381758 0.722 -0.027849946 1.198942e-38 296 262
-0.029115854 0.722 -0.027849946 1.2081616e-38 297 262
-0.027772799 0.72000003 -0.027772799 1.2540423e-38 298 262
-0.026510401 0.72000003 -0.027772799 1.2448228e-38 299 262
-0.025212931 0.71899998 -0.027734226 1.2999228e-38 300 262
-0.023952285 0.71899998 -0.027734226 1.2907032e-38 301 262
-0.022691639 0.71899998 -0.027734226 1.3549884e-38 302 262
-0.021371379 0.71700001 -0.027657079 1.3642079e-38 303 262
-0.020114239 0.71700001 -0.027657079 1.3087113e-38 304 262
-0.018857099 0.71700001 -0.027657079 1.2718331e-38 305 262
-0.017575413 0.71600002 -0.027618507 1.1709235e-38 306 262
-0.016320027 0.71600002 -0.027618507 1.198582e-38 307 262
-0.01506464 0.71600002 -0.027618507 1.1253663e-38 308 262
-0.01377068 0.71399999 -0.02754136 1.1438414e-38 309 262
-0.012518799 0.71399999 -0.02754136 1.2080164e-38 310 262
-0.011266919 0.71399999 -0.02754136 8.9458726e-39 311 262
-0.01001504 0.71399999 -0.02754136 9.3056448e-39 312 262
-0.0087631596 0.71399999 -0.02754136 9.5822316e-39 313 262
-0.0075112795 0.71399999 -0.02754136 9.763016e-39 314 262
-0.0062593995 0.71399999 -0.02754136 9.1176465e-39 315 262
-0.0050075199 0.71399999 -0.02754136 1.0223638e-38 316 262
-0.0037556398 0.71399999 -0.02754136 1.1329986e-38 317 262
-0.0025037599 0.71399999 -0.02754136 1.170346e-38 318 262
-0.00125188 0.71399999 -0.02754136 1.317859e-38 319 262
0 0.71600002 -0.027618507 1.5581803e-38 320 262
0.0012553866 0.71600002 -0.027618507 1.5489607e-38 321 262
0.0025107733 0.71600002 -0.027618507 1.5215545e-38 322 262
0.00376616 0.71600002 -0.027618507 1.2357479e-38 323 262
0.0050215465 0.71600002 -0.027618507 7.5632885e-39 324 262
0.0062769335 0.71600002 -0.027618507 3.5985162e-39 325 262
0.0075428397 0.71700001 -0.027657079 6.1655787e-39 326 262
0.0087999795 0.71700001 -0.027657079 6.9031438e-39 327 262
0.01005712 0.71700001 -0.027657079 7.2690368e-39 328 262
0.01131426 0.71700001 -0.027657079 7.2690368e-39 329 262
0.012606465 0.71899998 -0.027734226 7.2693927e-39 330 262
0.0138864 0.72000003 -0.027772799 7.1771971e-39 331 262
0.0151488 0.72000003 -0.027772799 1.7448772e-39 332 262
0.0164112 0.72000003 -0.027772799 3.1278117e-39 333 262
-0.039732285 0.73100001 -0.029478792 1.0883773e-38 289 263
-0.038450599 0.73100001 -0.029478792 6.0841829e-39 290 263
-0.037118066 0.73000002 -0.029438468 3.5027053e-39 291 263
-0.035739943 0.72799999 -0.029357811 1.0226875e-38 292 263
-0.034179479 0.722 -0.029115854 1.3177494e-38 293 263
-0.0328224 0.72000003 -0.029035201 1.2908495e-38 294 263
-0.031516165 0.71899998 -0.028994869 1.2355323e-38 295 263
-0.030255521 0.71899998 -0.028994869 1.1529163e-38 296 263
-0.029035201 0.72000003 -0.029035201 1.1621361e-38 297 263
-0.027734226 0.71899998 -0.028994869 1.1897219e-38 298 263
-0.02647358 0.71899998 -0.028994869 1.2081969e-38 299 263
-0.025212931 0.71899998 -0.028994869 1.2264915e-38 300 263
-0.02388566 0.71700001 -0.028914221 1.2172361e-38 301 263
-0.02262852 0.71700001 -0.028914221 1.2630818e-38 302 263
-0.021341572 0.71600002 -0.028873893 1.2630818e-38 303 263
-0.020086186 0.71600002 -0.028873893 1.2260959e-38 304 263
-0.0188308 0.71600002 -0.028873893 1.1892536e-38 305 263
-0.017575413 0.71600002 -0.028873893 1.152377e-38 306 263
-0.016320027 0.71600002 -0.028873893 1.152377e-38 307 263
-0.01506464 0.71600002 -0.028873893 1.0149123e-38 308 263
-0.01377068 0.71399999 -0.028793238 1.0702297e-38 309 263
-0.012501267 0.713 -0.028752912 1.1345848e-38 310 263
-0.011251139 0.713 -0.028752912 7.7498601e-39 311 263
-0.010001013 0.713 -0.028752912 7.188741e-39 312 263
-0.0087508867 0.713 -0.028752912 7.6497191e-39 313 263
-0.0075007593 0.713 -0.028752912 8.8406883e-39 314 263
-0.0062506334 0.713 -0.028752912 8.1953189e-39 315 263
-0.0050075199 0.71399999 -0.028793238 7.1826215e-39 316 263
-0.0037556398 0.71399999 -0.028793238 7.2751759e-39 317 263
-0.0025037599 0.71399999 -0.028793238 9.7734823e-39 318 263
-0.00125188 0.71399999 -0.028793238 1.2908132e-38 319 263
0 0.71399999 -0.028793238 1.4660575e-38 320 263
0.00125188 0.71399999 -0.028793238 1.4660575e-38 321 263
0.0025037599 0.71399999 -0.028793238 1.4295031e-38 322 263
0.0037556398 0.71399999 -0.028793238 1.0238422e-38 323 263
0.0050075199 0.71399999 -0.028793238 5.8994511e-39 324 263
0.0062593995 0.71399999 -0.028793238 4.6087123e-39 325 263
0.00753232 0.71600002 -0.028873893 6.8095132e-39 326 263
0.0087877065 0.71600002 -0.028873893 6.9935443e-39 327 263
0.010043093 0.71600002 -0.028873893 7.176844e-39 328 263
0.01129848 0.71600002 -0.028873893 6.9928128e-39 329 263
0.0125714 0.71700001 -0.028914221 6.9928128e-39 330 263
0.013828539 0.71700001 -0.028914221 7.176844e-39 331 263
0.01512776 0.71899998 -0.028994869 3.8570978e-39 332 263
0.016388407 0.71899998 -0.028994869 3.6734255e-39 333 263
-0.0422378 0.73000002 -0.030718399 1.5211929e-38 287 264
-0.040957868 0.73000002 -0.030718399 1.2632972e-38 288 264
-0.039677933 0.73000002 -0.030718399 8.0231904e-39 289 264
-0.038398001 0.73000002 -0.030718399 5.5259897e-39 290 264
-0.037016369 0.72799999 -0.030634239 5.9873279e-39 291 264
-0.035347197 0.72000003 -0.0302976 1.1981131e-38 292 264
-0.034084801 0.72000003 -0.0302976 1.4194187e-38 293 264
-0.032776814 0.71899998 -0.030255521 1.2356407e-38 294 264
-0.031516165 0.71899998 -0.030255521 1.1618842e-38 295 264
-0.030255521 0.71899998 -0.030255521 1.1068187e-38 296 264
-0.028914221 0.71700001 -0.030171359 1.1252218e-38 297 264
-0.027657079 0.71700001 -0.030171359 1.1528089e-38 298 264
-0.02639994 0.71700001 -0.030171359 1.1528089e-38 299 264
-0.0251428 0.71700001 -0.030171359 1.0975991e-38 300 264
-0.023852346 0.71600002 -0.03012928 1.1252218e-38 301 264
-0.022596961 0.71600002 -0.03012928 1.1251133e-38 302 264
-0.021341572 0.71600002 -0.03012928 1.1435164e-38 303 264
-0.020030079 0.71399999 -0.030045118 1.1432643e-38 304 264
-0.018778199 0.71399999 -0.030045118 1.0972024e-38 305 264
-0.017526319 0.71399999 -0.030045118 1.069221e-38 306 264
-0.016251646 0.713 -0.030003037 1.0968798e-38 307 264
-0.015001519 0.713 -0.030003037 8.6743556e-39 308 264
-0.013751393 0.713 -0.030003037 9.2275294e-39 309 264
-0.0124662 0.71100003 -0.029918881 1.0515384e-38 310 264
-0.01121958 0.71100003 -0.029918881 6.6431679e-39 311 264
-0.0099729598 0.71100003 -0.029918881 5.9898517e-39 312 264
-0.0087263398 0.71100003 -0.029918881 6.7274167e-39 313 264
-0.0074797203 0.71100003 -0.029918881 8.1024156e-39 314 264
-0.0062506334 0.713 -0.030003037 6.9038738e-39 315 264
-0.0050005065 0.713 -0.030003037 5.1521499e-39 316 264
-0.0037503797 0.713 -0.030003037 4.1383567e-39 317 264
-0.0025002533 0.713 -0.030003037 9.4943548e-39 318 264
-0.0012501266 0.713 -0.030003037 1.3089984e-38 319 264
0 0.713 -0.030003037 1.3370555e-38 320 264
0.0012501266 0.713 -0.030003037 1.3370555e-38 321 264
0.0025002533 0.713 -0.030003037 1.3187607e-38 322 264
0.0037503797 0.713 -0.030003037 8.1168476e-39 323 264
0.0050005065 0.713 -0.030003037 5.0668192e-39 324 264
0.0062506334 0.713 -0.030003037 5.4352416e-39 325 264
0.0075112795 0.71399999 -0.030045118 6.9946261e-39 326 264
0.0087631596 0.71399999 -0.030045118 6.7176805e-39 327 264
0.010043093 0.71600002 -0.03012928 6.9009773e-39 328 264
0.01129848 0.71600002 -0.03012928 6.9009773e-39 329 264
0.0125714 0.71700001 -0.030171359 6.9009802e-39 330 264
0.013828539 0.71700001 -0.030171359 7.0853714e-39 331 264
0.015085679 0.71700001 -0.030171359 4.22553e-39 332 264
0.016342819 0.71700001 -0.030171359 4.5021169e-39 333 264
-0.043398503 0.72799999 -0.031910665 1.3923708e-38 286 265
-0.0422378 0.73000002 -0.031998333 1.3647121e-38 287 265
-0.040957868 0.73000002 -0.031998333 1.1803211e-38 288 265
-0.039569225 0.72799999 -0.031910665 7.1008754e-39 289 265
-0.038240198 0.727 -0.03186683 5.7096649e-39 290 265
-0.036863834 0.72500002 -0.031779166 5.5252736e-39 291 265
-0.035298105 0.71899998 -0.031516165 1.0047191e-38 292 265
-0.033942781 0.71700001 -0.031428497 1.1430125e-38 293 265
-0.032685637 0.71700001 -0.031428497 1.0688973e-38 294 265
-0.031428497 0.71700001 -0.031428497 1.1057397e-38 295 265
-0.03012928 0.71600002 -0.031384666 9.8678443e-39 296 265
-0.028873893 0.71600002 -0.031384666 1.0144072e-38 297 265
-0.027618507 0.71600002 -0.031384666 1.0053327e-38 298 265
-0.026363119 0.71600002 -0.031384666 1.0237718e-38 299 265
-0.025107734 0.71600002 -0.031384666 9.7796115e-39 300 265
-0.023852346 0.71600002 -0.031384666 1.0332785e-38 301 265
-0.022596961 0.71600002 -0.031384666 1.1524476e-38 302 265
-0.021281958 0.71399999 -0.031296998 1.1340085e-38 303 265
-0.020030079 0.71399999 -0.031296998 1.1610538e-38 304 265
-0.018778199 0.71399999 -0.031296998 1.0965169e-38 305 265
-0.017526319 0.71399999 -0.031296998 1.0317648e-38 306 265
-0.016251646 0.713 -0.031253166 1.1055214e-38 307 265
-0.015001519 0.713 -0.031253166 8.4870749e-39 308 265
-0.01371282 0.71100003 -0.031165501 8.948053e-39 309 265
-0.0124662 0.71100003 -0.031165501 9.5912518e-39 310 265
-0.01121958 0.71100003 -0.031165501 5.3506116e-39 311 265
-0.0099729598 0.71100003 -0.031165501 7.0889896e-39 312 265
-0.0087263398 0.71100003 -0.031165501 7.734359e-39 313 265
-0.0074797203 0.71100003 -0.031165501 7.9155062e-39 314 265
-0.0062330998 0.71100003 -0.031165501 7.3623338e-39 315 265
-0.0049864799 0.71100003 -0.031165501 6.4367804e-39 316 265
-0.0037398601 0.71100003 -0.031165501 6.0679979e-39 317 265
-0.0024932399 0.71100003 -0.031165501 1.114993e-38 318 265
-0.00124662 0.71100003 -0.031165501 1.4100189e-38 319 265
0 0.713 -0.031253166 1.2357845e-38 320 265
0.00124662 0.71100003 -0.031165501 1.2542238e-38 321 265
0.0024932399 0.71100003 -0.031165501 1.1346932e-38 322 265
0.0037398601 0.71100003 -0.031165501 5.0779875e-39 323 265
0.0049864799 0.71100003 -0.031165501 2.94667e-39 324 265
0.0062330998 0.71100003 -0.031165501 4.5139957e-39 325 265
0.0075007593 0.713 -0.031253166 6.7180364e-39 326 265
0.0087508867 0.713 -0.031253166 6.6254821e-39 327 265
0.01001504 0.71399999 -0.031296998 6.8098635e-39 328 265
0.011266919 0.71399999 -0.031296998 6.8098635e-39 329 265
0.012553867 0.71600002 -0.031384666 6.717312e-39 330 265
0.013828539 0.71700001 -0.031428497 7.0860931e-39 331 265
0.015085679 0.71700001 -0.031428497 4.2258972e-39 332 265
0.016342819 0.71700001 -0.031428497 4.4106472e-39 333 265
0.017599959 0.71700001 -0.031428497 1.6225009e-38 334 265
-0.044674929 0.72799999 -0.033187091 1.3648197e-38 285 266
-0.043398503 0.72799999 -0.033187091 1.2355306e-38 286 266
-0.042122077 0.72799999 -0.033187091 1.2816284e-38 287 266
-0.040845651 0.72799999 -0.033187091 1.0695063e-38 288 266
-0.039514873 0.727 -0.033141505 6.5462583e-39 289 266
-0.038135 0.72500002 -0.033050332 6.6283786e-39 290 266
-0.036609601 0.72000003 -0.0328224 5.6142252e-39 291 266
-0.035298105 0.71899998 -0.032776814 8.8482595e-39 292 266
-0.033942781 0.71700001 -0.032685637 1.0968759e-38 293 266
-0.032685637 0.71700001 -0.032685637 1.0506339e-38 294 266
-0.031428497 0.71700001 -0.032685637 1.069073e-38 295 266
-0.03012928 0.71600002 -0.032640055 1.05078e-38 296 266
-0.028873893 0.71600002 -0.032640055 1.05078e-38 297 266
-0.027618507 0.71600002 -0.032640055 9.9564442e-39 298 266
-0.026363119 0.71600002 -0.032640055 9.5876617e-39 299 266
-0.025107734 0.71600002 -0.032640055 9.0359298e-39 300 266
-0.023852346 0.71600002 -0.032640055 9.4050711e-39 301 266
-0.022533838 0.71399999 -0.032548878 1.069038e-38 302 266
-0.021281958 0.71399999 -0.032548878 1.050563e-38 303 266
-0.020002026 0.713 -0.032503292 1.0870783e-38 304 266
-0.018751899 0.713 -0.032503292 1.0225414e-38 305 266
-0.017526319 0.71399999 -0.032548878 9.8566311e-39 306 266
-0.016251646 0.713 -0.032503292 1.0225414e-38 307 266
-0.015001519 0.713 -0.032503292 7.8352034e-39 308 266
-0.01371282 0.71100003 -0.032412119 7.3742239e-39 309 266
-0.0124662 0.71100003 -0.032412119 8.2014804e-39 310 266
-0.01121958 0.71100003 -0.032412119 6.5423178e-39 311 266
-0.0099729598 0.71100003 -0.032412119 7.9187432e-39 312 266
-0.0087263398 0.71100003 -0.032412119 7.3655694e-39 313 266
-0.0074797203 0.71100003 -0.032412119 7.3623338e-39 314 266
-0.0062330998 0.71100003 -0.032412119 7.0853868e-39 315 266
-0.0049864799 0.71100003 -0.032412119 6.439314e-39 316 266
-0.0037398601 0.71100003 -0.032412119 6.716261e-39 317 266
-0.0024932399 0.71100003 -0.032412119 1.179747e-38 318 266
-0.00124662 0.71100003 -0.032412119 1.493212e-38 319 266
0 0.71100003 -0.032412119 1.2084499e-38 320 266
0.00124662 0.71100003 -0.032412119 1.1992304e-38 321 266
0.0024932399 0.71100003 -0.032412119 1.0884144e-38 322 266
0.0037398601 0.71100003 -0.032412119 4.8914285e-39 323 266
0.0049864799 0.71100003 -0.032412119 3.5870004e-39 324 266
0.0062330998 0.71100003 -0.032412119 5.3383586e-39 325 266
0.0075007593 0.713 -0.032503292 6.4425257e-39 326 266
0.0087508867 0.713 -0.032503292 6.4425257e-39 327 266
0.01001504 0.71399999 -0.032548878 6.2592079e-39 328 266
0.011266919 0.71399999 -0.032548878 6.2592079e-39 329 266
0.012553867 0.71600002 -0.032640055 6.4428915e-39 330 266
0.013828539 0.71700001 -0.032685637 6.5350871e-39 331 266
0.015085679 0.71700001 -0.032685637 4.3224172e-39 332 266
0.016342819 0.71700001 -0.032685637 4.7830366e-39 333 266
0.017599959 0.71700001 -0.032685637 1.5948049e-38 334 266
-0.043398503 0.72799999 -0.034463517 1.3091795e-38 286 267
-0.042122077 0.72799999 -0.034463517 9.4965254e-39 287 267
-0.040789545 0.727 -0.03441618 4.7070134e-39 288 267
-0.039406165 0.72500002 -0.034321502 2.6787081e-39 289 267
-0.038029801 0.72299999 -0.03422682 7.6367725e-39 290 267
-0.036609601 0.72000003 -0.034084801 7.5445769e-39 291 267
-0.035199918 0.71700001 -0.033942781 7.7386946e-39 292 267
-0.033942781 0.71700001 -0.033942781 7.9230859e-39 293 267
-0.032640055 0.71600002 -0.03389544 8.6559551e-39 294 267
-0.031384666 0.71600002 -0.03389544 8.6559551e-39 295 267
-0.03012928 0.71600002 -0.03389544 8.9303812e-39 296 267
-0.028873893 0.71600002 -0.03389544 9.0225769e-39 297 267
-0.027618507 0.71600002 -0.03389544 7.2762703e-39 298 267
-0.026363119 0.71600002 -0.03389544 6.6309009e-39 299 267
-0.025037598 0.71399999 -0.033800758 6.0748545e-39 300 267
-0.02378572 0.71399999 -0.033800758 5.8904632e-39 301 267
-0.022533838 0.71399999 -0.033800758 6.9928381e-39 302 267
-0.021281958 0.71399999 -0.033800758 7.0853924e-39 303 267
-0.020002026 0.713 -0.033753417 6.8084272e-39 304 267
-0.018751899 0.713 -0.033753417 6.1634165e-39 305 267
-0.017526319 0.71399999 -0.033800758 6.2556135e-39 306 267
-0.016251646 0.713 -0.033753417 6.5322004e-39 307 267
-0.015001519 0.713 -0.033753417 5.9797651e-39 308 267
-0.01371282 0.71100003 -0.033658739 5.9797651e-39 309 267
-0.0124662 0.71100003 -0.033658739 5.8004186e-39 310 267
-0.01121958 0.71100003 -0.033658739 6.7220147e-39 311 267
-0.0099729598 0.71100003 -0.033658739 7.5470937e-39 312 267
-0.0087263398 0.71100003 -0.033658739 7.2705068e-39 313 267
-0.0074797203 0.71100003 -0.033658739 6.8995606e-39 314 267
-0.0062330998 0.71100003 -0.033658739 7.1757874e-39 315 267
-0.0049864799 0.71100003 -0.033658739 6.5300649e-39 316 267
-0.0037398601 0.71100003 -0.033658739 7.6367725e-39 317 267
-0.0024932399 0.71100003 -0.033658739 1.2166971e-38 318 267
-0.00124662 0.71100003 -0.033658739 1.4379667e-38 319 267
0 0.71100003 -0.033658739 1.2359294e-38 320 267
0.00124662 0.71100003 -0.033658739 1.1713925e-38 321 267
0.0024932399 0.71100003 -0.033658739 9.5937727e-39 322 267
0.0037398601 0.71100003 -0.033658739 5.2605781e-39 323 267
0.0049864799 0.71100003 -0.033658739 5.3361964e-39 324 267
0.0062330998 0.71100003 -0.033658739 6.1659585e-39 325 267
0.0074797203 0.71100003 -0.033658739 6.0755369e-39 326 267
0.0087508867 0.713 -0.033753417 6.1677339e-39 327 267
0.010001013 0.713 -0.033753417 6.0748152e-39 328 267
0.011251139 0.713 -0.033753417 6.0748152e-39 329 267
0.012553867 0.71600002 -0.03389544 6.349977e-39 330 267
0.013809253 0.71600002 -0.03389544 6.6265639e-39 331 267
0.015085679 0.71700001 -0.033942781 5.058162e-39 332 267
0.016342819 0.71700001 -0.033942781 6.533292e-39 333 267
0.017599959 0.71700001 -0.033942781 1.4471104e-38 334 267
-0.044613566 0.727 -0.035690852 1.2265278e-38 285 268
-0.043338891 0.727 -0.035690852 1.2174517e-38 286 268
-0.042064216 0.727 -0.035690852 8.4863322e-39 287 268
-0.040789545 0.727 -0.035690852 5.8057911e-39 288 268
-0.039297458 0.72299999 -0.035494477 4.9756717e-39 289 268
-0.037871998 0.72000003 -0.035347197 7.5477943e-39 290 268
-0.036558751 0.71899998 -0.035298105 7.4555987e-39 291 268
-0.035199918 0.71700001 -0.035199918 6.7234511e-39 292 268
-0.033942781 0.71700001 -0.035199918 6.8156467e-39 293 268
-0.032640055 0.71600002 -0.035150826 7.8258231e-39 294 268
-0.031384666 0.71600002 -0.035150826 7.8258231e-39 295 268
-0.03012928 0.71600002 -0.035150826 7.7336149e-39 296 268
-0.028873893 0.71600002 -0.035150826 7.2726367e-39 297 268
-0.02754136 0.71399999 -0.035052639 6.443239e-39 298 268
-0.026289478 0.71399999 -0.035052639 6.9045773e-39 299 268
-0.025037598 0.71399999 -0.035052639 6.7209035e-39 300 268
-0.02378572 0.71399999 -0.035052639 6.4446767e-39 301 268
-0.022502279 0.713 -0.035003547 7.4555987e-39 302 268
-0.021252153 0.713 -0.035003547 7.9165768e-39 303 268
-0.020002026 0.713 -0.035003547 7.0889868e-39 304 268
-0.018751899 0.713 -0.035003547 6.6276485e-39 305 268
-0.017501773 0.713 -0.035003547 6.5376052e-39 306 268
-0.016251646 0.713 -0.035003547 6.5376052e-39 307 268
-0.015001519 0.713 -0.035003547 6.7198343e-39 308 268
-0.01371282 0.71100003 -0.034905359 6.8120299e-39 309 268
-0.0124662 0.71100003 -0.034905359 6.3546587e-39 310 268
-0.01121958 0.71100003 -0.034905359 6.1706276e-39 311 268
-0.0099729598 0.71100003 -0.034905359 7.1783055e-39 312 268
-0.0087263398 0.71100003 -0.034905359 6.994273e-39 313 268
-0.0074797203 0.71100003 -0.034905359 6.4436174e-39 314 268
-0.0062330998 0.71100003 -0.034905359 6.1670305e-39 315 268
-0.0049864799 0.71100003 -0.034905359 5.5202387e-39 316 268
-0.0037398601 0.71100003 -0.034905359 6.9031732e-39 317 268
-0.0024932399 0.71100003 -0.034905359 1.1340095e-38 318 268
-0.00124662 0.71100003 -0.034905359 1.3092172e-38 319 268
0 0.71100003 -0.034905359 1.1623171e-38 320 268
0.00124662 0.71100003 -0.034905359 1.0885606e-38 321 268
0.0024932399 0.71100003 -0.034905359 8.672894e-39 322 268
0.0037398601 0.71100003 -0.034905359 4.8928746e-39 323 268
0.0049864799 0.71100003 -0.034905359 4.9702879e-39 324 268
0.0062330998 0.71100003 -0.034905359 5.8918855e-39 325 268
0.0074797203 0.71100003 -0.034905359 6.0755369e-39 326 268
0.0087508867 0.713 -0.035003547 5.9829825e-39 327 268
0.010001013 0.713 -0.035003547 5.7989542e-39 328 268
0.011251139 0.713 -0.035003547 5.7067586e-39 329 268
0.012518799 0.71399999 -0.035052639 5.7996871e-39 330 268
0.013809253 0.71600002 -0.035150826 6.0766327e-39 331 268
0.015085679 0.71700001 -0.035199918 4.5089342e-39 332 268
0.016342819 0.71700001 -0.035199918 6.5372381e-39 333 268
0.017599959 0.71700001 -0.035199918 1.5484881e-38 334 268
-0.044613566 0.727 -0.036965527 1.0974893e-38 285 269
-0.043338891 0.727 -0.036965527 1.1622783e-38 286 269
-0.042064216 0.727 -0.036965527 9.0413052e-39 287 269
-0.040789545 0.727 -0.036965527 8.569509e-39 288 269
-0.039297458 0.72299999 -0.036762137 6.3568125e-39 289 269
-0.037871998 0.72000003 -0.036609601 7.3652009e-39 290 269
-0.036558751 0.71899998 -0.036558751 7.2730053e-39 291 269
-0.035199918 0.71700001 -0.036457058 6.9049584e-39 292 269
-0.033942781 0.71700001 -0.036457058 6.9975128e-39 293 269
-0.032640055 0.71600002 -0.036406212 7.2723046e-39 294 269
-0.031384666 0.71600002 -0.036406212 7.1797503e-39 295 269
-0.03012928 0.71600002 -0.036406212 6.9045983e-39 296 269
-0.028873893 0.71600002 -0.036406212 6.8120439e-39 297 269
-0.02754136 0.71399999 -0.036304519 6.9971415e-39 298 269
-0.026289478 0.71399999 -0.036304519 6.9971415e-39 299 269
-0.025037598 0.71399999 -0.036304519 7.0882455e-39 300 269
-0.02378572 0.71399999 -0.036304519 6.9038528e-39 301 269
-0.022502279 0.713 -0.036253672 7.0860903e-39 302 269
-0.021252153 0.713 -0.036253672 7.0860903e-39 303 269
-0.020002026 0.713 -0.036253672 6.8098761e-39 304 269
-0.018751899 0.713 -0.036253672 6.7176805e-39 305 269
-0.017501773 0.713 -0.036253672 6.5343654e-39 306 269
-0.016251646 0.713 -0.036253672 6.6269198e-39 307 269
-0.015001519 0.713 -0.036253672 6.6272701e-39 308 269
-0.01371282 0.71100003 -0.036151983 6.6272701e-39 309 269
-0.0124662 0.71100003 -0.036151983 6.5350843e-39 310 269
-0.011203799 0.70999998 -0.036101133 6.5350843e-39 311 269
-0.0099589331 0.70999998 -0.036101133 6.811681e-39 312 269
-0.0087140659 0.70999998 -0.036101133 7.0879078e-39 313 269
-0.0074797203 0.71100003 -0.036151983 6.5379612e-39 314 269
-0.0062330998 0.71100003 -0.036151983 5.8925918e-39 315 269
-0.0049864799 0.71100003 -0.036151983 5.5180681e-39 316 269
-0.0037398601 0.71100003 -0.036151983 6.9928381e-39 317 269
-0.0024932399 0.71100003 -0.036151983 1.0512132e-38 318 269
-0.00124662 0.71100003 -0.036151983 1.2172013e-38 319 269
0 0.71100003 -0.036151983 1.0610098e-38 320 269
0.00124662 0.71100003 -0.036151983 9.9647287e-39 321 269
0.0024932399 0.71100003 -0.036151983 8.1197189e-39 322 269
0.0037398601 0.71100003 -0.036151983 4.6162835e-39 323 269
0.0049864799 0.71100003 -0.036151983 4.4196323e-39 324 269
0.0062330998 0.71100003 -0.036151983 5.2490328e-39 325 269
0.0074797203 0.71100003 -0.036151983 5.7074774e-39 326 269
0.0087508867 0.713 -0.036253672 5.6149231e-39 327 269
0.010001013 0.713 -0.036253672 5.614207e-39 328 269
0.011251139 0.713 -0.036253672 5.7064026e-39 329 269
0.012518799 0.71399999 -0.036304519 5.616372e-39 330 269
0.01377068 0.71399999 -0.036304519 5.801122e-39 331 269
0.01506464 0.71600002 -0.036406212 3.8610481e-39 332 269
0.016342819 0.71700001 -0.036457058 7.1800908e-39 333 269
-0.044613566 0.727 -0.038240198 1.161558e-38 285 270
-0.043338891 0.727 -0.038240198 1.2170918e-38 286 270
-0.042064216 0.727 -0.038240198 1.0327005e-38 287 270
-0.040789545 0.727 -0.038240198 9.0319291e-39 288 270
-0.039297458 0.72299999 -0.038029801 6.4508102e-39 289 270
-0.0379772 0.722 -0.0379772 7.3673561e-39 290 270
-0.036558751 0.71899998 -0.037819397 6.9982135e-39 291 270
-0.035199918 0.71700001 -0.037714198 6.537608e-39 292 270
-0.03389544 0.71600002 -0.037661601 6.4454124e-39 293 270
-0.032640055 0.71600002 -0.037661601 6.3517875e-39 294 270
-0.031384666 0.71600002 -0.037661601 6.3517875e-39 295 270
-0.03012928 0.71600002 -0.037661601 6.9017214e-39 296 270
-0.028873893 0.71600002 -0.037661601 6.9017214e-39 297 270
-0.02754136 0.71399999 -0.037556399 6.7194812e-39 298 270
-0.026289478 0.71399999 -0.037556399 6.5350899e-39 299 270
-0.025037598 0.71399999 -0.037556399 6.7173148e-39 300 270
-0.023752406 0.713 -0.037503798 6.6251177e-39 301 270
-0.022502279 0.713 -0.037503798 6.7162344e-39 302 270
-0.021252153 0.713 -0.037503798 6.5322032e-39 303 270
-0.020002026 0.713 -0.037503798 6.4396545e-39 304 270
-0.018751899 0.713 -0.037503798 6.5318501e-39 305 270
-0.017501773 0.713 -0.037503798 6.3481777e-39 306 270
-0.01620606 0.71100003 -0.037398599 6.4403733e-39 307 270
-0.014959441 0.71100003 -0.037398599 6.4403705e-39 308 270
-0.01371282 0.71100003 -0.037398599 6.4403705e-39 309 270
-0.0124662 0.71100003 -0.037398599 6.532569e-39 310 270
-0.011203799 0.70999998 -0.037345998 6.7169616e-39 311 270
-0.0099589331 0.70999998 -0.037345998 6.7202014e-39 312 270
-0.0087140659 0.70999998 -0.037345998 8.5641126e-39 313 270
-0.0074797203 0.71100003 -0.037398599 8.7463375e-39 314 270
-0.0062330998 0.71100003 -0.037398599 7.9165768e-39 315 270
-0.0049864799 0.71100003 -0.037398599 5.7993227e-39 316 270
-0.0037398601 0.71100003 -0.037398599 6.5368892e-39 317 270
-0.0024932399 0.71100003 -0.037398599 1.014371e-38 318 270
-0.00124662 0.71100003 -0.037398599 1.1895066e-38 319 270
0 0.71100003 -0.037398599 1.0701215e-38 320 270
0.00124662 0.71100003 -0.037398599 1.0055845e-38 321 270
0.0024932399 0.71100003 -0.037398599 7.9353262e-39 322 270
0.0037398601 0.71100003 -0.037398599 4.2475024e-39 323 270
0.0049864799 0.71100003 -0.037398599 4.6933423e-39 324 270
0.0062330998 0.71100003 -0.037398599 5.4309074e-39 325 270
0.0074797203 0.71100003 -0.037398599 5.7975193e-39 326 270
0.0087508867 0.713 -0.037503798 5.7053236e-39 327 270
0.010001013 0.713 -0.037503798 5.4308976e-39 328 270
0.011251139 0.713 -0.037503798 5.4308976e-39 329 270
0.012518799 0.71399999 -0.037556399 5.2486671e-39 330 270
0.01377068 0.71399999 -0.037556399 4.9717215e-39 331 270
0.01506464 0.71600002 -0.037661601 2.0225333e-39 332 270
0.016320027 0.71600002 -0.037661601 6.4479109e-39 333 270
-0.044613566 0.727 -0.039514873 1.2075482e-38 285 271
-0.043338891 0.727 -0.039514873 1.2261313e-38 286 271
-0.042064216 0.727 -0.039514873 1.1339715e-38 287 271
-0.040789545 0.727 -0.039514873 9.3099608e-39 288 271
-0.039406165 0.72500002 -0.039406165 6.5440919e-39 289 271
-0.0379772 0.722 -0.039243106 7.7354099e-39 290 271
-0.036558751 0.71899998 -0.039080046 7.2744304e-39 291 271
-0.035199918 0.71700001 -0.038971342 6.9038528e-39 292 271
-0.03389544 0.71600002 -0.038916986 6.6272673e-39 293 271
-0.032640055 0.71600002 -0.038916986 6.2585044e-39 294 271
-0.031384666 0.71600002 -0.038916986 6.1663088e-39 295 271
-0.03012928 0.71600002 -0.038916986 6.7169672e-39 296 271
-0.028873893 0.71600002 -0.038916986 6.6244129e-39 297 271
-0.02754136 0.71399999 -0.038808275 6.6247688e-39 298 271
-0.026289478 0.71399999 -0.038808275 6.4400174e-39 299 271
-0.025037598 0.71399999 -0.038808275 6.5322004e-39 300 271
-0.023752406 0.713 -0.038753927 6.5322004e-39 301 271
-0.022502279 0.713 -0.038753927 6.4403579e-39 302 271
-0.021252153 0.713 -0.038753927 6.3481623e-39 303 271
-0.020002026 0.713 -0.038753927 6.0722985e-39 304 271
-0.018751899 0.713 -0.038753927 6.0722985e-39 305 271
-0.017501773 0.713 -0.038753927 5.9804658e-39 306 271
-0.01620606 0.71100003 -0.038645219 5.9804658e-39 307 271
-0.014959441 0.71100003 -0.038645219 5.9804686e-39 308 271
-0.01371282 0.71100003 -0.038645219 5.9804686e-39 309 271
-0.0124662 0.71100003 -0.038645219 5.9811973e-39 310 271
-0.011203799 0.70999998 -0.038590867 6.4421754e-39 311 271
-0.0099589331 0.70999998 -0.038590867 6.3560937e-39 312 271
-0.0087140659 0.70999998 -0.038590867 8.6606257e-39 313 271
-0.0074691991 0.70999998 -0.038590867 9.6686497e-39 314 271
-0.0062330998 0.71100003 -0.038645219 9.2073128e-39 315 271
-0.0049794666 0.70999998 -0.038590867 6.536885e-39 316 271
-0.0037345996 0.70999998 -0.038590867 6.3524937e-39 317 271
-0.0024932399 0.71100003 -0.038645219 9.8671184e-39 318 271
-0.00124662 0.71100003 -0.038645219 1.1618837e-38 319 271
0 0.71100003 -0.038645219 1.0609742e-38 320 271
0.00124662 0.71100003 -0.038645219 1.0056927e-38 321 271
0.0024932399 0.71100003 -0.038645219 8.0275218e-39 322 271
0.0037398601 0.71100003 -0.038645219 4.2475024e-39 323 271
0.0049864799 0.71100003 -0.038645219 4.5100301e-39 324 271
0.0062330998 0.71100003 -0.038645219 5.1553995e-39 325 271
0.0074797203 0.71100003 -0.038645219 5.7975221e-39 326 271
0.0087508867 0.713 -0.038753927 5.7053264e-39 327 271
0.010001013 0.713 -0.038753927 5.1557526e-39 328 271
0.011251139 0.713 -0.038753927 5.2479482e-39 329 271
0.012501267 0.713 -0.038753927 4.9724305e-39 330 271
0.013751393 0.713 -0.038753927 3.866083e-39 331 271
0.015022559 0.71399999 -0.038808275 3.5884003e-39 332 271
0.016274439 0.71399999 -0.038808275 8.0141296e-39 333 271
-0.044613566 0.727 -0.040789545 1.1983634e-38 285 272
-0.043338891 0.727 -0.040789545 1.1433703e-38 286 272
-0.042064216 0.727 -0.040789545 1.1802487e-38 287 272
-0.040789545 0.727 -0.040789545 9.4028809e-39 288 272
-0.039297458 0.72299999 -0.040565118 6.0834794e-39 289 272
-0.0379772 0.722 -0.040509012 7.5524662e-39 290 272
-0.036609601 0.72000003 -0.040396802 7.0911279e-39 291 272
-0.035298105 0.71899998 -0.040340692 6.6297883e-39 292 272
-0.033942781 0.71700001 -0.040228479 5.9844189e-39 293 272
-0.032640055 0.71600002 -0.040172372 6.167378e-39 294 272
-0.031384666 0.71600002 -0.040172372 6.075181e-39 295 272
-0.03012928 0.71600002 -0.040172372 6.3503259e-39 296 272
-0.028873893 0.71600002 -0.040172372 6.2581303e-39 297 272
-0.02754136 0.71399999 -0.040060159 6.4407237e-39 298 272
-0.026289478 0.71399999 -0.040060159 6.4407237e-39 299 272
-0.025037598 0.71399999 -0.040060159 6.1652158e-39 300 272
-0.023752406 0.713 -0.040004052 6.1652158e-39 301 272
-0.022502279 0.713 -0.040004052 6.0730173e-39 302 272
-0.021252153 0.713 -0.040004052 6.0730173e-39 303 272
-0.020002026 0.713 -0.040004052 5.7971507e-39 304 272
-0.018751899 0.713 -0.040004052 5.7971507e-39 305 272
-0.017501773 0.713 -0.040004052 5.7056768e-39 306 272
-0.01620606 0.71100003 -0.039891839 5.5216442e-39 307 272
-0.014959441 0.71100003 -0.039891839 5.8882716e-39 308 272
-0.01371282 0.71100003 -0.039891839 5.9804686e-39 309 272
-0.012448666 0.70999998 -0.039835732 5.7064054e-39 310 272
-0.011203799 0.70999998 -0.039835732 5.9826322e-39 311 272
-0.0099589331 0.70999998 -0.039835732 5.9887503e-39 312 272
-0.0087140659 0.70999998 -0.039835732 8.2018041e-39 313 272
-0.0074691991 0.70999998 -0.039835732 9.6690169e-39 314 272
-0.0062243328 0.70999998 -0.039835732 9.0236474e-39 315 272
-0.0049794666 0.70999998 -0.039835732 6.7198483e-39 316 272
-0.0037345996 0.70999998 -0.039835732 6.2592289e-39 317 272
-0.0024932399 0.71100003 -0.039891839 9.5905385e-39 318 272
-0.00124662 0.71100003 -0.039891839 1.1618842e-38 319 272
0 0.70999998 -0.039835732 1.0332801e-38 320 272
0.0012448666 0.70999998 -0.039835732 9.871824e-39 321 272
0.0024897333 0.70999998 -0.039835732 8.3037598e-39 322 272
0.0037345996 0.70999998 -0.039835732 4.4315433e-39 323 272
0.0049864799 0.71100003 -0.039891839 5.3369125e-39 324 272
0.0062330998 0.71100003 -0.039891839 5.7060551e-39 325 272
0.0074797203 0.71100003 -0.039891839 5.5216442e-39 326 272
0.0087508867 0.713 -0.040004052 5.7056768e-39 327 272
0.010001013 0.713 -0.040004052 5.2465035e-39 328 272
0.011251139 0.713 -0.040004052 5.3386991e-39 329 272
0.012501267 0.713 -0.040004052 4.7862414e-39 330 272
0.013751393 0.713 -0.040004052 3.2189157e-39 331 272
0.015022559 0.71399999 -0.040060159 7.1811474e-39 332 272
0.016274439 0.71399999 -0.040060159 1.2528494e-38 333 272
-0.043338891 0.727 -0.042064216 1.3180728e-38 286 273
-0.041948501 0.72500002 -0.041948501 1.336512e-38 287 273
-0.040677335 0.72500002 -0.041948501 9.7709347e-39 288 273
-0.039297458 0.72299999 -0.041832779 6.1756653e-39 289 273
-0.0379772 0.722 -0.041774917 7.7357659e-39 290 273
-0.036609601 0.72000003 -0.041659199 7.4588203e-39 291 273
-0.035298105 0.71899998 -0.041601337 7.1811418e-39 292 273
-0.033942781 0.71700001 -0.041485619 6.9045535e-39 293 273
-0.032685637 0.71700001 -0.041485619 6.6265387e-39 294 273
-0.031384666 0.71600002 -0.041427758 6.6265387e-39 295 273
-0.03012928 0.71600002 -0.041427758 6.0755313e-39 296 273
-0.028873893 0.71600002 -0.041427758 5.7993045e-39 297 273
-0.02754136 0.71399999 -0.041312039 6.1659346e-39 298 273
-0.026289478 0.71399999 -0.041312039 5.9815448e-39 299 273
-0.025037598 0.71399999 -0.041312039 5.9815476e-39 300 273
-0.023752406 0.713 -0.041254178 5.9815476e-39 301 273
-0.022502279 0.713 -0.041254178 5.9815448e-39 302 273
-0.021252153 0.713 -0.041254178 5.8893492e-39 303 273
-0.020002026 0.713 -0.041254178 5.8897023e-39 304 273
-0.018751899 0.713 -0.041254178 5.8897023e-39 305 273
-0.017501773 0.713 -0.041254178 5.705674e-39 306 273
-0.01620606 0.71100003 -0.041138459 5.705674e-39 307 273
-0.014959441 0.71100003 -0.041138459 5.7056796e-39 308 273
-0.01371282 0.71100003 -0.041138459 5.8900708e-39 309 273
-0.012448666 0.70999998 -0.041080594 5.801122e-39 310 273
-0.011203799 0.70999998 -0.041080594 6.0773488e-39 311 273
-0.0099589331 0.70999998 -0.041080594 5.5299399e-39 312 273
-0.0087140659 0.70999998 -0.041080594 6.7284831e-39 313 273
-0.0074691991 0.70999998 -0.041080594 8.0131039e-39 314 273
-0.0062243328 0.70999998 -0.041080594 7.1837033e-39 315 273
-0.0049794666 0.70999998 -0.041080594 5.0653702e-39 316 273
-0.0037345996 0.70999998 -0.041080594 4.6965891e-39 317 273
-0.0024932399 0.71100003 -0.041138459 9.0377277e-39 318 273
-0.00124662 0.71100003 -0.041138459 1.1250783e-38 319 273
0 0.70999998 -0.041080594 9.6892306e-39 320 273
0.0012448666 0.70999998 -0.041080594 9.3208082e-39 321 273
0.0024897333 0.70999998 -0.041080594 8.6718248e-39 322 273
0.0037345996 0.70999998 -0.041080594 4.5226628e-39 323 273
0.0049864799 0.71100003 -0.041138459 4.2352508e-39 324 273
0.0062330998 0.71100003 -0.041138459 4.6043935e-39 325 273
0.0074797203 0.71100003 -0.041138459 5.1546708e-39 326 273
0.0087508867 0.713 -0.041254178 4.8784426e-39 327 273
0.010001013 0.713 -0.041254178 4.9702879e-39 328 273
0.011251139 0.713 -0.041254178 4.9702879e-39 329 273
0.012448666 0.70999998 -0.041080594 3.7728153e-39 330 273
0.013616386 0.70599997 -0.040849157 2.1129339e-39 331 273
0.014854239 0.70599997 -0.040849157 1.0869711e-38 332 273
0.016092092 0.70599997 -0.040849157 1.5847915e-38 333 273
-0.044613566 0.727 -0.043338891 1.613244e-38 285 274
-0.043338891 0.727 -0.043338891 1.5943377e-38 286 274
-0.041948501 0.72500002 -0.043219667 1.437605e-38 287 274
-0.040677335 0.72500002 -0.043219667 1.0600337e-38 288 274
-0.039297458 0.72299999 -0.043100435 6.6355658e-39 289 274
-0.0379772 0.722 -0.043040827 7.8286944e-39 290 274
-0.036609601 0.72000003 -0.042921603 7.4602706e-39 291 274
-0.035298105 0.71899998 -0.042861983 7.090765e-39 292 274
-0.03403746 0.71899998 -0.042861983 6.6297883e-39 293 274
-0.032685637 0.71700001 -0.042742759 6.627989e-39 294 274
-0.031428497 0.71700001 -0.042742759 6.2592079e-39 295 274
-0.03012928 0.71600002 -0.042683143 6.1670136e-39 296 274
-0.028873893 0.71600002 -0.042683143 5.9822637e-39 297 274
-0.02754136 0.71399999 -0.042563915 5.9815504e-39 298 274
-0.026289478 0.71399999 -0.042563915 5.9815504e-39 299 274
-0.025037598 0.71399999 -0.042563915 5.9815504e-39 300 274
-0.023752406 0.713 -0.042504307 5.9815504e-39 301 274
-0.022502279 0.713 -0.042504307 5.7985983e-39 302 274
-0.021252153 0.713 -0.042504307 5.7985983e-39 303 274
-0.01994592 0.71100003 -0.042385083 5.6149259e-39 304 274
-0.0186993 0.71100003 -0.042385083 5.6149259e-39 305 274
-0.01745268 0.71100003 -0.042385083 5.6138539e-39 306 274
-0.01620606 0.71100003 -0.042385083 5.6138539e-39 307 274
-0.014959441 0.71100003 -0.042385083 5.5227527e-39 308 274
-0.01371282 0.71100003 -0.042385083 6.444709e-39 309 274
-0.012448666 0.70999998 -0.042325463 6.6334344e-39 310 274
-0.011203799 0.70999998 -0.042325463 6.8178271e-39 311 274
-0.0099589331 0.70999998 -0.042325463 6.0842277e-39 312 274
-0.0087140659 0.70999998 -0.042325463 6.1764234e-39 313 274
-0.0074691991 0.70999998 -0.042325463 5.9012686e-39 314 274
-0.0062330998 0.71100003 -0.042385083 5.4399303e-39 315 274
-0.0049794666 0.70999998 -0.042325463 5.3391069e-39 316 274
-0.0037345996 0.70999998 -0.042325463 4.5093448e-39 317 274
-0.0024932399 0.71100003 -0.042385083 8.2998123e-39 318 274
-0.00124662 0.71100003 -0.042385083 1.1065681e-38 319 274
0 0.71100003 -0.042385083 1.0055492e-38 320 274
0.00124662 0.71100003 -0.042385083 9.779264e-39 321 274
0.0024932399 0.71100003 -0.042385083 8.6721752e-39 322 274
0.0037398601 0.71100003 -0.042385083 3.9698393e-39 323 274
0.0049864799 0.71100003 -0.042385083 3.0370664e-39 324 274
0.0062330998 0.71100003 -0.042385083 4.2352508e-39 325 274
0.0074797203 0.71100003 -0.042385083 4.9684901e-39 326 274
0.0087508867 0.713 -0.042504307 4.9684901e-39 327 274
0.010001013 0.713 -0.042504307 4.9692061e-39 328 274
0.011251139 0.713 -0.042504307 4.785175e-39 329 274
0.012448666 0.70999998 -0.042325463 2.8512052e-39 330 274
0.013577812 0.704 -0.041967787 3.3125435e-39 331 274
0.014812159 0.704 -0.041967787 1.4469652e-38 332 274
0.016046507 0.704 -0.041967787 1.8434064e-38 333 274
-0.043219667 0.72500002 -0.044490833 1.649907e-38 286 275
-0.041948501 0.72500002 -0.044490833 1.3641366e-38 287 275
-0.040677335 0.72500002 -0.044490833 1.1338615e-38 288 275
-0.039406165 0.72500002 -0.044490833 7.3742028e-39 289 275
-0.038029801 0.72299999 -0.044368099 8.0119954e-39 290 275
-0.036609601 0.72000003 -0.044183999 7.7354099e-39 291 275
-0.035347197 0.72000003 -0.044183999 7.733968e-39 292 275
-0.034084801 0.72000003 -0.044183999 7.2729899e-39 293 275
-0.032776814 0.71899998 -0.044122629 6.9960428e-39 294 275
-0.031428497 0.71700001 -0.043999899 6.8116516e-39 295 275
-0.03012928 0.71600002 -0.043938532 6.718384e-39 296 275
-0.028873893 0.71600002 -0.043938532 6.5339913e-39 297 275
-0.02754136 0.71399999 -0.043815799 6.2577743e-39 298 275
-0.026289478 0.71399999 -0.043815799 5.9815476e-39 299 275
-0.025037598 0.71399999 -0.043815799 6.0723111e-39 300 275
-0.023752406 0.713 -0.043754432 6.1645067e-39 301 275
-0.022502279 0.713 -0.043754432 5.7060495e-39 302 275
-0.021252153 0.713 -0.043754432 5.7986039e-39 303 275
-0.01994592 0.71100003 -0.043631699 5.6149287e-39 304 275
-0.0186993 0.71100003 -0.043631699 5.6149287e-39 305 275
-0.01745268 0.71100003 -0.043631699 5.4316164e-39 306 275
-0.01620606 0.71100003 -0.043631699 5.523812e-39 307 275
-0.014959441 0.71100003 -0.043631699 5.7989864e-39 308 275
-0.01371282 0.71100003 -0.043631699 7.1819209e-39 309 275
-0.0124662 0.71100003 -0.043631699 7.2820479e-39 310 275
-0.011203799 0.70999998 -0.043570329 7.2820479e-39 311 275
-0.0099589331 0.70999998 -0.043570329 6.8239438e-39 312 275
-0.0087140659 0.70999998 -0.043570329 7.1001719e-39 313 275
-0.0074797203 0.71100003 -0.043631699 6.6409944e-39 314 275
-0.0062330998 0.71100003 -0.043631699 5.3506158e-39 315 275
-0.0049794666 0.70999998 -0.043570329 4.0534057e-39 316 275
-0.0037345996 0.70999998 -0.043570329 2.8548626e-39 317 275
-0.0024932399 0.71100003 -0.043631699 7.4693328e-39 318 275
-0.00124662 0.71100003 -0.043631699 1.0696178e-38 319 275
0 0.71100003 -0.043631699 9.2293272e-39 320 275
0.00124662 0.71100003 -0.043631699 8.8605461e-39 321 275
0.0024932399 0.71100003 -0.043631699 9.1327848e-39 322 275
0.0037398601 0.71100003 -0.043631699 4.79923e-39 323 275
0.0049864799 0.71100003 -0.043631699 2.8541017e-39 324 275
0.0062330998 0.71100003 -0.043631699 3.7756992e-39 325 275
0.0075007593 0.713 -0.043754432 5.0606829e-39 326 275
