# .PCD v.7 - Point Cloud Data file format
FIELDS x y z rgb imX imY
SIZE 4 4 4 4 4 4
TYPE F F F F F F
COUNT 1 1 1 1 1 1
WIDTH 848
HEIGHT 1
VIEWPOINT 0 0 0 1 0 0 0
POINTS 848
DATA ascii
0.023552528 0.70700002 -0.05206348 1.4295387e-38 339 282
0.024757065 0.70599997 -0.051989835 1.2819155e-38 340 282
0.025994917 0.70599997 -0.051989835 3.9687337e-39 341 282
0.027271347 0.70700002 -0.05206348 4.6691265e-42 342 282
0.02855128 0.708 -0.052137118 7.4223417e-40 343 282
0.029876797 0.70999998 -0.052284397 1.6616948e-39 344 282
0.031034 0.708 -0.052137118 1.6616948e-39 345 282
0.03227536 0.708 -0.052137118 1.6620647e-39 346 282
0.033611398 0.70999998 -0.052284397 1.1088909e-39 347 282
0.034856264 0.70999998 -0.052284397 1.2611686e-44 348 282
0.036101133 0.70999998 -0.052284397 4.5197789e-39 349 282
0.037345998 0.70999998 -0.052284397 1.2452206e-38 350 282
0.038590867 0.70999998 -0.052284397 1.2821348e-38 351 282
0.039835732 0.70999998 -0.052284397 1.2362888e-38 352 282
0.041080594 0.70999998 -0.052284397 1.273167e-38 353 282
0.042385083 0.71100003 -0.052358042 1.3466718e-38 354 282
0.043631699 0.71100003 -0.052358042 1.2452206e-38 355 282
0.045067675 0.71399999 -0.052578956 1.1440931e-38 356 282
0.046319555 0.71399999 -0.052578956 1.1809355e-38 357 282
0.047704693 0.71600002 -0.052726239 1.2637676e-38 358 282
0.048960082 0.71600002 -0.052726239 1.2914263e-38 359 282
-0.0040554604 0.77100003 -0.058128256 1.4014825e-38 317 283
-0.0025493465 0.727 -0.054810952 1.1433337e-38 318 283
-0.0012746733 0.727 -0.054810952 1.2447129e-38 319 283
0 0.72000003 -0.054283202 1.503509e-38 320 283
0.0012606466 0.71899998 -0.054207806 1.5772655e-38 321 283
0.0025107733 0.71600002 -0.053981625 1.6230046e-38 322 283
0.00376616 0.71600002 -0.053981625 1.5861265e-38 323 283
0.0050075199 0.71399999 -0.053830836 1.5491759e-38 324 283
0.0062330998 0.71100003 -0.053604662 1.4016628e-38 325 283
0.0074797203 0.71100003 -0.053604662 1.3736092e-38 326 283
0.0087263398 0.71100003 -0.053604662 1.4013039e-38 327 283
0.0099589331 0.70999998 -0.053529263 1.3833327e-38 328 283
0.011203799 0.70999998 -0.053529263 1.5308816e-38 329 283
0.0124136 0.708 -0.053378478 1.5861268e-38 330 283
0.013654959 0.708 -0.053378478 1.5676516e-38 331 283
0.01489632 0.708 -0.053378478 1.5031147e-38 332 283
0.01613768 0.708 -0.053378478 1.4938951e-38 333 283
0.017379038 0.708 -0.053378478 1.4570895e-38 334 283
0.018594101 0.70700002 -0.053303085 1.4293948e-38 335 283
0.019833706 0.70700002 -0.053303085 1.3741857e-38 336 283
0.021103119 0.708 -0.053378478 1.3649662e-38 337 283
0.022344479 0.708 -0.053378478 1.3465636e-38 338 283
0.023552528 0.70700002 -0.053303085 1.3742582e-38 339 283
0.024792133 0.70700002 -0.053303085 1.3097197e-38 340 283
0.02603174 0.70700002 -0.053303085 7.5650989e-39 341 283
0.027309919 0.708 -0.053378478 2.8595065e-39 342 283
0.02855128 0.708 -0.053378478 4.6242009e-40 343 283
0.02979264 0.708 -0.053378478 1.5687704e-39 344 283
0.031034 0.708 -0.053378478 1.937553e-39 345 283
0.03227536 0.708 -0.053378478 1.93756e-39 346 283
0.033611398 0.70999998 -0.053529263 1.2921906e-39 347 283
0.034856264 0.70999998 -0.053529263 2.1019477e-44 348 283
0.036101133 0.70999998 -0.053529263 5.9037853e-39 349 283
0.037345998 0.70999998 -0.053529263 1.2361089e-38 350 283
0.038590867 0.70999998 -0.053529263 1.2361089e-38 351 283
0.039835732 0.70999998 -0.053529263 1.1810436e-38 352 283
0.041080594 0.70999998 -0.053529263 1.2086664e-38 353 283
0.042325463 0.70999998 -0.053529263 1.2361812e-38 354 283
0.043631699 0.71100003 -0.053604662 1.2454008e-38 355 283
0.045004558 0.713 -0.053755447 1.2363244e-38 356 283
0.046319555 0.71399999 -0.053830836 1.2178494e-38 357 283
0.047571439 0.71399999 -0.053830836 1.2178494e-38 358 283
0.048960082 0.71600002 -0.053981625 1.2363244e-38 359 283
0.050425861 0.71899998 -0.054207806 1.3836577e-38 360 283
-0.0051197335 0.73000002 -0.056317069 1.5489957e-38 316 284
-0.0038292799 0.72799999 -0.056162767 1.4291414e-38 317 284
-0.0025493465 0.727 -0.056085624 1.3741115e-38 318 284
-0.0012711667 0.72500002 -0.055931333 1.4294288e-38 319 284
0 0.72000003 -0.055545598 1.5768339e-38 320 284
0.0012606466 0.71899998 -0.055468451 1.5768339e-38 321 284
0.0025107733 0.71600002 -0.055237014 1.5492478e-38 322 284
0.0037556398 0.71399999 -0.05508272 1.5584674e-38 323 284
0.0050075199 0.71399999 -0.05508272 1.5584671e-38 324 284
0.0062330998 0.71100003 -0.054851279 1.5216249e-38 325 284
0.0074691991 0.70999998 -0.054774132 1.5211575e-38 326 284
0.0087140659 0.70999998 -0.054774132 1.4842793e-38 327 284
0.0099589331 0.70999998 -0.054774132 1.3648932e-38 328 284
0.011203799 0.70999998 -0.054774132 1.4294301e-38 329 284
0.0124136 0.708 -0.054619838 1.4386499e-38 330 284
0.013654959 0.708 -0.054619838 1.4018077e-38 331 284
0.01489632 0.708 -0.054619838 1.3007165e-38 332 284
0.01613768 0.708 -0.054619838 1.3283393e-38 333 284
0.017379038 0.708 -0.054619838 1.3467068e-38 334 284
0.018594101 0.70700002 -0.054542694 1.3467068e-38 335 284
0.019833706 0.70700002 -0.054542694 1.3741507e-38 336 284
0.021073313 0.70700002 -0.054542694 1.3464919e-38 337 284
0.022344479 0.708 -0.054619838 1.3189055e-38 338 284
0.023552528 0.70700002 -0.054542694 1.3189055e-38 339 284
0.024792133 0.70700002 -0.054542694 1.2730219e-38 340 284
0.02603174 0.70700002 -0.054542694 9.6881222e-39 341 284
0.027309919 0.708 -0.054619838 5.1629553e-39 342 284
0.02855128 0.708 -0.054619838 0 343 284
0.02979264 0.708 -0.054619838 4.3216045e-42 344 284
0.031034 0.708 -0.054619838 9.2699817e-40 345 284
0.03227536 0.708 -0.054619838 7.433482e-40 346 284
0.033516716 0.708 -0.054619838 1.9017442e-40 347 284
0.034758076 0.708 -0.054619838 4.3566369e-42 348 284
0.036101133 0.70999998 -0.054774132 7.0119448e-39 349 284
0.037345998 0.70999998 -0.054774132 1.2361456e-38 350 284
0.038590867 0.70999998 -0.054774132 1.1900837e-38 351 284
0.039835732 0.70999998 -0.054774132 1.1625326e-38 352 284
0.041080594 0.70999998 -0.054774132 1.1901553e-38 353 284
0.042325463 0.70999998 -0.054774132 1.2085944e-38 354 284
0.043570329 0.70999998 -0.054774132 1.2362891e-38 355 284
0.044878319 0.71100003 -0.054851279 1.2363244e-38 356 284
0.046319555 0.71399999 -0.05508272 1.2271049e-38 357 284
0.047571439 0.71399999 -0.05508272 1.2454361e-38 358 284
0.048823316 0.71399999 -0.05508272 1.2362165e-38 359 284
0.0502856 0.71700001 -0.055314157 1.3191926e-38 360 284
0.051542737 0.71700001 -0.055314157 1.4482665e-38 361 284
-0.0063821329 0.72799999 -0.057439197 1.6872892e-38 315 285
-0.0051057064 0.72799999 -0.057439197 1.5306648e-38 316 285
-0.0038240198 0.727 -0.057360299 1.4292137e-38 317 285
-0.0025493465 0.727 -0.057360299 1.4386131e-38 318 285
-0.0012676599 0.72299999 -0.057044696 1.4939305e-38 319 285
0 0.72000003 -0.056808002 1.4755636e-38 320 285
0.0012606466 0.71899998 -0.056729097 1.4663441e-38 321 285
0.0025107733 0.71600002 -0.056492399 1.493967e-38 322 285
0.0037556398 0.71399999 -0.0563346 1.5031866e-38 323 285
0.0050005065 0.713 -0.056255698 1.5124422e-38 324 285
0.0062330998 0.71100003 -0.056097899 1.5308813e-38 325 285
0.0074691991 0.70999998 -0.056018997 1.6042778e-38 326 285
0.0087140659 0.70999998 -0.056018997 1.5674356e-38 327 285
0.0099589331 0.70999998 -0.056018997 1.4940026e-38 328 285
0.01117224 0.708 -0.055861197 1.447905e-38 329 285
0.0124136 0.708 -0.055861197 1.3835125e-38 330 285
0.013635674 0.70700002 -0.055782299 1.3189755e-38 331 285
0.01487528 0.70700002 -0.055782299 1.2729503e-38 332 285
0.016114887 0.70700002 -0.055782299 1.3097926e-38 333 285
0.017354494 0.70700002 -0.055782299 1.3190124e-38 334 285
0.018594101 0.70700002 -0.055782299 1.328232e-38 335 285
0.019833706 0.70700002 -0.055782299 1.3189774e-38 336 285
0.021073313 0.70700002 -0.055782299 1.2821351e-38 337 285
0.022312919 0.70700002 -0.055782299 1.2453289e-38 338 285
0.023552528 0.70700002 -0.055782299 1.2268896e-38 339 285
0.024792133 0.70700002 -0.055782299 1.2086653e-38 340 285
0.02603174 0.70700002 -0.055782299 1.0795914e-38 341 285
0.027309919 0.708 -0.055861197 7.2874204e-39 342 285
0.02855128 0.708 -0.055861197 1.4790958e-39 343 285
0.02979264 0.708 -0.055861197 1.2977425e-41 344 285
0.031034 0.708 -0.055861197 8.448989e-40 345 285
0.03227536 0.708 -0.055861197 1.9491193e-39 346 285
0.033516716 0.708 -0.055861197 2.6866857e-39 347 285
0.034758076 0.708 -0.055861197 3.6957958e-39 348 285
0.036101133 0.70999998 -0.056018997 7.9364346e-39 349 285
0.037345998 0.70999998 -0.056018997 1.1807932e-38 350 285
0.038590867 0.70999998 -0.056018997 1.162354e-38 351 285
0.039835732 0.70999998 -0.056018997 1.0797373e-38 352 285
0.041080594 0.70999998 -0.056018997 1.0982123e-38 353 285
0.042325463 0.70999998 -0.056018997 1.153314e-38 354 285
0.043570329 0.70999998 -0.056018997 1.1810086e-38 355 285
0.044878319 0.71100003 -0.056097899 1.2086667e-38 356 285
0.046319555 0.71399999 -0.0563346 1.1902635e-38 357 285
0.047571439 0.71399999 -0.0563346 1.21785e-38 358 285
0.048823316 0.71399999 -0.0563346 1.21785e-38 359 285
0.050215468 0.71600002 -0.056492399 1.254692e-38 360 285
0.051542737 0.71700001 -0.056571297 1.3653627e-38 361 285
-0.0063821329 0.72799999 -0.058715623 1.6965811e-38 315 286
-0.0051057064 0.72799999 -0.058715623 1.5215168e-38 316 286
-0.0038240198 0.727 -0.058634974 1.4201018e-38 317 286
-0.0025493465 0.727 -0.058634974 1.4386131e-38 318 286
-0.0012676599 0.72299999 -0.058312356 1.4570882e-38 319 286
0 0.72000003 -0.058070403 1.4753839e-38 320 286
0.00125714 0.71700001 -0.057828441 1.4846393e-38 321 286
0.0025107733 0.71600002 -0.057747785 1.5031503e-38 322 286
0.0037556398 0.71399999 -0.057586476 1.5123699e-38 323 286
0.0050005065 0.713 -0.057505824 1.5216252e-38 324 286
0.0062243328 0.70999998 -0.057263866 1.5400283e-38 325 286
0.0074691991 0.70999998 -0.057263866 1.5584321e-38 326 286
0.0087140659 0.70999998 -0.057263866 1.6045299e-38 327 286
0.0099308798 0.708 -0.057102561 1.60471e-38 328 286
0.01117224 0.708 -0.057102561 1.6323688e-38 329 286
0.0124136 0.708 -0.057102561 1.6507719e-38 330 286
0.013635674 0.70700002 -0.057021905 1.6139295e-38 331 286
0.01487528 0.70700002 -0.057021905 1.5305945e-38 332 286
0.016114887 0.70700002 -0.057021905 1.4568379e-38 333 286
0.017354494 0.70700002 -0.057021905 1.3008614e-38 334 286
0.018594101 0.70700002 -0.057021905 1.2731667e-38 335 286
0.019833706 0.70700002 -0.057021905 1.2913547e-38 336 286
0.021073313 0.70700002 -0.057021905 1.2544404e-38 337 286
0.022312919 0.70700002 -0.057021905 1.2085231e-38 338 286
0.023552528 0.70700002 -0.057021905 1.1993035e-38 339 286
0.024792133 0.70700002 -0.057021905 1.1718244e-38 340 286
0.02603174 0.70700002 -0.057021905 1.0611896e-38 341 286
0.027309919 0.708 -0.057102561 9.3207816e-39 342 286
0.02855128 0.708 -0.057102561 9.0441961e-39 343 286
0.02979264 0.708 -0.057102561 9.6006055e-39 344 286
0.031034 0.708 -0.057102561 1.0245975e-38 345 286
0.03227536 0.708 -0.057102561 1.0980673e-38 346 286
0.033611398 0.70999998 -0.057263866 1.1257618e-38 347 286
0.034856264 0.70999998 -0.057263866 1.0611893e-38 348 286
0.036101133 0.70999998 -0.057263866 9.5977412e-39 349 286
0.037345998 0.70999998 -0.057263866 1.0149842e-38 350 286
0.038590867 0.70999998 -0.057263866 1.0703015e-38 351 286
0.039835732 0.70999998 -0.057263866 1.0795928e-38 352 286
0.041080594 0.70999998 -0.057263866 1.0888124e-38 353 286
0.042325463 0.70999998 -0.057263866 1.0705534e-38 354 286
0.043570329 0.70999998 -0.057263866 1.1074317e-38 355 286
0.044878319 0.71100003 -0.057344519 1.1900837e-38 356 286
0.046319555 0.71399999 -0.057586476 1.2085228e-38 357 286
0.047571439 0.71399999 -0.057586476 1.21785e-38 358 286
0.048823316 0.71399999 -0.057586476 1.2270696e-38 359 286
0.050215468 0.71600002 -0.057747785 1.1903352e-38 360 286
0.051542737 0.71700001 -0.057828441 1.3101894e-38 361 286
0.052799881 0.71700001 -0.057828441 1.6231139e-38 362 286
-0.0063821329 0.72799999 -0.059992049 1.7426068e-38 315 287
-0.0051057064 0.72799999 -0.059992049 1.5491759e-38 316 287
-0.0038240198 0.727 -0.059909642 1.4201021e-38 317 287
-0.0025493465 0.727 -0.059909642 1.4293219e-38 318 287
-0.0012676599 0.72299999 -0.059580017 1.4661641e-38 319 287
0 0.71899998 -0.059250388 1.4478332e-38 320 287
0.00125714 0.71700001 -0.059085581 1.475456e-38 321 287
0.0025037599 0.71399999 -0.058838356 1.4938954e-38 322 287
0.0037503797 0.713 -0.058755953 1.503115e-38 323 287
0.0049864799 0.71100003 -0.058591139 1.5124066e-38 324 287
0.0062243328 0.70999998 -0.058508728 1.5216261e-38 325 287
0.0074691991 0.70999998 -0.058508728 1.5033668e-38 326 287
0.0087140659 0.70999998 -0.058508728 1.5494646e-38 327 287
0.0099308798 0.708 -0.058343921 1.6230056e-38 328 287
0.011156459 0.70700002 -0.05826151 1.6507003e-38 329 287
0.012396066 0.70700002 -0.05826151 1.6784299e-38 330 287
0.013635674 0.70700002 -0.05826151 1.696833e-38 331 287
0.01487528 0.70700002 -0.05826151 1.5584324e-38 332 287
0.016092092 0.70599997 -0.058179103 1.4570173e-38 333 287
0.017329946 0.70599997 -0.058179103 1.3281971e-38 334 287
0.018567799 0.70599997 -0.058179103 1.2913547e-38 335 287
0.019833706 0.70700002 -0.05826151 1.2637323e-38 336 287
0.021073313 0.70700002 -0.05826151 1.2360736e-38 337 287
0.022312919 0.70700002 -0.05826151 1.1993754e-38 338 287
0.023552528 0.70700002 -0.05826151 1.1624973e-38 339 287
0.024792133 0.70700002 -0.05826151 1.0982488e-38 340 287
0.02603174 0.70700002 -0.05826151 9.3233249e-39 341 287
0.027309919 0.708 -0.058343921 1.0242404e-38 342 287
0.02855128 0.708 -0.058343921 1.1533143e-38 343 287
0.02979264 0.708 -0.058343921 1.1902635e-38 344 287
0.031034 0.708 -0.058343921 1.1902635e-38 345 287
0.03227536 0.708 -0.058343921 1.1718241e-38 346 287
0.033611398 0.70999998 -0.058508728 1.2086664e-38 347 287
0.034856264 0.70999998 -0.058508728 1.2175982e-38 348 287
0.036101133 0.70999998 -0.058508728 1.0700493e-38 349 287
0.037345998 0.70999998 -0.058508728 8.9538137e-39 350 287
0.038590867 0.70999998 -0.058508728 9.5991831e-39 351 287
0.039835732 0.70999998 -0.058508728 9.9676125e-39 352 287
0.041080594 0.70999998 -0.058508728 1.0244558e-38 353 287
0.042325463 0.70999998 -0.058508728 1.0795578e-38 354 287
0.043631699 0.71100003 -0.058591139 1.0979969e-38 355 287
0.045067675 0.71399999 -0.058838356 1.1165433e-38 356 287
0.046319555 0.71399999 -0.058838356 1.1534575e-38 357 287
0.047571439 0.71399999 -0.058838356 1.1993754e-38 358 287
0.048823316 0.71399999 -0.058838356 1.208595e-38 359 287
0.050215468 0.71600002 -0.059003171 1.2086667e-38 360 287
0.051542737 0.71700001 -0.059085581 1.3008982e-38 361 287
0.052799881 0.71700001 -0.059085581 1.5954551e-38 362 287
-0.0063821329 0.72799999 -0.061268479 1.7518264e-38 315 288
-0.0051057064 0.72799999 -0.061268479 1.6043134e-38 316 288
-0.0038240198 0.727 -0.061184317 1.447581e-38 317 288
-0.0025353199 0.72299999 -0.060847677 1.4293938e-38 318 288
-0.0012624001 0.72000003 -0.060595199 1.4386134e-38 319 288
0 0.71700001 -0.060342718 1.4569449e-38 320 288
0.0012553866 0.71600002 -0.06025856 1.4753841e-38 321 288
0.0025037599 0.71399999 -0.060090236 1.4938235e-38 322 288
0.0037503797 0.713 -0.060006075 1.5214462e-38 323 288
0.0049864799 0.71100003 -0.059837762 1.5031147e-38 324 288
0.0062243328 0.70999998 -0.059753593 1.5123701e-38 325 288
0.0074481601 0.708 -0.059585281 1.4849277e-38 326 288
0.008689519 0.708 -0.059585281 1.5218059e-38 327 288
0.0099308798 0.708 -0.059585281 1.5676522e-38 328 288
0.011156459 0.70700002 -0.059501119 1.5123348e-38 329 288
0.012378532 0.70599997 -0.059416957 1.4663456e-38 330 288
0.013616386 0.70599997 -0.059416957 1.4663456e-38 331 288
0.014854239 0.70599997 -0.059416957 1.4387232e-38 332 288
0.016092092 0.70599997 -0.059416957 1.3925894e-38 333 288
0.017329946 0.70599997 -0.059416957 1.2821351e-38 334 288
0.018567799 0.70599997 -0.059416957 1.2636601e-38 335 288
0.019833706 0.70700002 -0.059501119 1.1993754e-38 336 288
0.021073313 0.70700002 -0.059501119 1.19012e-38 337 288
0.022312919 0.70700002 -0.059501119 1.1625695e-38 338 288
0.023552528 0.70700002 -0.059501119 1.153314e-38 339 288
0.024792133 0.70700002 -0.059501119 1.0612982e-38 340 288
0.02603174 0.70700002 -0.059501119 8.6768737e-39 341 288
0.027309919 0.708 -0.059585281 1.0242402e-38 342 288
0.02855128 0.708 -0.059585281 1.1256912e-38 343 288
0.02979264 0.708 -0.059585281 1.0797729e-38 344 288
0.031034 0.708 -0.059585281 1.0705534e-38 345 288
0.03227536 0.708 -0.059585281 1.0613335e-38 346 288
0.033611398 0.70999998 -0.059753593 1.0613335e-38 347 288
0.034856264 0.70999998 -0.059753593 1.0795928e-38 348 288
0.036101133 0.70999998 -0.059753593 9.7821353e-39 349 288
0.037345998 0.70999998 -0.059753593 9.3200781e-39 350 288
0.038590867 0.70999998 -0.059753593 9.8732519e-39 351 288
0.039835732 0.70999998 -0.059753593 9.8750498e-39 352 288
0.041080594 0.70999998 -0.059753593 1.0151638e-38 353 288
0.042385083 0.71100003 -0.059837762 1.0703013e-38 354 288
0.043754432 0.713 -0.060006075 1.0887405e-38 355 288
0.045067675 0.71399999 -0.060090236 1.0705534e-38 356 288
0.046319555 0.71399999 -0.060090236 1.098212e-38 357 288
0.047704693 0.71600002 -0.06025856 1.1807922e-38 358 288
0.048960082 0.71600002 -0.06025856 1.2176345e-38 359 288
0.0502856 0.71700001 -0.060342718 1.2178497e-38 360 288
0.051902171 0.722 -0.060763516 1.273167e-38 361 288
0.053241719 0.72299999 -0.060847677 1.5676885e-38 362 288
-0.0063821329 0.72799999 -0.062544905 1.7518264e-38 315 289
-0.0050986931 0.727 -0.062458992 1.5766551e-38 316 289
-0.0038240198 0.727 -0.062458992 1.4383617e-38 317 289
-0.0025353199 0.72299999 -0.062115334 1.4293219e-38 318 289
-0.0012624001 0.72000003 -0.061857603 1.4569446e-38 319 289
0 0.71700001 -0.061599858 1.4385778e-38 320 289
0.0012553866 0.71600002 -0.061513945 1.4478332e-38 321 289
0.0025037599 0.71399999 -0.061342116 1.4754563e-38 322 289
0.0037503797 0.713 -0.061256204 1.4846759e-38 323 289
0.0049864799 0.71100003 -0.061084379 1.4663446e-38 324 289
0.0062243328 0.70999998 -0.060998458 1.4755642e-38 325 289
0.0074481601 0.708 -0.060826641 1.4756361e-38 326 289
0.008689519 0.708 -0.060826641 1.5032949e-38 327 289
0.0099168532 0.70700002 -0.060740728 1.4940756e-38 328 289
0.011156459 0.70700002 -0.060740728 1.4202831e-38 329 289
0.012378532 0.70599997 -0.060654808 1.3467068e-38 330 289
0.013616386 0.70599997 -0.060654808 1.3374873e-38 331 289
0.014854239 0.70599997 -0.060654808 1.3281601e-38 332 289
0.016092092 0.70599997 -0.060654808 1.3005014e-38 333 289
0.017329946 0.70599997 -0.060654808 1.2361092e-38 334 289
0.018567799 0.70599997 -0.060654808 1.2361092e-38 335 289
0.019833706 0.70700002 -0.060740728 1.1901203e-38 336 289
0.021073313 0.70700002 -0.060740728 1.1624976e-38 337 289
0.022312919 0.70700002 -0.060740728 1.1257635e-38 338 289
0.023552528 0.70700002 -0.060740728 1.0888853e-38 339 289
0.024792133 0.70700002 -0.060740728 1.0519344e-38 340 289
0.026068559 0.708 -0.060826641 9.0442143e-39 341 289
0.027309919 0.708 -0.060826641 9.5999048e-39 342 289
0.02855128 0.708 -0.060826641 1.0521863e-38 343 289
0.02979264 0.708 -0.060826641 1.0980323e-38 344 289
0.031034 0.708 -0.060826641 1.0888127e-38 345 289
0.03227536 0.708 -0.060826641 1.0795931e-38 346 289
0.033611398 0.70999998 -0.060998458 1.0611899e-38 347 289
0.034856264 0.70999998 -0.060998458 1.0610461e-38 348 289
0.036101133 0.70999998 -0.060998458 1.0057646e-38 349 289
0.037345998 0.70999998 -0.060998458 9.4122766e-39 350 289
0.038590867 0.70999998 -0.060998458 9.6888648e-39 351 289
0.039891839 0.71100003 -0.061084379 9.6913816e-39 352 289
0.041138459 0.71100003 -0.061084379 9.9676097e-39 353 289
0.042385083 0.71100003 -0.061084379 1.0151638e-38 354 289
0.043754432 0.713 -0.061256204 1.0520419e-38 355 289
0.045067675 0.71399999 -0.061342116 1.0704815e-38 356 289
0.046449307 0.71600002 -0.061513945 1.1073237e-38 357 289
0.047704693 0.71600002 -0.061513945 1.1440578e-38 358 289
0.048960082 0.71600002 -0.061513945 1.180936e-38 359 289
0.050636265 0.722 -0.062029421 1.1718238e-38 360 289
0.051902171 0.722 -0.062029421 1.2271412e-38 361 289
0.053241719 0.72299999 -0.062115334 1.5308463e-38 362 289
0.054509375 0.72299999 -0.062115334 1.6230059e-38 363 289
-0.0050986931 0.727 -0.06373366 1.5766914e-38 316 290
-0.0038240198 0.727 -0.06373366 1.4015556e-38 317 290
-0.0025353199 0.72299999 -0.063382991 1.4201386e-38 318 290
-0.0012624001 0.72000003 -0.06312 1.4293582e-38 319 290
0 0.71700001 -0.062856995 1.4476897e-38 320 290
0.0012553866 0.71600002 -0.062769331 1.4569093e-38 321 290
0.0025037599 0.71399999 -0.062593997 1.4477976e-38 322 290
0.0037398601 0.71100003 -0.062331002 1.4570173e-38 323 290
0.0049864799 0.71100003 -0.062331002 1.4478699e-38 324 290
0.0062243328 0.70999998 -0.062243331 1.4386502e-38 325 290
0.0074481601 0.708 -0.062068 1.4203551e-38 326 290
0.008689519 0.708 -0.062068 1.4480497e-38 327 290
0.0099168532 0.70700002 -0.061980337 1.4663812e-38 328 290
0.011156459 0.70700002 -0.061980337 1.3741857e-38 329 290
0.012378532 0.70599997 -0.061892662 1.2637676e-38 330 290
0.013616386 0.70599997 -0.061892662 1.2361089e-38 331 290
0.014854239 0.70599997 -0.061892662 1.226854e-38 332 290
0.016092092 0.70599997 -0.061892662 1.2176345e-38 333 290
0.017329946 0.70599997 -0.061892662 1.1624973e-38 334 290
0.018567799 0.70599997 -0.061892662 1.1624973e-38 335 290
0.019833706 0.70700002 -0.061980337 1.1440948e-38 336 290
0.021073313 0.70700002 -0.061980337 1.1164719e-38 337 290
0.022312919 0.70700002 -0.061980337 1.1072165e-38 338 290
0.023552528 0.70700002 -0.061980337 1.051935e-38 339 290
0.024792133 0.70700002 -0.061980337 9.7835814e-39 340 290
0.026068559 0.708 -0.062068 8.9538193e-39 341 290
0.027309919 0.708 -0.062068 9.4155178e-39 342 290
0.02855128 0.708 -0.062068 1.0060887e-38 343 290
0.02979264 0.708 -0.062068 1.0520066e-38 344 290
0.031121666 0.70999998 -0.062243331 1.0520066e-38 345 290
0.032366529 0.70999998 -0.062243331 1.0795211e-38 346 290
0.033611398 0.70999998 -0.062243331 1.0795211e-38 347 290
0.034856264 0.70999998 -0.062243331 1.0702294e-38 348 290
0.036101133 0.70999998 -0.062243331 1.0333151e-38 349 290
0.037398599 0.71100003 -0.062331002 9.688862e-39 350 290
0.038645219 0.71100003 -0.062331002 9.688862e-39 351 290
0.039891839 0.71100003 -0.062331002 1.0702297e-38 352 290
0.041138459 0.71100003 -0.062331002 1.0609742e-38 353 290
0.042504307 0.713 -0.062506333 1.0152357e-38 354 290
0.043754432 0.713 -0.062506333 1.0429304e-38 355 290
0.045067675 0.71399999 -0.062593997 1.0704815e-38 356 290
0.046449307 0.71600002 -0.062769331 1.079701e-38 357 290
0.047704693 0.71600002 -0.062769331 1.1072518e-38 358 290
0.048960082 0.71600002 -0.062769331 1.1256909e-38 359 290
0.050636265 0.722 -0.063295327 1.1257986e-38 360 290
0.051902171 0.722 -0.063295327 1.1903355e-38 361 290
0.053168077 0.722 -0.063295327 1.4848206e-38 362 290
0.054509375 0.72299999 -0.063382991 1.5677968e-38 363 290
-0.0025248001 0.72000003 -0.064382397 1.4018074e-38 318 291
-0.0012606466 0.71899998 -0.064292975 1.411027e-38 319 291
0 0.71600002 -0.064024724 1.4293582e-38 320 291
0.00125188 0.71399999 -0.063845873 1.4201386e-38 321 291
0.0025002533 0.713 -0.063756458 1.4293585e-38 322 291
0.0037398601 0.71100003 -0.063577622 1.438578e-38 323 291
0.0049794666 0.70999998 -0.063488193 1.4385783e-38 324 291
0.0062243328 0.70999998 -0.063488193 1.4293588e-38 325 291
0.0074481601 0.708 -0.063309364 1.3283029e-38 326 291
0.008689519 0.708 -0.063309364 1.3190474e-38 327 291
0.0099168532 0.70700002 -0.063219935 1.3465269e-38 328 291
0.011140679 0.70599997 -0.063130513 1.3096488e-38 329 291
0.012378532 0.70599997 -0.063130513 1.1993749e-38 330 291
0.013616386 0.70599997 -0.063130513 1.1809357e-38 331 291
0.014812159 0.704 -0.062951677 1.1991598e-38 332 291
0.016046507 0.704 -0.062951677 1.1807566e-38 333 291
0.017329946 0.70599997 -0.063130513 1.1623537e-38 334 291
0.018567799 0.70599997 -0.063130513 1.1623537e-38 335 291
0.019833706 0.70700002 -0.063219935 1.1164719e-38 336 291
0.021073313 0.70700002 -0.063219935 1.0979969e-38 337 291
0.022312919 0.70700002 -0.063219935 1.0979969e-38 338 291
0.023552528 0.70700002 -0.063219935 1.0150209e-38 339 291
0.024792133 0.70700002 -0.063219935 1.005729e-38 340 291
0.026068559 0.708 -0.063309364 9.9650944e-39 341 291
0.027309919 0.708 -0.063309364 1.0518268e-38 342 291
0.02855128 0.708 -0.063309364 1.0794855e-38 343 291
0.029876797 0.70999998 -0.063488193 1.0611899e-38 344 291
0.031121666 0.70999998 -0.063488193 1.0611899e-38 345 291
0.032366529 0.70999998 -0.063488193 1.0611896e-38 346 291
0.033611398 0.70999998 -0.063488193 1.0611896e-38 347 291
0.034856264 0.70999998 -0.063488193 1.070301e-38 348 291
0.036151983 0.71100003 -0.063577622 1.070301e-38 349 291
0.037398599 0.71100003 -0.063577622 1.0701568e-38 350 291
0.038645219 0.71100003 -0.063577622 9.1342421e-39 351 291
0.039891839 0.71100003 -0.063577622 9.5030246e-39 352 291
0.041138459 0.71100003 -0.063577622 1.0517178e-38 353 291
0.042504307 0.713 -0.063756458 1.0702291e-38 354 291
0.043754432 0.713 -0.063756458 1.1071073e-38 355 291
0.045067675 0.71399999 -0.063845873 1.0888124e-38 356 291
0.046449307 0.71600002 -0.064024724 1.0795928e-38 357 291
0.047704693 0.71600002 -0.064024724 1.0795211e-38 358 291
0.04902846 0.71700001 -0.064114138 1.0979604e-38 359 291
0.050636265 0.722 -0.064561233 1.1348382e-38 360 291
0.051902171 0.722 -0.064561233 1.1993751e-38 361 291
0.053168077 0.722 -0.064561233 1.4663456e-38 362 291
0.054433983 0.722 -0.064561233 1.5401021e-38 363 291
-0.0025212932 0.71899998 -0.065553628 1.3925523e-38 318 292
-0.0012553866 0.71600002 -0.06528011 1.4018077e-38 319 292
0 0.71600002 -0.06528011 1.4109194e-38 320 292
0.00125188 0.71399999 -0.065097757 1.4201389e-38 321 292
0.0025002533 0.713 -0.065006584 1.4017721e-38 322 292
0.0037398601 0.71100003 -0.064824238 1.4017721e-38 323 292
0.0049794666 0.70999998 -0.064733058 1.3925525e-38 324 292
0.0062067998 0.708 -0.06455072 1.383333e-38 325 292
0.0074481601 0.708 -0.06455072 1.3004642e-38 326 292
0.008689519 0.708 -0.06455072 1.217488e-38 327 292
0.0099168532 0.70700002 -0.064459547 1.1808626e-38 328 292
0.011140679 0.70599997 -0.064368367 1.2177048e-38 329 292
0.012378532 0.70599997 -0.064368367 1.125763e-38 330 292
0.013616386 0.70599997 -0.064368367 1.1165433e-38 331 292
0.014812159 0.704 -0.064186029 1.1439508e-38 332 292
0.016046507 0.704 -0.064186029 1.1439508e-38 333 292
0.017329946 0.70599997 -0.064368367 1.1347313e-38 334 292
0.018594101 0.70700002 -0.064459547 1.1255117e-38 335 292
0.019805651 0.70599997 -0.064368367 1.0979606e-38 336 292
0.021043506 0.70599997 -0.064368367 1.1163638e-38 337 292
0.022281358 0.70599997 -0.064368367 1.1624246e-38 338 292
0.023552528 0.70700002 -0.064459547 1.05179e-38 339 292
0.024792133 0.70700002 -0.064459547 8.8626929e-39 340 292
0.026068559 0.708 -0.06455072 9.9690419e-39 341 292
0.027309919 0.708 -0.06455072 1.0887408e-38 342 292
0.02855128 0.708 -0.06455072 1.0887408e-38 343 292
0.029876797 0.70999998 -0.064733058 1.0887761e-38 344 292
0.031121666 0.70999998 -0.064733058 1.0887761e-38 345 292
0.032366529 0.70999998 -0.064733058 1.0887761e-38 346 292
0.033658739 0.71100003 -0.064824238 1.0887761e-38 347 292
0.034905359 0.71100003 -0.064824238 1.0887758e-38 348 292
0.036151983 0.71100003 -0.064824238 1.1256539e-38 349 292
0.037503798 0.713 -0.065006584 1.015447e-38 350 292
0.038753927 0.713 -0.065006584 7.5729924e-39 351 292
0.040004052 0.713 -0.065006584 7.1980989e-39 352 292
0.041254178 0.713 -0.065006584 8.488479e-39 353 292
0.042504307 0.713 -0.065006584 9.13281e-39 354 292
0.043815799 0.71399999 -0.065097757 9.409757e-39 355 292
0.045193922 0.71600002 -0.06528011 8.5879109e-39 356 292
0.046449307 0.71600002 -0.06528011 9.0485303e-39 357 292
0.04777132 0.71700001 -0.065371275 1.0242755e-38 358 292
0.049165215 0.71899998 -0.065553628 1.0611896e-38 359 292
0.050636265 0.722 -0.065827139 1.1624246e-38 360 292
0.051902171 0.722 -0.065827139 1.2085225e-38 361 292
0.053168077 0.722 -0.065827139 1.4571261e-38 362 292
0.054433983 0.722 -0.065827139 1.521663e-38 363 292
-0.0025142799 0.71700001 -0.066628419 1.4018077e-38 318 293
-0.0012553866 0.71600002 -0.066535495 1.4018077e-38 319 293
0 0.71399999 -0.066349633 1.4018074e-38 320 293
0.00125188 0.71399999 -0.066349633 1.3925879e-38 321 293
0.0025002533 0.713 -0.066256717 1.4018077e-38 322 293
0.0037345996 0.70999998 -0.065977924 1.3925523e-38 323 293
0.0049794666 0.70999998 -0.065977924 1.383333e-38 324 293
0.0062067998 0.708 -0.065792084 1.3741133e-38 325 293
0.0074481601 0.708 -0.065792084 1.3464553e-38 326 293
0.008689519 0.708 -0.065792084 1.1159303e-38 327 293
0.0099168532 0.70700002 -0.065699153 8.862337e-39 328 293
0.011140679 0.70599997 -0.065606222 9.0470884e-39 329 293
0.012378532 0.70599997 -0.065606222 9.8764959e-39 330 293
0.013616386 0.70599997 -0.065606222 1.042967e-38 331 293
0.014812159 0.704 -0.065420374 1.143878e-38 332 293
0.016046507 0.704 -0.065420374 1.1623171e-38 333 293
0.017329946 0.70599997 -0.065606222 1.1439856e-38 334 293
0.018594101 0.70700002 -0.065699153 1.1716443e-38 335 293
0.019805651 0.70599997 -0.065606222 1.1992304e-38 336 293
0.021043506 0.70599997 -0.065606222 1.1531326e-38 337 293
0.022281358 0.70599997 -0.065606222 1.1158936e-38 338 293
0.023552528 0.70700002 -0.065699153 8.485263e-39 339 293
0.024792133 0.70700002 -0.065699153 8.2166018e-39 340 293
0.026068559 0.708 -0.065792084 1.0982471e-38 341 293
0.027309919 0.708 -0.065792084 1.1163635e-38 342 293
0.028631933 0.70999998 -0.065977924 1.0887408e-38 343 293
0.029876797 0.70999998 -0.065977924 1.0888124e-38 344 293
0.031165501 0.71100003 -0.066070862 1.0795928e-38 345 293
0.032412119 0.71100003 -0.066070862 1.0795926e-38 346 293
0.033658739 0.71100003 -0.066070862 1.088848e-38 347 293
0.034905359 0.71100003 -0.066070862 1.1348735e-38 348 293
0.036151983 0.71100003 -0.066070862 1.0518616e-38 349 293
0.037503798 0.713 -0.066256717 8.3055352e-39 350 293
0.038753927 0.713 -0.066256717 1.9440368e-39 351 293
0.040004052 0.713 -0.066256717 9.1857917e-41 352 293
0.041254178 0.713 -0.066256717 1.3825967e-39 353 293
0.042563915 0.71399999 -0.066349633 1.8877032e-40 354 293
0.043938532 0.71600002 -0.066535495 9.6574688e-41 355 293
0.045257039 0.71700001 -0.066628419 1.5904121e-39 356 293
0.046514176 0.71700001 -0.066628419 6.1079966e-39 357 293
0.04790457 0.71899998 -0.066814266 1.0980325e-38 358 293
0.0492336 0.72000003 -0.066907197 1.1440945e-38 359 293
0.050636265 0.722 -0.067093052 1.1624243e-38 360 293
0.051758397 0.72000003 -0.066907197 1.2085581e-38 361 293
0.053020801 0.72000003 -0.066907197 1.4202834e-38 362 293
-0.0037714199 0.71700001 -0.067885563 1.4291064e-38 317 294
-0.0025142799 0.71700001 -0.067885563 1.4201389e-38 318 294
-0.0012553866 0.71600002 -0.067790881 1.4109194e-38 319 294
0 0.71399999 -0.067601517 1.3925523e-38 320 294
0.00125188 0.71399999 -0.067601517 1.3925523e-38 321 294
0.0025002533 0.713 -0.067506835 1.3650018e-38 322 294
0.0037345996 0.70999998 -0.067222796 1.3650018e-38 323 294
0.0049794666 0.70999998 -0.067222796 1.3281957e-38 324 294
0.0062067998 0.708 -0.067033432 1.3189761e-38 325 294
0.0074481601 0.708 -0.067033432 1.3189408e-38 326 294
0.008689519 0.708 -0.067033432 1.1529528e-38 327 294
0.0099168532 0.70700002 -0.066938758 9.8746938e-39 328 294
0.011156459 0.70700002 -0.066938758 9.5062715e-39 329 294
0.012378532 0.70599997 -0.066844068 9.6895963e-39 330 294
0.013616386 0.70599997 -0.066844068 9.9665433e-39 331 294
0.014854239 0.70599997 -0.066844068 1.1162197e-38 332 294
0.016092092 0.70599997 -0.066844068 1.1807566e-38 333 294
0.017354494 0.70700002 -0.066938758 1.2541875e-38 334 294
0.018594101 0.70700002 -0.066938758 1.2172732e-38 335 294
0.019833706 0.70700002 -0.066938758 1.198617e-38 336 294
0.021073313 0.70700002 -0.066938758 1.0050062e-38 337 294
0.022312919 0.70700002 -0.066938758 7.6561875e-39 338 294
0.023552528 0.70700002 -0.066938758 5.3509367e-39 339 294
0.024792133 0.70700002 -0.066938758 4.1686135e-39 340 294
0.026068559 0.708 -0.067033432 8.5940037e-39 341 294
0.027387066 0.70999998 -0.067222796 1.0613708e-38 342 294
0.028631933 0.70999998 -0.067222796 1.0429317e-38 343 294
0.029918881 0.71100003 -0.067317478 1.0795928e-38 344 294
0.031165501 0.71100003 -0.067317478 1.0888124e-38 345 294
0.032412119 0.71100003 -0.067317478 1.0979957e-38 346 294
0.033658739 0.71100003 -0.067317478 1.1163988e-38 347 294
0.035003547 0.713 -0.067506835 1.1806839e-38 348 294
0.036253672 0.713 -0.067506835 9.2253616e-39 349 294
0.037503798 0.713 -0.067506835 4.4322622e-39 350 294
0.038753927 0.713 -0.067506835 6.5260011e-40 351 294
0.040004052 0.713 -0.067506835 4.645935e-40 352 294
0.041254178 0.713 -0.067506835 8.3337742e-40 353 294
0.042683143 0.71600002 -0.067790881 4.645907e-40 354 294
0.043938532 0.71600002 -0.067790881 5.6051939e-45 355 294
0.045257039 0.71700001 -0.067885563 1.8529426e-39 356 294
0.046514176 0.71700001 -0.067885563 8.8594503e-39 357 294
0.0479712 0.72000003 -0.068169601 1.0888124e-38 358 294
0.0492336 0.72000003 -0.068169601 1.1533494e-38 359 294
0.050496001 0.72000003 -0.068169601 1.1440931e-38 360 294
0.051758397 0.72000003 -0.068169601 1.1348735e-38 361 294
0.053020801 0.72000003 -0.068169601 1.3925525e-38 362 294
-0.0037714199 0.71700001 -0.069142699 1.3738247e-38 317 295
-0.0025142799 0.71700001 -0.069142699 1.4015556e-38 318 295
-0.0012553866 0.71600002 -0.069046266 1.4291784e-38 319 295
0 0.71399999 -0.068853401 1.4108475e-38 320 295
0.00125188 0.71399999 -0.068853401 1.4108475e-38 321 295
0.0025002533 0.713 -0.068756968 1.3741133e-38 322 295
0.0037345996 0.70999998 -0.068467662 1.3648937e-38 323 295
0.0049794666 0.70999998 -0.068467662 1.3280878e-38 324 295
0.0062243328 0.70999998 -0.068467662 1.3096488e-38 325 295
0.0074481601 0.708 -0.068274796 1.2912818e-38 326 295
0.008689519 0.708 -0.068274796 1.2267449e-38 327 295
0.0099308798 0.708 -0.068274796 1.2174544e-38 328 295
0.011156459 0.70700002 -0.068178371 1.180612e-38 329 295
0.012378532 0.70599997 -0.06808193 1.0428224e-38 330 295
0.013616386 0.70599997 -0.06808193 9.414073e-39 331 295
0.014854239 0.70599997 -0.06808193 1.0148391e-38 332 295
0.016114887 0.70700002 -0.068178371 1.0148391e-38 333 295
0.017354494 0.70700002 -0.068178371 1.0604315e-38 334 295
0.018594101 0.70700002 -0.068178371 8.2072285e-39 335 295
0.019833706 0.70700002 -0.068178371 6.2657127e-39 336 295
0.021073313 0.70700002 -0.068178371 2.669723e-39 337 295
0.022312919 0.70700002 -0.068178371 1.4433374e-42 338 295
0.023552528 0.70700002 -0.068178371 0 339 295
0.024792133 0.70700002 -0.068178371 1.9098297e-41 340 295
0.026068559 0.708 -0.068274796 5.2774904e-39 341 295
0.027309919 0.708 -0.068274796 9.967265e-39 342 295
0.028631933 0.70999998 -0.068467662 1.0981418e-38 343 295
0.029918881 0.71100003 -0.068564095 1.1347666e-38 344 295
0.031165501 0.71100003 -0.068564095 1.1162916e-38 345 295
0.032412119 0.71100003 -0.068564095 1.1163991e-38 346 295
0.033753417 0.713 -0.068756968 1.0979601e-38 347 295
0.035003547 0.713 -0.068756968 9.7803346e-39 348 295
0.036253672 0.713 -0.068756968 4.8939662e-39 349 295
0.037503798 0.713 -0.068756968 6.1446938e-42 350 295
0.038753927 0.713 -0.068756968 7.4515027e-40 351 295
0.041254178 0.713 -0.068756968 2.8588002e-39 353 295
0.044122629 0.71899998 -0.069335558 6.4718409e-40 355 295
0.045383278 0.71899998 -0.069335558 2.6826962e-39 356 295
0.046643924 0.71899998 -0.069335558 8.8598034e-39 357 295
0.0479712 0.72000003 -0.069432005 1.070301e-38 358 295
0.0492336 0.72000003 -0.069432005 1.1348379e-38 359 295
0.050496001 0.72000003 -0.069432005 1.1163266e-38 360 295
0.051758397 0.72000003 -0.069432005 1.1163266e-38 361 295
0.053020801 0.72000003 -0.069432005 1.4018443e-38 362 295
-0.00376616 0.71600002 -0.070301652 1.3738964e-38 317 296
-0.0025107733 0.71600002 -0.070301652 1.3831884e-38 318 296
-0.0012553866 0.71600002 -0.070301652 1.3647494e-38 319 296
0 0.71399999 -0.070105277 1.3740411e-38 320 296
0.00125188 0.71399999 -0.070105277 1.3832607e-38 321 296
0.0025002533 0.713 -0.070007093 1.3464903e-38 322 296
0.0037398601 0.71100003 -0.069810718 1.3464903e-38 323 296
0.0049794666 0.70999998 -0.069712527 1.3005011e-38 324 296
0.0062243328 0.70999998 -0.069712527 1.2912815e-38 325 296
0.0074481601 0.708 -0.069516152 1.2637306e-38 326 296
0.008689519 0.708 -0.069516152 1.2452556e-38 327 296
0.0099308798 0.708 -0.069516152 1.2175976e-38 328 296
0.01117224 0.708 -0.069516152 1.1991585e-38 329 296
0.012396066 0.70700002 -0.069417976 1.1623524e-38 330 296
0.013635674 0.70700002 -0.069417976 1.107035e-38 331 296
0.01487528 0.70700002 -0.069417976 1.0977789e-38 332 296
0.016114887 0.70700002 -0.069417976 9.3179075e-39 333 296
0.017354494 0.70700002 -0.069417976 4.0630915e-39 334 296
0.0186204 0.708 -0.069516152 3.0489382e-39 335 296
0.019833706 0.70700002 -0.069417976 2.766222e-39 336 296
0.021073313 0.70700002 -0.069417976 1.9364614e-39 337 296
0.022312919 0.70700002 -0.069417976 9.2699537e-40 338 296
0.023552528 0.70700002 -0.069417976 7.4260271e-40 339 296
0.024792133 0.70700002 -0.069417976 7.596439e-42 340 296
0.026068559 0.708 -0.069516152 2.683069e-39 341 296
0.027309919 0.708 -0.069516152 5.2749989e-39 342 296
0.028672259 0.71100003 -0.069810718 8.5018459e-39 343 296
0.030003037 0.713 -0.070007093 1.125583e-38 344 296
0.031253166 0.713 -0.070007093 1.0979604e-38 345 296
0.032548878 0.71399999 -0.070105277 1.1348735e-38 346 296
0.033753417 0.713 -0.070007093 9.9658007e-39 347 296
0.035003547 0.713 -0.070007093 3.4270954e-39 348 296
0.036253672 0.713 -0.070007093 2.9244398e-40 349 296
0.037503798 0.713 -0.070007093 3.7383981e-40 350 296
0.044183999 0.72000003 -0.070694394 9.4729177e-41 355 296
0.045446403 0.72000003 -0.070694394 3.4159425e-39 356 296
0.0467088 0.72000003 -0.070694394 9.5930497e-39 357 296
0.0479712 0.72000003 -0.070694394 1.0978871e-38 358 296
0.0492336 0.72000003 -0.070694394 1.1348013e-38 359 296
0.050496001 0.72000003 -0.070694394 1.1346932e-38 360 296
0.051758397 0.72000003 -0.070694394 1.180827e-38 361 296
-0.0050215465 0.71600002 -0.071557038 1.447725e-38 316 297
-0.00376616 0.71600002 -0.071557038 1.4016272e-38 317 297
-0.0025107733 0.71600002 -0.071557038 1.3924076e-38 318 297
-0.0012553866 0.71600002 -0.071557038 1.34631e-38 319 297
0 0.71399999 -0.071357153 1.355602e-38 320 297
0.00125188 0.71399999 -0.071357153 1.3648215e-38 321 297
0.0025037599 0.71399999 -0.071357153 1.3280159e-38 322 297
0.0037398601 0.71100003 -0.071057342 1.3187604e-38 323 297
0.0049794666 0.70999998 -0.070957392 1.2636954e-38 324 297
0.0062243328 0.70999998 -0.070957392 1.2636954e-38 325 297
0.0074481601 0.708 -0.070757516 1.2453642e-38 326 297
0.008689519 0.708 -0.070757516 1.2361445e-38 327 297
0.0099308798 0.708 -0.070757516 1.2176695e-38 328 297
0.01117224 0.708 -0.070757516 1.1992304e-38 329 297
0.012396066 0.70700002 -0.070657574 1.2084499e-38 330 297
0.013635674 0.70700002 -0.070657574 1.2268891e-38 331 297
0.01487528 0.70700002 -0.070657574 1.1807192e-38 332 297
0.016114887 0.70700002 -0.070657574 8.6725409e-39 333 297
0.017354494 0.70700002 -0.070657574 1.4629556e-42 334 297
0.0186204 0.708 -0.070757516 5.0628914e-42 335 297
0.019833706 0.70700002 -0.070657574 2.3981808e-39 336 297
0.021073313 0.70700002 -0.070657574 2.8588002e-39 337 297
0.022312919 0.70700002 -0.070657574 2.7687584e-39 338 297
0.023552528 0.70700002 -0.070657574 2.7687584e-39 339 297
0.025212931 0.71899998 -0.071856856 9.2701078e-40 340 297
0.026179021 0.71100003 -0.071057342 2.8936813e-42 341 297
0.027425639 0.71100003 -0.071057342 3.6946846e-39 342 297
0.028672259 0.71100003 -0.071057342 1.0240574e-38 343 297
0.030003037 0.713 -0.071257219 1.1346934e-38 344 297
0.031296998 0.71399999 -0.071357153 1.143913e-38 345 297
0.032548878 0.71399999 -0.071357153 1.1440915e-38 346 297
0.033800758 0.71399999 -0.071357153 8.9512732e-39 347 297
0.035052639 0.71399999 -0.071357153 1.3668265e-41 348 297
0.038808275 0.71399999 -0.071357153 2.6765571e-39 351 297
0.043040827 0.722 -0.072156675 1.570218e-39 354 297
0.044306733 0.722 -0.072156675 2.1734139e-42 355 297
0.045446403 0.72000003 -0.071956798 5.3426928e-39 356 297
0.0467088 0.72000003 -0.071956798 1.152016e-38 357 297
0.0479712 0.72000003 -0.071956798 1.1070701e-38 358 297
0.0492336 0.72000003 -0.071956798 1.1531679e-38 359 297
0.050425861 0.71899998 -0.071856856 1.1990862e-38 360 297
0.05168651 0.71899998 -0.071856856 1.2912818e-38 361 297
-0.0050215465 0.71600002 -0.072812423 1.4569443e-38 316 298
-0.00376616 0.71600002 -0.072812423 1.4108825e-38 317 298
-0.0025107733 0.71600002 -0.072812423 1.4383617e-38 318 298
-0.0012553866 0.71600002 -0.072812423 1.410667e-38 319 298
0 0.71399999 -0.072609037 1.3556017e-38 320 298
0.00125188 0.71399999 -0.072609037 1.3187593e-38 321 298
0.0025037599 0.71399999 -0.072609037 1.2726985e-38 322 298
0.0037398601 0.71100003 -0.072303966 1.2634789e-38 323 298
0.0049794666 0.70999998 -0.072202265 1.2452562e-38 324 298
0.0062243328 0.70999998 -0.072202265 1.2544757e-38 325 298
0.0074481601 0.708 -0.071998879 1.2269612e-38 326 298
0.008689519 0.708 -0.071998879 1.2269612e-38 327 298
0.0099308798 0.708 -0.071998879 1.2176342e-38 328 298
0.01117224 0.708 -0.071998879 1.2084146e-38 329 298
0.0124136 0.708 -0.071998879 1.1901909e-38 330 298
0.013654959 0.708 -0.071998879 1.20863e-38 331 298
0.01489632 0.708 -0.071998879 1.1071073e-38 332 298
0.01613768 0.708 -0.071998879 7.936422e-39 333 298
0.017379038 0.708 -0.071998879 4.3440252e-42 334 298
0.0186204 0.708 -0.071998879 9.7460308e-42 335 298
0.01986176 0.708 -0.071998879 2.7676864e-39 336 298
0.021103119 0.708 -0.071998879 2.7676864e-39 337 298
0.022344479 0.708 -0.071998879 2.859882e-39 338 298
0.025212931 0.71899998 -0.073117502 1.019212e-39 340 298
0.02647358 0.71899998 -0.073117502 1.5723858e-39 341 298
0.027502786 0.713 -0.072507344 6.4548025e-39 342 298
0.028752912 0.713 -0.072507344 1.1802508e-38 343 298
0.030045118 0.71399999 -0.072609037 1.1622802e-38 344 298
0.031296998 0.71399999 -0.072609037 1.1530607e-38 345 298
0.032548878 0.71399999 -0.072609037 1.2267799e-38 346 298
0.033800758 0.71399999 -0.072609037 1.0700832e-38 347 298
0.042921603 0.72000003 -0.073219202 1.4895677e-39 354 298
0.044183999 0.72000003 -0.073219202 3.1487289e-39 355 298
0.045446403 0.72000003 -0.073219202 7.7487881e-39 356 298
0.0467088 0.72000003 -0.073219202 1.0606851e-38 357 298
0.0479712 0.72000003 -0.073219202 1.1161098e-38 358 298
0.049165215 0.71899998 -0.073117502 1.1345848e-38 359 298
0.050425861 0.71899998 -0.073117502 1.2634789e-38 360 298
0.05168651 0.71899998 -0.073117502 1.3648581e-38 361 298
-0.0050215465 0.71600002 -0.074067809 1.4661273e-38 316 299
-0.00376616 0.71600002 -0.074067809 1.4384686e-38 317 299
-0.0025107733 0.71600002 -0.074067809 1.4476166e-38 318 299
-0.00125188 0.71399999 -0.073860914 1.4291414e-38 319 299
0 0.71399999 -0.073860914 1.3831878e-38 320 299
0.00125188 0.71399999 -0.073860914 1.3371259e-38 321 299
0.0025037599 0.71399999 -0.073860914 1.2819534e-38 322 299
0.0037398601 0.71100003 -0.073550582 1.2727338e-38 323 299
0.0049794666 0.70999998 -0.073447131 1.2268528e-38 324 299
0.0062243328 0.70999998 -0.073447131 1.2268528e-38 325 299
0.0074691991 0.70999998 -0.073447131 1.199303e-38 326 299
0.008689519 0.708 -0.073240235 1.199303e-38 327 299
0.0099308798 0.708 -0.073240235 1.199303e-38 328 299
0.01117224 0.708 -0.073240235 1.1900834e-38 329 299
0.0124136 0.708 -0.073240235 1.2268896e-38 330 299
0.013654959 0.708 -0.073240235 1.2453289e-38 331 299
0.01489632 0.708 -0.073240235 1.005764e-38 332 299
0.01613768 0.708 -0.073240235 7.0155447e-39 333 299
0.017379038 0.708 -0.073240235 7.2166871e-42 334 299
0.0188308 0.71600002 -0.074067809 1.1898425e-41 335 299
0.020086186 0.71600002 -0.074067809 3.4108908e-39 336 299
0.021341572 0.71600002 -0.074067809 3.4108908e-39 337 299
0.022691639 0.71899998 -0.074378148 2.8584499e-39 338 299
0.026363119 0.71600002 -0.074067809 3.8862967e-39 341 299
0.027618507 0.71600002 -0.074067809 8.6736395e-39 342 299
0.028873893 0.71600002 -0.074067809 1.1439508e-38 343 299
0.03012928 0.71600002 -0.074067809 1.1348016e-38 344 299
0.031384666 0.71600002 -0.074067809 1.1163266e-38 345 299
0.032640055 0.71600002 -0.074067809 1.1991585e-38 346 299
0.03389544 0.71600002 -0.074067809 1.1622802e-38 347 299
0.035150826 0.71600002 -0.074067809 1.0327343e-38 348 299
0.044122629 0.71899998 -0.074378148 6.8358604e-39 355 299
0.045383278 0.71899998 -0.074378148 9.6874327e-39 356 299
0.046643924 0.71899998 -0.074378148 1.0424998e-38 357 299
0.04790457 0.71899998 -0.074378148 1.0976354e-38 358 299
0.049165215 0.71899998 -0.074378148 1.0884158e-38 359 299
0.050425861 0.71899998 -0.074378148 1.3370552e-38 360 299
-0.0050075199 0.71399999 -0.075112797 1.4844588e-38 316 300
-0.0037556398 0.71399999 -0.075112797 1.438397e-38 317 300
-0.0025037599 0.71399999 -0.075112797 1.438397e-38 318 300
-0.00125188 0.71399999 -0.075112797 1.438397e-38 319 300
0 0.71399999 -0.075112797 1.4201023e-38 320 300
0.00125188 0.71399999 -0.075112797 1.3831881e-38 321 300
0.0025037599 0.71399999 -0.075112797 1.3372708e-38 322 300
0.0037503797 0.713 -0.075007595 1.3095761e-38 323 300
0.0049864799 0.71100003 -0.074797198 1.2085934e-38 324 300
0.0062243328 0.70999998 -0.074691996 1.199338e-38 325 300
0.0074691991 0.70999998 -0.074691996 1.2084149e-38 326 300
0.0087140659 0.70999998 -0.074691996 1.2084149e-38 327 300
0.0099589331 0.70999998 -0.074691996 1.180936e-38 328 300
0.011203799 0.70999998 -0.074691996 1.1901556e-38 329 300
0.012448666 0.70999998 -0.074691996 1.2085578e-38 330 300
0.013693533 0.70999998 -0.074691996 1.2085578e-38 331 300
0.014938398 0.70999998 -0.074691996 9.4126115e-39 332 300
0.016183265 0.70999998 -0.074691996 5.4481994e-39 333 300
0.017428132 0.70999998 -0.074691996 3.6069422e-42 334 300
0.0188308 0.71600002 -0.075323202 6.1278782e-42 335 300
0.020086186 0.71600002 -0.075323202 1.019212e-39 336 300
0.021341572 0.71600002 -0.075323202 8.3446203e-40 337 300
0.022691639 0.71899998 -0.075638793 9.390101e-42 338 300
0.023952285 0.71899998 -0.075638793 3.1458422e-39 339 300
0.026363119 0.71600002 -0.075323202 9.0557204e-39 341 300
0.027618507 0.71600002 -0.075323202 1.2083427e-38 342 300
0.028873893 0.71600002 -0.075323202 1.1899035e-38 343 300
0.030171359 0.71700001 -0.075428396 1.0979957e-38 344 300
0.031428497 0.71700001 -0.075428396 1.0979957e-38 345 300
0.032640055 0.71600002 -0.075323202 1.1163266e-38 346 300
0.033942781 0.71700001 -0.075428396 1.1440212e-38 347 300
0.035199918 0.71700001 -0.075428396 1.2907408e-38 348 300
0.044122629 0.71899998 -0.075638793 1.1715723e-38 355 300
0.045257039 0.71700001 -0.075428396 1.2081981e-38 356 300
0.046514176 0.71700001 -0.075428396 1.1713559e-38 357 300
0.04777132 0.71700001 -0.075428396 1.1345848e-38 358 300
0.049165215 0.71899998 -0.075638793 1.1991218e-38 359 300
-0.0050075199 0.71399999 -0.076364681 1.4844225e-38 316 301
-0.0037503797 0.713 -0.076257721 1.4659475e-38 317 301
-0.0025002533 0.713 -0.076257721 1.4291414e-38 318 301
-0.00125188 0.71399999 -0.076364681 1.4107023e-38 319 301
0 0.71399999 -0.076364681 1.374113e-38 320 301
0.00125188 0.71399999 -0.076364681 1.374113e-38 321 301
0.0025107733 0.71600002 -0.076578587 1.3648937e-38 322 301
0.0037556398 0.71399999 -0.076364681 1.3464547e-38 323 301
0.0050005065 0.713 -0.076257721 1.2912099e-38 324 301
0.0062330998 0.71100003 -0.076043822 1.2727348e-38 325 301
0.0074797203 0.71100003 -0.076043822 1.2267822e-38 326 301
0.0087263398 0.71100003 -0.076043822 1.2175626e-38 327 301
0.0099589331 0.70999998 -0.075936861 1.180936e-38 328 301
0.011203799 0.70999998 -0.075936861 1.1532775e-38 329 301
0.0124662 0.71100003 -0.076043822 1.1624596e-38 330 301
0.01371282 0.71100003 -0.076043822 1.1440565e-38 331 301
0.015001519 0.713 -0.076257721 1.0334192e-38 332 301
0.016251646 0.713 -0.076257721 7.0151495e-39 333 301
0.017575413 0.71600002 -0.076578587 3.9755804e-39 334 301
0.0188308 0.71600002 -0.076578587 2.869593e-39 335 301
0.020086186 0.71600002 -0.076578587 2.6837752e-39 336 301
0.021341572 0.71600002 -0.076578587 1.6692646e-39 337 301
0.022691639 0.71899998 -0.076899439 4.7755831e-40 338 301
0.025212931 0.71899998 -0.076899439 1.0883805e-38 340 301
0.026363119 0.71600002 -0.076578587 1.2359294e-38 341 301
0.027618507 0.71600002 -0.076578587 1.180792e-38 342 301
