# .PCD v.7 - Point Cloud Data file format
FIELDS x y z rgb imX imY
SIZE 4 4 4 4 4 4
TYPE F F F F F F
COUNT 1 1 1 1 1 1
WIDTH 827
HEIGHT 1
VIEWPOINT 0 0 0 1 0 0 0
POINTS 827
DATA ascii
0.022753006 0.68300003 -0.0035925799 1.2786365e-38 339 243
0.023950534 0.68300003 -0.0035925799 1.1959148e-38 340 243
0.025184879 0.68400002 -0.00359784 8.0869313e-39 341 243
0.02638416 0.68400002 -0.00359784 2.8512318e-39 342 243
0.027664091 0.68599999 -0.00360836 2.3898935e-39 343 243
0.028908957 0.68699998 -0.0036136196 4.2312698e-39 344 243
0.030157333 0.68800002 -0.0036188802 5.7989542e-39 345 243
0.031454802 0.69 -0.0036293997 1.1591062e-38 346 243
0.032664597 0.69 -0.0036293997 1.20524e-38 347 243
0.0338744 0.69 -0.0036293997 1.2784567e-38 348 243
0.035135046 0.69099998 -0.0036346598 1.2876763e-38 349 243
0.036346599 0.69099998 -0.0036346598 1.2968956e-38 350 243
0.03755815 0.69099998 -0.0036346598 1.2968956e-38 351 243
0.038769703 0.69099998 -0.0036346598 1.3154056e-38 352 243
0.04009698 0.69300002 -0.0036451798 1.3154056e-38 353 243
0.041312039 0.69300002 -0.0036451798 1.3154056e-38 354 243
0.042527102 0.69300002 -0.0036451798 1.3338087e-38 355 243
0.043742158 0.69300002 -0.0036451798 1.3246619e-38 356 243
0.045022093 0.69400001 -0.0036504399 1.3246619e-38 357 243
0.046238903 0.69400001 -0.0036504399 1.3154423e-38 358 243
0.047592476 0.69599998 -0.0036609597 1.3246619e-38 359 243
0.048812799 0.69599998 -0.0036609597 1.1314479e-38 360 243
0.050033119 0.69599998 -0.0036609597 9.1017824e-39 361 243
0.051400717 0.69800001 -0.0036714801 3.3060779e-39 362 243
0.052775331 0.69999999 -0.0036819996 5.9786539e-39 363 243
0.054079808 0.70099998 -0.0036872597 1.1687222e-38 364 243
-0.033043321 0.69800001 -0.0048953067 1.325236e-38 293 244
-0.031819493 0.69800001 -0.0048953067 1.416713e-38 294 244
-0.030507999 0.69599998 -0.0048812795 1.4259685e-38 295 244
-0.029287677 0.69599998 -0.0048812795 1.4442994e-38 296 244
-0.028067358 0.69599998 -0.0048812795 1.453519e-38 297 244
-0.02673132 0.69300002 -0.00486024 1.4627738e-38 298 244
-0.025405798 0.69 -0.0048391996 1.4627738e-38 299 244
-0.024090799 0.68699998 -0.0048181596 1.5086915e-38 300 244
-0.022786319 0.68400002 -0.0047971201 1.517911e-38 301 244
-0.02158704 0.68400002 -0.0047971201 1.5547171e-38 302 244
-0.020387759 0.68400002 -0.0047971201 1.5824117e-38 303 244
-0.019160427 0.68300003 -0.0047901068 1.564152e-38 304 244
-0.017962901 0.68300003 -0.0047901068 1.5733718e-38 305 244
-0.016765373 0.68300003 -0.0047901068 1.5546821e-38 306 244
-0.015545053 0.68199998 -0.004783093 1.4809256e-38 307 244
-0.01434928 0.68199998 -0.004783093 1.2142442e-38 308 244
-0.013153506 0.68199998 -0.004783093 9.8375496e-39 309 244
-0.011957732 0.68199998 -0.004783093 3.4926341e-39 310 244
-0.010761959 0.68199998 -0.004783093 3.7688623e-39 311 244
-0.009566186 0.68199998 -0.004783093 2.6704531e-39 312 244
-0.0083458666 0.68000001 -0.0047690663 3.0392342e-39 313 244
-0.0071535995 0.68000001 -0.0047690663 6.2595918e-39 314 244
-0.0059525664 0.67900002 -0.0047620535 8.4726471e-39 315 244
-0.0047620535 0.67900002 -0.0047620535 1.2144259e-38 316 244
-0.0035715401 0.67900002 -0.0047620535 1.2420486e-38 317 244
-0.0023810267 0.67900002 -0.0047620535 1.2603063e-38 318 244
-0.0011905134 0.67900002 -0.0047620535 1.2418671e-38 319 244
0 0.67900002 -0.0047620535 1.2601618e-38 320 244
0.0011905134 0.67900002 -0.0047620535 1.2693813e-38 321 244
0.0023845332 0.68000001 -0.0047690663 1.2694169e-38 322 244
0.0035767998 0.68000001 -0.0047690663 1.2694169e-38 323 244
0.004783093 0.68199998 -0.004783093 1.2601621e-38 324 244
0.005978866 0.68199998 -0.004783093 1.2601621e-38 325 244
0.00717464 0.68199998 -0.004783093 1.2601621e-38 326 244
0.0083704125 0.68199998 -0.004783093 1.2601621e-38 327 244
0.009566186 0.68199998 -0.004783093 1.2784211e-38 328 244
0.010761959 0.68199998 -0.004783093 1.2784211e-38 329 244
0.011957732 0.68199998 -0.004783093 1.2508703e-38 330 244
0.013172794 0.68300003 -0.0047901068 1.2508703e-38 331 244
0.014370319 0.68300003 -0.0047901068 1.2692018e-38 332 244
0.015567848 0.68300003 -0.0047901068 1.2692018e-38 333 244
0.016765373 0.68300003 -0.0047901068 1.2325391e-38 334 244
0.017962901 0.68300003 -0.0047901068 1.2509422e-38 335 244
0.019160427 0.68300003 -0.0047901068 1.2325744e-38 336 244
0.020357953 0.68300003 -0.0047901068 1.2509775e-38 337 244
0.02155548 0.68300003 -0.0047901068 1.2509419e-38 338 244
0.022753006 0.68300003 -0.0047901068 1.2786365e-38 339 244
0.023950534 0.68300003 -0.0047901068 1.1131548e-38 340 244
0.025184879 0.68400002 -0.0047971201 6.5217664e-39 341 244
0.02638416 0.68400002 -0.0047971201 1.4715357e-39 342 244
0.027664091 0.68599999 -0.0048111463 1.6559284e-39 343 244
0.028951041 0.68800002 -0.0048251734 5.1517841e-39 344 244
0.030157333 0.68800002 -0.0048251734 7.180088e-39 345 244
0.031454802 0.69 -0.0048391996 1.2051318e-38 346 244
0.032664597 0.69 -0.0048391996 1.2235709e-38 347 244
0.0338744 0.69 -0.0048391996 1.2784564e-38 348 244
0.035084199 0.69 -0.0048391996 1.2784564e-38 349 244
0.036346599 0.69099998 -0.0048462129 1.278492e-38 350 244
0.03755815 0.69099998 -0.0048462129 1.2877116e-38 351 244
0.038769703 0.69099998 -0.0048462129 1.3152977e-38 352 244
0.039981257 0.69099998 -0.0048462129 1.3152977e-38 353 244
0.041312039 0.69300002 -0.00486024 1.306186e-38 354 244
0.042527102 0.69300002 -0.00486024 1.306186e-38 355 244
0.043742158 0.69300002 -0.00486024 1.3153706e-38 356 244
0.045022093 0.69400001 -0.0048672534 1.3153706e-38 357 244
0.046238903 0.69400001 -0.0048672534 1.306151e-38 358 244
0.047592476 0.69599998 -0.0048812795 1.3337738e-38 359 244
0.048812799 0.69599998 -0.0048812795 1.1774381e-38 360 244
0.050033119 0.69599998 -0.0048812795 9.5616858e-39 361 244
0.051547997 0.69999999 -0.0049093333 3.1224069e-39 362 244
0.052775331 0.69999999 -0.0049093333 5.8850304e-39 363 244
0.054079808 0.70099998 -0.0049163462 1.1686151e-38 364 244
0.055308893 0.70099998 -0.0049163462 1.1409564e-38 365 244
-0.033137999 0.69999999 -0.0061366665 1.3250561e-38 293 245
-0.031819493 0.69800001 -0.006119133 1.4075654e-38 294 245
-0.030507999 0.69599998 -0.0061015999 1.4167849e-38 295 245
-0.029287677 0.69599998 -0.0061015999 1.4168205e-38 296 245
-0.027986705 0.69400001 -0.0060840664 1.4260401e-38 297 245
-0.02673132 0.69300002 -0.0060753003 1.4536262e-38 298 245
-0.02533216 0.68800002 -0.0060314666 1.4536262e-38 299 245
-0.024090799 0.68699998 -0.0060226996 1.4903968e-38 300 245
-0.022786319 0.68400002 -0.0059964 1.4903968e-38 301 245
-0.02158704 0.68400002 -0.0059964 1.5089438e-38 302 245
-0.020387759 0.68400002 -0.0059964 1.5550418e-38 303 245
-0.019160427 0.68300003 -0.0059876335 1.5827003e-38 304 245
-0.017962901 0.68300003 -0.0059876335 1.6195787e-38 305 245
-0.016765373 0.68300003 -0.0059876335 1.5090178e-38 306 245
-0.015545053 0.68199998 -0.005978866 1.4076385e-38 307 245
-0.01434928 0.68199998 -0.005978866 9.1972417e-39 308 245
-0.013153506 0.68199998 -0.005978866 7.1689378e-39 309 245
-0.011957732 0.68199998 -0.005978866 2.1143884e-39 310 245
-0.010761959 0.68199998 -0.005978866 2.9441491e-39 311 245
-0.009566186 0.68199998 -0.005978866 3.4976914e-39 312 245
-0.0083458666 0.68000001 -0.0059613334 5.5259953e-39 313 245
-0.0071430802 0.67900002 -0.0059525664 9.6618324e-39 314 245
-0.0059525664 0.67900002 -0.0059525664 1.1229158e-38 315 245
-0.0047620535 0.67900002 -0.0059525664 1.2605233e-38 316 245
-0.0035715401 0.67900002 -0.0059525664 1.2144255e-38 317 245
-0.0023810267 0.67900002 -0.0059525664 1.2510867e-38 318 245
-0.0011905134 0.67900002 -0.0059525664 1.2418671e-38 319 245
0 0.67900002 -0.0059525664 1.2510857e-38 320 245
0.0011905134 0.67900002 -0.0059525664 1.2510857e-38 321 245
0.0023845332 0.68000001 -0.0059613334 1.2510857e-38 322 245
0.00358732 0.68199998 -0.005978866 1.2418303e-38 323 245
0.004783093 0.68199998 -0.005978866 1.2418308e-38 324 245
0.005978866 0.68199998 -0.005978866 1.2418308e-38 325 245
0.00717464 0.68199998 -0.005978866 1.2418303e-38 326 245
0.0083704125 0.68199998 -0.005978866 1.2418303e-38 327 245
0.009566186 0.68199998 -0.005978866 1.2601252e-38 328 245
0.010761959 0.68199998 -0.005978866 1.2509056e-38 329 245
0.011957732 0.68199998 -0.005978866 1.2325388e-38 330 245
0.013172794 0.68300003 -0.0059876335 1.2509419e-38 331 245
0.014370319 0.68300003 -0.0059876335 1.241615e-38 332 245
0.015567848 0.68300003 -0.0059876335 1.241615e-38 333 245
0.016765373 0.68300003 -0.0059876335 1.2325754e-38 334 245
0.0179892 0.68400002 -0.0059964 1.2325754e-38 335 245
0.019160427 0.68300003 -0.0059876335 1.2325388e-38 336 245
0.020357953 0.68300003 -0.0059876335 1.2325388e-38 337 245
0.02155548 0.68300003 -0.0059876335 1.2325388e-38 338 245
0.022753006 0.68300003 -0.0059876335 1.2233191e-38 339 245
0.023950534 0.68300003 -0.0059876335 9.5667445e-39 340 245
0.02514806 0.68300003 -0.0059876335 5.4182985e-39 341 245
0.02638416 0.68400002 -0.0059964 8.2831313e-40 342 245
0.027664091 0.68599999 -0.0060139326 1.0130631e-39 343 245
0.028951041 0.68800002 -0.0060314666 6.0719215e-39 344 245
0.030157333 0.68800002 -0.0060314666 8.4690093e-39 345 245
0.031454802 0.69 -0.0060489997 1.1957683e-38 346 245
0.032664597 0.69 -0.0060489997 1.2233912e-38 347 245
0.0338744 0.69 -0.0060489997 1.2692372e-38 348 245
0.035084199 0.69 -0.0060489997 1.2784567e-38 349 245
0.036293998 0.69 -0.0060489997 1.2784917e-38 350 245
0.037503798 0.69 -0.0060489997 1.2877113e-38 351 245
0.038713597 0.69 -0.0060489997 1.287711e-38 352 245
0.039981257 0.69099998 -0.0060577663 1.287711e-38 353 245
0.041312039 0.69300002 -0.0060753003 1.2877113e-38 354 245
0.042527102 0.69300002 -0.0060753003 1.2969309e-38 355 245
0.043742158 0.69300002 -0.0060753003 1.2968956e-38 356 245
0.045022093 0.69400001 -0.0060840664 1.3153706e-38 357 245
0.046238903 0.69400001 -0.0060840664 1.297003e-38 358 245
0.047592476 0.69599998 -0.0061015999 1.297003e-38 359 245
0.048812799 0.69599998 -0.0061015999 1.2050249e-38 360 245
0.050105009 0.69700003 -0.0061103669 1.0206336e-38 361 245
0.051400717 0.69800001 -0.006119133 3.4897489e-39 362 245
0.052775331 0.69999999 -0.0061366665 5.6070071e-39 363 245
0.054002665 0.69999999 -0.0061366665 1.1133703e-38 364 245
0.055229999 0.69999999 -0.0061366665 1.1041149e-38 365 245
-0.035948593 0.70700002 -0.0074376399 1.1041835e-38 291 246
-0.034561705 0.704 -0.0074060797 1.3617185e-38 292 246
-0.033137999 0.69999999 -0.0073639993 1.3893413e-38 293 246
-0.031910665 0.69999999 -0.0073639993 1.398489e-38 294 246
-0.030551834 0.69700003 -0.00733244 1.3892694e-38 295 246
-0.02932976 0.69700003 -0.00733244 1.4167483e-38 296 246
-0.027986705 0.69400001 -0.0073008798 1.4167483e-38 297 246
-0.02673132 0.69300002 -0.0072903596 1.444335e-38 298 246
-0.02533216 0.68800002 -0.0072377604 1.4535546e-38 299 246
-0.024090799 0.68699998 -0.0072272392 1.4627738e-38 300 246
-0.022786319 0.68400002 -0.0071956799 1.4627738e-38 301 246
-0.02155548 0.68300003 -0.0071851597 1.4720653e-38 302 246
-0.020357953 0.68300003 -0.0071851597 1.5181631e-38 303 246
-0.019160427 0.68300003 -0.0071851597 1.5368546e-38 304 246
-0.017962901 0.68300003 -0.0071851597 1.5645134e-38 305 246
-0.016765373 0.68300003 -0.0071851597 1.2785293e-38 306 246
-0.015545053 0.68199998 -0.00717464 1.0664794e-38 307 246
-0.01434928 0.68199998 -0.00717464 3.8570992e-39 308 246
-0.013153506 0.68199998 -0.00717464 3.3979148e-39 309 246
-0.011957732 0.68199998 -0.00717464 1.7477737e-39 310 246
-0.010761959 0.68199998 -0.00717464 3.4994893e-39 311 246
-0.009566186 0.68199998 -0.00717464 6.5369046e-39 312 246
-0.0083458666 0.68000001 -0.0071535995 9.8559473e-39 313 246
-0.0071325595 0.67799997 -0.0071325595 1.2791442e-38 314 246
-0.0059437994 0.67799997 -0.0071325595 1.2053877e-38 315 246
-0.0047620535 0.67900002 -0.0071430802 1.2420839e-38 316 246
-0.0035715401 0.67900002 -0.0071430802 1.2236808e-38 317 246
-0.0023810267 0.67900002 -0.0071430802 1.2510867e-38 318 246
-0.0011922666 0.68000001 -0.0071535995 1.2418671e-38 319 246
0 0.68000001 -0.0071535995 1.2419022e-38 320 246
0.0011922666 0.68000001 -0.0071535995 1.2419022e-38 321 246
0.0023845332 0.68000001 -0.0071535995 1.2419378e-38 322 246
0.00358732 0.68199998 -0.00717464 1.2235346e-38 323 246
0.004783093 0.68199998 -0.00717464 1.232611e-38 324 246
0.005978866 0.68199998 -0.00717464 1.2418306e-38 325 246
0.00717464 0.68199998 -0.00717464 1.2418306e-38 326 246
0.0083704125 0.68199998 -0.00717464 1.232611e-38 327 246
0.009566186 0.68199998 -0.00717464 1.2325744e-38 328 246
0.010761959 0.68199998 -0.00717464 1.2509775e-38 329 246
0.011957732 0.68199998 -0.00717464 1.2233544e-38 330 246
0.013153506 0.68199998 -0.00717464 1.2233544e-38 331 246
0.014370319 0.68300003 -0.0071851597 1.2233191e-38 332 246
0.015567848 0.68300003 -0.0071851597 1.2325388e-38 333 246
0.016765373 0.68300003 -0.0071851597 1.2325035e-38 334 246
0.0179892 0.68400002 -0.0071956799 1.2325035e-38 335 246
0.019160427 0.68300003 -0.0071851597 1.2325391e-38 336 246
0.020357953 0.68300003 -0.0071851597 1.2325391e-38 337 246
0.02155548 0.68300003 -0.0071851597 1.2142089e-38 338 246
0.022753006 0.68300003 -0.0071851597 1.1312327e-38 339 246
0.023950534 0.68300003 -0.0071851597 7.9108315e-39 340 246
0.02514806 0.68300003 -0.0071851597 4.2244426e-39 341 246
0.02638416 0.68400002 -0.0071956799 1.2882179e-39 342 246
0.027583439 0.68400002 -0.0071956799 1.2882179e-39 343 246
0.028951041 0.68800002 -0.0072377604 7.0842784e-39 344 246
0.030157333 0.68800002 -0.0072377604 9.8501487e-39 345 246
0.031363625 0.68800002 -0.0072377604 1.2048797e-38 346 246
0.032664597 0.69 -0.0072587994 1.2233188e-38 347 246
0.0338744 0.69 -0.0072587994 1.278492e-38 348 246
0.035084199 0.69 -0.0072587994 1.2877116e-38 349 246
0.036293998 0.69 -0.0072587994 1.2784915e-38 350 246
0.037503798 0.69 -0.0072587994 1.2784915e-38 351 246
0.038713597 0.69 -0.0072587994 1.287675e-38 352 246
0.0399234 0.69 -0.0072587994 1.287675e-38 353 246
0.041192811 0.69099998 -0.0072693196 1.2968946e-38 354 246
0.042527102 0.69300002 -0.0072903596 1.2968946e-38 355 246
0.043742158 0.69300002 -0.0072903596 1.3152977e-38 356 246
0.044957221 0.69300002 -0.0072903596 1.3245173e-38 357 246
0.046238903 0.69400001 -0.0073008798 1.2970028e-38 358 246
0.047592476 0.69599998 -0.0073219193 1.2785996e-38 359 246
0.048812799 0.69599998 -0.0073219193 1.2325035e-38 360 246
0.050105009 0.69700003 -0.00733244 1.1218686e-38 361 246
0.051400717 0.69800001 -0.0073429602 3.9489263e-39 362 246
0.052775331 0.69999999 -0.0073639993 5.3293412e-39 363 246
0.054002665 0.69999999 -0.0073639993 9.8461984e-39 364 246
0.055229999 0.69999999 -0.0073639993 9.9383941e-39 365 246
0.056537982 0.70099998 -0.0073745195 1.0491565e-38 366 246
-0.035897743 0.70599997 -0.0086649731 1.1137641e-38 291 247
-0.034561705 0.704 -0.0086404262 1.3432082e-38 292 247
-0.033280019 0.70300001 -0.0086281532 1.3709029e-38 293 247
-0.031910665 0.69999999 -0.0085913334 1.3709029e-38 294 247
-0.030551834 0.69700003 -0.0085545136 1.3709029e-38 295 247
-0.02932976 0.69700003 -0.0085545136 1.3983459e-38 296 247
-0.027986705 0.69400001 -0.0085176928 1.4075656e-38 297 247
-0.02673132 0.69300002 -0.0085054198 1.3984537e-38 298 247
-0.02533216 0.68800002 -0.0084440531 1.4261122e-38 299 247
-0.024090799 0.68699998 -0.0084317802 1.4443713e-38 300 247
-0.022786319 0.68400002 -0.0083949603 1.4443713e-38 301 247
-0.02155548 0.68300003 -0.0083826864 1.4076738e-38 302 247
-0.020357953 0.68300003 -0.0083826864 1.4352965e-38 303 247
-0.019160427 0.68300003 -0.0083826864 1.3801959e-38 304 247
-0.017962901 0.68300003 -0.0083826864 1.3340982e-38 305 247
-0.016765373 0.68300003 -0.0083826864 8.8295298e-39 306 247
-0.015545053 0.68199998 -0.0083704125 6.1558551e-39 307 247
-0.01434928 0.68199998 -0.0083704125 2.3877341e-39 308 247
-0.013153506 0.68199998 -0.0083704125 2.756518e-39 309 247
-0.011957732 0.68199998 -0.0083704125 4.0469037e-39 310 247
-0.010761959 0.68199998 -0.0083704125 6.9046081e-39 311 247
-0.009566186 0.68199998 -0.0083704125 1.0491596e-38 312 247
-0.0083458666 0.68000001 -0.0083458666 1.2427704e-38 313 247
-0.0071325595 0.67799997 -0.0083213197 1.2977263e-38 314 247
-0.0059437994 0.67799997 -0.0083213197 1.2147142e-38 315 247
-0.0047620535 0.67900002 -0.0083335936 1.2513388e-38 316 247
-0.0035715401 0.67900002 -0.0083335936 1.2237161e-38 317 247
-0.0023810267 0.67900002 -0.0083335936 1.2602702e-38 318 247
-0.0011905134 0.67900002 -0.0083335936 1.2510148e-38 319 247
0 0.68000001 -0.0083458666 1.2235712e-38 320 247
0.0011922666 0.68000001 -0.0083458666 1.2235712e-38 321 247
0.0023845332 0.68000001 -0.0083458666 1.2235712e-38 322 247
0.00358732 0.68199998 -0.0083704125 1.2143517e-38 323 247
0.004783093 0.68199998 -0.0083704125 1.2418308e-38 324 247
0.005978866 0.68199998 -0.0083704125 1.2325754e-38 325 247
0.00717464 0.68199998 -0.0083704125 1.2509422e-38 326 247
0.0083704125 0.68199998 -0.0083704125 1.2325391e-38 327 247
0.009566186 0.68199998 -0.0083704125 1.2325388e-38 328 247
0.010761959 0.68199998 -0.0083704125 1.2233191e-38 329 247
0.011957732 0.68199998 -0.0083704125 1.2141714e-38 330 247
0.013153506 0.68199998 -0.0083704125 1.2141714e-38 331 247
0.014370319 0.68300003 -0.0083826864 1.2141361e-38 332 247
0.015567848 0.68300003 -0.0083826864 1.2233558e-38 333 247
0.016765373 0.68300003 -0.0083826864 1.2050249e-38 334 247
0.017962901 0.68300003 -0.0083826864 1.2050249e-38 335 247
0.019160427 0.68300003 -0.0083826864 1.2233914e-38 336 247
0.020387759 0.68400002 -0.0083949603 1.2141359e-38 337 247
0.02158704 0.68400002 -0.0083949603 1.2507997e-38 338 247
0.022753006 0.68300003 -0.0083826864 1.0664443e-38 339 247
0.023950534 0.68300003 -0.0083826864 5.7049705e-39 340 247
0.02514806 0.68300003 -0.0083826864 2.9394617e-39 341 247
0.026345588 0.68300003 -0.0083826864 1.9317768e-39 342 247
0.027744746 0.68800002 -0.0084440531 2.9455686e-39 343 247
0.028951041 0.68800002 -0.0084440531 8.5547267e-39 344 247
0.030157333 0.68800002 -0.0084440531 1.0951454e-38 345 247
0.031363625 0.68800002 -0.0084440531 1.2325388e-38 346 247
0.032569919 0.68800002 -0.0084440531 1.2233191e-38 347 247
0.033776212 0.68800002 -0.0084440531 1.2508701e-38 348 247
0.035084199 0.69 -0.0084686 1.2601255e-38 349 247
0.036293998 0.69 -0.0084686 1.2693804e-38 350 247
0.037503798 0.69 -0.0084686 1.2601249e-38 351 247
0.038713597 0.69 -0.0084686 1.2784917e-38 352 247
0.0399234 0.69 -0.0084686 1.2784917e-38 353 247
0.041133199 0.69 -0.0084686 1.2877113e-38 354 247
0.042527102 0.69300002 -0.0085054198 1.2877113e-38 355 247
0.043742158 0.69300002 -0.0085054198 1.2694167e-38 356 247
0.044957221 0.69300002 -0.0085054198 1.2694167e-38 357 247
0.046238903 0.69400001 -0.0085176928 1.2694164e-38 358 247
0.047592476 0.69599998 -0.0085422397 1.2601968e-38 359 247
0.048812799 0.69599998 -0.0085422397 1.2418306e-38 360 247
0.050033119 0.69599998 -0.0085422397 1.1588545e-38 361 247
0.051400717 0.69800001 -0.0085667865 4.2244328e-39 362 247
0.052775331 0.69999999 -0.0085913334 5.1456661e-39 363 247
0.054002665 0.69999999 -0.0085913334 9.2930275e-39 364 247
0.055229999 0.69999999 -0.0085913334 1.0122788e-38 365 247
0.056537982 0.70099998 -0.0086036054 1.2605568e-38 366 247
0.057767071 0.70099998 -0.0086036054 1.5924611e-38 367 247
0.058911994 0.69999999 -0.0085913334 1.5096295e-38 368 247
-0.037345998 0.70999998 -0.0099589331 8.8363457e-39 290 248
-0.035897743 0.70599997 -0.0099028256 1.1141238e-38 291 248
-0.034561705 0.704 -0.0098747732 1.3800141e-38 292 248
-0.033280019 0.70300001 -0.0098607466 1.3892338e-38 293 248
-0.031910665 0.69999999 -0.0098186666 1.3892694e-38 294 248
-0.030595668 0.69800001 -0.0097906133 1.3800497e-38 295 248
-0.02932976 0.69700003 -0.0097765867 1.3983456e-38 296 248
-0.028067358 0.69599998 -0.0097625591 1.3983456e-38 297 248
-0.02673132 0.69300002 -0.0097204801 1.4076009e-38 298 248
-0.02533216 0.68800002 -0.0096503468 1.4168205e-38 299 248
-0.024090799 0.68699998 -0.0096363192 1.4259679e-38 300 248
-0.022786319 0.68400002 -0.0095942402 1.4167483e-38 301 248
-0.02155548 0.68300003 -0.0095802136 1.398274e-38 302 248
-0.020357953 0.68300003 -0.0095802136 1.398274e-38 303 248
-0.019160427 0.68300003 -0.0095802136 1.1680387e-38 304 248
-0.017962901 0.68300003 -0.0095802136 9.0989098e-39 305 248
-0.016765373 0.68300003 -0.0095802136 2.8469004e-39 306 248
-0.015545053 0.68199998 -0.009566186 2.5713939e-39 307 248
-0.01434928 0.68199998 -0.009566186 2.3898991e-39 308 248
-0.013114933 0.68000001 -0.0095381327 4.0494205e-39 309 248
-0.011922667 0.68000001 -0.0095381327 8.1888631e-39 310 248
-0.010761959 0.68199998 -0.009566186 1.0862536e-38 311 248
-0.0095381327 0.68000001 -0.0095381327 1.325602e-38 312 248
-0.0083458666 0.68000001 -0.0095381327 1.2886877e-38 313 248
-0.0071430802 0.67900002 -0.009524107 1.260848e-38 314 248
-0.0059525664 0.67900002 -0.009524107 1.2331893e-38 315 248
-0.0047620535 0.67900002 -0.009524107 1.269671e-38 316 248
-0.0035715401 0.67900002 -0.009524107 1.2327926e-38 317 248
-0.0023810267 0.67900002 -0.009524107 1.2418318e-38 318 248
-0.0011905134 0.67900002 -0.009524107 1.2418318e-38 319 248
0 0.68000001 -0.0095381327 1.2235362e-38 320 248
0.0011922666 0.68000001 -0.0095381327 1.2142808e-38 321 248
0.0023915465 0.68199998 -0.009566186 1.223464e-38 322 248
0.00358732 0.68199998 -0.009566186 1.2142445e-38 323 248
0.004783093 0.68199998 -0.009566186 1.2325035e-38 324 248
0.005978866 0.68199998 -0.009566186 1.2509425e-38 325 248
0.00717464 0.68199998 -0.009566186 1.2232838e-38 326 248
0.0083704125 0.68199998 -0.009566186 1.2232838e-38 327 248
0.009566186 0.68199998 -0.009566186 1.2324311e-38 328 248
0.010761959 0.68199998 -0.009566186 1.2324311e-38 329 248
0.011957732 0.68199998 -0.009566186 1.2140998e-38 330 248
0.013153506 0.68199998 -0.009566186 1.2140998e-38 331 248
0.014370319 0.68300003 -0.0095802136 1.2140643e-38 332 248
0.015567848 0.68300003 -0.0095802136 1.2232838e-38 333 248
0.016765373 0.68300003 -0.0095802136 1.2141361e-38 334 248
0.017962901 0.68300003 -0.0095802136 1.2233558e-38 335 248
0.019160427 0.68300003 -0.0095802136 1.2141714e-38 336 248
0.020387759 0.68400002 -0.0095942402 1.1957683e-38 337 248
0.02158704 0.68400002 -0.0095942402 1.2050262e-38 338 248
0.022753006 0.68300003 -0.0095802136 9.4687839e-39 339 248
0.023950534 0.68300003 -0.0095802136 3.0370636e-39 340 248
0.02514806 0.68300003 -0.0095802136 1.9307174e-39 341 248
0.026345588 0.68300003 -0.0095802136 2.6671895e-39 342 248
0.027744746 0.68800002 -0.0096503468 4.6032977e-39 343 248
0.028951041 0.68800002 -0.0096503468 1.0026624e-38 344 248
0.030157333 0.68800002 -0.0096503468 1.1409558e-38 345 248
0.031363625 0.68800002 -0.0096503468 1.241615e-38 346 248
0.032569919 0.68800002 -0.0096503468 1.241615e-38 347 248
0.033776212 0.68800002 -0.0096503468 1.2325391e-38 348 248
0.03498251 0.68800002 -0.0096503468 1.2325391e-38 349 248
0.0361888 0.68800002 -0.0096503468 1.2692369e-38 350 248
0.037503798 0.69 -0.0096783992 1.2508336e-38 351 248
0.038713597 0.69 -0.0096783992 1.2691646e-38 352 248
0.0399234 0.69 -0.0096783992 1.2784201e-38 353 248
0.041133199 0.69 -0.0096783992 1.278492e-38 354 248
0.042527102 0.69300002 -0.0097204801 1.278492e-38 355 248
0.043742158 0.69300002 -0.0097204801 1.2876763e-38 356 248
0.044957221 0.69300002 -0.0097204801 1.2876763e-38 357 248
0.046238903 0.69400001 -0.0097345067 1.2784564e-38 358 248
0.047455717 0.69400001 -0.0097345067 1.2784564e-38 359 248
0.048672531 0.69400001 -0.0097345067 1.2327911e-38 360 248
0.050033119 0.69599998 -0.0097625591 1.1405596e-38 361 248
0.051400717 0.69800001 -0.0097906133 4.4102562e-39 362 248
0.052775331 0.69999999 -0.0098186666 4.6868431e-39 363 248
0.054002665 0.69999999 -0.0098186666 9.017151e-39 364 248
0.055229999 0.69999999 -0.0098186666 1.0123138e-38 365 248
0.056457333 0.69999999 -0.0098186666 1.3799089e-38 366 248
0.05768466 0.69999999 -0.0098186666 1.9146436e-38 367 248
0.058743682 0.69800001 -0.0097906133 1.8964211e-38 368 248
0.059967503 0.69800001 -0.0097906133 1.8042615e-38 369 248
-0.037345998 0.70999998 -0.011203799 8.9281756e-39 290 249
-0.035948593 0.70700002 -0.011156459 1.1601849e-38 291 249
-0.034561705 0.704 -0.011109119 1.3893057e-38 292 249
-0.033280019 0.70300001 -0.01109334 1.3709026e-38 293 249
-0.031956252 0.70099998 -0.011061779 1.3893048e-38 294 249
-0.030595668 0.69800001 -0.01101444 1.380085e-38 295 249
-0.029371841 0.69800001 -0.01101444 1.3708299e-38 296 249
-0.028067358 0.69599998 -0.010982879 1.3708299e-38 297 249
-0.02673132 0.69300002 -0.010935539 1.3983812e-38 298 249
-0.025405798 0.69 -0.010888199 1.4076009e-38 299 249
-0.024090799 0.68699998 -0.010840859 1.4167486e-38 300 249
-0.022786319 0.68400002 -0.01079352 1.3983094e-38 301 249
-0.02158704 0.68400002 -0.01079352 1.3339539e-38 302 249
-0.020387759 0.68400002 -0.01079352 1.2786365e-38 303 249
-0.019160427 0.68300003 -0.01077774 8.2767245e-39 304 249
-0.017962901 0.68300003 -0.01077774 5.41866e-39 305 249
-0.016740825 0.68199998 -0.010761959 1.8374484e-39 306 249
-0.015545053 0.68199998 -0.010761959 2.2062309e-39 307 249
-0.01434928 0.68199998 -0.010761959 5.9761722e-39 308 249
-0.013114933 0.68000001 -0.0107304 8.1888659e-39 309 249
-0.011922667 0.68000001 -0.0107304 1.1596136e-38 310 249
-0.0107304 0.68000001 -0.0107304 1.2518452e-38 311 249
-0.0095381327 0.68000001 -0.0107304 1.297871e-38 312 249
-0.0083335936 0.67900002 -0.010714619 1.2701764e-38 313 249
-0.0071430802 0.67900002 -0.010714619 1.2792148e-38 314 249
-0.0059525664 0.67900002 -0.010714619 1.2331171e-38 315 249
-0.0047620535 0.67900002 -0.010714619 1.2513038e-38 316 249
-0.0035715401 0.67900002 -0.010714619 1.2052059e-38 317 249
-0.0023810267 0.67900002 -0.010714619 1.2234287e-38 318 249
-0.0011922666 0.68000001 -0.0107304 1.2234287e-38 319 249
0 0.68000001 -0.0107304 1.2234643e-38 320 249
0.0011922666 0.68000001 -0.0107304 1.2142089e-38 321 249
0.0023915465 0.68199998 -0.010761959 1.2142089e-38 322 249
0.00358732 0.68199998 -0.010761959 1.2049893e-38 323 249
0.004783093 0.68199998 -0.010761959 1.2233561e-38 324 249
0.005978866 0.68199998 -0.010761959 1.2141364e-38 325 249
0.00717464 0.68199998 -0.010761959 1.2141364e-38 326 249
0.0083704125 0.68199998 -0.010761959 1.2141364e-38 327 249
0.009566186 0.68199998 -0.010761959 1.2140643e-38 328 249
0.010761959 0.68199998 -0.010761959 1.2140643e-38 329 249
0.011957732 0.68199998 -0.010761959 1.195733e-38 330 249
0.013153506 0.68199998 -0.010761959 1.195733e-38 331 249
0.014370319 0.68300003 -0.01077774 1.2140645e-38 332 249
0.015567848 0.68300003 -0.01077774 1.2140645e-38 333 249
0.016765373 0.68300003 -0.01077774 1.1958052e-38 334 249
0.0179892 0.68400002 -0.01079352 1.1958052e-38 335 249
0.01918848 0.68400002 -0.01079352 1.1865851e-38 336 249
0.020387759 0.68400002 -0.01079352 1.1773655e-38 337 249
0.02158704 0.68400002 -0.01079352 1.1131901e-38 338 249
0.022786319 0.68400002 -0.01079352 7.8128583e-39 339 249
0.023950534 0.68300003 -0.01077774 1.6562941e-39 340 249
0.02514806 0.68300003 -0.01077774 1.7484898e-39 341 249
0.026345588 0.68300003 -0.01077774 3.31184e-39 342 249
0.027744746 0.68800002 -0.010856641 5.8933176e-39 343 249
0.028951041 0.68800002 -0.010856641 1.076239e-38 344 249
0.030157333 0.68800002 -0.010856641 1.1592511e-38 345 249
0.031363625 0.68800002 -0.010856641 1.2141364e-38 346 249
0.032569919 0.68800002 -0.010856641 1.2141364e-38 347 249
0.033776212 0.68800002 -0.010856641 1.2232838e-38 348 249
0.03498251 0.68800002 -0.010856641 1.2232838e-38 349 249
0.0361888 0.68800002 -0.010856641 1.2508703e-38 350 249
0.037503798 0.69 -0.010888199 1.2416506e-38 351 249
0.038713597 0.69 -0.010888199 1.250798e-38 352 249
0.0399234 0.69 -0.010888199 1.250798e-38 353 249
0.041192811 0.69099998 -0.01090398 1.2692372e-38 354 249
0.042527102 0.69300002 -0.010935539 1.2692372e-38 355 249
0.043742158 0.69300002 -0.010935539 1.2600899e-38 356 249
0.044957221 0.69300002 -0.010935539 1.2508703e-38 357 249
0.046238903 0.69400001 -0.01095132 1.2509419e-38 358 249
0.047455717 0.69400001 -0.01095132 1.2233191e-38 359 249
0.048672531 0.69400001 -0.01095132 1.223464e-38 360 249
0.049889345 0.69400001 -0.01095132 1.1589271e-38 361 249
0.051327083 0.69700003 -0.01099866 5.147101e-39 362 249
0.052624546 0.69800001 -0.01101444 5.147101e-39 363 249
0.053848371 0.69800001 -0.01101444 8.8327556e-39 364 249
0.0550722 0.69800001 -0.01101444 1.0031299e-38 365 249
0.056296028 0.69800001 -0.01101444 1.3526448e-38 366 249
0.057519849 0.69800001 -0.01101444 1.7306469e-38 367 249
0.058743682 0.69800001 -0.01101444 1.840815e-38 368 249
0.05988159 0.69700003 -0.01099866 1.8131563e-38 369 249
0.061103668 0.69700003 -0.01099866 1.8133364e-38 370 249
-0.035745207 0.70300001 -0.012325933 1.2244695e-38 291 250
-0.034512613 0.70300001 -0.012325933 1.3801941e-38 292 250
-0.033280019 0.70300001 -0.012325933 1.3709745e-38 293 250
-0.031910665 0.69999999 -0.012273333 1.370973e-38 294 250
-0.030595668 0.69800001 -0.012238266 1.3617533e-38 295 250
-0.02932976 0.69700003 -0.012220734 1.3800845e-38 296 250
-0.028067358 0.69599998 -0.0122032 1.3800845e-38 297 250
-0.026654173 0.69099998 -0.012115533 1.3800495e-38 298 250
-0.025405798 0.69 -0.012097999 1.3800495e-38 299 250
-0.024125867 0.68800002 -0.012062933 1.4074936e-38 300 250
-0.022786319 0.68400002 -0.0119928 1.3890545e-38 301 250
-0.02155548 0.68300003 -0.011975267 1.2236075e-38 302 250
-0.020357953 0.68300003 -0.011975267 1.0576914e-38 303 250
-0.019160427 0.68300003 -0.011975267 5.0574389e-39 304 250
-0.017962901 0.68300003 -0.011975267 2.6632294e-39 305 250
-0.016740825 0.68199998 -0.011957732 2.3913411e-39 306 250
-0.015545053 0.68199998 -0.011957732 3.4976886e-39 307 250
-0.014307199 0.68000001 -0.011922667 9.0153882e-39 308 250
-0.013114933 0.68000001 -0.011922667 1.0859299e-38 309 250
-0.011922667 0.68000001 -0.011922667 1.297871e-38 310 250
-0.010714619 0.67900002 -0.011905133 1.2886156e-38 311 250
-0.009524107 0.67900002 -0.011905133 1.2701767e-38 312 250
-0.0083335936 0.67900002 -0.011905133 1.2609213e-38 313 250
-0.0071430802 0.67900002 -0.011905133 1.2699599e-38 314 250
-0.0059525664 0.67900002 -0.011905133 1.2330818e-38 315 250
-0.0047620535 0.67900002 -0.011905133 1.2512319e-38 316 250
-0.0035715401 0.67900002 -0.011905133 1.2051341e-38 317 250
-0.0023810267 0.67900002 -0.011905133 1.2417599e-38 318 250
-0.0011922666 0.68000001 -0.011922667 1.2325404e-38 319 250
0 0.68000001 -0.011922667 1.2233205e-38 320 250
0.0011922666 0.68000001 -0.011922667 1.2233205e-38 321 250
0.0023915465 0.68199998 -0.011957732 1.2233561e-38 322 250
0.00358732 0.68199998 -0.011957732 1.2233561e-38 323 250
0.004783093 0.68199998 -0.011957732 1.2050249e-38 324 250
0.005978866 0.68199998 -0.011957732 1.1958052e-38 325 250
0.00717464 0.68199998 -0.011957732 1.1958049e-38 326 250
0.0083704125 0.68199998 -0.011957732 1.1958049e-38 327 250
0.009566186 0.68199998 -0.011957732 1.1865135e-38 328 250
0.010761959 0.68199998 -0.011957732 1.1865135e-38 329 250
0.011957732 0.68199998 -0.011957732 1.1865135e-38 330 250
0.013153506 0.68199998 -0.011957732 1.1865135e-38 331 250
0.01434928 0.68199998 -0.011957732 1.195733e-38 332 250
0.015567848 0.68300003 -0.011975267 1.195733e-38 333 250
0.016789921 0.68400002 -0.0119928 1.1958049e-38 334 250
0.0179892 0.68400002 -0.0119928 1.1773658e-38 335 250
0.01918848 0.68400002 -0.0119928 1.1589271e-38 336 250
0.020447372 0.68599999 -0.012027865 1.1497075e-38 337 250
0.02158704 0.68400002 -0.0119928 1.0027358e-38 338 250
0.022786319 0.68400002 -0.0119928 6.5235656e-39 339 250
0.0239856 0.68400002 -0.0119928 8.2868167e-40 340 250
0.025184879 0.68400002 -0.0119928 1.1056273e-39 341 250
0.026538454 0.68800002 -0.012062933 4.0461554e-39 342 250
0.027744746 0.68800002 -0.012062933 7.4577525e-39 343 250
0.028951041 0.68800002 -0.012062933 1.1497791e-38 344 250
0.030157333 0.68800002 -0.012062933 1.1682541e-38 345 250
0.031363625 0.68800002 -0.012062933 1.1865498e-38 346 250
0.032569919 0.68800002 -0.012062933 1.1958052e-38 347 250
0.033776212 0.68800002 -0.012062933 1.2141361e-38 348 250
0.03498251 0.68800002 -0.012062933 1.2233558e-38 349 250
0.0361888 0.68800002 -0.012062933 1.2325035e-38 350 250
0.037503798 0.69 -0.012097999 1.2325035e-38 351 250
0.038713597 0.69 -0.012097999 1.2692372e-38 352 250
0.0399234 0.69 -0.012097999 1.2692372e-38 353 250
0.041192811 0.69099998 -0.012115533 1.2692372e-38 354 250
0.042404365 0.69099998 -0.012115533 1.250798e-38 355 250
0.043742158 0.69300002 -0.012150601 1.2508703e-38 356 250
0.044957221 0.69300002 -0.012150601 1.2416506e-38 357 250
0.046238903 0.69400001 -0.012168133 1.2325388e-38 358 250
0.047455717 0.69400001 -0.012168133 1.2233191e-38 359 250
0.048672531 0.69400001 -0.012168133 1.2050246e-38 360 250
0.049889345 0.69400001 -0.012168133 1.1404877e-38 361 250
0.051327083 0.69700003 -0.012220734 5.2410889e-39 362 250
0.052624546 0.69800001 -0.012238266 5.1485345e-39 363 250
0.053848371 0.69800001 -0.012238266 8.279579e-39 364 250
0.0550722 0.69800001 -0.012238266 1.0307883e-38 365 250
0.056296028 0.69800001 -0.012238266 1.3987424e-38 366 250
0.057519849 0.69800001 -0.012238266 1.7214271e-38 367 250
0.05865952 0.69700003 -0.012220734 1.8130468e-38 368 250
0.05988159 0.69700003 -0.012220734 1.7761686e-38 369 250
0.061103668 0.69700003 -0.012220734 1.8314144e-38 370 250
-0.03599944 0.708 -0.013654959 1.2794268e-38 291 251
-0.034758076 0.708 -0.013654959 1.3710464e-38 292 251
-0.033137999 0.69999999 -0.013500666 1.3710464e-38 293 251
-0.031910665 0.69999999 -0.013500666 1.3710095e-38 294 251
-0.030551834 0.69700003 -0.013442807 1.36179e-38 295 251
-0.029287677 0.69599998 -0.013423519 1.3617182e-38 296 251
-0.027946379 0.69300002 -0.01336566 1.3617182e-38 297 251
-0.026615599 0.69 -0.0133078 1.3616829e-38 298 251
-0.02533216 0.68800002 -0.013269227 1.3616829e-38 299 251
-0.024125867 0.68800002 -0.013269227 1.3616127e-38 300 251
-0.022786319 0.68400002 -0.01319208 1.3247343e-38 301 251
-0.02155548 0.68300003 -0.013172794 1.0669125e-38 302 251
-0.020357953 0.68300003 -0.013172794 7.2578867e-39 303 251
-0.019160427 0.68300003 -0.013172794 1.6562815e-39 304 251
-0.017936599 0.68199998 -0.013153506 1.0109121e-39 305 251
-0.016740825 0.68199998 -0.013153506 5.4301913e-39 306 251
-0.015545053 0.68199998 -0.013153506 7.1819083e-39 307 251
-0.014307199 0.68000001 -0.013114933 1.1503577e-38 308 251
-0.013114933 0.68000001 -0.013114933 1.1964197e-38 309 251
-0.011922667 0.68000001 -0.013114933 1.2423736e-38 310 251
-0.010714619 0.67900002 -0.013095647 1.2608127e-38 311 251
-0.009524107 0.67900002 -0.013095647 1.2792161e-38 312 251
-0.0083335936 0.67900002 -0.013095647 1.260813e-38 313 251
-0.0071430802 0.67900002 -0.013095647 1.2607051e-38 314 251
-0.0059525664 0.67900002 -0.013095647 1.2146073e-38 315 251
-0.0047620535 0.67900002 -0.013095647 1.2419051e-38 316 251
-0.0035715401 0.67900002 -0.013095647 1.2142104e-38 317 251
-0.0023810267 0.67900002 -0.013095647 1.2325404e-38 318 251
-0.0011922666 0.68000001 -0.013114933 1.2233208e-38 319 251
0 0.68000001 -0.013114933 1.2233561e-38 320 251
0.0011922666 0.68000001 -0.013114933 1.2233561e-38 321 251
0.0023915465 0.68199998 -0.013153506 1.2050249e-38 322 251
0.00358732 0.68199998 -0.013153506 1.2050249e-38 323 251
0.004783093 0.68199998 -0.013153506 1.1958052e-38 324 251
0.005978866 0.68199998 -0.013153506 1.1958052e-38 325 251
0.00717464 0.68199998 -0.013153506 1.18655e-38 326 251
0.0083704125 0.68199998 -0.013153506 1.18655e-38 327 251
0.009566186 0.68199998 -0.013153506 1.1773302e-38 328 251
0.010761959 0.68199998 -0.013153506 1.1773302e-38 329 251
0.011957732 0.68199998 -0.013153506 1.1865135e-38 330 251
0.013153506 0.68199998 -0.013153506 1.1865135e-38 331 251
0.01434928 0.68199998 -0.013153506 1.1865132e-38 332 251
0.015567848 0.68300003 -0.013172794 1.1865132e-38 333 251
0.016789921 0.68400002 -0.01319208 1.1865132e-38 334 251
0.0179892 0.68400002 -0.01319208 1.1865132e-38 335 251
0.01918848 0.68400002 -0.01319208 1.1773305e-38 336 251
0.020447372 0.68599999 -0.013230653 1.103574e-38 337 251
0.02158704 0.68400002 -0.01319208 8.0037362e-39 338 251
0.022786319 0.68400002 -0.01319208 4.8690862e-39 339 251
0.0239856 0.68400002 -0.01319208 1.011631e-39 340 251
0.026538454 0.68800002 -0.013269227 5.2425336e-39 342 251
0.027744746 0.68800002 -0.013269227 8.9303588e-39 343 251
0.028951041 0.68800002 -0.013269227 1.1773655e-38 344 251
0.030157333 0.68800002 -0.013269227 1.1773655e-38 345 251
0.031363625 0.68800002 -0.013269227 1.1773658e-38 346 251
0.032569919 0.68800002 -0.013269227 1.1865853e-38 347 251
0.033776212 0.68800002 -0.013269227 1.195733e-38 348 251
0.03498251 0.68800002 -0.013269227 1.2141361e-38 349 251
0.0361888 0.68800002 -0.013269227 1.2233194e-38 350 251
0.037503798 0.69 -0.0133078 1.2325391e-38 351 251
0.038713597 0.69 -0.0133078 1.2508701e-38 352 251
0.0399234 0.69 -0.0133078 1.2508701e-38 353 251
0.041192811 0.69099998 -0.013327086 1.2416506e-38 354 251
0.042404365 0.69099998 -0.013327086 1.2416506e-38 355 251
0.043742158 0.69300002 -0.01336566 1.2416506e-38 356 251
0.044957221 0.69300002 -0.01336566 1.2324311e-38 357 251
0.046238903 0.69400001 -0.013384946 1.2140998e-38 358 251
0.047455717 0.69400001 -0.013384946 1.2140998e-38 359 251
0.048672531 0.69400001 -0.013384946 1.1865135e-38 360 251
0.049889345 0.69400001 -0.013384946 1.1495992e-38 361 251
0.051253434 0.69599998 -0.013423519 5.6084295e-39 362 251
0.052624546 0.69800001 -0.013462093 4.9630628e-39 363 251
0.053848371 0.69800001 -0.013462093 7.5423699e-39 364 251
0.0550722 0.69800001 -0.013462093 1.0953608e-38 365 251
0.056296028 0.69800001 -0.013462093 1.4633878e-38 366 251
0.057519849 0.69800001 -0.013462093 1.841354e-38 367 251
0.05865952 0.69700003 -0.013442807 1.8319545e-38 368 251
0.05988159 0.69700003 -0.013442807 1.7674175e-38 369 251
-0.038590867 0.70999998 -0.014938398 9.289045e-39 289 252
-0.0372408 0.708 -0.01489632 1.0674851e-38 290 252
-0.03599944 0.708 -0.01489632 1.2703155e-38 291 252
-0.034758076 0.708 -0.01489632 1.3895214e-38 292 252
-0.033516716 0.708 -0.01489632 1.3710464e-38 293 252
-0.031910665 0.69999999 -0.014727999 1.3802294e-38 294 252
-0.030420333 0.69400001 -0.01460176 1.3710098e-38 295 252
-0.029203519 0.69400001 -0.01460176 1.3709382e-38 296 252
-0.027946379 0.69300002 -0.014580719 1.3617185e-38 297 252
-0.026615599 0.69 -0.014517599 1.3617549e-38 298 252
-0.02533216 0.68800002 -0.014475521 1.3617549e-38 299 252
-0.024125867 0.68800002 -0.014475521 1.3341353e-38 300 252
-0.022786319 0.68400002 -0.01439136 1.1497441e-38 301 252
-0.02155548 0.68300003 -0.014370319 8.0934305e-39 302 252
-0.020357953 0.68300003 -0.014370319 4.3162795e-39 303 252
-0.019132372 0.68199998 -0.01434928 1.8385246e-39 304 252
-0.017936599 0.68199998 -0.01434928 2.8523164e-39 305 252
-0.016740825 0.68199998 -0.01434928 8.0984696e-39 306 252
-0.015545053 0.68199998 -0.01434928 1.0126773e-38 307 252
-0.01434928 0.68199998 -0.01434928 1.2330818e-38 308 252
-0.013114933 0.68000001 -0.014307199 1.2238621e-38 309 252
-0.011922667 0.68000001 -0.014307199 1.2421936e-38 310 252
-0.0107304 0.68000001 -0.014307199 1.2606329e-38 311 252
-0.009524107 0.67900002 -0.01428616 1.2607051e-38 312 252
-0.0083335936 0.67900002 -0.01428616 1.2514855e-38 313 252
-0.0071430802 0.67900002 -0.01428616 1.2514133e-38 314 252
-0.0059525664 0.67900002 -0.01428616 1.2053155e-38 315 252
-0.0047620535 0.67900002 -0.01428616 1.2326851e-38 316 252
-0.0035715401 0.67900002 -0.01428616 1.2050264e-38 317 252
-0.0023845332 0.68000001 -0.014307199 1.2233205e-38 318 252
-0.0011922666 0.68000001 -0.014307199 1.2233205e-38 319 252
0 0.68000001 -0.014307199 1.2325041e-38 320 252
0.0011957732 0.68199998 -0.01434928 1.2325041e-38 321 252
0.0023915465 0.68199998 -0.01434928 1.2049893e-38 322 252
0.00358732 0.68199998 -0.01434928 1.2049893e-38 323 252
0.004783093 0.68199998 -0.01434928 1.1957696e-38 324 252
0.005978866 0.68199998 -0.01434928 1.1957696e-38 325 252
0.0071851597 0.68300003 -0.014370319 1.1956977e-38 326 252
0.0083826864 0.68300003 -0.014370319 1.1956977e-38 327 252
0.009566186 0.68199998 -0.01434928 1.1864779e-38 328 252
0.010761959 0.68199998 -0.01434928 1.1864779e-38 329 252
0.011957732 0.68199998 -0.01434928 1.1773658e-38 330 252
0.013153506 0.68199998 -0.01434928 1.1773658e-38 331 252
0.014370319 0.68300003 -0.014370319 1.1773655e-38 332 252
0.015567848 0.68300003 -0.014370319 1.1773655e-38 333 252
0.016789921 0.68400002 -0.01439136 1.1773652e-38 334 252
0.0179892 0.68400002 -0.01439136 1.1773652e-38 335 252
0.019244585 0.68599999 -0.01443344 1.1773302e-38 336 252
0.020447372 0.68599999 -0.01443344 1.0390367e-38 337 252
0.021650158 0.68599999 -0.01443344 5.9797525e-39 338 252
0.022852944 0.68599999 -0.01443344 3.8588929e-39 339 252
0.024055731 0.68599999 -0.01443344 1.1963754e-39 340 252
0.025295338 0.68699998 -0.014454478 2.6715055e-39 341 252
0.026538454 0.68800002 -0.014475521 7.2661501e-39 342 252
0.027744746 0.68800002 -0.014475521 9.9401821e-39 343 252
0.028908957 0.68699998 -0.014454478 1.1865851e-38 344 252
0.030113498 0.68699998 -0.014454478 1.1773655e-38 345 252
0.031363625 0.68800002 -0.014475521 1.1773302e-38 346 252
0.032569919 0.68800002 -0.014475521 1.1865498e-38 347 252
0.033776212 0.68800002 -0.014475521 1.1865853e-38 348 252
0.03498251 0.68800002 -0.014475521 1.1958049e-38 349 252
0.0361888 0.68800002 -0.014475521 1.2233914e-38 350 252
0.037503798 0.69 -0.014517599 1.2141359e-38 351 252
0.038713597 0.69 -0.014517599 1.2233912e-38 352 252
0.0399234 0.69 -0.014517599 1.2233912e-38 353 252
0.041192811 0.69099998 -0.014538639 1.2233194e-38 354 252
0.042404365 0.69099998 -0.014538639 1.2233194e-38 355 252
0.043742158 0.69300002 -0.014580719 1.2232838e-38 356 252
0.044957221 0.69300002 -0.014580719 1.2140643e-38 357 252
0.046238903 0.69400001 -0.01460176 1.1865135e-38 358 252
0.047455717 0.69400001 -0.01460176 1.1772939e-38 359 252
0.048672531 0.69400001 -0.01460176 1.1679669e-38 360 252
0.049889345 0.69400001 -0.01460176 1.140308e-38 361 252
0.051253434 0.69599998 -0.014643839 5.2410833e-39 362 252
0.052624546 0.69800001 -0.01468592 4.3194969e-39 363 252
0.053848371 0.69800001 -0.01468592 7.2647012e-39 364 252
0.0550722 0.69800001 -0.01468592 1.1874843e-38 365 252
0.056296028 0.69800001 -0.01468592 1.5096998e-38 366 252
-0.040004052 0.713 -0.016251646 1.3070509e-38 288 253
-0.038590867 0.70999998 -0.016183265 9.6592694e-39 289 253
-0.0372408 0.708 -0.01613768 1.1045075e-38 290 253
-0.03599944 0.708 -0.01613768 1.2888988e-38 291 253
-0.034758076 0.708 -0.01613768 1.3987777e-38 292 253
-0.033516716 0.708 -0.01613768 1.3711549e-38 293 253
-0.031956252 0.70099998 -0.015978126 1.361935e-38 294 253
-0.030420333 0.69400001 -0.015818574 1.3434959e-38 295 253
-0.029203519 0.69400001 -0.015818574 1.3617199e-38 296 253
-0.027865725 0.69099998 -0.015750192 1.3525003e-38 297 253
-0.026615599 0.69 -0.015727401 1.3250938e-38 298 253
-0.02533216 0.68800002 -0.015681813 1.3711916e-38 299 253
-0.024125867 0.68800002 -0.015681813 1.1871621e-38 300 253
-0.022786319 0.68400002 -0.01559064 7.1692854e-39 301 253
-0.02155548 0.68300003 -0.015567848 2.3891746e-39 302 253
-0.020357953 0.68300003 -0.015567848 2.2969776e-39 303 253
-0.019132372 0.68199998 -0.015545053 3.8607132e-39 304 253
-0.017936599 0.68199998 -0.015545053 6.257801e-39 305 253
-0.016740825 0.68199998 -0.015545053 1.1414626e-38 306 253
-0.015545053 0.68199998 -0.015545053 1.1967799e-38 307 253
-0.01434928 0.68199998 -0.015545053 1.260488e-38 308 253
-0.013114933 0.68000001 -0.015499466 1.260488e-38 309 253
-0.011922667 0.68000001 -0.015499466 1.2514119e-38 310 253
-0.0107304 0.68000001 -0.015499466 1.269815e-38 311 253
-0.009524107 0.67900002 -0.015476674 1.2422287e-38 312 253
-0.0083335936 0.67900002 -0.015476674 1.2422287e-38 313 253
-0.0071430802 0.67900002 -0.015476674 1.2511968e-38 314 253
-0.0059525664 0.67900002 -0.015476674 1.2235021e-38 315 253
-0.0047620535 0.67900002 -0.015476674 1.2233934e-38 316 253
-0.0035767998 0.68000001 -0.015499466 1.2141738e-38 317 253
-0.0023845332 0.68000001 -0.015499466 1.2325757e-38 318 253
-0.0011922666 0.68000001 -0.015499466 1.2141364e-38 319 253
0 0.68000001 -0.015499466 1.2232841e-38 320 253
0.0011957732 0.68199998 -0.015545053 1.2325038e-38 321 253
0.0023915465 0.68199998 -0.015545053 1.2049893e-38 322 253
0.00358732 0.68199998 -0.015545053 1.2049893e-38 323 253
0.004783093 0.68199998 -0.015545053 1.2141011e-38 324 253
0.005978866 0.68199998 -0.015545053 1.2141011e-38 325 253
0.0071851597 0.68300003 -0.015567848 1.18655e-38 326 253
0.0083826864 0.68300003 -0.015567848 1.18655e-38 327 253
0.0095802136 0.68300003 -0.015567848 1.1957327e-38 328 253
0.01077774 0.68300003 -0.015567848 1.1865132e-38 329 253
0.011975267 0.68300003 -0.015567848 1.1773652e-38 330 253
0.013172794 0.68300003 -0.015567848 1.1589621e-38 331 253
0.014370319 0.68300003 -0.015567848 1.1772933e-38 332 253
0.01559064 0.68400002 -0.01559064 1.1772933e-38 333 253
0.016789921 0.68400002 -0.01559064 1.1589624e-38 334 253
0.0179892 0.68400002 -0.01559064 1.1773655e-38 335 253
0.019244585 0.68599999 -0.015636226 1.1499242e-38 336 253
0.020477179 0.68699998 -0.015659019 9.4709377e-39 337 253
0.021650158 0.68599999 -0.015636226 2.9445022e-39 338 253
0.022852944 0.68599999 -0.015636226 2.0221858e-39 339 253
0.024090799 0.68699998 -0.015659019 1.3796848e-39 340 253
0.025295338 0.68699998 -0.015659019 4.2381095e-39 341 253
0.026499879 0.68699998 -0.015659019 9.1064628e-39 342 253
0.027704418 0.68699998 -0.015659019 1.0766343e-38 343 253
0.028908957 0.68699998 -0.015659019 1.1865853e-38 344 253
0.030113498 0.68699998 -0.015659019 1.1773658e-38 345 253
0.031363625 0.68800002 -0.015681813 1.1773655e-38 346 253
0.032569919 0.68800002 -0.015681813 1.1865851e-38 347 253
0.033776212 0.68800002 -0.015681813 1.1866207e-38 348 253
0.03498251 0.68800002 -0.015681813 1.1866207e-38 349 253
0.0361888 0.68800002 -0.015681813 1.2140996e-38 350 253
0.037503798 0.69 -0.015727401 1.2140996e-38 351 253
0.038713597 0.69 -0.015727401 1.2140998e-38 352 253
0.039981257 0.69099998 -0.015750192 1.2233194e-38 353 253
0.041192811 0.69099998 -0.015750192 1.2140998e-38 354 253
0.042404365 0.69099998 -0.015750192 1.2140998e-38 355 253
0.043615919 0.69099998 -0.015750192 1.2048444e-38 356 253
0.044957221 0.69300002 -0.015795778 1.2048444e-38 357 253
0.04617228 0.69300002 -0.015795778 1.1772933e-38 358 253
0.047455717 0.69400001 -0.015818574 1.1588542e-38 359 253
0.048672531 0.69400001 -0.015818574 1.1588545e-38 360 253
0.049889345 0.69400001 -0.015818574 1.1035371e-38 361 253
0.051253434 0.69599998 -0.015864158 4.7826289e-39 362 253
0.052624546 0.69800001 -0.015909746 4.1372608e-39 363 253
0.053848371 0.69800001 -0.015909746 7.0814113e-39 364 253
0.0550722 0.69800001 -0.015909746 1.2889377e-38 365 253
0.056296028 0.69800001 -0.015909746 1.5842161e-38 366 253
-0.040004052 0.713 -0.017501773 1.3532566e-38 288 254
-0.038590867 0.70999998 -0.017428132 1.0121327e-38 289 254
-0.0372408 0.708 -0.017379038 1.1690447e-38 290 254
-0.03599944 0.708 -0.017379038 1.3257774e-38 291 254
-0.034708988 0.70700002 -0.017354494 1.4264364e-38 292 254
-0.033469379 0.70700002 -0.017354494 1.3987777e-38 293 254
-0.032229774 0.70700002 -0.017354494 1.3987407e-38 294 254
-0.030683333 0.69999999 -0.017182667 1.352643e-38 295 254
-0.029077278 0.69099998 -0.016961746 1.3617196e-38 296 254
-0.027865725 0.69099998 -0.016961746 1.3617196e-38 297 254
-0.026615599 0.69 -0.0169372 1.3433537e-38 298 254
-0.025405798 0.69 -0.0169372 1.3986352e-38 299 254
-0.024125867 0.68800002 -0.016888106 1.1043656e-38 300 254
-0.022786319 0.68400002 -0.016789921 5.5115647e-39 301 254
-0.02155548 0.68300003 -0.016765373 1.6530389e-39 302 254
-0.020357953 0.68300003 -0.016765373 3.2192884e-39 303 254
-0.019132372 0.68199998 -0.016740825 6.7155337e-39 304 254
-0.017936599 0.68199998 -0.016740825 8.8360346e-39 305 254
-0.016740825 0.68199998 -0.016740825 1.2331888e-38 306 254
-0.015545053 0.68199998 -0.016740825 1.2516638e-38 307 254
-0.01434928 0.68199998 -0.016740825 1.2422637e-38 308 254
-0.013153506 0.68199998 -0.016740825 1.2514833e-38 309 254
-0.011922667 0.68000001 -0.016691733 1.242264e-38 310 254
-0.0107304 0.68000001 -0.016691733 1.242264e-38 311 254
-0.0095381327 0.68000001 -0.016691733 1.2329369e-38 312 254
