# .PCD v.7 - Point Cloud Data file format
FIELDS x y z rgb imX imY
SIZE 4 4 4 4 4 4
TYPE F F F F F F
COUNT 1 1 1 1 1 1
WIDTH 840
HEIGHT 1
VIEWPOINT 0 0 0 1 0 0 0
POINTS 840
DATA ascii
-0.021909652 0.78100002 0.01232418 1.9215217e-38 304 231
-0.020540299 0.78100002 0.01232418 1.9860586e-38 305 231
-0.019170946 0.78100002 0.01232418 1.9591572e-38 306 231
-0.017801592 0.78100002 0.01232418 2.0513888e-38 307 231
-0.016411198 0.77999997 0.012308398 1.978642e-38 308 231
-0.0150436 0.77999997 0.012308398 2.0892766e-38 309 231
-0.013640933 0.778 0.012276839 2.0350016e-38 310 231
-0.012276839 0.778 0.012276839 1.9981593e-38 311 231
-0.0094995592 0.77399999 0.01221372 1.8139101e-38 313 231
-0.0081424797 0.77399999 0.01221372 1.7395052e-38 314 231
-0.0040817601 0.77600002 0.01224528 1.8029616e-38 317 231
-0.0027281865 0.778 0.012276839 1.9495028e-38 318 231
-0.0013640933 0.778 0.012276839 1.9125887e-38 319 231
0 0.778 0.012276839 1.9490712e-38 320 231
0.0013605866 0.77600002 0.01224528 1.9490712e-38 321 231
0.0027211732 0.77600002 0.01224528 1.9123016e-38 322 231
0.0040817601 0.77600002 0.01224528 1.921557e-38 323 231
0.0054423464 0.77600002 0.01224528 1.8940059e-38 324 231
0.0068204664 0.778 0.012276839 1.8847505e-38 325 231
0.0081845606 0.778 0.012276839 1.875459e-38 326 231
0.0095486529 0.778 0.012276839 1.8662393e-38 327 231
0.010912746 0.778 0.012276839 1.8021362e-38 328 231
0.012308398 0.77999997 0.012308398 1.8021362e-38 329 231
0.013675999 0.77999997 0.012308398 1.6096093e-38 330 231
0.014966453 0.77600002 0.01224528 1.7940004e-38 331 231
0.01632704 0.77600002 0.01224528 1.6677373e-38 332 231
0.017687626 0.77600002 0.01224528 1.9627274e-38 333 231
0.019048214 0.77600002 0.01224528 1.9362572e-38 334 231
-0.032948639 0.78299999 0.010982879 1.5366433e-38 296 232
-0.031575777 0.78299999 0.010982879 1.4075694e-38 297 232
-0.03020292 0.78299999 0.010982879 1.7281289e-38 298 232
-0.028830061 0.78299999 0.010982879 1.8941171e-38 299 232
-0.027387068 0.78100002 0.010954826 2.0050382e-38 300 232
-0.026017714 0.78100002 0.010954826 1.8667448e-38 301 232
-0.024648361 0.78100002 0.010954826 1.9122302e-38 302 232
-0.023279008 0.78100002 0.010954826 1.9122302e-38 303 232
-0.021909652 0.78100002 0.010954826 1.91223e-38 304 232
-0.020513998 0.77999997 0.010940799 1.9398526e-38 305 232
-0.0191464 0.77999997 0.010940799 1.9032638e-38 306 232
-0.017778799 0.77999997 0.010940799 2.0692518e-38 307 232
-0.016369121 0.778 0.010912746 1.9236486e-38 308 232
-0.014966453 0.77600002 0.010884693 1.9513073e-38 309 232
-0.013605867 0.77600002 0.010884693 1.6669397e-38 310 232
-0.01224528 0.77600002 0.010884693 1.5655605e-38 311 232
-0.01085664 0.77399999 0.01085664 1.6670827e-38 312 232
-0.0094995592 0.77399999 0.01085664 1.8791326e-38 313 232
-0.0081424797 0.77399999 0.01085664 2.1725761e-38 314 232
-0.0067853997 0.77399999 0.01085664 2.1633565e-38 315 232
-0.0054423464 0.77600002 0.010884693 2.1810378e-38 316 232
-0.0040817601 0.77600002 0.010884693 1.987427e-38 317 232
-0.0027211732 0.77600002 0.010884693 2.0326231e-38 318 232
-0.0013605866 0.77600002 0.010884693 1.9496111e-38 319 232
0 0.77600002 0.010884693 1.9491428e-38 320 232
0.0013605866 0.77600002 0.010884693 1.9491428e-38 321 232
0.0027211732 0.77600002 0.010884693 1.9310284e-38 322 232
0.0040817601 0.77600002 0.010884693 1.9310284e-38 323 232
0.0054423464 0.77600002 0.010884693 1.9125537e-38 324 232
0.0068204664 0.778 0.010912746 1.9402482e-38 325 232
0.0081845606 0.778 0.010912746 1.9772338e-38 326 232
0.0095486529 0.778 0.010912746 1.9126969e-38 327 232
0.010912746 0.778 0.010912746 1.8115703e-38 328 232
0.012308398 0.77999997 0.010940799 1.8115703e-38 329 232
0.013675999 0.77999997 0.010940799 1.6921517e-38 330 232
0.0150436 0.77999997 0.010940799 1.7659082e-38 331 232
0.016411198 0.77999997 0.010940799 1.5096724e-38 332 232
0.01764204 0.77399999 0.01085664 1.9061136e-38 333 232
0.018999118 0.77399999 0.01085664 1.87154e-38 334 232
-0.037351258 0.78899997 0.0096836593 2.0744042e-38 293 233
-0.035876706 0.787 0.0096591124 1.8427607e-38 294 233
-0.034496833 0.787 0.0096591124 1.3633435e-38 295 233
-0.033032801 0.78500003 0.0096345674 1.5255513e-38 296 233
-0.031575777 0.78299999 0.0096100196 1.6822479e-38 297 233
-0.03020292 0.78299999 0.0096100196 1.7839129e-38 298 233
-0.028830061 0.78299999 0.0096100196 1.8116076e-38 299 233
-0.027387068 0.78100002 0.0095854728 1.9589013e-38 300 233
-0.026017714 0.78100002 0.0095854728 1.9220589e-38 301 233
-0.024648361 0.78100002 0.0095854728 1.9767996e-38 302 233
-0.023249198 0.77999997 0.0095731998 1.9122626e-38 303 233
-0.021881599 0.77999997 0.0095731998 1.912157e-38 304 233
-0.020513998 0.77999997 0.0095731998 1.912157e-38 305 233
-0.019097306 0.778 0.0095486529 1.8114274e-38 306 233
-0.017733213 0.778 0.0095486529 1.8483417e-38 307 233
-0.01632704 0.77600002 0.009524107 1.5460058e-38 308 233
-0.014966453 0.77600002 0.009524107 1.582884e-38 309 233
-0.013570799 0.77399999 0.0094995592 1.6196548e-38 310 233
-0.01221372 0.77399999 0.0094995592 1.8040459e-38 311 233
-0.01085664 0.77399999 0.0094995592 1.9334069e-38 312 233
-0.0094995592 0.77399999 0.0094995592 2.1177982e-38 313 233
-0.0081424797 0.77399999 0.0094995592 2.3017209e-38 314 233
-0.0067853997 0.77399999 0.0094995592 2.2924654e-38 315 233
-0.0054423464 0.77600002 0.009524107 2.2366783e-38 316 233
-0.0040817601 0.77600002 0.009524107 2.0338478e-38 317 233
-0.0027211732 0.77600002 0.009524107 2.0697903e-38 318 233
-0.0013605866 0.77600002 0.009524107 1.9960338e-38 319 233
0 0.77600002 0.009524107 1.9128053e-38 320 233
0.0013605866 0.77600002 0.009524107 1.8944022e-38 321 233
0.0027141599 0.77399999 0.0094995592 1.7658688e-38 322 233
0.0040712398 0.77399999 0.0094995592 1.7290264e-38 323 233
0.0054423464 0.77600002 0.009524107 1.6555931e-38 324 233
0.0068029333 0.77600002 0.009524107 1.63719e-38 325 233
0.0081635201 0.77600002 0.009524107 1.5272379e-38 326 233
0.0095731998 0.77999997 0.0095731998 1.4074195e-38 327 233
0.010940799 0.77999997 0.0095731998 1.3337735e-38 328 233
0.01224528 0.77600002 0.009524107 1.3337735e-38 329 233
0.013605867 0.77600002 0.009524107 1.2879306e-38 330 233
0.014966453 0.77600002 0.009524107 1.343248e-38 331 233
0.01632704 0.77600002 0.009524107 1.2239733e-38 332 233
0.01764204 0.77399999 0.0094995592 1.4268036e-38 333 233
0.018999118 0.77399999 0.0094995592 1.6038134e-38 334 233
-0.038783733 0.79000002 0.0083108004 1.9728814e-38 292 234
-0.037351258 0.78899997 0.0083002793 1.6501967e-38 293 234
-0.035876706 0.787 0.0082792398 1.3701873e-38 294 234
-0.034496833 0.787 0.0082792398 1.3333091e-38 295 234
-0.033032801 0.78500003 0.0082582003 1.7285595e-38 296 234
-0.031575777 0.78299999 0.0082371598 1.7746215e-38 297 234
-0.03020292 0.78299999 0.0082371598 1.8387265e-38 298 234
-0.028830061 0.78299999 0.0082371598 1.8572015e-38 299 234
-0.027387068 0.78100002 0.0082161194 1.9312817e-38 300 234
-0.026017714 0.78100002 0.0082161194 2.115709e-38 301 234
-0.024648361 0.78100002 0.0082161194 2.0415908e-38 302 234
-0.023249198 0.77999997 0.0082055992 1.9032974e-38 303 234
-0.021881599 0.77999997 0.0082055992 1.8757811e-38 304 234
-0.020461399 0.778 0.0081845606 1.8112441e-38 305 234
-0.019048214 0.77600002 0.0081635201 1.5716444e-38 306 234
-0.017687626 0.77600002 0.0081635201 1.3595958e-38 307 234
-0.016284959 0.77399999 0.0081424797 1.157774e-38 308 234
-0.014927879 0.77399999 0.0081424797 1.4528358e-38 309 234
-0.013570799 0.77399999 0.0081424797 1.7938907e-38 310 234
-0.01221372 0.77399999 0.0081424797 2.1626731e-38 311 234
-0.01085664 0.77399999 0.0081424797 2.2183499e-38 312 234
-0.0094872871 0.773 0.0081319595 2.0708369e-38 313 234
-0.0081319595 0.773 0.0081319595 2.0518926e-38 314 234
-0.0068029333 0.77600002 0.0081635201 1.9873557e-38 315 234
-0.0040817601 0.77600002 0.0081635201 2.0981697e-38 317 234
-0.0027211732 0.77600002 0.0081635201 2.0706908e-38 318 234
-0.0013570799 0.77399999 0.0081424797 1.9876788e-38 319 234
0 0.77399999 0.0081424797 1.8400569e-38 320 234
0.0013605866 0.77600002 0.0081635201 1.628007e-38 321 234
0.0027141599 0.77399999 0.0081424797 1.4339993e-38 322 234
0.0040659797 0.773 0.0081319595 1.2773026e-38 323 234
0.0054213065 0.773 0.0081319595 1.2217708e-38 324 234
0.0067853997 0.77399999 0.0081424797 1.0561082e-38 325 234
0.0081424797 0.77399999 0.0081424797 4.8672813e-39 326 234
0.0094995592 0.77399999 0.0081424797 4.2244328e-39 327 234
0.010884693 0.77600002 0.0081635201 1.0101905e-39 328 234
0.01224528 0.77600002 0.0081635201 1.2856969e-39 329 234
0.013605867 0.77600002 0.0081635201 2.9387359e-39 330 234
0.014966453 0.77600002 0.0081635201 4.8676526e-39 331 234
0.01632704 0.77600002 0.0081635201 7.4473576e-39 332 234
0.01764204 0.77399999 0.0081424797 1.1227378e-38 333 234
0.018999118 0.77399999 0.0081424797 1.179246e-38 334 234
0.020356199 0.77399999 0.0081424797 1.6771383e-38 335 234
-0.040168867 0.79000002 0.0069256667 2.000901e-38 291 235
-0.038783733 0.79000002 0.0069256667 1.7696541e-38 292 235
-0.037351258 0.78899997 0.0069168997 1.3916521e-38 293 235
-0.035967879 0.78899997 0.0069168997 1.4427553e-38 294 235
-0.034496833 0.787 0.0068993662 1.5533542e-38 295 235
-0.033116959 0.787 0.0068993662 1.7653652e-38 296 235
-0.031656433 0.78500003 0.0068818335 1.7745849e-38 297 235
-0.03020292 0.78299999 0.0068642995 1.8296502e-38 298 235
-0.028830061 0.78299999 0.0068642995 1.8296502e-38 299 235
-0.027387068 0.78100002 0.0068467669 1.9219547e-38 300 235
-0.026017714 0.78100002 0.0068467669 2.189322e-38 301 235
-0.024616797 0.77999997 0.0068379994 2.005937e-38 302 235
-0.023249198 0.77999997 0.0068379994 1.858424e-38 303 235
-0.021825492 0.778 0.0068204664 1.6914637e-38 304 235
-0.0204088 0.77600002 0.0068029333 1.4610105e-38 305 235
-0.018999118 0.77399999 0.0067853997 1.4520056e-38 306 235
-0.01764204 0.77399999 0.0067853997 1.5626402e-38 307 235
-0.016284959 0.77399999 0.0067853997 1.6176702e-38 308 235
-0.014927879 0.77399999 0.0067853997 1.7375245e-38 309 235
-0.013570799 0.77399999 0.0067853997 1.90402e-38 310 235
-0.01221372 0.77399999 0.0067853997 2.1529482e-38 311 235
-0.01085664 0.77399999 0.0067853997 2.1351202e-38 312 235
-0.0094872871 0.773 0.0067766332 1.9876072e-38 313 235
-0.0081319595 0.773 0.0067766332 2.0055405e-38 314 235
-0.0067853997 0.77399999 0.0067853997 1.9686624e-38 315 235
-0.0054283198 0.77399999 0.0067853997 1.9135973e-38 316 235
-0.0040712398 0.77399999 0.0067853997 1.8674635e-38 317 235
-0.0027141599 0.77399999 0.0067853997 1.6467701e-38 318 235
-0.0013570799 0.77399999 0.0067853997 1.4900735e-38 319 235
0 0.77399999 0.0067853997 1.2697038e-38 320 235
0.0013570799 0.77399999 0.0067853997 1.1959473e-38 321 235
0.0027141599 0.77399999 0.0067853997 1.2319258e-38 322 235
0.0040659797 0.773 0.0067766332 1.1581693e-38 323 235
0.0054213065 0.773 0.0067766332 1.3505939e-38 324 235
0.0067766332 0.773 0.0067766332 1.3505939e-38 325 235
0.0081319595 0.773 0.0067766332 1.332157e-38 326 235
0.0094872871 0.773 0.0067766332 1.3229374e-38 327 235
0.01085664 0.77399999 0.0067853997 1.3502717e-38 328 235
0.01221372 0.77399999 0.0067853997 1.2949902e-38 329 235
0.013570799 0.77399999 0.0067853997 1.1846794e-38 330 235
0.014966453 0.77600002 0.0068029333 1.1295774e-38 331 235
0.01632704 0.77600002 0.0068029333 9.002436e-39 332 235
0.01764204 0.77399999 0.0067853997 8.6340136e-39 333 235
0.018999118 0.77399999 0.0067853997 4.1470657e-39 334 235
0.020356199 0.77399999 0.0067853997 9.5866079e-39 335 235
0.021769386 0.77600002 0.0068029333 1.5214876e-38 336 235
-0.041554 0.79000002 0.0055405335 2.0100131e-38 290 236
-0.040168867 0.79000002 0.0055405335 1.9362566e-38 291 236
-0.038783733 0.79000002 0.0055405335 1.4923833e-38 292 236
-0.037351258 0.78899997 0.0055335197 1.0498443e-38 293 236
-0.035967879 0.78899997 0.0055335197 1.6271829e-38 294 236
-0.034496833 0.787 0.005519493 1.7286341e-38 295 236
-0.033116959 0.787 0.005519493 1.7745852e-38 296 236
-0.031656433 0.78500003 0.0055054668 1.7745852e-38 297 236
-0.03020292 0.78299999 0.0054914397 1.8296855e-38 298 236
-0.028830061 0.78299999 0.0054914397 1.8389051e-38 299 236
-0.027387068 0.78100002 0.0054774131 1.8760375e-38 300 236
-0.025984399 0.77999997 0.0054703997 2.1341853e-38 301 236
-0.024553679 0.778 0.0054563731 1.969746e-38 302 236
-0.023129974 0.77600002 0.0054423464 1.8868059e-38 303 236
-0.021769386 0.77600002 0.0054423464 1.5906977e-38 304 236
-0.020356199 0.77399999 0.0054283198 1.1481589e-38 305 236
-0.018974574 0.773 0.0054213065 1.4794497e-38 306 236
-0.017619247 0.773 0.0054213065 1.7560006e-38 307 236
-0.016263919 0.773 0.0054213065 1.8754956e-38 308 236
-0.014908593 0.773 0.0054213065 1.8754956e-38 309 236
-0.013553266 0.773 0.0054213065 1.9401776e-38 310 236
-0.012197939 0.773 0.0054213065 2.0968743e-38 311 236
-0.010842613 0.773 0.0054213065 2.0146546e-38 312 236
-0.0094872871 0.773 0.0054213065 2.0146546e-38 313 236
-0.0081319595 0.773 0.0054213065 1.9877141e-38 314 236
-0.0067766332 0.773 0.0054213065 1.8678598e-38 315 236
-0.0054213065 0.773 0.0054213065 1.7018707e-38 316 236
-0.0040659797 0.773 0.0054213065 1.3976251e-38 317 236
-0.0027141599 0.77399999 0.0054283198 1.1575219e-38 318 236
-0.0013553266 0.773 0.0054213065 9.2753851e-39 319 236
0 0.773 0.0054213065 8.0887165e-39 320 236
0.0013553266 0.773 0.0054213065 8.9188373e-39 321 236
0.0027106532 0.773 0.0054213065 1.2507633e-38 322 236
0.0040659797 0.773 0.0054213065 1.3060807e-38 323 236
0.0054213065 0.773 0.0054213065 1.563111e-38 324 236
0.0067590997 0.77100003 0.0054072798 1.627648e-38 325 236
0.0081109209 0.77100003 0.0054072798 1.7563972e-38 326 236
0.0094627403 0.77100003 0.0054072798 1.7840917e-38 327 236
0.010842613 0.773 0.0054213065 1.7746215e-38 328 236
0.01221372 0.77399999 0.0054283198 1.700865e-38 329 236
0.013570799 0.77399999 0.0054283198 1.6086702e-38 330 236
0.014966453 0.77600002 0.0054423464 1.5072191e-38 331 236
0.01632704 0.77600002 0.0054423464 1.1763248e-38 332 236
0.017687626 0.77600002 0.0054423464 7.9896882e-39 333 236
0.019048214 0.77600002 0.0054423464 1.2857432e-39 334 236
0.0204088 0.77600002 0.0054423464 4.1398631e-39 335 236
0.021769386 0.77600002 0.0054423464 8.0301002e-39 336 236
-0.041554 0.79000002 0.0041554002 1.9546234e-38 290 237
-0.040168867 0.79000002 0.0041554002 1.7886713e-38 291 237
-0.038783733 0.79000002 0.0041554002 1.4452055e-38 292 237
-0.037351258 0.78899997 0.0041501396 1.1409959e-38 293 237
-0.035967879 0.78899997 0.0041501396 1.6917546e-38 294 237
-0.034496833 0.787 0.0041396199 1.7194493e-38 295 237
-0.033116959 0.787 0.0041396199 1.7653296e-38 296 237
-0.031656433 0.78500003 0.0041291001 1.7653296e-38 297 237
-0.03020292 0.78299999 0.0041185799 1.8020991e-38 298 237
-0.028756421 0.78100002 0.0041080597 1.8297218e-38 299 237
-0.027351998 0.77999997 0.0041027996 1.8393034e-38 300 237
-0.025917772 0.778 0.0040922803 1.9868166e-38 301 237
-0.024490559 0.77600002 0.0040817601 1.8592927e-38 302 237
-0.02307036 0.77399999 0.0040712398 1.8224505e-38 303 237
-0.021713279 0.77399999 0.0040712398 1.6753298e-38 304 237
-0.020356199 0.77399999 0.0040712398 1.5277809e-38 305 237
-0.018974574 0.773 0.0040659797 1.8577035e-38 306 237
-0.017619247 0.773 0.0040659797 1.7931665e-38 307 237
-0.016263919 0.773 0.0040659797 1.8937185e-38 308 237
-0.014908593 0.773 0.0040659797 1.9398163e-38 309 237
-0.013553266 0.773 0.0040659797 1.903407e-38 310 237
-0.012197939 0.773 0.0040659797 1.9771635e-38 311 237
-0.010842613 0.773 0.0040659797 1.9684136e-38 312 237
-0.0094627403 0.77100003 0.0040554604 2.0698648e-38 313 237
-0.0081109209 0.77100003 0.0040554604 1.8866958e-38 314 237
-0.0067590997 0.77100003 0.0040554604 1.3980589e-38 315 237
-0.0054072798 0.77100003 0.0040554604 9.8400495e-39 316 237
-0.0040554604 0.77100003 0.0040554604 8.272728e-39 317 237
-0.0027106532 0.773 0.0040659797 1.0663345e-38 318 237
-0.00135182 0.77100003 0.0040554604 1.1493107e-38 319 237
0 0.76899999 0.0040449398 1.1301175e-38 320 237
0.0013483133 0.76899999 0.0040449398 1.0655806e-38 321 237
0.0027036399 0.77100003 0.0040554604 1.5357064e-38 322 237
0.0040554604 0.77100003 0.0040554604 1.6371214e-38 323 237
0.0054072798 0.77100003 0.0040554604 1.7654016e-38 324 237
0.0067415666 0.76899999 0.0040449398 1.7285592e-38 325 237
0.0080898795 0.76899999 0.0040449398 1.7743678e-38 326 237
0.0094381925 0.76899999 0.0040449398 1.7559287e-38 327 237
0.01081456 0.77100003 0.0040554604 1.7466737e-38 328 237
0.012197939 0.773 0.0040659797 1.7374541e-38 329 237
0.013553266 0.773 0.0040659797 1.6824261e-38 330 237
0.014927879 0.77399999 0.0040712398 1.7285239e-38 331 237
0.016284959 0.77399999 0.0040712398 1.5815887e-38 332 237
0.01764204 0.77399999 0.0040712398 1.3234409e-38 333 237
0.019048214 0.77600002 0.0040817601 8.9088152e-39 334 237
0.0204088 0.77600002 0.0040817601 6.4285015e-39 335 237
0.021713279 0.77399999 0.0040712398 7.494999e-40 336 237
0.02307036 0.77399999 0.0040712398 1.0245651e-38 337 237
-0.04293913 0.79000002 0.0027702667 1.9640948e-38 289 238
-0.041554 0.79000002 0.0027702667 1.8623189e-38 290 238
-0.040168867 0.79000002 0.0027702667 1.5856962e-38 291 238
-0.038734637 0.78899997 0.0027667598 1.4262612e-38 292 238
-0.037351258 0.78899997 0.0027667598 1.3248101e-38 293 238
-0.035967879 0.78899997 0.0027667598 1.7195565e-38 294 238
-0.034496833 0.787 0.0027597465 1.7103368e-38 295 238
-0.033116959 0.787 0.0027597465 1.7653299e-38 296 238
-0.031656433 0.78500003 0.0027527334 1.7561103e-38 297 238
-0.03020292 0.78299999 0.0027457199 1.7928088e-38 298 238
-0.028756421 0.78100002 0.0027387065 1.8020644e-38 299 238
-0.027351998 0.77999997 0.0027351999 1.7840581e-38 300 238
-0.025851147 0.77600002 0.0027211732 1.7932777e-38 301 238
-0.024490559 0.77600002 0.0027211732 1.5645544e-38 302 238
-0.02307036 0.77399999 0.0027141599 1.6751891e-38 303 238
-0.021713279 0.77399999 0.0027141599 1.8135898e-38 304 238
-0.0203299 0.773 0.0027106532 1.9242247e-38 305 238
-0.018974574 0.773 0.0027106532 2.0332712e-38 306 238
-0.017619247 0.773 0.0027106532 1.8212212e-38 307 238
-0.016221842 0.77100003 0.0027036399 1.9121557e-38 308 238
-0.01487002 0.77100003 0.0027036399 1.930595e-38 309 238
-0.013518199 0.77100003 0.0027036399 1.8757479e-38 310 238
-0.01216638 0.77100003 0.0027036399 1.9126262e-38 311 238
-0.01081456 0.77100003 0.0027036399 1.9224237e-38 312 238
-0.0094627403 0.77100003 0.0027036399 2.023839e-38 313 238
-0.0081109209 0.77100003 0.0027036399 1.5742036e-38 314 238
-0.0067590997 0.77100003 0.0027036399 9.3805385e-39 315 238
-0.0053932532 0.76899999 0.0026966266 8.173376e-39 316 238
-0.0040449398 0.76899999 0.0026966266 9.7410604e-39 317 238
-0.0027036399 0.77100003 0.0027036399 1.4436205e-38 318 238
-0.00135182 0.77100003 0.0027036399 1.6832931e-38 319 238
0 0.76899999 0.0026966266 1.4240285e-38 320 238
0.0013483133 0.76899999 0.0026966266 1.2122297e-38 321 238
0.0027036399 0.77100003 0.0027036399 1.48028e-38 322 238
0.0040554604 0.77100003 0.0027036399 1.6000984e-38 323 238
0.0054072798 0.77100003 0.0027036399 1.7558949e-38 324 238
0.0067415666 0.76899999 0.0026966266 1.709833e-38 325 238
0.0080898795 0.76899999 0.0026966266 1.7280555e-38 326 238
0.0094381925 0.76899999 0.0026966266 1.7280555e-38 327 238
0.01081456 0.77100003 0.0027036399 1.7188362e-38 328 238
0.012197939 0.773 0.0027106532 1.7188362e-38 329 238
0.013553266 0.773 0.0027106532 1.6732416e-38 330 238
0.014908593 0.773 0.0027106532 1.747034e-38 331 238
0.016284959 0.77399999 0.0027141599 1.710913e-38 332 238
0.01764204 0.77399999 0.0027141599 1.646376e-38 333 238
0.018999118 0.77399999 0.0027141599 1.3788668e-38 334 238
0.020356199 0.77399999 0.0027141599 1.0469625e-38 335 238
0.021713279 0.77399999 0.0027141599 1.1938811e-39 336 238
0.02307036 0.77399999 0.0027141599 9.1194766e-39 337 238
0.024553679 0.778 0.0027281865 1.4758568e-38 338 238
-0.04293913 0.79000002 0.0013851334 1.9457636e-38 289 239
-0.041554 0.79000002 0.0013851334 1.7515391e-38 290 239
-0.040118016 0.78899997 0.0013833799 1.4011956e-38 291 239
-0.038734637 0.78899997 0.0013833799 1.4813262e-38 292 239
-0.037351258 0.78899997 0.0013833799 1.426009e-38 293 239
-0.035876706 0.787 0.0013798733 1.710553e-38 294 239
-0.034496833 0.787 0.0013798733 1.6552356e-38 295 239
-0.033032801 0.78500003 0.0013763667 1.7467833e-38 296 239
-0.031575777 0.78299999 0.0013728599 1.7560387e-38 297 239
-0.03020292 0.78299999 0.0013728599 1.7653302e-38 298 239
-0.028756421 0.78100002 0.0013693533 1.7560747e-38 299 239
-0.027351998 0.77999997 0.0013675999 1.636293e-38 300 239
-0.025851147 0.77600002 0.0013605866 1.1754944e-38 301 239
-0.024490559 0.77600002 0.0013605866 9.2905065e-39 302 239
-0.02307036 0.77399999 0.0013570799 1.4177235e-38 303 239
-0.021713279 0.77399999 0.0013570799 1.9324728e-38 304 239
-0.0203299 0.773 0.0013553266 2.0431436e-38 305 239
-0.018974574 0.773 0.0013553266 2.0887349e-38 306 239
-0.017619247 0.773 0.0013553266 1.959661e-38 307 239
-0.016221842 0.77100003 0.00135182 1.9589038e-38 308 239
-0.01487002 0.77100003 0.00135182 1.8851473e-38 309 239
-0.013518199 0.77100003 0.00135182 1.8846802e-38 310 239
-0.01216638 0.77100003 0.00135182 1.8386182e-38 311 239
-0.01081456 0.77100003 0.00135182 1.8480908e-38 312 239
-0.0094627403 0.77100003 0.00135182 1.7835539e-38 313 239
-0.0081109209 0.77100003 0.00135182 9.475604e-39 314 239
-0.0067415666 0.76899999 0.0013483133 7.3551046e-39 315 239
-0.0053932532 0.76899999 0.0013483133 1.1868021e-38 316 239
-0.0040449398 0.76899999 0.0013483133 1.7030977e-38 317 239
-0.0026966266 0.76899999 0.0013483133 2.0150877e-38 318 239
-0.0013483133 0.76899999 0.0013483133 1.7938542e-38 319 239
0 0.77100003 0.00135182 1.6815998e-38 320 239
0.00135182 0.77100003 0.00135182 1.4787694e-38 321 239
0.0027036399 0.77100003 0.00135182 1.1851828e-38 322 239
0.0040554604 0.77100003 0.00135182 1.4157077e-38 323 239
0.0054072798 0.77100003 0.00135182 1.6642757e-38 324 239
0.0067415666 0.76899999 0.0013483133 1.572116e-38 325 239
0.0080898795 0.76899999 0.0013483133 1.7278758e-38 326 239
0.0094381925 0.76899999 0.0013483133 1.7278758e-38 327 239
0.010842613 0.773 0.0013553266 1.7003613e-38 328 239
0.012197939 0.773 0.0013553266 1.7003613e-38 329 239
0.013553266 0.773 0.0013553266 1.6638069e-38 330 239
0.014908593 0.773 0.0013553266 1.7283439e-38 331 239
0.016263919 0.773 0.0013553266 1.6461963e-38 332 239
0.017619247 0.773 0.0013553266 1.7383919e-38 333 239
0.018999118 0.77399999 0.0013570799 1.6924388e-38 334 239
0.020356199 0.77399999 0.0013570799 1.5541095e-38 335 239
0.021769386 0.77600002 0.0013605866 1.0847447e-38 336 239
0.023129974 0.77600002 0.0013605866 1.075525e-38 337 239
0.024553679 0.778 0.0013640933 8.7730378e-39 338 239
-0.04293913 0.79000002 -0 1.9732781e-38 289 240
-0.041501399 0.78899997 -0 1.7882711e-38 290 240
-0.040118016 0.78899997 -0 1.2719757e-38 291 240
-0.038734637 0.78899997 -0 1.5086238e-38 292 240
-0.03725658 0.787 -0 1.5362823e-38 293 240
-0.035876706 0.787 -0 1.6736752e-38 294 240
-0.034409165 0.78500003 -0 1.6644556e-38 295 240
-0.033032801 0.78500003 -0 1.7010094e-38 296 240
-0.031575777 0.78299999 -0 1.7010094e-38 297 240
-0.030125774 0.78100002 -0 1.7654022e-38 298 240
-0.028719598 0.77999997 -0 1.6179252e-38 299 240
-0.027281865 0.778 -0 1.3237967e-38 300 240
-0.025851147 0.77600002 -0 1.1855033e-38 301 240
-0.024490559 0.77600002 -0 1.4061261e-38 302 240
-0.02307036 0.77399999 -0 1.7749085e-38 303 240
-0.021713279 0.77399999 -0 1.8580314e-38 304 240
-0.020356199 0.77399999 -0 2.0608618e-38 305 240
-0.018974574 0.773 -0 2.0522902e-38 306 240
-0.017619247 0.773 -0 2.0522902e-38 307 240
-0.016221842 0.77100003 -0 1.9318229e-38 308 240
-0.01487002 0.77100003 -0 1.802749e-38 309 240
-0.013518199 0.77100003 -0 1.7928441e-38 310 240
-0.01216638 0.77100003 -0 1.7559658e-38 311 240
-0.01081456 0.77100003 -0 1.5081877e-38 312 240
-0.0094381925 0.76899999 -0 1.1670641e-38 313 240
-0.0080898795 0.76899999 -0 7.9896882e-39 314 240
-0.0067415666 0.76899999 -0 1.352139e-38 315 240
-0.0053932532 0.76899999 -0 1.7477907e-38 316 240
-0.0040449398 0.76899999 -0 2.033633e-38 317 240
-0.0026966266 0.76899999 -0 1.9502601e-38 318 240
-0.0013483133 0.76899999 -0 1.7105514e-38 319 240
0 0.76899999 -0 1.7461717e-38 320 240
0.00135182 0.77100003 -0 1.6355371e-38 321 240
0.0027036399 0.77100003 -0 1.1754946e-38 322 240
0.0040554604 0.77100003 -0 1.3409806e-38 323 240
0.0054072798 0.77100003 -0 1.5814438e-38 324 240
0.0067415666 0.76899999 -0 1.5538211e-38 325 240
0.0080898795 0.76899999 -0 1.6362564e-38 326 240
0.0094381925 0.76899999 -0 1.6270367e-38 327 240
0.01081456 0.77100003 -0 1.6270367e-38 328 240
0.01216638 0.77100003 -0 1.6362564e-38 329 240
0.013518199 0.77100003 -0 1.5904122e-38 330 240
0.014908593 0.773 -0 1.636474e-38 331 240
0.016263919 0.773 -0 1.5908454e-38 332 240
0.017619247 0.773 -0 1.6277596e-38 333 240
0.018999118 0.77399999 -0 1.6189717e-38 334 240
0.020356199 0.77399999 -0 1.6097521e-38 335 240
0.021769386 0.77600002 -0 1.4162151e-38 336 240
0.023129974 0.77600002 -0 1.1396283e-38 337 240
0.024490559 0.77600002 -0 8.7532179e-39 338 240
0.025851147 0.77600002 -0 1.84334e-38 339 240
-0.041501399 0.78899997 -0.0013833799 1.8897233e-38 290 241
-0.040118016 0.78899997 -0.0013833799 1.4932821e-38 291 241
-0.038734637 0.78899997 -0.0013833799 1.5089124e-38 292 241
-0.03725658 0.787 -0.0013798733 1.4628505e-38 293 241
-0.035876706 0.787 -0.0013798733 1.6647075e-38 294 241
-0.034409165 0.78500003 -0.0013763667 1.6186099e-38 295 241
-0.033032801 0.78500003 -0.0013763667 1.6917899e-38 296 241
-0.031575777 0.78299999 -0.0013728599 1.6917899e-38 297 241
-0.030125774 0.78100002 -0.0013693533 1.6826785e-38 298 241
-0.028719598 0.77999997 -0.0013675999 1.2677623e-38 299 241
-0.027281865 0.778 -0.0013640933 1.0102266e-38 300 241
-0.025851147 0.77600002 -0.0013605866 1.4158514e-38 301 241
-0.024490559 0.77600002 -0.0013605866 1.7652594e-38 302 241
-0.02307036 0.77399999 -0.0013570799 1.7837344e-38 303 241
-0.021713279 0.77399999 -0.0013570799 1.8021372e-38 304 241
-0.020356199 0.77399999 -0.0013570799 1.9035884e-38 305 241
-0.018974574 0.773 -0.0013553266 1.9413297e-38 306 241
-0.017619247 0.773 -0.0013553266 1.8214756e-38 307 241
-0.016221842 0.77100003 -0.00135182 1.8296868e-38 308 241
-0.01487002 0.77100003 -0.00135182 1.7743694e-38 309 241
-0.013518199 0.77100003 -0.00135182 1.7288126e-38 310 241
-0.01216638 0.77100003 -0.00135182 1.6089583e-38 311 241
-0.010786506 0.76899999 -0.0013483133 1.0202386e-38 312 241
-0.0094381925 0.76899999 -0.0013483133 7.6223462e-39 313 241
-0.0080898795 0.76899999 -0.0013483133 1.1485566e-38 314 241
-0.0067415666 0.76899999 -0.0013483133 1.9967564e-38 315 241
-0.0053792265 0.76700002 -0.0013448066 2.0518558e-38 316 241
-0.00403442 0.76700002 -0.0013448066 1.8213307e-38 317 241
-0.0026966266 0.76899999 -0.0013483133 1.7742948e-38 318 241
-0.0013483133 0.76899999 -0.0013483133 1.7097939e-38 319 241
0 0.76899999 -0.0013483133 1.7740437e-38 320 241
0.0013483133 0.76899999 -0.0013483133 1.6818482e-38 321 241
0.0026966266 0.76899999 -0.0013483133 1.2673298e-38 322 241
0.0040449398 0.76899999 -0.0013483133 1.3499819e-38 323 241
0.0053932532 0.76899999 -0.0013483133 1.4892116e-38 324 241
0.0067415666 0.76899999 -0.0013483133 1.4892116e-38 325 241
0.0080898795 0.76899999 -0.0013483133 1.6270362e-38 326 241
0.0094381925 0.76899999 -0.0013483133 1.6270362e-38 327 241
0.01081456 0.77100003 -0.00135182 1.5994856e-38 328 241
0.01216638 0.77100003 -0.00135182 1.5902302e-38 329 241
0.013518199 0.77100003 -0.00135182 1.5902318e-38 330 241
0.014908593 0.773 -0.0013553266 1.5994872e-38 331 241
0.016263919 0.773 -0.0013553266 1.5720457e-38 332 241
0.017619247 0.773 -0.0013553266 1.6273631e-38 333 241
0.018999118 0.77399999 -0.0013570799 1.5814818e-38 334 241
0.020356199 0.77399999 -0.0013570799 1.6183599e-38 335 241
0.021713279 0.77399999 -0.0013570799 1.5449997e-38 336 241
0.023129974 0.77600002 -0.0013605866 1.2868519e-38 337 241
0.024490559 0.77600002 -0.0013605866 9.6607758e-39 338 241
0.025851147 0.77600002 -0.0013605866 1.9433513e-38 339 241
-0.040118016 0.78899997 -0.0027667598 1.6500872e-38 291 242
-0.038734637 0.78899997 -0.0027667598 1.5459705e-38 292 242
-0.03725658 0.787 -0.0027597465 1.4076769e-38 293 242
-0.035876706 0.787 -0.0027597465 1.6464832e-38 294 242
-0.034409165 0.78500003 -0.0027527334 1.6003856e-38 295 242
-0.033032801 0.78500003 -0.0027527334 1.6735303e-38 296 242
-0.031575777 0.78299999 -0.0027457199 1.6182488e-38 297 242
-0.030125774 0.78100002 -0.0027387065 1.4436178e-38 298 242
-0.028719598 0.77999997 -0.0027351999 1.2131289e-38 299 242
-0.027281865 0.778 -0.0027281865 1.3869679e-38 300 242
-0.025851147 0.77600002 -0.0027211732 1.7557863e-38 301 242
-0.024490559 0.77600002 -0.0027211732 1.7652558e-38 302 242
-0.023129974 0.77600002 -0.0027211732 1.7560362e-38 303 242
-0.021713279 0.77399999 -0.0027141599 1.7651854e-38 304 242
-0.020356199 0.77399999 -0.0027141599 1.7559658e-38 305 242
-0.018974574 0.773 -0.0027106532 1.8761796e-38 306 242
-0.01757366 0.77100003 -0.0027036399 1.8300818e-38 307 242
-0.016221842 0.77100003 -0.0027036399 1.949288e-38 308 242
-0.01487002 0.77100003 -0.0027036399 1.8847511e-38 309 242
-0.013483133 0.76899999 -0.0026966266 1.6553808e-38 310 242
-0.012134819 0.76899999 -0.0026966266 1.3880135e-38 311 242
-0.010786506 0.76899999 -0.0026966266 6.0611427e-39 312 242
-0.0094381925 0.76899999 -0.0026966266 9.7489665e-39 313 242
-0.0080898795 0.76899999 -0.0026966266 1.6272176e-38 314 242
-0.0067415666 0.76899999 -0.0026966266 1.9591578e-38 315 242
-0.0053792265 0.76700002 -0.0026896133 1.9037657e-38 316 242
-0.00403442 0.76700002 -0.0026896133 1.7193744e-38 317 242
-0.0026966266 0.76899999 -0.0026966266 1.7281962e-38 318 242
-0.0013483133 0.76899999 -0.0026966266 1.7005373e-38 319 242
0 0.76899999 -0.0026966266 1.7279809e-38 320 242
0.0013483133 0.76899999 -0.0026966266 1.6818833e-38 321 242
0.0026896133 0.76700002 -0.0026896133 1.3871112e-38 322 242
0.00403442 0.76700002 -0.0026896133 1.3133552e-38 323 242
0.0053932532 0.76899999 -0.0026966266 1.250007e-38 324 242
0.0067415666 0.76899999 -0.0026966266 1.4251788e-38 325 242
0.0080898795 0.76899999 -0.0026966266 1.5446369e-38 326 242
0.0094381925 0.76899999 -0.0026966266 1.5169422e-38 327 242
0.01081456 0.77100003 -0.0027036399 1.5811554e-38 328 242
0.01216638 0.77100003 -0.0027036399 1.5719358e-38 329 242
0.013518199 0.77100003 -0.0027036399 1.5536059e-38 330 242
0.014908593 0.773 -0.0027106532 1.572081e-38 331 242
0.016263919 0.773 -0.0027106532 1.5261644e-38 332 242
0.017619247 0.773 -0.0027106532 1.5446034e-38 333 242
0.018999118 0.77399999 -0.0027141599 1.50787e-38 334 242
0.020356199 0.77399999 -0.0027141599 1.50787e-38 335 242
0.021713279 0.77399999 -0.0027141599 1.4896107e-38 336 242
0.023129974 0.77600002 -0.0027211732 1.3236227e-38 337 242
0.024490559 0.77600002 -0.0027211732 1.0844929e-38 338 242
0.025851147 0.77600002 -0.0027211732 1.9787546e-38 339 242
-0.038734637 0.78899997 -0.0041501396 1.5649118e-38 292 243
-0.03725658 0.787 -0.0041396199 1.3343867e-38 293 243
-0.035876706 0.787 -0.0041396199 1.6191827e-38 294 243
-0.034496833 0.787 -0.0041396199 1.5822685e-38 295 243
-0.033032801 0.78500003 -0.0041291001 1.6460867e-38 296 243
-0.031575777 0.78299999 -0.0041185799 1.5354519e-38 297 243
-0.030125774 0.78100002 -0.0041080597 1.222167e-38 298 243
-0.028719598 0.77999997 -0.0041027996 1.2774844e-38 299 243
-0.027281865 0.778 -0.0040922803 1.544203e-38 300 243
-0.025917772 0.778 -0.0040922803 1.7009356e-38 301 243
-0.024490559 0.77600002 -0.0040817601 1.7649683e-38 302 243
-0.023129974 0.77600002 -0.0040817601 1.7741879e-38 303 243
-0.021713279 0.77399999 -0.0040712398 1.7834445e-38 304 243
-0.020356199 0.77399999 -0.0040712398 1.792664e-38 305 243
-0.018999118 0.77399999 -0.0040712398 1.8299021e-38 306 243
-0.01757366 0.77100003 -0.0040554604 1.8944391e-38 307 243
-0.016179759 0.76899999 -0.0040449398 1.9959269e-38 308 243
-0.014831445 0.76899999 -0.0040449398 1.8760725e-38 309 243
-0.013483133 0.76899999 -0.0040449398 1.4621312e-38 310 243
-0.012134819 0.76899999 -0.0040449398 1.1671052e-38 311 243
-0.010786506 0.76899999 -0.0040449398 6.9820257e-39 312 243
-0.0094381925 0.76899999 -0.0040449398 1.2974742e-38 313 243
-0.0080898795 0.76899999 -0.0040449398 1.8027846e-38 314 243
-0.0067415666 0.76899999 -0.0040449398 1.6552356e-38 315 243
-0.0053932532 0.76899999 -0.0040449398 1.7739381e-38 316 243
-0.0040449398 0.76899999 -0.0040449398 1.7463154e-38 317 243
-0.0026966266 0.76899999 -0.0040449398 1.718871e-38 318 243
-0.0013483133 0.76899999 -0.0040449398 1.7004317e-38 319 243
0 0.76899999 -0.0040449398 1.7004664e-38 320 243
0.0013448066 0.76700002 -0.00403442 1.6820273e-38 321 243
0.0026896133 0.76700002 -0.00403442 1.5071825e-38 322 243
0.00403442 0.76700002 -0.00403442 1.368889e-38 323 243
0.0053932532 0.76899999 -0.0040449398 1.0655455e-38 324 243
0.0067415666 0.76899999 -0.0040449398 1.3605715e-38 325 243
0.0080898795 0.76899999 -0.0040449398 1.5080473e-38 326 243
0.0094381925 0.76899999 -0.0040449398 1.4619853e-38 327 243
0.01081456 0.77100003 -0.0040554604 1.5170152e-38 328 243
0.01216638 0.77100003 -0.0040554604 1.5170152e-38 329 243
0.013553266 0.773 -0.0040659797 1.5170517e-38 330 243
0.014908593 0.773 -0.0040659797 1.5170517e-38 331 243
0.016263919 0.773 -0.0040659797 1.4987561e-38 332 243
0.017619247 0.773 -0.0040659797 1.4895007e-38 333 243
0.018999118 0.77399999 -0.0040712398 1.4802096e-38 334 243
0.020356199 0.77399999 -0.0040712398 1.4709542e-38 335 243
0.021769386 0.77600002 -0.0040817601 1.4434756e-38 336 243
0.023129974 0.77600002 -0.0040817601 1.3512441e-38 337 243
0.024490559 0.77600002 -0.0040817601 1.1855106e-38 338 243
0.025917772 0.778 -0.0040922803 1.9231115e-38 339 243
-0.037351258 0.78899997 -0.0055335197 1.298408e-38 293 244
-0.035967879 0.78899997 -0.0055335197 1.5826282e-38 294 244
-0.034496833 0.787 -0.005519493 1.5734086e-38 295 244
-0.032948639 0.78299999 -0.0054914397 1.628007e-38 296 244
-0.031495128 0.78100002 -0.0054774131 1.3790788e-38 297 244
-0.030125774 0.78100002 -0.0054774131 1.2215915e-38 298 244
-0.028719598 0.77999997 -0.0054703997 1.53502e-38 299 244
-0.027281865 0.778 -0.0054563731 1.6365428e-38 300 244
-0.025851147 0.77600002 -0.0054423464 1.6365428e-38 301 244
-0.024490559 0.77600002 -0.0054423464 1.7464217e-38 302 244
-0.023129974 0.77600002 -0.0054423464 1.7648967e-38 303 244
-0.021713279 0.77399999 -0.0054283198 1.7924122e-38 304 244
-0.020356199 0.77399999 -0.0054283198 1.8108874e-38 305 244
-0.018999118 0.77399999 -0.0054283198 1.8203956e-38 306 244
-0.017619247 0.773 -0.0054213065 1.9125912e-38 307 244
-0.016179759 0.76899999 -0.0053932532 1.9045241e-38 308 244
-0.014831445 0.76899999 -0.0053932532 1.6555959e-38 309 244
-0.013483133 0.76899999 -0.0053932532 7.813601e-39 310 244
-0.012134819 0.76899999 -0.0053932532 7.5370127e-39 311 244
-0.010786506 0.76899999 -0.0053932532 1.2315351e-38 312 244
-0.0094381925 0.76899999 -0.0053932532 1.6648187e-38 313 244
-0.0080898795 0.76899999 -0.0053932532 1.8120392e-38 314 244
-0.0067415666 0.76899999 -0.0053932532 1.5999891e-38 315 244
-0.0053932532 0.76899999 -0.0053932532 1.7463154e-38 316 244
-0.0040449398 0.76899999 -0.0053932532 1.7370598e-38 317 244
-0.0026966266 0.76899999 -0.0053932532 1.7095809e-38 318 244
-0.0013483133 0.76899999 -0.0053932532 1.6911418e-38 319 244
0 0.76899999 -0.0053932532 1.6819923e-38 320 244
0.0013448066 0.76700002 -0.0053792265 1.6635892e-38 321 244
0.0026896133 0.76700002 -0.0053792265 1.5809753e-38 322 244
0.00403442 0.76700002 -0.0053792265 1.4150591e-38 323 244
0.0053932532 0.76899999 -0.0053932532 1.0285604e-38 324 244
0.0067590997 0.77100003 -0.0054072798 1.3511374e-38 325 244
0.0081109209 0.77100003 -0.0054072798 1.4990445e-38 326 244
0.0094627403 0.77100003 -0.0054072798 1.4437271e-38 327 244
0.01081456 0.77100003 -0.0054072798 1.4897163e-38 328 244
0.012197939 0.773 -0.0054213065 1.4897163e-38 329 244
0.013553266 0.773 -0.0054213065 1.4804615e-38 330 244
0.014908593 0.773 -0.0054213065 1.471206e-38 331 244
0.016263919 0.773 -0.0054213065 1.489501e-38 332 244
0.01764204 0.77399999 -0.0054283198 1.4710617e-38 333 244
0.018999118 0.77399999 -0.0054283198 1.4617702e-38 334 244
0.020356199 0.77399999 -0.0054283198 1.4432952e-38 335 244
0.021769386 0.77600002 -0.0054423464 1.4250356e-38 336 244
0.023129974 0.77600002 -0.0054423464 1.3789737e-38 337 244
0.024553679 0.778 -0.0054563731 1.2869968e-38 338 244
0.025917772 0.778 -0.0054563731 1.8954879e-38 339 244
-0.037335481 0.81900001 -0.0071799001 1.573518e-38 294 245
-0.035899501 0.81900001 -0.0071799001 1.5458594e-38 295 245
-0.032948639 0.78299999 -0.0068642995 1.5456426e-38 296 245
-0.031495128 0.78100002 -0.0068467669 1.2967144e-38 297 245
-0.030125774 0.78100002 -0.0068467669 1.2402465e-38 298 245
-0.028719598 0.77999997 -0.0068379994 1.5813704e-38 299 245
-0.027281865 0.778 -0.0068204664 1.6827132e-38 300 245
-0.025851147 0.77600002 -0.0068029333 1.6181763e-38 301 245
-0.024490559 0.77600002 -0.0068029333 1.7282346e-38 302 245
-0.023129974 0.77600002 -0.0068029333 1.7282346e-38 303 245
-0.021713279 0.77399999 -0.0067853997 1.7649336e-38 304 245
-0.020356199 0.77399999 -0.0067853997 1.7925924e-38 305 245
-0.018974574 0.773 -0.0067766332 1.7742993e-38 306 245
-0.01757366 0.77100003 -0.0067590997 1.866531e-38 307 245
-0.016179759 0.76899999 -0.0067415666 1.7664121e-38 308 245
-0.014831445 0.76899999 -0.0067415666 1.4897892e-38 309 245
-0.013483133 0.76899999 -0.0067415666 4.2244328e-39 310 245
-0.012134819 0.76899999 -0.0067415666 6.8044615e-39 311 245
-0.010786506 0.76899999 -0.0067415666 1.5076154e-38 312 245
-0.0094381925 0.76899999 -0.0067415666 1.7749827e-38 313 245
-0.0080898795 0.76899999 -0.0067415666 1.802675e-38 314 245
-0.0067415666 0.76899999 -0.0067415666 1.6182838e-38 315 245
-0.0053932532 0.76899999 -0.0067415666 1.7189078e-38 316 245
-0.0040449398 0.76899999 -0.0067415666 1.6820296e-38 317 245
-0.0026966266 0.76899999 -0.0067415666 1.6728468e-38 318 245
-0.0013483133 0.76899999 -0.0067415666 1.6728468e-38 319 245
0 0.76899999 -0.0067415666 1.6361115e-38 320 245
0.0013448066 0.76700002 -0.006724033 1.626892e-38 321 245
0.0026896133 0.76700002 -0.006724033 1.5812274e-38 322 245
0.00403442 0.76700002 -0.006724033 1.4613731e-38 323 245
0.0053932532 0.76899999 -0.0067415666 9.9207868e-39 324 245
0.0067590997 0.77100003 -0.0067590997 1.2317513e-38 325 245
0.0081109209 0.77100003 -0.0067590997 1.4438733e-38 326 245
0.0094627403 0.77100003 -0.0067590997 1.4346536e-38 327 245
0.010842613 0.773 -0.0067766332 1.4163574e-38 328 245
0.012197939 0.773 -0.0067766332 1.3979183e-38 329 245
0.013553266 0.773 -0.0067766332 1.4436568e-38 330 245
0.014908593 0.773 -0.0067766332 1.4252176e-38 331 245
0.016263919 0.773 -0.0067766332 1.4434403e-38 332 245
0.01764204 0.77399999 -0.0067853997 1.4250011e-38 333 245
0.018999118 0.77399999 -0.0067853997 1.3973775e-38 334 245
0.020356199 0.77399999 -0.0067853997 1.3973775e-38 335 245
0.021769386 0.77600002 -0.0068029333 1.3884451e-38 336 245
0.023189586 0.778 -0.0068204664 1.4253232e-38 337 245
0.024553679 0.778 -0.0068204664 1.2877158e-38 338 245
0.025917772 0.778 -0.0068204664 1.8040112e-38 339 245
-0.032948639 0.78299999 -0.0082371598 1.4262566e-38 296 246
-0.031495128 0.78100002 -0.0082161194 1.2787434e-38 297 246
-0.030087199 0.77999997 -0.0082055992 1.360929e-38 298 246
-0.028645959 0.778 -0.0081845606 1.4807833e-38 299 246
-0.027281865 0.778 -0.0081845606 1.6549472e-38 300 246
-0.025784519 0.77399999 -0.0081424797 1.6180331e-38 301 246
-0.02442744 0.77399999 -0.0081424797 1.7281627e-38 302 246
-0.02307036 0.77399999 -0.0081424797 1.7281627e-38 303 246
-0.021713279 0.77399999 -0.0081424797 1.746422e-38 304 246
-0.0203299 0.773 -0.0081319595 1.7648611e-38 305 246
-0.018974574 0.773 -0.0081319595 1.7924139e-38 306 246
-0.01757366 0.77100003 -0.0081109209 1.829328e-38 307 246
-0.016179759 0.76899999 -0.0080898795 1.4709895e-38 308 246
-0.014831445 0.76899999 -0.0080898795 1.2128418e-38 309 246
-0.013483133 0.76899999 -0.0080898795 4.6836103e-39 310 246
-0.012134819 0.76899999 -0.0080898795 8.8277151e-39 311 246
-0.010786506 0.76899999 -0.0080898795 1.6918255e-38 312 246
-0.0094381925 0.76899999 -0.0080898795 1.7563624e-38 313 246
-0.0080898795 0.76899999 -0.0080898795 1.7193031e-38 314 246
-0.0067415666 0.76899999 -0.0080898795 1.6455107e-38 315 246
-0.0053932532 0.76899999 -0.0080898795 1.6911412e-38 316 246
-0.0040449398 0.76899999 -0.0080898795 1.6819217e-38 317 246
-0.0026966266 0.76899999 -0.0080898795 1.6452242e-38 318 246
-0.0013483133 0.76899999 -0.0080898795 1.6360046e-38 319 246
0 0.76899999 -0.0080898795 1.6268211e-38 320 246
0.0013448066 0.76700002 -0.00806884 1.6545156e-38 321 246
0.0026896133 0.76700002 -0.00806884 1.5537858e-38 322 246
0.00403442 0.76700002 -0.00806884 1.4800293e-38 323 246
0.0053932532 0.76899999 -0.0080898795 1.0202764e-38 324 246
0.0067590997 0.77100003 -0.0081109209 1.0848134e-38 325 246
0.0081109209 0.77100003 -0.0081109209 1.2687372e-38 326 246
0.0094872871 0.773 -0.0081319595 1.3701522e-38 327 246
0.010842613 0.773 -0.0081319595 1.4066346e-38 328 246
0.012197939 0.773 -0.0081319595 1.3973792e-38 329 246
0.013553266 0.773 -0.0081319595 1.4247135e-38 330 246
0.014908593 0.773 -0.0081319595 1.4247135e-38 331 246
0.016284959 0.77399999 -0.0081424797 1.4247488e-38 332 246
0.01764204 0.77399999 -0.0081424797 1.4524435e-38 333 246
0.018999118 0.77399999 -0.0081424797 1.3883379e-38 334 246
0.020356199 0.77399999 -0.0081424797 1.4159964e-38 335 246
0.021769386 0.77600002 -0.0081635201 1.397917e-38 336 246
0.023189586 0.778 -0.0081845606 1.4347592e-38 337 246
0.024553679 0.778 -0.0081845606 1.2143556e-38 338 246
0.025917772 0.778 -0.0081845606 1.7490902e-38 339 246
-0.031495128 0.78100002 -0.0095854728 1.2698485e-38 297 247
-0.03001005 0.778 -0.0095486529 1.444301e-38 298 247
-0.028645959 0.778 -0.0095486529 1.4074587e-38 299 247
-0.027141599 0.77399999 -0.0094995592 1.6272885e-38 300 247
-0.025784519 0.77399999 -0.0094995592 1.6365081e-38 301 247
-0.02442744 0.77399999 -0.0094995592 1.673134e-38 302 247
-0.02307036 0.77399999 -0.0094995592 1.673134e-38 303 247
-0.021685226 0.773 -0.0094872871 1.7098683e-38 304 247
-0.0203299 0.773 -0.0094872871 1.7283074e-38 305 247
-0.018925481 0.77100003 -0.0094627403 1.737564e-38 306 247
-0.01757366 0.77100003 -0.0094627403 1.7836258e-38 307 247
-0.016179759 0.76899999 -0.0094381925 1.1120382e-38 308 247
-0.014831445 0.76899999 -0.0094381925 9.1842741e-39 309 247
-0.013483133 0.76899999 -0.0094381925 9.0917141e-39 310 247
-0.012134819 0.76899999 -0.0094381925 1.2594418e-38 311 247
-0.010786506 0.76899999 -0.0094381925 1.6918239e-38 312 247
-0.0094381925 0.76899999 -0.0094381925 1.627287e-38 313 247
-0.0080898795 0.76899999 -0.0094381925 1.6820649e-38 314 247
-0.0067415666 0.76899999 -0.0094381925 1.6820649e-38 315 247
-0.0053932532 0.76899999 -0.0094381925 1.6270364e-38 316 247
-0.0040449398 0.76899999 -0.0094381925 1.6085973e-38 317 247
-0.0026966266 0.76899999 -0.0094381925 1.5718286e-38 318 247
-0.0013483133 0.76899999 -0.0094381925 1.5626091e-38 319 247
0 0.76899999 -0.0094381925 1.5350227e-38 320 247
0.0013448066 0.76700002 -0.0094136465 1.5534617e-38 321 247
0.0026896133 0.76700002 -0.0094136465 1.4985053e-38 322 247
0.00403442 0.76700002 -0.0094136465 1.4339683e-38 323 247
0.0053932532 0.76899999 -0.0094381925 1.1030001e-38 324 247
0.0067590997 0.77100003 -0.0094627403 1.0661219e-38 325 247
0.0081109209 0.77100003 -0.0094627403 1.121474e-38 326 247
0.0094872871 0.773 -0.0094872871 1.2505479e-38 327 247
0.010842613 0.773 -0.0094872871 1.378687e-38 328 247
0.012197939 0.773 -0.0094872871 1.378687e-38 329 247
0.013570799 0.77399999 -0.0094995592 1.3879428e-38 330 247
0.014927879 0.77399999 -0.0094995592 1.4064178e-38 331 247
0.016284959 0.77399999 -0.0094995592 1.3974495e-38 332 247
0.01764204 0.77399999 -0.0094995592 1.4159245e-38 333 247
0.018999118 0.77399999 -0.0094995592 1.3977365e-38 334 247
0.0204088 0.77600002 -0.009524107 1.4346508e-38 335 247
0.021769386 0.77600002 -0.009524107 1.3982404e-38 336 247
0.023189586 0.778 -0.0095486529 1.3706176e-38 337 247
0.024553679 0.778 -0.0095486529 1.1498908e-38 338 247
0.025984399 0.77999997 -0.0095731998 1.7768211e-38 339 247
-0.031495128 0.78100002 -0.010954826 1.2702101e-38 297 248
-0.03001005 0.778 -0.010912746 1.4812155e-38 298 248
-0.028645959 0.778 -0.010912746 1.4166786e-38 299 248
-0.027141599 0.77399999 -0.01085664 1.6365444e-38 300 248
-0.025784519 0.77399999 -0.01085664 1.6089217e-38 301 248
-0.02442744 0.77399999 -0.01085664 1.6822816e-38 302 248
-0.02307036 0.77399999 -0.01085664 1.6822816e-38 303 248
-0.021685226 0.773 -0.010842613 1.6823167e-38 304 248
-0.0203299 0.773 -0.010842613 1.7007917e-38 305 248
-0.018925481 0.77100003 -0.01081456 1.7285242e-38 306 248
-0.01757366 0.77100003 -0.01081456 1.7008297e-38 307 248
-0.016179759 0.76899999 -0.010786506 6.9795019e-39 308 248
-0.014831445 0.76899999 -0.010786506 6.3366492e-39 309 248
-0.013483133 0.76899999 -0.010786506 1.166961e-38 310 248
-0.012134819 0.76899999 -0.010786506 1.4804261e-38 311 248
-0.010786506 0.76899999 -0.010786506 1.6827488e-38 312 248
-0.0094381925 0.76899999 -0.010786506 1.5812976e-38 313 248
-0.0080898795 0.76899999 -0.010786506 1.6452592e-38 314 248
-0.0067415666 0.76899999 -0.010786506 1.6360396e-38 315 248
-0.0053932532 0.76899999 -0.010786506 1.6084898e-38 316 248
-0.0040449398 0.76899999 -0.010786506 1.5992703e-38 317 248
-0.0026966266 0.76899999 -0.010786506 1.5717563e-38 318 248
-0.0013483133 0.76899999 -0.010786506 1.5348781e-38 319 248
0 0.76899999 -0.010786506 1.5256235e-38 320 248
0.0013448066 0.76700002 -0.010758453 1.5164039e-38 321 248
0.0026896133 0.76700002 -0.010758453 1.4246043e-38 322 248
0.00403442 0.76700002 -0.010758453 1.3785065e-38 323 248
0.0053932532 0.76899999 -0.010786506 1.1671049e-38 324 248
0.0067590997 0.77100003 -0.01081456 1.0749452e-38 325 248
0.0081109209 0.77100003 -0.01081456 9.4684182e-39 326 248
0.0094872871 0.773 -0.010842613 1.1772949e-38 327 248
0.01085664 0.77399999 -0.01085664 1.3789365e-38 328 248
0.01221372 0.77399999 -0.01085664 1.3789365e-38 329 248
0.013570799 0.77399999 -0.01085664 1.3883002e-38 330 248
0.014927879 0.77399999 -0.01085664 1.4067394e-38 331 248
0.016284959 0.77399999 -0.01085664 1.3977365e-38 332 248
0.017687626 0.77600002 -0.010884693 1.4162116e-38 333 248
0.019048214 0.77600002 -0.010884693 1.3979883e-38 334 248
0.020461399 0.778 -0.010912746 1.4256829e-38 335 248
0.021825492 0.778 -0.010912746 1.3800893e-38 336 248
0.023249198 0.77999997 -0.010940799 1.3155523e-38 337 248
0.024616797 0.77999997 -0.010940799 1.0485475e-38 338 248
0.025984399 0.77999997 -0.010940799 1.8229908e-38 339 248
-0.031495128 0.78100002 -0.01232418 1.2616039e-38 297 249
-0.030087199 0.77999997 -0.012308398 1.5457171e-38 298 249
-0.028645959 0.778 -0.012276839 1.462705e-38 299 249
-0.027211733 0.77600002 -0.01224528 1.6092457e-38 300 249
-0.025851147 0.77600002 -0.01224528 1.5723674e-38 301 249
-0.02442744 0.77399999 -0.01221372 1.6365081e-38 302 249
-0.02307036 0.77399999 -0.01221372 1.6365081e-38 303 249
-0.021685226 0.773 -0.012197939 1.6548027e-38 304 249
-0.0203299 0.773 -0.012197939 1.6732419e-38 305 249
-0.018974574 0.773 -0.012197939 1.6181784e-38 306 249
-0.01757366 0.77100003 -0.01216638 1.5351665e-38 307 249
-0.016179759 0.76899999 -0.012134819 5.8774718e-39 308 249
-0.014831445 0.76899999 -0.012134819 6.5203202e-39 309 249
-0.013483133 0.76899999 -0.012134819 1.3423475e-38 310 249
-0.012134819 0.76899999 -0.012134819 1.4990442e-38 311 249
-0.010786506 0.76899999 -0.012134819 1.6458e-38 312 249
-0.0094381925 0.76899999 -0.012134819 1.5536043e-38 313 249
-0.0080898795 0.76899999 -0.012134819 1.6084182e-38 314 249
-0.0067415666 0.76899999 -0.012134819 1.5991987e-38 315 249
-0.0053932532 0.76899999 -0.012134819 1.5533529e-38 316 249
-0.0040449398 0.76899999 -0.012134819 1.5441332e-38 317 249
-0.0026966266 0.76899999 -0.012134819 1.5073636e-38 318 249
-0.0013483133 0.76899999 -0.012134819 1.4705213e-38 319 249
0 0.76899999 -0.012134819 1.4703424e-38 320 249
0.0013448066 0.76700002 -0.01210326 1.4611228e-38 321 249
0.0026896133 0.76700002 -0.01210326 1.4153124e-38 322 249
