# .PCD v.7 - Point Cloud Data file format
FIELDS x y z rgb imX imY
SIZE 4 4 4 4 4 4
TYPE F F F F F F
COUNT 1 1 1 1 1 1
WIDTH 833
HEIGHT 1
VIEWPOINT 0 0 0 1 0 0 0
POINTS 833
DATA ascii
-0.0023915465 0.68199998 -0.026307013 1.1256539e-38 318 262
-0.0011957732 0.68199998 -0.026307013 1.0979954e-38 319 262
0 0.68199998 -0.026307013 1.1346566e-38 320 262
0.0011957732 0.68199998 -0.026307013 9.226065e-39 321 262
0.0023915465 0.68199998 -0.026307013 3.8761821e-39 322 262
0.00358732 0.68199998 -0.026307013 3.7274819e-40 323 262
0.004783093 0.68199998 -0.026307013 3.6139487e-42 324 262
0.005978866 0.68199998 -0.026307013 1.0184875e-39 325 262
0.00717464 0.68199998 -0.026307013 1.6595438e-39 326 262
0.0083826864 0.68300003 -0.026345588 1.5673481e-39 327 262
0.0095802136 0.68300003 -0.026345588 1.5669768e-39 328 262
0.01077774 0.68300003 -0.026345588 1.5669768e-39 329 262
0.011975267 0.68300003 -0.026345588 1.1999907e-39 330 262
0.013172794 0.68300003 -0.026345588 1.1999907e-39 331 262
0.01439136 0.68400002 -0.02638416 9.2412411e-40 332 262
0.01559064 0.68400002 -0.02638416 9.2412411e-40 333 262
0.016789921 0.68400002 -0.02638416 1.1077923e-39 334 262
0.0179892 0.68400002 -0.02638416 1.1077923e-39 335 262
0.019244585 0.68599999 -0.026461305 1.1077923e-39 336 262
0.020447372 0.68599999 -0.026461305 1.1077923e-39 337 262
0.021650158 0.68599999 -0.026461305 1.3833002e-39 338 262
0.022886258 0.68699998 -0.026499879 1.4754958e-39 339 262
0.024090799 0.68699998 -0.026499879 1.4754958e-39 340 262
0.02533216 0.68800002 -0.026538454 1.2911046e-39 341 262
0.026615599 0.69 -0.026615599 1.2929038e-39 342 262
0.027946379 0.69300002 -0.02673132 4.5197509e-39 343 262
0.029161438 0.69300002 -0.02673132 9.8671002e-39 344 262
0.030420333 0.69400001 -0.026769891 1.1895404e-38 345 262
0.031728316 0.69599998 -0.026847038 1.0700827e-38 346 262
0.03299598 0.69700003 -0.026885614 1.0608631e-38 347 262
0.034267146 0.69800001 -0.026924185 1.0884142e-38 348 262
0.035490975 0.69800001 -0.026924185 1.0884142e-38 349 262
0.036872596 0.70099998 -0.027039904 1.1527347e-38 350 262
0.038101684 0.70099998 -0.027039904 1.1527347e-38 351 262
0.039442986 0.70300001 -0.027117053 1.1712092e-38 352 262
0.040733438 0.704 -0.027155625 1.1435145e-38 353 262
0.042087011 0.70599997 -0.027232772 1.2630801e-38 354 262
0.043324865 0.70599997 -0.027232772 1.6226431e-38 355 262
-0.051111419 0.71100003 -0.028672259 1.816182e-38 279 263
-0.049864799 0.71100003 -0.028672259 1.5947696e-38 280 263
-0.048618179 0.71100003 -0.028672259 1.5210131e-38 281 263
-0.047371563 0.71100003 -0.028672259 1.4015556e-38 282 263
-0.046060063 0.70999998 -0.028631933 1.3831165e-38 283 263
-0.044815198 0.70999998 -0.028631933 1.3005364e-38 284 263
-0.043447599 0.708 -0.02855128 1.309756e-38 285 263
-0.042206239 0.708 -0.02855128 1.373967e-38 286 263
-0.040907022 0.70700002 -0.028510952 1.1803562e-38 287 263
-0.039667413 0.70700002 -0.028510952 9.2173728e-39 288 263
-0.038101684 0.70099998 -0.028268991 5.9905257e-39 289 263
-0.036872596 0.70099998 -0.028268991 3.2257358e-39 290 263
-0.035643511 0.70099998 -0.028268991 2.3956164e-39 291 263
-0.034218054 0.69700003 -0.028107686 2.5811091e-39 292 263
-0.032948639 0.69599998 -0.028067358 3.0420858e-39 293 263
-0.031637147 0.69400001 -0.027986705 2.5821993e-39 294 263
-0.030420333 0.69400001 -0.027986705 2.5821993e-39 295 263
-0.029161438 0.69300002 -0.027946379 2.5818434e-39 296 263
-0.027946379 0.69300002 -0.027946379 2.3056166e-39 297 263
-0.02673132 0.69300002 -0.027946379 2.5811273e-39 298 263
-0.02551626 0.69300002 -0.027946379 2.5811273e-39 299 263
-0.024231065 0.69099998 -0.027865725 2.580777e-39 300 263
-0.022986198 0.69 -0.027825398 1.4744294e-39 301 263
-0.021713281 0.68800002 -0.027744746 2.0340842e-39 302 263
-0.020477179 0.68699998 -0.027704418 5.4456813e-39 303 263
-0.019272638 0.68699998 -0.027704418 1.1061353e-38 304 263
-0.018041799 0.68599999 -0.027664091 1.345808e-38 305 263
-0.016789921 0.68400002 -0.027583439 1.2176698e-38 306 263
-0.01559064 0.68400002 -0.027583439 1.1807917e-38 307 263
-0.014370319 0.68300003 -0.027543113 1.1533131e-38 308 263
-0.013172794 0.68300003 -0.027543113 1.1533131e-38 309 263
-0.011957732 0.68199998 -0.027502786 1.171644e-38 310 263
-0.010761959 0.68199998 -0.027502786 1.1624243e-38 311 263
-0.009566186 0.68199998 -0.027502786 1.1440931e-38 312 263
-0.0083826864 0.68300003 -0.027543113 1.1440931e-38 313 263
-0.00717464 0.68199998 -0.027502786 1.1257618e-38 314 263
-0.005978866 0.68199998 -0.027502786 1.1257618e-38 315 263
-0.004783093 0.68199998 -0.027502786 1.1440575e-38 316 263
-0.00358732 0.68199998 -0.027502786 1.1348379e-38 317 263
-0.0023915465 0.68199998 -0.027502786 1.1347663e-38 318 263
-0.0011957732 0.68199998 -0.027502786 1.1163272e-38 319 263
0 0.68199998 -0.027502786 8.9563165e-39 320 263
0.0011957732 0.68199998 -0.027502786 6.6514243e-39 321 263
0.0023915465 0.68199998 -0.027502786 3.8765325e-39 322 263
0.00358732 0.68199998 -0.027502786 1.3872504e-39 323 263
0.004783093 0.68199998 -0.027502786 1.014875e-39 324 263
0.0059876335 0.68300003 -0.027543113 1.75244e-39 325 263
0.0071851597 0.68300003 -0.027543113 1.9354048e-39 326 263
0.0083826864 0.68300003 -0.027543113 1.8432091e-39 327 263
0.0095802136 0.68300003 -0.027543113 1.7510079e-39 328 263
0.01077774 0.68300003 -0.027543113 1.5669768e-39 329 263
0.011975267 0.68300003 -0.027543113 1.3833058e-39 330 263
0.013172794 0.68300003 -0.027543113 1.3833058e-39 331 263
0.01439136 0.68400002 -0.027583439 1.1996348e-39 332 263
0.01559064 0.68400002 -0.027583439 1.1996348e-39 333 263
0.016789921 0.68400002 -0.027583439 1.4751357e-39 334 263
0.0179892 0.68400002 -0.027583439 1.4751357e-39 335 263
0.01918848 0.68400002 -0.027583439 1.1999879e-39 336 263
0.020447372 0.68599999 -0.027664091 1.1999879e-39 337 263
0.021650158 0.68599999 -0.027664091 1.4754958e-39 338 263
0.022886258 0.68699998 -0.027704418 1.5680516e-39 339 263
0.024090799 0.68699998 -0.027704418 1.5680516e-39 340 263
0.02533216 0.68800002 -0.027744746 1.1070734e-39 341 263
0.026654173 0.69099998 -0.027865725 2.3063355e-39 342 263
0.027946379 0.69300002 -0.027946379 6.2707476e-39 343 263
0.029203519 0.69400001 -0.027986705 1.0144412e-38 344 263
0.030420333 0.69400001 -0.027986705 1.189577e-38 345 263
0.031728316 0.69599998 -0.028067358 1.0884142e-38 346 263
0.033043321 0.69800001 -0.028148014 1.0884142e-38 347 263
0.034267146 0.69800001 -0.028148014 1.1067454e-38 348 263
0.035490975 0.69800001 -0.028148014 1.1160008e-38 349 263
0.036872596 0.70099998 -0.028268991 1.1435515e-38 350 263
0.038210396 0.70300001 -0.028349647 1.152771e-38 351 263
0.039499093 0.704 -0.028389972 1.1987602e-38 352 263
0.040849157 0.70599997 -0.028470624 1.1710657e-38 353 263
0.042087011 0.70599997 -0.028470624 1.3551683e-38 354 263
0.043324865 0.70599997 -0.028470624 1.7147311e-38 355 263
-0.051111419 0.71100003 -0.029918881 1.8254013e-38 279 264
-0.049864799 0.71100003 -0.029918881 1.6133512e-38 280 264
-0.048618179 0.71100003 -0.029918881 1.4658382e-38 281 264
-0.047371563 0.71100003 -0.029918881 1.3831512e-38 282 264
-0.046060063 0.70999998 -0.029876797 1.3923708e-38 283 264
-0.044815198 0.70999998 -0.029876797 1.3372705e-38 284 264
-0.043447599 0.708 -0.02979264 1.3188313e-38 285 264
-0.042206239 0.708 -0.02979264 1.3280506e-38 286 264
-0.040907022 0.70700002 -0.029750559 1.3465256e-38 287 264
-0.039667413 0.70700002 -0.029750559 1.3459486e-38 288 264
-0.038373452 0.70599997 -0.029708479 1.0878008e-38 289 264
-0.037135597 0.70599997 -0.029708479 7.3734574e-39 290 264
-0.035897743 0.70599997 -0.029708479 3.4090453e-39 291 264
-0.034561705 0.704 -0.029624319 2.4878148e-39 292 264
-0.032853961 0.69400001 -0.029203519 2.5800105e-39 293 264
-0.031637147 0.69400001 -0.029203519 3.2250478e-39 294 264
-0.030420333 0.69400001 -0.029203519 3.2250478e-39 295 264
-0.029161438 0.69300002 -0.029161438 2.7658717e-39 296 264
-0.027946379 0.69300002 -0.029161438 2.6736761e-39 297 264
-0.02673132 0.69300002 -0.029161438 2.6733257e-39 298 264
-0.02551626 0.69300002 -0.029161438 2.7655214e-39 299 264
-0.024231065 0.69099998 -0.029077278 1.8450098e-39 300 264
-0.022986198 0.69 -0.029035198 5.54271e-40 301 264
-0.021713281 0.68800002 -0.028951041 3.9719945e-39 302 264
-0.020477179 0.68699998 -0.028908957 9.7803178e-39 303 264
-0.019272638 0.68699998 -0.028908957 1.2173461e-38 304 264
-0.018041799 0.68599999 -0.02886688 1.2726635e-38 305 264
-0.016839013 0.68599999 -0.02886688 1.1900834e-38 306 264
-0.01559064 0.68400002 -0.02878272 1.1716443e-38 307 264
-0.01439136 0.68400002 -0.02878272 1.1625323e-38 308 264
-0.01319208 0.68400002 -0.02878272 1.1625323e-38 309 264
-0.011975267 0.68300003 -0.028740639 1.1992304e-38 310 264
-0.01077774 0.68300003 -0.028740639 1.1808273e-38 311 264
-0.0095802136 0.68300003 -0.028740639 1.171644e-38 312 264
-0.0083826864 0.68300003 -0.028740639 1.171644e-38 313 264
-0.0071851597 0.68300003 -0.028740639 1.1624246e-38 314 264
-0.0059876335 0.68300003 -0.028740639 1.1716443e-38 315 264
-0.0047901068 0.68300003 -0.028740639 1.1624246e-38 316 264
-0.0035925799 0.68300003 -0.028740639 1.1624246e-38 317 264
-0.0023915465 0.68199998 -0.02869856 1.1439856e-38 318 264
-0.0011957732 0.68199998 -0.02869856 1.1439856e-38 319 264
0 0.68199998 -0.02869856 9.3240256e-39 320 264
0.0011957732 0.68199998 -0.02869856 8.0332868e-39 321 264
0.0023915465 0.68199998 -0.02869856 7.5654493e-39 322 264
0.00358732 0.68199998 -0.02869856 4.2464066e-39 323 264
0.004783093 0.68199998 -0.02869856 1.1070734e-39 324 264
0.0059876335 0.68300003 -0.028740639 1.6602472e-39 325 264
0.0071851597 0.68300003 -0.028740639 2.3027482e-39 326 264
0.0083826864 0.68300003 -0.028740639 2.1179982e-39 327 264
0.0095802136 0.68300003 -0.028740639 1.7510107e-39 328 264
0.01077774 0.68300003 -0.028740639 1.5669796e-39 329 264
0.011975267 0.68300003 -0.028740639 1.1996348e-39 330 264
0.013172794 0.68300003 -0.028740639 1.1996348e-39 331 264
0.01439136 0.68400002 -0.02878272 1.1996348e-39 332 264
0.01559064 0.68400002 -0.02878272 1.1996348e-39 333 264
0.016789921 0.68400002 -0.02878272 1.3833002e-39 334 264
0.0179892 0.68400002 -0.02878272 1.3833002e-39 335 264
0.01918848 0.68400002 -0.02878272 1.3833002e-39 336 264
0.020447372 0.68599999 -0.02886688 1.3833002e-39 337 264
0.021650158 0.68599999 -0.02886688 1.1996348e-39 338 264
0.022886258 0.68699998 -0.028908957 1.3843862e-39 339 264
0.024090799 0.68699998 -0.028908957 1.4755028e-39 340 264
0.025405798 0.69 -0.029035198 9.2232904e-40 341 264
0.026654173 0.69099998 -0.029077278 2.675125e-39 342 264
0.027946379 0.69300002 -0.029161438 7.5611333e-39 343 264
0.029203519 0.69400001 -0.029203519 1.0329526e-38 344 264
0.030507999 0.69599998 -0.029287677 1.152771e-38 345 264
0.03177391 0.69700003 -0.02932976 1.0608278e-38 346 264
0.033043321 0.69800001 -0.029371841 1.0608278e-38 347 264
0.034365334 0.69999999 -0.029455997 1.0976341e-38 348 264
0.035592664 0.69999999 -0.029455997 1.0976341e-38 349 264
0.036872596 0.70099998 -0.029498078 1.1344401e-38 350 264
0.038210396 0.70300001 -0.029582238 1.1436597e-38 351 264
0.039611302 0.70599997 -0.029708479 1.1805009e-38 352 264
0.040849157 0.70599997 -0.029708479 1.1897205e-38 353 264
0.042146627 0.70700002 -0.029750559 1.4474717e-38 354 264
-0.050005067 0.713 -0.031253166 1.6595567e-38 280 265
-0.048754938 0.713 -0.031253166 1.4936045e-38 281 265
-0.047371563 0.71100003 -0.031165501 1.3647474e-38 282 265
-0.046060063 0.70999998 -0.031121666 1.3924061e-38 283 265
-0.044815198 0.70999998 -0.031121666 1.3373421e-38 284 265
-0.043447599 0.708 -0.031034 1.3097194e-38 285 265
-0.042206239 0.708 -0.031034 1.3004648e-38 286 265
-0.040907022 0.70700002 -0.030990168 1.2912451e-38 287 265
-0.039667413 0.70700002 -0.030990168 1.3646415e-38 288 265
-0.038373452 0.70599997 -0.030946331 1.3093241e-38 289 265
-0.037030395 0.704 -0.030858666 1.2628635e-38 290 265
-0.035796054 0.704 -0.030858666 9.5861777e-39 291 265
-0.034561705 0.704 -0.030858666 5.4366359e-39 292 265
-0.032948639 0.69599998 -0.030507999 2.6704082e-39 293 265
-0.031728316 0.69599998 -0.030507999 1.9368145e-39 294 265
-0.030507999 0.69599998 -0.030507999 2.7665752e-39 295 265
-0.029203519 0.69400001 -0.030420333 2.5836426e-39 296 265
-0.027986705 0.69400001 -0.030420333 2.5836426e-39 297 265
-0.02673132 0.69300002 -0.0303765 2.675125e-39 298 265
-0.02551626 0.69300002 -0.0303765 1.6606129e-39 299 265
-0.024231065 0.69099998 -0.030288832 6.5222456e-40 300 265
-0.023019511 0.69099998 -0.030288832 4.9854206e-39 301 265
-0.021776399 0.69 -0.030244999 8.9494823e-39 302 265
-0.020506985 0.68800002 -0.030157333 1.2084134e-38 303 265
-0.019272638 0.68699998 -0.030113498 1.180792e-38 304 265
-0.018068098 0.68699998 -0.030113498 1.180792e-38 305 265
-0.01686356 0.68699998 -0.030113498 1.1716443e-38 306 265
-0.015636226 0.68599999 -0.030069664 1.1808638e-38 307 265
-0.01443344 0.68599999 -0.030069664 1.1533128e-38 308 265
-0.01319208 0.68400002 -0.029982001 1.1533128e-38 309 265
-0.0119928 0.68400002 -0.029982001 1.1808636e-38 310 265
-0.01077774 0.68300003 -0.029938167 1.1808636e-38 311 265
-0.0095802136 0.68300003 -0.029938167 1.1808636e-38 312 265
-0.0083826864 0.68300003 -0.029938167 1.171644e-38 313 265
-0.0071851597 0.68300003 -0.029938167 1.1716443e-38 314 265
-0.0059876335 0.68300003 -0.029938167 1.1716443e-38 315 265
-0.0047901068 0.68300003 -0.029938167 1.1533131e-38 316 265
-0.0035925799 0.68300003 -0.029938167 1.1440575e-38 317 265
-0.0023950534 0.68300003 -0.029938167 1.1348735e-38 318 265
-0.0011957732 0.68199998 -0.029894331 1.1440931e-38 319 265
0 0.68199998 -0.029894331 1.1623158e-38 320 265
0.0011975267 0.68300003 -0.029938167 1.1438767e-38 321 265
0.0023950534 0.68300003 -0.029938167 1.2170912e-38 322 265
0.0035925799 0.68300003 -0.029938167 7.4689348e-39 323 265
0.0047901068 0.68300003 -0.029938167 1.2932541e-39 324 265
0.0059876335 0.68300003 -0.029938167 7.404391e-40 325 265
0.0071851597 0.68300003 -0.029938167 2.2109029e-39 326 265
0.0083826864 0.68300003 -0.029938167 2.1183485e-39 327 265
0.0095802136 0.68300003 -0.029938167 1.3843834e-39 328 265
0.01077774 0.68300003 -0.029938167 1.2921878e-39 329 265
0.011975267 0.68300003 -0.029938167 1.200711e-39 330 265
0.013172794 0.68300003 -0.029938167 1.108514e-39 331 265
0.01439136 0.68400002 -0.029982001 1.383303e-39 332 265
0.015636226 0.68599999 -0.030069664 1.383303e-39 333 265
0.016839013 0.68599999 -0.030069664 1.3836561e-39 334 265
0.018041799 0.68599999 -0.030069664 1.4758517e-39 335 265
0.019244585 0.68599999 -0.030069664 1.2010627e-39 336 265
0.020447372 0.68599999 -0.030069664 1.2010627e-39 337 265
0.021681719 0.68699998 -0.030113498 1.2921878e-39 338 265
0.022886258 0.68699998 -0.030113498 1.3843834e-39 339 265
0.024090799 0.68699998 -0.030113498 1.3843834e-39 340 265
0.025405798 0.69 -0.030244999 6.4681835e-40 341 265
0.026654173 0.69099998 -0.030288832 2.7687584e-39 342 265
0.027946379 0.69300002 -0.0303765 8.1161049e-39 343 265
0.029203519 0.69400001 -0.030420333 1.051464e-38 344 265
0.030507999 0.69599998 -0.030507999 1.1160008e-38 345 265
0.03177391 0.69700003 -0.030551834 1.0608278e-38 346 265
0.033043321 0.69800001 -0.030595668 1.0608278e-38 347 265
0.034365334 0.69999999 -0.030683333 1.1067454e-38 348 265
0.035643511 0.70099998 -0.030727165 1.1160008e-38 349 265
0.036977798 0.70300001 -0.030814834 1.1344398e-38 350 265
0.038264744 0.704 -0.030858666 1.1529148e-38 351 265
0.039611302 0.70599997 -0.030946331 1.2080517e-38 352 265
0.040849157 0.70599997 -0.030946331 1.2725886e-38 353 265
0.042087011 0.70599997 -0.030946331 1.5578187e-38 354 265
-0.048754938 0.713 -0.032503292 1.6318261e-38 281 266
-0.047504812 0.713 -0.032503292 1.4843496e-38 282 266
-0.046254687 0.713 -0.032503292 1.4474714e-38 283 266
-0.044878319 0.71100003 -0.032412119 1.3649285e-38 284 266
-0.043570329 0.70999998 -0.032366529 1.3373058e-38 285 266
-0.042206239 0.708 -0.03227536 1.3463821e-38 286 266
-0.040964879 0.708 -0.03227536 1.3371626e-38 287 266
-0.039723519 0.708 -0.03227536 1.337127e-38 288 266
-0.038427804 0.70700002 -0.032229774 1.3648215e-38 289 266
-0.037030395 0.704 -0.032093015 1.4014471e-38 290 266
-0.035796054 0.704 -0.032093015 1.3000678e-38 291 266
-0.034512613 0.70300001 -0.032047424 1.0602828e-38 292 266
-0.033280019 0.70300001 -0.032047424 5.5320685e-39 293 266
-0.03177391 0.69700003 -0.03177391 2.8583798e-39 294 266
-0.030507999 0.69599998 -0.031728316 2.120826e-39 295 266
-0.029287677 0.69599998 -0.031728316 2.5829e-39 296 266
-0.027986705 0.69400001 -0.031637147 2.8594882e-39 297 266
-0.026769891 0.69400001 -0.031637147 2.7655186e-39 298 266
-0.02551626 0.69300002 -0.031591557 1.3825841e-39 299 266
-0.024301201 0.69300002 -0.031591557 5.4255376e-39 300 266
-0.023019511 0.69099998 -0.031500384 1.2616797e-38 301 266
-0.021807959 0.69099998 -0.031500384 1.1806471e-38 302 266
-0.020566599 0.69 -0.031454802 1.2544036e-38 303 266
-0.019300694 0.68800002 -0.031363625 1.1807917e-38 304 266
-0.018068098 0.68699998 -0.031318039 1.1807917e-38 305 266
-0.01686356 0.68699998 -0.031318039 1.1808636e-38 306 266
-0.015659019 0.68699998 -0.031318039 1.171644e-38 307 266
-0.01443344 0.68599999 -0.031272452 1.1625323e-38 308 266
-0.013230653 0.68599999 -0.031272452 1.1625323e-38 309 266
-0.012027865 0.68599999 -0.031272452 1.1533128e-38 310 266
-0.01079352 0.68400002 -0.03118128 1.1625323e-38 311 266
-0.0095942402 0.68400002 -0.03118128 1.1808636e-38 312 266
-0.0083949603 0.68400002 -0.03118128 1.171644e-38 313 266
-0.0071956799 0.68400002 -0.03118128 1.171644e-38 314 266
-0.0059964 0.68400002 -0.03118128 1.1624243e-38 315 266
-0.0047971201 0.68400002 -0.03118128 1.1440575e-38 316 266
-0.0035925799 0.68300003 -0.031135695 1.1440575e-38 317 266
-0.0023950534 0.68300003 -0.031135695 1.1624243e-38 318 266
-0.0011975267 0.68300003 -0.031135695 1.1440212e-38 319 266
0 0.68300003 -0.031135695 1.1440565e-38 320 266
0.0011975267 0.68300003 -0.031135695 1.1901184e-38 321 266
0.0023950534 0.68300003 -0.031135695 1.3002477e-38 322 266
0.0035925799 0.68300003 -0.031135695 1.0236609e-38 323 266
0.0047901068 0.68300003 -0.031135695 4.7938e-39 324 266
0.0059964 0.68400002 -0.03118128 1.1059748e-39 325 266
0.0071851597 0.68300003 -0.031135695 1.1084986e-39 326 266
0.0083826864 0.68300003 -0.031135695 1.6613136e-39 327 266
0.0095802136 0.68300003 -0.031135695 1.3850995e-39 328 266
0.01077774 0.68300003 -0.031135695 1.2929038e-39 329 266
0.011975267 0.68300003 -0.031135695 1.2010627e-39 330 266
0.01319208 0.68400002 -0.03118128 1.2010627e-39 331 266
0.01439136 0.68400002 -0.03118128 9.251961e-40 332 266
0.015636226 0.68599999 -0.031272452 9.251961e-40 333 266
0.016839013 0.68599999 -0.031272452 1.2010627e-39 334 266
0.018041799 0.68599999 -0.031272452 1.2010627e-39 335 266
0.019244585 0.68599999 -0.031272452 1.2007068e-39 336 266
0.020477179 0.68699998 -0.031318039 1.2007068e-39 337 266
0.021681719 0.68699998 -0.031318039 1.2921878e-39 338 266
0.022886258 0.68699998 -0.031318039 1.5684145e-39 339 266
0.024125867 0.68800002 -0.031363625 1.1103132e-39 340 266
0.025405798 0.69 -0.031454802 9.6161305e-41 341 266
0.026654173 0.69099998 -0.031500384 2.7698374e-39 342 266
0.027986705 0.69400001 -0.031637147 8.6703591e-39 343 266
0.029203519 0.69400001 -0.031637147 1.0606836e-38 344 266
0.030551834 0.69700003 -0.03177391 1.0791227e-38 345 266
0.031819493 0.69800001 -0.031819493 1.0608281e-38 346 266
0.033137999 0.69999999 -0.031910665 1.0608281e-38 347 266
0.034414422 0.70099998 -0.031956252 1.1067457e-38 348 266
0.035643511 0.70099998 -0.031956252 1.1251849e-38 349 266
0.037030395 0.704 -0.032093015 1.1069606e-38 350 266
0.038264744 0.704 -0.032093015 1.1254356e-38 351 266
0.039611302 0.70599997 -0.032184184 1.1529498e-38 352 266
0.040849157 0.70599997 -0.032184184 1.2728042e-38 353 266
0.042146627 0.70700002 -0.032229774 1.5671105e-38 354 266
-0.048754938 0.713 -0.033753417 1.806782e-38 281 267
-0.047504812 0.713 -0.033753417 1.6408304e-38 282 267
-0.046254687 0.713 -0.033753417 1.5393793e-38 283 267
-0.044878319 0.71100003 -0.033658739 1.3831881e-38 284 267
-0.043570329 0.70999998 -0.033611398 1.3831881e-38 285 267
-0.042325463 0.70999998 -0.033611398 1.3463824e-38 286 267
-0.041080594 0.70999998 -0.033611398 1.3463824e-38 287 267
-0.039723519 0.708 -0.033516716 1.2912813e-38 288 267
-0.038482159 0.708 -0.033516716 1.2820616e-38 289 267
-0.037188202 0.70700002 -0.033469379 1.3187958e-38 290 267
-0.035796054 0.704 -0.03332736 1.3280153e-38 291 267
-0.034512613 0.70300001 -0.033280019 1.4107376e-38 292 267
-0.033280019 0.70300001 -0.033280019 1.2355659e-38 293 267
-0.031819493 0.69800001 -0.033043321 9.3110173e-39 294 267
-0.030551834 0.69700003 -0.03299598 5.3466052e-39 295 267
-0.02932976 0.69700003 -0.03299598 1.937162e-39 296 267
-0.028067358 0.69599998 -0.032948639 7.3863003e-40 297 267
-0.026847038 0.69599998 -0.032948639 4.3244071e-42 298 267
-0.025553079 0.69400001 -0.032853961 4.9836087e-39 299 267
-0.024301201 0.69300002 -0.03280662 9.0427528e-39 300 267
-0.023019511 0.69099998 -0.032711938 1.2730219e-38 301 267
-0.021807959 0.69099998 -0.032711938 1.2636231e-38 302 267
-0.020566599 0.69 -0.032664597 1.2267449e-38 303 267
-0.019300694 0.68800002 -0.032569919 1.171644e-38 304 267
-0.0180944 0.68800002 -0.032569919 1.171644e-38 305 267
-0.01686356 0.68699998 -0.032522578 1.1625679e-38 306 267
-0.015659019 0.68699998 -0.032522578 1.1625679e-38 307 267
-0.014454478 0.68699998 -0.032522578 1.1625323e-38 308 267
-0.013249939 0.68699998 -0.032522578 1.1625323e-38 309 267
-0.012027865 0.68599999 -0.032475237 1.1808636e-38 310 267
-0.01079352 0.68400002 -0.032380559 1.1808636e-38 311 267
-0.0095942402 0.68400002 -0.032380559 1.171644e-38 312 267
-0.0084195063 0.68599999 -0.032475237 1.171644e-38 313 267
-0.0071956799 0.68400002 -0.032380559 1.1624243e-38 314 267
-0.0059964 0.68400002 -0.032380559 1.1624243e-38 315 267
-0.0047971201 0.68400002 -0.032380559 1.1440575e-38 316 267
-0.00359784 0.68400002 -0.032380559 1.1440575e-38 317 267
-0.0023985601 0.68400002 -0.032380559 1.1624246e-38 318 267
-0.0012027866 0.68599999 -0.032475237 1.1439856e-38 319 267
0 0.68599999 -0.032475237 1.1348735e-38 320 267
0.0012027866 0.68599999 -0.032475237 1.1256539e-38 321 267
0.0024055731 0.68599999 -0.032475237 1.162423e-38 322 267
0.00359784 0.68400002 -0.032380559 1.0978861e-38 323 267
0.0047971201 0.68400002 -0.032380559 9.9556833e-39 324 267
0.0059964 0.68400002 -0.032380559 2.6722285e-39 325 267
0.0071851597 0.68300003 -0.032333218 3.5873241e-43 326 267
0.0083826864 0.68300003 -0.032333218 2.029373e-39 327 267
0.0095802136 0.68300003 -0.032333218 1.3858211e-39 328 267
0.01077774 0.68300003 -0.032333218 1.20179e-39 329 267
0.011975267 0.68300003 -0.032333218 1.1095916e-39 330 267
0.01319208 0.68400002 -0.032380559 1.0173945e-39 331 267
0.01439136 0.68400002 -0.032380559 1.0173917e-39 332 267
0.015636226 0.68599999 -0.032475237 1.0173917e-39 333 267
0.016839013 0.68599999 -0.032475237 1.2010627e-39 334 267
0.018068098 0.68699998 -0.032522578 1.2010627e-39 335 267
0.019272638 0.68699998 -0.032522578 1.2921836e-39 336 267
0.020477179 0.68699998 -0.032522578 1.2921836e-39 337 267
0.021681719 0.68699998 -0.032522578 1.3847365e-39 338 267
0.022919573 0.68800002 -0.032569919 1.5687676e-39 339 267
0.024125867 0.68800002 -0.032569919 1.4776538e-39 340 267
0.025405798 0.69 -0.032664597 1.86915e-40 341 267
0.02673132 0.69300002 -0.03280662 2.9531496e-39 342 267
0.027986705 0.69400001 -0.032853961 9.4990394e-39 343 267
0.029203519 0.69400001 -0.032853961 1.0791227e-38 344 267
0.030551834 0.69700003 -0.03299598 1.0791227e-38 345 267
0.031819493 0.69800001 -0.033043321 1.0608278e-38 346 267
0.033137999 0.69999999 -0.033137999 1.0700832e-38 347 267
0.034414422 0.70099998 -0.03318534 1.0976693e-38 348 267
0.035745207 0.70300001 -0.033280019 1.106889e-38 349 267
0.037030395 0.704 -0.03332736 1.1162158e-38 350 267
0.038264744 0.704 -0.03332736 1.1254353e-38 351 267
0.039611302 0.70599997 -0.033422034 1.0884479e-38 352 267
0.040849157 0.70599997 -0.033422034 1.2636196e-38 353 267
0.042146627 0.70700002 -0.033469379 1.5581059e-38 354 267
0.043386232 0.70700002 -0.033469379 1.7056189e-38 355 267
-0.047504812 0.713 -0.035003547 1.7606128e-38 282 268
-0.046254687 0.713 -0.035003547 1.6223194e-38 283 268
-0.044815198 0.70999998 -0.034856264 1.4382531e-38 284 268
-0.043570329 0.70999998 -0.034856264 1.41985e-38 285 268
-0.042325463 0.70999998 -0.034856264 1.392336e-38 286 268
-0.041080594 0.70999998 -0.034856264 1.373861e-38 287 268
-0.039723519 0.708 -0.034758076 1.337127e-38 288 268
-0.038482159 0.708 -0.034758076 1.337127e-38 289 268
-0.037188202 0.70700002 -0.034708988 1.2912451e-38 290 268
-0.035897743 0.70599997 -0.034659892 1.3004648e-38 291 268
-0.034561705 0.704 -0.034561705 1.34649e-38 292 268
-0.033280019 0.70300001 -0.034512613 1.34649e-38 293 268
-0.031956252 0.70099998 -0.034414422 1.253968e-38 294 268
-0.030595668 0.69800001 -0.034267146 9.8656485e-39 295 268
-0.029371841 0.69800001 -0.034267146 5.9033916e-39 296 268
-0.028107686 0.69700003 -0.034218054 2.8609358e-39 297 268
-0.026847038 0.69599998 -0.034168959 1.2097115e-39 298 268
-0.025626717 0.69599998 -0.034168959 7.5715701e-39 299 268
-0.024301201 0.69300002 -0.034021679 1.198942e-38 300 268
-0.02308614 0.69300002 -0.034021679 1.3187604e-38 301 268
-0.021807959 0.69099998 -0.033923492 1.2175976e-38 302 268
-0.020566599 0.69 -0.0338744 1.1991585e-38 303 268
-0.019356798 0.69 -0.0338744 1.1808273e-38 304 268
-0.0180944 0.68800002 -0.033776212 1.1992304e-38 305 268
-0.016888106 0.68800002 -0.033776212 1.1808992e-38 306 268
-0.015659019 0.68699998 -0.033727121 1.1808992e-38 307 268
-0.014454478 0.68699998 -0.033727121 1.1808636e-38 308 268
-0.013249939 0.68699998 -0.033727121 1.1808636e-38 309 268
-0.012045399 0.68699998 -0.033727121 1.1808636e-38 310 268
-0.010840859 0.68699998 -0.033727121 1.171644e-38 311 268
-0.0096222926 0.68599999 -0.033678025 1.171644e-38 312 268
-0.0084195063 0.68599999 -0.033678025 1.171644e-38 313 268
-0.0072272392 0.68699998 -0.033727121 1.1624243e-38 314 268
-0.0060226996 0.68699998 -0.033727121 1.1624243e-38 315 268
-0.0048181596 0.68699998 -0.033727121 1.1440575e-38 316 268
-0.0036136196 0.68699998 -0.033727121 1.1348379e-38 317 268
-0.0024090798 0.68699998 -0.033727121 1.1439856e-38 318 268
-0.0012045399 0.68699998 -0.033727121 1.1439856e-38 319 268
0 0.68699998 -0.033727121 1.1440209e-38 320 268
0.0012045399 0.68699998 -0.033727121 1.1440209e-38 321 268
0.0024055731 0.68599999 -0.033678025 1.171607e-38 322 268
0.00360836 0.68599999 -0.033678025 1.1808626e-38 323 268
0.0048111463 0.68599999 -0.033678025 1.1986138e-38 324 268
0.0060139326 0.68599999 -0.033678025 6.361846e-39 325 268
0.0071851597 0.68300003 -0.033530746 1.1070482e-39 326 268
0.0083826864 0.68300003 -0.033530746 1.5676606e-39 327 268
0.0095942402 0.68400002 -0.033579841 1.8439098e-39 328 268
0.01079352 0.68400002 -0.033579841 1.8439098e-39 329 268
0.0119928 0.68400002 -0.033579841 1.5680488e-39 330 268
0.013230653 0.68599999 -0.033678025 1.5680488e-39 331 268
0.01443344 0.68599999 -0.033678025 1.4758517e-39 332 268
0.015659019 0.68699998 -0.033727121 1.4758517e-39 333 268
0.01686356 0.68699998 -0.033727121 1.4754958e-39 334 268
0.018068098 0.68699998 -0.033727121 1.4754958e-39 335 268
0.019272638 0.68699998 -0.033727121 1.4754958e-39 336 268
0.020477179 0.68699998 -0.033727121 1.5680516e-39 337 268
0.021681719 0.68699998 -0.033727121 1.3843834e-39 338 268
0.022919573 0.68800002 -0.033776212 1.6606101e-39 339 268
0.024125867 0.68800002 -0.033776212 1.4773007e-39 340 268
0.025405798 0.69 -0.0338744 1.4517452e-42 341 268
0.02673132 0.69300002 -0.034021679 3.7803936e-39 342 268
0.027986705 0.69400001 -0.034070771 1.0787261e-38 343 268
0.029287677 0.69599998 -0.034168959 1.1160008e-38 344 268
0.030551834 0.69700003 -0.034218054 1.0791227e-38 345 268
0.031819493 0.69800001 -0.034267146 1.0791593e-38 346 268
0.033137999 0.69999999 -0.034365334 1.0883788e-38 347 268
0.034512613 0.70300001 -0.034512613 1.106889e-38 348 268
0.035745207 0.70300001 -0.034512613 1.1252921e-38 349 268
0.037030395 0.704 -0.034561705 1.1529145e-38 350 268
0.038264744 0.704 -0.034561705 1.1067807e-38 351 268
0.039611302 0.70599997 -0.034659892 1.0054716e-38 352 268
0.040849157 0.70599997 -0.034659892 1.3834735e-38 353 268
0.042146627 0.70700002 -0.034708988 1.6777434e-38 354 268
-0.046060063 0.70999998 -0.036101133 1.6960756e-38 283 269
-0.044815198 0.70999998 -0.036101133 1.4843143e-38 284 269
-0.043570329 0.70999998 -0.036101133 1.4474361e-38 285 269
-0.042325463 0.70999998 -0.036101133 1.3924076e-38 286 269
-0.041080594 0.70999998 -0.036101133 1.364785e-38 287 269
-0.039723519 0.708 -0.03599944 1.3280509e-38 288 269
-0.038482159 0.708 -0.03599944 1.3280509e-38 289 269
-0.037188202 0.70700002 -0.035948593 1.2820616e-38 290 269
-0.035897743 0.70599997 -0.035897743 1.2636584e-38 291 269
-0.034561705 0.704 -0.035796054 1.2361793e-38 292 269
-0.03332736 0.704 -0.035796054 1.2453988e-38 293 269
-0.031956252 0.70099998 -0.035643511 1.3831162e-38 294 269
-0.030683333 0.69999999 -0.035592664 1.3554215e-38 295 269
-0.029371841 0.69800001 -0.035490975 1.2448581e-38 296 269
-0.028148014 0.69800001 -0.035490975 1.0789059e-38 297 269
-0.026885614 0.69700003 -0.035440128 8.8630278e-39 298 269
-0.025626717 0.69599998 -0.035389278 1.1075723e-38 299 269
-0.024301201 0.69300002 -0.035236739 1.3555667e-38 300 269
-0.02308614 0.69300002 -0.035236739 1.3002493e-38 301 269
-0.021871079 0.69300002 -0.035236739 1.2084137e-38 302 269
-0.020596405 0.69099998 -0.035135046 1.2084137e-38 303 269
-0.019356798 0.69 -0.035084199 1.1808992e-38 304 269
-0.0180944 0.68800002 -0.03498251 1.1808992e-38 305 269
-0.016888106 0.68800002 -0.03498251 1.1992304e-38 306 269
-0.015681813 0.68800002 -0.03498251 1.1992304e-38 307 269
-0.014454478 0.68699998 -0.034931656 1.1808636e-38 308 269
-0.013249939 0.68699998 -0.034931656 1.1808636e-38 309 269
-0.012045399 0.68699998 -0.034931656 1.1808636e-38 310 269
-0.010840859 0.68699998 -0.034931656 1.1808636e-38 311 269
-0.0096363192 0.68699998 -0.034931656 1.171644e-38 312 269
-0.0084317802 0.68699998 -0.034931656 1.171644e-38 313 269
-0.0072377604 0.68800002 -0.03498251 1.1624243e-38 314 269
-0.0060314666 0.68800002 -0.03498251 1.1624243e-38 315 269
-0.0048251734 0.68800002 -0.03498251 1.1440931e-38 316 269
-0.0036188802 0.68800002 -0.03498251 1.1348735e-38 317 269
-0.0024090798 0.68699998 -0.034931656 1.1440212e-38 318 269
-0.0012045399 0.68699998 -0.034931656 1.1440212e-38 319 269
0 0.68699998 -0.034931656 1.1440209e-38 320 269
0.0012045399 0.68699998 -0.034931656 1.1440209e-38 321 269
0.0024090798 0.68699998 -0.034931656 1.1348013e-38 322 269
0.00360836 0.68599999 -0.034880809 1.1808992e-38 323 269
0.0048111463 0.68599999 -0.034880809 1.3001396e-38 324 269
0.0060226996 0.68699998 -0.034931656 9.867103e-39 325 269
0.0072272392 0.68699998 -0.034931656 6.2678357e-39 326 269
0.0084317802 0.68699998 -0.034931656 1.8424496e-39 327 269
0.0096363192 0.68699998 -0.034931656 1.6587801e-39 328 269
0.010825079 0.68599999 -0.034880809 2.3041495e-39 329 269
0.012027865 0.68599999 -0.034880809 1.5687648e-39 330 269
0.013249939 0.68699998 -0.034931656 1.3847337e-39 331 269
0.014454478 0.68699998 -0.034931656 1.568046e-39 332 269
0.015659019 0.68699998 -0.034931656 1.568046e-39 333 269
0.01686356 0.68699998 -0.034931656 1.5680516e-39 334 269
0.018068098 0.68699998 -0.034931656 1.4754958e-39 335 269
0.019272638 0.68699998 -0.034931656 1.5669768e-39 336 269
0.020477179 0.68699998 -0.034931656 1.7510079e-39 337 269
0.021681719 0.68699998 -0.034931656 1.6598913e-39 338 269
0.022919573 0.68800002 -0.03498251 1.9364768e-39 339 269
0.024195999 0.69 -0.035084199 1.4773007e-39 340 269
0.025442619 0.69099998 -0.035135046 3.6994279e-43 341 269
0.02673132 0.69300002 -0.035236739 5.3452011e-39 342 269
0.027986705 0.69400001 -0.035287585 1.1891091e-38 343 269
0.029371841 0.69800001 -0.035490975 1.1160005e-38 344 269
0.030595668 0.69800001 -0.035490975 1.0883779e-38 345 269
0.031910665 0.69999999 -0.035592664 1.1067454e-38 346 269
0.033137999 0.69999999 -0.035592664 1.1160008e-38 347 269
0.034512613 0.70300001 -0.035745207 1.1252202e-38 348 269
0.035745207 0.70300001 -0.035745207 1.1436594e-38 349 269
0.037030395 0.704 -0.035796054 1.1620615e-38 350 269
0.038264744 0.704 -0.035796054 1.0422072e-38 351 269
0.039611302 0.70599997 -0.035897743 1.0327706e-38 352 269
0.040849157 0.70599997 -0.035897743 1.5582857e-38 353 269
0.042087011 0.70599997 -0.035897743 1.7422097e-38 354 269
-0.044815198 0.70999998 -0.037345998 1.5765453e-38 284 270
-0.043570329 0.70999998 -0.037345998 1.4843496e-38 285 270
-0.042325463 0.70999998 -0.037345998 1.3741117e-38 286 270
-0.041080594 0.70999998 -0.037345998 1.3648563e-38 287 270
-0.039723519 0.708 -0.0372408 1.3463821e-38 288 270
-0.038482159 0.708 -0.0372408 1.3371626e-38 289 270
-0.0372408 0.708 -0.0372408 1.3004645e-38 290 270
-0.035948593 0.70700002 -0.037188202 1.3004645e-38 291 270
-0.034659892 0.70599997 -0.037135597 1.2820616e-38 292 270
-0.03332736 0.704 -0.037030395 1.2636584e-38 293 270
-0.032047424 0.70300001 -0.036977798 1.3004648e-38 294 270
-0.030727165 0.70099998 -0.036872596 1.3004648e-38 295 270
-0.029455997 0.69999999 -0.036819998 1.3095039e-38 296 270
-0.028148014 0.69800001 -0.0367148 1.2542224e-38 297 270
-0.026885614 0.69700003 -0.036662199 1.1439115e-38 298 270
-0.025626717 0.69599998 -0.036609598 1.2453265e-38 299 270
-0.024301201 0.69300002 -0.036451802 1.2636584e-38 300 270
-0.02308614 0.69300002 -0.036451802 1.2452193e-38 301 270
-0.021871079 0.69300002 -0.036451802 1.2176332e-38 302 270
-0.020596405 0.69099998 -0.036346599 1.2176332e-38 303 270
-0.019384852 0.69099998 -0.036346599 1.2083781e-38 304 270
-0.018146999 0.69 -0.036293998 1.2083781e-38 305 270
-0.0169372 0.69 -0.036293998 1.2083783e-38 306 270
-0.015681813 0.68800002 -0.0361888 1.2083783e-38 307 270
-0.014475521 0.68800002 -0.0361888 1.1992307e-38 308 270
-0.013269227 0.68800002 -0.0361888 1.1992307e-38 309 270
-0.012045399 0.68699998 -0.036136195 1.1992307e-38 310 270
-0.010840859 0.68699998 -0.036136195 1.1807917e-38 311 270
-0.0096363192 0.68699998 -0.036136195 1.1807917e-38 312 270
-0.0084317802 0.68699998 -0.036136195 1.1807917e-38 313 270
-0.0072377604 0.68800002 -0.0361888 1.1624243e-38 314 270
-0.0060314666 0.68800002 -0.0361888 1.1624243e-38 315 270
-0.0048251734 0.68800002 -0.0361888 1.1624243e-38 316 270
-0.0036188802 0.68800002 -0.0361888 1.1624243e-38 317 270
-0.0024125867 0.68800002 -0.0361888 1.1440212e-38 318 270
-0.0012062934 0.68800002 -0.0361888 1.1348016e-38 319 270
0 0.68699998 -0.036136195 1.1623524e-38 320 270
0.0012045399 0.68699998 -0.036136195 1.1531329e-38 321 270
0.0024090798 0.68699998 -0.036136195 1.1531331e-38 322 270
0.0036136196 0.68699998 -0.036136195 1.1623527e-38 323 270
0.0048181596 0.68699998 -0.036136195 1.2175246e-38 324 270
0.0060226996 0.68699998 -0.036136195 1.1622433e-38 325 270
0.0072272392 0.68699998 -0.036136195 1.0783632e-38 326 270
0.0084317802 0.68699998 -0.036136195 5.3437312e-39 327 270
0.0096363192 0.68699998 -0.036136195 1.6620072e-39 328 270
0.010856641 0.68800002 -0.0361888 1.2928716e-39 329 270
0.012062933 0.68800002 -0.0361888 1.6616695e-39 330 270
0.013269227 0.68800002 -0.0361888 1.6616695e-39 331 270
0.014454478 0.68699998 -0.036136195 1.6606003e-39 332 270
0.015659019 0.68699998 -0.036136195 1.6606003e-39 333 270
0.01686356 0.68699998 -0.036136195 1.3847365e-39 334 270
0.0180944 0.68800002 -0.0361888 1.2925395e-39 335 270
0.019272638 0.68699998 -0.036136195 1.4754958e-39 336 270
0.020477179 0.68699998 -0.036136195 1.7524428e-39 337 270
0.021681719 0.68699998 -0.036136195 1.5694935e-39 338 270
0.022919573 0.68800002 -0.0361888 1.4772979e-39 339 270
0.024195999 0.69 -0.036293998 5.5894152e-40 340 270
0.02551626 0.69300002 -0.036451802 9.2736391e-40 341 270
0.026847038 0.69599998 -0.036609598 7.4653447e-39 342 270
0.028148014 0.69800001 -0.0367148 1.26283e-38 343 270
0.029455997 0.69999999 -0.036819998 1.1069609e-38 344 270
0.030683333 0.69999999 -0.036819998 1.0885216e-38 345 270
0.031910665 0.69999999 -0.036819998 1.106889e-38 346 270
0.033280019 0.70300001 -0.036977798 1.0976693e-38 347 270
0.034561705 0.704 -0.037030395 1.12522e-38 348 270
0.035796054 0.704 -0.037030395 1.1344754e-38 349 270
0.037030395 0.704 -0.037030395 1.0701886e-38 350 270
0.038264744 0.704 -0.037030395 9.7795709e-39 351 270
0.039499093 0.704 -0.037030395 1.2535362e-38 352 270
0.040849157 0.70599997 -0.037135597 1.7145143e-38 353 270
0.042087011 0.70599997 -0.037135597 1.7146589e-38 354 270
-0.044815198 0.70999998 -0.038590867 1.7146942e-38 284 271
-0.043570329 0.70999998 -0.038590867 1.5764008e-38 285 271
-0.042385083 0.71100003 -0.038645219 1.4566912e-38 286 271
-0.041080594 0.70999998 -0.038590867 1.4289967e-38 287 271
-0.039835732 0.70999998 -0.038590867 1.3371623e-38 288 271
-0.038590867 0.70999998 -0.038590867 1.3371623e-38 289 271
-0.0372408 0.708 -0.038482159 1.3187958e-38 290 271
-0.035948593 0.70700002 -0.038427804 1.3095761e-38 291 271
-0.034708988 0.70700002 -0.038427804 1.2912448e-38 292 271
-0.033422034 0.70599997 -0.038373452 1.2912448e-38 293 271
-0.032093015 0.704 -0.038264744 1.2820253e-38 294 271
-0.030814834 0.70300001 -0.038210396 1.2820253e-38 295 271
-0.029498078 0.70099998 -0.038101684 1.3003565e-38 296 271
-0.028228667 0.69999999 -0.038047329 1.3095761e-38 297 271
-0.026924185 0.69800001 -0.037938625 1.2452193e-38 298 271
-0.025626717 0.69599998 -0.037829921 1.2544389e-38 299 271
-0.024301201 0.69300002 -0.037666857 1.2268881e-38 300 271
-0.02308614 0.69300002 -0.037666857 1.2268881e-38 301 271
-0.021871079 0.69300002 -0.037666857 1.2359644e-38 302 271
-0.020656019 0.69300002 -0.037666857 1.2359644e-38 303 271
-0.01944096 0.69300002 -0.037666857 1.2267093e-38 304 271
-0.0181733 0.69099998 -0.03755815 1.2267093e-38 305 271
-0.016961746 0.69099998 -0.03755815 1.2083781e-38 306 271
-0.015750192 0.69099998 -0.03755815 1.2083781e-38 307 271
-0.014517599 0.69 -0.037503798 1.2083781e-38 308 271
-0.0133078 0.69 -0.037503798 1.2083781e-38 309 271
-0.012062933 0.68800002 -0.037395094 1.1808273e-38 310 271
-0.010856641 0.68800002 -0.037395094 1.1992304e-38 311 271
-0.0096503468 0.68800002 -0.037395094 1.180827e-38 312 271
-0.0084440531 0.68800002 -0.037395094 1.1716073e-38 313 271
-0.0072587994 0.69 -0.037503798 1.162424e-38 314 271
-0.0060489997 0.69 -0.037503798 1.162424e-38 315 271
-0.0048391996 0.69 -0.037503798 1.162424e-38 316 271
-0.0036188802 0.68800002 -0.037395094 1.1440209e-38 317 271
-0.0024125867 0.68800002 -0.037395094 1.1440212e-38 318 271
-0.0012062934 0.68800002 -0.037395094 1.1440212e-38 319 271
0 0.68800002 -0.037395094 1.1348016e-38 320 271
0.0012045399 0.68699998 -0.037340738 1.1348016e-38 321 271
0.0024090798 0.68699998 -0.037340738 1.1348016e-38 322 271
0.0036136196 0.68699998 -0.037340738 1.1348016e-38 323 271
0.0048181596 0.68699998 -0.037340738 1.1530963e-38 324 271
0.0060226996 0.68699998 -0.037340738 1.2084137e-38 325 271
0.0072272392 0.68699998 -0.037340738 1.2998515e-38 326 271
0.0084440531 0.68800002 -0.037395094 8.7571555e-39 327 271
0.0096503468 0.68800002 -0.037395094 5.2540397e-39 328 271
0.010856641 0.68800002 -0.037395094 2.4881708e-39 329 271
0.012062933 0.68800002 -0.037395094 2.1197554e-39 330 271
0.013269227 0.68800002 -0.037395094 2.396701e-39 331 271
0.014454478 0.68699998 -0.037340738 1.7527932e-39 332 271
0.015659019 0.68699998 -0.037340738 1.7527932e-39 333 271
0.01686356 0.68699998 -0.037340738 1.5691208e-39 334 271
0.0180944 0.68800002 -0.037395094 1.5691208e-39 335 271
0.019300694 0.68800002 -0.037395094 1.6613192e-39 336 271
0.020506985 0.68800002 -0.037395094 1.7535148e-39 337 271
0.021776399 0.69 -0.037503798 1.3847491e-39 338 271
0.02308614 0.69300002 -0.037666857 7.3937972e-40 339 271
0.024301201 0.69300002 -0.037666857 1.0104763e-41 340 271
0.025553079 0.69400001 -0.037721213 2.6866591e-39 341 271
0.026847038 0.69599998 -0.037829921 8.6700242e-39 342 271
0.028228667 0.69999999 -0.038047329 1.1804676e-38 343 271
0.029498078 0.70099998 -0.038101684 1.0978139e-38 344 271
0.030727165 0.70099998 -0.038101684 1.0701552e-38 345 271
0.031956252 0.70099998 -0.038101684 1.1068887e-38 346 271
0.033280019 0.70300001 -0.038210396 1.1068887e-38 347 271
0.034561705 0.704 -0.038264744 1.1528063e-38 348 271
0.035796054 0.704 -0.038264744 1.1067444e-38 349 271
0.036977798 0.70300001 -0.038210396 8.7682958e-39 350 271
0.038101684 0.70099998 -0.038101684 9.8742847e-39 351 271
0.039330769 0.70099998 -0.038101684 1.4288158e-38 352 271
0.040849157 0.70599997 -0.038373452 1.6961831e-38 353 271
0.042087011 0.70599997 -0.038373452 1.6779605e-38 354 271
-0.043754432 0.713 -0.040004052 1.7236623e-38 285 272
-0.042504307 0.713 -0.040004052 1.548779e-38 286 272
-0.041138459 0.71100003 -0.039891839 1.4289248e-38 287 272
-0.039835732 0.70999998 -0.039835732 1.3371979e-38 288 272
-0.038590867 0.70999998 -0.039835732 1.3371979e-38 289 272
-0.0372408 0.708 -0.039723519 1.3188313e-38 290 272
-0.03599944 0.708 -0.039723519 1.3095758e-38 291 272
-0.034708988 0.70700002 -0.039667413 1.3003565e-38 292 272
-0.033422034 0.70599997 -0.039611302 1.3095761e-38 293 272
-0.032093015 0.704 -0.039499093 1.3095761e-38 294 272
-0.030814834 0.70300001 -0.039442986 1.3095761e-38 295 272
-0.029498078 0.70099998 -0.039330769 1.2820616e-38 296 272
-0.028268991 0.70099998 -0.039330769 1.2636584e-38 297 272
-0.026924185 0.69800001 -0.039162453 1.2544392e-38 298 272
-0.025663542 0.69700003 -0.039106347 1.2544392e-38 299 272
-0.0244064 0.69599998 -0.039050236 1.2268525e-38 300 272
-0.023186078 0.69599998 -0.039050236 1.2176329e-38 301 272
-0.021902639 0.69400001 -0.038938027 1.245184e-38 302 272
-0.020685827 0.69400001 -0.038938027 1.2359644e-38 303 272
-0.019469013 0.69400001 -0.038938027 1.2175976e-38 304 272
-0.018225901 0.69300002 -0.03888192 1.2175976e-38 305 272
-0.01701084 0.69300002 -0.03888192 1.2083781e-38 306 272
-0.015750192 0.69099998 -0.038769703 1.2175976e-38 307 272
-0.014538639 0.69099998 -0.038769703 1.2083781e-38 308 272
-0.0133078 0.69 -0.038713597 1.2083781e-38 309 272
-0.012097999 0.69 -0.038713597 1.1991585e-38 310 272
-0.010888199 0.69 -0.038713597 1.2083781e-38 311 272
-0.0096503468 0.68800002 -0.038601387 1.1716796e-38 312 272
-0.0084440531 0.68800002 -0.038601387 1.1716796e-38 313 272
-0.0072587994 0.69 -0.038713597 1.162424e-38 314 272
-0.0060489997 0.69 -0.038713597 1.162424e-38 315 272
-0.0048391996 0.69 -0.038713597 1.1716076e-38 316 272
-0.0036188802 0.68800002 -0.038601387 1.1623521e-38 317 272
-0.0024125867 0.68800002 -0.038601387 1.1440209e-38 318 272
-0.0012062934 0.68800002 -0.038601387 1.1348013e-38 319 272
0 0.68800002 -0.038601387 1.1348013e-38 320 272
0.0012045399 0.68699998 -0.038545277 1.1255818e-38 321 272
0.0024090798 0.68699998 -0.038545277 1.1255818e-38 322 272
0.0036136196 0.68699998 -0.038545277 1.1348013e-38 323 272
0.0048181596 0.68699998 -0.038545277 1.1255818e-38 324 272
0.0060226996 0.68699998 -0.038545277 1.1440209e-38 325 272
0.0072272392 0.68699998 -0.038545277 1.2082688e-38 326 272
0.0084440531 0.68800002 -0.038601387 1.0976341e-38 327 272
0.0096503468 0.68800002 -0.038601387 1.0230472e-38 328 272
0.010856641 0.68800002 -0.038601387 7.0961796e-39 329 272
0.012062933 0.68800002 -0.038601387 4.5128985e-39 330 272
0.013269227 0.68800002 -0.038601387 3.037767e-39 331 272
0.014475521 0.68800002 -0.038601387 1.4794489e-39 332 272
0.015681813 0.68800002 -0.038601387 1.3872532e-39 333 272
0.016888106 0.68800002 -0.038601387 1.5705655e-39 334 272
0.0180944 0.68800002 -0.038601387 1.4783699e-39 335 272
0.019300694 0.68800002 -0.038601387 8.3373055e-40 336 272
0.020506985 0.68800002 -0.038601387 3.7239226e-40 337 272
0.021713281 0.68800002 -0.038601387 9.0257634e-42 338 272
0.023186078 0.69599998 -0.039050236 3.1443974e-39 339 272
0.0244064 0.69599998 -0.039050236 4.902594e-39 340 272
0.025626717 0.69599998 -0.039050236 7.4840717e-39 341 272
0.026885614 0.69700003 -0.039106347 1.0423539e-38 342 272
0.028228667 0.69999999 -0.039274666 1.0884158e-38 343 272
0.029582238 0.70300001 -0.039442986 1.0977063e-38 344 272
0.030814834 0.70300001 -0.039442986 1.0977063e-38 345 272
0.032047424 0.70300001 -0.039442986 1.1252921e-38 346 272
0.033280019 0.70300001 -0.039442986 1.1345117e-38 347 272
0.034561705 0.704 -0.039499093 1.1896123e-38 348 272
0.035745207 0.70300001 -0.039442986 1.0144406e-38 349 272
0.036977798 0.70300001 -0.039442986 7.1076955e-39 350 272
0.038101684 0.70099998 -0.039330769 1.1348694e-38 351 272
0.039330769 0.70099998 -0.039330769 1.6223913e-38 352 272
0.040559858 0.70099998 -0.039330769 1.6684532e-38 353 272
-0.042385083 0.71100003 -0.041138459 1.6868573e-38 286 273
-0.041138459 0.71100003 -0.041138459 1.5117216e-38 287 273
-0.039891839 0.71100003 -0.041138459 1.3739317e-38 288 273
-0.038590867 0.70999998 -0.041080594 1.3647121e-38 289 273
-0.037345998 0.70999998 -0.041080594 1.3096114e-38 290 273
-0.03599944 0.708 -0.040964879 1.3096114e-38 291 273
-0.034708988 0.70700002 -0.040907022 1.3095761e-38 292 273
-0.033422034 0.70599997 -0.040849157 1.3095761e-38 293 273
-0.032093015 0.704 -0.040733438 1.2912448e-38 294 273
-0.030814834 0.70300001 -0.040675577 1.2912448e-38 295 273
-0.029582238 0.70300001 -0.040675577 1.3095761e-38 296 273
-0.028268991 0.70099998 -0.040559858 1.3003565e-38 297 273
-0.027001332 0.69999999 -0.040502001 1.2727701e-38 298 273
-0.025700359 0.69800001 -0.040386278 1.2635505e-38 299 273
-0.024441468 0.69700003 -0.040328421 1.2635505e-38 300 273
-0.023186078 0.69599998 -0.040270556 1.2635505e-38 301 273
-0.021965759 0.69599998 -0.040270556 1.2451837e-38 302 273
-0.020745439 0.69599998 -0.040270556 1.2451837e-38 303 273
-0.019525118 0.69599998 -0.040270556 1.2176332e-38 304 273
-0.0182522 0.69400001 -0.040154841 1.2176332e-38 305 273
-0.01701084 0.69300002 -0.04009698 1.2176332e-38 306 273
-0.015795778 0.69300002 -0.04009698 1.2176332e-38 307 273
-0.014580719 0.69300002 -0.04009698 1.2175976e-38 308 273
-0.013327086 0.69099998 -0.039981257 1.2083781e-38 309 273
-0.012115533 0.69099998 -0.039981257 1.2267093e-38 310 273
-0.01090398 0.69099998 -0.039981257 1.2267093e-38 311 273
-0.0096783992 0.69 -0.0399234 1.180827e-38 312 273
-0.0084686 0.69 -0.0399234 1.180827e-38 313 273
-0.0072693196 0.69099998 -0.039981257 1.1716073e-38 314 273
-0.0060577663 0.69099998 -0.039981257 1.180827e-38 315 273
-0.0048391996 0.69 -0.0399234 1.1716076e-38 316 273
-0.0036188802 0.68800002 -0.039807681 1.1716076e-38 317 273
-0.0024125867 0.68800002 -0.039807681 1.1807192e-38 318 273
-0.0012062934 0.68800002 -0.039807681 1.1807192e-38 319 273
0 0.68800002 -0.039807681 1.1622802e-38 320 273
0.0012062934 0.68800002 -0.039807681 1.1622802e-38 321 273
0.0024125867 0.68800002 -0.039807681 1.1531682e-38 322 273
0.0036188802 0.68800002 -0.039807681 1.1531682e-38 323 273
0.0048251734 0.68800002 -0.039807681 1.1439483e-38 324 273
0.0060314666 0.68800002 -0.039807681 1.1531679e-38 325 273
0.0072377604 0.68800002 -0.039807681 1.1991218e-38 326 273
0.0084440531 0.68800002 -0.039807681 1.1991218e-38 327 273
0.0096783992 0.69 -0.0399234 1.2078369e-38 328 273
0.010888199 0.69 -0.0399234 9.2203057e-39 329 273
0.012097999 0.69 -0.0399234 4.0594944e-39 330 273
0.0133078 0.69 -0.0399234 4.6422496e-40 331 273
0.014517599 0.69 -0.0399234 1.753512e-39 332 273
0.015681813 0.68800002 -0.039807681 1.8457077e-39 333 273
0.016888106 0.68800002 -0.039807681 1.6609479e-39 334 273
0.0180944 0.68800002 -0.039807681 1.3843596e-39 335 273
0.019300694 0.68800002 -0.039807681 7.5670117e-42 336 273
0.020656019 0.69300002 -0.04009698 1.0806814e-41 337 273
0.02202888 0.69800001 -0.040386278 1.3041002e-39 338 273
0.023186078 0.69599998 -0.040270556 5.6372948e-39 339 273
0.0244064 0.69599998 -0.040270556 9.2278825e-39 340 273
0.025663542 0.69700003 -0.040328421 1.0703013e-38 341 273
0.026924185 0.69800001 -0.040386278 1.1161101e-38 342 273
0.028349647 0.70300001 -0.040675577 1.0700123e-38 343 273
0.029624319 0.704 -0.040733438 1.0608999e-38 344 273
0.030858666 0.704 -0.040733438 1.0608999e-38 345 273
0.032093015 0.704 -0.040733438 1.1252568e-38 346 273
0.03332736 0.704 -0.040733438 1.1252568e-38 347 273
