# .PCD v.7 - Point Cloud Data file format
FIELDS x y z rgb imX imY
SIZE 4 4 4 4 4 4
TYPE F F F F F F
COUNT 1 1 1 1 1 1
WIDTH 836
HEIGHT 1
VIEWPOINT 0 0 0 1 0 0 0
POINTS 836
DATA ascii
-0.0097625591 0.69599998 0.017084479 1.5837081e-38 312 226
-0.0085422397 0.69599998 0.017084479 1.5744886e-38 313 226
-0.00733244 0.69700003 0.017109027 1.5377178e-38 314 226
-0.0061103669 0.69700003 0.017109027 1.5100591e-38 315 226
-0.0048953067 0.69800001 0.017133573 1.5008729e-38 316 226
-0.0036714801 0.69800001 0.017133573 1.4823979e-38 317 226
-0.0024476533 0.69800001 0.017133573 1.4823969e-38 318 226
-0.0012238267 0.69800001 0.017133573 1.4731415e-38 319 226
0 0.69800001 0.017133573 1.4638869e-38 320 226
0.0012238267 0.69800001 0.017133573 1.4731065e-38 321 226
0.0024476533 0.69800001 0.017133573 1.4730711e-38 322 226
0.0036714801 0.69800001 0.017133573 1.4730711e-38 323 226
0.0048953067 0.69800001 0.017133573 1.4547399e-38 324 226
0.006119133 0.69800001 0.017133573 1.473143e-38 325 226
0.0073429602 0.69800001 0.017133573 1.4455557e-38 326 226
0.0085913334 0.69999999 0.017182667 1.4547752e-38 327 226
0.0098186666 0.69999999 0.017182667 1.4546672e-38 328 226
0.011045999 0.69999999 0.017182667 1.4362641e-38 329 226
0.012273333 0.69999999 0.017182667 1.4086414e-38 330 226
0.013500666 0.69999999 0.017182667 1.3902383e-38 331 226
0.014727999 0.69999999 0.017182667 1.3901653e-38 332 226
0.015955333 0.69999999 0.017182667 1.3625426e-38 333 226
0.017207211 0.70099998 0.017207211 1.3809089e-38 334 226
0.018436298 0.70099998 0.017207211 1.3624697e-38 335 226
0.019665385 0.70099998 0.017207211 1.3622902e-38 336 226
0.020954086 0.70300001 0.017256306 1.3438511e-38 337 226
0.022218239 0.704 0.017280852 1.3436007e-38 338 226
0.023452586 0.704 0.017280852 1.334381e-38 339 226
0.024757065 0.70599997 0.017329946 1.3067599e-38 340 226
0.025994917 0.70599997 0.017329946 1.2975403e-38 341 226
0.027232772 0.70599997 0.017329946 1.1965224e-38 342 226
0.028510952 0.70700002 0.017354494 1.1780474e-38 343 226
-0.030507999 0.69599998 0.015864158 1.2982632e-38 295 227
-0.029287677 0.69599998 0.015864158 1.3716951e-38 296 227
-0.028067358 0.69599998 0.015864158 1.3716951e-38 297 227
-0.026847038 0.69599998 0.015864158 1.4267957e-38 298 227
-0.025626717 0.69599998 0.015864158 1.4360152e-38 299 227
-0.024441468 0.69700003 0.015886955 1.408536e-38 300 227
-0.023219392 0.69700003 0.015886955 1.4269752e-38 301 227
-0.02199732 0.69700003 0.015886955 1.4729648e-38 302 227
-0.020775247 0.69700003 0.015886955 1.5005875e-38 303 227
-0.019637333 0.69999999 0.015955333 1.4824359e-38 304 227
-0.0183574 0.69800001 0.015909746 1.5377531e-38 305 227
-0.017133573 0.69800001 0.015909746 1.6023271e-38 306 227
-0.015886955 0.69700003 0.015886955 1.6207662e-38 307 227
-0.014643839 0.69599998 0.015864158 1.657609e-38 308 227
-0.013423519 0.69599998 0.015864158 1.6944874e-38 309 227
-0.0122032 0.69599998 0.015864158 1.6854476e-38 310 227
-0.01095132 0.69400001 0.015818574 1.7038867e-38 311 227
-0.0097345067 0.69400001 0.015818574 1.6854476e-38 312 227
-0.0085176928 0.69400001 0.015818574 1.6670085e-38 313 227
-0.0073219193 0.69599998 0.015864158 1.6392406e-38 314 227
-0.0061015999 0.69599998 0.015864158 1.6023624e-38 315 227
-0.0048882933 0.69700003 0.015886955 1.5012343e-38 316 227
-0.00366622 0.69700003 0.015886955 1.4459169e-38 317 227
-0.0024441467 0.69700003 0.015886955 1.4549214e-38 318 227
-0.0012220733 0.69700003 0.015886955 1.3996399e-38 319 227
0 0.69700003 0.015886955 1.408716e-38 320 227
0.0012220733 0.69700003 0.015886955 1.3902767e-38 321 227
0.0024441467 0.69700003 0.015886955 1.408536e-38 322 227
0.0036714801 0.69800001 0.015909746 1.408536e-38 323 227
0.0048953067 0.69800001 0.015909746 1.3718736e-38 324 227
0.006119133 0.69800001 0.015909746 1.3718736e-38 325 227
0.0073429602 0.69800001 0.015909746 1.3902414e-38 326 227
0.0085667865 0.69800001 0.015909746 1.3902414e-38 327 227
0.0097906133 0.69800001 0.015909746 1.3626556e-38 328 227
0.01101444 0.69800001 0.015909746 1.334997e-38 329 227
0.012220734 0.69700003 0.015886955 1.3167024e-38 330 227
0.013442807 0.69700003 0.015886955 1.3443609e-38 331 227
0.014727999 0.69999999 0.015955333 1.3628002e-38 332 227
0.015955333 0.69999999 0.015955333 1.3351055e-38 333 227
0.017182667 0.69999999 0.015955333 1.3441793e-38 334 227
0.018409999 0.69999999 0.015955333 1.307301e-38 335 227
0.019665385 0.70099998 0.015978126 1.3621856e-38 336 227
0.020894472 0.70099998 0.015978126 1.3621856e-38 337 227
0.02218668 0.70300001 0.016023712 1.3162315e-38 338 227
0.023419274 0.70300001 0.016023712 1.307012e-38 339 227
0.024686933 0.704 0.016046507 1.2977199e-38 340 227
0.02592128 0.704 0.016046507 1.2885004e-38 341 227
0.027232772 0.70599997 0.016092092 1.2700611e-38 342 227
0.028470624 0.70599997 0.016092092 1.2424026e-38 343 227
0.029750559 0.70700002 0.016114887 1.2422243e-38 344 227
-0.029287677 0.69599998 0.014643839 1.3900601e-38 296 228
-0.028067358 0.69599998 0.014643839 1.3900601e-38 297 228
-0.026847038 0.69599998 0.014643839 1.4175392e-38 298 228
-0.025626717 0.69599998 0.014643839 1.4359784e-38 299 228
-0.024441468 0.69700003 0.01466488 1.4360856e-38 300 228
-0.023219392 0.69700003 0.01466488 1.4637803e-38 301 228
-0.02199732 0.69700003 0.01466488 1.4730714e-38 302 228
-0.020775247 0.69700003 0.01466488 1.500766e-38 303 228
-0.019553173 0.69700003 0.01466488 1.5193134e-38 304 228
-0.018304799 0.69599998 0.014643839 1.5746308e-38 305 228
-0.017084479 0.69599998 0.014643839 1.5931071e-38 306 228
-0.015864158 0.69599998 0.014643839 1.6300213e-38 307 228
-0.014643839 0.69599998 0.014643839 1.6486047e-38 308 228
-0.013384946 0.69400001 0.01460176 1.6670438e-38 309 228
-0.012168133 0.69400001 0.01460176 1.657859e-38 310 228
-0.01095132 0.69400001 0.01460176 1.657859e-38 311 228
-0.0097345067 0.69400001 0.01460176 1.6486391e-38 312 228
-0.0085176928 0.69400001 0.01460176 1.6210163e-38 313 228
-0.0073008798 0.69400001 0.01460176 1.6025416e-38 314 228
-0.0060840664 0.69400001 0.01460176 1.5748828e-38 315 228
-0.00486024 0.69300002 0.014580719 1.5287857e-38 316 228
-0.0036451798 0.69300002 0.014580719 1.4642487e-38 317 228
-0.0024336267 0.69400001 0.01460176 1.3998932e-38 318 228
-0.0012203199 0.69599998 0.014643839 1.3998932e-38 319 228
0 0.69700003 0.01466488 1.3540122e-38 320 228
0.0012220733 0.69700003 0.01466488 1.3632318e-38 321 228
0.0024441467 0.69700003 0.01466488 1.3357176e-38 322 228
0.00366622 0.69700003 0.01466488 1.3357176e-38 323 228
0.0048882933 0.69700003 0.01466488 1.3449374e-38 324 228
0.0061103669 0.69700003 0.01466488 1.3725601e-38 325 228
0.00733244 0.69700003 0.01466488 1.3727047e-38 326 228
0.0085545136 0.69700003 0.01466488 1.4003993e-38 327 228
0.0097765867 0.69700003 0.01466488 1.382105e-38 328 228
0.01099866 0.69700003 0.01466488 1.3913246e-38 329 228
0.012220734 0.69700003 0.01466488 1.3914328e-38 330 228
0.013442807 0.69700003 0.01466488 1.4099078e-38 331 228
0.01468592 0.69800001 0.01468592 1.4283467e-38 332 228
0.015909746 0.69800001 0.01468592 1.4375663e-38 333 228
0.017182667 0.69999999 0.014727999 1.4741908e-38 334 228
0.018409999 0.69999999 0.014727999 1.3819952e-38 335 228
0.019637333 0.69999999 0.014727999 1.3812721e-38 336 228
0.020864666 0.69999999 0.014727999 1.2153558e-38 337 228
0.022123558 0.70099998 0.014749039 1.3161218e-38 338 228
0.023419274 0.70300001 0.014791119 1.3253414e-38 339 228
0.024651866 0.70300001 0.014791119 1.3161221e-38 340 228
0.02592128 0.704 0.014812159 1.297683e-38 341 228
0.027155625 0.704 0.014812159 1.2792438e-38 342 228
0.028470624 0.70599997 0.014854239 1.2700243e-38 343 228
0.029708479 0.70599997 0.014854239 1.2606975e-38 344 228
0.030946331 0.70599997 0.014854239 1.2606975e-38 345 228
0.032184184 0.70599997 0.014854239 1.1963775e-38 346 228
0.033422034 0.70599997 0.014854239 1.2055972e-38 347 228
0.034659892 0.70599997 0.014854239 1.0864281e-38 348 228
0.035897743 0.70599997 0.014854239 1.0864281e-38 349 228
0.037135597 0.70599997 0.014854239 9.7644229e-39 350 228
-0.039162453 0.69800001 0.013462093 1.0686022e-38 288 229
-0.037938625 0.69800001 0.013462093 1.096261e-38 289 229
-0.0367148 0.69800001 0.013462093 1.2890434e-38 290 229
-0.035490975 0.69800001 0.013462093 1.3074825e-38 291 229
-0.031500384 0.69099998 0.013327086 1.353362e-38 294 229
-0.030288832 0.69099998 0.013327086 1.353362e-38 295 229
-0.029161438 0.69300002 0.01336566 1.3992077e-38 296 229
-0.027946379 0.69300002 0.01336566 1.3992077e-38 297 229
-0.026769891 0.69400001 0.013384946 1.4267941e-38 298 229
-0.025553079 0.69400001 0.013384946 1.4360137e-38 299 229
-0.0244064 0.69599998 0.013423519 1.4545247e-38 300 229
-0.023186078 0.69599998 0.013423519 1.4637803e-38 301 229
-0.021965759 0.69599998 0.013423519 1.4823276e-38 302 229
-0.020745439 0.69599998 0.013423519 1.5100223e-38 303 229
-0.019525118 0.69599998 0.013423519 1.5010191e-38 304 229
-0.0182522 0.69400001 0.013384946 1.5563364e-38 305 229
-0.017035386 0.69400001 0.013384946 1.5839956e-38 306 229
-0.015818574 0.69400001 0.013384946 1.6300932e-38 307 229
-0.01460176 0.69400001 0.013384946 1.621018e-38 308 229
-0.013384946 0.69400001 0.013384946 1.621018e-38 309 229
-0.012168133 0.69400001 0.013384946 1.5935035e-38 310 229
-0.01095132 0.69400001 0.013384946 1.5658807e-38 311 229
-0.0097345067 0.69400001 0.013384946 1.538223e-38 312 229
-0.0085176928 0.69400001 0.013384946 1.538223e-38 313 229
-0.0073008798 0.69400001 0.013384946 1.5014899e-38 314 229
-0.0060753003 0.69300002 0.01336566 1.5199289e-38 315 229
-0.00486024 0.69300002 0.01336566 1.5108189e-38 316 229
-0.0036451798 0.69300002 0.01336566 1.5476972e-38 317 229
-0.00243012 0.69300002 0.01336566 1.5296549e-38 318 229
-0.0012168133 0.69400001 0.013384946 1.5757168e-38 319 229
0 0.69599998 0.013423519 1.5483827e-38 320 229
0.0012168133 0.69400001 0.013384946 1.5760415e-38 321 229
0.0024336267 0.69400001 0.013384946 1.6037726e-38 322 229
0.0036504399 0.69400001 0.013384946 1.6406509e-38 323 229
0.0048672534 0.69400001 0.013384946 1.6499421e-38 324 229
0.0061015999 0.69599998 0.013423519 1.6683813e-38 325 229
0.0073219193 0.69599998 0.013423519 1.6869282e-38 326 229
0.0085422397 0.69599998 0.013423519 1.6869282e-38 327 229
0.0097625591 0.69599998 0.013423519 1.6961478e-38 328 229
0.010982879 0.69599998 0.013423519 1.6961478e-38 329 229
0.0122032 0.69599998 0.013423519 1.6961831e-38 330 229
0.013423519 0.69599998 0.013423519 1.6777081e-38 331 229
0.014643839 0.69599998 0.013423519 1.6867835e-38 332 229
0.015886955 0.69700003 0.013442807 1.6683802e-38 333 229
0.017133573 0.69800001 0.013462093 1.6683449e-38 334 229
0.0183574 0.69800001 0.013462093 1.5945884e-38 335 229
0.019581227 0.69800001 0.013462093 1.5388348e-38 336 229
0.020864666 0.69999999 0.013500666 1.2161501e-38 337 229
0.022091998 0.69999999 0.013500666 1.2516928e-38 338 229
0.023352645 0.70099998 0.013519952 1.2700959e-38 339 229
0.024581732 0.70099998 0.013519952 1.2976837e-38 340 229
0.025884461 0.70300001 0.013558527 1.2976837e-38 341 229
0.027155625 0.704 0.013577812 1.2884284e-38 342 229
0.028389972 0.704 0.013577812 1.2792088e-38 343 229
0.029624319 0.704 0.013577812 1.2699527e-38 344 229
0.030858666 0.704 0.013577812 1.2606972e-38 345 229
0.032093015 0.704 0.013577812 1.2698092e-38 346 229
0.03332736 0.704 0.013577812 1.2698092e-38 347 229
0.034561705 0.704 0.013577812 1.1414921e-38 348 229
0.035897743 0.70599997 0.013616386 1.1322367e-38 349 229
0.037135597 0.70599997 0.013616386 1.0498022e-38 350 229
0.038373452 0.70599997 0.013616386 1.0498022e-38 351 229
0.039611302 0.70599997 0.013616386 9.7647886e-39 352 229
-0.040502001 0.69999999 0.012273333 1.1239193e-38 287 230
-0.039162453 0.69800001 0.012238266 1.2889716e-38 288 230
-0.037938625 0.69800001 0.012238266 1.3073749e-38 289 230
-0.036662199 0.69700003 0.012220734 1.3807697e-38 290 230
-0.035440128 0.69700003 0.012220734 1.3899894e-38 291 230
-0.034070771 0.69400001 0.012168133 1.3900603e-38 292 230
-0.03280662 0.69300002 0.012150601 1.3808048e-38 293 230
-0.031500384 0.69099998 0.012115533 1.3899877e-38 294 230
-0.030288832 0.69099998 0.012115533 1.3992433e-38 295 230
-0.029161438 0.69300002 0.012150601 1.4175743e-38 296 230
-0.027946379 0.69300002 0.012150601 1.4175743e-38 297 230
-0.02673132 0.69300002 0.012150601 1.4084629e-38 298 230
-0.02551626 0.69300002 0.012150601 1.4084629e-38 299 230
-0.024336265 0.69400001 0.012168133 1.4453051e-38 300 230
-0.02308614 0.69300002 0.012150601 1.4637803e-38 301 230
-0.021871079 0.69300002 0.012150601 1.4731083e-38 302 230
-0.020656019 0.69300002 0.012150601 1.5007671e-38 303 230
-0.01944096 0.69300002 0.012150601 1.500804e-38 304 230
-0.018225901 0.69300002 0.012150601 1.5284985e-38 305 230
-0.01701084 0.69300002 0.012150601 1.5561945e-38 306 230
-0.015795778 0.69300002 0.012150601 1.611476e-38 307 230
-0.014580719 0.69300002 0.012150601 1.5383677e-38 308 230
-0.01336566 0.69300002 0.012150601 1.6029047e-38 309 230
-0.012150601 0.69300002 0.012150601 1.5756426e-38 310 230
-0.010935539 0.69300002 0.012150601 1.5940817e-38 311 230
-0.0097204801 0.69300002 0.012150601 1.5667121e-38 312 230
-0.0085054198 0.69300002 0.012150601 1.5944068e-38 313 230
-0.0072903596 0.69300002 0.012150601 1.5854402e-38 314 230
-0.0060753003 0.69300002 0.012150601 1.6407575e-38 315 230
-0.00486024 0.69300002 0.012150601 1.6409021e-38 316 230
-0.0036451798 0.69300002 0.012150601 1.6685967e-38 317 230
-0.00243012 0.69300002 0.012150601 1.7236267e-38 318 230
-0.00121506 0.69300002 0.012150601 1.6867484e-38 319 230
0 0.69400001 0.012168133 1.7141553e-38 320 230
0.0012168133 0.69400001 0.012168133 1.6864607e-38 321 230
0.0024336267 0.69400001 0.012168133 1.6681298e-38 322 230
0.0036504399 0.69400001 0.012168133 1.6496907e-38 323 230
0.0048672534 0.69400001 0.012168133 1.6036282e-38 324 230
0.0060840664 0.69400001 0.012168133 1.5944086e-38 325 230
0.0073008798 0.69400001 0.012168133 1.5851167e-38 326 230
0.0085422397 0.69599998 0.0122032 1.5666417e-38 327 230
0.0097625591 0.69599998 0.0122032 1.5480943e-38 328 230
0.010982879 0.69599998 0.0122032 1.5019606e-38 329 230
0.0122032 0.69599998 0.0122032 1.5291859e-38 330 230
0.013423519 0.69599998 0.0122032 1.4646489e-38 331 230
0.014643839 0.69599998 0.0122032 1.4733995e-38 332 230
0.015886955 0.69700003 0.012220734 1.4457409e-38 333 230
0.017109027 0.69700003 0.012220734 1.4274481e-38 334 230
0.018331099 0.69700003 0.012220734 1.6671567e-38 335 230
0.019581227 0.69800001 0.012238266 1.557601e-38 336 230
0.020805053 0.69800001 0.012238266 1.4469302e-38 337 230
0.02202888 0.69800001 0.012238266 1.344681e-38 338 230
0.023319334 0.69999999 0.012273333 1.1050082e-38 339 230
0.024546666 0.69999999 0.012273333 1.2698794e-38 340 230
0.025810819 0.70099998 0.012290866 1.3344163e-38 341 230
0.027117053 0.70300001 0.012325933 1.3067596e-38 342 230
0.028349647 0.70300001 0.012325933 1.29754e-38 343 230
0.029582238 0.70300001 0.012325933 1.2975037e-38 344 230
0.030814834 0.70300001 0.012325933 1.2882483e-38 345 230
0.032093015 0.704 0.012343466 1.2606972e-38 346 230
0.03332736 0.704 0.012343466 1.2514777e-38 347 230
0.034561705 0.704 0.012343466 1.2331836e-38 348 230
0.035796054 0.704 0.012343466 1.2331836e-38 349 230
0.037030395 0.704 0.012343466 1.1690079e-38 350 230
0.038373452 0.70599997 0.012378532 1.1782274e-38 351 230
0.039499093 0.704 0.012343466 1.0775701e-38 352 230
0.040733438 0.704 0.012343466 1.1513266e-38 353 230
-0.041788943 0.70099998 0.011061779 1.2247218e-38 286 231
-0.040502001 0.69999999 0.011045999 1.2615642e-38 287 231
-0.039162453 0.69800001 0.01101444 1.3624388e-38 288 231
-0.037884273 0.69700003 0.01099866 1.3624388e-38 289 231
-0.036662199 0.69700003 0.01099866 1.4082839e-38 290 231
-0.035389278 0.69599998 0.010982879 1.4082839e-38 291 231
-0.034021679 0.69300002 0.010935539 1.4083192e-38 292 231
-0.03280662 0.69300002 0.010935539 1.4083192e-38 293 231
-0.031500384 0.69099998 0.01090398 1.4175745e-38 294 231
-0.030288832 0.69099998 0.01090398 1.4175745e-38 295 231
-0.029077278 0.69099998 0.01090398 1.399243e-38 296 231
-0.027865725 0.69099998 0.01090398 1.399243e-38 297 231
-0.026654173 0.69099998 0.01090398 1.4084629e-38 298 231
-0.025442619 0.69099998 0.01090398 1.426866e-38 299 231
-0.024231065 0.69099998 0.01090398 1.4177187e-38 300 231
-0.023019511 0.69099998 0.01090398 1.4361937e-38 301 231
-0.021807959 0.69099998 0.01090398 1.4454503e-38 302 231
-0.020656019 0.69300002 0.010935539 1.473073e-38 303 231
-0.01944096 0.69300002 0.010935539 1.4363051e-38 304 231
-0.018225901 0.69300002 0.010935539 1.463928e-38 305 231
-0.016961746 0.69099998 0.01090398 1.4000772e-38 306 231
-0.015750192 0.69099998 0.01090398 1.510676e-38 307 231
-0.014538639 0.69099998 0.01090398 1.5204363e-38 308 231
-0.013327086 0.69099998 0.01090398 1.6218875e-38 309 231
-0.012115533 0.69099998 0.01090398 1.6865689e-38 310 231
-0.01090398 0.69099998 0.01090398 1.7511059e-38 311 231
-0.0096783992 0.69 0.010888199 1.7882005e-38 312 231
-0.0084686 0.69 0.010888199 1.8435179e-38 313 231
-0.0072587994 0.69 0.010888199 1.8436975e-38 314 231
-0.0060489997 0.69 0.010888199 1.8621725e-38 315 231
-0.0048462129 0.69099998 0.01090398 1.8529524e-38 316 231
-0.0036346598 0.69099998 0.01090398 1.8068904e-38 317 231
-0.0024195998 0.69 0.010888199 1.8341165e-38 318 231
-0.0012097999 0.69 0.010888199 1.7419569e-38 319 231
0 0.69099998 0.01090398 1.7139384e-38 320 231
0.0012115532 0.69099998 0.01090398 1.6217426e-38 321 231
0.00243012 0.69300002 0.010935539 1.5664608e-38 322 231
0.0036451798 0.69300002 0.010935539 1.4926684e-38 323 231
0.00486024 0.69300002 0.010935539 1.418946e-38 324 231
0.0060753003 0.69300002 0.010935539 1.3359341e-38 325 231
0.0072903596 0.69300002 0.010935539 1.2985869e-38 326 231
0.0085176928 0.69400001 0.01095132 1.2617087e-38 327 231
0.0097345067 0.69400001 0.01095132 1.2705685e-38 328 231
0.01095132 0.69400001 0.01095132 1.2060316e-38 329 231
0.012168133 0.69400001 0.01095132 1.2332201e-38 330 231
0.013423519 0.69599998 0.010982879 1.1779028e-38 331 231
0.014643839 0.69599998 0.010982879 1.1867958e-38 332 231
0.015864158 0.69599998 0.010982879 1.1315143e-38 333 231
0.017084479 0.69599998 0.010982879 1.0396836e-38 334 231
0.018304799 0.69599998 0.010982879 1.3808074e-38 335 231
0.019553173 0.69700003 0.01099866 1.4377133e-38 336 231
0.020775247 0.69700003 0.01099866 1.5760068e-38 337 231
0.02202888 0.69800001 0.01101444 1.5299019e-38 338 231
0.023252707 0.69800001 0.01101444 1.170375e-38 339 231
0.024546666 0.69999999 0.011045999 1.2330719e-38 340 231
0.025773998 0.69999999 0.011045999 1.2883893e-38 341 231
0.027039904 0.70099998 0.011061779 1.2792441e-38 342 231
0.028268991 0.70099998 0.011061779 1.2884637e-38 343 231
0.029498078 0.70099998 0.011061779 1.269989e-38 344 231
0.030727165 0.70099998 0.011061779 1.2607694e-38 345 231
0.032047424 0.70300001 0.01109334 1.2606972e-38 346 231
0.033280019 0.70300001 0.01109334 1.2699527e-38 347 231
0.034512613 0.70300001 0.01109334 1.2515501e-38 348 231
0.035796054 0.704 0.011109119 1.2422947e-38 349 231
0.037030395 0.704 0.011109119 1.2055984e-38 350 231
0.038373452 0.70599997 0.011140679 1.2240734e-38 351 231
0.039499093 0.704 0.011109119 1.1601499e-38 352 231
0.040733438 0.704 0.011109119 1.2799683e-38 353 231
0.042087011 0.70599997 0.011140679 1.0963329e-38 354 231
-0.044247117 0.70099998 0.0098326923 1.2615645e-38 284 232
-0.043018032 0.70099998 0.0098326923 1.270784e-38 285 232
-0.041729331 0.69999999 0.0098186666 1.3441073e-38 286 232
-0.040386278 0.69800001 0.0097906133 1.3441073e-38 287 232
-0.039106347 0.69700003 0.0097765867 1.3900247e-38 288 232
-0.037829921 0.69599998 0.0097625591 1.380805e-38 289 232
-0.036609598 0.69599998 0.0097625591 1.4083192e-38 290 232
-0.035236739 0.69300002 0.0097204801 1.4083192e-38 291 232
-0.034021679 0.69300002 0.0097204801 1.4175025e-38 292 232
-0.03280662 0.69300002 0.0097204801 1.4175025e-38 293 232
-0.031500384 0.69099998 0.0096924258 1.4175022e-38 294 232
-0.030288832 0.69099998 0.0096924258 1.4175022e-38 295 232
-0.029077278 0.69099998 0.0096924258 1.4083546e-38 296 232
-0.027865725 0.69099998 0.0096924258 1.4175743e-38 297 232
-0.026654173 0.69099998 0.0096924258 1.4175743e-38 298 232
-0.025405798 0.69 0.0096783992 1.4267938e-38 299 232
-0.024195999 0.69 0.0096783992 1.426866e-38 300 232
-0.022986198 0.69 0.0096783992 1.4453051e-38 301 232
-0.021776399 0.69 0.0096783992 1.4636016e-38 302 232
-0.020566599 0.69 0.0096783992 1.4820409e-38 303 232
-0.019384852 0.69099998 0.0096924258 1.5198583e-38 304 232
-0.0181733 0.69099998 0.0096924258 1.695066e-38 305 232
-0.016961746 0.69099998 0.0096924258 1.5765818e-38 306 232
-0.015750192 0.69099998 0.0096924258 1.6503383e-38 307 232
-0.014538639 0.69099998 0.0096924258 1.6965088e-38 308 232
-0.013327086 0.69099998 0.0096924258 1.7057643e-38 309 232
-0.012115533 0.69099998 0.0096924258 1.7240588e-38 310 232
-0.01090398 0.69099998 0.0096924258 1.7055838e-38 311 232
-0.0096783992 0.69 0.0096783992 1.7511777e-38 312 232
-0.0084440531 0.68800002 0.0096503468 1.6682017e-38 313 232
-0.0072377604 0.68800002 0.0096503468 1.6497257e-38 314 232
-0.0060314666 0.68800002 0.0096503468 1.6128474e-38 315 232
-0.0048251734 0.68800002 0.0096503468 1.6217776e-38 316 232
-0.0036188802 0.68800002 0.0096503468 1.511143e-38 317 232
-0.0024125867 0.68800002 0.0096503468 1.5012381e-38 318 232
-0.0012062934 0.68800002 0.0096503468 1.4458847e-38 319 232
0 0.69 0.0096783992 1.4457762e-38 320 232
0.0012097999 0.69 0.0096783992 1.4365567e-38 321 232
0.0024231065 0.69099998 0.0096924258 1.4271219e-38 322 232
0.0036346598 0.69099998 0.0096924258 1.3994992e-38 323 232
0.0048462129 0.69099998 0.0096924258 1.3171361e-38 324 232
0.0060577663 0.69099998 0.0096924258 1.3355753e-38 325 232
0.0072903596 0.69300002 0.0097204801 1.3450087e-38 326 232
0.0085176928 0.69400001 0.0097345067 1.1145557e-38 327 232
0.0097345067 0.69400001 0.0097345067 1.3346355e-38 328 232
0.01095132 0.69400001 0.0097345067 1.3254158e-38 329 232
0.012168133 0.69400001 0.0097345067 1.3252012e-38 330 232
0.013384946 0.69400001 0.0097345067 1.3897382e-38 331 232
0.014643839 0.69599998 0.0097625591 1.427444e-38 332 232
0.015864158 0.69599998 0.0097625591 1.2983701e-38 333 232
0.017084479 0.69599998 0.0097625591 1.1318442e-38 334 232
0.018304799 0.69599998 0.0097625591 1.1687224e-38 335 232
0.019553173 0.69700003 0.0097765867 1.087297e-38 336 232
0.020775247 0.69700003 0.0097765867 1.44686e-38 337 232
0.02199732 0.69700003 0.0097765867 1.5209032e-38 338 232
0.023252707 0.69800001 0.0097906133 1.4471467e-38 339 232
0.024476532 0.69800001 0.0097906133 1.3721957e-38 340 232
0.025773998 0.69999999 0.0098186666 1.0587306e-38 341 232
0.027001332 0.69999999 0.0098186666 1.2699874e-38 342 232
0.028228667 0.69999999 0.0098186666 1.3068655e-38 343 232
0.029455997 0.69999999 0.0098186666 1.2700258e-38 344 232
0.030727165 0.70099998 0.0098326923 1.2516227e-38 345 232
0.031956252 0.70099998 0.0098326923 1.2607697e-38 346 232
0.03318534 0.70099998 0.0098326923 1.2607697e-38 347 232
0.034414422 0.70099998 0.0098326923 1.2607344e-38 348 232
0.035745207 0.70300001 0.0098607466 1.2515148e-38 349 232
0.036977798 0.70300001 0.0098607466 1.214817e-38 350 232
0.038264744 0.704 0.0098747732 1.2332201e-38 351 232
0.039499093 0.704 0.0098747732 1.2149632e-38 352 232
0.040733438 0.704 0.0098747732 1.3163424e-38 353 232
0.041967787 0.704 0.0098747732 1.2986613e-38 354 232
-0.046638668 0.69999999 0.0085913334 1.1511818e-38 282 233
-0.04541133 0.69999999 0.0085913334 1.1972436e-38 283 233
-0.044183996 0.69999999 0.0085913334 1.3533991e-38 284 233
-0.042956665 0.69999999 0.0085913334 1.3441437e-38 285 233
-0.041610107 0.69800001 0.0085667865 1.3900601e-38 286 233
-0.040328421 0.69700003 0.0085545136 1.3900601e-38 287 233
-0.039050236 0.69599998 0.0085422397 1.3992077e-38 288 233
-0.037721213 0.69400001 0.0085176928 1.389988e-38 289 233
-0.036504399 0.69400001 0.0085176928 1.4082474e-38 290 233
-0.035236739 0.69300002 0.0085054198 1.4082474e-38 291 233
-0.033923492 0.69099998 0.008480873 1.4083548e-38 292 233
-0.032711938 0.69099998 0.008480873 1.4083548e-38 293 233
-0.031500384 0.69099998 0.008480873 1.4083546e-38 294 233
-0.030288832 0.69099998 0.008480873 1.4083546e-38 295 233
-0.029035198 0.69 0.0084686 1.4083546e-38 296 233
-0.027825398 0.69 0.0084686 1.4175743e-38 297 233
-0.026615599 0.69 0.0084686 1.3992077e-38 298 233
-0.02533216 0.68800002 0.0084440531 1.4084273e-38 299 233
-0.024125867 0.68800002 0.0084440531 1.4084644e-38 300 233
-0.022919573 0.68800002 0.0084440531 1.417684e-38 301 233
-0.021713281 0.68800002 0.0084440531 1.4083938e-38 302 233
-0.020506985 0.68800002 0.0084440531 1.4544916e-38 303 233
-0.019356798 0.69 0.0084686 1.6583688e-38 304 233
-0.018146999 0.69 0.0084686 1.8796384e-38 305 233
-0.0169372 0.69 0.0084686 1.7606141e-38 306 233
-0.015681813 0.68800002 0.0084440531 1.7698337e-38 307 233
-0.014475521 0.68800002 0.0084440531 1.7879838e-38 308 233
-0.0133078 0.69 0.0084686 1.741886e-38 309 233
-0.012097999 0.69 0.0084686 1.7232657e-38 310 233
-0.010856641 0.68800002 0.0084440531 1.6494733e-38 311 233
-0.0096503468 0.68800002 0.0084440531 1.6309253e-38 312 233
-0.0084440531 0.68800002 0.0084440531 1.5847915e-38 313 233
-0.0072272392 0.68699998 0.0084317802 1.5570227e-38 314 233
-0.0060226996 0.68699998 0.0084317802 1.4187292e-38 315 233
-0.0048181596 0.68699998 0.0084317802 1.4091832e-38 316 233
-0.0036136196 0.68699998 0.0084317802 1.3538658e-38 317 233
-0.0024090798 0.68699998 0.0084317802 1.408751e-38 318 233
-0.0012045399 0.68699998 0.0084317802 1.408751e-38 319 233
0 0.68800002 0.0084440531 1.4362307e-38 320 233
0.0012062934 0.68800002 0.0084440531 1.4546699e-38 321 233
0.0024125867 0.68800002 0.0084440531 1.3902066e-38 322 233
0.0036188802 0.68800002 0.0084440531 1.3717676e-38 323 233
0.0048251734 0.68800002 0.0084440531 1.362804e-38 324 233
0.0060489997 0.69 0.0084686 1.5564148e-38 325 233
0.0072587994 0.69 0.0084686 1.4562554e-38 326 233
0.008480873 0.69099998 0.008480873 1.1796327e-38 327 233
0.0096924258 0.69099998 0.008480873 1.3071569e-38 328 233
0.010935539 0.69300002 0.0085054198 1.3163764e-38 329 233
0.012150601 0.69300002 0.0085054198 1.3069806e-38 330 233
0.01336566 0.69300002 0.0085054198 1.4268349e-38 331 233
0.01460176 0.69400001 0.0085176928 1.4835568e-38 332 233
0.015818574 0.69400001 0.0085176928 1.4835568e-38 333 233
0.017035386 0.69400001 0.0085176928 1.2615275e-38 334 233
0.0182522 0.69400001 0.0085176928 9.7572104e-39 335 233
0.019525118 0.69599998 0.0085422397 9.1122137e-39 336 233
0.020745439 0.69599998 0.0085422397 1.2892235e-38 337 233
0.02199732 0.69700003 0.0085545136 1.3920114e-38 338 233
0.023219392 0.69700003 0.0085545136 1.5303048e-38 339 233
0.024441468 0.69700003 0.0085545136 1.5206108e-38 340 233
0.025700359 0.69800001 0.0085667865 1.1333891e-38 341 233
0.026924185 0.69800001 0.0085667865 1.2698794e-38 342 233
0.028148014 0.69800001 0.0085667865 1.2790991e-38 343 233
0.029371841 0.69800001 0.0085667865 1.2699539e-38 344 233
0.030683333 0.69999999 0.0085913334 1.2699539e-38 345 233
0.031910665 0.69999999 0.0085913334 1.2424747e-38 346 233
0.033137999 0.69999999 0.0085913334 1.2332552e-38 347 233
0.034365334 0.69999999 0.0085913334 1.2424028e-38 348 233
0.035592664 0.69999999 0.0085913334 1.2331833e-38 349 233
0.036872596 0.70099998 0.0086036054 1.2606272e-38 350 233
0.038101684 0.70099998 0.0086036054 1.2606272e-38 351 233
0.039499093 0.704 0.0086404262 1.2240381e-38 352 233
0.040733438 0.704 0.0086404262 1.2240381e-38 353 233
0.041967787 0.704 0.0086404262 1.2616755e-38 354 233
-0.050320663 0.69999999 0.0073639993 9.2170196e-39 279 234
-0.048953064 0.69800001 0.0073429602 1.004425e-38 280 234
-0.047729239 0.69800001 0.0073429602 1.0597423e-38 281 234
-0.046505414 0.69800001 0.0073429602 1.3165575e-38 282 234
-0.045281585 0.69800001 0.0073429602 1.3257772e-38 283 234
-0.04405776 0.69800001 0.0073429602 1.3716938e-38 284 234
-0.042833932 0.69800001 0.0073429602 1.3716938e-38 285 234
-0.041550495 0.69700003 0.00733244 1.380805e-38 286 234
-0.040270556 0.69599998 0.0073219193 1.3900247e-38 287 234
-0.038938027 0.69400001 0.0073008798 1.389988e-38 288 234
-0.037721213 0.69400001 0.0073008798 1.3807685e-38 289 234
-0.036451802 0.69300002 0.0072903596 1.408283e-38 290 234
-0.035236739 0.69300002 0.0072903596 1.408283e-38 291 234
-0.033923492 0.69099998 0.0072693196 1.4266139e-38 292 234
-0.032711938 0.69099998 0.0072693196 1.4266139e-38 293 234
-0.031500384 0.69099998 0.0072693196 1.4083899e-38 294 234
-0.030244999 0.69 0.0072587994 1.4083899e-38 295 234
-0.029035198 0.69 0.0072587994 1.4083899e-38 296 234
-0.027744746 0.68800002 0.0072377604 1.4176094e-38 297 234
-0.026538454 0.68800002 0.0072377604 1.4175745e-38 298 234
-0.02533216 0.68800002 0.0072377604 1.4175745e-38 299 234
-0.024090799 0.68699998 0.0072272392 1.4266869e-38 300 234
-0.022886258 0.68699998 0.0072272392 1.44509e-38 301 234
-0.021681719 0.68699998 0.0072272392 1.4082489e-38 302 234
-0.020477179 0.68699998 0.0072272392 1.5281032e-38 303 234
-0.019300694 0.68800002 0.0072377604 1.6957144e-38 304 234
-0.0180944 0.68800002 0.0072377604 1.8340078e-38 305 234
-0.016888106 0.68800002 0.0072377604 1.5853332e-38 306 234
-0.015681813 0.68800002 0.0072377604 1.3732833e-38 307 234
-0.014475521 0.68800002 0.0072377604 1.3994283e-38 308 234
-0.013269227 0.68800002 0.0072377604 1.3625499e-38 309 234
-0.012062933 0.68800002 0.0072377604 1.3718398e-38 310 234
-0.010840859 0.68699998 0.0072272392 1.3994986e-38 311 234
-0.0096363192 0.68699998 0.0072272392 1.4181171e-38 312 234
-0.0084317802 0.68699998 0.0072272392 1.4918738e-38 313 234
-0.0072167199 0.68599999 0.0072167199 1.4919813e-38 314 234
-0.0060139326 0.68599999 0.0072167199 1.5012008e-38 315 234
-0.0048181596 0.68699998 0.0072272392 1.5196772e-38 316 234
-0.0036136196 0.68699998 0.0072272392 1.630312e-38 317 234
-0.0024090798 0.68699998 0.0072272392 1.8151368e-38 318 234
-0.0012045399 0.68699998 0.0072272392 1.8059171e-38 319 234
0 0.68699998 0.0072272392 1.6116577e-38 320 234
0.0012045399 0.68699998 0.0072272392 1.4641446e-38 321 234
0.0024090798 0.68699998 0.0072272392 1.4271922e-38 322 234
0.0036136196 0.68699998 0.0072272392 1.3995695e-38 323 234
0.0048181596 0.68699998 0.0072272392 1.4089005e-38 324 234
0.0060226996 0.68699998 0.0072272392 1.7499883e-38 325 234
0.0072377604 0.68800002 0.0072377604 1.5943717e-38 326 234
0.0084440531 0.68800002 0.0072377604 1.3638467e-38 327 234
0.0096503468 0.68800002 0.0072377604 1.3258493e-38 328 234
0.010888199 0.69 0.0072587994 1.1967755e-38 329 234
0.012097999 0.69 0.0072587994 1.2700287e-38 330 234
0.013327086 0.69099998 0.0072693196 1.3437853e-38 331 234
0.014580719 0.69300002 0.0072903596 1.4836291e-38 332 234
0.015818574 0.69400001 0.0073008798 1.5204713e-38 333 234
0.01701084 0.69300002 0.0072903596 1.345047e-38 334 234
0.018225901 0.69300002 0.0072903596 1.0592045e-38 335 234
0.019469013 0.69400001 0.0073008798 1.021282e-38 336 234
0.020685827 0.69400001 0.0073008798 1.1871981e-38 337 234
0.021965759 0.69599998 0.0073219193 1.1708126e-38 338 234
0.023186078 0.69599998 0.0073219193 1.5027169e-38 339 234
0.0244064 0.69599998 0.0073219193 1.5393077e-38 340 234
0.025663542 0.69700003 0.00733244 1.4102338e-38 341 234
0.026924185 0.69800001 0.0073429602 1.3901713e-38 342 234
0.028148014 0.69800001 0.0073429602 1.1412433e-38 343 234
0.029371841 0.69800001 0.0073429602 1.2698823e-38 344 234
0.030595668 0.69800001 0.0073429602 1.2882854e-38 345 234
0.031819493 0.69800001 0.0073429602 1.2424031e-38 346 234
0.033043321 0.69800001 0.0073429602 1.2424031e-38 347 234
0.034365334 0.69999999 0.0073639993 1.2424031e-38 348 234
0.035592664 0.69999999 0.0073639993 1.2331836e-38 349 234
0.036819998 0.69999999 0.0073639993 1.2515148e-38 350 234
0.038047329 0.69999999 0.0073639993 1.2515148e-38 351 234
0.039330769 0.70099998 0.0073745195 1.2422596e-38 352 234
0.040559858 0.70099998 0.0073745195 1.2238564e-38 353 234
0.041967787 0.704 0.0074060797 1.1693341e-38 354 234
0.043202132 0.704 0.0074060797 1.4090427e-38 355 234
-0.051400717 0.69800001 0.006119133 1.0506318e-38 278 235
-0.050176892 0.69800001 0.006119133 1.0875099e-38 279 235
-0.048882935 0.69700003 0.0061103669 1.2249386e-38 280 235
-0.047660861 0.69700003 0.0061103669 1.2156832e-38 281 235
-0.046505414 0.69800001 0.006119133 1.3349593e-38 282 235
-0.045281585 0.69800001 0.006119133 1.3533986e-38 283 235
-0.043994639 0.69700003 0.0061103669 1.3992799e-38 284 235
-0.042772565 0.69700003 0.0061103669 1.3900603e-38 285 235
-0.041371655 0.69400001 0.0060840664 1.399208e-38 286 235
-0.040154841 0.69400001 0.0060840664 1.3899883e-38 287 235
-0.03888192 0.69300002 0.0060753003 1.389988e-38 288 235
-0.037666857 0.69300002 0.0060753003 1.389988e-38 289 235
-0.036451802 0.69300002 0.0060753003 1.4082474e-38 290 235
-0.035135046 0.69099998 0.0060577663 1.4174669e-38 291 235
-0.033923492 0.69099998 0.0060577663 1.4082474e-38 292 235
-0.032711938 0.69099998 0.0060577663 1.4082474e-38 293 235
-0.031454802 0.69 0.0060489997 1.4083546e-38 294 235
-0.030244999 0.69 0.0060489997 1.4083546e-38 295 235
-0.028951041 0.68800002 0.0060314666 1.3900231e-38 296 235
-0.027744746 0.68800002 0.0060314666 1.3992426e-38 297 235
-0.026538454 0.68800002 0.0060314666 1.3992077e-38 298 235
-0.025295338 0.68699998 0.0060226996 1.389988e-38 299 235
-0.024090799 0.68699998 0.0060226996 1.399173e-38 300 235
-0.022886258 0.68699998 0.0060226996 1.3899174e-38 301 235
-0.021681719 0.68699998 0.0060226996 1.3716597e-38 302 235
-0.020477179 0.68699998 0.0060226996 1.5468675e-38 303 235
-0.019300694 0.68800002 0.0060314666 1.6774916e-38 304 235
-0.0180944 0.68800002 0.0060314666 1.8065655e-38 305 235
-0.016888106 0.68800002 0.0060314666 1.4655858e-38 306 235
-0.015659019 0.68699998 0.0060226996 1.1982185e-38 307 235
-0.014454478 0.68699998 0.0060226996 1.3256694e-38 308 235
-0.013230653 0.68599999 0.0060139326 1.3718032e-38 309 235
-0.012027865 0.68599999 0.0060139326 1.3905663e-38 310 235
-0.010825079 0.68599999 0.0060139326 1.5011652e-38 311 235
-0.0096222926 0.68599999 0.0060139326 1.5564107e-38 312 235
-0.0083949603 0.68400002 0.0059964 1.4826541e-38 313 235
-0.0071956799 0.68400002 0.0059964 1.4735425e-38 314 235
-0.0060139326 0.68599999 0.0060139326 1.5196402e-38 315 235
-0.0048111463 0.68599999 0.0060139326 1.5104962e-38 316 235
-0.00360836 0.68599999 0.0060139326 1.6395701e-38 317 235
-0.0024055731 0.68599999 0.0060139326 1.7510705e-38 318 235
-0.00119928 0.68400002 0.0059964 1.9078031e-38 319 235
0 0.68400002 0.0059964 1.5939041e-38 320 235
0.0012027866 0.68599999 0.0060139326 1.3357922e-38 321 235
0.0024090798 0.68699998 0.0060226996 1.3626556e-38 322 235
0.0036136196 0.68699998 0.0060226996 1.3257774e-38 323 235
0.0048181596 0.68699998 0.0060226996 1.33518e-38 324 235
0.0060226996 0.68699998 0.0060226996 1.6855593e-38 325 235
0.0072272392 0.68699998 0.0060226996 1.576114e-38 326 235
0.0084317802 0.68699998 0.0060226996 1.4470401e-38 327 235
0.0096363192 0.68699998 0.0060226996 1.3354655e-38 328 235
0.010840859 0.68699998 0.0060226996 1.0865373e-38 329 235
0.012062933 0.68800002 0.0060314666 1.2240028e-38 330 235
0.013269227 0.68800002 0.0060314666 1.2608452e-38 331 235
0.014517599 0.69 0.0060489997 1.4280968e-38 332 235
0.015795778 0.69300002 0.0060753003 1.5479511e-38 333 235
0.01701084 0.69300002 0.0060753003 1.428312e-38 334 235
0.018225901 0.69300002 0.0060753003 1.0503099e-38 335 235
0.01944096 0.69300002 0.0060753003 9.751835e-39 336 235
0.020685827 0.69400001 0.0060840664 1.2517704e-38 337 235
0.021902639 0.69400001 0.0060840664 1.290018e-38 338 235
0.023119451 0.69400001 0.0060840664 1.6219223e-38 339 235
0.024336265 0.69400001 0.0060840664 1.5026465e-38 340 235
0.025553079 0.69400001 0.0060840664 1.3459138e-38 341 235
0.026847038 0.69599998 0.0061015999 1.3445071e-38 342 235
0.028107686 0.69700003 0.0061103669 1.0310419e-38 343 235
0.02932976 0.69700003 0.0061103669 1.2514798e-38 344 235
0.030551834 0.69700003 0.0061103669 1.2699189e-38 345 235
0.03177391 0.69700003 0.0061103669 1.2424031e-38 346 235
0.033043321 0.69800001 0.006119133 1.2424031e-38 347 235
0.034267146 0.69800001 0.006119133 1.2424028e-38 348 235
0.035490975 0.69800001 0.006119133 1.2424028e-38 349 235
0.036819998 0.69999999 0.0061366665 1.2515145e-38 350 235
0.038047329 0.69999999 0.0061366665 1.2515145e-38 351 235
0.039274666 0.69999999 0.0061366665 1.2422249e-38 352 235
0.040502001 0.69999999 0.0061366665 1.2514444e-38 353 235
0.041729331 0.69999999 0.0061366665 1.1503556e-38 354 235
0.043140765 0.70300001 0.0061629666 1.2702098e-38 355 235
0.04437336 0.70300001 0.0061629666 1.2993097e-38 356 235
-0.051400717 0.69800001 0.0048953067 1.2814451e-38 278 236
-0.050105009 0.69700003 0.0048882933 1.3828603e-38 279 236
-0.048882935 0.69700003 0.0048882933 1.4278756e-38 280 236
-0.047660861 0.69700003 0.0048882933 1.2711791e-38 281 236
-0.046438783 0.69700003 0.0048882933 1.3717288e-38 282 236
-0.045216713 0.69700003 0.0048882933 1.390168e-38 283 236
-0.043931518 0.69599998 0.0048812795 1.4084639e-38 284 236
-0.042527102 0.69300002 0.00486024 1.3992443e-38 285 236
-0.041312039 0.69300002 0.00486024 1.4267235e-38 286 236
-0.039981257 0.69099998 0.0048462129 1.4175039e-38 287 236
-0.038769703 0.69099998 0.0048462129 1.4082839e-38 288 236
-0.03755815 0.69099998 0.0048462129 1.4082839e-38 289 236
-0.036293998 0.69 0.0048391996 1.4082476e-38 290 236
-0.035084199 0.69 0.0048391996 1.4174672e-38 291 236
-0.0338744 0.69 0.0048391996 1.4083192e-38 292 236
-0.032664597 0.69 0.0048391996 1.417539e-38 293 236
-0.031363625 0.68800002 0.0048251734 1.417539e-38 294 236
-0.030157333 0.68800002 0.0048251734 1.417539e-38 295 236
-0.028908957 0.68699998 0.0048181596 1.3992077e-38 296 236
-0.027704418 0.68699998 0.0048181596 1.389988e-38 297 236
-0.026499879 0.68699998 0.0048181596 1.4083192e-38 298 236
-0.025295338 0.68699998 0.0048181596 1.4083192e-38 299 236
-0.024090799 0.68699998 0.0048181596 1.3991e-38 300 236
-0.022852944 0.68599999 0.0048111463 1.3530023e-38 301 236
-0.021650158 0.68599999 0.0048111463 1.3808793e-38 302 236
-0.020447372 0.68599999 0.0048111463 1.6390271e-38 303 236
-0.019272638 0.68699998 0.0048181596 1.6684169e-38 304 236
-0.018068098 0.68699998 0.0048181596 1.7421734e-38 305 236
-0.01686356 0.68699998 0.0048181596 1.3548791e-38 306 236
-0.015659019 0.68699998 0.0048181596 1.1336097e-38 307 236
-0.01439136 0.68400002 0.0047971201 1.4178667e-38 308 236
-0.01319208 0.68400002 0.0047971201 1.5469406e-38 309 236
-0.011975267 0.68300003 0.0047901068 1.5753205e-38 310 236
-0.01077774 0.68300003 0.0047901068 1.8426879e-38 311 236
-0.0095942402 0.68400002 0.0047971201 1.8613421e-38 312 236
-0.0083949603 0.68400002 0.0047971201 1.5386575e-38 313 236
-0.0071956799 0.68400002 0.0047971201 1.4921254e-38 314 236
-0.0059964 0.68400002 0.0047971201 1.4921254e-38 315 236
-0.0047971201 0.68400002 0.0047971201 1.4920201e-38 316 236
-0.00359784 0.68400002 0.0047971201 1.5381179e-38 317 236
-0.0023985601 0.68400002 0.0047971201 1.6681311e-38 318 236
-0.00119928 0.68400002 0.0047971201 1.8341192e-38 319 236
0 0.68400002 0.0047971201 1.6128121e-38 320 236
0.00119928 0.68400002 0.0047971201 1.3270057e-38 321 236
0.0023985601 0.68400002 0.0047971201 1.2890437e-38 322 236
0.00360836 0.68599999 0.0048111463 1.2705685e-38 323 236
0.0048111463 0.68599999 0.0048111463 1.2704269e-38 324 236
0.0060139326 0.68599999 0.0048111463 1.5931116e-38 325 236
0.0072167199 0.68599999 0.0048111463 1.5117216e-38 326 236
0.0084195063 0.68599999 0.0048111463 1.5209412e-38 327 236
0.0096222926 0.68599999 0.0048111463 1.3358987e-38 328 236
0.010825079 0.68599999 0.0048111463 9.7637166e-39 329 236
0.012027865 0.68599999 0.0048111463 1.1964518e-38 330 236
0.013249939 0.68699998 0.0048181596 1.1872322e-38 331 236
0.014454478 0.68699998 0.0048181596 1.3266087e-38 332 236
0.015750192 0.69099998 0.0048462129 1.5294392e-38 333 236
0.01701084 0.69300002 0.00486024 1.4746609e-38 334 236
0.018225901 0.69300002 0.00486024 1.0321578e-38 335 236
0.01944096 0.69300002 0.00486024 9.3816105e-39 336 236
0.020656019 0.69300002 0.00486024 1.362261e-38 337 236
0.021902639 0.69400001 0.0048672534 1.3734628e-38 338 236
0.023119451 0.69400001 0.0048672534 1.5670736e-38 339 236
0.024336265 0.69400001 0.0048672534 1.4842437e-38 340 236
0.025553079 0.69400001 0.0048672534 1.1339362e-38 341 236
0.026847038 0.69599998 0.0048812795 1.1969219e-38 342 236
0.028067358 0.69599998 0.0048812795 1.0586284e-38 343 236
0.029287677 0.69599998 0.0048812795 1.2331127e-38 344 236
0.030507999 0.69599998 0.0048812795 1.2331127e-38 345 236
0.031728316 0.69599998 0.0048812795 1.2423678e-38 346 236
0.03299598 0.69700003 0.0048882933 1.2423678e-38 347 236
0.034218054 0.69700003 0.0048882933 1.2424031e-38 348 236
0.035490975 0.69800001 0.0048953067 1.2424031e-38 349 236
0.0367148 0.69800001 0.0048953067 1.2515148e-38 350 236
0.037938625 0.69800001 0.0048953067 1.2422952e-38 351 236
0.039162453 0.69800001 0.0048953067 1.2514073e-38 352 236
0.040386278 0.69800001 0.0048953067 1.2514073e-38 353 236
0.041729331 0.69999999 0.0049093333 1.1687561e-38 354 236
0.043018032 0.70099998 0.0049163462 1.1226224e-38 355 236
0.04437336 0.70300001 0.0049303733 1.1699475e-38 356 236
0.04560595 0.70300001 0.0049303733 1.4557179e-38 357 236
-0.054002665 0.69999999 0.0036819996 1.0601403e-38 276 237
-0.052624546 0.69800001 0.0036714801 1.3182881e-38 277 237
-0.051400717 0.69800001 0.0036714801 1.4843847e-38 278 237
-0.050105009 0.69700003 0.00366622 1.5581412e-38 279 237
-0.048882935 0.69700003 0.00366622 1.6128435e-38 280 237
-0.047660861 0.69700003 0.00366622 1.3454762e-38 281 237
-0.046438783 0.69700003 0.00366622 1.3808048e-38 282 237
-0.044957221 0.69300002 0.0036451798 1.3992799e-38 283 237
-0.043742158 0.69300002 0.0036451798 1.4360502e-38 284 237
-0.042404365 0.69099998 0.0036346598 1.4268307e-38 285 237
-0.041192811 0.69099998 0.0036346598 1.4267235e-38 286 237
-0.039981257 0.69099998 0.0036346598 1.4267235e-38 287 237
-0.038769703 0.69099998 0.0036346598 1.4175395e-38 288 237
-0.037503798 0.69 0.0036293997 1.4175395e-38 289 237
-0.036293998 0.69 0.0036293997 1.399208e-38 290 237
-0.03498251 0.68800002 0.0036188802 1.3899883e-38 291 237
-0.033776212 0.68800002 0.0036188802 1.4083192e-38 292 237
-0.032569919 0.68800002 0.0036188802 1.4083192e-38 293 237
-0.031318039 0.68699998 0.0036136196 1.4175392e-38 294 237
-0.030113498 0.68699998 0.0036136196 1.4175392e-38 295 237
-0.02886688 0.68599999 0.00360836 1.3991724e-38 296 237
-0.027664091 0.68599999 0.00360836 1.3899527e-38 297 237
-0.026461305 0.68599999 0.00360836 1.3807334e-38 298 237
-0.025258519 0.68599999 0.00360836 1.3807334e-38 299 237
-0.0239856 0.68400002 0.00359784 1.371478e-38 300 237
-0.022786319 0.68400002 0.00359784 1.3254161e-38 301 237
-0.021650158 0.68599999 0.00360836 1.4086109e-38 302 237
-0.020447372 0.68599999 0.00360836 1.6851977e-38 303 237
-0.01918848 0.68400002 0.00359784 1.6316471e-38 304 237
-0.0179892 0.68400002 0.00359784 1.6593418e-38 305 237
-0.016789921 0.68400002 0.00359784 1.2531027e-38 306 237
-0.01559064 0.68400002 0.00359784 1.1516876e-38 307 237
-0.014370319 0.68300003 0.0035925799 1.4088257e-38 308 237
-0.013172794 0.68300003 0.0035925799 1.510205e-38 309 237
-0.011975267 0.68300003 0.0035925799 1.5752135e-38 310 237
-0.01077774 0.68300003 0.0035925799 1.925557e-38 311 237
-0.0095802136 0.68300003 0.0035925799 1.889542e-38 312 237
-0.0083826864 0.68300003 0.0035925799 1.5944799e-38 313 237
-0.0071851597 0.68300003 0.0035925799 1.5015974e-38 314 237
-0.0059876335 0.68300003 0.0035925799 1.4001823e-38 315 237
-0.0047901068 0.68300003 0.0035925799 1.4825839e-38 316 237
-0.0035925799 0.68300003 0.0035925799 1.4825839e-38 317 237
-0.0023950534 0.68300003 0.0035925799 1.5758989e-38 318 237
-0.0011975267 0.68300003 0.0035925799 1.8063879e-38 319 237
0 0.68300003 0.0035925799 1.6867128e-38 320 237
0.0011975267 0.68300003 0.0035925799 1.3364053e-38 321 237
0.0023950534 0.68300003 0.0035925799 1.1969202e-38 322 237
0.00359784 0.68400002 0.00359784 1.2153595e-38 323 237
0.0047971201 0.68400002 0.00359784 1.2702821e-38 324 237
0.0059964 0.68400002 0.00359784 1.4638929e-38 325 237
0.0071956799 0.68400002 0.00359784 1.36446e-38 326 237
0.0083949603 0.68400002 0.00359784 1.5580708e-38 327 237
0.0095942402 0.68400002 0.00359784 1.3363662e-38 328 237
0.010825079 0.68599999 0.00360836 8.5691293e-39 329 237
0.012027865 0.68599999 0.00360836 1.1044722e-38 330 237
0.013230653 0.68599999 0.00360836 1.1597896e-38 331 237
0.01443344 0.68599999 0.00360836 1.151834e-38 332 237
0.015681813 0.68800002 0.0036188802 1.4007622e-38 333 237
0.0169372 0.69 0.0036293997 1.4565468e-38 334 237
0.0181733 0.69099998 0.0036346598 1.1338621e-38 335 237
0.019384852 0.69099998 0.0036346598 1.0864676e-38 336 237
0.020656019 0.69300002 0.0036451798 1.3906772e-38 337 237
0.021871079 0.69300002 0.0036451798 1.3278692e-38 338 237
0.02308614 0.69300002 0.0036451798 1.3924061e-38 339 237
0.024301201 0.69300002 0.0036451798 1.3642435e-38 340 237
0.025553079 0.69400001 0.0036504399 9.8624143e-39 341 237
0.026769891 0.69400001 0.0036504399 1.2334389e-38 342 237
0.027986705 0.69400001 0.0036504399 1.1781574e-38 343 237
0.029203519 0.69400001 0.0036504399 1.2240729e-38 344 237
0.030420333 0.69400001 0.0036504399 1.2148533e-38 345 237
0.031637147 0.69400001 0.0036504399 1.2332201e-38 346 237
0.032853961 0.69400001 0.0036504399 1.2332201e-38 347 237
0.034168959 0.69599998 0.0036609597 1.233148e-38 348 237
0.035440128 0.69700003 0.00366622 1.233148e-38 349 237
0.036662199 0.69700003 0.00366622 1.2331836e-38 350 237
0.037938625 0.69800001 0.0036714801 1.2239281e-38 351 237
0.039162453 0.69800001 0.0036714801 1.2239281e-38 352 237
0.040386278 0.69800001 0.0036714801 1.2147084e-38 353 237
0.041610107 0.69800001 0.0036714801 1.1871223e-38 354 237
0.042956665 0.69999999 0.0036819996 1.1502801e-38 355 237
0.044247117 0.70099998 0.0036872597 1.1232733e-38 356 237
0.045476202 0.70099998 0.0036872597 1.381421e-38 357 237
0.046705291 0.70099998 0.0036872597 1.3642801e-38 358 237
-0.053848371 0.69800001 0.0024476533 1.2906669e-38 276 238
-0.052624546 0.69800001 0.0024476533 1.52112e-38 277 238
-0.051400717 0.69800001 0.0024476533 1.5765818e-38 278 238
-0.050105009 0.69700003 0.0024441467 1.595057e-38 279 238
-0.048882935 0.69700003 0.0024441467 1.7145493e-38 280 238
-0.047592476 0.69599998 0.0024406398 1.5209385e-38 281 238
-0.046372157 0.69599998 0.0024406398 1.4364471e-38 282 238
-0.044957221 0.69300002 0.00243012 1.3258125e-38 283 238
-0.043615919 0.69099998 0.0024231065 1.4085348e-38 284 238
-0.042404365 0.69099998 0.0024231065 1.4177543e-38 285 238
-0.041192811 0.69099998 0.0024231065 1.4268307e-38 286 238
-0.0399234 0.69 0.0024195998 1.4268307e-38 287 238
-0.038713597 0.69 0.0024195998 1.4084273e-38 288 238
-0.037395094 0.68800002 0.0024125867 1.4084273e-38 289 238
-0.036136195 0.68699998 0.0024090798 1.3992433e-38 290 238
-0.034931656 0.68699998 0.0024090798 1.3992433e-38 291 238
-0.033727121 0.68699998 0.0024090798 1.3992077e-38 292 238
-0.032522578 0.68699998 0.0024090798 1.3992077e-38 293 238
-0.031272452 0.68599999 0.0024055731 1.3899527e-38 294 238
-0.030069664 0.68599999 0.0024055731 1.3899527e-38 295 238
-0.02878272 0.68400002 0.0023985601 1.3808053e-38 296 238
-0.027583439 0.68400002 0.0023985601 1.3623663e-38 297 238
-0.02638416 0.68400002 0.0023985601 1.3806978e-38 298 238
-0.025184879 0.68400002 0.0023985601 1.3714783e-38 299 238
-0.023950534 0.68300003 0.0023950534 1.3531473e-38 300 238
-0.022753006 0.68300003 0.0023950534 1.2886104e-38 301 238
-0.02155548 0.68300003 0.0023950534 1.4178673e-38 302 238
-0.020357953 0.68300003 0.0023950534 1.7128934e-38 303 238
-0.019160427 0.68300003 0.0023950534 1.6133515e-38 304 238
-0.017962901 0.68300003 0.0023950534 1.5856569e-38 305 238
-0.016740825 0.68199998 0.0023915465 1.2437367e-38 306 238
-0.015545053 0.68199998 0.0023915465 1.1423216e-38 307 238
-0.01434928 0.68199998 0.0023915465 1.4180427e-38 308 238
-0.013153506 0.68199998 0.0023915465 1.454957e-38 309 238
-0.011957732 0.68199998 0.0023915465 1.5014567e-38 310 238
-0.010761959 0.68199998 0.0023915465 1.8978979e-38 311 238
-0.009566186 0.68199998 0.0023915465 1.8344412e-38 312 238
