# .PCD v.7 - Point Cloud Data file format
FIELDS x y z rgb imX imY
SIZE 4 4 4 4 4 4
TYPE F F F F F F
COUNT 1 1 1 1 1 1
WIDTH 844
HEIGHT 1
VIEWPOINT 0 0 0 1 0 0 0
POINTS 844
DATA ascii
0.0013605866 0.77600002 0.01632704 1.5313129e-38 321 228
0.0027211732 0.77600002 0.01632704 1.8721489e-38 322 228
0.0040922803 0.778 0.016369121 1.9459055e-38 323 228
0.0054563731 0.778 0.016369121 2.0194093e-38 324 228
0.0068029333 0.77600002 0.01632704 2.0562515e-38 325 228
0.0081635201 0.77600002 0.01632704 2.092986e-38 326 228
0.009524107 0.77600002 0.01632704 2.028449e-38 327 228
0.010884693 0.77600002 0.01632704 1.9366493e-38 328 228
0.01224528 0.77600002 0.01632704 1.8997712e-38 329 228
0.013605867 0.77600002 0.01632704 1.8906235e-38 330 228
0.014966453 0.77600002 0.01632704 1.8721842e-38 331 228
0.016369121 0.778 0.016369121 1.8445262e-38 332 228
0.017733213 0.778 0.016369121 1.8353067e-38 333 228
0.0191464 0.77999997 0.016411198 1.7522947e-38 334 228
0.020513998 0.77999997 0.016411198 1.660135e-38 335 228
0.021909652 0.78100002 0.016432239 1.5498965e-38 336 228
0.023279008 0.78100002 0.016432239 1.6144334e-38 337 228
-0.02378572 0.79799998 0.015390759 1.8901902e-38 303 229
-0.022386558 0.79799998 0.015390759 1.7700813e-38 304 229
-0.020987399 0.79799998 0.015390759 1.4566521e-38 305 229
-0.01944096 0.792 0.01527504 8.9404832e-39 306 229
-0.017983939 0.78899997 0.015217179 6.1742556e-39 307 229
-0.01655848 0.787 0.015178605 5.4640509e-39 308 229
-0.015140033 0.78500003 0.015140033 1.1917744e-38 309 229
-0.013728599 0.78299999 0.01510146 1.9732389e-38 310 229
-0.012355739 0.78299999 0.01510146 1.9732389e-38 311 229
-0.010982879 0.78299999 0.01510146 1.9364326e-38 312 229
-0.0095854728 0.78100002 0.015062887 1.9364326e-38 313 229
-0.0082161194 0.78100002 0.015062887 1.9548718e-38 314 229
-0.0068379994 0.77999997 0.0150436 2.0009696e-38 315 229
-0.0054563731 0.778 0.015005025 2.1390834e-38 316 229
-0.0040922803 0.778 0.015005025 2.2036203e-38 317 229
-0.0027281865 0.778 0.015005025 2.1853254e-38 318 229
-0.0013640933 0.778 0.015005025 2.1207884e-38 319 229
0 0.778 0.015005025 1.4855043e-38 320 229
0.0013640933 0.778 0.015005025 1.4117119e-38 321 229
0.0027211732 0.77600002 0.014966453 1.7433651e-38 322 229
0.0040817601 0.77600002 0.014966453 1.8355247e-38 323 229
0.0054423464 0.77600002 0.014966453 1.8905519e-38 324 229
0.0068029333 0.77600002 0.014966453 1.9273941e-38 325 229
0.0081635201 0.77600002 0.014966453 1.973348e-38 326 229
0.009524107 0.77600002 0.014966453 1.9364339e-38 327 229
0.010884693 0.77600002 0.014966453 1.853818e-38 328 229
0.01224528 0.77600002 0.014966453 1.853818e-38 329 229
0.013605867 0.77600002 0.014966453 1.8537461e-38 330 229
0.014966453 0.77600002 0.014966453 1.8352711e-38 331 229
0.016369121 0.778 0.015005025 1.7892458e-38 332 229
0.017733213 0.778 0.015005025 1.7707707e-38 333 229
0.019097306 0.778 0.015005025 1.7339285e-38 334 229
0.020513998 0.77999997 0.0150436 1.6324773e-38 335 229
0.021909652 0.78100002 0.015062887 1.4300785e-38 336 229
0.023279008 0.78100002 0.015062887 1.5223101e-38 337 229
0.024648361 0.78100002 0.015062887 1.5961385e-38 338 229
-0.022077972 0.787 0.013798732 1.1237052e-38 304 230
-0.017938353 0.787 0.013798732 1.5414283e-44 307 230
-0.016516401 0.78500003 0.013763667 2.690622e-39 308 230
-0.015140033 0.78500003 0.013763667 1.2463359e-38 309 230
-0.013728599 0.78299999 0.013728599 2.0192288e-38 310 230
-0.012355739 0.78299999 0.013728599 2.0007896e-38 311 230
-0.010982879 0.78299999 0.013728599 1.9181733e-38 312 230
-0.0095731998 0.77999997 0.013675999 1.9273929e-38 313 230
-0.0082055992 0.77999997 0.013675999 1.9825303e-38 314 230
-0.0068379994 0.77999997 0.013675999 2.0655065e-38 315 230
-0.0054563731 0.778 0.013640933 2.1022771e-38 316 230
-0.0040922803 0.778 0.013640933 2.0746183e-38 317 230
-0.0027281865 0.778 0.013640933 2.0745108e-38 318 230
-0.0013640933 0.778 0.013640933 1.9731317e-38 319 230
0 0.778 0.013640933 1.1815473e-38 320 230
0.0013640933 0.778 0.013640933 1.1723276e-38 321 230
0.0027211732 0.77600002 0.013605867 1.641987e-38 322 230
0.0040817601 0.77600002 0.013605867 1.8171229e-38 323 230
0.0054423464 0.77600002 0.013605867 1.8997364e-38 324 230
0.0068029333 0.77600002 0.013605867 1.8812971e-38 325 230
0.0081635201 0.77600002 0.013605867 1.8905166e-38 326 230
0.009524107 0.77600002 0.013605867 1.8628577e-38 327 230
0.010884693 0.77600002 0.013605867 1.8352714e-38 328 230
0.01224528 0.77600002 0.013605867 1.8260518e-38 329 230
0.013605867 0.77600002 0.013605867 1.8259799e-38 330 230
0.014966453 0.77600002 0.013605867 1.8167603e-38 331 230
0.016369121 0.778 0.013640933 1.7707707e-38 332 230
0.017733213 0.778 0.013640933 1.743148e-38 333 230
0.019097306 0.778 0.013640933 1.7431483e-38 334 230
0.020513998 0.77999997 0.013675999 1.6509167e-38 335 230
0.021909652 0.78100002 0.013693534 1.494292e-38 336 230
0.02333862 0.78299999 0.013728599 1.6233659e-38 337 230
0.024711479 0.78299999 0.013728599 1.6604236e-38 338 230
0.026084339 0.78299999 0.013728599 1.5774476e-38 339 230
-0.017938353 0.787 0.01241886 0 307 231
-0.01647432 0.78299999 0.012355739 4.4329138e-39 308 231
-0.01510146 0.78299999 0.012355739 1.3099304e-38 309 231
-0.013728599 0.78299999 0.012355739 1.8905121e-38 310 231
-0.01232418 0.78100002 0.01232418 1.8905121e-38 311 231
-0.010954826 0.78100002 0.01232418 1.8904067e-38 312 231
-0.0095486529 0.778 0.012276839 1.9088817e-38 313 231
-0.0081845606 0.778 0.012276839 1.9825303e-38 314 231
-0.0068204664 0.778 0.012276839 2.0839456e-38 315 231
-0.0054423464 0.77600002 0.01224528 2.1022759e-38 316 231
-0.0040817601 0.77600002 0.01224528 2.0008247e-38 317 231
-0.0027211732 0.77600002 0.01224528 1.8810044e-38 318 231
-0.0013605866 0.77600002 0.01224528 1.6781381e-38 319 231
0 0.77600002 0.01224528 8.3120036e-39 320 231
0.0013605866 0.77600002 0.01224528 6.7446765e-39 321 231
0.0027141599 0.77399999 0.01221372 1.30115e-38 322 231
0.0040712398 0.77399999 0.01221372 1.6145792e-38 323 231
0.0054423464 0.77600002 0.01224528 1.8261965e-38 324 231
0.0068029333 0.77600002 0.01224528 1.8261965e-38 325 231
0.0081635201 0.77600002 0.01224528 1.8628221e-38 326 231
0.009524107 0.77600002 0.01224528 1.844383e-38 327 231
0.010884693 0.77600002 0.01224528 1.7984654e-38 328 231
0.01224528 0.77600002 0.01224528 1.7892458e-38 329 231
0.013605867 0.77600002 0.01224528 1.7800261e-38 330 231
0.014966453 0.77600002 0.01224528 1.7800261e-38 331 231
0.016369121 0.778 0.012276839 1.7432199e-38 332 231
0.017733213 0.778 0.012276839 1.7247808e-38 333 231
0.0191464 0.77999997 0.012308398 1.7247455e-38 334 231
0.020513998 0.77999997 0.012308398 1.6233662e-38 335 231
0.021909652 0.78100002 0.01232418 1.4116769e-38 336 231
0.02333862 0.78299999 0.012355739 1.5592258e-38 337 231
0.0247746 0.78500003 0.0123873 1.6971594e-38 338 231
0.026150968 0.78500003 0.0123873 1.5957442e-38 339 231
-0.017778799 0.77999997 0.010940799 1.1210388e-44 307 232
-0.016411198 0.77999997 0.010940799 9.8692484e-39 308 232
-0.0150436 0.77999997 0.010940799 1.4847812e-38 309 232
-0.013693534 0.78100002 0.010954826 1.6786084e-38 310 232
-0.01232418 0.78100002 0.010954826 1.6417662e-38 311 232
-0.010954826 0.78100002 0.010954826 1.7243472e-38 312 232
-0.009524107 0.77600002 0.010884693 1.7335668e-38 313 232
-0.0081635201 0.77600002 0.010884693 1.6602053e-38 314 232
-0.0068029333 0.77600002 0.010884693 1.6786084e-38 315 232
-0.0054423464 0.77600002 0.010884693 1.733169e-38 316 232
-0.0040817601 0.77600002 0.010884693 1.5210831e-38 317 232
-0.0027211732 0.77600002 0.010884693 1.3165591e-38 318 232
-0.0013605866 0.77600002 0.010884693 1.0861059e-38 319 232
0 0.77600002 0.010884693 6.8246066e-39 320 232
0.0013605866 0.77600002 0.010884693 4.8884984e-39 321 232
0.0027141599 0.77399999 0.01085664 9.4501887e-40 322 232
0.0040712398 0.77399999 0.01085664 6.2923654e-39 323 232
0.0054423464 0.77600002 0.010884693 1.2920043e-38 324 232
0.0068204664 0.778 0.010912746 1.6331282e-38 325 232
0.0081845606 0.778 0.010912746 1.8812985e-38 326 232
0.009524107 0.77600002 0.010884693 1.8536757e-38 327 232
0.010884693 0.77600002 0.010884693 1.807685e-38 328 232
0.01224528 0.77600002 0.010884693 1.7800261e-38 329 232
0.013605867 0.77600002 0.010884693 1.7524395e-38 330 232
0.014966453 0.77600002 0.010884693 1.7432199e-38 331 232
0.016369121 0.778 0.010912746 1.743148e-38 332 232
0.017733213 0.778 0.010912746 1.7247089e-38 333 232
0.019097306 0.778 0.010912746 1.7523679e-38 334 232
0.020513998 0.77999997 0.010940799 1.5955994e-38 335 232
0.021909652 0.78100002 0.010954826 8.6923427e-39 336 232
0.02333862 0.78299999 0.010982879 9.4302664e-39 337 232
0.0247746 0.78500003 0.011010934 1.4208984e-38 338 232
0.026150968 0.78500003 0.011010934 1.4762157e-38 339 232
-0.017733213 0.778 0.0095486529 4.5169623e-39 307 233
-0.016369121 0.778 0.0095486529 1.5027284e-38 308 233
-0.015005025 0.778 0.0095486529 1.8069709e-38 309 233
-0.013640933 0.778 0.0095486529 1.7984651e-38 310 233
-0.012276839 0.778 0.0095486529 1.7431836e-38 311 233
-0.010912746 0.778 0.0095486529 1.7060523e-38 312 233
-0.009524107 0.77600002 0.009524107 1.6784296e-38 313 233
-0.0081635201 0.77600002 0.009524107 1.6508773e-38 314 233
-0.0067853997 0.77399999 0.0094995592 1.6232545e-38 315 233
-0.0054283198 0.77399999 0.0094995592 1.4658717e-38 316 233
-0.0040712398 0.77399999 0.0094995592 1.0602109e-38 317 233
-0.0027141599 0.77399999 0.0094995592 7.9280633e-39 318 233
-0.0013570799 0.77399999 0.0094995592 7.6514764e-39 319 233
0 0.77600002 0.009524107 8.5734523e-39 320 233
0.0013605866 0.77600002 0.009524107 6.913931e-39 321 233
0.0027141599 0.77399999 0.0094995592 1.0448081e-41 322 233
0.0040712398 0.77399999 0.0094995592 1.5489953e-41 323 233
0.0054283198 0.77399999 0.0094995592 3.3453745e-39 324 233
0.0067853997 0.77399999 0.0094995592 9.7068729e-39 325 233
0.0081424797 0.77399999 0.0094995592 1.6512436e-38 326 233
0.0094995592 0.77399999 0.0094995592 1.6696827e-38 327 233
0.010884693 0.77600002 0.009524107 1.7248534e-38 328 233
0.01224528 0.77600002 0.009524107 1.7248534e-38 329 233
0.013605867 0.77600002 0.009524107 1.7432199e-38 330 233
0.014966453 0.77600002 0.009524107 1.7432199e-38 331 233
0.01632704 0.77600002 0.009524107 1.7156335e-38 332 233
0.017687626 0.77600002 0.009524107 1.7156335e-38 333 233
0.019097306 0.778 0.0095486529 1.779811e-38 334 233
0.020461399 0.778 0.0095486529 1.4755655e-38 335 233
0.021881599 0.77999997 0.0095731998 3.3435794e-39 336 233
0.02333862 0.78299999 0.0096100196 3.3435794e-39 337 233
0.024711479 0.78299999 0.0096100196 8.4104056e-39 338 233
0.027550125 0.82700002 0.010150046 1.1268829e-38 339 233
-0.019097306 0.778 0.0081845606 1.180034e-38 306 234
-0.017733213 0.778 0.0081845606 1.834623e-38 307 234
-0.016369121 0.778 0.0081845606 2.1297932e-38 308 234
-0.014966453 0.77600002 0.0081635201 2.1021705e-38 309 234
-0.013605867 0.77600002 0.0081635201 2.0287017e-38 310 234
-0.01224528 0.77600002 0.0081635201 1.9918594e-38 311 234
-0.010884693 0.77600002 0.0081635201 1.936614e-38 312 234
-0.0094995592 0.77399999 0.0081424797 1.9273944e-38 313 234
-0.0081424797 0.77399999 0.0081424797 1.9549808e-38 314 234
-0.0067853997 0.77399999 0.0081424797 1.9826396e-38 315 234
-0.0054283198 0.77399999 0.0081424797 1.5489942e-38 316 234
-0.0040712398 0.77399999 0.0081424797 9.6816173e-39 317 234
-0.0027141599 0.77399999 0.0081424797 1.0511724e-38 318 234
-0.0013570799 0.77399999 0.0081424797 1.1157094e-38 319 234
0 0.77399999 0.0081424797 9.6776545e-39 320 234
0.0013570799 0.77399999 0.0081424797 8.1099686e-39 321 234
0.0027141599 0.77399999 0.0081424797 4.6090752e-39 322 234
0.0040712398 0.77399999 0.0081424797 1.935402e-39 323 234
0.0054283198 0.77399999 0.0081424797 1.2621495e-41 324 234
0.0067853997 0.77399999 0.0081424797 2.0474078e-39 325 234
0.0081424797 0.77399999 0.0081424797 8.7719406e-39 326 234
0.0094995592 0.77399999 0.0081424797 1.3289526e-38 327 234
0.010884693 0.77600002 0.0081635201 1.4577732e-38 328 234
0.01224528 0.77600002 0.0081635201 1.5038708e-38 329 234
0.013605867 0.77600002 0.0081635201 1.586595e-38 330 234
0.014966453 0.77600002 0.0081635201 1.6234731e-38 331 234
0.01632704 0.77600002 0.0081635201 1.6878672e-38 332 234
0.017687626 0.77600002 0.0081635201 1.6878672e-38 333 234
0.019048214 0.77600002 0.0081635201 1.3559282e-38 334 234
0.020461399 0.778 0.0081845606 7.2899806e-39 335 234
0.021881599 0.77999997 0.0082055992 5.465064e-44 336 234
0.023249198 0.77999997 0.0082055992 4.9045446e-44 337 234
0.024616797 0.77999997 0.0082055992 2.1301138e-41 338 234
-0.020513998 0.77999997 0.0068379994 3.8711206e-39 305 235
-0.019097306 0.778 0.0068204664 1.6228248e-38 306 235
-0.017687626 0.77600002 0.0068029333 1.9454735e-38 307 235
-0.01632704 0.77600002 0.0068029333 2.0286654e-38 308 235
-0.014966453 0.77600002 0.0068029333 2.0102263e-38 309 235
-0.013605867 0.77600002 0.0068029333 1.9643084e-38 310 235
-0.01224528 0.77600002 0.0068029333 1.9550888e-38 311 235
-0.010884693 0.77600002 0.0068029333 1.8998799e-38 312 235
-0.0094995592 0.77399999 0.0067853997 1.853818e-38 313 235
-0.0081424797 0.77399999 0.0067853997 1.8998446e-38 314 235
-0.0067766332 0.773 0.0067766332 2.0289185e-38 315 235
-0.0054213065 0.773 0.0067766332 1.7155595e-38 316 235
-0.0040659797 0.773 0.0067766332 1.0056532e-38 317 235
-0.0027106532 0.773 0.0067766332 9.4972233e-39 318 235
-0.00135182 0.77100003 0.0067590997 1.0880158e-38 319 235
0 0.77100003 0.0067590997 1.0045358e-38 320 235
0.00135182 0.77100003 0.0067590997 8.1092498e-39 321 235
0.0027106532 0.773 0.0067766332 4.978564e-39 322 235
0.0040659797 0.773 0.0067766332 2.5814776e-39 323 235
0.0054213065 0.773 0.0067766332 1.4349296e-42 324 235
0.0067766332 0.773 0.0067766332 5.2619458e-39 325 235
0.0081319595 0.773 0.0067766332 1.3363291e-38 326 235
0.009524107 0.77600002 0.0068029333 1.9171614e-38 327 235
0.010884693 0.77600002 0.0068029333 1.5864854e-38 328 235
0.01221372 0.77399999 0.0067853997 1.5219484e-38 329 235
0.013570799 0.77399999 0.0067853997 1.4757804e-38 330 235
0.014966453 0.77600002 0.0068029333 1.4573412e-38 331 235
0.01632704 0.77600002 0.0068029333 1.4760694e-38 332 235
0.017687626 0.77600002 0.0068029333 1.4115324e-38 333 235
0.019048214 0.77600002 0.0068029333 5.7269667e-39 334 235
0.020461399 0.778 0.0068204664 1.7625546e-39 335 235
0.021825492 0.778 0.0068204664 4.0021084e-42 336 235
0.023189586 0.778 0.0068204664 3.6419747e-42 337 235
-0.023249198 0.77999997 0.0054703997 1.3554164e-38 303 236
-0.021881599 0.77999997 0.0054703997 1.2263073e-38 304 236
-0.020513998 0.77999997 0.0054703997 1.3738203e-38 305 236
-0.019048214 0.77600002 0.0054423464 1.918138e-38 306 236
-0.017687626 0.77600002 0.0054423464 1.9826749e-38 307 236
-0.01632704 0.77600002 0.0054423464 1.9459058e-38 308 236
-0.014966453 0.77600002 0.0054423464 1.964345e-38 309 236
-0.013605867 0.77600002 0.0054423464 1.9183913e-38 310 236
-0.01224528 0.77600002 0.0054423464 1.9183913e-38 311 236
-0.010884693 0.77600002 0.0054423464 1.8998446e-38 312 236
-0.0094872871 0.773 0.0054213065 1.8169045e-38 313 236
-0.0081319595 0.773 0.0054213065 1.8447796e-38 314 236
-0.0067766332 0.773 0.0054213065 1.9554502e-38 315 236
-0.0054213065 0.773 0.0054213065 1.7616944e-38 316 236
-0.0040659797 0.773 0.0054213065 1.0978858e-38 317 236
-0.0027036399 0.77100003 0.0054072798 6.8242689e-39 318 236
-0.0013483133 0.76899999 0.0053932532 7.5618339e-39 319 236
0 0.76700002 0.0053792265 9.5858092e-39 320 236
0.0013448066 0.76700002 0.0053792265 8.1106777e-39 321 236
0.0026896133 0.76700002 0.0053792265 4.4275356e-39 322 236
0.0040659797 0.773 0.0054213065 1.5694711e-39 323 236
0.0054072798 0.77100003 0.0054072798 0 324 236
0.0067590997 0.77100003 0.0054072798 1.0693952e-38 325 236
0.0081319595 0.773 0.0054213065 1.6686683e-38 326 236
0.0094995592 0.77399999 0.0054283198 1.991353e-38 327 236
0.01085664 0.77399999 0.0054283198 1.8075038e-38 328 236
0.01221372 0.77399999 0.0054283198 1.7244918e-38 329 236
0.013570799 0.77399999 0.0054283198 1.5863785e-38 330 236
0.014927879 0.77399999 0.0054283198 1.494147e-38 331 236
0.016284959 0.77399999 0.0054283198 1.4115661e-38 332 236
0.017687626 0.77600002 0.0054423464 1.1902607e-38 333 236
0.019048214 0.77600002 0.0054423464 8.2816739e-42 334 236
0.020461399 0.778 0.0054563731 3.9600695e-42 335 236
0.021825492 0.778 0.0054563731 1.9700855e-40 336 236
-0.027527334 0.78500003 0.0041291001 1.7798443e-38 300 237
-0.024648361 0.78100002 0.0041080597 1.7799514e-38 302 237
-0.023249198 0.77999997 0.0041027996 1.7338536e-38 303 237
-0.021881599 0.77999997 0.0041027996 1.6780331e-38 304 237
-0.020513998 0.77999997 0.0041027996 1.6595939e-38 305 237
-0.019048214 0.77600002 0.0040817601 1.8445262e-38 306 237
-0.017687626 0.77600002 0.0040817601 1.8905882e-38 307 237
-0.01632704 0.77600002 0.0040817601 1.8630389e-38 308 237
-0.014966453 0.77600002 0.0040817601 1.8630389e-38 309 237
-0.013605867 0.77600002 0.0040817601 1.7897143e-38 310 237
-0.01221372 0.77399999 0.0040712398 1.8726904e-38 311 237
-0.01085664 0.77399999 0.0040712398 2.000901e-38 312 237
-0.0094872871 0.773 0.0040659797 1.8810467e-38 313 237
-0.0081319595 0.773 0.0040659797 1.7345771e-38 314 237
-0.0067766332 0.773 0.0040659797 1.8544312e-38 315 237
-0.0054213065 0.773 0.0040659797 1.7064859e-38 316 237
-0.0040659797 0.773 0.0040659797 1.1164338e-38 317 237
-0.0027036399 0.77100003 0.0040554604 3.5124163e-39 318 237
-0.0013483133 0.76899999 0.0040449398 1.7606993e-39 319 237
0 0.76700002 0.00403442 6.9142841e-39 320 237
0.0013448066 0.76700002 0.00403442 6.5451414e-39 321 237
0.0026896133 0.76700002 0.00403442 2.3099032e-39 322 237
0.0040554604 0.77100003 0.0040554604 2.8698593e-42 323 237
0.0054072798 0.77100003 0.0040554604 1.1045371e-39 324 237
0.0067590997 0.77100003 0.0040554604 1.382753e-38 325 237
0.0081319595 0.773 0.0040659797 1.8532766e-38 326 237
0.0094995592 0.77399999 0.0040712398 1.8993746e-38 327 237
0.01085664 0.77399999 0.0040712398 1.7339638e-38 328 237
0.01221372 0.77399999 0.0040712398 1.7154886e-38 329 237
0.013570799 0.77399999 0.0040712398 1.6879381e-38 330 237
0.014927879 0.77399999 0.0040712398 1.6787186e-38 331 237
0.016284959 0.77399999 0.0040712398 1.7798443e-38 332 237
0.017687626 0.77600002 0.0040817601 1.5401715e-38 333 237
0.019048214 0.77600002 0.0040817601 5.8119218e-39 334 237
0.021769386 0.77600002 0.0040817601 1.4052221e-41 336 237
0.023129974 0.77600002 0.0040817601 4.753905e-40 337 237
-0.0289037 0.78500003 0.0027527334 1.8440943e-38 299 238
-0.027527334 0.78500003 0.0027527334 1.8258347e-38 300 238
-0.026084339 0.78299999 0.0027457199 1.8442739e-38 301 238
-0.024648361 0.78100002 0.0027387065 1.8904438e-38 302 238
-0.023279008 0.78100002 0.0027387065 1.9365777e-38 303 238
-0.021909652 0.78100002 0.0027387065 1.7980691e-38 304 238
-0.020513998 0.77999997 0.0027351999 1.7427517e-38 305 238
-0.019048214 0.77600002 0.0027211732 1.798502e-38 306 238
-0.017687626 0.77600002 0.0027211732 1.8169411e-38 307 238
-0.01632704 0.77600002 0.0027211732 1.7526215e-38 308 238
-0.014966453 0.77600002 0.0027211732 1.7433661e-38 309 238
-0.013605867 0.77600002 0.0027211732 1.6607866e-38 310 238
-0.01221372 0.77399999 0.0027141599 1.7437622e-38 311 238
-0.01085664 0.77399999 0.0027141599 1.9365091e-38 312 238
-0.0094872871 0.773 0.0027106532 1.8166915e-38 313 238
-0.0081319595 0.773 0.0027106532 1.6700049e-38 314 238
-0.0067766332 0.773 0.0027106532 1.7621645e-38 315 238
-0.0054072798 0.77100003 0.0027036399 1.6145426e-38 316 238
-0.0040554604 0.77100003 0.0027036399 1.1443449e-38 317 238
-0.0026966266 0.76899999 0.0026966266 2.0492084e-39 318 238
-0.0013483133 0.76899999 0.0026966266 9.3816932e-42 319 238
0 0.76700002 0.0026896133 5.3513122e-39 320 238
0.0013448066 0.76700002 0.0026896133 6.3654641e-39 321 238
0.0026896133 0.76700002 0.0026896133 3.5981253e-39 322 238
0.0040554604 0.77100003 0.0027036399 1.2013976e-39 323 238
0.0054072798 0.77100003 0.0027036399 5.5259897e-39 324 238
0.0067590997 0.77100003 0.0027036399 1.6866411e-38 325 238
0.0081109209 0.77100003 0.0027036399 1.9270707e-38 326 238
0.0094627403 0.77100003 0.0027036399 1.8256196e-38 327 238
0.01085664 0.77399999 0.0027141599 1.6879025e-38 328 238
0.01221372 0.77399999 0.0027141599 1.6879025e-38 329 238
0.013570799 0.77399999 0.0027141599 1.6879394e-38 330 238
0.014927879 0.77399999 0.0027141599 1.7248537e-38 331 238
0.016284959 0.77399999 0.0027141599 1.9088128e-38 332 238
0.01764204 0.77399999 0.0027141599 1.8258365e-38 333 238
0.018999118 0.77399999 0.0027141599 1.115642e-38 334 238
0.020356199 0.77399999 0.0027141599 3.9651604e-39 335 238
0.021769386 0.77600002 0.0027211732 1.0820827e-41 336 238
0.023129974 0.77600002 0.0027211732 2.8740912e-40 337 238
-0.030434359 0.78899997 0.0013833799 1.8718251e-38 298 239
-0.02897734 0.787 0.0013798733 1.8626054e-38 299 239
-0.027527334 0.78500003 0.0013763667 1.8533858e-38 300 239
-0.026084339 0.78299999 0.0013728599 1.8533858e-38 301 239
-0.024648361 0.78100002 0.0013693533 1.8536379e-38 302 239
-0.023279008 0.78100002 0.0013693533 1.8997717e-38 303 239
-0.021909652 0.78100002 0.0013693533 1.6970142e-38 304 239
-0.020513998 0.77999997 0.0013675999 1.6416968e-38 305 239
-0.019097306 0.778 0.0013640933 1.7524766e-38 306 239
-0.017687626 0.77600002 0.0013605866 1.7155985e-38 307 239
-0.01632704 0.77600002 0.0013605866 1.5961057e-38 308 239
-0.014966453 0.77600002 0.0013605866 1.568447e-38 309 239
-0.013605867 0.77600002 0.0013605866 1.4950152e-38 310 239
-0.01224528 0.77600002 0.0013605866 1.5226379e-38 311 239
-0.010884693 0.77600002 0.0013605866 1.586958e-38 312 239
-0.0094872871 0.773 0.0013553266 1.6330559e-38 313 239
-0.0081319595 0.773 0.0013553266 1.6790448e-38 314 239
-0.0067766332 0.773 0.0013553266 1.6974841e-38 315 239
-0.0054072798 0.77100003 0.00135182 1.4857211e-38 316 239
-0.0040554604 0.77100003 0.00135182 1.2367929e-38 317 239
-0.0026966266 0.76899999 0.0013483133 1.1816547e-38 318 239
-0.0013483133 0.76899999 0.0013483133 1.2554112e-38 319 239
0 0.76700002 0.0013448066 1.6050341e-38 320 239
0.0013448066 0.76700002 0.0013448066 1.6050341e-38 321 239
0.0026896133 0.76700002 0.0013448066 1.5675775e-38 322 239
0.0040449398 0.76899999 0.0013483133 1.2541124e-38 323 239
0.0054072798 0.77100003 0.00135182 1.3181824e-38 324 239
0.0067590997 0.77100003 0.00135182 1.8252582e-38 325 239
0.0081109209 0.77100003 0.00135182 1.8350563e-38 326 239
0.0094627403 0.77100003 0.00135182 1.7612996e-38 327 239
0.010842613 0.773 0.0013553266 1.7062343e-38 328 239
0.012197939 0.773 0.0013553266 1.6970148e-38 329 239
0.013570799 0.77399999 0.0013570799 1.6879397e-38 330 239
0.014927879 0.77399999 0.0013570799 1.7248181e-38 331 239
0.016284959 0.77399999 0.0013570799 1.7339297e-38 332 239
0.01764204 0.77399999 0.0013570799 1.6970873e-38 333 239
0.018999118 0.77399999 0.0013570799 1.3648584e-38 334 239
0.020356199 0.77399999 0.0013570799 6.8261088e-39 335 239
0.021769386 0.77600002 0.0013605866 5.0712991e-42 336 239
0.023129974 0.77600002 0.0013605866 5.4314328e-42 337 239
0.024616797 0.77999997 0.0013675999 9.7978789e-41 338 239
-0.031817738 0.78899997 -0 1.9269625e-38 297 240
-0.030434359 0.78899997 -0 1.8442744e-38 298 240
-0.02897734 0.787 -0 1.8442744e-38 299 240
-0.027527334 0.78500003 -0 1.8442744e-38 300 240
-0.026084339 0.78299999 -0 1.8626777e-38 301 240
-0.024711479 0.78299999 -0 1.8628577e-38 302 240
-0.023279008 0.78100002 -0 1.8812969e-38 303 240
-0.021909652 0.78100002 -0 1.6788995e-38 304 240
-0.020513998 0.77999997 -0 1.5867397e-38 305 240
-0.0191464 0.77999997 -0 1.6513139e-38 306 240
-0.017733213 0.778 -0 1.6513139e-38 307 240
-0.016369121 0.778 -0 1.6513155e-38 308 240
-0.014966453 0.77600002 -0 1.6236569e-38 309 240
-0.013605867 0.77600002 -0 1.5959259e-38 310 240
-0.01224528 0.77600002 -0 1.6235486e-38 311 240
-0.010884693 0.77600002 -0 1.5869568e-38 312 240
-0.0094872871 0.773 -0 1.6422383e-38 313 240
-0.0081319595 0.773 -0 1.7065234e-38 314 240
-0.0067766332 0.773 -0 1.586705e-38 315 240
-0.0054072798 0.77100003 -0 1.3751228e-38 316 240
-0.0040554604 0.77100003 -0 1.2921466e-38 317 240
-0.0027036399 0.77100003 -0 1.6051805e-38 318 240
-0.0013483133 0.76899999 -0 1.8356695e-38 319 240
0 0.76700002 -0 1.927505e-38 320 240
0.0013448066 0.76700002 -0 1.9551991e-38 321 240
0.0026896133 0.76700002 -0 2.0193383e-38 322 240
0.0040449398 0.76899999 -0 1.8441665e-38 323 240
0.0054072798 0.77100003 -0 1.6319725e-38 324 240
0.0067590997 0.77100003 -0 1.6411921e-38 325 240
0.0081109209 0.77100003 -0 1.6326224e-38 326 240
0.0094627403 0.77100003 -0 1.6695366e-38 327 240
0.010842613 0.773 -0 1.6695366e-38 328 240
0.012197939 0.773 -0 1.6695366e-38 329 240
0.013553266 0.773 -0 1.7063789e-38 330 240
0.014908593 0.773 -0 1.7248181e-38 331 240
0.016284959 0.77399999 -0 1.5592258e-38 332 240
0.01764204 0.77399999 -0 1.5592258e-38 333 240
0.018999118 0.77399999 -0 1.5310625e-38 334 240
0.020356199 0.77399999 -0 8.2119201e-39 335 240
0.021769386 0.77600002 -0 1.4559491e-42 336 240
0.023189586 0.778 -0 1.0958154e-42 337 240
0.024616797 0.77999997 -0 5.5678913e-40 338 240
0.025984399 0.77999997 -0 9.8685477e-39 339 240
-0.033243202 0.79000002 -0.0013851334 1.9546571e-38 296 241
-0.031817738 0.78899997 -0.0013833799 1.9269625e-38 297 241
-0.030434359 0.78899997 -0.0013833799 1.7983208e-38 298 241
-0.02897734 0.787 -0.0013798733 1.8075404e-38 299 241
-0.027527334 0.78500003 -0.0013763667 1.8259799e-38 300 241
-0.026084339 0.78299999 -0.0013728599 1.8536026e-38 301 241
-0.024711479 0.78299999 -0.0013728599 1.7984301e-38 302 241
-0.023279008 0.78100002 -0.0013693533 1.7707713e-38 303 241
-0.021909652 0.78100002 -0.0013693533 1.6422739e-38 304 241
-0.020513998 0.77999997 -0.0013675999 1.6330543e-38 305 241
-0.0191464 0.77999997 -0.0013675999 1.6514581e-38 306 241
-0.017733213 0.778 -0.0013640933 1.6514581e-38 307 241
-0.016369121 0.778 -0.0013640933 1.6790448e-38 308 241
-0.014966453 0.77600002 -0.0013605866 1.5868133e-38 309 241
-0.013605867 0.77600002 -0.0013605866 1.5866698e-38 310 241
-0.01224528 0.77600002 -0.0013605866 1.7157435e-38 311 241
-0.01085664 0.77399999 -0.0013570799 1.7526215e-38 312 241
-0.0094872871 0.773 -0.0013553266 1.7526215e-38 313 241
-0.0081319595 0.773 -0.0013553266 1.6142912e-38 314 241
-0.0067590997 0.77100003 -0.00135182 1.2731314e-38 315 241
-0.0054072798 0.77100003 -0.00135182 1.1727593e-38 316 241
-0.0040554604 0.77100003 -0.00135182 1.4309069e-38 317 241
-0.0027036399 0.77100003 -0.00135182 1.7156356e-38 318 241
-0.0013483133 0.76899999 -0.0013483133 1.6879771e-38 319 241
0 0.76899999 -0.0013483133 1.6422033e-38 320 241
0.0013483133 0.76899999 -0.0013483133 1.6975206e-38 321 241
0.0026966266 0.76899999 -0.0013483133 1.8538191e-38 322 241
0.0040449398 0.76899999 -0.0013483133 1.8261963e-38 323 241
0.0054072798 0.77100003 -0.00135182 1.8438072e-38 324 241
0.0067590997 0.77100003 -0.00135182 1.5764399e-38 325 241
0.0081109209 0.77100003 -0.00135182 1.3103696e-38 326 241
0.0094627403 0.77100003 -0.00135182 1.5224196e-38 327 241
0.010842613 0.773 -0.0013553266 1.6327672e-38 328 241
0.012197939 0.773 -0.0013553266 1.6788291e-38 329 241
0.013553266 0.773 -0.0013553266 1.6973394e-38 330 241
0.014908593 0.773 -0.0013553266 1.6328025e-38 331 241
0.016263919 0.773 -0.0013553266 1.504017e-38 332 241
0.01764204 0.77399999 -0.0013570799 1.5224561e-38 333 241
0.018999118 0.77399999 -0.0013570799 1.5957417e-38 334 241
0.020356199 0.77399999 -0.0013570799 9.5040812e-39 335 241
0.021769386 0.77600002 -0.0013605866 7.5754195e-42 336 241
0.023189586 0.778 -0.0013640933 5.774751e-42 337 241
0.024616797 0.77999997 -0.0013675999 1.6225635e-41 338 241
0.025984399 0.77999997 -0.0013675999 7.9500917e-39 339 241
-0.034628332 0.79000002 -0.0027702667 1.9454735e-38 295 242
-0.033243202 0.79000002 -0.0027702667 1.9454735e-38 296 242
-0.031817738 0.78899997 -0.0027667598 1.8994117e-38 297 242
-0.030434359 0.78899997 -0.0027667598 1.7982489e-38 298 242
-0.02897734 0.787 -0.0027597465 1.8074685e-38 299 242
-0.027527334 0.78500003 -0.0027527334 1.7799552e-38 300 242
-0.026084339 0.78299999 -0.0027457199 1.7984304e-38 301 242
-0.024711479 0.78299999 -0.0027457199 1.761661e-38 302 242
-0.023279008 0.78100002 -0.0027387065 1.7340382e-38 303 242
-0.021909652 0.78100002 -0.0027387065 1.6605701e-38 304 242
-0.020513998 0.77999997 -0.0027351999 1.6513505e-38 305 242
-0.0191464 0.77999997 -0.0027351999 1.6146527e-38 306 242
-0.017733213 0.778 -0.0027281865 1.5961777e-38 307 242
-0.01632704 0.77600002 -0.0027211732 1.5869578e-38 308 242
-0.014966453 0.77600002 -0.0027211732 1.5132013e-38 309 242
-0.013605867 0.77600002 -0.0027211732 1.4488448e-38 310 242
-0.01224528 0.77600002 -0.0027211732 1.5686632e-38 311 242
-0.01085664 0.77399999 -0.0027141599 1.6514953e-38 312 242
-0.0094872871 0.773 -0.0027106532 1.6791541e-38 313 242
-0.0081319595 0.773 -0.0027106532 1.6786482e-38 314 242
-0.0067590997 0.77100003 -0.0027036399 1.4389397e-38 315 242
-0.0054072798 0.77100003 -0.0027036399 1.3844132e-38 316 242
-0.0040554604 0.77100003 -0.0027036399 1.5964632e-38 317 242
-0.0027036399 0.77100003 -0.0027036399 1.6604982e-38 318 242
-0.00135182 0.77100003 -0.0027036399 1.6235839e-38 319 242
0 0.76899999 -0.0026966266 1.6881209e-38 320 242
0.0013483133 0.76899999 -0.0026966266 1.7158156e-38 321 242
0.0026966266 0.76899999 -0.0026966266 1.7709875e-38 322 242
0.0040449398 0.76899999 -0.0026966266 1.7802429e-38 323 242
0.0054072798 0.77100003 -0.0027036399 1.835056e-38 324 242
0.0067590997 0.77100003 -0.0027036399 1.6783593e-38 325 242
0.0080898795 0.76899999 -0.0026966266 1.4296844e-38 326 242
0.0094381925 0.76899999 -0.0026966266 1.4296844e-38 327 242
0.01081456 0.77100003 -0.0027036399 1.49487e-38 328 242
0.01216638 0.77100003 -0.0027036399 1.6331635e-38 329 242
0.013553266 0.773 -0.0027106532 1.7155637e-38 330 242
0.014908593 0.773 -0.0027106532 1.6417714e-38 331 242
0.016263919 0.773 -0.0027106532 1.5039817e-38 332 242
0.01764204 0.77399999 -0.0027141599 1.4855786e-38 333 242
0.018999118 0.77399999 -0.0027141599 1.5590789e-38 334 242
0.020356199 0.77399999 -0.0027141599 1.2824919e-38 335 242
0.021769386 0.77600002 -0.0027211732 7.1131283e-39 336 242
0.023189586 0.778 -0.0027281865 5.8223895e-39 337 242
0.024616797 0.77999997 -0.0027351999 4.9094576e-39 338 242
0.025984399 0.77999997 -0.0027351999 9.7032702e-39 339 242
-0.034628332 0.79000002 -0.0041554002 1.9454735e-38 295 243
-0.033201117 0.78899997 -0.0041501396 1.9179227e-38 296 243
-0.031817738 0.78899997 -0.0041501396 1.8718251e-38 297 243
-0.030434359 0.78899997 -0.0041501396 1.7983208e-38 298 243
-0.02897734 0.787 -0.0041396199 1.7890654e-38 299 243
-0.027527334 0.78500003 -0.0041291001 1.6513855e-38 300 243
-0.026150968 0.78500003 -0.0041291001 1.6790442e-38 301 243
-0.024711479 0.78299999 -0.0041185799 1.7432947e-38 302 243
-0.023279008 0.78100002 -0.0041080597 1.7156e-38 303 243
-0.021909652 0.78100002 -0.0041080597 1.6329121e-38 304 243
-0.020513998 0.77999997 -0.0041027996 1.6144369e-38 305 243
-0.0191464 0.77999997 -0.0041027996 1.5777034e-38 306 243
-0.017733213 0.778 -0.0040922803 1.5408253e-38 307 243
-0.01632704 0.77600002 -0.0040817601 1.5133461e-38 308 243
-0.014966453 0.77600002 -0.0040817601 1.4672842e-38 309 243
-0.013605867 0.77600002 -0.0040817601 1.2741416e-38 310 243
-0.01224528 0.77600002 -0.0040817601 1.3847763e-38 311 243
-0.010884693 0.77600002 -0.0040817601 1.5410773e-38 312 243
-0.0094872871 0.773 -0.0040659797 1.6148338e-38 313 243
-0.0081319595 0.773 -0.0040659797 1.7616613e-38 314 243
-0.0067590997 0.77100003 -0.0040554604 1.6879046e-38 315 243
-0.0054072798 0.77100003 -0.0040554604 1.6881915e-38 316 243
-0.0040554604 0.77100003 -0.0040554604 1.6881915e-38 317 243
-0.0027036399 0.77100003 -0.0040554604 1.6328388e-38 318 243
-0.00135182 0.77100003 -0.0040554604 1.6236192e-38 319 243
0 0.76899999 -0.0040449398 1.7341465e-38 320 243
0.0013483133 0.76899999 -0.0040449398 1.7618411e-38 321 243
0.0026966266 0.76899999 -0.0040449398 1.7618764e-38 322 243
0.0040449398 0.76899999 -0.0040449398 1.7618764e-38 323 243
0.0054072798 0.77100003 -0.0040554604 1.761696e-38 324 243
0.0067590997 0.77100003 -0.0040554604 1.7340732e-38 325 243
0.0080898795 0.76899999 -0.0040449398 1.6416618e-38 326 243
0.0094381925 0.76899999 -0.0040449398 1.3466718e-38 327 243
0.01081456 0.77100003 -0.0040554604 1.3290971e-38 328 243
0.01216638 0.77100003 -0.0040554604 1.5504025e-38 329 243
0.013553266 0.773 -0.0040659797 1.6787578e-38 330 243
0.014908593 0.773 -0.0040659797 1.6142209e-38 331 243
0.016263919 0.773 -0.0040659797 1.513165e-38 332 243
0.017619247 0.773 -0.0040659797 1.5039454e-38 333 243
0.018999118 0.77399999 -0.0040712398 1.5130201e-38 334 243
0.020356199 0.77399999 -0.0040712398 1.4577028e-38 335 243
0.021825492 0.778 -0.0040922803 1.4391914e-38 336 243
0.023249198 0.77999997 -0.0041027996 1.448411e-38 337 243
0.024616797 0.77999997 -0.0041027996 1.3564667e-38 338 243
0.025984399 0.77999997 -0.0041027996 1.3564667e-38 339 243
-0.034584496 0.78899997 -0.0055335197 1.927106e-38 295 244
-0.033201117 0.78899997 -0.0055335197 1.9087035e-38 296 244
-0.031817738 0.78899997 -0.0055335197 1.8810449e-38 297 244
-0.03035721 0.787 -0.005519493 1.7431846e-38 298 244
-0.02897734 0.787 -0.005519493 1.5956716e-38 299 244
-0.027527334 0.78500003 -0.0055054668 1.4399119e-38 300 244
-0.026084339 0.78299999 -0.0054914397 1.5689858e-38 301 244
-0.024711479 0.78299999 -0.0054914397 1.7157086e-38 302 244
-0.02333862 0.78299999 -0.0054914397 1.6787944e-38 303 244
-0.021909652 0.78100002 -0.0054774131 1.596106e-38 304 244
-0.020540299 0.78100002 -0.0054774131 1.5868864e-38 305 244
-0.0191464 0.77999997 -0.0054703997 1.5500452e-38 306 244
-0.017733213 0.778 -0.0054563731 1.531606e-38 307 244
-0.01632704 0.77600002 -0.0054423464 1.5501168e-38 308 244
-0.014966453 0.77600002 -0.0054423464 1.5040548e-38 309 244
-0.013605867 0.77600002 -0.0054423464 1.246411e-38 310 244
-0.01224528 0.77600002 -0.0054423464 1.3662294e-38 311 244
-0.010884693 0.77600002 -0.0054423464 1.5593366e-38 312 244
-0.0094872871 0.773 -0.0054213065 1.6238736e-38 313 244
-0.0081319595 0.773 -0.0054213065 1.660535e-38 314 244
-0.0067590997 0.77100003 -0.0054072798 1.6052177e-38 315 244
-0.0054072798 0.77100003 -0.0054072798 1.6145443e-38 316 244
-0.0040554604 0.77100003 -0.0054072798 1.6330193e-38 317 244
-0.0027036399 0.77100003 -0.0054072798 1.7340379e-38 318 244
-0.00135182 0.77100003 -0.0054072798 1.7340379e-38 319 244
0 0.76899999 -0.0053932532 1.7892471e-38 320 244
0.0013483133 0.76899999 -0.0053932532 1.8261612e-38 321 244
0.0026966266 0.76899999 -0.0053932532 1.7526212e-38 322 244
0.0040449398 0.76899999 -0.0053932532 1.7065234e-38 323 244
0.0054072798 0.77100003 -0.0054072798 1.6330193e-38 324 244
0.0067590997 0.77100003 -0.0054072798 1.596141e-38 325 244
0.0081109209 0.77100003 -0.0054072798 1.5960679e-38 326 244
0.0094627403 0.77100003 -0.0054072798 1.4301516e-38 327 244
0.01081456 0.77100003 -0.0054072798 1.3563595e-38 328 244
0.01216638 0.77100003 -0.0054072798 1.4208965e-38 329 244
0.013553266 0.773 -0.0054213065 1.4945456e-38 330 244
0.014908593 0.773 -0.0054213065 1.4668871e-38 331 244
0.016263919 0.773 -0.0054213065 1.448448e-38 332 244
0.017619247 0.773 -0.0054213065 1.4392283e-38 333 244
0.018974574 0.773 -0.0054213065 1.4117865e-38 334 244
0.020356199 0.77399999 -0.0054283198 1.4025669e-38 335 244
0.021769386 0.77600002 -0.0054423464 1.4116066e-38 336 244
0.023189586 0.778 -0.0054563731 1.3931674e-38 337 244
0.024553679 0.778 -0.0054563731 1.3381003e-38 338 244
0.025917772 0.778 -0.0054563731 1.3565753e-38 339 244
-0.034584496 0.78899997 -0.0069168997 1.9179225e-38 295 245
-0.033201117 0.78899997 -0.0069168997 1.8259799e-38 296 245
-0.031817738 0.78899997 -0.0069168997 1.8259799e-38 297 245
-0.03035721 0.787 -0.0068993662 1.6881196e-38 298 245
-0.02897734 0.787 -0.0068993662 1.4576305e-38 299 245
-0.027527334 0.78500003 -0.0068818335 1.3200223e-38 300 245
-0.026084339 0.78299999 -0.0068642995 1.5044136e-38 301 245
-0.024711479 0.78299999 -0.0068642995 1.6880508e-38 302 245
-0.02333862 0.78299999 -0.0068642995 1.6511727e-38 303 245
-0.021909652 0.78100002 -0.0068467669 1.5501887e-38 304 245
-0.020513998 0.77999997 -0.0068379994 1.5317856e-38 305 245
-0.0191464 0.77999997 -0.0068379994 1.5133108e-38 306 245
-0.017733213 0.778 -0.0068204664 1.5133108e-38 307 245
-0.016369121 0.778 -0.0068204664 1.5777034e-38 308 245
-0.014966453 0.77600002 -0.0068029333 1.5131665e-38 309 245
-0.013605867 0.77600002 -0.0068029333 1.1820538e-38 310 245
-0.01224528 0.77600002 -0.0068029333 1.3111277e-38 311 245
-0.010884693 0.77600002 -0.0068029333 1.596071e-38 312 245
-0.0094872871 0.773 -0.0067766332 1.6236938e-38 313 245
-0.0081319595 0.773 -0.0067766332 1.5593722e-38 314 245
-0.0067766332 0.773 -0.0067766332 1.5040548e-38 315 245
-0.0054072798 0.77100003 -0.0067590997 1.5133461e-38 316 245
-0.0040554604 0.77100003 -0.0067590997 1.5594438e-38 317 245
-0.0027036399 0.77100003 -0.0067590997 1.7892474e-38 318 245
-0.00135182 0.77100003 -0.0067590997 1.8537843e-38 319 245
0 0.77100003 -0.0067590997 1.8077571e-38 320 245
0.0013483133 0.76899999 -0.0067415666 1.770879e-38 321 245
0.0026966266 0.76899999 -0.0067415666 1.6514584e-38 322 245
0.0040449398 0.76899999 -0.0067415666 1.6145443e-38 323 245
0.0053932532 0.76899999 -0.0067415666 1.5593717e-38 324 245
0.0067590997 0.77100003 -0.0067590997 1.5409325e-38 325 245
0.0080898795 0.76899999 -0.0067415666 1.5685186e-38 326 245
0.0094381925 0.76899999 -0.0067415666 1.5224208e-38 327 245
0.010786506 0.76899999 -0.0067415666 1.3471402e-38 328 245
0.01216638 0.77100003 -0.0067590997 1.0705534e-38 329 245
0.013518199 0.77100003 -0.0067590997 1.0246708e-38 330 245
0.014908593 0.773 -0.0067766332 1.0707685e-38 331 245
0.016263919 0.773 -0.0067766332 9.8793826e-39 332 245
0.017619247 0.773 -0.0067766332 9.4184044e-39 333 245
0.018974574 0.773 -0.0067766332 1.0896427e-38 334 245
0.020356199 0.77399999 -0.0067853997 1.2371558e-38 335 245
0.021769386 0.77600002 -0.0068029333 1.3748728e-38 336 245
0.023129974 0.77600002 -0.0068029333 1.3380305e-38 337 245
0.024553679 0.778 -0.0068204664 1.3472118e-38 338 245
0.025917772 0.778 -0.0068204664 1.3841261e-38 339 245
-0.033201117 0.78899997 -0.0083002793 1.586812e-38 296 246
-0.031737085 0.787 -0.0082792398 1.586812e-38 297 246
-0.03035721 0.787 -0.0082792398 1.605253e-38 298 246
-0.02897734 0.787 -0.0082792398 1.4946184e-38 299 246
-0.027527334 0.78500003 -0.0082582003 1.411787e-38 300 246
-0.026084339 0.78299999 -0.0082371598 1.4210066e-38 301 246
-0.024711479 0.78299999 -0.0082371598 1.5407903e-38 302 246
-0.02333862 0.78299999 -0.0082371598 1.5776684e-38 303 246
-0.021909652 0.78100002 -0.0082161194 1.5408622e-38 304 246
-0.020513998 0.77999997 -0.0082055992 1.5316426e-38 305 246
-0.0191464 0.77999997 -0.0082055992 1.5040918e-38 306 246
-0.017733213 0.778 -0.0081845606 1.5133114e-38 307 246
-0.01632704 0.77600002 -0.0081635201 1.5961427e-38 308 246
-0.014966453 0.77600002 -0.0081635201 1.5316058e-38 309 246
-0.013605867 0.77600002 -0.0081635201 1.2922567e-38 310 246
-0.01224528 0.77600002 -0.0081635201 1.4305501e-38 311 246
-0.010884693 0.77600002 -0.0081635201 1.6604281e-38 312 246
-0.0094872871 0.773 -0.0081319595 1.6327334e-38 313 246
-0.0081319595 0.773 -0.0081319595 1.4766127e-38 314 246
-0.0067766332 0.773 -0.0081319595 1.3751975e-38 315 246
-0.0054213065 0.773 -0.0081319595 1.412148e-38 316 246
-0.0040659797 0.773 -0.0081319595 1.5135631e-38 317 246
-0.0027106532 0.773 -0.0081319595 1.7893203e-38 318 246
-0.00135182 0.77100003 -0.0081109209 1.7985398e-38 319 246
0 0.77100003 -0.0081109209 1.6324069e-38 320 246
0.0013483133 0.76899999 -0.0080898795 1.5955647e-38 321 246
0.0026966266 0.76899999 -0.0080898795 1.467536e-38 322 246
0.0040449398 0.76899999 -0.0080898795 1.4951587e-38 323 246
0.0053932532 0.76899999 -0.0080898795 1.5133827e-38 324 246
0.0067415666 0.76899999 -0.0080898795 1.5133827e-38 325 246
0.0080898795 0.76899999 -0.0080898795 1.5316055e-38 326 246
0.0094381925 0.76899999 -0.0080898795 1.5684836e-38 327 246
0.010786506 0.76899999 -0.0080898795 1.0525478e-38 328 246
0.012134819 0.76899999 -0.0080898795 1.4095661e-41 329 246
0.013518199 0.77100003 -0.0081109209 5.3249342e-44 330 246
0.014908593 0.773 -0.0081319595 5.3249342e-44 331 246
0.016263919 0.773 -0.0081319595 6.8663625e-44 332 246
0.01764204 0.77399999 -0.0081424797 3.7790217e-39 333 246
0.018999118 0.77399999 -0.0081424797 1.9761265e-39 334 246
0.020356199 0.77399999 -0.0081424797 6.9546891e-39 335 246
0.021769386 0.77600002 -0.0081635201 1.3657611e-38 336 246
0.023129974 0.77600002 -0.0081635201 1.3380666e-38 337 246
0.024553679 0.778 -0.0081845606 1.374691e-38 338 246
0.025917772 0.778 -0.0081845606 1.4484477e-38 339 246
-0.033116959 0.787 -0.0096591124 1.6326224e-38 296 247
-0.031737085 0.787 -0.0096591124 1.6049996e-38 297 247
-0.03035721 0.787 -0.0096591124 1.5867785e-38 298 247
-0.02897734 0.787 -0.0096591124 1.55912e-38 299 247
-0.027527334 0.78500003 -0.0096345674 1.4761087e-38 300 247
-0.026084339 0.78299999 -0.0096100196 1.3654741e-38 301 247
-0.024711479 0.78299999 -0.0096100196 1.3842022e-38 302 247
-0.023279008 0.78100002 -0.0095854728 1.4671783e-38 303 247
-0.021909652 0.78100002 -0.0095854728 1.4857619e-38 304 247
-0.020513998 0.77999997 -0.0095731998 1.4857619e-38 305 247
-0.019097306 0.778 -0.0095486529 1.4949443e-38 306 247
-0.017687626 0.77600002 -0.009524107 1.5133833e-38 307 247
-0.01632704 0.77600002 -0.009524107 1.6327316e-38 308 247
-0.014966453 0.77600002 -0.009524107 1.4944381e-38 309 247
-0.013605867 0.77600002 -0.009524107 1.1357031e-38 310 247
-0.01224528 0.77600002 -0.009524107 1.366228e-38 311 247
-0.010884693 0.77600002 -0.009524107 1.6880152e-38 312 247
-0.0094872871 0.773 -0.0094872871 1.6234788e-38 313 247
-0.0081319595 0.773 -0.0094872871 1.4306241e-38 314 247
-0.0067766332 0.773 -0.0094872871 1.3660872e-38 315 247
-0.0054213065 0.773 -0.0094872871 1.4672855e-38 316 247
-0.0040659797 0.773 -0.0094872871 1.5594812e-38 317 247
-0.0027106532 0.773 -0.0094872871 1.6510265e-38 318 247
-0.00135182 0.77100003 -0.0094627403 1.6325874e-38 319 247
0 0.77100003 -0.0094627403 1.5221326e-38 320 247
0.0013483133 0.76899999 -0.0094381925 1.5036933e-38 321 247
0.0026966266 0.76899999 -0.0094381925 1.5408253e-38 322 247
0.0040449398 0.76899999 -0.0094381925 1.586923e-38 323 247
0.0053932532 0.76899999 -0.0094381925 1.5593366e-38 324 247
0.0067415666 0.76899999 -0.0094381925 1.513239e-38 325 247
0.0080898795 0.76899999 -0.0094381925 1.4949072e-38 326 247
0.0094381925 0.76899999 -0.0094381925 1.4856517e-38 327 247
0.010786506 0.76899999 -0.0094381925 7.6728238e-39 328 247
0.012134819 0.76899999 -0.0094381925 5.8209938e-42 329 247
0.013483133 0.76899999 -0.0094381925 3.9236357e-44 330 247
0.01487002 0.77100003 -0.0094627403 4.3440252e-44 331 247
0.016263919 0.773 -0.0094872871 2.6624671e-44 332 247
0.017619247 0.773 -0.0094872871 3.643376e-44 333 247
0.018999118 0.77399999 -0.0094995592 1.9656742e-39 334 247
0.0204088 0.77600002 -0.009524107 7.8661945e-39 335 247
0.021769386 0.77600002 -0.009524107 1.4300817e-38 336 247
0.023189586 0.778 -0.0095486529 1.3931674e-38 337 247
0.024553679 0.778 -0.0095486529 1.3380653e-38 338 247
-0.033116959 0.787 -0.011038986 1.7246032e-38 296 248
-0.031737085 0.787 -0.011038986 1.6785054e-38 297 248
-0.03035721 0.787 -0.011038986 1.5683764e-38 298 248
-0.02897734 0.787 -0.011038986 1.5683764e-38 299 248
-0.027527334 0.78500003 -0.011010934 1.4854729e-38 300 248
-0.026084339 0.78299999 -0.010982879 1.3840576e-38 301 248
-0.024711479 0.78299999 -0.010982879 1.2737116e-38 302 248
-0.023279008 0.78100002 -0.010954826 1.2921508e-38 303 248
-0.021909652 0.78100002 -0.010954826 1.4121133e-38 304 248
-0.020513998 0.77999997 -0.010940799 1.4674306e-38 305 248
-0.019097306 0.778 -0.010912746 1.5868874e-38 306 248
-0.017687626 0.77600002 -0.010884693 1.5776679e-38 307 248
-0.01632704 0.77600002 -0.010884693 1.4575579e-38 308 248
-0.014966453 0.77600002 -0.010884693 9.6895711e-39 309 248
-0.013605867 0.77600002 -0.010884693 4.4448823e-39 310 248
-0.01224528 0.77600002 -0.010884693 1.0898576e-38 311 248
-0.01085664 0.77399999 -0.01085664 1.6419898e-38 312 248
-0.0094872871 0.773 -0.010842613 1.623551e-38 313 248
-0.0081319595 0.773 -0.010842613 1.4673222e-38 314 248
-0.0067766332 0.773 -0.010842613 1.4212602e-38 315 248
-0.0054213065 0.773 -0.010842613 1.5223863e-38 316 248
-0.0040659797 0.773 -0.010842613 1.5039113e-38 317 248
-0.0027106532 0.773 -0.010842613 1.4846801e-38 318 248
-0.00135182 0.77100003 -0.01081456 1.5584366e-38 319 248
0 0.77100003 -0.01081456 1.651243e-38 320 248
0.0013483133 0.76899999 -0.010786506 1.6235842e-38 321 248
0.0026966266 0.76899999 -0.010786506 1.5773792e-38 322 248
0.0040449398 0.76899999 -0.010786506 1.6142574e-38 323 248
0.0053932532 0.76899999 -0.010786506 1.5500452e-38 324 248
0.0067415666 0.76899999 -0.010786506 1.4855082e-38 325 248
0.0080898795 0.76899999 -0.010786506 1.4212597e-38 326 248
0.0094381925 0.76899999 -0.010786506 1.1815869e-38 327 248
0.010758453 0.76700002 -0.010758453 4.8129586e-39 328 248
0.01210326 0.76700002 -0.010758453 5.8854536e-44 329 248
0.013483133 0.76899999 -0.010786506 1.8553192e-42 330 248
0.01487002 0.77100003 -0.01081456 1.6613767e-39 331 248
0.016263919 0.773 -0.010842613 4.6283347e-40 332 248
0.017619247 0.773 -0.010842613 4.9045446e-44 333 248
0.018999118 0.77399999 -0.01085664 2.5998935e-39 334 248
0.020356199 0.77399999 -0.01085664 9.2379789e-39 335 248
0.021769386 0.77600002 -0.010884693 1.4851823e-38 336 248
0.023189586 0.778 -0.010912746 1.4113899e-38 337 248
-0.033116959 0.787 -0.01241886 1.6971243e-38 296 249
-0.031737085 0.787 -0.01241886 1.641807e-38 297 249
-0.03035721 0.787 -0.01241886 1.5407903e-38 298 249
-0.02897734 0.787 -0.01241886 1.5315707e-38 299 249
-0.027527334 0.78500003 -0.0123873 1.5039842e-38 300 249
-0.026084339 0.78299999 -0.012355739 1.448667e-38 301 249
-0.024711479 0.78299999 -0.012355739 1.365691e-38 302 249
-0.02333862 0.78299999 -0.012355739 1.2918987e-38 303 249
-0.021909652 0.78100002 -0.01232418 1.2923306e-38 304 249
-0.020540299 0.78100002 -0.01232418 1.3660872e-38 305 249
-0.0191464 0.77999997 -0.012308398 1.5221697e-38 306 249
-0.017733213 0.778 -0.012276839 1.2824611e-38 307 249
-0.01632704 0.77600002 -0.01224528 1.0135424e-38 308 249
-0.014966453 0.77600002 -0.01224528 5.6178378e-39 309 249
-0.013605867 0.77600002 -0.01224528 1.6245253e-41 310 249
-0.01221372 0.77399999 -0.01221372 4.2640882e-39 311 249
-0.01085664 0.77399999 -0.01221372 1.0807517e-38 312 249
-0.0094872871 0.773 -0.012197939 1.3942134e-38 313 249
-0.0081319595 0.773 -0.012197939 1.4215844e-38 314 249
-0.0067766332 0.773 -0.012197939 1.3754864e-38 315 249
-0.0054213065 0.773 -0.012197939 1.420971e-38 316 249
-0.0040659797 0.773 -0.012197939 1.4025319e-38 317 249
-0.0027106532 0.773 -0.012197939 1.4485574e-38 318 249
-0.00135182 0.77100003 -0.01216638 1.5223139e-38 319 249
0 0.77100003 -0.01216638 1.6880858e-38 320 249
0.0013483133 0.76899999 -0.012134819 1.6512436e-38 321 249
0.0026966266 0.76899999 -0.012134819 1.5682318e-38 322 249
0.0040449398 0.76899999 -0.012134819 1.5866711e-38 323 249
0.0053932532 0.76899999 -0.012134819 1.4857603e-38 324 249
0.0067415666 0.76899999 -0.012134819 1.3935287e-38 325 249
0.0080898795 0.76899999 -0.012134819 1.2830744e-38 326 249
0.0094381925 0.76899999 -0.012134819 6.5610812e-39 327 249
0.010758453 0.76700002 -0.01210326 1.3131049e-39 328 249
0.01210326 0.76700002 -0.01210326 4.7195732e-42 329 249
0.013448066 0.76700002 -0.01210326 4.6533899e-40 330 249
0.014908593 0.773 -0.012197939 1.2950997e-39 331 249
0.016263919 0.773 -0.012197939 1.8911784e-40 332 249
0.017619247 0.773 -0.012197939 4.0637655e-44 333 249
0.018999118 0.77399999 -0.01221372 5.712183e-40 334 249
0.020356199 0.77399999 -0.01221372 8.8688236e-39 335 249
0.021713279 0.77399999 -0.01221372 1.5035132e-38 336 249
-0.031817738 0.78899997 -0.013833799 1.6417348e-38 297 250
-0.030434359 0.78899997 -0.013833799 1.5132395e-38 298 250
-0.02897734 0.787 -0.013798732 1.4947644e-38 299 250
-0.027527334 0.78500003 -0.013763667 1.4672139e-38 300 250
-0.026150968 0.78500003 -0.013763667 1.4672139e-38 301 250
