# .PCD v.7 - Point Cloud Data file format
FIELDS x y z rgb imX imY
SIZE 4 4 4 4 4 4
TYPE F F F F F F
COUNT 1 1 1 1 1 1
WIDTH 838
HEIGHT 1
VIEWPOINT 0 0 0 1 0 0 0
POINTS 838
DATA ascii
-0.016456785 0.722 -0.012659066 1.8867018e-38 307 250
-0.0151488 0.72000003 -0.012624 1.7307577e-38 308 250
-0.0138864 0.72000003 -0.012624 1.4357676e-38 309 250
-0.012606465 0.71899998 -0.012606465 1.471492e-38 310 250
-0.01134582 0.71899998 -0.012606465 1.6927255e-38 311 250
-0.010099201 0.72000003 -0.012624 1.8126879e-38 312 250
-0.0088245263 0.71899998 -0.012606465 1.8587497e-38 313 250
-0.0075638802 0.71899998 -0.012606465 1.8872336e-38 314 250
-0.0063032326 0.71899998 -0.012606465 1.9886129e-38 315 250
-0.0050285598 0.71700001 -0.0125714 2.015877e-38 316 250
-0.0037714199 0.71700001 -0.0125714 1.8868031e-38 317 250
-0.0025142799 0.71700001 -0.0125714 1.5820559e-38 318 250
-0.00125714 0.71700001 -0.0125714 1.240932e-38 319 250
0 0.71899998 -0.012606465 1.0852772e-38 320 250
0.0012606466 0.71899998 -0.012606465 1.2051315e-38 321 250
0.0025212932 0.71899998 -0.012606465 1.5914877e-38 322 250
0.0037819401 0.71899998 -0.012606465 1.5269508e-38 323 250
0.0050425865 0.71899998 -0.012606465 1.5809714e-38 324 250
0.0063120001 0.72000003 -0.012624 1.5164345e-38 325 250
0.0075743999 0.72000003 -0.012624 1.1945072e-38 326 250
0.0088613462 0.722 -0.012659066 1.3419835e-38 327 250
0.010127253 0.722 -0.012659066 1.378864e-38 328 250
0.01140894 0.72299999 -0.012676599 1.4065585e-38 329 250
0.012799333 0.73000002 -0.012799333 1.4341443e-38 330 250
0.014079267 0.73000002 -0.012799333 1.4249248e-38 331 250
0.01538024 0.73100001 -0.012816866 1.4433286e-38 332 250
0.016707512 0.73299998 -0.012851933 1.3972668e-38 333 250
0.018017253 0.73400003 -0.012869466 1.0563988e-38 334 250
0.019356798 0.736 -0.012904533 1.2315345e-38 335 250
0.020647252 0.736 -0.012904533 1.0137236e-38 336 250
0.021937706 0.736 -0.012904533 1.5392386e-38 337 250
-0.029115854 0.722 -0.013924973 1.1887456e-38 297 251
-0.027849946 0.722 -0.013924973 1.4617307e-38 298 251
-0.026584039 0.722 -0.013924973 1.3971938e-38 299 251
-0.025318133 0.722 -0.013924973 1.6182119e-38 300 251
-0.024085538 0.72299999 -0.01394426 1.8210423e-38 301 251
-0.022786319 0.722 -0.013924973 1.7934202e-38 302 251
-0.021520413 0.722 -0.013924973 1.7104442e-38 303 251
-0.020254506 0.722 -0.013924973 1.7286691e-38 304 251
-0.0189886 0.722 -0.013924973 1.8300483e-38 305 251
-0.017673599 0.72000003 -0.0138864 1.8310602e-38 306 251
-0.0164112 0.72000003 -0.0138864 1.8771939e-38 307 251
-0.01512776 0.71899998 -0.013867113 1.7027752e-38 308 251
-0.013867113 0.71899998 -0.013867113 1.6013602e-38 309 251
-0.0125714 0.71700001 -0.013828539 1.8304802e-38 310 251
-0.01131426 0.71700001 -0.013828539 2.0978475e-38 311 251
-0.010085173 0.71899998 -0.013867113 2.0252779e-38 312 251
-0.0087999795 0.71700001 -0.013828539 1.9884357e-38 313 251
-0.0075428397 0.71700001 -0.013828539 1.9972563e-38 314 251
-0.0062857 0.71700001 -0.013828539 1.8958412e-38 315 251
-0.0050285598 0.71700001 -0.013828539 1.8865145e-38 316 251
-0.00376616 0.71600002 -0.013809253 1.7943187e-38 317 251
-0.0025107733 0.71600002 -0.013809253 1.3334514e-38 318 251
-0.00125714 0.71700001 -0.013828539 9.1860706e-39 319 251
0 0.71700001 -0.013828539 1.260305e-38 320 251
0.00125714 0.71700001 -0.013828539 1.3709398e-38 321 251
0.0025212932 0.71899998 -0.013867113 1.6093508e-38 322 251
0.0037819401 0.71899998 -0.013867113 1.5540334e-38 323 251
0.0050425865 0.71899998 -0.013867113 1.5626399e-38 324 251
0.0063120001 0.72000003 -0.0138864 1.5442008e-38 325 251
0.0075743999 0.72000003 -0.0138864 1.4887765e-38 326 251
0.0088613462 0.722 -0.013924973 1.4795569e-38 327 251
0.010127253 0.722 -0.013924973 1.130655e-38 328 251
0.01148784 0.72799999 -0.014040692 1.2597289e-38 329 251
0.012764266 0.72799999 -0.014040692 1.3792237e-38 330 251
0.014079267 0.73000002 -0.014079267 1.3792237e-38 331 251
0.0153592 0.73000002 -0.014079267 1.4342162e-38 332 251
0.016707512 0.73299998 -0.014137126 1.4065936e-38 333 251
0.018017253 0.73400003 -0.014156413 1.2776658e-38 334 251
0.019304199 0.73400003 -0.014156413 1.231568e-38 335 251
0.020591147 0.73400003 -0.014156413 9.7504561e-39 336 251
0.021878093 0.73400003 -0.014156413 1.3345727e-38 337 251
0.023165042 0.73400003 -0.014156413 1.3648231e-38 338 251
-0.030381758 0.722 -0.015190879 1.5011652e-38 296 252
-0.029115854 0.722 -0.015190879 1.0678816e-38 297 252
-0.027849946 0.722 -0.015190879 1.4978516e-38 298 252
-0.026584039 0.722 -0.015190879 1.636145e-38 299 252
-0.025318133 0.722 -0.015190879 1.6915362e-38 300 252
-0.024085538 0.72299999 -0.015211919 1.7560732e-38 301 252
-0.022786319 0.722 -0.015190879 1.7375993e-38 302 252
-0.021460801 0.72000003 -0.0151488 1.7191242e-38 303 252
-0.020198401 0.72000003 -0.0151488 1.7007927e-38 304 252
-0.018935999 0.72000003 -0.0151488 1.7192678e-38 305 252
-0.017649053 0.71899998 -0.01512776 1.5906273e-38 306 252
-0.016388407 0.71899998 -0.01512776 1.5168708e-38 307 252
-0.015085679 0.71700001 -0.015085679 1.4987205e-38 308 252
-0.013828539 0.71700001 -0.015085679 1.572477e-38 309 252
-0.012553867 0.71600002 -0.01506464 1.8299414e-38 310 252
-0.01129848 0.71600002 -0.01506464 2.06965e-38 311 252
-0.01005712 0.71700001 -0.015085679 1.9880754e-38 312 252
-0.0087999795 0.71700001 -0.015085679 1.9327939e-38 313 252
-0.0075428397 0.71700001 -0.015085679 1.9324674e-38 314 252
-0.0062857 0.71700001 -0.015085679 1.87715e-38 315 252
-0.0050215465 0.71600002 -0.01506464 1.7759875e-38 316 252
-0.00376616 0.71600002 -0.01506464 1.6099994e-38 317 252
-0.0025107733 0.71600002 -0.01506464 1.2506182e-38 318 252
-0.00125714 0.71700001 -0.015085679 7.9896882e-39 319 252
0 0.71700001 -0.015085679 1.3805183e-38 320 252
0.00125714 0.71700001 -0.015085679 1.4542748e-38 321 252
0.0025142799 0.71700001 -0.015085679 1.6181388e-38 322 252
0.0037714199 0.71700001 -0.015085679 1.5628214e-38 323 252
0.0050285598 0.71700001 -0.015085679 1.5442005e-38 324 252
0.0063032326 0.71899998 -0.01512776 1.5165777e-38 325 252
0.0075638802 0.71899998 -0.01512776 1.5162904e-38 326 252
0.0088367993 0.72000003 -0.0151488 1.4978513e-38 327 252
0.010099201 0.72000003 -0.0151488 1.2224541e-38 328 252
0.01148784 0.72799999 -0.01531712 1.286991e-38 329 252
0.012764266 0.72799999 -0.01531712 1.2506901e-38 330 252
0.014079267 0.73000002 -0.0153592 1.296824e-38 331 252
0.0153592 0.73000002 -0.0153592 1.3975555e-38 332 252
0.016707512 0.73299998 -0.015422319 1.3790803e-38 333 252
0.018017253 0.73400003 -0.01544336 1.3423122e-38 334 252
0.019304199 0.73400003 -0.01544336 1.3146535e-38 335 252
0.020591147 0.73400003 -0.01544336 1.1303734e-38 336 252
0.021878093 0.73400003 -0.01544336 1.1303734e-38 337 252
0.023165042 0.73400003 -0.01544336 1.1051616e-38 338 252
-0.031647664 0.722 -0.016456785 1.2995971e-38 295 253
-0.030381758 0.722 -0.016456785 1.3424532e-38 296 253
-0.029115854 0.722 -0.016456785 1.6006009e-38 297 253
-0.027849946 0.722 -0.016456785 1.7110186e-38 298 253
-0.026584039 0.722 -0.016456785 1.5819448e-38 299 253
-0.025318133 0.722 -0.016456785 1.6913548e-38 300 253
-0.024052227 0.722 -0.016456785 1.6729156e-38 301 253
-0.022786319 0.722 -0.016456785 1.7097563e-38 302 253
-0.021460801 0.72000003 -0.0164112 1.7466346e-38 303 253
-0.020198401 0.72000003 -0.0164112 1.6825674e-38 304 253
-0.018909698 0.71899998 -0.016388407 1.6640924e-38 305 253
-0.017599959 0.71700001 -0.016342819 1.2397792e-38 306 253
-0.016342819 0.71700001 -0.016342819 1.1479437e-38 307 253
-0.01506464 0.71600002 -0.016320027 1.4616604e-38 308 253
-0.013809253 0.71600002 -0.016320027 1.5630757e-38 309 253
-0.012553867 0.71600002 -0.016320027 1.7193047e-38 310 253
-0.01129848 0.71600002 -0.016320027 1.7377438e-38 311 253
-0.010043093 0.71600002 -0.016320027 1.6827857e-38 312 253
-0.0087877065 0.71600002 -0.016320027 1.7473226e-38 313 253
-0.00753232 0.71600002 -0.016320027 1.7485799e-38 314 253
-0.0062769335 0.71600002 -0.016320027 1.6472007e-38 315 253
-0.0050215465 0.71600002 -0.016320027 1.6376587e-38 316 253
-0.00376616 0.71600002 -0.016320027 1.6284391e-38 317 253
-0.0025107733 0.71600002 -0.016320027 1.2420821e-38 318 253
-0.0012553866 0.71600002 -0.016320027 7.350427e-39 319 253
0 0.71600002 -0.016320027 1.4362673e-38 320 253
0.00125714 0.71700001 -0.016342819 1.4362673e-38 321 253
0.0025142799 0.71700001 -0.016342819 1.5905173e-38 322 253
0.0037714199 0.71700001 -0.016342819 1.489138e-38 323 253
0.0050285598 0.71700001 -0.016342819 1.525692e-38 324 253
0.0063032326 0.71899998 -0.016388407 1.5072527e-38 325 253
0.0075638802 0.71899998 -0.016388407 1.4980332e-38 326 253
0.0088245263 0.71899998 -0.016388407 1.4980332e-38 327 253
0.010085173 0.71899998 -0.016388407 1.4153825e-38 328 253
0.01134582 0.71899998 -0.016388407 1.3508456e-38 329 253
0.012606465 0.71899998 -0.016388407 1.0851703e-38 330 253
0.014040692 0.72799999 -0.016593546 1.1589268e-38 331 253
0.01531712 0.72799999 -0.016593546 1.3604621e-38 332 253
0.016639132 0.73000002 -0.016639132 1.3973402e-38 333 253
0.017919067 0.73000002 -0.016639132 1.3515298e-38 334 253
0.019304199 0.73400003 -0.016730307 1.3422744e-38 335 253
0.020563092 0.73299998 -0.016707512 1.2779178e-38 336 253
0.021848286 0.73299998 -0.016707512 1.0566124e-38 337 253
0.023133477 0.73299998 -0.016707512 9.6557143e-39 338 253
0.024418673 0.73299998 -0.016707512 1.8506496e-38 339 253
-0.032913569 0.722 -0.017722692 1.4189104e-38 294 254
-0.031647664 0.722 -0.017722692 1.1884212e-38 295 254
-0.030381758 0.722 -0.017722692 1.5731957e-38 296 254
-0.029115854 0.722 -0.017722692 1.7207086e-38 297 254
-0.027772799 0.72000003 -0.017673599 1.7760635e-38 298 254
-0.026510401 0.72000003 -0.017673599 1.7575885e-38 299 254
-0.025318133 0.722 -0.017722692 1.8307655e-38 300 254
-0.0239856 0.72000003 -0.017673599 1.6832523e-38 301 254
-0.022723202 0.72000003 -0.017673599 1.710044e-38 302 254
-0.021430992 0.71899998 -0.017649053 1.691569e-38 303 254
-0.020170346 0.71899998 -0.017649053 1.5996626e-38 304 254
-0.018857099 0.71700001 -0.017599959 1.5259061e-38 305 254
-0.017599959 0.71700001 -0.017599959 1.221807e-38 306 254
-0.016320027 0.71600002 -0.017575413 1.1388319e-38 307 254
-0.01506464 0.71600002 -0.017575413 1.5538912e-38 308 254
-0.01377068 0.71399999 -0.017526319 1.5907693e-38 309 254
-0.012518799 0.71399999 -0.017526319 1.6917886e-38 310 254
-0.011266919 0.71399999 -0.017526319 1.6917886e-38 311 254
-0.010043093 0.71600002 -0.017575413 1.6732784e-38 312 254
-0.0087877065 0.71600002 -0.017575413 1.8208275e-38 313 254
-0.00753232 0.71600002 -0.017575413 1.7755922e-38 314 254
-0.0062769335 0.71600002 -0.017575413 1.6465183e-38 315 254
-0.0050215465 0.71600002 -0.017575413 1.646591e-38 316 254
-0.00376616 0.71600002 -0.017575413 1.748006e-38 317 254
-0.0025107733 0.71600002 -0.017575413 1.1960564e-38 318 254
-0.0012553866 0.71600002 -0.017575413 7.0745618e-39 319 254
0 0.71600002 -0.017575413 1.4821853e-38 320 254
0.0012553866 0.71600002 -0.017575413 1.4361234e-38 321 254
0.0025107733 0.71600002 -0.017575413 1.5444198e-38 322 254
0.0037714199 0.71700001 -0.017599959 1.4798829e-38 323 254
0.0050285598 0.71700001 -0.017599959 1.5164369e-38 324 254
0.0062857 0.71700001 -0.017599959 1.5072172e-38 325 254
0.0075638802 0.71899998 -0.017649053 1.4705184e-38 326 254
0.0088245263 0.71899998 -0.017649053 1.4612988e-38 327 254
0.010085173 0.71899998 -0.017649053 1.4061985e-38 328 254
0.01134582 0.71899998 -0.017649053 1.4061985e-38 329 254
0.012676599 0.72299999 -0.017747238 1.16768e-38 330 254
0.01394426 0.72299999 -0.017747238 1.1860831e-38 331 254
0.01531712 0.72799999 -0.017869972 1.1955195e-38 332 254
0.016639132 0.73000002 -0.017919067 1.204739e-38 333 254
0.017919067 0.73000002 -0.017919067 1.2963939e-38 334 254
0.019277899 0.73299998 -0.017992707 1.2779548e-38 335 254
0.020506985 0.73100001 -0.017943613 1.2778456e-38 336 254
0.021788673 0.73100001 -0.017943613 1.038101e-38 337 254
0.02307036 0.73100001 -0.017943613 1.0010082e-38 338 254
0.024352046 0.73100001 -0.017943613 2.0054743e-38 339 254
0.025703866 0.73299998 -0.017992707 1.7056557e-38 340 254
-0.032913569 0.722 -0.0189886 1.0395066e-38 294 255
-0.031647664 0.722 -0.0189886 1.389814e-38 295 255
-0.030381758 0.722 -0.0189886 1.8691221e-38 296 255
-0.029035201 0.72000003 -0.018935999 1.9428786e-38 297 255
-0.027772799 0.72000003 -0.018935999 1.9335518e-38 298 255
-0.026510401 0.72000003 -0.018935999 1.951991e-38 299 255
-0.025248 0.72000003 -0.018935999 1.9977291e-38 300 255
-0.0239856 0.72000003 -0.018935999 1.8409965e-38 301 255
-0.022691639 0.71899998 -0.018909698 1.7660153e-38 302 255
-0.021371379 0.71700001 -0.018857099 1.6277217e-38 303 255
-0.020114239 0.71700001 -0.018857099 1.4891027e-38 304 255
-0.018857099 0.71700001 -0.018857099 1.1940408e-38 305 255
-0.017575413 0.71600002 -0.0188308 1.2405335e-38 306 255
-0.016320027 0.71600002 -0.0188308 1.3603878e-38 307 255
-0.015022559 0.71399999 -0.018778199 1.6368303e-38 308 255
-0.01377068 0.71399999 -0.018778199 1.6368303e-38 309 255
-0.012518799 0.71399999 -0.018778199 1.6640939e-38 310 255
-0.011266919 0.71399999 -0.018778199 1.6733135e-38 311 255
-0.010043093 0.71600002 -0.0188308 1.6919331e-38 312 255
-0.0087877065 0.71600002 -0.0188308 1.7840928e-38 313 255
-0.00753232 0.71600002 -0.0188308 1.7293501e-38 314 255
-0.0062593995 0.71399999 -0.018778199 1.6371547e-38 315 255
-0.0050075199 0.71399999 -0.018778199 1.6560628e-38 316 255
-0.0037556398 0.71399999 -0.018778199 1.7482225e-38 317 255
-0.0025037599 0.71399999 -0.018778199 1.1869097e-38 318 255
-0.00125188 0.71399999 -0.018778199 8.826283e-39 319 255
0 0.71399999 -0.018778199 1.5190639e-38 320 255
0.0012553866 0.71600002 -0.0188308 1.4545269e-38 321 255
0.0025107733 0.71600002 -0.0188308 1.5352002e-38 322 255
0.00376616 0.71600002 -0.0188308 1.4891024e-38 323 255
0.0050215465 0.71600002 -0.0188308 1.488958e-38 324 255
0.0062857 0.71700001 -0.018857099 1.4705187e-38 325 255
0.0075428397 0.71700001 -0.018857099 1.4429323e-38 326 255
0.0087999795 0.71700001 -0.018857099 1.4429323e-38 327 255
0.01005712 0.71700001 -0.018857099 1.3971234e-38 328 255
0.01134582 0.71899998 -0.018909698 1.4063431e-38 329 255
0.012659066 0.722 -0.0189886 1.2228172e-38 330 255
0.01394426 0.72299999 -0.019014901 1.1398411e-38 331 255
0.015254001 0.72500002 -0.0190675 1.0760967e-38 332 255
0.016593546 0.72799999 -0.0191464 1.112975e-38 333 255
0.017919067 0.73000002 -0.019199001 1.2779192e-38 334 255
0.019199001 0.73000002 -0.019199001 1.2502964e-38 335 255
0.020506985 0.73100001 -0.019225299 1.2594065e-38 336 255
0.021788673 0.73100001 -0.019225299 1.0565761e-38 337 255
0.02307036 0.73100001 -0.019225299 1.0469263e-38 338 255
0.024352046 0.73100001 -0.019225299 1.9315379e-38 339 255
0.025633732 0.73100001 -0.019225299 1.5858017e-38 340 255
0.026915418 0.73100001 -0.019225299 1.7978518e-38 341 255
-0.032913569 0.722 -0.020254506 1.2961068e-38 294 256
-0.031647664 0.722 -0.020254506 1.7109872e-38 295 256
-0.0302976 0.72000003 -0.020198401 1.9520984e-38 296 256
-0.029035201 0.72000003 -0.020198401 1.961318e-38 297 256
-0.027772799 0.72000003 -0.020198401 1.9335521e-38 298 256
-0.026510401 0.72000003 -0.020198401 1.9427717e-38 299 256
-0.025248 0.72000003 -0.020198401 2.0253515e-38 300 256
-0.023952285 0.71899998 -0.020170346 1.9054611e-38 301 256
-0.02262852 0.71700001 -0.020114239 1.7482957e-38 302 256
-0.021341572 0.71600002 -0.020086186 1.5177707e-38 303 256
-0.020086186 0.71600002 -0.020086186 1.3782534e-38 304 256
-0.0188308 0.71600002 -0.020086186 1.0469247e-38 305 256
-0.017526319 0.71399999 -0.020030079 1.3235822e-38 306 256
-0.016274439 0.71399999 -0.020030079 1.4526561e-38 307 256
-0.015022559 0.71399999 -0.020030079 1.6182838e-38 308 256
-0.013751393 0.713 -0.020002026 1.6090642e-38 309 256
-0.012501267 0.713 -0.020002026 1.6272517e-38 310 256
-0.011266919 0.71399999 -0.020030079 1.6548744e-38 311 256
-0.01001504 0.71399999 -0.020030079 1.6367228e-38 312 256
-0.0087631596 0.71399999 -0.020030079 1.6828204e-38 313 256
-0.0075112795 0.71399999 -0.020030079 1.6738161e-38 314 256
-0.0062593995 0.71399999 -0.020030079 1.6092792e-38 315 256
-0.0050075199 0.71399999 -0.020030079 1.5911307e-38 316 256
-0.0037556398 0.71399999 -0.020030079 1.6556676e-38 317 256
-0.0025037599 0.71399999 -0.020030079 1.1776552e-38 318 256
-0.00125188 0.71399999 -0.020030079 1.0393617e-38 319 256
0 0.71399999 -0.020030079 1.5191367e-38 320 256
0.00125188 0.71399999 -0.020030079 1.4269052e-38 321 256
0.0025037599 0.71399999 -0.020030079 1.4891027e-38 322 256
0.00376616 0.71600002 -0.020086186 1.4706636e-38 323 256
0.0050215465 0.71600002 -0.020086186 1.4521519e-38 324 256
0.0062769335 0.71600002 -0.020086186 1.4429323e-38 325 256
0.00753232 0.71600002 -0.020086186 1.4154181e-38 326 256
0.0087999795 0.71700001 -0.020114239 1.4061985e-38 327 256
0.01005712 0.71700001 -0.020114239 1.3696089e-38 328 256
0.01131426 0.71700001 -0.020114239 1.3880482e-38 329 256
0.012624 0.72000003 -0.020198401 1.2321091e-38 330 256
0.01394426 0.72299999 -0.020282559 1.1214743e-38 331 256
0.015211919 0.72299999 -0.020282559 1.0482946e-38 332 256
0.016525166 0.72500002 -0.020338668 1.0943564e-38 333 256
0.017869972 0.72799999 -0.020422826 1.2134901e-38 334 256
0.019199001 0.73000002 -0.020478934 1.2042706e-38 335 256
0.020506985 0.73100001 -0.020506985 1.2226721e-38 336 256
0.021788673 0.73100001 -0.020506985 1.0567559e-38 337 256
0.02307036 0.73100001 -0.020506985 1.05611e-38 338 256
0.024352046 0.73100001 -0.020506985 1.7748055e-38 339 256
0.025633732 0.73100001 -0.020506985 1.5577474e-38 340 256
0.026915418 0.73100001 -0.020506985 1.8803962e-38 341 256
-0.035445385 0.722 -0.021520413 1.3173528e-38 292 257
-0.034179479 0.722 -0.021520413 7.2730081e-39 293 257
-0.0328224 0.72000003 -0.021460801 1.4340402e-38 294 257
-0.03156 0.72000003 -0.021460801 1.7936392e-38 295 257
-0.0302976 0.72000003 -0.021460801 1.8685829e-38 296 257
-0.029035201 0.72000003 -0.021460801 1.8685829e-38 297 257
-0.027772799 0.72000003 -0.021460801 1.8134082e-38 298 257
-0.02647358 0.71899998 -0.021430992 1.8318473e-38 299 257
-0.025212931 0.71899998 -0.021430992 1.9144248e-38 300 257
-0.02388566 0.71700001 -0.021371379 1.8130096e-38 301 257
-0.022596961 0.71600002 -0.021341572 1.7296014e-38 302 257
-0.021341572 0.71600002 -0.021341572 1.5175875e-38 303 257
-0.020030079 0.71399999 -0.021281958 1.2677257e-38 304 257
-0.018778199 0.71399999 -0.021281958 1.0652918e-38 305 257
-0.017526319 0.71399999 -0.021281958 1.3605324e-38 306 257
-0.016274439 0.71399999 -0.021281958 1.4896062e-38 307 257
-0.015022559 0.71399999 -0.021281958 1.5720428e-38 308 257
-0.013751393 0.713 -0.021252153 1.5536396e-38 309 257
-0.012501267 0.713 -0.021252153 1.5995573e-38 310 257
-0.011266919 0.71399999 -0.021281958 1.5995573e-38 311 257
-0.01001504 0.71399999 -0.021281958 1.6089921e-38 312 257
-0.0087631596 0.71399999 -0.021281958 1.6366147e-38 313 257
-0.0075007593 0.713 -0.021252153 1.6275033e-38 314 257
-0.0062506334 0.713 -0.021252153 1.5998088e-38 315 257
-0.0050005065 0.713 -0.021252153 1.5264494e-38 316 257
-0.0037503797 0.713 -0.021252153 1.4803516e-38 317 257
-0.0025002533 0.713 -0.021252153 1.0578715e-38 318 257
-0.0012501266 0.713 -0.021252153 1.0947138e-38 319 257
0 0.713 -0.021252153 1.5375398e-38 320 257
0.00125188 0.71399999 -0.021281958 1.4361248e-38 321 257
0.0025037599 0.71399999 -0.021281958 1.4521891e-38 322 257
0.0037556398 0.71399999 -0.021281958 1.4521891e-38 323 257
0.0050215465 0.71600002 -0.021341572 1.4429689e-38 324 257
0.0062769335 0.71600002 -0.021341572 1.4153462e-38 325 257
0.00753232 0.71600002 -0.021341572 1.3695005e-38 326 257
0.0087999795 0.71700001 -0.021371379 1.3695005e-38 327 257
0.01005712 0.71700001 -0.021371379 1.3145437e-38 328 257
0.01131426 0.71700001 -0.021371379 1.3422025e-38 329 257
0.012606465 0.71899998 -0.021430992 1.2413286e-38 330 257
0.013924973 0.722 -0.021520413 1.1675721e-38 331 257
0.015211919 0.72299999 -0.021550218 1.0573342e-38 332 257
0.016525166 0.72500002 -0.021609833 1.0665538e-38 333 257
0.017845426 0.727 -0.021669446 1.1765762e-38 334 257
0.0191464 0.72799999 -0.021699252 1.1857959e-38 335 257
0.020506985 0.73100001 -0.021788673 1.2134529e-38 336 257
0.021788673 0.73100001 -0.021788673 1.1212572e-38 337 257
0.02307036 0.73100001 -0.021788673 1.074478e-38 338 257
0.024352046 0.73100001 -0.021788673 1.6092126e-38 339 257
0.025633732 0.73100001 -0.021788673 1.520761e-38 340 257
0.026915418 0.73100001 -0.021788673 1.9172022e-38 341 257
-0.03671129 0.722 -0.022786319 1.6870378e-38 291 258
-0.034084801 0.72000003 -0.022723202 8.1820108e-39 293 258
-0.0328224 0.72000003 -0.022723202 1.4707727e-38 294 258
-0.03156 0.72000003 -0.022723202 1.5629684e-38 295 258
-0.0302976 0.72000003 -0.022723202 1.6089939e-38 296 258
-0.028994869 0.71899998 -0.022691639 1.5628962e-38 297 258
-0.027734226 0.71899998 -0.022691639 1.5627863e-38 298 258
-0.02647358 0.71899998 -0.022691639 1.5720059e-38 299 258
-0.025212931 0.71899998 -0.022691639 1.5628917e-38 300 258
-0.02388566 0.71700001 -0.02262852 1.5721113e-38 301 258
-0.022596961 0.71600002 -0.022596961 1.5538172e-38 302 258
-0.021281958 0.71399999 -0.022533838 1.4800607e-38 303 258
-0.020002026 0.713 -0.022502279 1.1575221e-38 304 258
-0.018751899 0.713 -0.022502279 1.0561441e-38 305 258
-0.017526319 0.71399999 -0.022533838 1.3423803e-38 306 258
-0.016251646 0.713 -0.022502279 1.4345759e-38 307 258
-0.015001519 0.713 -0.022502279 1.5442399e-38 308 258
-0.013751393 0.713 -0.022502279 1.5626791e-38 309 258
-0.012501267 0.713 -0.022502279 1.5627145e-38 310 258
-0.011251139 0.713 -0.022502279 1.5534949e-38 311 258
-0.010001013 0.713 -0.022502279 1.5903008e-38 312 258
-0.0087263398 0.71100003 -0.022439159 1.60874e-38 313 258
-0.0074797203 0.71100003 -0.022439159 1.5998088e-38 314 258
-0.0062330998 0.71100003 -0.022439159 1.5998088e-38 315 258
-0.0049794666 0.70999998 -0.022407599 1.4434735e-38 316 258
-0.0037345996 0.70999998 -0.022407599 1.1945093e-38 317 258
-0.0024897333 0.70999998 -0.022407599 8.0876319e-39 318 258
-0.00124662 0.71100003 -0.022439159 1.0576914e-38 319 258
0 0.71100003 -0.022439159 1.5189935e-38 320 258
0.0012501266 0.713 -0.022502279 1.3991392e-38 321 258
0.0025002533 0.713 -0.022502279 1.4429341e-38 322 258
0.0037556398 0.71399999 -0.022533838 1.4244951e-38 323 258
0.0050075199 0.71399999 -0.022533838 1.3971587e-38 324 258
0.0062593995 0.71399999 -0.022533838 1.3971587e-38 325 258
0.00753232 0.71600002 -0.022596961 1.3512411e-38 326 258
0.0087877065 0.71600002 -0.022596961 1.3512411e-38 327 258
0.010043093 0.71600002 -0.022596961 1.3145434e-38 328 258
0.01131426 0.71700001 -0.02262852 1.3237988e-38 329 258
0.012606465 0.71899998 -0.022691639 1.222745e-38 330 258
0.013924973 0.722 -0.022786319 1.1858666e-38 331 258
0.015211919 0.72299999 -0.02281788 1.0664809e-38 332 258
0.01647958 0.72299999 -0.02281788 1.0111635e-38 333 258
0.017796334 0.72500002 -0.022880999 1.1489885e-38 334 258
0.0191464 0.72799999 -0.022975679 1.1950863e-38 335 258
0.020506985 0.73100001 -0.02307036 1.1951932e-38 336 258
0.021788673 0.73100001 -0.02307036 1.158315e-38 337 258
0.02307036 0.73100001 -0.02307036 1.1025683e-38 338 258
0.024352046 0.73100001 -0.02307036 1.5266682e-38 339 258
0.025598666 0.73000002 -0.023038799 1.5115051e-38 340 258
0.026878599 0.73000002 -0.023038799 1.9079463e-38 341 258
0.028158534 0.73000002 -0.023038799 1.7794122e-38 342 258
-0.0379772 0.722 -0.024052227 1.7146958e-38 290 259
-0.03671129 0.722 -0.024052227 1.3551688e-38 291 259
-0.035445385 0.722 -0.024052227 1.1492772e-38 292 259
-0.034084801 0.72000003 -0.0239856 1.1400576e-38 293 259
-0.0328224 0.72000003 -0.0239856 1.4618385e-38 294 259
-0.03156 0.72000003 -0.0239856 1.4157405e-38 295 259
-0.030255521 0.71899998 -0.023952285 1.507108e-38 296 259
-0.028994869 0.71899998 -0.023952285 1.4794494e-38 297 259
-0.027734226 0.71899998 -0.023952285 1.4701218e-38 298 259
-0.02647358 0.71899998 -0.023952285 1.4701218e-38 299 259
-0.0251428 0.71700001 -0.02388566 1.4427152e-38 300 259
-0.02388566 0.71700001 -0.02388566 1.4980326e-38 301 259
-0.022596961 0.71600002 -0.023852346 1.4338574e-38 302 259
-0.021281958 0.71399999 -0.02378572 1.3416616e-38 303 259
-0.020002026 0.713 -0.023752406 1.0933805e-38 304 259
-0.018751899 0.713 -0.023752406 1.1210032e-38 305 259
-0.017501773 0.713 -0.023752406 1.379186e-38 306 259
-0.016251646 0.713 -0.023752406 1.4253198e-38 307 259
-0.015001519 0.713 -0.023752406 1.516761e-38 308 259
-0.013751393 0.713 -0.023752406 1.5259807e-38 309 259
-0.0124662 0.71100003 -0.023685781 1.5259084e-38 310 259
-0.01121958 0.71100003 -0.023685781 1.5259084e-38 311 259
-0.0099729598 0.71100003 -0.023685781 1.5535315e-38 312 259
-0.0087263398 0.71100003 -0.023685781 1.5720065e-38 313 259
-0.0074797203 0.71100003 -0.023685781 1.5446705e-38 314 259
-0.0062330998 0.71100003 -0.023685781 1.5630737e-38 315 259
-0.0049794666 0.70999998 -0.023652466 1.4248895e-38 316 259
-0.0037345996 0.70999998 -0.023652466 1.1022053e-38 317 259
-0.0024897333 0.70999998 -0.023652466 7.0724192e-39 318 259
-0.0012448666 0.70999998 -0.023652466 9.1929201e-39 319 259
0 0.71100003 -0.023685781 1.3893818e-38 320 259
0.00124662 0.71100003 -0.023685781 1.3433199e-38 321 259
0.0024932399 0.71100003 -0.023685781 1.4060916e-38 322 259
0.0037398601 0.71100003 -0.023685781 1.4153112e-38 323 259
0.0050005065 0.713 -0.023752406 1.3970866e-38 324 259
0.0062506334 0.713 -0.023752406 1.4063061e-38 325 259
0.0075112795 0.71399999 -0.02378572 1.3696443e-38 326 259
0.0087877065 0.71600002 -0.023852346 1.3512411e-38 327 259
0.010043093 0.71600002 -0.023852346 1.2962124e-38 328 259
0.01129848 0.71600002 -0.023852346 1.2869929e-38 329 259
0.012606465 0.71899998 -0.023952285 1.2501513e-38 330 259
0.0138864 0.72000003 -0.0239856 1.2040894e-38 331 259
0.015190879 0.722 -0.024052227 1.1030346e-38 332 259
0.01647958 0.72299999 -0.024085538 1.093815e-38 333 259
0.017747238 0.72299999 -0.024085538 1.0942102e-38 334 259
0.0191464 0.72799999 -0.024252106 1.1310526e-38 335 259
0.020478934 0.73000002 -0.024318734 1.1861537e-38 336 259
0.021788673 0.73100001 -0.024352046 1.1677148e-38 337 259
0.02307036 0.73100001 -0.024352046 1.1397705e-38 338 259
0.024352046 0.73100001 -0.024352046 1.4993695e-38 339 259
0.025598666 0.73000002 -0.024318734 1.5023572e-38 340 259
0.026878599 0.73000002 -0.024318734 1.8803592e-38 341 259
0.028158534 0.73000002 -0.024318734 1.7611166e-38 342 259
-0.0379772 0.722 -0.025318133 1.493102e-38 290 260
-0.03671129 0.722 -0.025318133 8.2010993e-39 291 260
-0.035445385 0.722 -0.025318133 1.1857597e-38 292 260
-0.034084801 0.72000003 -0.025248 1.3240533e-38 293 260
-0.0328224 0.72000003 -0.025248 1.4892099e-38 294 260
-0.031516165 0.71899998 -0.025212931 1.4707349e-38 295 260
-0.030255521 0.71899998 -0.025212931 1.5165441e-38 296 260
-0.028994869 0.71899998 -0.025212931 1.5073245e-38 297 260
-0.027657079 0.71700001 -0.0251428 1.5164722e-38 298 260
-0.02639994 0.71700001 -0.0251428 1.5164722e-38 299 260
-0.0251428 0.71700001 -0.0251428 1.4890296e-38 300 260
-0.023852346 0.71600002 -0.025107734 1.4890296e-38 301 260
-0.022596961 0.71600002 -0.025107734 1.3695005e-38 302 260
-0.021252153 0.713 -0.025002534 1.1758897e-38 303 260
-0.01994592 0.71100003 -0.024932399 1.0659029e-38 304 260
-0.0186993 0.71100003 -0.024932399 1.1673182e-38 305 260
-0.01745268 0.71100003 -0.024932399 1.4157775e-38 306 260
-0.01620606 0.71100003 -0.024932399 1.4434361e-38 307 260
-0.014959441 0.71100003 -0.024932399 1.5073974e-38 308 260
-0.01371282 0.71100003 -0.024932399 1.5073974e-38 309 260
-0.0124662 0.71100003 -0.024932399 1.5165087e-38 310 260
-0.01121958 0.71100003 -0.024932399 1.5072892e-38 311 260
-0.0099729598 0.71100003 -0.024932399 1.5258355e-38 312 260
-0.0087263398 0.71100003 -0.024932399 1.5350909e-38 313 260
-0.0074797203 0.71100003 -0.024932399 1.5353428e-38 314 260
-0.0062330998 0.71100003 -0.024932399 1.5630014e-38 315 260
-0.0049794666 0.70999998 -0.024897331 1.3882639e-38 316 260
-0.00372408 0.708 -0.024827199 1.1393357e-38 317 260
-0.00248272 0.708 -0.024827199 8.3645944e-39 318 260
-0.0012448666 0.70999998 -0.024897331 8.0876473e-39 319 260
0 0.71100003 -0.024932399 1.2693466e-38 320 260
0.00124662 0.71100003 -0.024932399 1.2785662e-38 321 260
0.0024932399 0.71100003 -0.024932399 1.4061629e-38 322 260
0.0037398601 0.71100003 -0.024932399 1.4153825e-38 323 260
0.0049864799 0.71100003 -0.024932399 1.397374e-38 324 260
0.0062506334 0.713 -0.025002534 1.4342162e-38 325 260
0.0075007593 0.713 -0.025002534 1.3331254e-38 326 260
0.0087631596 0.71399999 -0.025037598 1.3055026e-38 327 260
0.010043093 0.71600002 -0.025107734 1.2869207e-38 328 260
0.01129848 0.71600002 -0.025107734 1.2777011e-38 329 260
0.0125714 0.71700001 -0.0251428 1.2134161e-38 330 260
0.0138864 0.72000003 -0.025248 1.1949412e-38 331 260
0.015190879 0.722 -0.025318133 1.0481844e-38 332 260
0.01647958 0.72299999 -0.025353199 1.0021225e-38 333 260
0.017747238 0.72299999 -0.025353199 1.1129732e-38 334 260
0.0191464 0.72799999 -0.025528532 1.1037535e-38 335 260
0.020478934 0.73000002 -0.025598666 1.1862616e-38 336 260
0.021788673 0.73100001 -0.025633732 1.1770421e-38 337 260
0.02307036 0.73100001 -0.025633732 1.1582819e-38 338 260
0.024352046 0.73100001 -0.025633732 1.5086253e-38 339 260
0.025633732 0.73100001 -0.025633732 1.4747708e-38 340 260
0.026878599 0.73000002 -0.025598666 1.871212e-38 341 260
0.028158534 0.73000002 -0.025598666 1.7794478e-38 342 260
-0.039297458 0.72299999 -0.026620859 1.8529889e-38 289 261
-0.0379772 0.722 -0.026584039 1.3633795e-38 290 261
-0.03671129 0.722 -0.026584039 5.5209394e-39 291 261
-0.035445385 0.722 -0.026584039 1.2681589e-38 292 261
-0.034084801 0.72000003 -0.026510401 1.4341108e-38 293 261
-0.0328224 0.72000003 -0.026510401 1.4524758e-38 294 261
-0.031516165 0.71899998 -0.02647358 1.4524758e-38 295 261
-0.030255521 0.71899998 -0.02647358 1.4524037e-38 296 261
-0.028914221 0.71700001 -0.02639994 1.4431841e-38 297 261
-0.027657079 0.71700001 -0.02639994 1.4614435e-38 298 261
-0.02639994 0.71700001 -0.02639994 1.4614435e-38 299 261
-0.0251428 0.71700001 -0.02639994 1.4523668e-38 300 261
-0.023852346 0.71600002 -0.026363119 1.4339276e-38 301 261
-0.022533838 0.71399999 -0.026289478 1.3601725e-38 302 261
-0.021252153 0.713 -0.026252659 1.0561082e-38 303 261
-0.01994592 0.71100003 -0.026179021 9.4655189e-39 304 261
-0.0186993 0.71100003 -0.026179021 1.1678573e-38 305 261
-0.01745268 0.71100003 -0.026179021 1.4340725e-38 306 261
-0.01620606 0.71100003 -0.026179021 1.4340725e-38 307 261
-0.014959441 0.71100003 -0.026179021 1.4706636e-38 308 261
-0.01371282 0.71100003 -0.026179021 1.4706636e-38 309 261
-0.0124662 0.71100003 -0.026179021 1.4705917e-38 310 261
-0.01121958 0.71100003 -0.026179021 1.4889948e-38 311 261
-0.0099729598 0.71100003 -0.026179021 1.4799903e-38 312 261
-0.0087140659 0.70999998 -0.026142199 1.4984295e-38 313 261
-0.0074691991 0.70999998 -0.026142199 1.4985365e-38 314 261
-0.0062243328 0.70999998 -0.026142199 1.4985365e-38 315 261
-0.0049794666 0.70999998 -0.026142199 1.378864e-38 316 261
-0.00372408 0.708 -0.026068559 1.2497901e-38 317 261
-0.00248272 0.708 -0.026068559 7.7206571e-39 318 261
-0.0012448666 0.70999998 -0.026142199 6.5224726e-39 319 261
0 0.70999998 -0.026142199 1.2601621e-38 320 261
0.00124662 0.71100003 -0.026179021 1.3062959e-38 321 261
0.0024932399 0.71100003 -0.026179021 1.424673e-38 322 261
0.0037398601 0.71100003 -0.026179021 1.4523318e-38 323 261
0.0049864799 0.71100003 -0.026179021 1.4069173e-38 324 261
0.0062330998 0.71100003 -0.026179021 1.3515999e-38 325 261
0.0075007593 0.713 -0.026252659 1.3147236e-38 326 261
0.0087631596 0.71399999 -0.026289478 1.2778812e-38 327 261
0.01001504 0.71399999 -0.026289478 1.2776655e-38 328 261
0.01129848 0.71600002 -0.026363119 1.268446e-38 329 261
0.0125714 0.71700001 -0.02639994 1.1950844e-38 330 261
0.0138864 0.72000003 -0.026510401 1.1858648e-38 331 261
0.015190879 0.722 -0.026584039 1.0848459e-38 332 261
0.01647958 0.72299999 -0.026620859 1.0571872e-38 333 261
0.017747238 0.72299999 -0.026620859 1.1129012e-38 334 261
0.0190675 0.72500002 -0.026694499 1.1313403e-38 335 261
0.020478934 0.73000002 -0.026878599 1.1955179e-38 336 261
0.021788673 0.73100001 -0.026915418 1.1955179e-38 337 261
0.02307036 0.73100001 -0.026915418 1.1584264e-38 338 261
0.024352046 0.73100001 -0.026915418 1.4165742e-38 339 261
0.025633732 0.73100001 -0.026915418 1.4747711e-38 340 261
0.026878599 0.73000002 -0.026878599 1.8804318e-38 341 261
0.028158534 0.73000002 -0.026878599 1.7886678e-38 342 261
-0.038029801 0.72299999 -0.02788852 1.2611367e-38 290 262
-0.03671129 0.722 -0.027849946 6.8952376e-39 291 262
-0.035445385 0.722 -0.027849946 1.3878686e-38 292 262
-0.034084801 0.72000003 -0.027772799 1.4340024e-38 293 262
-0.0328224 0.72000003 -0.027772799 1.4340727e-38 294 262
-0.031516165 0.71899998 -0.027734226 1.4248532e-38 295 262
-0.030255521 0.71899998 -0.027734226 1.4339648e-38 296 262
-0.028914221 0.71700001 -0.027657079 1.4247094e-38 297 262
-0.027618507 0.71600002 -0.027618507 1.4339648e-38 298 262
-0.026363119 0.71600002 -0.027618507 1.4247094e-38 299 262
-0.025107734 0.71600002 -0.027618507 1.4339648e-38 300 262
-0.023852346 0.71600002 -0.027618507 1.4616235e-38 301 262
-0.022533838 0.71399999 -0.02754136 1.3052166e-38 302 262
-0.021252153 0.713 -0.027502786 9.2753851e-39 303 262
-0.01994592 0.71100003 -0.027425639 8.9159479e-39 304 262
-0.0186993 0.71100003 -0.027425639 1.1773652e-38 305 262
-0.01745268 0.71100003 -0.027425639 1.4248529e-38 306 262
-0.01620606 0.71100003 -0.027425639 1.4156333e-38 307 262
-0.014959441 0.71100003 -0.027425639 1.4613714e-38 308 262
-0.01371282 0.71100003 -0.027425639 1.4613714e-38 309 262
-0.0124662 0.71100003 -0.027425639 1.4522242e-38 310 262
-0.011203799 0.70999998 -0.027387066 1.4522242e-38 311 262
-0.0099589331 0.70999998 -0.027387066 1.4523318e-38 312 262
-0.0087140659 0.70999998 -0.027387066 1.4523318e-38 313 262
-0.0074691991 0.70999998 -0.027387066 1.4523318e-38 314 262
-0.0062243328 0.70999998 -0.027387066 1.4799903e-38 315 262
-0.0049794666 0.70999998 -0.027387066 1.369717e-38 316 262
-0.0037345996 0.70999998 -0.027387066 1.2498627e-38 317 262
-0.0024897333 0.70999998 -0.027387066 7.9036064e-39 318 262
-0.0012448666 0.70999998 -0.027387066 5.6019653e-39 319 262
0 0.70999998 -0.027387066 1.2325754e-38 320 262
0.0012448666 0.70999998 -0.027387066 1.26027e-38 321 262
0.0024932399 0.71100003 -0.027425639 1.4063064e-38 322 262
0.0037398601 0.71100003 -0.027425639 1.4616238e-38 323 262
0.0049864799 0.71100003 -0.027425639 1.4070264e-38 324 262
0.0062330998 0.71100003 -0.027425639 1.3240503e-38 325 262
0.0074797203 0.71100003 -0.027425639 1.305397e-38 326 262
0.0087508867 0.713 -0.027502786 1.2777024e-38 327 262
0.01001504 0.71399999 -0.02754136 1.2776658e-38 328 262
0.011266919 0.71399999 -0.02754136 1.2684463e-38 329 262
0.0125714 0.71700001 -0.027657079 1.1951564e-38 330 262
0.0138864 0.72000003 -0.027772799 1.204376e-38 331 262
0.015190879 0.722 -0.027849946 1.1125402e-38 332 262
0.01647958 0.72299999 -0.02788852 1.0756261e-38 333 262
0.017747238 0.72299999 -0.02788852 1.1129367e-38 334 262
0.0190675 0.72500002 -0.027965667 1.1497791e-38 335 262
0.020478934 0.73000002 -0.028158534 1.204845e-38 336 262
0.021788673 0.73100001 -0.028197108 1.204845e-38 337 262
0.02307036 0.73100001 -0.028197108 1.1586416e-38 338 262
0.024418673 0.73299998 -0.028274251 1.361472e-38 339 262
0.025703866 0.73299998 -0.028274251 1.4654789e-38 340 262
0.026989058 0.73299998 -0.028274251 1.8895788e-38 341 262
-0.039297458 0.72299999 -0.029156178 1.548672e-38 289 263
-0.038029801 0.72299999 -0.029156178 1.2424089e-38 290 263
-0.03671129 0.722 -0.029115854 8.2749253e-39 291 263
-0.035445385 0.722 -0.029115854 1.3971232e-38 292 263
-0.034084801 0.72000003 -0.029035201 1.4248179e-38 293 263
-0.0328224 0.72000003 -0.029035201 1.4248532e-38 294 263
-0.031516165 0.71899998 -0.028994869 1.4248532e-38 295 263
-0.030171359 0.71700001 -0.028914221 1.4156696e-38 296 263
-0.028914221 0.71700001 -0.028914221 1.3880469e-38 297 263
-0.027618507 0.71600002 -0.028873893 1.415598e-38 298 263
-0.026363119 0.71600002 -0.028873893 1.4063785e-38 299 263
-0.025107734 0.71600002 -0.028873893 1.4063429e-38 300 263
-0.023852346 0.71600002 -0.028873893 1.4155983e-38 301 263
-0.022533838 0.71399999 -0.028793238 1.2499714e-38 302 263
-0.021252153 0.713 -0.028752912 8.8162076e-39 303 263
-0.01994592 0.71100003 -0.028672259 9.284373e-39 304 263
-0.0186993 0.71100003 -0.028672259 1.1958046e-38 305 263
-0.01745268 0.71100003 -0.028672259 1.3971585e-38 306 263
-0.01620606 0.71100003 -0.028672259 1.4063782e-38 307 263
-0.014959441 0.71100003 -0.028672259 1.4430042e-38 308 263
-0.01371282 0.71100003 -0.028672259 1.4246011e-38 309 263
-0.0124662 0.71100003 -0.028672259 1.4246374e-38 310 263
-0.011203799 0.70999998 -0.028631933 1.4246374e-38 311 263
-0.0099589331 0.70999998 -0.028631933 1.4338574e-38 312 263
-0.0087140659 0.70999998 -0.028631933 1.4246377e-38 313 263
-0.0074691991 0.70999998 -0.028631933 1.4430045e-38 314 263
-0.0062243328 0.70999998 -0.028631933 1.4522242e-38 315 263
-0.0049654399 0.708 -0.02855128 1.3695724e-38 316 263
-0.00372408 0.708 -0.02855128 1.2773409e-38 317 263
-0.00248272 0.708 -0.02855128 6.9794977e-39 318 263
-0.00124136 0.708 -0.02855128 5.3264588e-39 319 263
0 0.70999998 -0.028631933 1.131305e-38 320 263
0.0012448666 0.70999998 -0.028631933 1.1958419e-38 321 263
0.0024897333 0.70999998 -0.028631933 1.3879033e-38 322 263
0.0037345996 0.70999998 -0.028631933 1.4709154e-38 323 263
0.0049794666 0.70999998 -0.028631933 1.3702561e-38 324 263
0.0062243328 0.70999998 -0.028631933 1.2872441e-38 325 263
0.0074797203 0.71100003 -0.028672259 1.2961055e-38 326 263
0.0087263398 0.71100003 -0.028672259 1.2776305e-38 327 263
0.010001013 0.713 -0.028752912 1.2500794e-38 328 263
0.011266919 0.71399999 -0.028793238 1.2500794e-38 329 263
0.0125714 0.71700001 -0.028914221 1.204376e-38 330 263
0.0138864 0.72000003 -0.029035201 1.2135955e-38 331 263
0.015190879 0.722 -0.029115854 1.1035005e-38 332 263
0.01647958 0.72299999 -0.029156178 1.0389636e-38 333 263
0.017747238 0.72299999 -0.029156178 1.1222283e-38 334 263
0.0190675 0.72500002 -0.029236834 1.1406675e-38 335 263
0.020338668 0.72500002 -0.029236834 1.1958052e-38 336 263
0.021788673 0.73100001 -0.029478792 1.1958052e-38 337 263
0.023133477 0.73299998 -0.029559445 1.1587491e-38 338 263
0.024418673 0.73299998 -0.029559445 1.4076413e-38 339 263
0.025703866 0.73299998 -0.029559445 1.5113965e-38 340 263
0.026989058 0.73299998 -0.029559445 1.9078379e-38 341 263
-0.039297458 0.72299999 -0.030423839 1.4380367e-38 289 264
-0.038029801 0.72299999 -0.030423839 1.2607032e-38 290 264
-0.036609601 0.72000003 -0.0302976 9.3801854e-39 291 264
-0.035347197 0.72000003 -0.0302976 1.3880472e-38 292 264
-0.034084801 0.72000003 -0.0302976 1.4156699e-38 293 264
-0.032776814 0.71899998 -0.030255521 1.3973384e-38 294 264
-0.031516165 0.71899998 -0.030255521 1.3973384e-38 295 264
-0.030171359 0.71700001 -0.030171359 1.369752e-38 296 264
-0.028914221 0.71700001 -0.030171359 1.369752e-38 297 264
-0.027618507 0.71600002 -0.03012928 1.3972312e-38 298 264
-0.026363119 0.71600002 -0.03012928 1.3880116e-38 299 264
-0.025107734 0.71600002 -0.03012928 1.378864e-38 300 264
-0.023852346 0.71600002 -0.03012928 1.3696443e-38 301 264
-0.022596961 0.71600002 -0.03012928 1.1856149e-38 302 264
-0.021281958 0.71399999 -0.030045118 8.5407011e-39 303 264
-0.020002026 0.713 -0.030003037 9.559532e-39 304 264
-0.0186993 0.71100003 -0.029918881 1.2141008e-38 305 264
-0.01745268 0.71100003 -0.029918881 1.3880472e-38 306 264
-0.01620606 0.71100003 -0.029918881 1.3787916e-38 307 264
-0.014959441 0.71100003 -0.029918881 1.3970863e-38 308 264
-0.01371282 0.71100003 -0.029918881 1.3970863e-38 309 264
-0.0124662 0.71100003 -0.029918881 1.3970866e-38 310 264
-0.011203799 0.70999998 -0.029876797 1.3970866e-38 311 264
-0.0099589331 0.70999998 -0.029876797 1.4153825e-38 312 264
-0.0087140659 0.70999998 -0.029876797 1.4153825e-38 313 264
-0.0074691991 0.70999998 -0.029876797 1.4063061e-38 314 264
-0.0062243328 0.70999998 -0.029876797 1.3970866e-38 315 264
-0.0049654399 0.708 -0.02979264 1.3602806e-38 316 264
-0.00372408 0.708 -0.02979264 1.2588653e-38 317 264
-0.00248272 0.708 -0.02979264 7.1631729e-39 318 264
-0.00124136 0.708 -0.02979264 5.6019653e-39 319 264
0 0.708 -0.02979264 9.9326417e-39 320 264
0.0012448666 0.70999998 -0.029876797 1.0946435e-38 321 264
0.0024897333 0.70999998 -0.029876797 1.3420579e-38 322 264
0.0037345996 0.70999998 -0.029876797 1.4158144e-38 323 264
0.0049794666 0.70999998 -0.029876797 1.360929e-38 324 264
0.0062243328 0.70999998 -0.029876797 1.2871725e-38 325 264
0.0074691991 0.70999998 -0.029876797 1.3143646e-38 326 264
0.0087263398 0.71100003 -0.029918881 1.2959254e-38 327 264
0.0099729598 0.71100003 -0.029918881 1.2133806e-38 328 264
0.011251139 0.713 -0.030003037 1.2226003e-38 329 264
0.0125714 0.71700001 -0.030171359 1.1861166e-38 330 264
0.0138864 0.72000003 -0.0302976 1.1953362e-38 331 264
0.015190879 0.722 -0.030381758 1.1128286e-38 332 264
0.01647958 0.72299999 -0.030423839 1.0575112e-38 333 264
0.017747238 0.72299999 -0.030423839 1.1407759e-38 334 264
0.0190675 0.72500002 -0.030508002 1.1592511e-38 335 264
0.020338668 0.72500002 -0.030508002 1.2050612e-38 336 264
0.021788673 0.73100001 -0.03076048 1.1958416e-38 337 264
0.023133477 0.73299998 -0.030844638 1.1496369e-38 338 264
0.024418673 0.73299998 -0.030844638 1.4538823e-38 339 264
0.025703866 0.73299998 -0.030844638 1.5482023e-38 340 264
0.026989058 0.73299998 -0.030844638 1.9170209e-38 341 264
-0.037871998 0.72000003 -0.03156 1.2603783e-38 290 265
-0.036609601 0.72000003 -0.03156 1.0207055e-38 291 265
-0.035347197 0.72000003 -0.03156 1.3697873e-38 292 265
-0.034084801 0.72000003 -0.03156 1.3790069e-38 293 265
-0.032776814 0.71899998 -0.031516165 1.3790074e-38 294 265
-0.031516165 0.71899998 -0.031516165 1.369752e-38 295 265
-0.030171359 0.71700001 -0.031428497 1.3880835e-38 296 265
-0.028873893 0.71600002 -0.031384666 1.378864e-38 297 265
-0.027618507 0.71600002 -0.031384666 1.3513495e-38 298 265
-0.026363119 0.71600002 -0.031384666 1.3513495e-38 299 265
-0.025107734 0.71600002 -0.031384666 1.3513141e-38 300 265
-0.023852346 0.71600002 -0.031384666 1.3513141e-38 301 265
-0.022596961 0.71600002 -0.031384666 1.1763598e-38 302 265
-0.021341572 0.71600002 -0.031384666 9.1835552e-39 303 265
-0.020002026 0.713 -0.031253166 1.0203465e-38 304 265
-0.018751899 0.713 -0.031253166 1.2323604e-38 305 265
-0.01745268 0.71100003 -0.031165501 1.3695726e-38 306 265
-0.01620606 0.71100003 -0.031165501 1.3695726e-38 307 265
-0.014959441 0.71100003 -0.031165501 1.3879389e-38 308 265
-0.01371282 0.71100003 -0.031165501 1.3695358e-38 309 265
-0.012448666 0.70999998 -0.031121666 1.387867e-38 310 265
-0.011203799 0.70999998 -0.031121666 1.3786475e-38 311 265
-0.0099589331 0.70999998 -0.031121666 1.3695358e-38 312 265
-0.0087140659 0.70999998 -0.031121666 1.3695358e-38 313 265
-0.0074691991 0.70999998 -0.031121666 1.3970866e-38 314 265
-0.0062243328 0.70999998 -0.031121666 1.3970866e-38 315 265
-0.0049654399 0.708 -0.031034 1.3235822e-38 316 265
-0.00372408 0.708 -0.031034 1.222167e-38 317 265
-0.0024792133 0.70700002 -0.030990168 6.9798578e-39 318 265
-0.0012396066 0.70700002 -0.030990168 5.6019653e-39 319 265
0 0.708 -0.031034 8.0015726e-39 320 265
0.00124136 0.708 -0.031034 9.384507e-39 321 265
0.00248272 0.708 -0.031034 1.2963924e-38 322 265
0.00372408 0.708 -0.031034 1.324015e-38 323 265
0.0049794666 0.70999998 -0.031121666 1.3331983e-38 324 265
0.0062243328 0.70999998 -0.031121666 1.296284e-38 325 265
0.0074691991 0.70999998 -0.031121666 1.2959608e-38 326 265
0.0087140659 0.70999998 -0.031121666 1.2867411e-38 327 265
0.0099729598 0.71100003 -0.031165501 1.2134882e-38 328 265
0.011251139 0.713 -0.031253166 1.2227077e-38 329 265
0.0125714 0.71700001 -0.031428497 1.1862967e-38 330 265
0.0138864 0.72000003 -0.03156 1.2139195e-38 331 265
0.015190879 0.722 -0.031647664 1.1130451e-38 332 265
0.01647958 0.72299999 -0.031691495 1.0854222e-38 333 265
0.017747238 0.72299999 -0.031691495 1.1133697e-38 334 265
0.0190675 0.72500002 -0.031779166 1.1226252e-38 335 265
0.020338668 0.72500002 -0.031779166 1.2051694e-38 336 265
0.021788673 0.73100001 -0.032042164 1.1867302e-38 337 265
0.023165042 0.73400003 -0.032173667 1.1864797e-38 338 265
0.024451986 0.73400003 -0.032173667 1.5829209e-38 339 265
0.025738932 0.73400003 -0.032173667 1.5850811e-38 340 265
0.02702588 0.73400003 -0.032173667 1.9077658e-38 341 265
-0.037871998 0.72000003 -0.0328224 1.2873523e-38 290 266
-0.036609601 0.72000003 -0.0328224 1.1766815e-38 291 266
-0.035347197 0.72000003 -0.0328224 1.3698945e-38 292 266
-0.034084801 0.72000003 -0.0328224 1.3698945e-38 293 266
-0.032776814 0.71899998 -0.032776814 1.3514927e-38 294 266
-0.031516165 0.71899998 -0.032776814 1.3422731e-38 295 266
-0.030171359 0.71700001 -0.032685637 1.3422381e-38 296 266
-0.028873893 0.71600002 -0.032640055 1.3422381e-38 297 266
-0.027618507 0.71600002 -0.032640055 1.3329829e-38 298 266
-0.026363119 0.71600002 -0.032640055 1.3329829e-38 299 266
-0.0251428 0.71700001 -0.032685637 1.3237985e-38 300 266
-0.023852346 0.71600002 -0.032640055 1.2869204e-38 301 266
-0.022596961 0.71600002 -0.032640055 1.1760714e-38 302 266
-0.021341572 0.71600002 -0.032640055 1.0193746e-38 303 266
-0.020030079 0.71399999 -0.032548878 1.0204907e-38 304 266
-0.018751899 0.713 -0.032503292 1.1680037e-38 305 266
-0.017501773 0.713 -0.032503292 1.3329465e-38 306 266
-0.01620606 0.71100003 -0.032412119 1.3329465e-38 307 266
-0.014959441 0.71100003 -0.032412119 1.3512411e-38 308 266
-0.01371282 0.71100003 -0.032412119 1.3420216e-38 309 266
-0.012448666 0.70999998 -0.032366529 1.3603528e-38 310 266
-0.011203799 0.70999998 -0.032366529 1.3603528e-38 311 266
-0.0099589331 0.70999998 -0.032366529 1.3512055e-38 312 266
-0.0087140659 0.70999998 -0.032366529 1.3512055e-38 313 266
-0.0074691991 0.70999998 -0.032366529 1.3512409e-38 314 266
-0.0062243328 0.70999998 -0.032366529 1.3328017e-38 315 266
-0.0049654399 0.708 -0.03227536 1.3143251e-38 316 266
-0.00372408 0.708 -0.03227536 1.231349e-38 317 266
-0.0024792133 0.70700002 -0.032229774 8.3599e-39 318 266
-0.0012396066 0.70700002 -0.032229774 6.2448137e-39 319 266
0 0.708 -0.03227536 5.8882688e-39 320 266
0.00124136 0.708 -0.03227536 7.5481502e-39 321 266
0.00248272 0.708 -0.03227536 1.2507633e-38 322 266
0.00372408 0.708 -0.03227536 1.2507633e-38 323 266
0.0049794666 0.70999998 -0.032366529 1.3054317e-38 324 266
0.0062243328 0.70999998 -0.032366529 1.2501503e-38 325 266
0.0074691991 0.70999998 -0.032366529 1.213344e-38 326 266
0.0087140659 0.70999998 -0.032366529 1.2409668e-38 327 266
0.0099729598 0.71100003 -0.032412119 1.1768971e-38 328 266
0.011251139 0.713 -0.032503292 1.2229947e-38 329 266
0.0125714 0.71700001 -0.032685637 1.1956955e-38 330 266
0.013924973 0.722 -0.032913569 1.2233542e-38 331 266
0.015190879 0.722 -0.032913569 1.1132955e-38 332 266
0.01647958 0.72299999 -0.032959159 1.1132955e-38 333 266
0.017747238 0.72299999 -0.032959159 1.0858906e-38 334 266
0.0190675 0.72500002 -0.033050332 1.095146e-38 335 266
0.020338668 0.72500002 -0.033050332 1.2052059e-38 336 266
0.021848286 0.73299998 -0.033415023 1.1959864e-38 337 266
0.023165042 0.73400003 -0.033460613 1.1771895e-38 338 266
0.024451986 0.73400003 -0.033460613 1.5644111e-38 339 266
0.025738932 0.73400003 -0.033460613 1.5485273e-38 340 266
0.02702588 0.73400003 -0.033460613 1.8619924e-38 341 266
-0.0379772 0.722 -0.034179479 1.3337741e-38 290 267
-0.036609601 0.72000003 -0.034084801 1.1493828e-38 291 267
-0.035347197 0.72000003 -0.034084801 1.3608913e-38 292 267
-0.034084801 0.72000003 -0.034084801 1.3147936e-38 293 267
-0.032776814 0.71899998 -0.03403746 1.3606046e-38 294 267
-0.031516165 0.71899998 -0.03403746 1.3513851e-38 295 267
-0.030171359 0.71700001 -0.033942781 1.3513497e-38 296 267
-0.028914221 0.71700001 -0.033942781 1.3329465e-38 297 267
-0.027618507 0.71600002 -0.03389544 1.3237635e-38 298 267
-0.026363119 0.71600002 -0.03389544 1.3237635e-38 299 267
-0.0251428 0.71700001 -0.033942781 1.296249e-38 300 267
