# .PCD v.7 - Point Cloud Data file format
FIELDS x y z rgb imX imY
SIZE 4 4 4 4 4 4
TYPE F F F F F F
COUNT 1 1 1 1 1 1
WIDTH 834
HEIGHT 1
VIEWPOINT 0 0 0 1 0 0 0
POINTS 834
DATA ascii
-0.019300694 0.68800002 0.0060314666 1.4639626e-38 304 235
-0.0180944 0.68800002 0.0060314666 1.4824377e-38 305 235
-0.016888106 0.68800002 0.0060314666 1.4824743e-38 306 235
-0.015681813 0.68800002 0.0060314666 1.4916938e-38 307 235
-0.014454478 0.68699998 0.0060226996 1.4916938e-38 308 235
-0.013249939 0.68699998 0.0060226996 1.4916938e-38 309 235
-0.012027865 0.68599999 0.0060139326 1.4825093e-38 310 235
-0.010825079 0.68599999 0.0060139326 1.4825093e-38 311 235
-0.0096222926 0.68599999 0.0060139326 1.4732532e-38 312 235
-0.0084195063 0.68599999 0.0060139326 1.4640335e-38 313 235
-0.0072167199 0.68599999 0.0060139326 1.4546701e-38 314 235
-0.0060139326 0.68599999 0.0060139326 1.4361951e-38 315 235
-0.0048181596 0.68699998 0.0060226996 1.4177193e-38 316 235
-0.0036136196 0.68699998 0.0060226996 1.3900247e-38 317 235
-0.0024090798 0.68699998 0.0060226996 1.362437e-38 318 235
-0.0012045399 0.68699998 0.0060226996 1.3163031e-38 319 235
0 0.68699998 0.0060226996 1.3162668e-38 320 235
0.0012045399 0.68699998 0.0060226996 1.2793887e-38 321 235
0.0024125867 0.68800002 0.0060314666 1.2976483e-38 322 235
0.0036136196 0.68699998 0.0060226996 1.2884286e-38 323 235
0.0048181596 0.68699998 0.0060226996 1.2699892e-38 324 235
0.0060314666 0.68800002 0.0060314666 1.2607697e-38 325 235
0.0072587994 0.69 0.0060489997 1.2238561e-38 326 235
0.008480873 0.69099998 0.0060577663 1.2238561e-38 327 235
0.0097204801 0.69300002 0.0060753003 1.1870507e-38 328 235
0.01099866 0.69700003 0.0061103669 1.1778312e-38 329 235
0.012238266 0.69800001 0.006119133 1.1502445e-38 330 235
0.013500666 0.69999999 0.0061366665 1.1502445e-38 331 235
0.014812159 0.704 0.0061717331 1.1318417e-38 332 235
0.016092092 0.70599997 0.0061892662 1.1318417e-38 333 235
0.017329946 0.70599997 0.0061892662 1.0859962e-38 334 235
0.0186204 0.708 0.0062067998 1.0952158e-38 335 235
0.019917866 0.70999998 0.0062243328 1.0952524e-38 336 235
0.021162732 0.70999998 0.0062243328 1.0952524e-38 337 235
0.022344479 0.708 0.0062067998 1.0493003e-38 338 235
0.023552528 0.70700002 0.0061980332 1.0400448e-38 339 235
0.024792133 0.70700002 0.0061980332 9.3020252e-39 340 235
-0.053529263 0.70999998 0.0049794666 1.0137178e-38 277 236
-0.052137118 0.708 0.0049654399 1.2433796e-38 278 236
-0.050895758 0.708 0.0049654399 1.2894415e-38 279 236
-0.049584266 0.70700002 0.0049584266 1.3817097e-38 280 236
-0.048344657 0.70700002 0.0049584266 1.4923803e-38 281 236
-0.047038425 0.70599997 0.0049514128 1.3639911e-38 282 236
-0.045670826 0.704 0.0049373866 1.4746259e-38 283 236
-0.04437336 0.70300001 0.0049303733 1.4844954e-38 284 236
-0.042956665 0.69999999 0.0049093333 1.4844954e-38 285 236
-0.041729331 0.69999999 0.0049093333 1.438543e-38 286 236
-0.040328421 0.69700003 0.0048882933 1.4477626e-38 287 236
-0.039106347 0.69700003 0.0048882933 1.4295034e-38 288 236
-0.037829921 0.69599998 0.0048812795 1.4387229e-38 289 236
-0.036451802 0.69300002 0.00486024 1.4107023e-38 290 236
-0.035236739 0.69300002 0.00486024 1.3461654e-38 291 236
-0.033923492 0.69099998 0.0048462129 1.5483105e-38 292 236
-0.032711938 0.69099998 0.0048462129 1.5944083e-38 293 236
-0.031454802 0.69 0.0048391996 1.6036282e-38 294 236
-0.030157333 0.68800002 0.0048251734 1.6773847e-38 295 236
-0.028908957 0.68699998 0.0048181596 1.7601081e-38 296 236
-0.027704418 0.68699998 0.0048181596 1.548094e-38 297 236
-0.026499879 0.68699998 0.0048181596 1.4274816e-38 298 236
-0.025258519 0.68599999 0.0048111463 1.1693338e-38 299 236
-0.024055731 0.68599999 0.0048111463 1.3346004e-38 300 236
-0.022852944 0.68599999 0.0048111463 1.4083569e-38 301 236
-0.021650158 0.68599999 0.0048111463 1.4177203e-38 302 236
-0.020477179 0.68699998 0.0048181596 1.445415e-38 303 236
-0.019272638 0.68699998 0.0048181596 1.4546711e-38 304 236
-0.018068098 0.68699998 0.0048181596 1.4823658e-38 305 236
-0.01686356 0.68699998 0.0048181596 1.4916576e-38 306 236
-0.015659019 0.68699998 0.0048181596 1.4916576e-38 307 236
-0.014454478 0.68699998 0.0048181596 1.4824743e-38 308 236
-0.01319208 0.68400002 0.0047971201 1.4916938e-38 309 236
-0.0119928 0.68400002 0.0047971201 1.4917294e-38 310 236
-0.01079352 0.68400002 0.0047971201 1.4917294e-38 311 236
-0.0095942402 0.68400002 0.0047971201 1.4824377e-38 312 236
-0.0083949603 0.68400002 0.0047971201 1.4732181e-38 313 236
-0.0071956799 0.68400002 0.0047971201 1.4547067e-38 314 236
-0.0059964 0.68400002 0.0047971201 1.4454872e-38 315 236
-0.0048111463 0.68599999 0.0048111463 1.4177912e-38 316 236
-0.00360836 0.68599999 0.0048111463 1.3901326e-38 317 236
-0.0024055731 0.68599999 0.0048111463 1.3625091e-38 318 236
-0.0012027866 0.68599999 0.0048111463 1.3071919e-38 319 236
0 0.68599999 0.0048111463 1.3162312e-38 320 236
0.0012027866 0.68599999 0.0048111463 1.279389e-38 321 236
0.0024090798 0.68699998 0.0048181596 1.2976483e-38 322 236
0.0036136196 0.68699998 0.0048181596 1.2884286e-38 323 236
0.0048181596 0.68699998 0.0048181596 1.2791735e-38 324 236
0.0060226996 0.68699998 0.0048181596 1.2607344e-38 325 236
0.0072377604 0.68800002 0.0048251734 1.2422596e-38 326 236
0.0084686 0.69 0.0048391996 1.2238564e-38 327 236
0.0096503468 0.68800002 0.0048251734 1.2053819e-38 328 236
0.010856641 0.68800002 0.0048251734 1.1961624e-38 329 236
0.012062933 0.68800002 0.0048251734 1.1503164e-38 330 236
0.013500666 0.69999999 0.0049093333 1.1410968e-38 331 236
0.014791119 0.70300001 0.0049303733 1.12273e-38 332 236
0.016046507 0.704 0.0049373866 1.1135104e-38 333 236
0.017329946 0.70599997 0.0049514128 1.1043274e-38 334 236
0.0186204 0.708 0.0049654399 1.1043274e-38 335 236
0.01986176 0.708 0.0049654399 1.1044356e-38 336 236
0.021162732 0.70999998 0.0049794666 1.1044356e-38 337 236
0.022344479 0.708 0.0049654399 1.058447e-38 338 236
0.023552528 0.70700002 0.0049584266 1.0215687e-38 339 236
0.024792133 0.70700002 0.0049584266 9.4842529e-39 340 236
0.02603174 0.70700002 0.0049584266 1.0037427e-38 341 236
-0.054774132 0.70999998 0.0037345996 1.0319774e-38 276 237
-0.053529263 0.70999998 0.0037345996 1.059672e-38 277 237
-0.052137118 0.708 0.00372408 1.2525638e-38 278 237
-0.050895758 0.708 0.00372408 1.3816377e-38 279 237
-0.049584266 0.70700002 0.0037188199 1.4651893e-38 280 237
-0.048344657 0.70700002 0.0037188199 1.2992731e-38 281 237
-0.047038425 0.70599997 0.0037135598 1.1237786e-38 282 237
-0.04560595 0.70300001 0.0036977797 1.4741221e-38 283 237
-0.044247117 0.70099998 0.0036872597 1.4293582e-38 284 237
-0.042956665 0.69999999 0.0036819996 1.4478332e-38 285 237
-0.041610107 0.69800001 0.0036714801 1.4753138e-38 286 237
-0.040328421 0.69700003 0.00366622 1.4015573e-38 287 237
-0.039050236 0.69599998 0.0036609597 1.4293597e-38 288 237
-0.037721213 0.69400001 0.0036504399 1.466274e-38 289 237
-0.036451802 0.69300002 0.0036451798 1.5673275e-38 290 237
-0.035236739 0.69300002 0.0036451798 1.539669e-38 291 237
-0.033923492 0.69099998 0.0036346598 1.6406872e-38 292 237
-0.032664597 0.69 0.0036293997 1.6591263e-38 293 237
-0.031318039 0.68699998 0.0036136196 1.6773491e-38 294 237
-0.030113498 0.68699998 0.0036136196 1.5575306e-38 295 237
-0.02886688 0.68599999 0.00360836 1.5933984e-38 296 237
-0.027664091 0.68599999 0.00360836 1.390568e-38 297 237
-0.026461305 0.68599999 0.00360836 1.3714783e-38 298 237
-0.025184879 0.68400002 0.00359784 1.334636e-38 299 237
-0.0239856 0.68400002 0.00359784 1.3806978e-38 300 237
-0.022786319 0.68400002 0.00359784 1.4267957e-38 301 237
-0.021650158 0.68599999 0.00360836 1.4268682e-38 302 237
-0.020447372 0.68599999 0.00360836 1.4545269e-38 303 237
-0.01918848 0.68400002 0.00359784 1.4546711e-38 304 237
-0.0179892 0.68400002 0.00359784 1.4823658e-38 305 237
-0.016789921 0.68400002 0.00359784 1.4824021e-38 306 237
-0.01559064 0.68400002 0.00359784 1.5008771e-38 307 237
-0.014370319 0.68300003 0.0035925799 1.4733626e-38 308 237
-0.013172794 0.68300003 0.0035925799 1.4825822e-38 309 237
-0.011975267 0.68300003 0.0035925799 1.4826538e-38 310 237
-0.01077774 0.68300003 0.0035925799 1.4734342e-38 311 237
-0.0095802136 0.68300003 0.0035925799 1.4825096e-38 312 237
-0.0083826864 0.68300003 0.0035925799 1.4641065e-38 313 237
-0.0071851597 0.68300003 0.0035925799 1.4547783e-38 314 237
-0.0059876335 0.68300003 0.0035925799 1.4271556e-38 315 237
-0.0047901068 0.68300003 0.0035925799 1.4178992e-38 316 237
-0.00359784 0.68400002 0.00359784 1.3902045e-38 317 237
-0.0023985601 0.68400002 0.00359784 1.3625091e-38 318 237
-0.00119928 0.68400002 0.00359784 1.3164114e-38 319 237
0 0.68400002 0.00359784 1.3254508e-38 320 237
0.0012027866 0.68599999 0.00360836 1.3070117e-38 321 237
0.0024055731 0.68599999 0.00360836 1.2977202e-38 322 237
0.0036136196 0.68699998 0.0036136196 1.2885007e-38 323 237
0.0048181596 0.68699998 0.0036136196 1.2699539e-38 324 237
0.0060226996 0.68699998 0.0036136196 1.2515148e-38 325 237
0.0072272392 0.68699998 0.0036136196 1.2514073e-38 326 237
0.0084440531 0.68800002 0.0036188802 1.2421876e-38 327 237
0.0096503468 0.68800002 0.0036188802 1.2053817e-38 328 237
0.010856641 0.68800002 0.0036188802 1.2053817e-38 329 237
0.012062933 0.68800002 0.0036188802 1.1686832e-38 330 237
0.013269227 0.68800002 0.0036188802 1.1502801e-38 331 237
0.014727999 0.69999999 0.0036819996 1.12273e-38 332 237
0.015978126 0.70099998 0.0036872597 1.1135104e-38 333 237
0.017280852 0.704 0.0037030398 1.1043274e-38 334 237
0.018594101 0.70700002 0.0037188199 1.1043274e-38 335 237
0.019833706 0.70700002 0.0037188199 1.0952161e-38 336 237
0.021103119 0.708 0.00372408 1.1044356e-38 337 237
0.022312919 0.70700002 0.0037188199 1.0676665e-38 338 237
0.023552528 0.70700002 0.0037188199 1.0307883e-38 339 237
0.024757065 0.70599997 0.0037135598 9.7593978e-39 340 237
0.025994917 0.70599997 0.0037135598 1.0496963e-38 341 237
-0.056018997 0.70999998 0.0024897333 9.6801754e-39 275 238
-0.054774132 0.70999998 0.0024897333 1.1330688e-38 276 238
-0.053378478 0.708 0.00248272 1.068532e-38 277 238
-0.052137118 0.708 0.00248272 1.3539431e-38 278 238
-0.050895758 0.708 0.00248272 1.5752485e-38 279 238
-0.049584266 0.70700002 0.0024792133 1.4099425e-38 280 238
-0.048276275 0.70599997 0.0024757064 1.0964775e-38 281 238
-0.046905171 0.704 0.0024686933 1.0678483e-38 282 238
-0.045476202 0.70099998 0.0024581731 1.5288264e-38 283 238
-0.044247117 0.70099998 0.0024581731 1.4386131e-38 284 238
-0.042772565 0.69700003 0.0024441467 1.4570882e-38 285 238
-0.041550495 0.69700003 0.0024441467 1.5121197e-38 286 238
-0.040270556 0.69599998 0.0024406398 1.4291437e-38 287 238
-0.039050236 0.69599998 0.0024406398 1.4750973e-38 288 238
-0.037721213 0.69400001 0.0024336267 1.5488538e-38 289 238
-0.036504399 0.69400001 0.0024336267 1.6591266e-38 290 238
-0.035236739 0.69300002 0.00243012 1.6222844e-38 291 238
-0.033776212 0.68800002 0.0024125867 1.6587297e-38 292 238
-0.032475237 0.68599999 0.0024055731 1.6126679e-38 293 238
-0.03118128 0.68400002 0.0023985601 1.6124859e-38 294 238
-0.029982001 0.68400002 0.0023985601 1.400436e-38 295 238
-0.02878272 0.68400002 0.0023985601 1.353112e-38 296 238
-0.027583439 0.68400002 0.0023985601 1.2977946e-38 297 238
-0.026345588 0.68300003 0.0023950534 1.3897376e-38 298 238
-0.02514806 0.68300003 0.0023950534 1.4266519e-38 299 238
-0.023950534 0.68300003 0.0023950534 1.3992093e-38 300 238
-0.022753006 0.68300003 0.0023950534 1.4176484e-38 301 238
-0.02158704 0.68400002 0.0023985601 1.4269401e-38 302 238
-0.020357953 0.68300003 0.0023950534 1.4454153e-38 303 238
-0.019132372 0.68199998 0.0023915465 1.4546714e-38 304 238
-0.017936599 0.68199998 0.0023915465 1.4731105e-38 305 238
-0.016740825 0.68199998 0.0023915465 1.4824743e-38 306 238
-0.015567848 0.68300003 0.0023950534 1.4916938e-38 307 238
-0.014370319 0.68300003 0.0023950534 1.4918373e-38 308 238
-0.013153506 0.68199998 0.0023915465 1.5102406e-38 309 238
-0.011957732 0.68199998 0.0023915465 1.4919088e-38 310 238
-0.010761959 0.68199998 0.0023915465 1.4826891e-38 311 238
-0.009566186 0.68199998 0.0023915465 1.5009124e-38 312 238
-0.0083704125 0.68199998 0.0023915465 1.4824374e-38 313 238
-0.0071851597 0.68300003 0.0023950534 1.4547783e-38 314 238
-0.0059876335 0.68300003 0.0023950534 1.4271556e-38 315 238
-0.0047901068 0.68300003 0.0023950534 1.399496e-38 316 238
-0.0035925799 0.68300003 0.0023950534 1.3626537e-38 317 238
-0.0023950534 0.68300003 0.0023950534 1.3625091e-38 318 238
-0.00119928 0.68400002 0.0023985601 1.3440341e-38 319 238
0 0.68400002 0.0023985601 1.3255584e-38 320 238
0.00119928 0.68400002 0.0023985601 1.2886802e-38 321 238
0.0024055731 0.68599999 0.0024055731 1.2977199e-38 322 238
0.0036136196 0.68699998 0.0024090798 1.2885004e-38 323 238
0.0048181596 0.68699998 0.0024090798 1.2700255e-38 324 238
0.0060226996 0.68699998 0.0024090798 1.2331833e-38 325 238
0.0072272392 0.68699998 0.0024090798 1.2422596e-38 326 238
0.0084440531 0.68800002 0.0024125867 1.2238564e-38 327 238
0.0096503468 0.68800002 0.0024125867 1.2237129e-38 328 238
0.010856641 0.68800002 0.0024125867 1.2237129e-38 329 238
0.012062933 0.68800002 0.0024125867 1.1870504e-38 330 238
0.013269227 0.68800002 0.0024125867 1.1778309e-38 331 238
0.014475521 0.68800002 0.0024125867 1.1410971e-38 332 238
0.015909746 0.69800001 0.0024476533 1.1410971e-38 333 238
0.017133573 0.69800001 0.0024476533 1.1134751e-38 334 238
0.018409999 0.69999999 0.0024546667 1.1134751e-38 335 238
0.019749546 0.704 0.0024686933 1.0952161e-38 336 238
0.020983893 0.704 0.0024686933 1.1044356e-38 337 238
0.022281358 0.70599997 0.0024757064 1.0859978e-38 338 238
0.023519212 0.70599997 0.0024757064 1.0398999e-38 339 238
0.024757065 0.70599997 0.0024757064 9.7601167e-39 340 238
0.025994917 0.70599997 0.0024757064 1.031329e-38 341 238
0.027232772 0.70599997 0.0024757064 8.8478742e-39 342 238
-0.056018997 0.70999998 0.0012448666 1.1063823e-38 275 239
-0.054619838 0.708 0.00124136 1.2065383e-38 276 239
-0.053378478 0.708 0.00124136 1.0959035e-38 277 239
-0.05206348 0.70700002 0.0012396066 1.4369914e-38 278 239
-0.050823875 0.70700002 0.0012396066 1.4739056e-38 279 239
-0.04951413 0.70599997 0.0012378532 1.0863596e-38 280 239
-0.048139516 0.704 0.0012343467 1.224653e-38 281 239
-0.046705291 0.70099998 0.0012290865 1.3268605e-38 282 239
-0.04541133 0.69999999 0.0012273333 1.5389463e-38 283 239
-0.044183996 0.69999999 0.0012273333 1.4476894e-38 284 239
-0.042772565 0.69700003 0.0012220733 1.5214818e-38 285 239
-0.041550495 0.69700003 0.0012220733 1.5948792e-38 286 239
-0.040270556 0.69599998 0.0012203199 1.4565856e-38 287 239
-0.039050236 0.69599998 0.0012203199 1.4099823e-38 288 239
-0.037177678 0.68400002 0.00119928 1.271653e-38 289 239
-0.035978399 0.68400002 0.00119928 1.3997172e-38 290 239
-0.034880809 0.68599999 0.0012027866 1.3259607e-38 291 239
-0.033678025 0.68599999 0.0012027866 1.3531863e-38 292 239
-0.032380559 0.68400002 0.00119928 1.3715894e-38 293 239
-0.031135695 0.68300003 0.0011975267 1.3900273e-38 294 239
-0.029938167 0.68300003 0.0011975267 1.3715881e-38 295 239
-0.028740639 0.68300003 0.0011975267 1.3807347e-38 296 239
-0.027502786 0.68199998 0.0011957732 1.3899544e-38 297 239
-0.026307013 0.68199998 0.0011957732 1.3991377e-38 298 239
-0.025111238 0.68199998 0.0011957732 1.4083572e-38 299 239
-0.023915464 0.68199998 0.0011957732 1.3992449e-38 300 239
-0.022719691 0.68199998 0.0011957732 1.4084644e-38 301 239
-0.02155548 0.68300003 0.0011975267 1.4269036e-38 302 239
-0.020328145 0.68199998 0.0011957732 1.4545264e-38 303 239
-0.019132372 0.68199998 0.0011957732 1.4547067e-38 304 239
-0.017936599 0.68199998 0.0011957732 1.4823655e-38 305 239
-0.016740825 0.68199998 0.0011957732 1.482474e-38 306 239
-0.015545053 0.68199998 0.0011957732 1.5193883e-38 307 239
-0.01434928 0.68199998 0.0011957732 1.5010933e-38 308 239
-0.013153506 0.68199998 0.0011957732 1.5287519e-38 309 239
-0.011957732 0.68199998 0.0011957732 1.5012008e-38 310 239
-0.010761959 0.68199998 0.0011957732 1.4919813e-38 311 239
-0.009566186 0.68199998 0.0011957732 1.4826538e-38 312 239
-0.0083704125 0.68199998 0.0011957732 1.4642147e-38 313 239
-0.00717464 0.68199998 0.0011957732 1.4364115e-38 314 239
-0.005978866 0.68199998 0.0011957732 1.4179724e-38 315 239
-0.004783093 0.68199998 0.0011957732 1.3994965e-38 316 239
-0.00358732 0.68199998 0.0011957732 1.3626184e-38 317 239
-0.0023915465 0.68199998 0.0011957732 1.3441426e-38 318 239
-0.0011975267 0.68300003 0.0011975267 1.316448e-38 319 239
0 0.68300003 0.0011975267 1.3163761e-38 320 239
0.0011975267 0.68300003 0.0011975267 1.2887173e-38 321 239
0.0023950534 0.68300003 0.0011975267 1.3069766e-38 322 239
0.00359784 0.68400002 0.00119928 1.2700985e-38 323 239
0.0048111463 0.68599999 0.0012027866 1.2515871e-38 324 239
0.0060139326 0.68599999 0.0012027866 1.2515871e-38 325 239
0.0072272392 0.68699998 0.0012045399 1.2514792e-38 326 239
0.0084317802 0.68699998 0.0012045399 1.2422596e-38 327 239
0.0096363192 0.68699998 0.0012045399 1.2146012e-38 328 239
0.010856641 0.68800002 0.0012062934 1.2146012e-38 329 239
0.012062933 0.68800002 0.0012062934 1.1686832e-38 330 239
0.013269227 0.68800002 0.0012062934 1.1686832e-38 331 239
0.014475521 0.68800002 0.0012062934 1.1503167e-38 332 239
0.015727401 0.69 0.0012097999 1.1318417e-38 333 239
0.017035386 0.69400001 0.0012168133 1.1135107e-38 334 239
0.018304799 0.69599998 0.0012203199 1.1227303e-38 335 239
0.019581227 0.69800001 0.0012238267 1.0860684e-38 336 239
0.020805053 0.69800001 0.0012238267 1.1045075e-38 337 239
0.022218239 0.704 0.0012343467 1.0859978e-38 338 239
0.023452586 0.704 0.0012343467 1.0398999e-38 339 239
0.024686933 0.704 0.0012343467 9.7586719e-39 340 239
0.025994917 0.70599997 0.0012378532 1.0220009e-38 341 239
0.027232772 0.70599997 0.0012378532 8.2954207e-39 342 239
-0.056018997 0.70999998 -0 1.1801759e-38 275 240
-0.054619838 0.708 -0 1.234269e-38 276 240
-0.053378478 0.708 -0 1.0867559e-38 277 240
-0.05206348 0.70700002 -0 1.2800434e-38 278 240
-0.050823875 0.70700002 -0 1.3168856e-38 279 240
-0.049373865 0.704 -0 1.0769253e-38 280 240
-0.048139516 0.704 -0 1.3166338e-38 281 240
-0.046705291 0.70099998 -0 1.438e-38 282 240
-0.04541133 0.69999999 -0 1.4564393e-38 283 240
-0.04405776 0.69800001 -0 1.383009e-38 284 240
-0.042833932 0.69800001 -0 1.4751686e-38 285 240
-0.041610107 0.69800001 -0 1.5393796e-38 286 240
-0.040386278 0.69800001 -0 1.3181461e-38 287 240
-0.038376961 0.68400002 -0 1.3630869e-38 288 240
-0.037123326 0.68300003 -0 1.1786958e-38 289 240
-0.035925802 0.68300003 -0 1.2886451e-38 290 240
-0.03477912 0.68400002 -0 1.3162678e-38 291 240
-0.033579841 0.68400002 -0 1.3344558e-38 292 240
-0.032333218 0.68300003 -0 1.3252363e-38 293 240
-0.031090107 0.68199998 -0 1.3528596e-38 294 240
-0.029894331 0.68199998 -0 1.3897379e-38 295 240
-0.02869856 0.68199998 -0 1.3991021e-38 296 240
-0.027502786 0.68199998 -0 1.3991021e-38 297 240
-0.026229866 0.68000001 -0 1.3991374e-38 298 240
-0.025037598 0.68000001 -0 1.3991374e-38 299 240
-0.023845334 0.68000001 -0 1.3808778e-38 300 240
-0.022653066 0.68000001 -0 1.3901332e-38 301 240
-0.021523919 0.68199998 -0 1.4086086e-38 302 240
-0.020328145 0.68199998 -0 1.4362673e-38 303 240
-0.019076265 0.68000001 -0 1.4364118e-38 304 240
-0.017883999 0.68000001 -0 1.4641065e-38 305 240
-0.016691733 0.68000001 -0 1.4826538e-38 306 240
-0.015499466 0.68000001 -0 1.5011289e-38 307 240
-0.014307199 0.68000001 -0 1.5104201e-38 308 240
-0.013114933 0.68000001 -0 1.5104201e-38 309 240
-0.011922667 0.68000001 -0 1.5287866e-38 310 240
-0.0107304 0.68000001 -0 1.5103835e-38 311 240
-0.0095381327 0.68000001 -0 1.5194589e-38 312 240
-0.0083458666 0.68000001 -0 1.4641415e-38 313 240
-0.0071535995 0.68000001 -0 1.4639616e-38 314 240
-0.0059613334 0.68000001 -0 1.4178639e-38 315 240
-0.0047690663 0.68000001 -0 1.3901695e-38 316 240
-0.0035767998 0.68000001 -0 1.3533273e-38 317 240
-0.0023845332 0.68000001 -0 1.3348874e-38 318 240
-0.0011975267 0.68300003 -0 1.3164483e-38 319 240
0 0.68300003 -0 1.3162681e-38 320 240
0.0011957732 0.68199998 -0 1.2794259e-38 321 240
0.0023915465 0.68199998 -0 1.2793184e-38 322 240
0.0035925799 0.68300003 -0 1.2700988e-38 323 240
0.0047971201 0.68400002 -0 1.2515874e-38 324 240
0.0059964 0.68400002 -0 1.2331483e-38 325 240
0.0072167199 0.68599999 -0 1.2514076e-38 326 240
0.0084317802 0.68699998 -0 1.2421879e-38 327 240
0.0096363192 0.68699998 -0 1.2146015e-38 328 240
0.010840859 0.68699998 -0 1.2053819e-38 329 240
0.012045399 0.68699998 -0 1.177903e-38 330 240
0.013249939 0.68699998 -0 1.1686476e-38 331 240
0.014475521 0.68800002 -0 1.1502448e-38 332 240
0.015681813 0.68800002 -0 1.1502448e-38 333 240
0.016961746 0.69099998 -0 1.1410615e-38 334 240
0.018225901 0.69300002 -0 1.1410615e-38 335 240
0.019553173 0.69700003 -0 1.1044353e-38 336 240
0.020805053 0.69800001 -0 1.1044353e-38 337 240
0.022091998 0.69999999 -0 1.0860334e-38 338 240
0.023419274 0.70300001 -0 1.030716e-38 339 240
0.024686933 0.704 -0 9.940901e-39 340 240
0.02592128 0.704 -0 1.0678466e-38 341 240
0.027155625 0.704 -0 9.5822092e-39 342 240
-0.057263866 0.70999998 -0.0012448666 1.0136112e-38 274 241
-0.056018997 0.70999998 -0.0012448666 1.3916132e-38 275 241
-0.054619838 0.708 -0.00124136 1.2346279e-38 276 241
-0.053378478 0.708 -0.00124136 1.0041748e-38 277 241
-0.051842559 0.704 -0.0012343467 1.1965982e-38 278 241
-0.050536323 0.70300001 -0.0012325933 1.2426959e-38 279 241
-0.049303733 0.70300001 -0.0012325933 1.3267889e-38 280 241
-0.047934376 0.70099998 -0.0012290865 1.5019606e-38 281 241
-0.046638668 0.69999999 -0.0012273333 1.3366574e-38 282 241
-0.045281585 0.69800001 -0.0012238267 1.2444259e-38 283 241
-0.043931518 0.69599998 -0.0012203199 1.3091079e-38 284 241
-0.042711195 0.69599998 -0.0012203199 1.3736448e-38 285 241
-0.041490879 0.69599998 -0.0012203199 1.3545549e-38 286 241
-0.039518382 0.68300003 -0.0011975267 1.0411257e-38 287 241
-0.038320854 0.68300003 -0.0011975267 1.3991377e-38 288 241
-0.037123326 0.68300003 -0.0011975267 1.4267603e-38 289 241
-0.035925802 0.68300003 -0.0011975267 1.4177559e-38 290 241
-0.034728274 0.68300003 -0.0011975267 1.4085363e-38 291 241
-0.033530746 0.68300003 -0.0011975267 1.3901332e-38 292 241
-0.032285877 0.68199998 -0.0011957732 1.3808778e-38 293 241
-0.031090107 0.68199998 -0.0011957732 1.3991374e-38 294 241
-0.029894331 0.68199998 -0.0011957732 1.3899177e-38 295 241
-0.028614398 0.68000001 -0.0011922666 1.4082845e-38 296 241
-0.027422134 0.68000001 -0.0011922666 1.4082845e-38 297 241
-0.026229866 0.68000001 -0.0011922666 1.3991727e-38 298 241
-0.025000781 0.67900002 -0.0011905134 1.4083923e-38 299 241
-0.023810266 0.67900002 -0.0011905134 1.3901329e-38 300 241
-0.022619752 0.67900002 -0.0011905134 1.408536e-38 301 241
-0.021429239 0.67900002 -0.0011905134 1.4087162e-38 302 241
-0.020238725 0.67900002 -0.0011905134 1.4363749e-38 303 241
-0.019048214 0.67900002 -0.0011905134 1.4456313e-38 304 241
-0.017857701 0.67900002 -0.0011905134 1.4825096e-38 305 241
-0.016667187 0.67900002 -0.0011905134 1.4826541e-38 306 241
-0.015476674 0.67900002 -0.0011905134 1.5103488e-38 307 241
-0.01428616 0.67900002 -0.0011905134 1.5196402e-38 308 241
-0.013095647 0.67900002 -0.0011905134 1.5288598e-38 309 241
-0.011905133 0.67900002 -0.0011905134 1.5196399e-38 310 241
-0.010714619 0.67900002 -0.0011905134 1.5196399e-38 311 241
-0.009524107 0.67900002 -0.0011905134 1.4919094e-38 312 241
-0.0083335936 0.67900002 -0.0011905134 1.4642147e-38 313 241
-0.0071430802 0.67900002 -0.0011905134 1.4547436e-38 314 241
-0.0059525664 0.67900002 -0.0011905134 1.4086459e-38 315 241
-0.0047620535 0.67900002 -0.0011905134 1.3809146e-38 316 241
-0.0035767998 0.68000001 -0.0011922666 1.3440722e-38 317 241
-0.0023845332 0.68000001 -0.0011922666 1.3439638e-38 318 241
-0.0011922666 0.68000001 -0.0011922666 1.3071215e-38 319 241
0 0.68000001 -0.0011922666 1.3253807e-38 320 241
0.0011922666 0.68000001 -0.0011922666 1.3069416e-38 321 241
0.0023915465 0.68199998 -0.0011957732 1.2793549e-38 322 241
0.0035925799 0.68300003 -0.0011975267 1.2609158e-38 323 241
0.0047901068 0.68300003 -0.0011975267 1.2515523e-38 324 241
0.0059876335 0.68300003 -0.0011975267 1.2423328e-38 325 241
0.0071956799 0.68400002 -0.00119928 1.2422246e-38 326 241
0.0083949603 0.68400002 -0.00119928 1.2238214e-38 327 241
0.0096222926 0.68599999 -0.0012027866 1.2054538e-38 328 241
0.010840859 0.68699998 -0.0012045399 1.1870507e-38 329 241
0.012045399 0.68699998 -0.0012045399 1.1686476e-38 330 241
0.013249939 0.68699998 -0.0012045399 1.1502445e-38 331 241
0.014454478 0.68699998 -0.0012045399 1.1410252e-38 332 241
0.015681813 0.68800002 -0.0012062934 1.1410252e-38 333 241
0.0169372 0.69 -0.0012097999 1.1318422e-38 334 241
0.018146999 0.69 -0.0012097999 1.1410618e-38 335 241
0.019469013 0.69400001 -0.0012168133 1.0952524e-38 336 241
0.020745439 0.69599998 -0.0012203199 1.1137274e-38 337 241
0.022091998 0.69999999 -0.0012273333 1.0586615e-38 338 241
0.023419274 0.70300001 -0.0012325933 9.8490501e-39 339 241
0.024651866 0.70300001 -0.0012325933 9.3873713e-39 340 241
0.02592128 0.704 -0.0012343467 1.2061046e-38 341 241
0.027117053 0.70300001 -0.0012325933 1.3545921e-38 342 241
0.028349647 0.70300001 -0.0012325933 1.5943367e-38 343 241
-0.058343921 0.708 -0.00248272 7.4667544e-39 273 242
-0.057102561 0.708 -0.00248272 1.0318705e-38 274 242
-0.055861197 0.708 -0.00248272 1.4651898e-38 275 242
-0.054619838 0.708 -0.00248272 1.317675e-38 276 242
-0.053076904 0.704 -0.0024686933 1.0134294e-38 277 242
-0.051842559 0.704 -0.0024686933 1.1228767e-38 278 242
-0.050536323 0.70300001 -0.0024651866 1.2058528e-38 279 242
-0.049303733 0.70300001 -0.0024651866 1.5020685e-38 280 242
-0.047865998 0.69999999 -0.0024546667 1.4375316e-38 281 242
-0.046505414 0.69800001 -0.0024476533 1.1056641e-38 282 242
-0.045216713 0.69700003 -0.0024441467 1.2623969e-38 283 242
-0.043805279 0.69400001 -0.0024336267 1.428817e-38 284 242
-0.042588469 0.69400001 -0.0024336267 1.3366574e-38 285 242
-0.041371655 0.69400001 -0.0024336267 1.372705e-38 286 242
-0.039518382 0.68300003 -0.0023950534 1.1145572e-38 287 242
-0.038320854 0.68300003 -0.0023950534 1.3992093e-38 288 242
-0.037068974 0.68199998 -0.0023915465 1.4176484e-38 289 242
-0.035873197 0.68199998 -0.0023915465 1.4085007e-38 290 242
-0.034677424 0.68199998 -0.0023915465 1.3900976e-38 291 242
-0.03348165 0.68199998 -0.0023915465 1.3992446e-38 292 242
-0.032191198 0.68000001 -0.0023845332 1.390025e-38 293 242
-0.030998932 0.68000001 -0.0023845332 1.3991727e-38 294 242
-0.029806666 0.68000001 -0.0023845332 1.3991727e-38 295 242
-0.028572321 0.67900002 -0.0023810267 1.4082842e-38 296 242
-0.027381808 0.67900002 -0.0023810267 1.4082842e-38 297 242
-0.026191294 0.67900002 -0.0023810267 1.3991727e-38 298 242
-0.025000781 0.67900002 -0.0023810267 1.4083923e-38 299 242
-0.023705067 0.676 -0.0023705065 1.3902051e-38 300 242
-0.022519812 0.676 -0.0023705065 1.4086442e-38 301 242
-0.021397678 0.67799997 -0.0023775198 1.3995693e-38 302 242
-0.020208918 0.67799997 -0.0023775198 1.4364115e-38 303 242
-0.019020159 0.67799997 -0.0023775198 1.4549235e-38 304 242
-0.017857701 0.67900002 -0.0023810267 1.4733626e-38 305 242
-0.016642639 0.67799997 -0.0023775198 1.4643593e-38 306 242
-0.015453878 0.67799997 -0.0023775198 1.4828343e-38 307 242
-0.01428616 0.67900002 -0.0023810267 1.5012734e-38 308 242
-0.013095647 0.67900002 -0.0023810267 1.5012734e-38 309 242
-0.011905133 0.67900002 -0.0023810267 1.5379712e-38 310 242
-0.010714619 0.67900002 -0.0023810267 1.5287516e-38 311 242
-0.0095100794 0.67799997 -0.0023775198 1.4918373e-38 312 242
-0.0083213197 0.67799997 -0.0023775198 1.4549232e-38 313 242
-0.0071325595 0.67799997 -0.0023775198 1.4546714e-38 314 242
-0.0059437994 0.67799997 -0.0023775198 1.399354e-38 315 242
-0.0047620535 0.67900002 -0.0023810267 1.3808783e-38 316 242
-0.0035715401 0.67900002 -0.0023810267 1.3531836e-38 317 242
-0.0023810267 0.67900002 -0.0023810267 1.316413e-38 318 242
-0.0011905134 0.67900002 -0.0023810267 1.2795347e-38 319 242
0 0.67900002 -0.0023810267 1.2978299e-38 320 242
0.0011905134 0.67900002 -0.0023810267 1.2886104e-38 321 242
0.0023845332 0.68000001 -0.0023845332 1.270171e-38 322 242
0.00358732 0.68199998 -0.0023915465 1.2516958e-38 323 242
0.0047901068 0.68300003 -0.0023950534 1.2423328e-38 324 242
0.0059876335 0.68300003 -0.0023950534 1.2238578e-38 325 242
0.0071851597 0.68300003 -0.0023950534 1.2238214e-38 326 242
0.0083826864 0.68300003 -0.0023950534 1.2146018e-38 327 242
0.0095942402 0.68400002 -0.0023985601 1.2053819e-38 328 242
0.010825079 0.68599999 -0.0024055731 1.1961624e-38 329 242
0.012045399 0.68699998 -0.0024090798 1.1686476e-38 330 242
0.013249939 0.68699998 -0.0024090798 1.1410249e-38 331 242
0.014454478 0.68699998 -0.0024090798 1.1409896e-38 332 242
0.015681813 0.68800002 -0.0024125867 1.1409896e-38 333 242
0.016888106 0.68800002 -0.0024125867 1.1134757e-38 334 242
0.018146999 0.69 -0.0024195998 1.1134757e-38 335 242
0.019384852 0.69099998 -0.0024231065 1.0952524e-38 336 242
0.020745439 0.69599998 -0.0024406398 1.1321666e-38 337 242
0.02202888 0.69800001 -0.0024476533 1.0864634e-38 338 242
0.023419274 0.70300001 -0.0024651866 9.9423177e-39 339 242
0.024651866 0.70300001 -0.0024651866 9.3862951e-39 340 242
0.02592128 0.704 -0.0024686933 1.0308253e-38 341 242
0.027117053 0.70300001 -0.0024651866 1.3639928e-38 342 242
0.028349647 0.70300001 -0.0024651866 1.7604699e-38 343 242
0.029582238 0.70300001 -0.0024651866 1.6686336e-38 344 242
-0.059501119 0.70700002 -0.0037188199 8.0156122e-39 272 243
-0.05826151 0.70700002 -0.0037188199 7.9230564e-39 273 243
-0.057021905 0.70700002 -0.0037188199 9.9513645e-39 274 243
-0.055782299 0.70700002 -0.0037188199 1.4561146e-38 275 243
-0.054465543 0.70599997 -0.0037135598 1.4006879e-38 276 243
-0.053076904 0.704 -0.0037030398 1.0503805e-38 277 243
-0.051842559 0.704 -0.0037030398 1.1780514e-38 278 243
-0.050536323 0.70300001 -0.0036977797 1.4177601e-38 279 243
-0.049163464 0.70099998 -0.0036872597 1.520435e-38 280 243
-0.047865998 0.69999999 -0.0036819996 1.2622873e-38 281 243
-0.046438783 0.69700003 -0.00366622 1.0679224e-38 282 243
-0.045022093 0.69400001 -0.0036504399 1.4551441e-38 283 243
-0.043552797 0.69 -0.0036293997 1.493065e-38 284 243
-0.042220265 0.68800002 -0.0036188802 1.2717955e-38 285 243
-0.040954359 0.68699998 -0.0036136196 1.3812393e-38 286 243
-0.039460517 0.68199998 -0.00358732 1.3074828e-38 287 243
-0.038264744 0.68199998 -0.00358732 1.3992093e-38 288 243
-0.037068974 0.68199998 -0.00358732 1.4084288e-38 289 243
-0.035767999 0.68000001 -0.0035767998 1.408536e-38 290 243
-0.034575731 0.68000001 -0.0035767998 1.3901329e-38 291 243
-0.033383466 0.68000001 -0.0035767998 1.3992799e-38 292 243
-0.032143861 0.67900002 -0.0035715401 1.3900603e-38 293 243
-0.030953348 0.67900002 -0.0035715401 1.3900603e-38 294 243
-0.029762832 0.67900002 -0.0035715401 1.3808048e-38 295 243
-0.028530238 0.67799997 -0.0035662798 1.4082839e-38 296 243
-0.027260827 0.676 -0.0035557596 1.4082839e-38 297 243
-0.026075572 0.676 -0.0035557596 1.399173e-38 298 243
-0.024890319 0.676 -0.0035557596 1.4083925e-38 299 243
-0.023705067 0.676 -0.0035557596 1.3902414e-38 300 243
-0.022519812 0.676 -0.0035557596 1.3994609e-38 301 243
-0.021397678 0.67799997 -0.0035662798 1.3996414e-38 302 243
-0.020208918 0.67799997 -0.0035662798 1.4273001e-38 303 243
-0.019020159 0.67799997 -0.0035662798 1.4458118e-38 304 243
-0.0178314 0.67799997 -0.0035662798 1.4734345e-38 305 243
-0.016642639 0.67799997 -0.0035662798 1.4643231e-38 306 243
-0.015453878 0.67799997 -0.0035662798 1.5011655e-38 307 243
-0.014265119 0.67799997 -0.0035662798 1.4920538e-38 308 243
-0.013095647 0.67900002 -0.0035715401 1.5012734e-38 309 243
-0.011905133 0.67900002 -0.0035715401 1.5104207e-38 310 243
-0.010698839 0.67799997 -0.0035662798 1.5011652e-38 311 243
-0.0095100794 0.67799997 -0.0035662798 1.4734342e-38 312 243
-0.0083213197 0.67799997 -0.0035662798 1.4273724e-38 313 243
-0.0071325595 0.67799997 -0.0035662798 1.4178652e-38 314 243
-0.0059437994 0.67799997 -0.0035662798 1.3625837e-38 315 243
-0.0047550397 0.67799997 -0.0035662798 1.3624388e-38 316 243
-0.0035662798 0.67799997 -0.0035662798 1.3255607e-38 317 243
-0.0023775198 0.67799997 -0.0035662798 1.3071215e-38 318 243
-0.0011887599 0.67799997 -0.0035662798 1.2794268e-38 319 243
0 0.67900002 -0.0035715401 1.2976865e-38 320 243
0.0011905134 0.67900002 -0.0035715401 1.2792833e-38 321 243
0.0023845332 0.68000001 -0.0035767998 1.2700638e-38 322 243
0.00358732 0.68199998 -0.00358732 1.2515886e-38 323 243
0.004783093 0.68199998 -0.00358732 1.2330776e-38 324 243
0.005978866 0.68199998 -0.00358732 1.2146385e-38 325 243
0.0071851597 0.68300003 -0.0035925799 1.2054185e-38 326 243
0.0083826864 0.68300003 -0.0035925799 1.2054185e-38 327 243
0.0095802136 0.68300003 -0.0035925799 1.1778674e-38 328 243
0.01079352 0.68400002 -0.00359784 1.1686479e-38 329 243
0.012027865 0.68599999 -0.00360836 1.1686479e-38 330 243
0.013249939 0.68699998 -0.0036136196 1.1502448e-38 331 243
0.014454478 0.68699998 -0.0036136196 1.1318419e-38 332 243
0.015659019 0.68699998 -0.0036136196 1.1318419e-38 333 243
0.016888106 0.68800002 -0.0036188802 1.1134757e-38 334 243
0.018146999 0.69 -0.0036293997 1.1134757e-38 335 243
0.019384852 0.69099998 -0.0036346598 1.0861057e-38 336 243
0.020685827 0.69400001 -0.0036504399 1.141423e-38 337 243
0.021965759 0.69599998 -0.0036609597 1.0866449e-38 338 243
0.023319334 0.69999999 -0.0036819996 1.0497666e-38 339 243
0.024581732 0.70099998 -0.0036872597 1.0308609e-38 340 243
0.025884461 0.70300001 -0.0036977797 7.8193267e-39 341 243
0.027117053 0.70300001 -0.0036977797 1.2162986e-38 342 243
0.028349647 0.70300001 -0.0036977797 1.8893267e-38 343 243
0.029582238 0.70300001 -0.0036977797 1.8347299e-38 344 243
-0.060826641 0.708 -0.0049654399 8.7686644e-39 271 244
-0.059416957 0.70599997 -0.0049514128 1.2990596e-38 272 244
-0.058179103 0.70599997 -0.0049514128 1.1792053e-38 273 244
-0.056941248 0.70599997 -0.0049514128 1.0417387e-38 274 244
-0.055703394 0.70599997 -0.0049514128 1.3459842e-38 275 244
-0.054311249 0.704 -0.0049373866 1.3825735e-38 276 244
-0.053076904 0.704 -0.0049373866 1.1059507e-38 277 244
-0.051768921 0.70300001 -0.0049303733 1.1965985e-38 278 244
-0.050392549 0.70099998 -0.0049163462 1.3256723e-38 279 244
-0.049093332 0.69999999 -0.0049093333 1.2711106e-38 280 244
-0.047729239 0.69800001 -0.0048953067 1.2157932e-38 281 244
-0.046372157 0.69599998 -0.0048812795 1.3164187e-38 282 244
-0.044957221 0.69300002 -0.00486024 1.4824069e-38 283 244
-0.043426562 0.68800002 -0.0048251734 1.3817094e-38 284 244
-0.042158898 0.68699998 -0.0048181596 1.2157932e-38 285 244
-0.040775519 0.68400002 -0.0047971201 1.3718032e-38 286 244
-0.039460517 0.68199998 -0.004783093 1.3533282e-38 287 244
-0.038264744 0.68199998 -0.004783093 1.3808783e-38 288 244
-0.036960267 0.68000001 -0.0047690663 1.408501e-38 289 244
-0.035715401 0.67900002 -0.0047620535 1.3902045e-38 290 244
-0.034524884 0.67900002 -0.0047620535 1.380985e-38 291 244
-0.033334374 0.67900002 -0.0047620535 1.3901326e-38 292 244
-0.03209652 0.67799997 -0.0047550397 1.3809131e-38 293 244
-0.030907756 0.67799997 -0.0047550397 1.3900603e-38 294 244
-0.029718997 0.67799997 -0.0047550397 1.3900603e-38 295 244
-0.028530238 0.67799997 -0.0047550397 1.3991724e-38 296 244
-0.027260827 0.676 -0.0047410131 1.3991724e-38 297 244
-0.026075572 0.676 -0.0047410131 1.3808778e-38 298 244
-0.024890319 0.676 -0.0047410131 1.3901332e-38 299 244
-0.023669999 0.67500001 -0.0047339997 1.3994612e-38 300 244
-0.022486499 0.67500001 -0.0047339997 1.4179005e-38 301 244
-0.021334561 0.676 -0.0047410131 1.4180806e-38 302 244
-0.020149305 0.676 -0.0047410131 1.4457034e-38 303 244
-0.018964052 0.676 -0.0047410131 1.436592e-38 304 244
-0.0178314 0.67799997 -0.0047550397 1.4826538e-38 305 244
-0.016642639 0.67799997 -0.0047550397 1.4643228e-38 306 244
-0.015453878 0.67799997 -0.0047550397 1.4919457e-38 307 244
-0.014265119 0.67799997 -0.0047550397 1.4828343e-38 308 244
-0.013076359 0.67799997 -0.0047550397 1.4828343e-38 309 244
-0.011887599 0.67799997 -0.0047550397 1.4919459e-38 310 244
-0.010698839 0.67799997 -0.0047550397 1.4643231e-38 311 244
-0.0094820261 0.676 -0.0047410131 1.4457762e-38 312 244
-0.0082967728 0.676 -0.0047410131 1.4181175e-38 313 244
-0.0071115191 0.676 -0.0047410131 1.4086456e-38 314 244
-0.0059262668 0.676 -0.0047410131 1.3533282e-38 315 244
-0.0047410131 0.676 -0.0047410131 1.3531833e-38 316 244
-0.0035662798 0.67799997 -0.0047550397 1.3163411e-38 317 244
-0.0023775198 0.67799997 -0.0047550397 1.2978299e-38 318 244
-0.0011887599 0.67799997 -0.0047550397 1.2793549e-38 319 244
0 0.67900002 -0.0047620535 1.2792833e-38 320 244
0.0011905134 0.67900002 -0.0047620535 1.2608442e-38 321 244
0.0023845332 0.68000001 -0.0047690663 1.2516242e-38 322 244
0.00358732 0.68199998 -0.004783093 1.2331851e-38 323 244
0.004783093 0.68199998 -0.004783093 1.2238581e-38 324 244
0.005978866 0.68199998 -0.004783093 1.2054188e-38 325 244
0.00717464 0.68199998 -0.004783093 1.1595009e-38 326 244
0.0083704125 0.68199998 -0.004783093 1.1595009e-38 327 244
0.0095802136 0.68300003 -0.0047901068 1.1686482e-38 328 244
0.01077774 0.68300003 -0.0047901068 1.1502092e-38 329 244
0.0119928 0.68400002 -0.0047971201 1.1593208e-38 330 244
0.01319208 0.68400002 -0.0047971201 1.1685763e-38 331 244
0.014454478 0.68699998 -0.0048181596 1.1318419e-38 332 244
0.015659019 0.68699998 -0.0048181596 1.1318419e-38 333 244
0.016888106 0.68800002 -0.0048251734 1.1043277e-38 334 244
0.018146999 0.69 -0.0048391996 1.1043277e-38 335 244
0.019356798 0.69 -0.0048391996 1.0768864e-38 336 244
0.020656019 0.69300002 -0.00486024 1.1322038e-38 337 244
0.021902639 0.69400001 -0.0048672534 1.0958291e-38 338 244
0.023319334 0.69999999 -0.0049093333 1.0958291e-38 339 244
0.024581732 0.70099998 -0.0049163462 1.0128526e-38 340 244
0.025884461 0.70300001 -0.0049303733 7.1786264e-39 341 244
-0.060826641 0.708 -0.0062067998 1.3741857e-38 271 245
-0.059416957 0.70599997 -0.0061892662 1.7417078e-38 272 245
-0.058179103 0.70599997 -0.0061892662 1.3544861e-38 273 245
-0.056941248 0.70599997 -0.0061892662 9.867103e-39 274 245
-0.055703394 0.70599997 -0.0061892662 1.2448581e-38 275 245
-0.054311249 0.704 -0.0061717331 1.4101971e-38 276 245
-0.053076904 0.704 -0.0061717331 1.2349896e-38 277 245
-0.051768921 0.70300001 -0.0061629666 1.1876288e-38 278 245
-0.050392549 0.70099998 -0.0061454331 1.1414949e-38 279 245
-0.048953064 0.69800001 -0.006119133 1.1598627e-38 280 245
-0.047592476 0.69599998 -0.0061015999 1.325779e-38 281 245
-0.04617228 0.69300002 -0.0060753003 1.4183369e-38 282 245
-0.0447626 0.69 -0.0060489997 1.3814226e-38 283 245
-0.043426562 0.68800002 -0.0060314666 1.2151095e-38 284 245
-0.042158898 0.68699998 -0.0060226996 1.2151095e-38 285 245
-0.040715907 0.68300003 -0.0059876335 1.3440734e-38 286 245
-0.039460517 0.68199998 -0.005978866 1.3440734e-38 287 245
-0.038152531 0.68000001 -0.0059613334 1.362654e-38 288 245
-0.036960267 0.68000001 -0.0059613334 1.3718736e-38 289 245
-0.035715401 0.67900002 -0.0059525664 1.4085713e-38 290 245
-0.034474038 0.67799997 -0.0059437994 1.3901682e-38 291 245
-0.033285279 0.67799997 -0.0059437994 1.3809487e-38 292 245
-0.03209652 0.67799997 -0.0059437994 1.3809487e-38 293 245
-0.030816587 0.676 -0.0059262668 1.3716932e-38 294 245
-0.029631332 0.676 -0.0059262668 1.3716932e-38 295 245
-0.028446076 0.676 -0.0059262668 1.3716938e-38 296 245
-0.027220501 0.67500001 -0.0059174998 1.3809134e-38 297 245
-0.026037 0.67500001 -0.0059174998 1.3625831e-38 298 245
-0.0248535 0.67500001 -0.0059174998 1.3902417e-38 299 245
-0.023669999 0.67500001 -0.0059174998 1.3627635e-38 300 245
-0.022486499 0.67500001 -0.0059174998 1.3996058e-38 301 245
-0.021334561 0.676 -0.0059262668 1.4088973e-38 302 245
-0.020149305 0.676 -0.0059262668 1.436592e-38 303 245
-0.018964052 0.676 -0.0059262668 1.4366286e-38 304 245
-0.017778801 0.676 -0.0059262668 1.4550677e-38 305 245
-0.016593546 0.676 -0.0059262668 1.4643596e-38 306 245
-0.015408293 0.676 -0.0059262668 1.4643596e-38 307 245
-0.014223038 0.676 -0.0059262668 1.4552479e-38 308 245
-0.013037786 0.676 -0.0059262668 1.4552479e-38 309 245
-0.011852534 0.676 -0.0059262668 1.4551403e-38 310 245
-0.01066728 0.676 -0.0059262668 1.418262e-38 311 245
-0.0094820261 0.676 -0.0059262668 1.4272655e-38 312 245
-0.0082844999 0.67500001 -0.0059174998 1.3995708e-38 313 245
-0.0071010003 0.67500001 -0.0059174998 1.3627635e-38 314 245
-0.0059174998 0.67500001 -0.0059174998 1.3166298e-38 315 245
-0.0047410131 0.676 -0.0059262668 1.3164133e-38 316 245
-0.0035557596 0.676 -0.0059262668 1.279535e-38 317 245
-0.0023775198 0.67799997 -0.0059437994 1.2794271e-38 318 245
-0.0011887599 0.67799997 -0.0059437994 1.2518044e-38 319 245
0 0.67799997 -0.0059437994 1.2333294e-38 320 245
0.0011887599 0.67799997 -0.0059437994 1.2241097e-38 321 245
0.0023810267 0.67900002 -0.0059525664 1.214818e-38 322 245
0.0035715401 0.67900002 -0.0059525664 1.1963789e-38 323 245
0.0047690663 0.68000001 -0.0059613334 1.1870876e-38 324 245
0.0059613334 0.68000001 -0.0059613334 1.1778321e-38 325 245
0.0071535995 0.68000001 -0.0059613334 1.1503532e-38 326 245
0.0083458666 0.68000001 -0.0059613334 1.1227306e-38 327 245
0.009566186 0.68199998 -0.005978866 1.1227306e-38 328 245
0.01077774 0.68300003 -0.0059876335 1.1134751e-38 329 245
0.011975267 0.68300003 -0.0059876335 1.1318066e-38 330 245
0.013172794 0.68300003 -0.0059876335 1.1318066e-38 331 245
0.01439136 0.68400002 -0.0059964 1.1318422e-38 332 245
0.015636226 0.68599999 -0.0060139326 1.1318422e-38 333 245
0.016839013 0.68599999 -0.0060139326 1.1134754e-38 334 245
0.0180944 0.68800002 -0.0060314666 1.1134754e-38 335 245
0.019300694 0.68800002 -0.0060314666 1.0676312e-38 336 245
0.020566599 0.69 -0.0060489997 1.1321682e-38 337 245
0.021776399 0.69 -0.0060489997 1.0683149e-38 338 245
0.022986198 0.69 -0.0060489997 1.0960095e-38 339 245
0.024651866 0.70300001 -0.0061629666 1.0404394e-38 340 245
0.025884461 0.70300001 -0.0061629666 7.3619387e-39 341 245
-0.060826641 0.708 -0.0074481601 1.8348026e-38 271 246
-0.059501119 0.70700002 -0.0074376399 1.9445382e-38 272 246
-0.05826151 0.70700002 -0.0074376399 1.3176437e-38 273 246
-0.056941248 0.70599997 -0.0074271196 9.5800863e-39 274 246
-0.055703394 0.70599997 -0.0074271196 1.3636694e-38 275 246
-0.054311249 0.704 -0.0074060797 1.4010495e-38 276 246
-0.053001512 0.70300001 -0.0073955595 1.2904148e-38 277 246
-0.051621638 0.70099998 -0.0073745195 1.169154e-38 278 246
-0.050320663 0.69999999 -0.0073639993 1.1783736e-38 279 246
-0.048953064 0.69800001 -0.0073429602 1.3540122e-38 280 246
-0.047592476 0.69599998 -0.0073219193 1.3908544e-38 281 246
-0.04617228 0.69300002 -0.0072903596 1.3172075e-38 282 246
-0.0447626 0.69 -0.0072587994 1.1881336e-38 283 246
-0.043426562 0.68800002 -0.0072377604 1.2792852e-38 284 246
-0.041913435 0.68300003 -0.0071851597 1.3161275e-38 285 246
-0.040656291 0.68199998 -0.00717464 1.3531839e-38 286 246
-0.039286941 0.67900002 -0.0071430802 1.3531839e-38 287 246
-0.038096428 0.67900002 -0.0071430802 1.3718736e-38 288 246
-0.036851559 0.67799997 -0.0071325595 1.3902767e-38 289 246
-0.035557602 0.676 -0.0071115191 1.3994241e-38 290 246
-0.034372345 0.676 -0.0071115191 1.3902045e-38 291 246
-0.033187091 0.676 -0.0071115191 1.3901326e-38 292 246
-0.032001842 0.676 -0.0071115191 1.3716935e-38 293 246
-0.030771 0.67500001 -0.0071010003 1.3716935e-38 294 246
-0.0295875 0.67500001 -0.0071010003 1.3532542e-38 295 246
-0.028404001 0.67500001 -0.0071010003 1.3808053e-38 296 246
-0.027220501 0.67500001 -0.0071010003 1.3808053e-38 297 246
-0.026037 0.67500001 -0.0071010003 1.3717301e-38 298 246
-0.0248535 0.67500001 -0.0071010003 1.3809496e-38 299 246
-0.023634933 0.67400002 -0.0070904801 1.3810944e-38 300 246
-0.022453187 0.67400002 -0.0070904801 1.3903141e-38 301 246
-0.021303 0.67500001 -0.0071010003 1.4088254e-38 302 246
-0.020119499 0.67500001 -0.0071010003 1.4273004e-38 303 246
-0.018935999 0.67500001 -0.0071010003 1.4365564e-38 304 246
-0.0177525 0.67500001 -0.0071010003 1.4642149e-38 305 246
-0.016569 0.67500001 -0.0071010003 1.4550677e-38 306 246
-0.0153855 0.67500001 -0.0071010003 1.4643231e-38 307 246
-0.01418096 0.67400002 -0.0070904801 1.4551396e-38 308 246
-0.012999214 0.67400002 -0.0070904801 1.44592e-38 309 246
-0.011817466 0.67400002 -0.0070904801 1.4273734e-38 310 246
-0.01063572 0.67400002 -0.0070904801 1.3997507e-38 311 246
-0.0094539737 0.67400002 -0.0070904801 1.3996061e-38 312 246
-0.0082722269 0.67400002 -0.0070904801 1.3535083e-38 313 246
-0.0071010003 0.67500001 -0.0071010003 1.334997e-38 314 246
-0.0059174998 0.67500001 -0.0071010003 1.3073382e-38 315 246
-0.0047339997 0.67500001 -0.0071010003 1.3071584e-38 316 246
-0.0035557596 0.676 -0.0071115191 1.2702801e-38 317 246
-0.0023705065 0.676 -0.0071115191 1.2610237e-38 318 246
-0.0011852533 0.676 -0.0071115191 1.2333649e-38 319 246
0 0.67799997 -0.0071325595 1.2332927e-38 320 246
0.0011887599 0.67799997 -0.0071325595 1.205634e-38 321 246
0.0023810267 0.67900002 -0.0071430802 1.1963786e-38 322 246
0.0035715401 0.67900002 -0.0071430802 1.1687558e-38 323 246
0.0047620535 0.67900002 -0.0071430802 1.1502813e-38 324 246
0.0059525664 0.67900002 -0.0071430802 1.1502813e-38 325 246
0.0071430802 0.67900002 -0.0071430802 1.122695e-38 326 246
0.0083335936 0.67900002 -0.0071430802 1.1134754e-38 327 246
0.0095381327 0.68000001 -0.0071535995 1.131735e-38 328 246
0.010761959 0.68199998 -0.00717464 1.1225153e-38 329 246
0.011957732 0.68199998 -0.00717464 1.1317353e-38 330 246
0.013153506 0.68199998 -0.00717464 1.1317353e-38 331 246
0.014370319 0.68300003 -0.0071851597 1.131735e-38 332 246
0.01559064 0.68400002 -0.0071956799 1.131735e-38 333 246
0.016789921 0.68400002 -0.0071956799 1.1042558e-38 334 246
0.0180944 0.68800002 -0.0072377604 1.1134754e-38 335 246
0.019300694 0.68800002 -0.0072377604 1.0584467e-38 336 246
0.020506985 0.68800002 -0.0072377604 1.0953608e-38 337 246
0.021776399 0.69 -0.0072587994 1.0498035e-38 338 246
0.022986198 0.69 -0.0072587994 1.0405839e-38 339 246
0.024195999 0.69 -0.0072587994 1.0033464e-38 340 246
0.025405798 0.69 -0.0072587994 8.0051599e-39 341 246
-0.060826641 0.708 -0.008689519 1.8716436e-38 271 247
-0.059501119 0.70700002 -0.008677247 1.8530971e-38 272 247
-0.05826151 0.70700002 -0.008677247 9.7723864e-39 273 247
-0.056941248 0.70599997 -0.0086649731 6.7288545e-39 274 247
-0.055703394 0.70599997 -0.0086649731 1.1615224e-38 275 247
-0.054311249 0.704 -0.0086404262 1.3550239e-38 276 247
-0.053001512 0.70300001 -0.0086281532 1.3089261e-38 277 247
-0.051621638 0.70099998 -0.0086036054 1.2804017e-38 278 247
-0.050320663 0.69999999 -0.0085913334 1.2435595e-38 279 247
-0.048953064 0.69800001 -0.0085667865 1.3819949e-38 280 247
-0.047455717 0.69400001 -0.0085176928 1.3082384e-38 281 247
-0.045972396 0.69 -0.0084686 1.2704616e-38 282 247
-0.044567976 0.68699998 -0.0084317802 1.2059247e-38 283 247
-0.043110959 0.68300003 -0.0083826864 1.2426587e-38 284 247
-0.041729335 0.68000001 -0.0083458666 1.2610618e-38 285 247
-0.040417835 0.67799997 -0.0083213197 1.279572e-38 286 247
-0.039229076 0.67799997 -0.0083213197 1.3256697e-38 287 247
-0.037928104 0.676 -0.0082967728 1.3350326e-38 288 247
-0.036742851 0.676 -0.0082967728 1.3718748e-38 289 247
-0.035505001 0.67500001 -0.0082844999 1.3994246e-38 290 247
-0.034321502 0.67500001 -0.0082844999 1.3902051e-38 291 247
-0.033137999 0.67500001 -0.0082844999 1.3717657e-38 292 247
-0.031954501 0.67500001 -0.0082844999 1.344107e-38 293 247
-0.030771 0.67500001 -0.0082844999 1.3255609e-38 294 247
-0.0295875 0.67500001 -0.0082844999 1.3255609e-38 295 247
-0.02836192 0.67400002 -0.0082722269 1.3163426e-38 296 247
-0.027180174 0.67400002 -0.0082722269 1.3255622e-38 297 247
-0.025998428 0.67400002 -0.0082722269 1.3165228e-38 298 247
-0.024816679 0.67400002 -0.0082722269 1.3533651e-38 299 247
-0.023634933 0.67400002 -0.0082722269 1.3167389e-38 300 247
-0.022453187 0.67400002 -0.0082722269 1.3352141e-38 301 247
-0.021271439 0.67400002 -0.0082722269 1.3720563e-38 302 247
-0.020089693 0.67400002 -0.0082722269 1.3905313e-38 303 247
-0.018907947 0.67400002 -0.0082722269 1.3905677e-38 304 247
