# .PCD v.7 - Point Cloud Data file format
FIELDS x y z rgb imX imY
SIZE 4 4 4 4 4 4
TYPE F F F F F F
COUNT 1 1 1 1 1 1
WIDTH 838
HEIGHT 1
VIEWPOINT 0 0 0 1 0 0 0
POINTS 838
DATA ascii
0.023705067 0.676 -0.041483864 1.1498144e-38 340 275
0.024890319 0.676 -0.041483864 1.1498144e-38 341 275
0.026152719 0.67799997 -0.041606598 1.1589977e-38 342 275
0.027341479 0.67799997 -0.041606598 1.1774008e-38 343 275
0.028530238 0.67799997 -0.041606598 1.1589977e-38 344 275
0.029718997 0.67799997 -0.041606598 1.1589977e-38 345 275
0.030953348 0.67900002 -0.041667968 1.1589977e-38 346 275
0.032143861 0.67900002 -0.041667968 1.1589977e-38 347 275
0.033383466 0.68000001 -0.041729335 1.1589621e-38 348 275
0.034677424 0.68199998 -0.041852064 1.1589621e-38 349 275
0.035873197 0.68199998 -0.041852064 1.1773652e-38 350 275
0.037123326 0.68300003 -0.041913435 1.1773652e-38 351 275
0.038320854 0.68300003 -0.041913435 1.1589621e-38 352 275
0.039518382 0.68300003 -0.041913435 1.1773652e-38 353 275
0.040775519 0.68400002 -0.041974798 1.1774008e-38 354 275
0.042097531 0.68599999 -0.042097531 1.1774008e-38 355 275
0.043300316 0.68599999 -0.042097531 1.159069e-38 356 275
0.044567976 0.68699998 -0.042158898 1.1683245e-38 357 275
0.045772515 0.68699998 -0.042158898 1.1776161e-38 358 275
0.047045439 0.68800002 -0.042220265 1.1868356e-38 359 275
0.048251733 0.68800002 -0.042220265 1.1502097e-38 360 275
0.049458027 0.68800002 -0.042220265 1.1409543e-38 361 275
0.051106159 0.69400001 -0.042588469 9.4759544e-39 362 275
0.052322973 0.69400001 -0.042588469 1.0766693e-38 363 275
0.053539783 0.69400001 -0.042588469 1.2257317e-38 364 275
-0.040656291 0.68199998 -0.043047838 1.7415598e-38 286 276
-0.039460517 0.68199998 -0.043047838 1.3174598e-38 287 276
-0.038264744 0.68199998 -0.043047838 1.4361604e-38 288 276
-0.036851559 0.67799997 -0.042795356 1.3716234e-38 289 276
-0.035557602 0.676 -0.042669121 1.3989577e-38 290 276
-0.034372345 0.676 -0.042669121 1.3528599e-38 291 276
-0.033187091 0.676 -0.042669121 1.3434255e-38 292 276
-0.032001842 0.676 -0.042669121 1.3526451e-38 293 276
-0.030816587 0.676 -0.042669121 9.844409e-39 294 276
-0.029631332 0.676 -0.042669121 8.1845289e-39 295 276
-0.028446076 0.676 -0.042669121 3.495518e-39 296 276
-0.024558939 0.667 -0.042101037 9.1122333e-39 299 276
-0.023389466 0.667 -0.042101037 1.1868006e-38 300 276
-0.022219993 0.667 -0.042101037 1.1868006e-38 301 276
-0.021050518 0.667 -0.042101037 1.251122e-38 302 276
-0.019881045 0.667 -0.042101037 1.2603416e-38 303 276
-0.018711573 0.667 -0.042101037 1.2604136e-38 304 276
-0.0175421 0.667 -0.042101037 1.2327908e-38 305 276
-0.016372627 0.667 -0.042101037 1.2234993e-38 306 276
-0.015203152 0.667 -0.042101037 1.2142798e-38 307 276
-0.014033679 0.667 -0.042101037 1.2233912e-38 308 276
-0.012864206 0.667 -0.042101037 1.2233912e-38 309 276
-0.011694733 0.667 -0.042101037 1.2233912e-38 310 276
-0.010525259 0.667 -0.042101037 1.2141714e-38 311 276
-0.0093557863 0.667 -0.042101037 1.2233912e-38 312 276
-0.0081985854 0.66799998 -0.042164158 1.2141714e-38 313 276
-0.0070273597 0.66799998 -0.042164158 1.2233191e-38 314 276
-0.0058561331 0.66799998 -0.042164158 1.2233191e-38 315 276
-0.0046849065 0.66799998 -0.042164158 1.2233191e-38 316 276
-0.0035084197 0.667 -0.042101037 1.2233191e-38 317 276
-0.0023389466 0.667 -0.042101037 1.1958046e-38 318 276
-0.0011694733 0.667 -0.042101037 1.1865851e-38 319 276
0 0.667 -0.042101037 1.1957681e-38 320 276
0.0011747333 0.67000002 -0.042290401 1.2233909e-38 321 276
0.0023494666 0.67000002 -0.042290401 1.2141712e-38 322 276
0.0035241998 0.67000002 -0.042290401 1.1957681e-38 323 276
0.0046989331 0.67000002 -0.042290401 1.2141714e-38 324 276
0.0058736666 0.67000002 -0.042290401 1.2141714e-38 325 276
0.0070483997 0.67000002 -0.042290401 1.1957683e-38 326 276
0.0082354061 0.671 -0.042353518 1.1957683e-38 327 276
0.0094118929 0.671 -0.042353518 1.20488e-38 328 276
0.01058838 0.671 -0.042353518 1.20488e-38 329 276
0.011764866 0.671 -0.042353518 1.1865482e-38 330 276
0.012941353 0.671 -0.042353518 1.1773287e-38 331 276
0.01411784 0.671 -0.042353518 1.1315201e-38 332 276
0.01531712 0.67199999 -0.042416636 1.094642e-38 333 276
0.01649536 0.67199999 -0.042416636 4.9630965e-39 334 276
0.017673599 0.67199999 -0.042416636 3.9489432e-39 335 276
0.018935999 0.67500001 -0.042606 2.3916788e-39 336 276
0.020119499 0.67500001 -0.042606 4.6962108e-39 337 276
0.021334561 0.676 -0.042669121 1.0947489e-38 338 276
0.022519812 0.676 -0.042669121 1.1132239e-38 339 276
0.023705067 0.676 -0.042669121 1.1407381e-38 340 276
0.024963958 0.67799997 -0.042795356 1.1407381e-38 341 276
0.026152719 0.67799997 -0.042795356 1.1773289e-38 342 276
0.027341479 0.67799997 -0.042795356 1.1865485e-38 343 276
0.028530238 0.67799997 -0.042795356 1.159034e-38 344 276
0.029762832 0.67900002 -0.042858478 1.159034e-38 345 276
0.030998932 0.68000001 -0.042921599 1.1773652e-38 346 276
0.032191198 0.68000001 -0.042921599 1.1773652e-38 347 276
0.03348165 0.68199998 -0.043047838 1.1773658e-38 348 276
0.034677424 0.68199998 -0.043047838 1.1773658e-38 349 276
0.035925802 0.68300003 -0.043110959 1.1682185e-38 350 276
0.037123326 0.68300003 -0.043110959 1.1682185e-38 351 276
0.038320854 0.68300003 -0.043110959 1.1773302e-38 352 276
0.03957624 0.68400002 -0.043174081 1.1865498e-38 353 276
0.040894743 0.68599999 -0.043300316 1.1958049e-38 354 276
0.042158898 0.68699998 -0.043363437 1.1958049e-38 355 276
0.043363437 0.68699998 -0.043363437 1.1775807e-38 356 276
0.044567976 0.68699998 -0.043363437 1.1868003e-38 357 276
0.045772515 0.68699998 -0.043363437 1.1593214e-38 358 276
0.047045439 0.68800002 -0.043426562 1.1777605e-38 359 276
0.048391998 0.69 -0.043552797 1.1685422e-38 360 276
0.049673684 0.69099998 -0.043615919 1.1132249e-38 361 276
0.051106159 0.69400001 -0.043805279 9.9333564e-39 362 276
0.052322973 0.69400001 -0.043805279 1.3898127e-38 363 276
-0.039460517 0.68199998 -0.044243611 1.2901255e-38 287 277
-0.038264744 0.68199998 -0.044243611 1.4454165e-38 288 277
-0.036960267 0.68000001 -0.044113863 1.37166e-38 289 277
-0.035767999 0.68000001 -0.044113863 1.3989943e-38 290 277
-0.034474038 0.67799997 -0.043984115 1.3528966e-38 291 277
-0.033285279 0.67799997 -0.043984115 1.3801959e-38 292 277
-0.032001842 0.676 -0.043854371 1.3801959e-38 293 277
-0.030816587 0.676 -0.043854371 9.8433272e-39 294 277
-0.029631332 0.676 -0.043854371 8.0919689e-39 295 277
-0.02869856 0.68199998 -0.044243611 4.228767e-39 296 277
-0.024558939 0.667 -0.04327051 9.2973463e-39 299 277
-0.023389466 0.667 -0.04327051 1.1959848e-38 300 277
-0.022219993 0.667 -0.04327051 1.1867653e-38 301 277
-0.021050518 0.667 -0.04327051 1.2418308e-38 302 277
-0.019910853 0.66799998 -0.043335386 1.26027e-38 303 277
-0.018739626 0.66799998 -0.043335386 1.2603053e-38 304 277
-0.017568398 0.66799998 -0.043335386 1.2787084e-38 305 277
-0.016397171 0.66799998 -0.043335386 1.2419378e-38 306 277
-0.015225946 0.66799998 -0.043335386 1.2235346e-38 307 277
-0.014054719 0.66799998 -0.043335386 1.2326107e-38 308 277
-0.012883492 0.66799998 -0.043335386 1.2141714e-38 309 277
-0.011712266 0.66799998 -0.043335386 1.2141359e-38 310 277
-0.01054104 0.66799998 -0.043335386 1.2141359e-38 311 277
-0.0093698129 0.66799998 -0.043335386 1.2233912e-38 312 277
-0.0081985854 0.66799998 -0.043335386 1.2141714e-38 313 277
-0.0070273597 0.66799998 -0.043335386 1.2141712e-38 314 277
-0.0058561331 0.66799998 -0.043335386 1.2141712e-38 315 277
-0.0046989331 0.67000002 -0.043465134 1.2233191e-38 316 277
-0.0035241998 0.67000002 -0.043465134 1.2233191e-38 317 277
-0.0023494666 0.67000002 -0.043465134 1.2141714e-38 318 277
-0.0011747333 0.67000002 -0.043465134 1.2141714e-38 319 277
0 0.67000002 -0.043465134 1.1958399e-38 320 277
0.0011747333 0.67000002 -0.043465134 1.2050596e-38 321 277
0.0023529732 0.671 -0.043530006 1.2141712e-38 322 277
0.0035294599 0.671 -0.043530006 1.2141712e-38 323 277
0.0047059464 0.671 -0.043530006 1.2141714e-38 324 277
0.0058824331 0.671 -0.043530006 1.2141714e-38 325 277
0.0070589199 0.671 -0.043530006 1.2141714e-38 326 277
0.0082354061 0.671 -0.043530006 1.2141714e-38 327 277
0.0094118929 0.671 -0.043530006 1.2142068e-38 328 277
0.01058838 0.671 -0.043530006 1.2142068e-38 329 277
0.011764866 0.671 -0.043530006 1.1958034e-38 330 277
0.012941353 0.671 -0.043530006 1.1958034e-38 331 277
0.01413888 0.67199999 -0.043594878 1.1222649e-38 332 277
0.01531712 0.67199999 -0.043594878 1.0485084e-38 333 277
0.01649536 0.67199999 -0.043594878 4.5961104e-39 334 277
0.0177262 0.67400002 -0.043724626 3.7663498e-39 335 277
0.018935999 0.67500001 -0.043789499 2.6682615e-39 336 277
0.020119499 0.67500001 -0.043789499 5.2497391e-39 337 277
0.021334561 0.676 -0.043854371 1.0949287e-38 338 277
0.022519812 0.676 -0.043854371 1.0764895e-38 339 277
0.023775198 0.67799997 -0.043984115 1.1590696e-38 340 277
0.024963958 0.67799997 -0.043984115 1.1590696e-38 341 277
0.026152719 0.67799997 -0.043984115 1.1682536e-38 342 277
0.027341479 0.67799997 -0.043984115 1.1682536e-38 343 277
0.028572321 0.67900002 -0.044048995 1.1774008e-38 344 277
0.029806666 0.68000001 -0.044113863 1.1774008e-38 345 277
0.030998932 0.68000001 -0.044113863 1.1773652e-38 346 277
0.032285877 0.68199998 -0.044243611 1.1773652e-38 347 277
0.03348165 0.68199998 -0.044243611 1.1773655e-38 348 277
0.034728274 0.68300003 -0.044308487 1.1865851e-38 349 277
0.035925802 0.68300003 -0.044308487 1.1774381e-38 350 277
0.037177678 0.68400002 -0.04437336 1.1774381e-38 351 277
0.038376961 0.68400002 -0.04437336 1.1774381e-38 352 277
0.039691959 0.68599999 -0.044503104 1.1958413e-38 353 277
0.040954359 0.68699998 -0.044567976 1.1775457e-38 354 277
0.042158898 0.68699998 -0.044567976 1.1867653e-38 355 277
0.043363437 0.68699998 -0.044567976 1.1868369e-38 356 277
0.044632856 0.68800002 -0.044632856 1.1868369e-38 357 277
0.045839146 0.68800002 -0.044632856 1.1777252e-38 358 277
0.047182199 0.69 -0.0447626 1.1777252e-38 359 277
0.04846213 0.69099998 -0.044827472 1.1407393e-38 360 277
0.050033119 0.69599998 -0.045151837 1.1407393e-38 361 277
0.051253434 0.69599998 -0.045151837 1.2242559e-38 362 277
0.052473757 0.69599998 -0.045151837 1.620733e-38 363 277
-0.039518382 0.68300003 -0.045506012 1.3089612e-38 287 278
-0.038320854 0.68300003 -0.045506012 1.4638926e-38 288 278
-0.036960267 0.68000001 -0.045306131 1.3717329e-38 289 278
-0.035767999 0.68000001 -0.045306131 1.4174336e-38 290 278
-0.034575731 0.68000001 -0.045306131 1.3621162e-38 291 278
-0.033383466 0.68000001 -0.045306131 1.3710116e-38 292 278
-0.032191198 0.68000001 -0.045306131 1.3710116e-38 293 278
-0.030998932 0.68000001 -0.045306131 1.0118825e-38 294 278
-0.029894331 0.68199998 -0.045439381 8.182717e-39 295 278
-0.02869856 0.68199998 -0.045439381 3.5866248e-39 296 278
-0.024706218 0.671 -0.044706494 9.7579685e-39 299 278
-0.022353247 0.671 -0.044706494 1.177582e-38 301 278
-0.021176759 0.671 -0.044706494 1.223464e-38 302 278
-0.020000271 0.671 -0.044706494 1.2418671e-38 303 278
-0.018795732 0.67000002 -0.044639867 1.2327911e-38 304 278
-0.017620999 0.67000002 -0.044639867 1.2420106e-38 305 278
-0.016446266 0.67000002 -0.044639867 1.2603769e-38 306 278
-0.015225946 0.66799998 -0.044506609 1.2419378e-38 307 278
-0.014054719 0.66799998 -0.044506609 1.2418656e-38 308 278
-0.012922067 0.67000002 -0.044639867 1.2234265e-38 309 278
-0.011712266 0.66799998 -0.044506609 1.2325744e-38 310 278
-0.01054104 0.66799998 -0.044506609 1.2325744e-38 311 278
-0.0093698129 0.66799998 -0.044506609 1.2233909e-38 312 278
-0.0082231332 0.67000002 -0.044639867 1.2141712e-38 313 278
-0.0070483997 0.67000002 -0.044639867 1.2233188e-38 314 278
-0.0058736666 0.67000002 -0.044639867 1.2233188e-38 315 278
-0.0046989331 0.67000002 -0.044639867 1.2233191e-38 316 278
-0.0035241998 0.67000002 -0.044639867 1.2140996e-38 317 278
-0.0023529732 0.671 -0.044706494 1.2141359e-38 318 278
-0.0011764866 0.671 -0.044706494 1.2141359e-38 319 278
0 0.671 -0.044706494 1.1958402e-38 320 278
0.0011764866 0.671 -0.044706494 1.1958402e-38 321 278
0.0023529732 0.671 -0.044706494 1.2141714e-38 322 278
0.00353472 0.67199999 -0.044773117 1.2141714e-38 323 278
0.0047129598 0.67199999 -0.044773117 1.2141712e-38 324 278
0.0058911997 0.67199999 -0.044773117 1.2141712e-38 325 278
0.0070694401 0.67199999 -0.044773117 1.2142068e-38 326 278
0.00824768 0.67199999 -0.044773117 1.2142068e-38 327 278
0.0094259195 0.67199999 -0.044773117 1.2142062e-38 328 278
0.010604159 0.67199999 -0.044773117 1.1958031e-38 329 278
0.011782399 0.67199999 -0.044773117 1.1958387e-38 330 278
0.012960639 0.67199999 -0.044773117 1.1958387e-38 331 278
0.01413888 0.67199999 -0.044773117 1.0762743e-38 332 278
0.01531712 0.67199999 -0.044773117 9.7489511e-39 333 278
0.01649536 0.67199999 -0.044773117 4.0440072e-39 334 278
0.0177262 0.67400002 -0.044906374 3.3986378e-39 335 278
0.018964052 0.676 -0.045039624 3.3143581e-39 336 278
0.020208918 0.67799997 -0.045172878 5.8958358e-39 337 278
0.021397678 0.67799997 -0.045172878 1.1224447e-38 338 278
0.022586439 0.67799997 -0.045172878 1.1132251e-38 339 278
0.023775198 0.67799997 -0.045172878 1.159034e-38 340 278
0.024963958 0.67799997 -0.045172878 1.1682536e-38 341 278
0.026191294 0.67900002 -0.045239504 1.159034e-38 342 278
0.027381808 0.67900002 -0.045239504 1.1682536e-38 343 278
0.028614398 0.68000001 -0.045306131 1.1774008e-38 344 278
0.029806666 0.68000001 -0.045306131 1.1589977e-38 345 278
0.031090107 0.68199998 -0.045439381 1.1589977e-38 346 278
0.032285877 0.68199998 -0.045439381 1.1774008e-38 347 278
0.033530746 0.68300003 -0.045506012 1.1773655e-38 348 278
0.034728274 0.68300003 -0.045506012 1.1865851e-38 349 278
0.035978399 0.68400002 -0.045572639 1.1774381e-38 350 278
0.037286382 0.68599999 -0.045705888 1.1958413e-38 351 278
0.03848917 0.68599999 -0.045705888 1.1958769e-38 352 278
0.039749816 0.68699998 -0.045772515 1.2050965e-38 353 278
0.040954359 0.68699998 -0.045772515 1.1867297e-38 354 278
0.042158898 0.68699998 -0.045772515 1.1959851e-38 355 278
0.043426562 0.68800002 -0.045839146 1.1868016e-38 356 278
0.044632856 0.68800002 -0.045839146 1.196057e-38 357 278
0.045972396 0.69 -0.045972396 1.196057e-38 358 278
0.047250576 0.69099998 -0.046039023 1.1868016e-38 359 278
0.048602402 0.69300002 -0.04617228 1.0944971e-38 360 278
0.050033119 0.69599998 -0.046372157 1.1774731e-38 361 278
0.051253434 0.69599998 -0.046372157 1.4095459e-38 362 278
0.052473757 0.69599998 -0.046372157 1.6769133e-38 363 278
-0.03957624 0.68400002 -0.046771921 1.38279e-38 287 279
-0.038376961 0.68400002 -0.046771921 1.5010233e-38 288 279
-0.037123326 0.68300003 -0.04670354 1.3442906e-38 289 279
-0.035873197 0.68199998 -0.046635158 1.4084307e-38 290 279
-0.034677424 0.68199998 -0.046635158 1.3438937e-38 291 279
-0.03348165 0.68199998 -0.046635158 1.3620449e-38 292 279
-0.032191198 0.68000001 -0.046498399 1.3527894e-38 293 279
-0.030998932 0.68000001 -0.046498399 1.0579801e-38 294 279
-0.029894331 0.68199998 -0.046635158 8.4596612e-39 295 279
-0.02869856 0.68199998 -0.046635158 3.2199975e-39 296 279
-0.024816679 0.67400002 -0.046088122 1.0678127e-38 299 279
-0.022353247 0.671 -0.045882981 1.196057e-38 301 279
-0.021176759 0.671 -0.045882981 1.2325757e-38 302 279
-0.020000271 0.671 -0.045882981 1.2417952e-38 303 279
-0.018823786 0.671 -0.045882981 1.2693816e-38 304 279
-0.0176473 0.671 -0.045882981 1.2786012e-38 305 279
-0.016446266 0.67000002 -0.0458146 1.2694167e-38 306 279
-0.015271533 0.67000002 -0.0458146 1.2694167e-38 307 279
-0.014096799 0.67000002 -0.0458146 1.2419378e-38 308 279
-0.012922067 0.67000002 -0.0458146 1.2235346e-38 309 279
-0.011747333 0.67000002 -0.0458146 1.2326463e-38 310 279
-0.0105726 0.67000002 -0.0458146 1.2326463e-38 311 279
-0.0093978662 0.67000002 -0.0458146 1.2234265e-38 312 279
-0.0082231332 0.67000002 -0.0458146 1.2234265e-38 313 279
-0.0070483997 0.67000002 -0.0458146 1.2234265e-38 314 279
-0.0058824331 0.671 -0.045882981 1.2142068e-38 315 279
-0.0047059464 0.671 -0.045882981 1.2233909e-38 316 279
-0.0035294599 0.671 -0.045882981 1.2141712e-38 317 279
-0.0023529732 0.671 -0.045882981 1.2141361e-38 318 279
-0.0011764866 0.671 -0.045882981 1.2141361e-38 319 279
0 0.671 -0.045882981 1.1958052e-38 320 279
0.0011764866 0.671 -0.045882981 1.2050249e-38 321 279
0.0023564799 0.67199999 -0.045951359 1.2233914e-38 322 279
0.00353472 0.67199999 -0.045951359 1.2233914e-38 323 279
0.0047269869 0.67400002 -0.046088122 1.2141714e-38 324 279
0.0059087332 0.67400002 -0.046088122 1.2141714e-38 325 279
0.0070904801 0.67400002 -0.046088122 1.2141712e-38 326 279
0.0082722269 0.67400002 -0.046088122 1.2141712e-38 327 279
0.0094539737 0.67400002 -0.046088122 1.1958397e-38 328 279
0.010604159 0.67199999 -0.045951359 1.1958397e-38 329 279
0.011782399 0.67199999 -0.045951359 1.1866204e-38 330 279
0.012999214 0.67400002 -0.046088122 1.2050596e-38 331 279
0.01418096 0.67400002 -0.046088122 1.0393614e-38 332 279
0.01531712 0.67199999 -0.045951359 9.2872667e-39 333 279
0.01649536 0.67199999 -0.045951359 3.6759464e-39 334 279
0.0177525 0.67500001 -0.0461565 3.2153284e-39 335 279
0.019020159 0.67799997 -0.046361636 5.2428993e-39 336 279
0.020208918 0.67799997 -0.046361636 7.6403459e-39 337 279
0.021397678 0.67799997 -0.046361636 1.1499589e-38 338 279
0.022586439 0.67799997 -0.046361636 1.1315198e-38 339 279
0.023810266 0.67900002 -0.046430022 1.1682538e-38 340 279
0.025000781 0.67900002 -0.046430022 1.1682538e-38 341 279
0.026229866 0.68000001 -0.046498399 1.1682541e-38 342 279
0.027422134 0.68000001 -0.046498399 1.1682541e-38 343 279
0.02869856 0.68199998 -0.046635158 1.1590343e-38 344 279
0.029894331 0.68199998 -0.046635158 1.1590343e-38 345 279
0.031135695 0.68300003 -0.04670354 1.1590696e-38 346 279
0.032333218 0.68300003 -0.04670354 1.1590696e-38 347 279
0.033530746 0.68300003 -0.04670354 1.1773655e-38 348 279
0.03477912 0.68400002 -0.046771921 1.1865851e-38 349 279
0.036083598 0.68599999 -0.046908677 1.1774737e-38 350 279
0.037286382 0.68599999 -0.046908677 1.1958769e-38 351 279
0.03848917 0.68599999 -0.046908677 1.1867653e-38 352 279
0.039749816 0.68699998 -0.046977058 1.1959848e-38 353 279
0.040954359 0.68699998 -0.046977058 1.1959848e-38 354 279
0.042220265 0.68800002 -0.047045439 1.1959848e-38 355 279
0.043426562 0.68800002 -0.047045439 1.1868016e-38 356 279
0.0447626 0.69 -0.047182199 1.1868016e-38 357 279
0.045972396 0.69 -0.047182199 1.18673e-38 358 279
0.047387339 0.69300002 -0.047387339 1.2051691e-38 359 279
0.048672531 0.69400001 -0.047455717 1.0850623e-38 360 279
0.050033119 0.69599998 -0.047592476 1.34321e-38 361 279
0.051253434 0.69599998 -0.047592476 1.5481641e-38 362 279
0.052549154 0.69700003 -0.047660861 1.6956411e-38 363 279
0.053848371 0.69800001 -0.047729239 1.5949844e-38 364 279
-0.03957624 0.68400002 -0.0479712 1.4197401e-38 287 280
-0.038376961 0.68400002 -0.0479712 1.5104952e-38 288 280
-0.037123326 0.68300003 -0.047901068 1.2984092e-38 289 280
-0.035873197 0.68199998 -0.047830928 1.4266534e-38 290 280
-0.034677424 0.68199998 -0.047830928 1.3805556e-38 291 280
-0.03348165 0.68199998 -0.047830928 1.3804114e-38 292 280
-0.032191198 0.68000001 -0.047690667 1.3804114e-38 293 280
-0.030998932 0.68000001 -0.047690667 1.1132249e-38 294 280
-0.029894331 0.68199998 -0.047830928 9.011749e-39 295 280
-0.02869856 0.68199998 -0.047830928 3.679168e-39 296 280
-0.027422134 0.68000001 -0.047690667 4.3245374e-39 297 280
-0.026229866 0.68000001 -0.047690667 7.5438314e-39 298 280
-0.024816679 0.67400002 -0.047269866 1.0678483e-38 299 280
-0.023634933 0.67400002 -0.047269866 1.2697416e-38 300 280
-0.022353247 0.671 -0.047059465 1.2052047e-38 301 280
-0.021176759 0.671 -0.047059465 1.2419027e-38 302 280
-0.020030079 0.67199999 -0.047129598 1.2234637e-38 303 280
-0.018823786 0.671 -0.047059465 1.2510148e-38 304 280
-0.0176473 0.671 -0.047059465 1.2510148e-38 305 280
-0.016470812 0.671 -0.047059465 1.2510504e-38 306 280
-0.015294326 0.671 -0.047059465 1.2510504e-38 307 280
-0.01411784 0.671 -0.047059465 1.2601974e-38 308 280
-0.012941353 0.671 -0.047059465 1.2601974e-38 309 280
-0.011764866 0.671 -0.047059465 1.2509773e-38 310 280
-0.01058838 0.671 -0.047059465 1.2325741e-38 311 280
-0.0094118929 0.671 -0.047059465 1.2325739e-38 312 280
-0.0082354061 0.671 -0.047059465 1.2325739e-38 313 280
-0.0070589199 0.671 -0.047059465 1.2325739e-38 314 280
-0.0058824331 0.671 -0.047059465 1.2325739e-38 315 280
-0.0047059464 0.671 -0.047059465 1.2233909e-38 316 280
-0.0035294599 0.671 -0.047059465 1.2233909e-38 317 280
-0.0023529732 0.671 -0.047059465 1.2233914e-38 318 280
-0.0011764866 0.671 -0.047059465 1.2233914e-38 319 280
0 0.67199999 -0.047129598 1.2233558e-38 320 280
0.0011782399 0.67199999 -0.047129598 1.2233558e-38 321 280
0.0023634934 0.67400002 -0.047269866 1.2233194e-38 322 280
0.00354524 0.67400002 -0.047269866 1.2233194e-38 323 280
0.0047269869 0.67400002 -0.047269866 1.2233191e-38 324 280
0.0059087332 0.67400002 -0.047269866 1.2233191e-38 325 280
0.0070904801 0.67400002 -0.047269866 1.2233188e-38 326 280
0.0082722269 0.67400002 -0.047269866 1.2233188e-38 327 280
0.0094539737 0.67400002 -0.047269866 1.2142065e-38 328 280
0.01063572 0.67400002 -0.047269866 1.2142065e-38 329 280
0.011817466 0.67400002 -0.047269866 1.1865832e-38 330 280
0.012999214 0.67400002 -0.047269866 1.1958387e-38 331 280
0.014202001 0.67500001 -0.047339998 9.9337123e-39 332 280
0.0153855 0.67500001 -0.047339998 8.6429735e-39 333 280
0.016569 0.67500001 -0.047339998 2.75759e-39 334 280
0.017778801 0.676 -0.047410134 2.9419813e-39 335 280
0.019048214 0.67900002 -0.047620531 7.0821274e-39 336 280
0.020238725 0.67900002 -0.047620531 8.7420089e-39 337 280
0.021429239 0.67900002 -0.047620531 1.1683257e-38 338 280
0.022653066 0.68000001 -0.047690667 1.1407031e-38 339 280
0.023845334 0.68000001 -0.047690667 1.1589987e-38 340 280
0.025037598 0.68000001 -0.047690667 1.1589987e-38 341 280
0.026307013 0.68199998 -0.047830928 1.1773658e-38 342 280
0.027502786 0.68199998 -0.047830928 1.1773658e-38 343 280
0.028740639 0.68300003 -0.047901068 1.1773655e-38 344 280
0.029938167 0.68300003 -0.047901068 1.1773655e-38 345 280
0.03118128 0.68400002 -0.0479712 1.1590696e-38 346 280
0.032380559 0.68400002 -0.0479712 1.1590696e-38 347 280
0.033678025 0.68599999 -0.048111461 1.1865851e-38 348 280
0.034880809 0.68599999 -0.048111461 1.1958046e-38 349 280
0.036136195 0.68699998 -0.048181597 1.1591789e-38 350 280
0.037340738 0.68699998 -0.048181597 1.177582e-38 351 280
0.038545277 0.68699998 -0.048181597 1.177582e-38 352 280
0.039749816 0.68699998 -0.048181597 1.1868016e-38 353 280
0.041013971 0.68800002 -0.048251733 1.1959495e-38 354 280
0.042342998 0.69 -0.048391998 1.1959495e-38 355 280
0.043552797 0.69 -0.048391998 1.1868018e-38 356 280
0.044827472 0.69099998 -0.04846213 1.1775823e-38 357 280
0.04617228 0.69300002 -0.048602402 1.1868018e-38 358 280
0.047387339 0.69300002 -0.048602402 1.1775823e-38 359 280
0.048672531 0.69400001 -0.048672531 1.1132251e-38 360 280
0.050105009 0.69700003 -0.048882935 1.3990317e-38 361 280
0.051327083 0.69700003 -0.048882935 1.65898e-38 362 280
0.052624546 0.69800001 -0.048953064 1.7050777e-38 363 280
-0.03957624 0.68400002 -0.049170479 1.4657307e-38 287 281
-0.038376961 0.68400002 -0.049170479 1.5107469e-38 288 281
-0.037123326 0.68300003 -0.049098592 1.2986611e-38 289 281
-0.035873197 0.68199998 -0.049026705 1.4083222e-38 290 281
-0.034677424 0.68199998 -0.049026705 1.3714079e-38 291 281
-0.03348165 0.68199998 -0.049026705 1.3804833e-38 292 281
-0.032191198 0.68000001 -0.048882935 1.3804833e-38 293 281
-0.030998932 0.68000001 -0.048882935 1.1409198e-38 294 281
-0.029894331 0.68199998 -0.049026705 9.3805357e-39 295 281
-0.028614398 0.68000001 -0.048882935 4.1390741e-39 296 281
-0.027422134 0.68000001 -0.048882935 4.5082154e-39 297 281
-0.026229866 0.68000001 -0.048882935 7.6367431e-39 298 281
-0.024890319 0.676 -0.048595384 1.0495168e-38 299 281
-0.023634933 0.67400002 -0.048451614 1.2788886e-38 300 281
-0.022386558 0.67199999 -0.04830784 1.2327908e-38 301 281
-0.021208318 0.67199999 -0.04830784 1.251122e-38 302 281
-0.020030079 0.67199999 -0.04830784 1.251122e-38 303 281
-0.018851839 0.67199999 -0.04830784 1.2419024e-38 304 281
-0.0176473 0.671 -0.048235953 1.2419024e-38 305 281
-0.016470812 0.671 -0.048235953 1.2510501e-38 306 281
-0.015294326 0.671 -0.048235953 1.2510501e-38 307 281
-0.01411784 0.671 -0.048235953 1.2601618e-38 308 281
-0.012941353 0.671 -0.048235953 1.2601618e-38 309 281
-0.011764866 0.671 -0.048235953 1.2509419e-38 310 281
-0.01058838 0.671 -0.048235953 1.2509419e-38 311 281
-0.0094118929 0.671 -0.048235953 1.2509775e-38 312 281
-0.0082354061 0.671 -0.048235953 1.2509775e-38 313 281
-0.0070589199 0.671 -0.048235953 1.2233912e-38 314 281
-0.0058824331 0.671 -0.048235953 1.2233912e-38 315 281
-0.0047129598 0.67199999 -0.04830784 1.2233912e-38 316 281
-0.00353472 0.67199999 -0.04830784 1.2233912e-38 317 281
-0.0023564799 0.67199999 -0.04830784 1.2050599e-38 318 281
-0.0011782399 0.67199999 -0.04830784 1.2050599e-38 319 281
0 0.67199999 -0.04830784 1.2050243e-38 320 281
0.0011817467 0.67400002 -0.048451614 1.1958046e-38 321 281
0.0023634934 0.67400002 -0.048451614 1.2233194e-38 322 281
0.0035505001 0.67500001 -0.048523501 1.2233194e-38 323 281
0.0047339997 0.67500001 -0.048523501 1.2233194e-38 324 281
0.0059174998 0.67500001 -0.048523501 1.2233194e-38 325 281
0.0071010003 0.67500001 -0.048523501 1.2233194e-38 326 281
0.0082844999 0.67500001 -0.048523501 1.2233194e-38 327 281
0.0094679995 0.67500001 -0.048523501 1.1957683e-38 328 281
0.0106515 0.67500001 -0.048523501 1.2141714e-38 329 281
0.011835 0.67500001 -0.048523501 1.1682536e-38 330 281
0.0130185 0.67500001 -0.048523501 1.1774731e-38 331 281
0.014202001 0.67500001 -0.048523501 8.921731e-39 332 281
0.015408293 0.676 -0.048595384 7.3540452e-39 333 281
0.016642639 0.67799997 -0.048739154 2.3916816e-39 334 281
0.017857701 0.67900002 -0.048811045 3.037051e-39 335 281
0.019076265 0.68000001 -0.048882935 7.7267751e-39 336 281
0.020268533 0.68000001 -0.048882935 9.1097096e-39 337 281
0.021523919 0.68199998 -0.049026705 1.1314832e-38 338 281
0.022719691 0.68199998 -0.049026705 1.1314832e-38 339 281
0.023915464 0.68199998 -0.049026705 1.1590343e-38 340 281
0.025111238 0.68199998 -0.049026705 1.1590343e-38 341 281
0.026345588 0.68300003 -0.049098592 1.1773658e-38 342 281
0.027543113 0.68300003 -0.049098592 1.1865853e-38 343 281
0.02878272 0.68400002 -0.049170479 1.1682538e-38 344 281
0.029982001 0.68400002 -0.049170479 1.1682538e-38 345 281
0.031272452 0.68599999 -0.049314249 1.1682538e-38 346 281
0.032475237 0.68599999 -0.049314249 1.1682538e-38 347 281
0.033727121 0.68699998 -0.049386136 1.1682541e-38 348 281
0.034931656 0.68699998 -0.049386136 1.1774737e-38 349 281
0.036136195 0.68699998 -0.049386136 1.1775457e-38 350 281
0.037340738 0.68699998 -0.049386136 1.1867653e-38 351 281
0.038601387 0.68800002 -0.049458027 1.1867297e-38 352 281
0.039807681 0.68800002 -0.049458027 1.1775101e-38 353 281
0.041013971 0.68800002 -0.049458027 1.1959851e-38 354 281
0.042342998 0.69 -0.049601797 1.1959851e-38 355 281
0.043615919 0.69099998 -0.049673684 1.1776899e-38 356 281
0.044957221 0.69300002 -0.049817458 1.1776899e-38 357 281
0.04617228 0.69300002 -0.049817458 1.1408842e-38 358 281
0.047455717 0.69400001 -0.049889345 1.1408842e-38 359 281
0.048812799 0.69599998 -0.050033119 1.2522035e-38 360 281
0.050176892 0.69800001 -0.050176892 1.538046e-38 361 281
0.051400717 0.69800001 -0.050176892 1.6499774e-38 362 281
-0.038152531 0.68000001 -0.050075196 1.474229e-38 288 282
-0.036960267 0.68000001 -0.050075196 1.2806182e-38 289 282
-0.035767999 0.68000001 -0.050075196 1.4452e-38 290 282
-0.034728274 0.68300003 -0.05029612 1.3898828e-38 291 282
-0.03348165 0.68199998 -0.050222475 1.4079619e-38 292 282
-0.032285877 0.68199998 -0.050222475 1.3987424e-38 293 282
-0.031090107 0.68199998 -0.050222475 1.1685069e-38 294 282
-0.029894331 0.68199998 -0.050222475 9.6567653e-39 295 282
-0.028614398 0.68000001 -0.050075196 3.9557647e-39 296 282
-0.027381808 0.67900002 -0.050001562 4.5085783e-39 297 282
-0.026152719 0.67799997 -0.049927916 7.6378263e-39 298 282
-0.024890319 0.676 -0.049780637 1.0403335e-38 299 282
-0.023669999 0.67500001 -0.049706999 1.3063675e-38 300 282
-0.022453187 0.67400002 -0.049633358 1.2786728e-38 301 282
-0.021271439 0.67400002 -0.049633358 1.2878561e-38 302 282
-0.020030079 0.67199999 -0.049486078 1.2786365e-38 303 282
-0.018851839 0.67199999 -0.049486078 1.2693813e-38 304 282
-0.017673599 0.67199999 -0.049486078 1.2693813e-38 305 282
-0.01649536 0.67199999 -0.049486078 1.2693813e-38 306 282
-0.01531712 0.67199999 -0.049486078 1.2693813e-38 307 282
-0.01413888 0.67199999 -0.049486078 1.2694169e-38 308 282
-0.012960639 0.67199999 -0.049486078 1.2601974e-38 309 282
-0.011782399 0.67199999 -0.049486078 1.2601252e-38 310 282
-0.010604159 0.67199999 -0.049486078 1.2601252e-38 311 282
-0.0094259195 0.67199999 -0.049486078 1.2601255e-38 312 282
-0.00824768 0.67199999 -0.049486078 1.2601255e-38 313 282
-0.0070694401 0.67199999 -0.049486078 1.2325388e-38 314 282
-0.0058911997 0.67199999 -0.049486078 1.2325388e-38 315 282
-0.0047129598 0.67199999 -0.049486078 1.2233912e-38 316 282
-0.00353472 0.67199999 -0.049486078 1.2326107e-38 317 282
-0.0023634934 0.67400002 -0.049633358 1.2050243e-38 318 282
-0.0011817467 0.67400002 -0.049633358 1.2050243e-38 319 282
0 0.67400002 -0.049633358 1.1958049e-38 320 282
0.0011834999 0.67500001 -0.049706999 1.1958049e-38 321 282
0.0023669999 0.67500001 -0.049706999 1.2141361e-38 322 282
0.0035505001 0.67500001 -0.049706999 1.2233558e-38 323 282
0.0047410131 0.676 -0.049780637 1.2233558e-38 324 282
0.0059262668 0.676 -0.049780637 1.2141361e-38 325 282
0.0071115191 0.676 -0.049780637 1.2141361e-38 326 282
0.0082967728 0.676 -0.049780637 1.2141361e-38 327 282
0.0094679995 0.67500001 -0.049706999 1.1958046e-38 328 282
0.0106515 0.67500001 -0.049706999 1.1865851e-38 329 282
0.011852534 0.676 -0.049780637 1.1590696e-38 330 282
0.013037786 0.676 -0.049780637 1.1682892e-38 331 282
0.014223038 0.676 -0.049780637 8.2770777e-39 332 282
0.015453878 0.67799997 -0.049927916 6.1565782e-39 333 282
0.016667187 0.67900002 -0.050001562 2.8523038e-39 334 282
0.017883999 0.68000001 -0.050075196 3.4054776e-39 335 282
0.019132372 0.68199998 -0.050222475 8.7384089e-39 336 282
0.020328145 0.68199998 -0.050222475 9.6603652e-39 337 282
0.02155548 0.68300003 -0.05029612 1.0671984e-38 338 282
0.022753006 0.68300003 -0.05029612 1.1040406e-38 339 282
0.023950534 0.68300003 -0.05029612 1.1589987e-38 340 282
0.025184879 0.68400002 -0.050369758 1.1589987e-38 341 282
0.02638416 0.68400002 -0.050369758 1.1590343e-38 342 282
0.027583439 0.68400002 -0.050369758 1.1590343e-38 343 282
0.02886688 0.68599999 -0.050517038 1.1590343e-38 344 282
0.030069664 0.68599999 -0.050517038 1.1590343e-38 345 282
0.031318039 0.68699998 -0.050590675 1.1682541e-38 346 282
0.032522578 0.68699998 -0.050590675 1.1682541e-38 347 282
0.033776212 0.68800002 -0.050664321 1.1590709e-38 348 282
0.03498251 0.68800002 -0.050664321 1.1682904e-38 349 282
0.0361888 0.68800002 -0.050664321 1.1499592e-38 350 282
0.037395094 0.68800002 -0.050664321 1.1499592e-38 351 282
0.038713597 0.69 -0.050811596 1.1775101e-38 352 282
0.0399234 0.69 -0.050811596 1.1775101e-38 353 282
0.041133199 0.69 -0.050811596 1.177582e-38 354 282
0.042404365 0.69099998 -0.050885238 1.196057e-38 355 282
0.043615919 0.69099998 -0.050885238 1.1777618e-38 356 282
0.044957221 0.69300002 -0.051032521 1.1870172e-38 357 282
0.046238903 0.69400001 -0.051106159 1.1964536e-38 358 282
0.047455717 0.69400001 -0.051106159 1.2609905e-38 359 282
0.048812799 0.69599998 -0.051253434 1.4096927e-38 360 282
0.050176892 0.69800001 -0.051400717 1.5848645e-38 361 282
-0.036960267 0.68000001 -0.051267464 1.2900183e-38 289 283
-0.035767999 0.68000001 -0.051267464 1.4728954e-38 290 283
-0.034677424 0.68199998 -0.051418249 1.3991389e-38 291 283
-0.03348165 0.68199998 -0.051418249 1.3988853e-38 292 283
-0.032285877 0.68199998 -0.051418249 1.3527873e-38 293 283
-0.031090107 0.68199998 -0.051418249 1.1777618e-38 294 283
-0.029894331 0.68199998 -0.051418249 9.7493141e-39 295 283
-0.028572321 0.67900002 -0.051192071 4.0476072e-39 296 283
-0.027341479 0.67799997 -0.051116679 4.6929766e-39 297 283
-0.026075572 0.676 -0.050965894 7.9140587e-39 298 283
-0.024890319 0.676 -0.050965894 1.0587732e-38 299 283
-0.023669999 0.67500001 -0.050890498 1.3339186e-38 300 283
-0.022486499 0.67500001 -0.050890498 1.2970405e-38 301 283
-0.021271439 0.67400002 -0.050815105 1.2878563e-38 302 283
-0.020089693 0.67400002 -0.050815105 1.2786009e-38 303 283
-0.018907947 0.67400002 -0.050815105 1.2787084e-38 304 283
-0.0177262 0.67400002 -0.050815105 1.2603053e-38 305 283
-0.01649536 0.67199999 -0.050664317 1.2786718e-38 306 283
-0.01531712 0.67199999 -0.050664317 1.2786718e-38 307 283
-0.01413888 0.67199999 -0.050664317 1.269452e-38 308 283
-0.012960639 0.67199999 -0.050664317 1.269452e-38 309 283
-0.011782399 0.67199999 -0.050664317 1.2601968e-38 310 283
-0.010604159 0.67199999 -0.050664317 1.2601968e-38 311 283
-0.0094259195 0.67199999 -0.050664317 1.2693451e-38 312 283
-0.00824768 0.67199999 -0.050664317 1.2601255e-38 313 283
-0.0070694401 0.67199999 -0.050664317 1.2509419e-38 314 283
-0.0058911997 0.67199999 -0.050664317 1.2509419e-38 315 283
-0.0047269869 0.67400002 -0.050815105 1.2233914e-38 316 283
-0.00354524 0.67400002 -0.050815105 1.2233914e-38 317 283
-0.0023669999 0.67500001 -0.050890498 1.2233914e-38 318 283
-0.0011834999 0.67500001 -0.050890498 1.2141359e-38 319 283
0 0.67500001 -0.050890498 1.2141359e-38 320 283
0.0011852533 0.676 -0.050965894 1.2141359e-38 321 283
0.0023705065 0.676 -0.050965894 1.1958046e-38 322 283
0.0035557596 0.676 -0.050965894 1.1958046e-38 323 283
0.0047410131 0.676 -0.050965894 1.2141361e-38 324 283
0.0059262668 0.676 -0.050965894 1.2141361e-38 325 283
0.0071115191 0.676 -0.050965894 1.1958049e-38 326 283
0.0082967728 0.676 -0.050965894 1.1865853e-38 327 283
0.0094820261 0.676 -0.050965894 1.1866207e-38 328 283
0.01066728 0.676 -0.050965894 1.1866207e-38 329 283
0.011852534 0.676 -0.050965894 1.1406675e-38 330 283
0.013076359 0.67799997 -0.051116679 1.1775457e-38 331 283
0.014265119 0.67799997 -0.051116679 7.1732566e-39 332 283
0.015476674 0.67900002 -0.051192071 4.3162683e-39 333 283
0.016740825 0.68199998 -0.051418249 2.4838772e-39 334 283
0.017936599 0.68199998 -0.051418249 3.3132777e-39 335 283
0.019160427 0.68300003 -0.051493648 9.4752551e-39 336 283
0.020387759 0.68400002 -0.051569041 1.0120625e-38 337 283
0.02158704 0.68400002 -0.051569041 1.1130807e-38 338 283
0.022786319 0.68400002 -0.051569041 1.1223002e-38 339 283
0.0239856 0.68400002 -0.051569041 1.1497791e-38 340 283
0.025258519 0.68599999 -0.051719822 1.1497791e-38 341 283
0.026461305 0.68599999 -0.051719822 1.1589987e-38 342 283
0.027704418 0.68699998 -0.051795214 1.1589987e-38 343 283
0.028908957 0.68699998 -0.051795214 1.1589268e-38 344 283
0.030113498 0.68699998 -0.051795214 1.1773658e-38 345 283
0.031318039 0.68699998 -0.051795214 1.1773302e-38 346 283
0.032569919 0.68800002 -0.051870614 1.1773302e-38 347 283
0.0338744 0.69 -0.052021399 1.1590711e-38 348 283
0.035084199 0.69 -0.052021399 1.1590711e-38 349 283
0.036293998 0.69 -0.052021399 1.1682904e-38 350 283
0.03755815 0.69099998 -0.052096792 1.1590709e-38 351 283
0.038769703 0.69099998 -0.052096792 1.1775104e-38 352 283
0.039981257 0.69099998 -0.052096792 1.1775104e-38 353 283
0.041192811 0.69099998 -0.052096792 1.1684706e-38 354 283
0.042527102 0.69300002 -0.05224758 1.1869097e-38 355 283
0.043742158 0.69300002 -0.05224758 1.1593953e-38 356 283
0.044957221 0.69300002 -0.05224758 1.1870539e-38 357 283
0.046238903 0.69400001 -0.052322973 1.2616036e-38 358 283
0.047455717 0.69400001 -0.052322973 1.4552144e-38 359 283
0.048812799 0.69599998 -0.052473757 1.5944452e-38 360 283
-0.037123326 0.68300003 -0.052691177 1.2810151e-38 289 284
-0.035873197 0.68199998 -0.052614026 1.42705e-38 290 284
-0.034677424 0.68199998 -0.052614026 1.3440739e-38 291 284
-0.03348165 0.68199998 -0.052614026 1.3897382e-38 292 284
-0.032285877 0.68199998 -0.052614026 1.3344208e-38 293 284
-0.031090107 0.68199998 -0.052614026 1.1776902e-38 294 284
-0.029894331 0.68199998 -0.052614026 9.748598e-39 295 284
-0.028572321 0.67900002 -0.052382588 3.8628586e-39 296 284
-0.027341479 0.67799997 -0.052305438 4.785175e-39 297 284
-0.026075572 0.676 -0.052151144 7.9129839e-39 298 284
-0.024890319 0.676 -0.052151144 1.0679212e-38 299 284
-0.023705067 0.676 -0.052151144 1.3155518e-38 300 284
-0.022486499 0.67500001 -0.052074 1.2878931e-38 301 284
-0.021303 0.67500001 -0.052074 1.2878563e-38 302 284
-0.020119499 0.67500001 -0.052074 1.2878563e-38 303 284
-0.018907947 0.67400002 -0.051996857 1.2695969e-38 304 284
-0.0177262 0.67400002 -0.051996857 1.2511576e-38 305 284
-0.016544454 0.67400002 -0.051996857 1.2603047e-38 306 284
-0.015362706 0.67400002 -0.051996857 1.2510852e-38 307 284
-0.01418096 0.67400002 -0.051996857 1.2694164e-38 308 284
-0.012999214 0.67400002 -0.051996857 1.2601968e-38 309 284
-0.011817466 0.67400002 -0.051996857 1.2510854e-38 310 284
-0.010604159 0.67199999 -0.051842555 1.2418659e-38 311 284
-0.0094259195 0.67199999 -0.051842555 1.2418659e-38 312 284
-0.0082722269 0.67400002 -0.051996857 1.2418659e-38 313 284
-0.0070904801 0.67400002 -0.051996857 1.2509419e-38 314 284
-0.0059087332 0.67400002 -0.051996857 1.2509419e-38 315 284
-0.0047269869 0.67400002 -0.051996857 1.2325391e-38 316 284
-0.0035505001 0.67500001 -0.052074 1.2325391e-38 317 284
-0.0023669999 0.67500001 -0.052074 1.2050243e-38 318 284
-0.0011834999 0.67500001 -0.052074 1.1958046e-38 319 284
0 0.676 -0.052151144 1.1958767e-38 320 284
0.0011852533 0.676 -0.052151144 1.1774734e-38 321 284
0.0023705065 0.676 -0.052151144 1.1774734e-38 322 284
0.0035557596 0.676 -0.052151144 1.1774734e-38 323 284
0.0047410131 0.676 -0.052151144 1.1865498e-38 324 284
0.0059262668 0.676 -0.052151144 1.1865498e-38 325 284
0.0071115191 0.676 -0.052151144 1.1957333e-38 326 284
0.0082967728 0.676 -0.052151144 1.1864779e-38 327 284
0.0095100794 0.67799997 -0.052305438 1.1773655e-38 328 284
0.010698839 0.67799997 -0.052305438 1.1773655e-38 329 284
0.011887599 0.67799997 -0.052305438 1.0947138e-38 330 284
0.013076359 0.67799997 -0.052305438 1.0854943e-38 331 284
0.01428616 0.67900002 -0.052382588 6.0679923e-39 332 284
0.015499466 0.68000001 -0.052459732 3.5815844e-39 333 284
0.016765373 0.68300003 -0.052691177 2.4838772e-39 334 284
0.017962901 0.68300003 -0.052691177 3.9586471e-39 335 284
0.01918848 0.68400002 -0.05276832 9.8451152e-39 336 284
0.020447372 0.68599999 -0.05292261 1.0213539e-38 337 284
0.021650158 0.68599999 -0.05292261 1.1129732e-38 338 284
0.022852944 0.68599999 -0.05292261 1.1221927e-38 339 284
0.024090799 0.68699998 -0.052999757 1.140488e-38 340 284
0.025295338 0.68699998 -0.052999757 1.140488e-38 341 284
0.026499879 0.68699998 -0.052999757 1.1497075e-38 342 284
0.027704418 0.68699998 -0.052999757 1.1497075e-38 343 284
0.028951041 0.68800002 -0.053076908 1.1497072e-38 344 284
0.030157333 0.68800002 -0.053076908 1.1497072e-38 345 284
0.031363625 0.68800002 -0.053076908 1.1497075e-38 346 284
0.032664597 0.69 -0.053231198 1.1773302e-38 347 284
0.033923492 0.69099998 -0.053308345 1.1406677e-38 348 284
0.035135046 0.69099998 -0.053308345 1.1406677e-38 349 284
0.036346599 0.69099998 -0.053308345 1.1406675e-38 350 284
0.037666857 0.69300002 -0.053462639 1.1406675e-38 351 284
0.03888192 0.69300002 -0.053462639 1.1407396e-38 352 284
0.04009698 0.69300002 -0.053462639 1.1499592e-38 353 284
0.041312039 0.69300002 -0.053462639 1.1408842e-38 354 284
0.042527102 0.69300002 -0.053462639 1.1501038e-38 355 284
0.043805279 0.69400001 -0.053539783 1.1782309e-38 356 284
0.045022093 0.69400001 -0.053539783 1.325744e-38 357 284
0.046238903 0.69400001 -0.053539783 1.3913258e-38 358 284
-0.037123326 0.68300003 -0.053888701 1.2995262e-38 289 285
-0.035925802 0.68300003 -0.053888701 1.4087904e-38 290 285
-0.034728274 0.68300003 -0.053888701 1.3258143e-38 291 285
-0.033530746 0.68300003 -0.053888701 1.3989206e-38 292 285
-0.032333218 0.68300003 -0.053888701 1.3620422e-38 293 285
-0.031135695 0.68300003 -0.053888701 1.1962369e-38 294 285
-0.029894331 0.68199998 -0.053809796 9.4730873e-39 295 285
-0.028572321 0.67900002 -0.053573098 3.7699441e-39 296 285
-0.027341479 0.67799997 -0.053494196 4.4153135e-39 297 285
-0.026152719 0.67799997 -0.053494196 7.2704899e-39 298 285
-0.024890319 0.676 -0.053336397 1.0220391e-38 299 285
-0.023705067 0.676 -0.053336397 1.34321e-38 300 285
-0.022519812 0.676 -0.053336397 1.2878928e-38 301 285
-0.021334561 0.676 -0.053336397 1.2970758e-38 302 285
-0.020149305 0.676 -0.053336397 1.2970758e-38 303 285
-0.018935999 0.67500001 -0.053257499 1.2787084e-38 304 285
-0.0177525 0.67500001 -0.053257499 1.2603053e-38 305 285
-0.016569 0.67500001 -0.053257499 1.2787437e-38 306 285
-0.015362706 0.67400002 -0.053178601 1.2603047e-38 307 285
-0.01418096 0.67400002 -0.053178601 1.2785996e-38 308 285
-0.0130185 0.67500001 -0.053257499 1.2785996e-38 309 285
-0.011835 0.67500001 -0.053257499 1.2601968e-38 310 285
-0.0106515 0.67500001 -0.053257499 1.2601968e-38 311 285
-0.0094679995 0.67500001 -0.053257499 1.2694167e-38 312 285
-0.0082967728 0.676 -0.053336397 1.2601971e-38 313 285
-0.0071115191 0.676 -0.053336397 1.2509775e-38 314 285
-0.0059262668 0.676 -0.053336397 1.2509775e-38 315 285
-0.0047410131 0.676 -0.053336397 1.2326107e-38 316 285
-0.0035557596 0.676 -0.053336397 1.2233912e-38 317 285
-0.0023705065 0.676 -0.053336397 1.2050243e-38 318 285
-0.0011852533 0.676 -0.053336397 1.1958046e-38 319 285
0 0.676 -0.053336397 1.1958046e-38 320 285
0.0011887599 0.67799997 -0.053494196 1.1958046e-38 321 285
0.0023775198 0.67799997 -0.053494196 1.1958046e-38 322 285
0.0035662798 0.67799997 -0.053494196 1.1958046e-38 323 285
0.0047550397 0.67799997 -0.053494196 1.1957333e-38 324 285
0.0059437994 0.67799997 -0.053494196 1.1957333e-38 325 285
0.0071325595 0.67799997 -0.053494196 1.1864779e-38 326 285
0.0083213197 0.67799997 -0.053494196 1.1864779e-38 327 285
0.0095100794 0.67799997 -0.053494196 1.1865485e-38 328 285
0.010698839 0.67799997 -0.053494196 1.1773289e-38 329 285
0.011905133 0.67900002 -0.053573098 1.0761671e-38 330 285
0.013095647 0.67900002 -0.053573098 1.0116302e-38 331 285
0.014307199 0.68000001 -0.053652 4.8719728e-39 332 285
0.015545053 0.68199998 -0.053809796 3.4897545e-39 333 285
0.016765373 0.68300003 -0.053888701 3.8639292e-39 334 285
0.0179892 0.68400002 -0.053967599 5.154668e-39 335 285
0.019244585 0.68599999 -0.054125395 1.0396488e-38 336 285
0.020477179 0.68699998 -0.054204296 1.058088e-38 337 285
0.021681719 0.68699998 -0.054204296 1.1129735e-38 338 285
0.022886258 0.68699998 -0.054204296 1.1129735e-38 339 285
0.024090799 0.68699998 -0.054204296 1.1313047e-38 340 285
0.025295338 0.68699998 -0.054204296 1.1129014e-38 341 285
0.026538454 0.68800002 -0.054283202 1.1312327e-38 342 285
0.027744746 0.68800002 -0.054283202 1.1404524e-38 343 285
0.028951041 0.68800002 -0.054283202 1.1313403e-38 344 285
0.030244999 0.69 -0.054440998 1.1313403e-38 345 285
0.031500384 0.69099998 -0.054519895 1.1129735e-38 346 285
0.032711938 0.69099998 -0.054519895 1.122193e-38 347 285
0.034021679 0.69300002 -0.054677699 1.122193e-38 348 285
0.035236739 0.69300002 -0.054677699 1.122193e-38 349 285
0.036451802 0.69300002 -0.054677699 1.1039337e-38 350 285
0.037666857 0.69300002 -0.054677699 1.1131532e-38 351 285
0.03888192 0.69300002 -0.054677699 1.1132254e-38 352 285
0.04009698 0.69300002 -0.054677699 1.122445e-38 353 285
0.041312039 0.69300002 -0.054677699 1.1040782e-38 354 285
0.042588469 0.69400001 -0.054756597 1.1870183e-38 355 285
0.043805279 0.69400001 -0.054756597 1.2064661e-38 356 285
-0.035978399 0.68400002 -0.055166878 1.4090793e-38 290 286
-0.03477912 0.68400002 -0.055166878 1.2800054e-38 291 286
-0.033579841 0.68400002 -0.055166878 1.3899547e-38 292 286
-0.032333218 0.68300003 -0.055086225 1.3254177e-38 293 286
-0.031135695 0.68300003 -0.055086225 1.2147845e-38 294 286
-0.029938167 0.68300003 -0.055086225 9.4741719e-39 295 286
-0.028572321 0.67900002 -0.054763615 3.7703e-39 296 286
-0.027381808 0.67900002 -0.054763615 4.0465268e-39 297 286
-0.026152719 0.67799997 -0.054682959 6.2588576e-39 298 286
-0.024963958 0.67799997 -0.054682959 9.7619314e-39 299 286
-0.023775198 0.67799997 -0.054682959 1.3340982e-38 300 286
-0.022586439 0.67799997 -0.054682959 1.2695613e-38 301 286
-0.021397678 0.67799997 -0.054682959 1.2971111e-38 302 286
-0.020208918 0.67799997 -0.054682959 1.2971111e-38 303 286
-0.018964052 0.676 -0.054521654 1.2787437e-38 304 286
-0.017778801 0.676 -0.054521654 1.2603047e-38 305 286
-0.016593546 0.676 -0.054521654 1.2787437e-38 306 286
-0.0153855 0.67500001 -0.054441001 1.2603047e-38 307 286
-0.014202001 0.67500001 -0.054441001 1.2786718e-38 308 286
-0.013037786 0.676 -0.054521654 1.2694164e-38 309 286
-0.011852534 0.676 -0.054521654 1.2601968e-38 310 286
-0.01066728 0.676 -0.054521654 1.2601968e-38 311 286
-0.0094820261 0.676 -0.054521654 1.2418656e-38 312 286
-0.0083213197 0.67799997 -0.054682959 1.2418656e-38 313 286
-0.0071325595 0.67799997 -0.054682959 1.2418656e-38 314 286
-0.0059437994 0.67799997 -0.054682959 1.232646e-38 315 286
-0.0047550397 0.67799997 -0.054682959 1.2233909e-38 316 286
-0.0035662798 0.67799997 -0.054682959 1.2141712e-38 317 286
-0.0023775198 0.67799997 -0.054682959 1.2233912e-38 318 286
-0.0011887599 0.67799997 -0.054682959 1.2141714e-38 319 286
0 0.67799997 -0.054682959 1.2141359e-38 320 286
0.0011887599 0.67799997 -0.054682959 1.1957327e-38 321 286
0.0023775198 0.67799997 -0.054682959 1.195733e-38 322 286
0.0035662798 0.67799997 -0.054682959 1.1865135e-38 323 286
0.0047550397 0.67799997 -0.054682959 1.1865135e-38 324 286
0.0059437994 0.67799997 -0.054682959 1.1865135e-38 325 286
0.0071325595 0.67799997 -0.054682959 1.1773652e-38 326 286
0.0083213197 0.67799997 -0.054682959 1.1773652e-38 327 286
0.0095100794 0.67799997 -0.054682959 1.1589621e-38 328 286
0.010698839 0.67799997 -0.054682959 1.1773652e-38 329 286
0.011905133 0.67900002 -0.054763615 1.0484734e-38 330 286
0.013095647 0.67900002 -0.054763615 9.1939949e-39 331 286
0.01434928 0.68199998 -0.055005573 4.0450918e-39 332 286
0.015567848 0.68300003 -0.055086225 3.2149724e-39 333 286
0.016765373 0.68300003 -0.055086225 4.690806e-39 334 286
0.018041799 0.68599999 -0.055328183 6.4425229e-39 335 286
0.019272638 0.68699998 -0.055408835 1.0854222e-38 336 286
0.020477179 0.68699998 -0.055408835 1.0854222e-38 337 286
0.021681719 0.68699998 -0.055408835 1.1037172e-38 338 286
0.022919573 0.68800002 -0.055489492 1.1037172e-38 339 286
0.024125867 0.68800002 -0.055489492 1.1220481e-38 340 286
0.02533216 0.68800002 -0.055489492 1.1220481e-38 341 286
0.026615599 0.69 -0.055650797 1.1037166e-38 342 286
0.027825398 0.69 -0.055650797 1.1129721e-38 343 286
0.029035198 0.69 -0.055650797 1.1129367e-38 344 286
0.030288832 0.69099998 -0.055731449 1.1129367e-38 345 286
0.031500384 0.69099998 -0.055731449 1.131268e-38 346 286
0.03280662 0.69300002 -0.055892758 1.131268e-38 347 286
0.034021679 0.69300002 -0.055892758 1.1037891e-38 348 286
0.035236739 0.69300002 -0.055892758 1.1130088e-38 349 286
0.036504399 0.69400001 -0.055973411 1.1130451e-38 350 286
0.037721213 0.69400001 -0.055973411 1.094642e-38 351 286
0.038938027 0.69400001 -0.055973411 1.1038984e-38 352 286
0.04009698 0.69300002 -0.055892758 1.1868744e-38 353 286
0.041312039 0.69300002 -0.055892758 1.1141629e-38 354 286
0.042588469 0.69400001 -0.055973411 1.2985541e-38 355 286
-0.033678025 0.68599999 -0.056530971 1.3530767e-38 292 287
-0.032475237 0.68599999 -0.056530971 1.3161626e-38 293 287
-0.031272452 0.68599999 -0.056530971 1.2147126e-38 294 287
-0.030069664 0.68599999 -0.056530971 9.9344312e-39 295 287
-0.028908957 0.68699998 -0.056613375 4.2305565e-39 296 287
-0.027704418 0.68699998 -0.056613375 4.1380007e-39 297 287
-0.026191294 0.67900002 -0.055954125 5.7989542e-39 298 287
-0.025000781 0.67900002 -0.055954125 9.4864207e-39 299 287
-0.023775198 0.67799997 -0.055871718 1.3340985e-38 300 287
-0.022586439 0.67799997 -0.055871718 1.2695616e-38 301 287
