# .PCD v.7 - Point Cloud Data file format
FIELDS x y z rgb imX imY
SIZE 4 4 4 4 4 4
TYPE F F F F F F
COUNT 1 1 1 1 1 1
WIDTH 856
HEIGHT 1
VIEWPOINT 0 0 0 1 0 0 0
POINTS 856
DATA ascii
-0.025598666 0.73000002 0.021758866 1.9509784e-38 300 223
-0.024318734 0.73000002 0.021758866 1.9233557e-38 301 223
-0.023038799 0.73000002 0.021758866 1.9509071e-38 302 223
-0.021699252 0.72799999 0.021699252 2.0246636e-38 303 223
-0.020422826 0.72799999 0.021699252 1.7113816e-38 304 223
-0.0191464 0.72799999 0.021699252 1.3794772e-38 305 223
-0.017845426 0.727 0.021669446 5.6084687e-39 306 223
-0.016570752 0.727 0.021669446 4.8709023e-39 307 223
-0.015296079 0.727 0.021669446 7.6371257e-39 308 223
-0.014021406 0.727 0.021669446 1.1785569e-38 309 223
-0.012746733 0.727 0.021669446 1.841139e-38 310 223
-0.01147206 0.727 0.021669446 1.841139e-38 311 223
-0.010169334 0.72500002 0.021609833 1.96038e-38 312 223
-0.0088981669 0.72500002 0.021609833 1.96038e-38 313 223
-0.0076270006 0.72500002 0.021609833 1.9789612e-38 314 223
-0.0063733663 0.727 0.021669446 1.9789612e-38 315 223
-0.0050986931 0.727 0.021669446 1.9972563e-38 316 223
-0.0038135003 0.72500002 0.021609833 1.9788532e-38 317 223
-0.0025353199 0.72299999 0.021550218 1.9514105e-38 318 223
-0.0012676599 0.72299999 0.021550218 1.923752e-38 319 223
0 0.72299999 0.021550218 1.941939e-38 320 223
0.0012676599 0.72299999 0.021550218 1.9050608e-38 321 223
0.0025353199 0.72299999 0.021550218 1.8680386e-38 322 223
0.0038029798 0.72299999 0.021550218 1.8311243e-38 323 223
0.0050636264 0.722 0.021520413 1.7390013e-38 324 223
0.0063295332 0.722 0.021520413 1.6929036e-38 325 223
0.0075954394 0.722 0.021520413 1.6743928e-38 326 223
0.0088613462 0.722 0.021520413 1.6006004e-38 327 223
0.01014128 0.72299999 0.021550218 1.5361359e-38 328 223
0.0114405 0.72500002 0.021609833 1.4162817e-38 329 223
0.012711667 0.72500002 0.021609833 1.296105e-38 330 223
0.014021406 0.727 0.021669446 1.1946896e-38 331 223
0.015296079 0.727 0.021669446 1.0016919e-38 332 223
0.016570752 0.727 0.021669446 9.2793536e-39 333 223
0.017869972 0.72799999 0.021699252 5.6941833e-39 334 223
0.0191464 0.72799999 0.021699252 4.4999435e-39 335 223
0.020478934 0.73000002 0.021758866 1.3775605e-39 336 223
0.021758866 0.73000002 0.021758866 2.0204188e-39 337 223
0.023038799 0.73000002 0.021758866 1.935444e-39 338 223
0.024318734 0.73000002 0.021758866 3.5027683e-39 339 223
0.025879199 0.73799998 0.021997318 5.0708003e-39 340 223
0.027173158 0.73799998 0.021997318 7.2834968e-39 341 223
0.028505694 0.73900002 0.022027127 1.2520983e-38 342 223
0.029882059 0.741 0.02208674 1.3351102e-38 343 223
0.03118128 0.741 0.02208674 1.5001601e-38 344 223
0.032480497 0.741 0.02208674 1.4909045e-38 345 223
0.033825304 0.74199998 0.022116546 1.4817558e-38 346 223
0.03512628 0.74199998 0.022116546 1.4909754e-38 347 223
0.036525439 0.74400002 0.022176161 1.4450222e-38 348 223
0.03793161 0.74599999 0.022235774 1.4358026e-38 349 223
0.039292198 0.74699998 0.022265578 1.3714121e-38 350 223
0.040873703 0.75199997 0.022414612 1.565023e-38 351 223
0.04219221 0.75199997 0.022414612 1.5945192e-38 352 223
-0.044650383 0.74900001 0.021011947 1.1956583e-38 286 224
-0.043221418 0.74699998 0.020955838 1.1126821e-38 287 224
-0.04185557 0.74599999 0.020927785 1.462628e-38 288 224
-0.040330172 0.74199998 0.020815572 1.9051311e-38 289 224
-0.038976599 0.741 0.020787518 1.9325024e-38 290 224
-0.037677377 0.741 0.020787518 1.8679655e-38 291 224
-0.036230877 0.73799998 0.020703359 1.9232475e-38 292 224
-0.034936916 0.73799998 0.020703359 1.9601617e-38 293 224
-0.033551786 0.736 0.020647252 1.1311255e-38 294 224
-0.032173667 0.73400003 0.020591147 7.1631687e-39 295 224
-0.030844638 0.73299998 0.020563092 3.1224069e-39 296 224
-0.029559445 0.73299998 0.020563092 9.1147501e-39 297 224
-0.028197108 0.73100001 0.020506985 1.8499605e-38 298 224
-0.026878599 0.73000002 0.020478934 1.8223018e-38 299 224
-0.025598666 0.73000002 0.020478934 1.8864414e-38 300 224
-0.024318734 0.73000002 0.020478934 1.8864414e-38 301 224
-0.023038799 0.73000002 0.020478934 1.9323602e-38 302 224
-0.021699252 0.72799999 0.020422826 2.0153721e-38 303 224
-0.020422826 0.72799999 0.020422826 1.6285497e-38 304 224
-0.0191464 0.72799999 0.020422826 1.1583518e-38 305 224
-0.017845426 0.727 0.020394772 4.5075245e-39 306 224
-0.016570752 0.727 0.020394772 4.5997216e-39 307 224
-0.015296079 0.727 0.020394772 7.7322052e-39 308 224
-0.014021406 0.727 0.020394772 1.2157594e-38 309 224
-0.012746733 0.727 0.020394772 1.9055309e-38 310 224
-0.01147206 0.727 0.020394772 1.9055309e-38 311 224
-0.010169334 0.72500002 0.020338668 2.0064387e-38 312 224
-0.0088981669 0.72500002 0.020338668 2.0064387e-38 313 224
-0.0076270006 0.72500002 0.020338668 2.0247687e-38 314 224
-0.0063558333 0.72500002 0.020338668 2.0155491e-38 315 224
-0.0050846669 0.72500002 0.020338668 2.0062945e-38 316 224
-0.0038029798 0.72299999 0.020282559 1.9878195e-38 317 224
-0.0025353199 0.72299999 0.020282559 1.9694532e-38 318 224
-0.0012659066 0.722 0.020254506 1.951014e-38 319 224
0 0.722 0.020254506 1.9692367e-38 320 224
0.0012676599 0.72299999 0.020282559 1.941542e-38 321 224
0.0025318132 0.722 0.020254506 1.9322503e-38 322 224
0.0037977197 0.722 0.020254506 1.9322503e-38 323 224
0.0050636264 0.722 0.020254506 1.8587835e-38 324 224
0.0063295332 0.722 0.020254506 1.8587835e-38 325 224
0.0075954394 0.722 0.020254506 1.8495286e-38 326 224
0.0088613462 0.722 0.020254506 1.8310895e-38 327 224
0.01014128 0.72299999 0.020282559 1.8219778e-38 328 224
0.01140894 0.72299999 0.020282559 1.7942831e-38 329 224
0.012711667 0.72500002 0.020338668 1.7114152e-38 330 224
0.013982833 0.72500002 0.020338668 1.6284391e-38 331 224
0.015254001 0.72500002 0.020338668 1.4994369e-38 332 224
0.016570752 0.727 0.020394772 1.3427403e-38 333 224
0.017845426 0.727 0.020394772 1.1677851e-38 334 224
0.0191464 0.72799999 0.020422826 9.9261327e-39 335 224
0.020422826 0.72799999 0.020422826 6.9795173e-39 336 224
0.021699252 0.72799999 0.020422826 6.1529867e-39 337 224
0.022975679 0.72799999 0.020422826 3.3979582e-39 338 224
0.024318734 0.73000002 0.020478934 3.6734675e-39 339 224
0.025914267 0.73900002 0.020731414 6.8747703e-42 340 224
0.027209979 0.73900002 0.020731414 1.7611127e-39 341 224
0.028505694 0.73900002 0.020731414 7.9180664e-39 342 224
0.029801406 0.73900002 0.020731414 1.059174e-38 343 224
0.03118128 0.741 0.020787518 1.3531175e-38 344 224
0.032480497 0.741 0.020787518 1.3715925e-38 345 224
0.033825304 0.74199998 0.020815572 1.4448427e-38 346 224
0.03512628 0.74199998 0.020815572 1.4632818e-38 347 224
0.036525439 0.74400002 0.02087168 1.4450225e-38 348 224
0.03793161 0.74599999 0.020927785 1.4358029e-38 349 224
0.039239597 0.74599999 0.020927785 1.3714124e-38 350 224
0.040547583 0.74599999 0.020927785 1.5558037e-38 351 224
-0.048590127 0.74900001 0.0196987 1.3097209e-38 283 225
-0.045963634 0.74900001 0.0196987 1.2249424e-38 285 225
-0.044650383 0.74900001 0.0196987 1.3615019e-38 286 225
-0.043221418 0.74699998 0.019646099 1.2047333e-38 287 225
-0.04185557 0.74599999 0.019619798 1.5270918e-38 288 225
-0.040330172 0.74199998 0.0195146 1.858996e-38 289 225
-0.038976599 0.741 0.019488299 1.9046632e-38 290 225
-0.037677377 0.741 0.019488299 1.8769685e-38 291 225
-0.036230877 0.73799998 0.019409399 1.8864414e-38 292 225
-0.034842238 0.736 0.019356798 1.9049166e-38 293 225
-0.033460613 0.73400003 0.019304199 9.835421e-39 294 225
-0.032173667 0.73400003 0.019304199 5.9693073e-39 295 225
-0.030844638 0.73299998 0.019277899 5.2378645e-39 296 225
-0.029559445 0.73299998 0.019277899 1.1138385e-38 297 225
-0.028197108 0.73100001 0.019225299 1.8409913e-38 298 225
-0.026878599 0.73000002 0.019199001 1.7395402e-38 299 225
-0.025598666 0.73000002 0.019199001 1.8771853e-38 300 225
-0.024318734 0.73000002 0.019199001 1.8864049e-38 301 225
-0.023038799 0.73000002 0.019199001 1.9232128e-38 302 225
-0.021699252 0.72799999 0.0191464 1.9969693e-38 303 225
-0.020422826 0.72799999 0.0191464 1.5639767e-38 304 225
-0.0191464 0.72799999 0.0191464 1.010767e-38 305 225
-0.017845426 0.727 0.019120099 4.0501435e-39 306 225
-0.016570752 0.727 0.019120099 4.0501435e-39 307 225
-0.015296079 0.727 0.019120099 5.4327094e-39 308 225
-0.013982833 0.72500002 0.0190675 9.8580983e-39 309 225
-0.012711667 0.72500002 0.0190675 1.8411022e-38 310 225
-0.0114405 0.72500002 0.0190675 1.8411022e-38 311 225
-0.01014128 0.72299999 0.019014901 1.9604137e-38 312 225
-0.0088736191 0.72299999 0.019014901 1.9696333e-38 313 225
-0.0076059597 0.72299999 0.019014901 1.9972191e-38 314 225
-0.0063558333 0.72500002 0.0190675 1.97878e-38 315 225
-0.0050846669 0.72500002 0.0190675 1.951122e-38 316 225
-0.0038029798 0.72299999 0.019014901 1.9326469e-38 317 225
-0.0025353199 0.72299999 0.019014901 1.9416872e-38 318 225
-0.0012659066 0.722 0.0189886 1.904809e-38 319 225
0 0.722 0.0189886 1.9231039e-38 320 225
0.0012676599 0.72299999 0.019014901 1.8954093e-38 321 225
0.0025318132 0.722 0.0189886 1.8861533e-38 322 225
0.0037977197 0.722 0.0189886 1.8768979e-38 323 225
0.0050636264 0.722 0.0189886 1.8493118e-38 324 225
0.0063295332 0.722 0.0189886 1.8400922e-38 325 225
0.0075954394 0.722 0.0189886 1.8216175e-38 326 225
0.0088613462 0.722 0.0189886 1.830873e-38 327 225
0.01014128 0.72299999 0.019014901 1.7940664e-38 328 225
0.01140894 0.72299999 0.019014901 1.8125414e-38 329 225
0.012711667 0.72500002 0.0190675 1.7850988e-38 330 225
0.013982833 0.72500002 0.0190675 1.7850988e-38 331 225
0.015254001 0.72500002 0.0190675 1.7299617e-38 332 225
0.016570752 0.727 0.019120099 1.6930474e-38 333 225
0.017845426 0.727 0.019120099 1.6930121e-38 334 225
0.019120099 0.727 0.019120099 1.6469501e-38 335 225
0.020422826 0.72799999 0.0191464 1.4902918e-38 336 225
0.021699252 0.72799999 0.0191464 1.3151202e-38 337 225
0.022975679 0.72799999 0.0191464 1.0758456e-38 338 225
0.024318734 0.73000002 0.019199001 8.6375967e-39 339 225
0.025598666 0.73000002 0.019199001 1.5651803e-39 340 225
0.027209979 0.73900002 0.0194357 1.0120065e-39 341 225
0.028467119 0.73799998 0.019409399 5.5357875e-40 342 225
0.029761078 0.73799998 0.019409399 2.7666326e-39 343 225
0.03109712 0.73900002 0.0194357 7.7387044e-39 344 225
0.032480497 0.741 0.019488299 1.0043954e-38 345 225
0.033825304 0.74199998 0.0195146 1.4083253e-38 346 225
0.03512628 0.74199998 0.0195146 1.4175448e-38 347 225
0.036525439 0.74400002 0.019567199 1.4448427e-38 348 225
0.03793161 0.74599999 0.019619798 1.4540623e-38 349 225
0.039239597 0.74599999 0.019619798 1.3714121e-38 350 225
-0.051216617 0.74900001 0.018385453 1.9548029e-38 281 226
-0.04990337 0.74900001 0.018385453 1.7519713e-38 282 226
-0.048590127 0.74900001 0.018385453 1.337055e-38 283 226
-0.047276881 0.74900001 0.018385453 1.4733665e-38 284 226
-0.045963634 0.74900001 0.018385453 1.3442927e-38 285 226
-0.044531155 0.74699998 0.018336359 1.232968e-38 286 226
-0.043221418 0.74699998 0.018336359 1.2053454e-38 287 226
-0.04185557 0.74599999 0.018311813 1.6558785e-38 288 226
-0.040330172 0.74199998 0.018213626 1.9048067e-38 289 226
-0.038976599 0.741 0.018189078 1.89548e-38 290 226
-0.037677377 0.741 0.018189078 1.8493821e-38 291 226
-0.036132693 0.736 0.018066347 1.85882e-38 292 226
-0.03474756 0.73400003 0.018017253 1.8772952e-38 293 226
-0.033460613 0.73400003 0.018017253 8.3613826e-39 294 226
-0.032173667 0.73400003 0.018017253 4.8672813e-39 295 226
-0.030844638 0.73299998 0.017992707 7.1696567e-39 296 226
-0.029559445 0.73299998 0.017992707 1.2793592e-38 297 226
-0.028197108 0.73100001 0.017943613 1.8410632e-38 298 226
-0.026878599 0.73000002 0.017919067 1.7396481e-38 299 226
-0.025598666 0.73000002 0.017919067 1.8313043e-38 300 226
-0.024318734 0.73000002 0.017919067 1.8313043e-38 301 226
-0.023038799 0.73000002 0.017919067 1.8864794e-38 302 226
-0.021699252 0.72799999 0.017869972 1.9602359e-38 303 226
-0.020422826 0.72799999 0.017869972 1.508551e-38 304 226
-0.019120099 0.727 0.017845426 9.0927945e-39 305 226
-0.017845426 0.727 0.017845426 5.1553995e-39 306 226
-0.016570752 0.727 0.017845426 5.2475951e-39 307 226
-0.015254001 0.72500002 0.017796334 4.6011439e-39 308 226
-0.01394426 0.72299999 0.017747238 8.1971322e-39 309 226
-0.012659066 0.722 0.017722692 1.7858937e-38 310 226
-0.01139316 0.722 0.017722692 1.8043328e-38 311 226
-0.01014128 0.72299999 0.017747238 1.9695993e-38 312 226
-0.0088736191 0.72299999 0.017747238 1.9695993e-38 313 226
-0.0076059597 0.72299999 0.017747238 1.9513384e-38 314 226
-0.0063382997 0.72299999 0.017747238 1.9328993e-38 315 226
-0.0050706398 0.72299999 0.017747238 1.9143528e-38 316 226
-0.0038029798 0.72299999 0.017747238 1.8774747e-38 317 226
-0.0025318132 0.722 0.017722692 1.904739e-38 318 226
-0.0012659066 0.722 0.017722692 1.8862998e-38 319 226
0 0.722 0.017722692 1.8678604e-38 320 226
0.0012659066 0.722 0.017722692 1.8402018e-38 321 226
0.0025318132 0.722 0.017722692 1.8493121e-38 322 226
0.0037977197 0.722 0.017722692 1.8400925e-38 323 226
0.0050636264 0.722 0.017722692 1.8308008e-38 324 226
0.0063295332 0.722 0.017722692 1.8215812e-38 325 226
0.0075954394 0.722 0.017722692 1.8399476e-38 326 226
0.0088736191 0.72299999 0.017747238 1.8399476e-38 327 226
0.01014128 0.72299999 0.017747238 1.8123963e-38 328 226
0.01140894 0.72299999 0.017747238 1.8123963e-38 329 226
0.012711667 0.72500002 0.017796334 1.7848818e-38 330 226
0.013982833 0.72500002 0.017796334 1.7848818e-38 331 226
0.015254001 0.72500002 0.017796334 1.7665155e-38 332 226
0.016570752 0.727 0.017845426 1.7665155e-38 333 226
0.017845426 0.727 0.017845426 1.7849916e-38 334 226
0.019120099 0.727 0.017845426 1.8034666e-38 335 226
0.020394772 0.727 0.017845426 1.7024843e-38 336 226
0.021699252 0.72799999 0.017869972 1.6379474e-38 337 226
0.022975679 0.72799999 0.017869972 1.4537007e-38 338 226
0.024318734 0.73000002 0.017919067 1.296968e-38 339 226
0.025703866 0.73299998 0.017992707 1.0296384e-38 340 226
0.02702588 0.73400003 0.018017253 8.1755242e-39 341 226
0.028312827 0.73400003 0.018017253 3.9489544e-39 342 226
0.029761078 0.73799998 0.018115439 3.5816082e-39 343 226
0.03109712 0.73900002 0.018139986 3.3201567e-39 344 226
0.032480497 0.741 0.018189078 6.6391994e-39 345 226
0.033825304 0.74199998 0.018213626 1.1691951e-38 346 226
0.035220962 0.74400002 0.01826272 1.2890493e-38 347 226
0.036525439 0.74400002 0.01826272 1.3805588e-38 348 226
0.03793161 0.74599999 0.018311813 1.3898143e-38 349 226
-0.052529868 0.74900001 0.017072206 1.9732778e-38 280 227
-0.051216617 0.74900001 0.017072206 1.9363635e-38 281 227
-0.04990337 0.74900001 0.017072206 1.6780343e-38 282 227
-0.048590127 0.74900001 0.017072206 1.410667e-38 283 227
-0.047150634 0.74699998 0.017026618 1.6205554e-38 284 227
-0.045840897 0.74699998 0.017026618 1.3254935e-38 285 227
-0.044531155 0.74699998 0.017026618 8.652309e-39 286 227
-0.04316356 0.74599999 0.017003827 1.1325982e-38 287 227
-0.04174336 0.74400002 0.016958239 1.7480042e-38 288 227
-0.040330172 0.74199998 0.016912652 1.8770781e-38 289 227
-0.0388714 0.73900002 0.016844273 1.8769335e-38 290 227
-0.037575684 0.73900002 0.016844273 1.8584944e-38 291 227
-0.036132693 0.736 0.016775893 1.8127945e-38 292 227
-0.03474756 0.73400003 0.016730307 1.7482576e-38 293 227
-0.033460613 0.73400003 0.016730307 6.9795201e-39 294 227
-0.032129832 0.73299998 0.016707512 5.4182943e-39 295 227
-0.030844638 0.73299998 0.016707512 9.1021748e-39 296 227
-0.029559445 0.73299998 0.016707512 1.426513e-38 297 227
-0.028197108 0.73100001 0.016661927 1.8224813e-38 298 227
-0.026878599 0.73000002 0.016639132 1.7302856e-38 299 227
-0.025598666 0.73000002 0.016639132 1.840272e-38 300 227
-0.024318734 0.73000002 0.016639132 1.8586753e-38 301 227
-0.022975679 0.72799999 0.016593546 1.8771152e-38 302 227
-0.021699252 0.72799999 0.016593546 1.9416522e-38 303 227
-0.020422826 0.72799999 0.016593546 1.5086591e-38 304 227
-0.019120099 0.727 0.016570752 8.9094823e-39 305 227
-0.017845426 0.727 0.016570752 4.792728e-39 306 227
-0.016525166 0.72500002 0.016525166 4.6083368e-39 307 227
-0.015211919 0.72299999 0.01647958 4.3274339e-39 308 227
-0.013924973 0.722 0.016456785 7.1851383e-39 309 227
-0.012659066 0.722 0.016456785 1.7029532e-38 310 227
-0.01139316 0.722 0.016456785 1.7582706e-38 311 227
-0.010127253 0.722 0.016456785 1.9141021e-38 312 227
-0.0088613462 0.722 0.016456785 1.9233575e-38 313 227
-0.0075954394 0.722 0.016456785 1.9327567e-38 314 227
-0.0063295332 0.722 0.016456785 1.9143176e-38 315 227
-0.0050636264 0.722 0.016456785 1.9049904e-38 316 227
-0.0037977197 0.722 0.016456785 1.8497089e-38 317 227
-0.0025318132 0.722 0.016456785 1.9045588e-38 318 227
-0.0012659066 0.722 0.016456785 1.8769001e-38 319 227
0 0.722 0.016456785 1.8769349e-38 320 227
0.0012659066 0.722 0.016456785 1.8493121e-38 321 227
0.0025318132 0.722 0.016456785 1.8401278e-38 322 227
0.0037977197 0.722 0.016456785 1.8308724e-38 323 227
0.0050636264 0.722 0.016456785 1.8399125e-38 324 227
0.0063295332 0.722 0.016456785 1.8399125e-38 325 227
0.0075954394 0.722 0.016456785 1.8123612e-38 326 227
0.0088613462 0.722 0.016456785 1.8123612e-38 327 227
0.01014128 0.72299999 0.01647958 1.7940297e-38 328 227
0.01140894 0.72299999 0.01647958 1.7940297e-38 329 227
0.012676599 0.72299999 0.01647958 1.7756628e-38 330 227
0.013982833 0.72500002 0.016525166 1.7572238e-38 331 227
0.015254001 0.72500002 0.016525166 1.7571888e-38 332 227
0.016525166 0.72500002 0.016525166 1.7571888e-38 333 227
0.017845426 0.727 0.016570752 1.7297464e-38 334 227
0.019120099 0.727 0.016570752 1.7297464e-38 335 227
0.020394772 0.727 0.016570752 1.7023403e-38 336 227
0.021699252 0.72799999 0.016593546 1.7299629e-38 337 227
0.022975679 0.72799999 0.016593546 1.6933736e-38 338 227
0.024318734 0.73000002 0.016639132 1.7026291e-38 339 227
0.025703866 0.73299998 0.016707512 1.6193657e-38 340 227
0.026989058 0.73299998 0.016707512 1.3335593e-38 341 227
0.028312827 0.73400003 0.016730307 9.838993e-39 342 227
0.029599773 0.73400003 0.016730307 6.7047087e-39 343 227
0.030886721 0.73400003 0.016730307 2.7802883e-40 344 227
0.032173667 0.73400003 0.016730307 9.2339823e-40 345 227
-0.052529868 0.74900001 0.01575896 2.0008286e-38 280 228
-0.051216617 0.74900001 0.01575896 1.9270721e-38 281 228
-0.04990337 0.74900001 0.01575896 1.6778178e-38 282 228
-0.048590127 0.74900001 0.01575896 1.4196702e-38 283 228
-0.047150634 0.74699998 0.015716879 1.6205554e-38 284 228
-0.045840897 0.74699998 0.015716879 1.2425533e-38 285 228
-0.044531155 0.74699998 0.015716879 6.0708369e-39 286 228
-0.04316356 0.74599999 0.015695838 1.2524172e-38 287 228
-0.04174336 0.74400002 0.015653761 1.7850991e-38 288 228
-0.040330172 0.74199998 0.015611678 1.8219775e-38 289 228
-0.0388714 0.73900002 0.01554856 1.8401994e-38 290 228
-0.037575684 0.73900002 0.01554856 1.8217963e-38 291 228
-0.036132693 0.736 0.015485439 1.7760238e-38 292 228
-0.03474756 0.73400003 0.01544336 1.665425e-38 293 228
-0.033460613 0.73400003 0.01544336 6.336652e-39 294 228
-0.032129832 0.73299998 0.015422319 5.5101298e-39 295 228
-0.030844638 0.73299998 0.015422319 9.4727524e-39 296 228
-0.029478792 0.73100001 0.01538024 1.4266925e-38 297 228
-0.028197108 0.73100001 0.01538024 1.8132264e-38 298 228
-0.026878599 0.73000002 0.0153592 1.7302503e-38 299 228
-0.025598666 0.73000002 0.0153592 1.8402369e-38 300 228
-0.024252106 0.72799999 0.01531712 1.8310171e-38 301 228
-0.022975679 0.72799999 0.01531712 1.8310171e-38 302 228
-0.021699252 0.72799999 0.01531712 1.9047738e-38 303 228
-0.020394772 0.727 0.015296079 1.4994748e-38 304 228
-0.019120099 0.727 0.015296079 8.8172838e-39 305 228
-0.017845426 0.727 0.015296079 4.6954933e-39 306 228
-0.016525166 0.72500002 0.015254001 5.2486671e-39 307 228
-0.015190879 0.722 0.015190879 3.8675319e-39 308 228
-0.013924973 0.722 0.015190879 6.5412052e-39 309 228
-0.012659066 0.722 0.015190879 1.6660028e-38 310 228
-0.01139316 0.722 0.015190879 1.7858569e-38 311 228
-0.010127253 0.722 0.015190879 1.8958065e-38 312 228
-0.0088613462 0.722 0.015190879 1.905026e-38 313 228
-0.0075954394 0.722 0.015190879 1.8774396e-38 314 228
-0.0063295332 0.722 0.015190879 1.8590005e-38 315 228
-0.0050636264 0.722 0.015190879 1.8772599e-38 316 228
-0.0037977197 0.722 0.015190879 1.8495652e-38 317 228
-0.0025318132 0.722 0.015190879 1.8586049e-38 318 228
-0.0012659066 0.722 0.015190879 1.8309821e-38 319 228
0 0.722 0.015190879 1.8217979e-38 320 228
0.0012659066 0.722 0.015190879 1.8217979e-38 321 228
0.0025318132 0.722 0.015190879 1.8217613e-38 322 228
0.0037977197 0.722 0.015190879 1.8032863e-38 323 228
0.0050636264 0.722 0.015190879 1.8215812e-38 324 228
0.0063295332 0.722 0.015190879 1.8215812e-38 325 228
0.0075954394 0.722 0.015190879 1.8216164e-38 326 228
0.0088613462 0.722 0.015190879 1.812361e-38 327 228
0.01014128 0.72299999 0.015211919 1.8031414e-38 328 228
0.01140894 0.72299999 0.015211919 1.8031414e-38 329 228
0.012676599 0.72299999 0.015211919 1.7572241e-38 330 228
0.013982833 0.72500002 0.015254001 1.7480045e-38 331 228
0.015254001 0.72500002 0.015254001 1.7479692e-38 332 228
0.016525166 0.72500002 0.015254001 1.7571888e-38 333 228
0.017796334 0.72500002 0.015254001 1.7388941e-38 334 228
0.019120099 0.727 0.015296079 1.7388941e-38 335 228
0.020394772 0.727 0.015296079 1.7022672e-38 336 228
0.021669446 0.727 0.015296079 1.7022672e-38 337 228
0.022975679 0.72799999 0.01531712 1.6656784e-38 338 228
0.024252106 0.72799999 0.01531712 1.6748979e-38 339 228
0.025598666 0.73000002 0.0153592 1.6380923e-38 340 228
0.026989058 0.73299998 0.015422319 1.5090184e-38 341 228
0.028274251 0.73299998 0.015422319 1.3890895e-38 342 228
0.029599773 0.73400003 0.01544336 1.1862591e-38 343 228
0.030886721 0.73400003 0.01544336 8.0890725e-39 344 228
0.032173667 0.73400003 0.01544336 5.7856363e-39 345 228
-0.052529868 0.74900001 0.014445714 2.0008289e-38 280 229
-0.051216617 0.74900001 0.014445714 1.9270724e-38 281 229
-0.04990337 0.74900001 0.014445714 1.6775664e-38 282 229
-0.048590127 0.74900001 0.014445714 1.4101632e-38 283 229
-0.047150634 0.74699998 0.014407139 1.6388501e-38 284 229
-0.045840897 0.74699998 0.014407139 1.2239339e-38 285 229
-0.044531155 0.74699998 0.014407139 6.3405953e-39 286 229
-0.043047838 0.74400002 0.01434928 1.408501e-38 287 229
-0.041631144 0.74199998 0.014310705 1.7851342e-38 288 229
-0.04027582 0.741 0.01429142 1.8035733e-38 289 229
-0.0388714 0.73900002 0.014252847 1.7943171e-38 290 229
-0.037524838 0.73799998 0.014233559 1.8035367e-38 291 229
-0.036034506 0.73400003 0.014156413 1.7301417e-38 292 229
-0.03474756 0.73400003 0.014156413 1.5825929e-38 293 229
-0.033460613 0.73400003 0.014156413 5.8774718e-39 294 229
-0.032129832 0.73299998 0.014137126 5.3264588e-39 295 229
-0.030844638 0.73299998 0.014137126 9.9330061e-39 296 229
-0.029478792 0.73100001 0.014098554 1.4358395e-38 297 229
-0.028158534 0.73000002 0.014079267 1.8039347e-38 298 229
-0.026878599 0.73000002 0.014079267 1.730178e-38 299 229
-0.025528532 0.72799999 0.014040692 1.8217613e-38 300 229
-0.024252106 0.72799999 0.014040692 1.8217613e-38 301 229
-0.022975679 0.72799999 0.014040692 1.821726e-38 302 229
-0.021699252 0.72799999 0.014040692 1.904666e-38 303 229
-0.020394772 0.727 0.014021406 1.4993665e-38 304 229
-0.019120099 0.727 0.014021406 8.7243721e-39 305 229
-0.017796334 0.72500002 0.013982833 4.325622e-39 306 229
-0.016525166 0.72500002 0.013982833 5.3394152e-39 307 229
-0.015190879 0.722 0.013924973 3.4991207e-39 308 229
-0.013924973 0.722 0.013924973 5.8958484e-39 309 229
-0.012659066 0.722 0.013924973 1.5923572e-38 310 229
-0.01139316 0.722 0.013924973 1.7675289e-38 311 229
-0.010127253 0.722 0.013924973 1.9052791e-38 312 229
-0.0088367993 0.72000003 0.0138864 1.8131195e-38 313 229
-0.0075743999 0.72000003 0.0138864 1.85882e-38 314 229
-0.0063120001 0.72000003 0.0138864 1.8496005e-38 315 229
-0.0050496003 0.72000003 0.0138864 1.8494933e-38 316 229
-0.0037872 0.72000003 0.0138864 1.8310541e-38 317 229
-0.0025318132 0.722 0.013924973 1.8310177e-38 318 229
-0.0012624001 0.72000003 0.0138864 1.8125427e-38 319 229
0 0.72000003 0.0138864 1.8217613e-38 320 229
0.0012659066 0.722 0.013924973 1.8125059e-38 321 229
0.0025318132 0.722 0.013924973 1.8216531e-38 322 229
0.0037977197 0.722 0.013924973 1.8124335e-38 323 229
0.0050636264 0.722 0.013924973 1.8215808e-38 324 229
0.0063295332 0.722 0.013924973 1.8215808e-38 325 229
0.0075954394 0.722 0.013924973 1.812361e-38 326 229
0.0088613462 0.722 0.013924973 1.7939218e-38 327 229
0.010127253 0.722 0.013924973 1.7939218e-38 328 229
0.01139316 0.722 0.013924973 1.7939218e-38 329 229
0.012676599 0.72299999 0.01394426 1.7572238e-38 330 229
0.01394426 0.72299999 0.01394426 1.7572238e-38 331 229
0.015254001 0.72500002 0.013982833 1.7480411e-38 332 229
0.016525166 0.72500002 0.013982833 1.7480411e-38 333 229
0.017796334 0.72500002 0.013982833 1.7296748e-38 334 229
0.019120099 0.727 0.014021406 1.7388944e-38 335 229
0.020394772 0.727 0.014021406 1.7114521e-38 336 229
0.021669446 0.727 0.014021406 1.7114521e-38 337 229
0.022975679 0.72799999 0.014040692 1.6655712e-38 338 229
0.024252106 0.72799999 0.014040692 1.6563515e-38 339 229
0.025598666 0.73000002 0.014079267 1.6012493e-38 340 229
0.026989058 0.73299998 0.014137126 1.5827743e-38 341 229
0.028274251 0.73299998 0.014137126 1.5735183e-38 342 229
0.029559445 0.73299998 0.014137126 1.5182009e-38 343 229
0.030886721 0.73400003 0.014156413 1.287641e-38 344 229
0.032173667 0.73400003 0.014156413 9.8343126e-39 345 229
-0.0526 0.75 0.01315 2.0100838e-38 280 230
-0.051216617 0.74900001 0.013132467 1.917888e-38 281 230
-0.04990337 0.74900001 0.013132467 1.686426e-38 282 230
-0.048590127 0.74900001 0.013132467 1.4190587e-38 283 230
-0.047150634 0.74699998 0.013097399 1.6295937e-38 284 230
-0.045840897 0.74699998 0.013097399 1.2146773e-38 285 230
-0.044531155 0.74699998 0.013097399 6.2473249e-39 286 230
-0.043047838 0.74400002 0.0130448 1.4544543e-38 287 230
-0.041631144 0.74199998 0.013009733 1.7758793e-38 288 230
-0.04027582 0.741 0.0129922 1.7758793e-38 289 230
-0.0388714 0.73900002 0.012957133 1.7941383e-38 290 230
-0.037524838 0.73799998 0.012939599 1.8033938e-38 291 230
-0.036034506 0.73400003 0.012869466 1.7114871e-38 292 230
-0.03474756 0.73400003 0.012869466 1.5455351e-38 293 230
-0.033460613 0.73400003 0.012869466 5.3264588e-39 294 230
-0.032129832 0.73299998 0.012851933 4.8672813e-39 295 230
-0.030844638 0.73299998 0.012851933 9.7500469e-39 296 230
-0.029478792 0.73100001 0.012816866 1.3990686e-38 297 230
-0.028158534 0.73000002 0.012799333 1.767056e-38 298 230
-0.026878599 0.73000002 0.012799333 1.6841159e-38 299 230
-0.025528532 0.72799999 0.012764266 1.8032863e-38 300 230
-0.024252106 0.72799999 0.012764266 1.7940667e-38 301 230
-0.022975679 0.72799999 0.012764266 1.803251e-38 302 230
-0.021669446 0.727 0.012746733 1.8677879e-38 303 230
-0.020394772 0.727 0.012746733 1.4900748e-38 304 230
-0.0190675 0.72500002 0.012711667 9.0002374e-39 305 230
-0.017796334 0.72500002 0.012711667 4.1387098e-39 306 230
-0.01647958 0.72299999 0.012676599 4.8762748e-39 307 230
-0.015190879 0.722 0.012659066 2.5782532e-39 308 230
-0.013924973 0.722 0.012659066 4.6065571e-39 309 230
-0.012659066 0.722 0.012659066 1.3807039e-38 310 230
-0.01139316 0.722 0.012659066 1.5374366e-38 311 230
-0.010127253 0.722 0.012659066 1.7668787e-38 312 230
-0.0088367993 0.72000003 0.012624 1.7576592e-38 313 230
-0.0075743999 0.72000003 0.012624 1.8309468e-38 314 230
-0.0063120001 0.72000003 0.012624 1.8217272e-38 315 230
-0.0050496003 0.72000003 0.012624 1.8217994e-38 316 230
-0.0037872 0.72000003 0.012624 1.8033963e-38 317 230
-0.0025248001 0.72000003 0.012624 1.803431e-38 318 230
-0.0012624001 0.72000003 0.012624 1.7849919e-38 319 230
0 0.72000003 0.012624 1.8033585e-38 320 230
0.0012624001 0.72000003 0.012624 1.7941389e-38 321 230
0.0025318132 0.722 0.012659066 1.8216175e-38 322 230
0.0037977197 0.722 0.012659066 1.812398e-38 323 230
0.0050636264 0.722 0.012659066 1.8123615e-38 324 230
0.0063295332 0.722 0.012659066 1.8123615e-38 325 230
0.0075954394 0.722 0.012659066 1.7938865e-38 326 230
0.0088613462 0.722 0.012659066 1.7938865e-38 327 230
0.010127253 0.722 0.012659066 1.7938865e-38 328 230
0.01139316 0.722 0.012659066 1.7938865e-38 329 230
0.012676599 0.72299999 0.012676599 1.7755553e-38 330 230
0.01394426 0.72299999 0.012676599 1.7755553e-38 331 230
0.015211919 0.72299999 0.012676599 1.7571888e-38 332 230
0.016525166 0.72500002 0.012711667 1.7571888e-38 333 230
0.017796334 0.72500002 0.012711667 1.7296748e-38 334 230
0.019120099 0.727 0.012746733 1.7388944e-38 335 230
0.020394772 0.727 0.012746733 1.7021969e-38 336 230
0.021669446 0.727 0.012746733 1.7206362e-38 337 230
0.022975679 0.72799999 0.012764266 1.6472399e-38 338 230
0.024318734 0.73000002 0.012799333 1.6380202e-38 339 230
0.025633732 0.73100001 0.012816866 1.6012859e-38 340 230
0.026989058 0.73299998 0.012851933 1.5551882e-38 341 230
0.028274251 0.73299998 0.012851933 1.5734833e-38 342 230
0.029559445 0.73299998 0.012851933 1.5734833e-38 343 230
0.030844638 0.73299998 0.012851933 1.4905432e-38 344 230
0.032173667 0.73400003 0.012869466 1.3154076e-38 345 230
0.033460613 0.73400003 0.012869466 9.653894e-39 346 230
0.036132693 0.736 0.012904533 2.8584373e-39 348 230
-0.0526 0.75 0.011835 2.028415e-38 280 231
-0.051216617 0.74900001 0.01181922 1.9085607e-38 281 231
-0.04990337 0.74900001 0.01181922 1.6310367e-38 282 231
-0.048590127 0.74900001 0.01181922 1.3912921e-38 283 231
-0.047150634 0.74699998 0.011787659 1.6294856e-38 284 231
-0.045840897 0.74699998 0.011787659 1.2330444e-38 285 231
-0.044471547 0.74599999 0.011771879 8.4492244e-39 286 231
-0.043047838 0.74400002 0.011740319 1.6285836e-38 287 231
-0.041631144 0.74199998 0.01170876 1.7574055e-38 288 231
-0.04027582 0.741 0.01169298 1.748186e-38 289 231
-0.0388714 0.73900002 0.01166142 1.7664802e-38 290 231
-0.037524838 0.73799998 0.011645639 1.7757358e-38 291 231
-0.036034506 0.73400003 0.011582521 1.6654616e-38 292 231
-0.03474756 0.73400003 0.011582521 1.4718508e-38 293 231
-0.033460613 0.73400003 0.011582521 4.9591168e-39 294 231
-0.032129832 0.73299998 0.011566739 4.7754458e-39 295 231
-0.030844638 0.73299998 0.011566739 9.6578471e-39 296 231
-0.029478792 0.73100001 0.01153518 1.3806292e-38 297 231
-0.028197108 0.73100001 0.01153518 1.7209582e-38 298 231
-0.026878599 0.73000002 0.011519399 1.6656767e-38 299 231
-0.025528532 0.72799999 0.01148784 1.7573325e-38 300 231
-0.024252106 0.72799999 0.01148784 1.7389294e-38 301 231
-0.022975679 0.72799999 0.01148784 1.7847764e-38 302 231
-0.021669446 0.727 0.01147206 1.8585689e-38 303 231
-0.020338668 0.72500002 0.0114405 1.5177338e-38 304 231
-0.0190675 0.72500002 0.0114405 9.829991e-39 305 231
-0.017747238 0.72299999 0.01140894 4.7794073e-39 306 231
-0.01647958 0.72299999 0.01140894 4.6872116e-39 307 231
-0.015190879 0.722 0.01139316 1.4737036e-39 308 231
-0.013924973 0.722 0.01139316 3.2254219e-39 309 231
-0.012659066 0.722 0.01139316 1.1597572e-38 310 231
-0.011361601 0.72000003 0.011361601 1.353368e-38 311 231
-0.010099201 0.72000003 0.011361601 1.6929423e-38 312 231
-0.0088367993 0.72000003 0.011361601 1.7206011e-38 313 231
-0.0075743999 0.72000003 0.011361601 1.7573708e-38 314 231
-0.0063120001 0.72000003 0.011361601 1.7757739e-38 315 231
-0.0050496003 0.72000003 0.011361601 1.8034313e-38 316 231
-0.0037872 0.72000003 0.011361601 1.8218344e-38 317 231
-0.0025248001 0.72000003 0.011361601 1.8217976e-38 318 231
-0.0012624001 0.72000003 0.011361601 1.8033585e-38 319 231
0 0.72000003 0.011361601 1.8033219e-38 320 231
0.0012624001 0.72000003 0.011361601 1.8033219e-38 321 231
0.0025248001 0.72000003 0.011361601 1.8124335e-38 322 231
0.0037872 0.72000003 0.011361601 1.8124335e-38 323 231
0.0050636264 0.722 0.01139316 1.803142e-38 324 231
0.0063295332 0.722 0.01139316 1.803142e-38 325 231
0.0075954394 0.722 0.01139316 1.803142e-38 326 231
0.0088613462 0.722 0.01139316 1.7938865e-38 327 231
0.010127253 0.722 0.01139316 1.766336e-38 328 231
0.01139316 0.722 0.01139316 1.766336e-38 329 231
0.012676599 0.72299999 0.01140894 1.7479689e-38 330 231
0.01394426 0.72299999 0.01140894 1.7479689e-38 331 231
0.015211919 0.72299999 0.01140894 1.7388215e-38 332 231
0.01647958 0.72299999 0.01140894 1.7480411e-38 333 231
0.017796334 0.72500002 0.0114405 1.7297467e-38 334 231
0.019120099 0.727 0.01147206 1.7297467e-38 335 231
0.020394772 0.727 0.01147206 1.6930855e-38 336 231
0.021669446 0.727 0.01147206 1.6930855e-38 337 231
0.022975679 0.72799999 0.01148784 1.6655714e-38 338 231
0.024318734 0.73000002 0.011519399 1.6563159e-38 339 231
0.025633732 0.73100001 0.01153518 1.6195818e-38 340 231
0.026989058 0.73299998 0.011566739 1.57352e-38 341 231
0.028274251 0.73299998 0.011566739 1.5825596e-38 342 231
0.029559445 0.73299998 0.011566739 1.5825596e-38 343 231
0.030844638 0.73299998 0.011566739 1.5367136e-38 344 231
0.032173667 0.73400003 0.011582521 1.4906518e-38 345 231
0.033460613 0.73400003 0.011582521 1.2786015e-38 346 231
0.034842238 0.736 0.01161408 1.0665156e-38 347 231
-0.0526 0.75 0.01052 2.0191951e-38 280 232
-0.051216617 0.74900001 0.010505973 1.8624984e-38 281 232
-0.04990337 0.74900001 0.010505973 1.5756468e-38 282 232
-0.048460379 0.74699998 0.010477919 1.3728164e-38 283 232
-0.047150634 0.74699998 0.010477919 1.6017195e-38 284 232
-0.045840897 0.74699998 0.010477919 1.2790348e-38 285 232
-0.044471547 0.74599999 0.010463892 1.0484351e-38 286 232
-0.042932119 0.74199998 0.010407786 1.5278165e-38 287 232
-0.041575037 0.741 0.010393759 1.7297461e-38 288 232
-0.04027582 0.741 0.010393759 1.7205266e-38 289 232
-0.0388714 0.73900002 0.010365707 1.7480408e-38 290 232
-0.037524838 0.73799998 0.010351679 1.7941386e-38 291 232
-0.036034506 0.73400003 0.010295574 1.647095e-38 292 232
-0.03474756 0.73400003 0.010295574 1.4350092e-38 293 232
-0.033460613 0.73400003 0.010295574 5.0509523e-39 294 232
-0.032129832 0.73299998 0.010281546 4.7754458e-39 295 232
-0.030844638 0.73299998 0.010281546 9.4738244e-39 296 232
-0.029478792 0.73100001 0.010253493 1.3622629e-38 297 232
-0.028197108 0.73100001 0.010253493 1.6934077e-38 298 232
-0.026878599 0.73000002 0.010239467 1.6288707e-38 299 232
-0.025598666 0.73000002 0.010239467 1.7480408e-38 300 232
-0.024252106 0.72799999 0.010211413 1.7296017e-38 301 232
-0.022975679 0.72799999 0.010211413 1.7755924e-38 302 232
-0.021669446 0.727 0.010197386 1.8493489e-38 303 232
-0.020338668 0.72500002 0.010169334 1.5821262e-38 304 232
-0.0190675 0.72500002 0.010169334 1.1949046e-38 305 232
-0.017747238 0.72299999 0.01014128 6.063312e-39 306 232
-0.01647958 0.72299999 0.01014128 5.6023352e-39 307 232
-0.015190879 0.722 0.010127253 1.5669796e-39 308 232
-0.013924973 0.722 0.010127253 2.5807714e-39 309 232
-0.012659066 0.722 0.010127253 1.0032041e-38 310 232
-0.011361601 0.72000003 0.010099201 1.2981941e-38 311 232
-0.010099201 0.72000003 0.010099201 1.6930852e-38 312 232
-0.0088367993 0.72000003 0.010099201 1.6746461e-38 313 232
-0.0075743999 0.72000003 0.010099201 1.7574411e-38 314 232
-0.0063120001 0.72000003 0.010099201 1.7758442e-38 315 232
-0.0050496003 0.72000003 0.010099201 1.785207e-38 316 232
-0.0037872 0.72000003 0.010099201 1.785207e-38 317 232
-0.0025248001 0.72000003 0.010099201 1.8035736e-38 318 232
-0.0012624001 0.72000003 0.010099201 1.7850986e-38 319 232
0 0.72000003 0.010099201 1.8125777e-38 320 232
0.0012624001 0.72000003 0.010099201 1.7757355e-38 321 232
0.0025248001 0.72000003 0.010099201 1.8124335e-38 322 232
0.0037872 0.72000003 0.010099201 1.7940303e-38 323 232
0.0050636264 0.722 0.010127253 1.7847749e-38 324 232
0.0063295332 0.722 0.010127253 1.7847749e-38 325 232
0.0075954394 0.722 0.010127253 1.77552e-38 326 232
0.0088613462 0.722 0.010127253 1.77552e-38 327 232
0.010127253 0.722 0.010127253 1.757189e-38 328 232
0.01139316 0.722 0.010127253 1.7479695e-38 329 232
0.012659066 0.722 0.010127253 1.7479692e-38 330 232
0.01394426 0.72299999 0.01014128 1.7479692e-38 331 232
0.015211919 0.72299999 0.01014128 1.7387496e-38 332 232
0.01647958 0.72299999 0.01014128 1.7571888e-38 333 232
0.017796334 0.72500002 0.010169334 1.7204913e-38 334 232
0.0190675 0.72500002 0.010169334 1.7389663e-38 335 232
0.020394772 0.727 0.010197386 1.6930855e-38 336 232
0.021669446 0.727 0.010197386 1.6930855e-38 337 232
0.022975679 0.72799999 0.010211413 1.6380569e-38 338 232
0.024318734 0.73000002 0.010239467 1.6380569e-38 339 232
0.025633732 0.73100001 0.010253493 1.601179e-38 340 232
0.026915418 0.73100001 0.010253493 1.5919594e-38 341 232
0.028274251 0.73299998 0.010281546 1.5550451e-38 342 232
0.029559445 0.73299998 0.010281546 1.5550451e-38 343 232
0.030844638 0.73299998 0.010281546 1.4724638e-38 344 232
0.032173667 0.73400003 0.010295574 1.4724638e-38 345 232
0.033460613 0.73400003 0.010295574 1.4541679e-38 346 232
0.034842238 0.736 0.010323626 1.2881798e-38 347 232
-0.051216617 0.74900001 0.0091927266 1.825548e-38 281 233
-0.04990337 0.74900001 0.0091927266 1.5569553e-38 282 233
-0.048460379 0.74699998 0.0091681797 1.4002587e-38 283 233
-0.047150634 0.74699998 0.0091681797 1.5833162e-38 284 233
-0.045840897 0.74699998 0.0091681797 1.3066934e-38 285 233
-0.044471547 0.74599999 0.0091559067 1.1958767e-38 286 233
-0.042932119 0.74199998 0.009106813 1.5093778e-38 287 233
-0.041575037 0.741 0.0090945391 1.6655695e-38 288 233
-0.04027582 0.741 0.0090945391 1.6563499e-38 289 233
-0.0388714 0.73900002 0.0090699932 1.6929755e-38 290 233
-0.037524838 0.73799998 0.0090577193 1.7114505e-38 291 233
-0.036034506 0.73400003 0.0090086265 1.6471304e-38 292 233
-0.03474756 0.73400003 0.0090086265 1.4442641e-38 293 233
-0.033460613 0.73400003 0.0090086265 5.5101298e-39 294 233
-0.032173667 0.73400003 0.0090086265 4.8672813e-39 295 233
-0.030844638 0.73299998 0.0089963535 8.8299011e-39 296 233
-0.029478792 0.73100001 0.0089718066 1.3255291e-38 297 233
-0.028197108 0.73100001 0.0089718066 1.7025566e-38 298 233
-0.026878599 0.73000002 0.0089595336 1.6288001e-38 299 233
-0.025598666 0.73000002 0.0089595336 1.7113067e-38 300 233
-0.024252106 0.72799999 0.0089349858 1.6929036e-38 301 233
-0.022975679 0.72799999 0.0089349858 1.7205253e-38 302 233
-0.021669446 0.727 0.0089227129 1.7758427e-38 303 233
-0.020338668 0.72500002 0.0088981669 1.582341e-38 304 233
-0.019014901 0.72299999 0.0088736191 1.3425964e-38 305 233
-0.017747238 0.72299999 0.0088736191 6.6128956e-39 306 233
-0.01647958 0.72299999 0.0088736191 5.877483e-39 307 233
-0.015190879 0.722 0.0088613462 1.9346859e-39 308 233
-0.013924973 0.722 0.0088613462 2.303467e-39 309 233
-0.012624 0.72000003 0.0088367993 7.7321912e-39 310 233
-0.011361601 0.72000003 0.0088367993 1.1880636e-38 311 233
-0.010099201 0.72000003 0.0088367993 1.6657507e-38 312 233
-0.0088367993 0.72000003 0.0088367993 1.6380918e-38 313 233
-0.0075743999 0.72000003 0.0088367993 1.7484008e-38 314 233
-0.0063120001 0.72000003 0.0088367993 1.7760593e-38 315 233
-0.0050496003 0.72000003 0.0088367993 1.8127931e-38 316 233
-0.0037872 0.72000003 0.0088367993 1.8127931e-38 317 233
-0.0025248001 0.72000003 0.0088367993 1.8219045e-38 318 233
-0.0012624001 0.72000003 0.0088367993 1.8035014e-38 319 233
0 0.72000003 0.0088367993 1.7942815e-38 320 233
0.0012624001 0.72000003 0.0088367993 1.785062e-38 321 233
0.0025248001 0.72000003 0.0088367993 1.7941019e-38 322 233
0.0037872 0.72000003 0.0088367993 1.7848823e-38 323 233
0.0050496003 0.72000003 0.0088367993 1.8031066e-38 324 233
0.0063120001 0.72000003 0.0088367993 1.7938871e-38 325 233
0.0075743999 0.72000003 0.0088367993 1.7938515e-38 326 233
0.0088613462 0.722 0.0088613462 1.7846319e-38 327 233
0.010127253 0.722 0.0088613462 1.7479695e-38 328 233
0.01139316 0.722 0.0088613462 1.757189e-38 329 233
0.012659066 0.722 0.0088613462 1.7387496e-38 330 233
0.01394426 0.72299999 0.0088736191 1.7387496e-38 331 233
0.015211919 0.72299999 0.0088736191 1.729602e-38 332 233
0.01647958 0.72299999 0.0088736191 1.7480411e-38 333 233
0.017747238 0.72299999 0.0088736191 1.7297467e-38 334 233
0.0190675 0.72500002 0.0088981669 1.7297467e-38 335 233
0.020394772 0.727 0.0089227129 1.6930855e-38 336 233
0.021669446 0.727 0.0089227129 1.6930855e-38 337 233
0.022975679 0.72799999 0.0089349858 1.6655712e-38 338 233
0.024252106 0.72799999 0.0089349858 1.6655712e-38 339 233
0.025598666 0.73000002 0.0089595336 1.6195452e-38 340 233
0.026915418 0.73100001 0.0089718066 1.6011061e-38 341 233
0.028274251 0.73299998 0.0089963535 1.5642997e-38 342 233
0.029559445 0.73299998 0.0089963535 1.5366771e-38 343 233
0.030844638 0.73299998 0.0089963535 1.4816821e-38 344 233
0.032173667 0.73400003 0.0090086265 1.4632429e-38 345 233
0.033460613 0.73400003 0.0090086265 1.435908e-38 346 233
0.034842238 0.736 0.0090331733 1.4174689e-38 347 233
0.036132693 0.736 0.0090331733 1.2421918e-38 348 233
0.037677377 0.741 0.0090945391 1.0578006e-38 349 233
-0.04990337 0.74900001 0.0078794798 1.529188e-38 282 234
-0.048590127 0.74900001 0.0078794798 1.446176e-38 283 234
-0.047150634 0.74699998 0.0078584393 1.6016472e-38 284 234
-0.045779534 0.74599999 0.0078479191 1.352755e-38 285 234
-0.044352323 0.74400002 0.0078268806 1.3248788e-38 286 234
-0.042932119 0.74199998 0.0078058392 1.5092701e-38 287 234
-0.041575037 0.741 0.0077953199 1.6286186e-38 288 234
-0.04027582 0.741 0.0077953199 1.6286186e-38 289 234
-0.0388714 0.73900002 0.0077742799 1.6837197e-38 290 234
-0.037575684 0.73900002 0.0077742799 1.7205619e-38 291 234
-0.036034506 0.73400003 0.0077216802 1.656242e-38 292 234
-0.03474756 0.73400003 0.0077216802 1.4718508e-38 293 234
-0.033460613 0.73400003 0.0077216802 5.7856363e-39 294 234
-0.032173667 0.73400003 0.0077216802 4.9591168e-39 295 234
-0.030844638 0.73299998 0.0077111595 8.0008635e-39 296 234
-0.029559445 0.73299998 0.0077111595 1.2610645e-38 297 234
-0.028197108 0.73100001 0.00769012 1.6748976e-38 298 234
-0.026878599 0.73000002 0.0076795998 1.6011411e-38 299 234
-0.025598666 0.73000002 0.0076795998 1.7111988e-38 300 234
-0.024252106 0.72799999 0.0076585598 1.7111988e-38 301 234
-0.022975679 0.72799999 0.0076585598 1.7111983e-38 302 234
-0.021669446 0.727 0.0076480396 1.7480764e-38 303 234
-0.020338668 0.72500002 0.0076270006 1.6008875e-38 304 234
-0.019014901 0.72299999 0.0076059597 1.3796179e-38 305 234
-0.017747238 0.72299999 0.0076059597 6.7958295e-39 306 234
-0.01647958 0.72299999 0.0076059597 5.9693073e-39 307 234
-0.015190879 0.722 0.0075954394 2.3023922e-39 308 234
-0.013924973 0.722 0.0075954394 2.3023922e-39 309 234
-0.012624 0.72000003 0.0075743999 4.6036634e-39 310 234
-0.011361601 0.72000003 0.0075743999 9.5825876e-39 311 234
-0.010099201 0.72000003 0.0075743999 1.6474929e-38 312 234
-0.0088367993 0.72000003 0.0075743999 1.6567126e-38 313 234
-0.0075743999 0.72000003 0.0075743999 1.8402024e-38 314 234
-0.0063032326 0.71899998 0.0075638802 1.8678251e-38 315 234
-0.0050425865 0.71899998 0.0075638802 1.8128301e-38 316 234
-0.0037819401 0.71899998 0.0075638802 1.7851714e-38 317 234
-0.0025212932 0.71899998 0.0075638802 1.8218695e-38 318 234
-0.0012624001 0.72000003 0.0075743999 1.7942468e-38 319 234
0 0.72000003 0.0075743999 1.8125059e-38 320 234
0.0012624001 0.72000003 0.0075743999 1.7940667e-38 321 234
0.0025248001 0.72000003 0.0075743999 1.7941019e-38 322 234
0.0037872 0.72000003 0.0075743999 1.7848823e-38 323 234
0.0050496003 0.72000003 0.0075743999 1.8030701e-38 324 234
0.0063120001 0.72000003 0.0075743999 1.7845951e-38 325 234
0.0075743999 0.72000003 0.0075743999 1.7845598e-38 326 234
0.0088613462 0.722 0.0075954394 1.7938152e-38 327 234
0.010127253 0.722 0.0075954394 1.7663007e-38 328 234
0.01139316 0.722 0.0075954394 1.7663007e-38 329 234
0.012659066 0.722 0.0075954394 1.7387496e-38 330 234
0.013924973 0.722 0.0075954394 1.7479692e-38 331 234
0.015190879 0.722 0.0075954394 1.729602e-38 332 234
0.01647958 0.72299999 0.0076059597 1.7388215e-38 333 234
0.017747238 0.72299999 0.0076059597 1.7296743e-38 334 234
0.0190675 0.72500002 0.0076270006 1.7389297e-38 335 234
0.020338668 0.72500002 0.0076270006 1.7114518e-38 336 234
0.021669446 0.727 0.0076480396 1.7114518e-38 337 234
0.022944121 0.727 0.0076480396 1.6655712e-38 338 234
0.024252106 0.72799999 0.0076585598 1.6655712e-38 339 234
0.025598666 0.73000002 0.0076795998 1.601179e-38 340 234
0.026915418 0.73100001 0.00769012 1.5827399e-38 341 234
0.028197108 0.73100001 0.00769012 1.5367855e-38 342 234
0.029559445 0.73299998 0.0077111595 1.5183824e-38 343 234
0.030844638 0.73299998 0.0077111595 1.5000146e-38 344 234
0.032173667 0.73400003 0.0077216802 1.4723919e-38 345 234
0.033551786 0.736 0.0077427197 1.4174336e-38 346 234
0.034842238 0.736 0.0077427197 1.4359086e-38 347 234
0.036279973 0.73900002 0.0077742799 1.4727512e-38 348 234
0.037677377 0.741 0.0077953199 1.2975795e-38 349 234
0.038976599 0.741 0.0077953199 7.454898e-39 350 234
-0.048460379 0.74699998 0.0065486995 1.4368844e-38 283 235
-0.047150634 0.74699998 0.0065486995 1.6107588e-38 284 235
-0.045779534 0.74599999 0.0065399334 1.3803058e-38 285 235
-0.044352323 0.74400002 0.0065223998 1.3066196e-38 286 235
-0.042932119 0.74199998 0.0065048663 1.4541326e-38 287 235
-0.041575037 0.741 0.0064960998 1.600889e-38 288 235
-0.04027582 0.741 0.0064960998 1.6101445e-38 289 235
-0.038976599 0.741 0.0064960998 1.6468783e-38 290 235
-0.037575684 0.73900002 0.0064785667 1.6560978e-38 291 235
-0.036132693 0.736 0.0064522666 1.6286554e-38 292 235
-0.034842238 0.736 0.0064522666 1.4995815e-38 293 235
-0.033460613 0.73400003 0.006434733 6.2448137e-39 294 235
-0.032173667 0.73400003 0.006434733 4.8672813e-39 295 235
-0.030844638 0.73299998 0.0064259665 6.9885095e-39 296 235
-0.029559445 0.73299998 0.0064259665 1.2059268e-38 297 235
-0.028197108 0.73100001 0.006408433 1.674826e-38 298 235
-0.026878599 0.73000002 0.0063996664 1.5918498e-38 299 235
-0.025598666 0.73000002 0.0063996664 1.6744646e-38 300 235
-0.024252106 0.72799999 0.0063821329 1.6744646e-38 301 235
-0.022975679 0.72799999 0.0063821329 1.7020858e-38 302 235
-0.021669446 0.727 0.0063733663 1.7020858e-38 303 235
-0.020338668 0.72500002 0.0063558333 1.637729e-38 304 235
-0.019014901 0.72299999 0.0063382997 1.4533378e-38 305 235
-0.017747238 0.72299999 0.0063382997 8.2652003e-39 306 235
-0.01647958 0.72299999 0.0063382997 6.4284847e-39 307 235
-0.015190879 0.722 0.0063295332 2.5779057e-39 308 235
-0.013924973 0.722 0.0063295332 2.3931557e-39 309 235
-0.012624 0.72000003 0.0063120001 2.6704503e-39 310 235
-0.011361601 0.72000003 0.0063120001 7.6490129e-39 311 235
-0.010099201 0.72000003 0.0063120001 1.5371108e-38 312 235
-0.0088367993 0.72000003 0.0063120001 1.5831727e-38 313 235
-0.0075743999 0.72000003 0.0063120001 1.794213e-38 314 235
-0.0063032326 0.71899998 0.0063032326 1.7849935e-38 315 235
-0.0050425865 0.71899998 0.0063032326 1.8034313e-38 316 235
-0.0037819401 0.71899998 0.0063032326 1.7942118e-38 317 235
-0.0025212932 0.71899998 0.0063032326 1.7849919e-38 318 235
-0.0012624001 0.72000003 0.0063120001 1.7757724e-38 319 235
0 0.71899998 0.0063032326 1.7757002e-38 320 235
0.0012606466 0.71899998 0.0063032326 1.7664805e-38 321 235
0.0025212932 0.71899998 0.0063032326 1.7847754e-38 322 235
0.0037872 0.72000003 0.0063120001 1.77552e-38 323 235
0.0050496003 0.72000003 0.0063120001 1.7938152e-38 324 235
0.0063120001 0.72000003 0.0063120001 1.7845598e-38 325 235
0.0075743999 0.72000003 0.0063120001 1.7662285e-38 326 235
0.0088367993 0.72000003 0.0063120001 1.7662285e-38 327 235
0.010099201 0.72000003 0.0063120001 1.7479692e-38 328 235
0.01139316 0.722 0.0063295332 1.7387496e-38 329 235
0.012659066 0.722 0.0063295332 1.729602e-38 330 235
0.013924973 0.722 0.0063295332 1.7388215e-38 331 235
0.015190879 0.722 0.0063295332 1.7387859e-38 332 235
0.01647958 0.72299999 0.0063382997 1.7387859e-38 333 235
0.017747238 0.72299999 0.0063382997 1.7205269e-38 334 235
0.0190675 0.72500002 0.0063558333 1.7297464e-38 335 235
0.020338668 0.72500002 0.0063558333 1.7205997e-38 336 235
0.021669446 0.727 0.0063733663 1.7113802e-38 337 235
0.022944121 0.727 0.0063733663 1.6654994e-38 338 235
0.024218792 0.727 0.0063733663 1.656244e-38 339 235
0.025528532 0.72799999 0.0063821329 1.619438e-38 340 235
0.026878599 0.73000002 0.0063996664 1.6102185e-38 341 235
0.028197108 0.73100001 0.006408433 1.5550805e-38 342 235
0.029559445 0.73299998 0.0064259665 1.5366773e-38 343 235
