# .PCD v.7 - Point Cloud Data file format
FIELDS x y z rgb imX imY
SIZE 4 4 4 4 4 4
TYPE F F F F F F
COUNT 1 1 1 1 1 1
WIDTH 841
HEIGHT 1
VIEWPOINT 0 0 0 1 0 0 0
POINTS 841
DATA ascii
0.013640933 0.778 -0.0013640933 4.6230994e-39 330 241
0.0150436 0.77999997 -0.0013675999 1.1076794e-38 331 241
0.016432239 0.78100002 -0.0013693533 1.586235e-38 332 241
0.017801592 0.78100002 -0.0013693533 1.60471e-38 333 241
0.019269135 0.78500003 -0.0013763667 1.3839091e-38 334 241
0.020645501 0.78500003 -0.0013763667 1.3101525e-38 335 241
-0.035466425 0.778 -0.0027281865 1.8442015e-38 294 242
-0.034102332 0.778 -0.0027281865 1.8903354e-38 295 242
-0.032654081 0.77600002 -0.0027211732 1.8256552e-38 296 242
-0.031293493 0.77600002 -0.0027211732 1.6597031e-38 297 242
-0.029932907 0.77600002 -0.0027211732 1.5683006e-38 298 242
-0.028498679 0.77399999 -0.0027141599 1.7619114e-38 299 242
-0.027141599 0.77399999 -0.0027141599 1.7801004e-38 300 242
-0.025751207 0.773 -0.0027106532 1.7524416e-38 301 242
-0.024395877 0.773 -0.0027106532 1.7340379e-38 302 242
-0.023040552 0.773 -0.0027106532 1.7063792e-38 303 242
-0.021685226 0.773 -0.0027106532 1.5773767e-38 304 242
-0.0203299 0.773 -0.0027106532 1.3930213e-38 305 242
-0.018925481 0.77100003 -0.0027036399 1.4024223e-38 306 242
-0.01757366 0.77100003 -0.0027036399 1.5407158e-38 307 242
-0.016179759 0.76899999 -0.0026966266 1.5959981e-38 308 242
-0.014831445 0.76899999 -0.0026966266 1.6144372e-38 309 242
-0.013483133 0.76899999 -0.0026966266 1.5959978e-38 310 242
-0.012134819 0.76899999 -0.0026966266 1.5867783e-38 311 242
-0.010758453 0.76700002 -0.0026896133 1.5683751e-38 312 242
-0.0094136465 0.76700002 -0.0026896133 1.5959978e-38 313 242
-0.00806884 0.76700002 -0.0026896133 1.5407526e-38 314 242
-0.0067415666 0.76899999 -0.0026966266 1.3932756e-38 315 242
-0.0053932532 0.76899999 -0.0026966266 1.4671395e-38 316 242
-0.0040449398 0.76899999 -0.0026966266 1.5685186e-38 317 242
-0.0026966266 0.76899999 -0.0026966266 1.6420584e-38 318 242
-0.00135182 0.77100003 -0.0027036399 1.6605335e-38 319 242
0 0.77100003 -0.0027036399 1.6880474e-38 320 242
0.00135182 0.77100003 -0.0027036399 1.6696082e-38 321 242
0.0027036399 0.77100003 -0.0027036399 1.632441e-38 322 242
0.0040554604 0.77100003 -0.0027036399 1.5586845e-38 323 242
0.0054213065 0.773 -0.0027106532 1.4115675e-38 324 242
0.0067766332 0.773 -0.0027106532 1.485324e-38 325 242
0.0081319595 0.773 -0.0027106532 1.6508801e-38 326 242
0.0094872871 0.773 -0.0027106532 1.567904e-38 327 242
0.010842613 0.773 -0.0027106532 1.3279803e-38 328 242
0.012197939 0.773 -0.0027106532 8.5778257e-39 329 242
0.013640933 0.778 -0.0027281865 7.9421631e-39 330 242
0.015005025 0.778 -0.0027281865 1.181438e-38 331 242
0.016411198 0.77999997 -0.0027351999 1.5403174e-38 332 242
0.017801592 0.78100002 -0.0027387065 1.5495728e-38 333 242
0.019170946 0.78100002 -0.0027387065 1.3747261e-38 334 242
-0.038194612 0.778 -0.0040922803 1.8442739e-38 292 243
-0.036830518 0.778 -0.0040922803 1.7705173e-38 293 243
-0.035466425 0.778 -0.0040922803 1.8075038e-38 294 243
-0.034014668 0.77600002 -0.0040817601 1.8627853e-38 295 243
-0.032654081 0.77600002 -0.0040817601 1.917923e-38 296 243
-0.031293493 0.77600002 -0.0040817601 1.751971e-38 297 243
-0.029932907 0.77600002 -0.0040817601 1.5315309e-38 298 243
-0.028498679 0.77399999 -0.0040712398 1.7159222e-38 299 243
-0.027106533 0.773 -0.0040659797 1.7433663e-38 300 243
-0.025751207 0.773 -0.0040659797 1.688049e-38 301 243
-0.024395877 0.773 -0.0040659797 1.6880124e-38 302 243
-0.023040552 0.773 -0.0040659797 1.7156351e-38 303 243
-0.021685226 0.773 -0.0040659797 1.7248186e-38 304 243
-0.0203299 0.773 -0.0040659797 1.6049643e-38 305 243
-0.018974574 0.773 -0.0040659797 1.310299e-38 306 243
-0.01757366 0.77100003 -0.0040554604 1.411714e-38 307 243
-0.016179759 0.76899999 -0.0040449398 1.5959625e-38 308 243
-0.014831445 0.76899999 -0.0040449398 1.5959625e-38 309 243
-0.013483133 0.76899999 -0.0040449398 1.5499723e-38 310 243
-0.012134819 0.76899999 -0.0040449398 1.5591919e-38 311 243
-0.010786506 0.76899999 -0.0040449398 1.6142574e-38 312 243
-0.0094381925 0.76899999 -0.0040449398 1.6326966e-38 313 243
-0.0080898795 0.76899999 -0.0040449398 1.476359e-38 314 243
-0.0067415666 0.76899999 -0.0040449398 1.2919678e-38 315 243
-0.0053932532 0.76899999 -0.0040449398 1.4668874e-38 316 243
-0.0040449398 0.76899999 -0.0040449398 1.5959612e-38 317 243
-0.0026966266 0.76899999 -0.0040449398 1.5869215e-38 318 243
-0.00135182 0.77100003 -0.0040554604 1.596141e-38 319 243
0 0.77100003 -0.0040554604 1.6512413e-38 320 243
0.00135182 0.77100003 -0.0040554604 1.5682653e-38 321 243
0.0027036399 0.77100003 -0.0040554604 1.4113159e-38 322 243
0.0040554604 0.77100003 -0.0040554604 1.4113159e-38 323 243
0.0054213065 0.773 -0.0040659797 1.5222031e-38 324 243
0.0067766332 0.773 -0.0040659797 1.6328019e-38 325 243
0.0081319595 0.773 -0.0040659797 1.7248537e-38 326 243
0.0094872871 0.773 -0.0040659797 1.7709156e-38 327 243
0.010842613 0.773 -0.0040659797 1.7797745e-38 328 243
0.012197939 0.773 -0.0040659797 1.6230059e-38 329 243
0.013570799 0.77399999 -0.0040712398 1.3654331e-38 330 243
0.015005025 0.778 -0.0040922803 1.3285547e-38 331 243
0.016411198 0.77999997 -0.0041027996 1.4943639e-38 332 243
0.017801592 0.78100002 -0.0041080597 1.5035836e-38 333 243
0.019170946 0.78100002 -0.0041080597 1.383946e-38 334 243
0.020540299 0.78100002 -0.0041080597 1.402421e-38 335 243
-0.039457016 0.77600002 -0.0054423464 1.9547285e-38 291 244
-0.038096428 0.77600002 -0.0054423464 1.8441662e-38 292 244
-0.036830518 0.778 -0.0054563731 1.7888489e-38 293 244
-0.035466425 0.778 -0.0054563731 1.7982489e-38 294 244
-0.034014668 0.77600002 -0.0054423464 1.8443108e-38 295 244
-0.032654081 0.77600002 -0.0054423464 1.8537105e-38 296 244
-0.031293493 0.77600002 -0.0054423464 1.8075768e-38 297 244
-0.029855758 0.77399999 -0.0054283198 1.6971241e-38 298 244
-0.028498679 0.77399999 -0.0054283198 1.7155632e-38 299 244
-0.027106533 0.773 -0.0054213065 1.632984e-38 300 244
-0.025751207 0.773 -0.0054213065 1.5961057e-38 301 244
-0.024395877 0.773 -0.0054213065 1.6512067e-38 302 244
-0.023040552 0.773 -0.0054213065 1.6512067e-38 303 244
-0.021685226 0.773 -0.0054213065 1.6696098e-38 304 244
-0.0203299 0.773 -0.0054213065 1.6327316e-38 305 244
-0.018974574 0.773 -0.0054213065 1.2827126e-38 306 244
-0.017619247 0.773 -0.0054213065 1.3103711e-38 307 244
-0.016179759 0.76899999 -0.0053932532 1.55912e-38 308 244
-0.014831445 0.76899999 -0.0053932532 1.6052177e-38 309 244
-0.013483133 0.76899999 -0.0053932532 1.5683749e-38 310 244
-0.012134819 0.76899999 -0.0053932532 1.586778e-38 311 244
-0.010786506 0.76899999 -0.0053932532 1.6233322e-38 312 244
-0.0094381925 0.76899999 -0.0053932532 1.5495756e-38 313 244
-0.0080898795 0.76899999 -0.0053932532 1.3108025e-38 314 244
-0.0067415666 0.76899999 -0.0053932532 1.2739602e-38 315 244
-0.0053932532 0.76899999 -0.0053932532 1.5771628e-38 316 244
-0.0040449398 0.76899999 -0.0053932532 1.6601029e-38 317 244
-0.0027036399 0.77100003 -0.0054072798 1.5960328e-38 318 244
-0.00135182 0.77100003 -0.0054072798 1.5684102e-38 319 244
0 0.77100003 -0.0054072798 1.4579545e-38 320 244
0.00135182 0.77100003 -0.0054072798 1.4395154e-38 321 244
0.0027036399 0.77100003 -0.0054072798 1.5403189e-38 322 244
0.0040554604 0.77100003 -0.0054072798 1.6233308e-38 323 244
0.0054213065 0.773 -0.0054213065 1.6971591e-38 324 244
0.0067766332 0.773 -0.0054213065 1.6971591e-38 325 244
0.0081319595 0.773 -0.0054213065 1.6695366e-38 326 244
0.0094872871 0.773 -0.0054213065 1.6971594e-38 327 244
0.010842613 0.773 -0.0054213065 1.7154539e-38 328 244
0.012197939 0.773 -0.0054213065 1.6601366e-38 329 244
0.013570799 0.77399999 -0.0054283198 1.4850722e-38 330 244
0.014966453 0.77600002 -0.0054423464 1.383693e-38 331 244
0.016411198 0.77999997 -0.0054703997 1.4299353e-38 332 244
0.017778799 0.77999997 -0.0054703997 1.4759971e-38 333 244
0.0191464 0.77999997 -0.0054703997 1.4115327e-38 334 244
0.020513998 0.77999997 -0.0054703997 1.448411e-38 335 244
-0.039457016 0.77600002 -0.0068029333 1.9639121e-38 291 245
-0.038096428 0.77600002 -0.0068029333 1.7982489e-38 292 245
-0.036830518 0.778 -0.0068204664 1.733712e-38 293 245
-0.035466425 0.778 -0.0068204664 1.7522244e-38 294 245
-0.034014668 0.77600002 -0.0068029333 1.7799189e-38 295 245
-0.032654081 0.77600002 -0.0068029333 1.7434014e-38 296 245
-0.031212838 0.77399999 -0.0067853997 1.7157786e-38 297 245
-0.029855758 0.77399999 -0.0067853997 1.6696827e-38 298 245
-0.028498679 0.77399999 -0.0067853997 1.6512436e-38 299 245
-0.027106533 0.773 -0.0067766332 1.5593722e-38 300 245
-0.025751207 0.773 -0.0067766332 1.5501168e-38 301 245
-0.024395877 0.773 -0.0067766332 1.5684836e-38 302 245
-0.023040552 0.773 -0.0067766332 1.5684836e-38 303 245
-0.021685226 0.773 -0.0067766332 1.5959975e-38 304 245
-0.0203299 0.773 -0.0067766332 1.5959975e-38 305 245
-0.018974574 0.773 -0.0067766332 1.411714e-38 306 245
-0.017619247 0.773 -0.0067766332 1.310299e-38 307 245
-0.016221842 0.77100003 -0.0067590997 1.4759987e-38 308 245
-0.01487002 0.77100003 -0.0067590997 1.5497911e-38 309 245
-0.013483133 0.76899999 -0.0067415666 1.58638e-38 310 245
-0.012134819 0.76899999 -0.0067415666 1.5126235e-38 311 245
-0.010786506 0.76899999 -0.0067415666 1.4202848e-38 312 245
-0.0094381925 0.76899999 -0.0067415666 1.2174544e-38 313 245
-0.0080898795 0.76899999 -0.0067415666 6.9463892e-39 314 245
-0.0067415666 0.76899999 -0.0067415666 1.1002997e-38 315 245
-0.0053932532 0.76899999 -0.0067415666 1.6417369e-38 316 245
-0.0040449398 0.76899999 -0.0067415666 1.6232619e-38 317 245
-0.0026966266 0.76899999 -0.0067415666 1.5591906e-38 318 245
-0.00135182 0.77100003 -0.0067590997 1.5591906e-38 319 245
0 0.76899999 -0.0067415666 1.4118571e-38 320 245
0.0013483133 0.76899999 -0.0067415666 1.3934178e-38 321 245
0.0027036399 0.77100003 -0.0067590997 1.6328391e-38 322 245
0.0040554604 0.77100003 -0.0067590997 1.7158153e-38 323 245
0.0054213065 0.773 -0.0067766332 1.7340732e-38 324 245
0.0067766332 0.773 -0.0067766332 1.6971591e-38 325 245
0.0081319595 0.773 -0.0067766332 1.6971224e-38 326 245
0.0094872871 0.773 -0.0067766332 1.6694637e-38 327 245
0.010842613 0.773 -0.0067766332 1.6418054e-38 328 245
0.012197939 0.773 -0.0067766332 1.6233662e-38 329 245
0.013570799 0.77399999 -0.0067853997 1.4944366e-38 330 245
0.014966453 0.77600002 -0.0068029333 1.3837658e-38 331 245
0.016369121 0.778 -0.0068204664 1.4022052e-38 332 245
0.017778799 0.77999997 -0.0068379994 1.4667422e-38 333 245
0.0191464 0.77999997 -0.0068379994 1.4298997e-38 334 245
-0.039457016 0.77600002 -0.0081635201 1.9547288e-38 291 246
-0.038096428 0.77600002 -0.0081635201 1.7982855e-38 292 246
-0.036830518 0.778 -0.0081845606 1.724529e-38 293 246
-0.035466425 0.778 -0.0081845606 1.6603536e-38 294 246
-0.034014668 0.77600002 -0.0081635201 1.6695731e-38 295 246
-0.032654081 0.77600002 -0.0081635201 1.5961057e-38 296 246
-0.031212838 0.77399999 -0.0081424797 1.568447e-38 297 246
-0.029855758 0.77399999 -0.0081424797 1.4857603e-38 298 246
-0.028498679 0.77399999 -0.0081424797 1.4949799e-38 299 246
-0.027106533 0.773 -0.0081319595 1.513239e-38 300 246
-0.025751207 0.773 -0.0081319595 1.513239e-38 301 246
-0.024395877 0.773 -0.0081319595 1.5500805e-38 302 246
-0.023040552 0.773 -0.0081319595 1.5500805e-38 303 246
-0.021685226 0.773 -0.0081319595 1.5684836e-38 304 246
-0.0203299 0.773 -0.0081319595 1.5684836e-38 305 246
-0.018974574 0.773 -0.0081319595 1.5958906e-38 306 246
-0.017619247 0.773 -0.0081319595 1.208669e-38 307 246
-0.016221842 0.77100003 -0.0081109209 2.0065613e-40 308 246
-0.01487002 0.77100003 -0.0081109209 1.3022267e-41 309 246
-0.013483133 0.76899999 -0.0080898795 1.2922578e-39 310 246
-0.012134819 0.76899999 -0.0080898795 1.5190075e-42 311 246
-0.010786506 0.76899999 -0.0080898795 7.6090507e-43 312 246
-0.0094381925 0.76899999 -0.0080898795 3.7835059e-44 313 246
-0.0080898795 0.76899999 -0.0080898795 1.5086295e-39 314 246
-0.0067415666 0.76899999 -0.0080898795 1.0543443e-38 315 246
-0.0053932532 0.76899999 -0.0080898795 1.6235139e-38 316 246
-0.0040449398 0.76899999 -0.0080898795 1.5958912e-38 317 246
-0.0026966266 0.76899999 -0.0080898795 1.5684105e-38 318 246
-0.00135182 0.77100003 -0.0081109209 1.5868136e-38 319 246
0 0.76899999 -0.0080898795 1.5683374e-38 320 246
0.0013483133 0.76899999 -0.0080898795 1.5406789e-38 321 246
0.0027036399 0.77100003 -0.0081109209 1.5594423e-38 322 246
0.0040554604 0.77100003 -0.0081109209 1.6055401e-38 323 246
0.0054072798 0.77100003 -0.0081109209 1.6881562e-38 324 246
0.0067766332 0.773 -0.0081319595 1.6881562e-38 325 246
0.0081319595 0.773 -0.0081319595 1.7248534e-38 326 246
0.0094872871 0.773 -0.0081319595 1.669536e-38 327 246
0.010842613 0.773 -0.0081319595 1.5958517e-38 328 246
0.01221372 0.77399999 -0.0081424797 1.549754e-38 329 246
0.013570799 0.77399999 -0.0081424797 1.4945807e-38 330 246
0.014966453 0.77600002 -0.0081635201 1.4116406e-38 331 246
0.016369121 0.778 -0.0081845606 1.3377406e-38 332 246
0.017733213 0.778 -0.0081845606 1.3838743e-38 333 246
0.0191464 0.77999997 -0.0082055992 1.448411e-38 334 246
-0.039457016 0.77600002 -0.009524107 1.9639487e-38 291 247
-0.038096428 0.77600002 -0.009524107 1.7063073e-38 292 247
-0.036830518 0.778 -0.0095486529 1.6232952e-38 293 247
-0.035466425 0.778 -0.0095486529 1.5408253e-38 294 247
-0.034014668 0.77600002 -0.009524107 1.5316058e-38 295 247
-0.032654081 0.77600002 -0.009524107 1.4765406e-38 296 247
-0.031293493 0.77600002 -0.009524107 1.4672852e-38 297 247
-0.029855758 0.77399999 -0.0094995592 1.4305517e-38 298 247
-0.028498679 0.77399999 -0.0094995592 1.4397713e-38 299 247
-0.027106533 0.773 -0.0094872871 1.4489189e-38 300 247
-0.025751207 0.773 -0.0094872871 1.4489189e-38 301 247
-0.024395877 0.773 -0.0094872871 1.4489186e-38 302 247
-0.023040552 0.773 -0.0094872871 1.4765773e-38 303 247
-0.021685226 0.773 -0.0094872871 1.5040918e-38 304 247
-0.0203299 0.773 -0.0094872871 1.5317505e-38 305 247
-0.018974574 0.773 -0.0094872871 1.5408619e-38 306 247
-0.017619247 0.773 -0.0094872871 1.0798838e-38 307 247
-0.016221842 0.77100003 -0.0094627403 2.5223372e-44 308 247
-0.01487002 0.77100003 -0.0094627403 1.821688e-44 309 247
-0.013518199 0.77100003 -0.0094627403 0 310 247
-0.01216638 0.77100003 -0.0094627403 0 311 247
-0.01081456 0.77100003 -0.0094627403 1.4012985e-45 312 247
-0.0094627403 0.77100003 -0.0094627403 0 313 247
-0.0080898795 0.76899999 -0.0094381925 2.8383721e-40 314 247
-0.0067415666 0.76899999 -0.0094381925 1.1900487e-38 315 247
-0.0053932532 0.76899999 -0.0094381925 1.4856167e-38 316 247
-0.0040449398 0.76899999 -0.0094381925 1.5501536e-38 317 247
-0.0027036399 0.77100003 -0.0094627403 1.5592275e-38 318 247
-0.00135182 0.77100003 -0.0094627403 1.549972e-38 319 247
0 0.77100003 -0.0094627403 1.5500073e-38 320 247
0.00135182 0.77100003 -0.0094627403 1.5592269e-38 321 247
0.0027036399 0.77100003 -0.0094627403 1.5133093e-38 322 247
0.0040554604 0.77100003 -0.0094627403 1.5409678e-38 323 247
0.0054072798 0.77100003 -0.0094627403 1.5962133e-38 324 247
0.0067766332 0.773 -0.0094872871 1.6330556e-38 325 247
0.0081319595 0.773 -0.0094872871 1.7156351e-38 326 247
0.0094872871 0.773 -0.0094872871 1.6418786e-38 327 247
0.010842613 0.773 -0.0094872871 1.5774851e-38 328 247
0.01221372 0.77399999 -0.0094995592 1.5129482e-38 329 247
0.013570799 0.77399999 -0.0094995592 1.4669946e-38 330 247
0.014966453 0.77600002 -0.009524107 1.4301164e-38 331 247
0.016369121 0.778 -0.0095486529 1.3286292e-38 332 247
0.017733213 0.778 -0.0095486529 1.3101541e-38 333 247
0.0191464 0.77999997 -0.0095731998 1.4299718e-38 334 247
-0.039457016 0.77600002 -0.010884693 1.9639484e-38 291 248
-0.038096428 0.77600002 -0.010884693 1.641842e-38 292 248
-0.036830518 0.778 -0.010912746 1.4482312e-38 293 248
-0.035466425 0.778 -0.010912746 1.3566862e-38 294 248
-0.034014668 0.77600002 -0.010884693 1.3659057e-38 295 248
-0.032654081 0.77600002 -0.010884693 1.3384284e-38 296 248
-0.031293493 0.77600002 -0.010884693 1.3384284e-38 297 248
-0.029855758 0.77399999 -0.01085664 1.3476845e-38 298 248
-0.028498679 0.77399999 -0.01085664 1.3661596e-38 299 248
-0.027106533 0.773 -0.010842613 1.4398082e-38 300 248
-0.025751207 0.773 -0.010842613 1.4674665e-38 301 248
-0.024395877 0.773 -0.010842613 1.4674306e-38 302 248
-0.023040552 0.773 -0.010842613 1.4582112e-38 303 248
-0.021685226 0.773 -0.010842613 1.4581753e-38 304 248
-0.0203299 0.773 -0.010842613 1.4581753e-38 305 248
-0.018974574 0.773 -0.010842613 1.3843817e-38 306 248
-0.017619247 0.773 -0.010842613 8.8652531e-39 307 248
-0.016221842 0.77100003 -0.01081456 4.1758694e-43 308 248
-0.01487002 0.77100003 -0.01081456 9.8736891e-41 309 248
-0.013518199 0.77100003 -0.01081456 3.0468096e-39 310 248
-0.01216638 0.77100003 -0.01081456 3.1390067e-39 311 248
-0.01081456 0.77100003 -0.01081456 2.8627715e-39 312 248
-0.0094627403 0.77100003 -0.01081456 5.5788214e-40 313 248
-0.0081109209 0.77100003 -0.01081456 4.7461979e-42 314 248
-0.0067415666 0.76899999 -0.010786506 6.1868939e-39 315 248
-0.0053932532 0.76899999 -0.010786506 1.0992236e-38 316 248
-0.0040449398 0.76899999 -0.010786506 1.4219075e-38 317 248
-0.0027036399 0.77100003 -0.01081456 1.5867429e-38 318 248
-0.00135182 0.77100003 -0.01081456 1.5959625e-38 319 248
0 0.77100003 -0.01081456 1.5592272e-38 320 248
0.0013483133 0.76899999 -0.010786506 1.5500076e-38 321 248
0.0026966266 0.76899999 -0.010786506 1.5407523e-38 322 248
0.0040449398 0.76899999 -0.010786506 1.5223492e-38 323 248
0.0054072798 0.77100003 -0.01081456 1.4856873e-38 324 248
0.0067590997 0.77100003 -0.01081456 1.5225657e-38 325 248
0.0081109209 0.77100003 -0.01081456 1.5959975e-38 326 248
0.0094872871 0.773 -0.010842613 1.5591553e-38 327 248
0.010842613 0.773 -0.010842613 1.5131644e-38 328 248
0.01221372 0.77399999 -0.01085664 1.4486633e-38 329 248
0.013570799 0.77399999 -0.01085664 1.4484477e-38 330 248
0.014966453 0.77600002 -0.010884693 1.4484477e-38 331 248
0.016369121 0.778 -0.010912746 1.3102621e-38 332 248
0.017778799 0.77999997 -0.010940799 1.2826033e-38 333 248
0.0191464 0.77999997 -0.010940799 1.4022408e-38 334 248
-0.039558705 0.778 -0.012276839 1.9730961e-38 291 249
-0.038194612 0.778 -0.012276839 1.7430051e-38 292 249
-0.036830518 0.778 -0.012276839 1.4940769e-38 293 249
-0.035466425 0.778 -0.012276839 1.2093532e-38 294 249
-0.034014668 0.77600002 -0.01224528 1.3015128e-38 295 249
-0.032654081 0.77600002 -0.01224528 1.3291732e-38 296 249
-0.031293493 0.77600002 -0.01224528 1.3291732e-38 297 249
-0.029855758 0.77399999 -0.01221372 1.3291738e-38 298 249
-0.028498679 0.77399999 -0.01221372 1.3383933e-38 299 249
-0.027106533 0.773 -0.012197939 1.4121859e-38 300 249
-0.025751207 0.773 -0.012197939 1.4306247e-38 301 249
-0.024395877 0.773 -0.012197939 1.4584265e-38 302 249
-0.023040552 0.773 -0.012197939 1.4676459e-38 303 249
-0.021685226 0.773 -0.012197939 1.4859412e-38 304 249
-0.0203299 0.773 -0.012197939 1.4767218e-38 305 249
-0.018974574 0.773 -0.012197939 1.2277936e-38 306 249
-0.017619247 0.773 -0.012197939 7.4837634e-39 307 249
-0.016221842 0.77100003 -0.01216638 5.1007264e-42 308 249
-0.01487002 0.77100003 -0.01216638 1.0377736e-40 309 249
-0.013518199 0.77100003 -0.01216638 2.2228139e-39 310 249
-0.01216638 0.77100003 -0.01216638 2.2228139e-39 311 249
-0.01081456 0.77100003 -0.01216638 2.2210118e-39 312 249
-0.0094627403 0.77100003 -0.01216638 8.3807738e-40 313 249
-0.0081109209 0.77100003 -0.01216638 4.3860642e-42 314 249
-0.0067415666 0.76899999 -0.012134819 1.2083313e-39 315 249
-0.0053932532 0.76899999 -0.012134819 7.2161588e-39 316 249
-0.0040449398 0.76899999 -0.012134819 1.3024483e-38 317 249
-0.0027036399 0.77100003 -0.01216638 1.5867785e-38 318 249
-0.00135182 0.77100003 -0.01216638 1.55912e-38 319 249
0 0.77100003 -0.01216638 1.5314965e-38 320 249
0.0013483133 0.76899999 -0.012134819 1.4946184e-38 321 249
0.0026966266 0.76899999 -0.012134819 1.4761435e-38 322 249
0.0040449398 0.76899999 -0.012134819 1.4393013e-38 323 249
0.0054072798 0.77100003 -0.01216638 1.4116434e-38 324 249
0.0067590997 0.77100003 -0.01216638 1.4116434e-38 325 249
0.0081109209 0.77100003 -0.01216638 1.3845242e-38 326 249
0.0094872871 0.773 -0.012197939 1.4398416e-38 327 249
0.010842613 0.773 -0.012197939 1.476359e-38 328 249
0.01221372 0.77399999 -0.01221372 1.4118221e-38 329 249
0.013570799 0.77399999 -0.01221372 1.420897e-38 330 249
0.014966453 0.77600002 -0.01224528 1.4116416e-38 331 249
0.01632704 0.77600002 -0.01224528 1.1722206e-38 332 249
0.017778799 0.77999997 -0.012308398 1.1169033e-38 333 249
0.0191464 0.77999997 -0.012308398 1.2273212e-38 334 249
-0.038292799 0.77999997 -0.013675999 1.8258365e-38 292 250
-0.036830518 0.778 -0.013640933 1.650665e-38 293 250
-0.035466425 0.778 -0.013640933 1.1814787e-38 294 250
-0.034102332 0.778 -0.013640933 1.2276126e-38 295 250
-0.032654081 0.77600002 -0.013605867 1.3383931e-38 296 250
-0.031293493 0.77600002 -0.013605867 1.3476126e-38 297 250
-0.029932907 0.77600002 -0.013605867 1.3383931e-38 298 250
-0.028572321 0.77600002 -0.013605867 1.3015508e-38 299 250
-0.027141599 0.77399999 -0.013570799 1.2832206e-38 300 250
-0.025751207 0.773 -0.013553266 1.2924401e-38 301 250
-0.024395877 0.773 -0.013553266 1.3387533e-38 302 250
-0.023040552 0.773 -0.013553266 1.4309834e-38 303 250
-0.021685226 0.773 -0.013553266 1.568916e-38 304 250
-0.0203299 0.773 -0.013553266 1.5873908e-38 305 250
-0.018974574 0.773 -0.013553266 1.1450346e-38 306 250
-0.017619247 0.773 -0.013553266 6.1026408e-39 307 250
-0.016263919 0.773 -0.013553266 1.231321e-41 308 250
-0.01487002 0.77100003 -0.013518199 1.6273279e-41 309 250
-0.013518199 0.77100003 -0.013518199 1.3984664e-39 310 250
-0.01216638 0.77100003 -0.013518199 1.5824976e-39 311 250
-0.01081456 0.77100003 -0.013518199 2.2224608e-39 312 250
-0.0094627403 0.77100003 -0.013518199 1.2083074e-39 313 250
-0.0081319595 0.773 -0.013553266 5.7901653e-42 314 250
-0.0067415666 0.76899999 -0.013483133 1.8272932e-42 315 250
-0.0053932532 0.76899999 -0.013483133 6.0031808e-39 316 250
-0.0040449398 0.76899999 -0.013483133 1.4300788e-38 317 250
-0.0027036399 0.77100003 -0.013518199 1.4484477e-38 318 250
-0.00135182 0.77100003 -0.013518199 1.3931662e-38 319 250
0 0.77100003 -0.013518199 1.3563968e-38 320 250
0.00135182 0.77100003 -0.013518199 1.2826402e-38 321 250
0.0026966266 0.76899999 -0.013483133 1.2182475e-38 322 250
0.0040449398 0.76899999 -0.013483133 1.209028e-38 323 250
0.0054072798 0.77100003 -0.013518199 1.2457989e-38 324 250
0.0067590997 0.77100003 -0.013518199 1.2273958e-38 325 250
0.0081109209 0.77100003 -0.013518199 1.2003848e-38 326 250
0.0094627403 0.77100003 -0.013518199 1.384776e-38 327 250
0.010842613 0.773 -0.013553266 1.467176e-38 328 250
0.01221372 0.77399999 -0.013570799 1.3934195e-38 329 250
0.013570799 0.77399999 -0.013570799 1.420897e-38 330 250
0.014966453 0.77600002 -0.013605867 1.402422e-38 331 250
0.01632704 0.77600002 -0.013605867 1.0525102e-38 332 250
0.017778799 0.77999997 -0.013675999 9.4187548e-39 333 250
0.0191464 0.77999997 -0.013675999 1.0982838e-38 334 250
-0.036925197 0.77999997 -0.0150436 1.7797026e-38 293 251
-0.035557598 0.77999997 -0.0150436 1.4115352e-38 294 251
-0.034102332 0.778 -0.015005025 1.310084e-38 295 251
-0.032654081 0.77600002 -0.014966453 1.2186459e-38 296 251
-0.031293493 0.77600002 -0.014966453 1.3016221e-38 297 251
-0.029932907 0.77600002 -0.014966453 1.375199e-38 298 251
-0.028572321 0.77600002 -0.014966453 1.3659794e-38 299 251
-0.027141599 0.77399999 -0.014927879 1.3199183e-38 300 251
-0.025784519 0.77399999 -0.014927879 1.2922955e-38 301 251
-0.02442744 0.77399999 -0.014927879 1.2924404e-38 302 251
-0.023040552 0.773 -0.014908593 1.3477575e-38 303 251
-0.021685226 0.773 -0.014908593 1.4216564e-38 304 251
-0.0203299 0.773 -0.014908593 1.4400952e-38 305 251
-0.018974574 0.773 -0.014908593 8.689882e-39 306 251
-0.017619247 0.773 -0.014908593 2.9741131e-39 307 251
-0.016263919 0.773 -0.014908593 1.9883024e-41 308 251
-0.014908593 0.773 -0.014908593 3.9370742e-40 309 251
-0.013518199 0.77100003 -0.01487002 2.1403643e-39 310 251
-0.01216638 0.77100003 -0.01487002 1.5871905e-39 311 251
-0.01081456 0.77100003 -0.01487002 2.2260761e-39 312 251
-0.0094627403 0.77100003 -0.01487002 4.7399901e-40 313 251
-0.0081319595 0.773 -0.014908593 7.6174585e-42 314 251
-0.0067590997 0.77100003 -0.01487002 6.897191e-42 315 251
-0.0054072798 0.77100003 -0.01487002 6.8308129e-39 316 251
-0.0040554604 0.77100003 -0.01487002 1.4299018e-38 317 251
-0.0027036399 0.77100003 -0.01487002 1.4024226e-38 318 251
-0.00135182 0.77100003 -0.01487002 1.3563248e-38 319 251
0 0.77100003 -0.01487002 1.3473217e-38 320 251
0.00135182 0.77100003 -0.01487002 1.3288826e-38 321 251
0.0027036399 0.77100003 -0.01487002 1.3198428e-38 322 251
0.0040554604 0.77100003 -0.01487002 1.3290624e-38 323 251
0.0054072798 0.77100003 -0.01487002 1.365833e-38 324 251
0.0067590997 0.77100003 -0.01487002 1.3566134e-38 325 251
0.0081109209 0.77100003 -0.01487002 1.3383188e-38 326 251
0.0094627403 0.77100003 -0.01487002 1.4489896e-38 327 251
0.010842613 0.773 -0.014908593 1.4488095e-38 328 251
0.01221372 0.77399999 -0.014927879 1.3658333e-38 329 251
0.013570799 0.77399999 -0.014927879 1.4117138e-38 330 251
0.014966453 0.77600002 -0.014966453 1.3933106e-38 331 251
0.01632704 0.77600002 -0.014966453 9.8815308e-39 332 251
0.017778799 0.77999997 -0.0150436 8.6829876e-39 333 251
0.0191464 0.77999997 -0.0150436 1.13509e-38 334 251
-0.034102332 0.778 -0.016369121 1.3285583e-38 295 252
-0.032654081 0.77600002 -0.01632704 9.7915282e-39 296 252
-0.031293493 0.77600002 -0.01632704 1.0897876e-38 297 252
-0.029932907 0.77600002 -0.01632704 1.3565805e-38 298 252
-0.028572321 0.77600002 -0.01632704 1.4211174e-38 299 252
-0.027141599 0.77399999 -0.016284959 1.4027499e-38 300 252
-0.025784519 0.77399999 -0.016284959 1.3843467e-38 301 252
-0.02442744 0.77399999 -0.016284959 1.3566527e-38 302 252
-0.02307036 0.77399999 -0.016284959 1.3105549e-38 303 252
-0.021713279 0.77399999 -0.016284959 1.2373374e-38 304 252
-0.020356199 0.77399999 -0.016284959 1.2096789e-38 305 252
-0.018999118 0.77399999 -0.016284959 9.2401691e-39 306 252
-0.01764204 0.77399999 -0.016284959 3.8928225e-39 307 252
-0.016284959 0.77399999 -0.016284959 8.5792537e-40 308 252
-0.014908593 0.773 -0.016263919 1.5954918e-39 309 252
-0.013553266 0.773 -0.016263919 2.5120419e-39 310 252
-0.01216638 0.77100003 -0.016221842 1.7741181e-39 311 252
-0.01081456 0.77100003 -0.016221842 2.4196221e-41 312 252
-0.0094627403 0.77100003 -0.016221842 1.4832744e-41 313 252
-0.0081109209 0.77100003 -0.016221842 9.4685737e-42 314 252
-0.0067590997 0.77100003 -0.016221842 2.5045127e-39 315 252
-0.0054072798 0.77100003 -0.016221842 8.3175093e-39 316 252
-0.0040554604 0.77100003 -0.016221842 1.3019474e-38 317 252
-0.0027036399 0.77100003 -0.016221842 1.4671057e-38 318 252
-0.00135182 0.77100003 -0.016221842 1.4394829e-38 319 252
0 0.77100003 -0.016221842 1.4487739e-38 320 252
0.00135182 0.77100003 -0.016221842 1.4580293e-38 321 252
0.0027036399 0.77100003 -0.016221842 1.4580291e-38 322 252
0.0040554604 0.77100003 -0.016221842 1.4580291e-38 323 252
0.0054072798 0.77100003 -0.016221842 1.4671407e-38 324 252
0.0067590997 0.77100003 -0.016221842 1.4395179e-38 325 252
0.0081109209 0.77100003 -0.016221842 1.3935287e-38 326 252
0.0094872871 0.773 -0.016263919 1.4672852e-38 327 252
0.01085664 0.77399999 -0.016284959 1.4120754e-38 328 252
0.01221372 0.77399999 -0.016284959 1.3383188e-38 329 252
0.013605867 0.77600002 -0.01632704 1.411714e-38 330 252
0.014966453 0.77600002 -0.01632704 1.3933109e-38 331 252
0.016369121 0.778 -0.016369121 9.1436126e-39 332 252
0.017778799 0.77999997 -0.016411198 7.3922558e-39 333 252
-0.031374145 0.778 -0.017733213 2.4149978e-41 297 253
-0.029932907 0.77600002 -0.017687626 2.787184e-39 298 253
-0.028572321 0.77600002 -0.017687626 7.3047699e-39 299 253
-0.027141599 0.77399999 -0.01764204 1.0528746e-38 300 253
-0.025784519 0.77399999 -0.01764204 1.2280104e-38 301 253
-0.02442744 0.77399999 -0.01764204 1.2735324e-38 302 253
-0.02307036 0.77399999 -0.01764204 1.1905563e-38 303 253
-0.021713279 0.77399999 -0.01764204 9.97809e-39 304 253
-0.020356199 0.77399999 -0.01764204 1.0899688e-38 305 253
-0.018999118 0.77399999 -0.01764204 1.3382839e-38 306 253
-0.01764204 0.77399999 -0.01764204 1.2460883e-38 307 253
-0.016284959 0.77399999 -0.01764204 1.1167253e-38 308 253
-0.014927879 0.77399999 -0.01764204 9.2311447e-39 309 253
-0.013553266 0.773 -0.017619247 5.1828159e-39 310 253
-0.012197939 0.773 -0.017619247 1.5875464e-39 311 253
-0.010842613 0.773 -0.017619247 2.8147882e-41 312 253
-0.0094627403 0.77100003 -0.01757366 3.0308684e-41 313 253
-0.0081109209 0.77100003 -0.01757366 7.2140358e-39 314 253
-0.0067590997 0.77100003 -0.01757366 1.3206732e-38 315 253
-0.0054072798 0.77100003 -0.01757366 1.5506566e-38 316 253
-0.0040554604 0.77100003 -0.01757366 1.5045594e-38 317 253
-0.0027036399 0.77100003 -0.01757366 1.4214767e-38 318 253
-0.00135182 0.77100003 -0.01757366 1.3938539e-38 319 253
0 0.77100003 -0.01757366 1.4488463e-38 320 253
0.00135182 0.77100003 -0.01757366 1.4211878e-38 321 253
0.0027036399 0.77100003 -0.01757366 1.4028204e-38 322 253
0.0040554604 0.77100003 -0.01757366 1.3844173e-38 323 253
0.0054213065 0.773 -0.017619247 1.4026766e-38 324 253
0.0067766332 0.773 -0.017619247 1.4026766e-38 325 253
0.0081319595 0.773 -0.017619247 1.4026764e-38 326 253
0.0094872871 0.773 -0.017619247 1.4395546e-38 327 253
0.01085664 0.77399999 -0.01764204 1.4303346e-38 328 253
0.01224528 0.77600002 -0.017687626 1.384237e-38 329 253
0.013640933 0.778 -0.017733213 1.4116784e-38 330 253
0.015005025 0.778 -0.017733213 1.3471415e-38 331 253
0.016369121 0.778 -0.017733213 7.7606782e-39 332 253
0.017778799 0.77999997 -0.017778799 7.1153088e-39 333 253
-0.031454798 0.77999997 -0.0191464 1.0367927e-40 297 254
-0.030087199 0.77999997 -0.0191464 8.2998908e-42 298 254
-0.028572321 0.77600002 -0.019048214 3.2376679e-39 299 254
-0.027141599 0.77399999 -0.018999118 7.1081635e-39 300 254
-0.025784519 0.77399999 -0.018999118 8.3067067e-39 301 254
-0.02442744 0.77399999 -0.018999118 8.7809832e-39 302 254
-0.02307036 0.77399999 -0.018999118 1.0440863e-38 303 254
-0.021713279 0.77399999 -0.018999118 1.2183945e-38 304 254
-0.020356199 0.77399999 -0.018999118 1.2552728e-38 305 254
-0.018999118 0.77399999 -0.018999118 1.3475407e-38 306 254
-0.01764204 0.77399999 -0.018999118 1.3751993e-38 307 254
-0.016284959 0.77399999 -0.018999118 1.3840576e-38 308 254
-0.014927879 0.77399999 -0.018999118 1.2642034e-38 309 254
-0.013570799 0.77399999 -0.018999118 1.1164719e-38 310 254
-0.012197939 0.773 -0.018974574 6.2779923e-39 311 254
-0.010842613 0.773 -0.018974574 1.2069804e-40 312 254
-0.0094872871 0.773 -0.018974574 4.3613369e-39 313 254
-0.0081319595 0.773 -0.018974574 1.2092488e-38 314 254
-0.0067766332 0.773 -0.018974574 1.6610027e-38 315 254
-0.0054072798 0.77100003 -0.018925481 1.6339542e-38 316 254
-0.0040554604 0.77100003 -0.018925481 1.5509794e-38 317 254
-0.0027106532 0.773 -0.018974574 1.4126881e-38 318 254
-0.0013553266 0.773 -0.018974574 1.3388965e-38 319 254
0 0.773 -0.018974574 1.384454e-38 320 254
0.0013553266 0.773 -0.018974574 1.4028931e-38 321 254
0.0027106532 0.773 -0.018974574 1.4119681e-38 322 254
0.0040659797 0.773 -0.018974574 1.393529e-38 323 254
0.0054213065 0.773 -0.018974574 1.3842741e-38 324 254
0.0067766332 0.773 -0.018974574 1.3566514e-38 325 254
0.0081319595 0.773 -0.018974574 1.3474316e-38 326 254
0.0094872871 0.773 -0.018974574 1.3566511e-38 327 254
0.01085664 0.77399999 -0.018999118 1.3565428e-38 328 254
0.01224528 0.77600002 -0.019048214 1.310481e-38 329 254
0.013640933 0.778 -0.019097306 1.291969e-38 330 254
0.015005025 0.778 -0.019097306 1.1997734e-38 331 254
0.016369121 0.778 -0.019097306 7.2089407e-39 332 254
0.017778799 0.77999997 -0.0191464 7.3929718e-39 333 254
-0.028645959 0.778 -0.020461399 3.2297155e-39 299 255
-0.027281865 0.778 -0.020461399 2.9485408e-39 300 255
-0.025851147 0.77600002 -0.0204088 1.3812165e-39 301 255
-0.024490559 0.77600002 -0.0204088 3.7145452e-39 302 255
-0.023129974 0.77600002 -0.0204088 1.0813609e-38 303 255
-0.021769386 0.77600002 -0.0204088 1.4485239e-38 304 255
-0.0204088 0.77600002 -0.0204088 1.4024262e-38 305 255
-0.018999118 0.77399999 -0.020356199 1.2923311e-38 306 255
-0.01764204 0.77399999 -0.020356199 1.2923311e-38 307 255
-0.016284959 0.77399999 -0.020356199 1.3566877e-38 308 255
-0.014927879 0.77399999 -0.020356199 1.4027855e-38 309 255
-0.013570799 0.77399999 -0.020356199 1.5494334e-38 310 255
-0.01221372 0.77399999 -0.020356199 1.2451879e-38 311 255
-0.01085664 0.77399999 -0.020356199 7.9558748e-39 312 255
-0.0094872871 0.773 -0.0203299 1.0998331e-38 313 255
-0.0081319595 0.773 -0.0203299 1.4027152e-38 314 255
-0.0067766332 0.773 -0.0203299 1.4949095e-38 315 255
-0.0054213065 0.773 -0.0203299 1.4955194e-38 316 255
-0.0040659797 0.773 -0.0203299 1.5416165e-38 317 255
-0.0027106532 0.773 -0.0203299 1.560163e-38 318 255
-0.0013553266 0.773 -0.0203299 1.4863717e-38 319 255
0 0.773 -0.0203299 1.3294256e-38 320 255
0.0013553266 0.773 -0.0203299 1.3386451e-38 321 255
0.0027106532 0.773 -0.0203299 1.4027855e-38 322 255
0.0040659797 0.773 -0.0203299 1.3751268e-38 323 255
0.0054213065 0.773 -0.0203299 1.3749826e-38 324 255
0.0067766332 0.773 -0.0203299 1.3657631e-38 325 255
0.0081319595 0.773 -0.0203299 1.3382113e-38 326 255
0.0094995592 0.77399999 -0.020356199 1.2921495e-38 327 255
0.01085664 0.77399999 -0.020356199 1.1723668e-38 328 255
0.01224528 0.77600002 -0.0204088 1.0893907e-38 329 255
0.013640933 0.778 -0.020461399 1.1630023e-38 330 255
0.015005025 0.778 -0.020461399 1.107685e-38 331 255
0.016369121 0.778 -0.020461399 7.575917e-39 332 255
0.017778799 0.77999997 -0.020513998 7.852864e-39 333 255
-0.027281865 0.778 -0.021825492 3.322658e-39 300 256
-0.025917772 0.778 -0.021825492 2.8950826e-42 301 256
-0.024553679 0.778 -0.021825492 3.1473121e-39 302 256
-0.023189586 0.778 -0.021825492 1.2274321e-38 303 256
-0.021825492 0.778 -0.021825492 1.3934939e-38 304 256
-0.0204088 0.77600002 -0.021769386 1.3842744e-38 305 256
-0.019048214 0.77600002 -0.021769386 1.2923673e-38 306 256
-0.017687626 0.77600002 -0.021769386 1.2923673e-38 307 256
-0.01632704 0.77600002 -0.021769386 1.3108423e-38 308 256
-0.014927879 0.77399999 -0.021713279 1.3476845e-38 309 256
-0.013570799 0.77399999 -0.021713279 1.4486319e-38 310 256
-0.01221372 0.77399999 -0.021713279 1.2273623e-38 311 256
-0.01085664 0.77399999 -0.021713279 1.1080116e-38 312 256
-0.0094995592 0.77399999 -0.021713279 1.329317e-38 313 256
-0.0081319595 0.773 -0.021685226 1.3475057e-38 314 256
-0.0067766332 0.773 -0.021685226 1.3382861e-38 315 256
-0.0054213065 0.773 -0.021685226 1.3112744e-38 316 256
-0.0040659797 0.773 -0.021685226 1.4034687e-38 317 256
-0.0027106532 0.773 -0.021685226 1.5876419e-38 318 256
-0.0013553266 0.773 -0.021685226 1.5691672e-38 319 256
0 0.773 -0.021685226 1.2743599e-38 320 256
0.0013553266 0.773 -0.021685226 1.2559568e-38 321 256
0.0027106532 0.773 -0.021685226 1.3476482e-38 322 256
0.0040659797 0.773 -0.021685226 1.3384286e-38 323 256
0.0054213065 0.773 -0.021685226 1.3566511e-38 324 256
0.0067766332 0.773 -0.021685226 1.3474316e-38 325 256
0.0081319595 0.773 -0.021685226 1.3657977e-38 326 256
0.0094995592 0.77399999 -0.021713279 1.3197359e-38 327 256
0.01085664 0.77399999 -0.021713279 1.2737453e-38 328 256
0.01224528 0.77600002 -0.021769386 1.2829648e-38 329 256
0.013605867 0.77600002 -0.021769386 1.3654717e-38 330 256
0.014966453 0.77600002 -0.021769386 1.2456174e-38 331 256
0.016369121 0.778 -0.021825492 9.0452835e-39 332 256
0.017733213 0.778 -0.021825492 9.0452835e-39 333 256
-0.026017714 0.78100002 -0.023279008 5.6291981e-40 301 257
-0.024648361 0.78100002 -0.023279008 2.1385468e-39 302 257
-0.023249198 0.77999997 -0.023249198 9.6063914e-39 303 257
-0.021881599 0.77999997 -0.023249198 1.2831097e-38 304 257
-0.020461399 0.778 -0.023189586 1.3660498e-38 305 257
-0.019097306 0.778 -0.023189586 1.2923673e-38 306 257
-0.017687626 0.77600002 -0.023129974 1.2923673e-38 307 257
-0.01632704 0.77600002 -0.023129974 1.2648163e-38 308 257
-0.014927879 0.77399999 -0.02307036 1.292511e-38 309 257
-0.013570799 0.77399999 -0.02307036 1.3567233e-38 310 257
-0.01221372 0.77399999 -0.02307036 1.2091744e-38 311 257
-0.01085664 0.77399999 -0.02307036 1.2459088e-38 312 257
-0.0094995592 0.77399999 -0.02307036 1.3934218e-38 313 257
-0.0081424797 0.77399999 -0.02307036 1.3199186e-38 314 257
-0.0067853997 0.77399999 -0.02307036 1.2922958e-38 315 257
-0.0054283198 0.77399999 -0.02307036 1.1820943e-38 316 257
-0.0040712398 0.77399999 -0.02307036 1.1913139e-38 317 257
-0.0027106532 0.773 -0.023040552 1.3757028e-38 318 257
-0.0013553266 0.773 -0.023040552 1.4770805e-38 319 257
0 0.773 -0.023040552 1.2742527e-38 320 257
0.0013553266 0.773 -0.023040552 1.2650331e-38 321 257
0.0027106532 0.773 -0.023040552 1.3200971e-38 322 257
0.0040659797 0.773 -0.023040552 1.3108776e-38 323 257
0.0054283198 0.77399999 -0.02307036 1.3475032e-38 324 257
0.0067853997 0.77399999 -0.02307036 1.3382836e-38 325 257
0.0081424797 0.77399999 -0.02307036 1.3474667e-38 326 257
0.0094995592 0.77399999 -0.02307036 1.3474667e-38 327 257
0.01085664 0.77399999 -0.02307036 1.4027117e-38 328 257
0.01224528 0.77600002 -0.023129974 1.4488095e-38 329 257
0.013605867 0.77600002 -0.023129974 1.4483409e-38 330 257
0.014966453 0.77600002 -0.023129974 1.3008279e-38 331 257
0.01632704 0.77600002 -0.023129974 9.6888648e-39 332 257
-0.026217593 0.787 -0.024837719 9.3222305e-39 301 258
-0.024837719 0.787 -0.024837719 9.0496261e-39 302 258
-0.023279008 0.78100002 -0.024648361 1.126232e-38 303 258
-0.021881599 0.77999997 -0.024616797 1.3565428e-38 304 258
-0.020513998 0.77999997 -0.024616797 1.4210798e-38 305 258
-0.019097306 0.778 -0.024553679 1.2923673e-38 306 258
-0.017687626 0.77600002 -0.024490559 1.3016227e-38 307 258
-0.01632704 0.77600002 -0.024490559 1.3200971e-38 308 258
-0.014927879 0.77399999 -0.02442744 1.3293167e-38 309 258
-0.013570799 0.77399999 -0.02442744 1.411788e-38 310 258
-0.01221372 0.77399999 -0.02442744 1.2274326e-38 311 258
-0.01085664 0.77399999 -0.02442744 1.2274692e-38 312 258
-0.0094995592 0.77399999 -0.02442744 1.42108e-38 313 258
-0.0081424797 0.77399999 -0.02442744 1.3291738e-38 314 258
-0.0067853997 0.77399999 -0.02442744 1.3199183e-38 315 258
-0.0054283198 0.77399999 -0.02442744 1.2923678e-38 316 258
-0.0040712398 0.77399999 -0.02442744 1.2923678e-38 317 258
-0.0027141599 0.77399999 -0.02442744 1.3200634e-38 318 258
-0.0013570799 0.77399999 -0.02442744 1.3938188e-38 319 258
0 0.77399999 -0.02442744 1.3292464e-38 320 258
0.0013570799 0.77399999 -0.02442744 1.3200268e-38 321 258
0.0027141599 0.77399999 -0.02442744 1.3200615e-38 322 258
0.0040712398 0.77399999 -0.02442744 1.3200615e-38 323 258
0.0054283198 0.77399999 -0.02442744 1.3291722e-38 324 258
0.0067853997 0.77399999 -0.02442744 1.3291722e-38 325 258
0.0081424797 0.77399999 -0.02442744 1.365798e-38 326 258
0.0094995592 0.77399999 -0.02442744 1.365798e-38 327 258
0.010884693 0.77600002 -0.024490559 1.393564e-38 328 258
0.01224528 0.77600002 -0.024490559 1.4212587e-38 329 258
0.013605867 0.77600002 -0.024490559 1.2644179e-38 330 258
0.014966453 0.77600002 -0.024490559 1.070843e-38 331 258
-0.026284218 0.78899997 -0.026284218 1.3928434e-38 301 259
-0.024900839 0.78899997 -0.026284218 1.3746952e-38 302 259
-0.023457846 0.787 -0.026217593 1.3654757e-38 303 259
-0.022021867 0.78500003 -0.026150968 1.4209375e-38 304 259
-0.020540299 0.78100002 -0.026017714 1.4301571e-38 305 259
-0.0191464 0.77999997 -0.025984399 1.3659078e-38 306 259
-0.017733213 0.778 -0.025917772 1.384347e-38 307 259
-0.01632704 0.77600002 -0.025851147 1.4210079e-38 308 259
-0.014927879 0.77399999 -0.025784519 1.4117883e-38 309 259
-0.013570799 0.77399999 -0.025784519 1.4666706e-38 310 259
-0.01221372 0.77399999 -0.025784519 1.3006826e-38 311 259
-0.01085664 0.77399999 -0.025784519 1.0343601e-38 312 259
-0.0094995592 0.77399999 -0.025784519 1.2925078e-38 313 259
-0.0081424797 0.77399999 -0.025784519 1.4027152e-38 314 259
-0.0067853997 0.77399999 -0.025784519 1.3750924e-38 315 259
-0.0054283198 0.77399999 -0.025784519 1.347541e-38 316 259
-0.0040712398 0.77399999 -0.025784519 1.3659441e-38 317 259
-0.0027141599 0.77399999 -0.025784519 1.3383933e-38 318 259
-0.0013570799 0.77399999 -0.025784519 1.3383933e-38 319 259
0 0.77399999 -0.025784519 1.3200621e-38 320 259
0.0013570799 0.77399999 -0.025784519 1.3200621e-38 321 259
0.0027141599 0.77399999 -0.025784519 1.3291732e-38 322 259
0.0040712398 0.77399999 -0.025784519 1.3291732e-38 323 259
0.0054423464 0.77600002 -0.025851147 1.3291722e-38 324 259
0.0068029333 0.77600002 -0.025851147 1.3199168e-38 325 259
0.0081635201 0.77600002 -0.025851147 1.3382832e-38 326 259
0.009524107 0.77600002 -0.025851147 1.3475388e-38 327 259
0.010884693 0.77600002 -0.025851147 1.4211153e-38 328 259
0.012276839 0.778 -0.025917772 1.4303349e-38 329 259
0.013640933 0.778 -0.025917772 1.0895705e-38 330 259
-0.026650665 0.80000001 -0.028053332 1.097817e-38 301 260
-0.024932399 0.79000002 -0.027702667 1.1441689e-38 302 260
-0.023517458 0.78899997 -0.027667599 1.2364005e-38 303 260
-0.022134079 0.78899997 -0.027667599 1.3196653e-38 304 260
-0.020540299 0.78100002 -0.027387068 1.3934218e-38 305 260
-0.0191464 0.77999997 -0.027351998 1.4394829e-38 306 260
-0.017733213 0.778 -0.027281865 1.1536405e-38 307 260
-0.01632704 0.77600002 -0.027211733 5.0841336e-39 308 260
-0.014927879 0.77399999 -0.027141599 2.502656e-39 309 260
-0.013570799 0.77399999 -0.027141599 2.5836861e-39 310 260
-0.01224528 0.77600002 -0.027211733 4.6242849e-44 311 260
-0.010884693 0.77600002 -0.027211733 2.4885659e-41 312 260
-0.009524107 0.77600002 -0.027211733 5.6545812e-39 313 260
-0.0081635201 0.77600002 -0.027211733 1.1817699e-38 314 260
-0.0067853997 0.77399999 -0.027141599 1.3477575e-38 315 260
-0.0054283198 0.77399999 -0.027141599 1.3659444e-38 316 260
-0.0040817601 0.77600002 -0.027211733 1.3475413e-38 317 260
-0.0027211732 0.77600002 -0.027211733 1.3383931e-38 318 260
-0.0013605866 0.77600002 -0.027211733 1.3383931e-38 319 260
0 0.77399999 -0.027141599 1.3200618e-38 320 260
0.0013570799 0.77399999 -0.027141599 1.3108423e-38 321 260
0.0027211732 0.77600002 -0.027211733 1.3291732e-38 322 260
0.0040817601 0.77600002 -0.027211733 1.3199536e-38 323 260
0.0054423464 0.77600002 -0.027211733 1.3382486e-38 324 260
0.0068029333 0.77600002 -0.027211733 1.3382486e-38 325 260
0.0081635201 0.77600002 -0.027211733 1.3474667e-38 326 260
0.009524107 0.77600002 -0.027211733 1.3935287e-38 327 260
0.010884693 0.77600002 -0.027211733 1.4302983e-38 328 260
0.012276839 0.778 -0.027281865 1.310444e-38 329 260
0.013640933 0.778 -0.027281865 9.5124049e-39 330 260
-0.028123464 0.80199999 -0.029529637 1.1713922e-38 300 261
-0.026650665 0.80000001 -0.029456001 1.0976357e-38 301 261
-0.02512176 0.796 -0.029308718 1.0149493e-38 302 261
-0.023726106 0.796 -0.029308718 1.0702306e-38 303 261
-0.022330454 0.796 -0.029308718 1.0524049e-38 304 261
-0.0211189 0.80299997 -0.029566457 1.1999179e-38 305 261
-0.019710973 0.80299997 -0.029566457 1.347357e-38 306 261
-0.018303044 0.80299997 -0.029566457 1.1076484e-38 307 261
-0.016895119 0.80299997 -0.029566457 5.7182955e-39 308 261
-0.015005025 0.778 -0.028645959 4.6314456e-40 309 261
-0.013640933 0.778 -0.028645959 0 310 261
-0.012276839 0.778 -0.028645959 1.0761972e-42 311 261
-0.010884693 0.77600002 -0.028572321 5.0951212e-42 312 261
-0.009524107 0.77600002 -0.028572321 3.4188544e-39 313 261
-0.0081635201 0.77600002 -0.028572321 5.7446637e-39 314 261
-0.0068029333 0.77600002 -0.028572321 9.9856627e-39 315 261
-0.0054423464 0.77600002 -0.028572321 1.3383227e-38 316 261
-0.0040817601 0.77600002 -0.028572321 1.3383227e-38 317 261
-0.0027211732 0.77600002 -0.028572321 1.320134e-38 318 261
-0.0013605866 0.77600002 -0.028572321 1.3108786e-38 319 261
0 0.77600002 -0.028572321 1.3383931e-38 320 261
0.0013605866 0.77600002 -0.028572321 1.3383931e-38 321 261
0.0027211732 0.77600002 -0.028572321 1.3291013e-38 322 261
0.0040817601 0.77600002 -0.028572321 1.3291013e-38 323 261
0.0054423464 0.77600002 -0.028572321 1.3015858e-38 324 261
0.0068029333 0.77600002 -0.028572321 1.3015858e-38 325 261
0.0081635201 0.77600002 -0.028572321 1.3566864e-38 326 261
0.009524107 0.77600002 -0.028572321 1.4212234e-38 327 261
0.010884693 0.77600002 -0.028572321 1.384057e-38 328 261
0.012276839 0.778 -0.028645959 1.1259093e-38 329 261
0.013640933 0.778 -0.028645959 9.1407456e-39 330 261
-0.026717292 0.80199999 -0.030935811 1.2357123e-38 301 262
-0.025248 0.80000001 -0.030858666 1.1161114e-38 302 262
-0.023845334 0.80000001 -0.030858666 1.0055126e-38 303 262
-0.022498772 0.80199999 -0.030935811 7.3911992e-39 304 262
-0.0211189 0.80299997 -0.030974386 7.5755905e-39 305 262
-0.019710973 0.80299997 -0.030974386 9.972674e-39 306 262
-0.018303044 0.80299997 -0.030974386 1.0802793e-38 307 262
-0.016895119 0.80299997 -0.030974386 9.9632643e-39 308 262
-0.015487193 0.80299997 -0.030974386 5.4456784e-39 309 262
-0.014079265 0.80299997 -0.030974386 2.4961133e-39 310 262
-0.012671339 0.80299997 -0.030974386 2.4039163e-39 311 262
-0.010912746 0.778 -0.03001005 2.5847525e-39 312 262
-0.0095486529 0.778 -0.03001005 3.7241749e-40 313 262
-0.0081845606 0.778 -0.03001005 2.8859742e-41 314 262
-0.0068204664 0.778 -0.03001005 5.0092244e-39 315 262
-0.0054563731 0.778 -0.03001005 1.0806775e-38 316 262
-0.0040922803 0.778 -0.03001005 1.2650328e-38 317 262
-0.0027281865 0.778 -0.03001005 1.3292817e-38 318 262
-0.0013640933 0.778 -0.03001005 1.3108067e-38 319 262
0 0.77600002 -0.029932907 1.3383931e-38 320 262
0.0013605866 0.77600002 -0.029932907 1.3383931e-38 321 262
0.0027281865 0.778 -0.03001005 1.3199539e-38 322 262
0.0040922803 0.778 -0.03001005 1.3199539e-38 323 262
0.0054423464 0.77600002 -0.029932907 1.3015503e-38 324 262
0.0068029333 0.77600002 -0.029932907 1.3199892e-38 325 262
0.0081635201 0.77600002 -0.029932907 1.411788e-38 326 262
0.009524107 0.77600002 -0.029932907 1.3657261e-38 327 262
0.010884693 0.77600002 -0.029932907 1.1721506e-38 328 262
0.012276839 0.778 -0.03001005 8.9552781e-39 329 262
-0.02531112 0.80199999 -0.032341983 1.1806839e-38 302 263
-0.023904946 0.80199999 -0.032341983 1.116147e-38 303 263
-0.022498772 0.80199999 -0.032341983 9.5055652e-39 304 263
-0.0095731998 0.77999997 -0.031454798 3.7600481e-40 313 263
-0.0082055992 0.77999997 -0.031454798 8.6978596e-42 314 263
-0.0068379994 0.77999997 -0.031454798 2.5966565e-39 315 263
-0.0054563731 0.778 -0.031374145 6.4843713e-39 316 263
-0.0040922803 0.778 -0.031374145 1.0264751e-38 317 263
-0.0027281865 0.778 -0.031374145 1.3015155e-38 318 263
-0.0013640933 0.778 -0.031374145 1.2738208e-38 319 263
0 0.778 -0.031374145 1.2554896e-38 320 263
0.0013640933 0.778 -0.031374145 1.2554896e-38 321 263
0.0027281865 0.778 -0.031374145 1.255382e-38 322 263
0.0040922803 0.778 -0.031374145 1.255382e-38 323 263
0.0054563731 0.778 -0.031374145 1.1819482e-38 324 263
0.0068204664 0.778 -0.031374145 1.2187905e-38 325 263
0.0081635201 0.77600002 -0.031293493 1.3288122e-38 326 263
0.009524107 0.77600002 -0.031293493 1.144421e-38 327 263
0.010884693 0.77600002 -0.031293493 1.0339287e-38 328 263
-0.0082055992 0.77999997 -0.032822397 1.55404e-41 314 264
-0.0068379994 0.77999997 -0.032822397 9.4325884e-40 315 264
-0.0054703997 0.77999997 -0.032822397 6.0215967e-39 316 264
-0.0041027996 0.77999997 -0.032822397 1.017076e-38 317 264
-0.0027351999 0.77999997 -0.032822397 1.2737842e-38 318 264
-0.0013675999 0.77999997 -0.032822397 1.2461254e-38 319 264
0 0.77999997 -0.032822397 1.2828962e-38 320 264
0.0013675999 0.77999997 -0.032822397 1.2828962e-38 321 264
0.0027351999 0.77999997 -0.032822397 1.2368702e-38 322 264
0.0040922803 0.778 -0.032738242 1.2460898e-38 323 264
0.0054563731 0.778 -0.032738242 1.2369053e-38 324 264
0.0068204664 0.778 -0.032738242 1.200063e-38 325 264
0.0081845606 0.778 -0.032738242 1.1722226e-38 326 264
0.0095486529 0.778 -0.032738242 9.3251396e-39 327 264
-0.0068379994 0.77999997 -0.034189999 8.3221364e-39 315 265
-0.0054703997 0.77999997 -0.034189999 1.3104457e-38 316 265
