# .PCD v.7 - Point Cloud Data file format
FIELDS x y z rgb imX imY
SIZE 4 4 4 4 4 4
TYPE F F F F F F
COUNT 1 1 1 1 1 1
WIDTH 848
HEIGHT 1
VIEWPOINT 0 0 0 1 0 0 0
POINTS 848
DATA ascii
0.0050285598 0.71700001 -0.054057021 1.3607857e-38 324 283
0.0062857 0.71700001 -0.054057021 1.4069195e-38 325 283
0.0075428397 0.71700001 -0.054057021 1.4252144e-38 326 283
0.0087877065 0.71600002 -0.053981625 1.4067394e-38 327 283
0.010043093 0.71600002 -0.053981625 1.4801365e-38 328 283
0.011266919 0.71399999 -0.053830836 1.4801365e-38 329 283
0.012501267 0.713 -0.053755447 1.4892845e-38 330 283
0.013693533 0.70999998 -0.053529263 1.498504e-38 331 283
0.014938398 0.70999998 -0.053529263 1.5077957e-38 332 283
0.01613768 0.708 -0.053378478 1.5170154e-38 333 283
0.017379038 0.708 -0.053378478 1.0939248e-38 334 283
0.018594101 0.70700002 -0.053303085 9.1875307e-39 335 283
0.019833706 0.70700002 -0.053303085 6.4385727e-39 336 283
0.021073313 0.70700002 -0.053303085 9.2044416e-39 337 283
0.022312919 0.70700002 -0.053303085 1.5176987e-38 338 283
0.023552528 0.70700002 -0.053303085 1.3886248e-38 339 283
0.024792133 0.70700002 -0.053303085 1.4708083e-38 340 283
0.02603174 0.70700002 -0.053303085 1.4431138e-38 341 283
0.027271347 0.70700002 -0.053303085 1.4155993e-38 342 283
0.028510952 0.70700002 -0.053303085 1.4155993e-38 343 283
0.029750559 0.70700002 -0.053303085 1.3697538e-38 344 283
0.031034 0.708 -0.053378478 1.388193e-38 345 283
0.03227536 0.708 -0.053378478 1.3331645e-38 346 283
0.033516716 0.708 -0.053378478 1.3423841e-38 347 283
0.034758076 0.708 -0.053378478 1.30565e-38 348 283
0.036101133 0.70999998 -0.053529263 1.3148697e-38 349 283
0.037345998 0.70999998 -0.053529263 1.2597677e-38 350 283
0.038590867 0.70999998 -0.053529263 1.2044504e-38 351 283
0.039835732 0.70999998 -0.053529263 1.158173e-38 352 283
0.041080594 0.70999998 -0.053529263 1.0567578e-38 353 283
0.042385083 0.71100003 -0.053604662 7.9072218e-39 354 283
0.043815799 0.71399999 -0.053830836 9.84333e-39 355 283
0.045067675 0.71399999 -0.053830836 1.222567e-38 356 283
0.046449307 0.71600002 -0.053981625 1.2133475e-38 357 283
0.047704693 0.71600002 -0.053981625 1.2133469e-38 358 283
0.04902846 0.71700001 -0.054057021 1.2133469e-38 359 283
0.050425861 0.71899998 -0.054207806 1.2133822e-38 360 283
0.05168651 0.71899998 -0.054207806 1.2133822e-38 361 283
0.053020801 0.72000003 -0.054283202 1.2042706e-38 362 283
0.054283202 0.72000003 -0.054283202 1.2134901e-38 363 283
0.055699892 0.722 -0.054433983 1.2137775e-38 364 283
0.056965802 0.722 -0.054433983 1.2137775e-38 365 283
0.058231708 0.722 -0.054433983 1.2232154e-38 366 283
0.059497613 0.722 -0.054433983 1.5551197e-38 367 283
-0.006434733 0.73400003 -0.056625653 1.2814116e-38 315 284
-0.0051477868 0.73400003 -0.056625653 1.4077116e-38 316 284
-0.00384506 0.73100001 -0.056394216 1.3063325e-38 317 284
-0.0025598668 0.73000002 -0.056317069 1.4257902e-38 318 284
-0.0012764266 0.72799999 -0.056162767 1.4165346e-38 319 284
0 0.72799999 -0.056162767 1.379729e-38 320 284
0.0012711667 0.72500002 -0.055931333 1.3428867e-38 321 284
0.0025248001 0.72000003 -0.055545598 1.0760952e-38 322 284
0.0037819401 0.71899998 -0.055468451 1.1037538e-38 323 284
0.0050285598 0.71700001 -0.055314157 1.3334148e-38 324 284
0.0062857 0.71700001 -0.055314157 1.3334148e-38 325 284
0.0075428397 0.71700001 -0.055314157 1.4159949e-38 326 284
0.0087877065 0.71600002 -0.055237014 1.4067394e-38 327 284
0.010043093 0.71600002 -0.055237014 1.4525854e-38 328 284
0.011266919 0.71399999 -0.05508272 1.4525854e-38 329 284
0.0124662 0.71100003 -0.054851279 1.4617687e-38 330 284
0.013693533 0.70999998 -0.054774132 1.4801718e-38 331 284
0.01489632 0.708 -0.054619838 1.4893563e-38 332 284
0.01613768 0.708 -0.054619838 1.5631128e-38 333 284
0.017354494 0.70700002 -0.054542694 9.3776827e-39 334 284
0.018594101 0.70700002 -0.054542694 7.4415745e-39 335 284
0.019805651 0.70599997 -0.054465543 8.2763742e-39 336 284
0.021043506 0.70599997 -0.054465543 1.0397232e-38 337 284
0.022281358 0.70599997 -0.054465543 1.4530188e-38 338 284
0.023552528 0.70700002 -0.054542694 1.3608592e-38 339 284
0.024792133 0.70700002 -0.054542694 1.4247841e-38 340 284
0.02603174 0.70700002 -0.054542694 1.3971614e-38 341 284
0.027271347 0.70700002 -0.054542694 1.3604271e-38 342 284
0.028510952 0.70700002 -0.054542694 1.3788662e-38 343 284
0.029750559 0.70700002 -0.054542694 1.333128e-38 344 284
0.030990168 0.70700002 -0.054542694 1.3607506e-38 345 284
0.03227536 0.708 -0.054619838 1.296574e-38 346 284
0.033516716 0.708 -0.054619838 1.2873185e-38 347 284
0.034758076 0.708 -0.054619838 1.2780276e-38 348 284
0.03599944 0.708 -0.054619838 1.2503331e-38 349 284
0.037345998 0.70999998 -0.054774132 1.2502611e-38 350 284
0.038590867 0.70999998 -0.054774132 1.2226024e-38 351 284
0.039835732 0.70999998 -0.054774132 1.1765764e-38 352 284
0.041138459 0.71100003 -0.054851279 9.7374605e-39 353 284
0.042385083 0.71100003 -0.054851279 6.8030294e-39 354 284
0.043815799 0.71399999 -0.05508272 9.199757e-39 355 284
0.045067675 0.71399999 -0.05508272 1.2040909e-38 356 284
0.046449307 0.71600002 -0.055237014 1.2040909e-38 357 284
0.047704693 0.71600002 -0.055237014 1.1857594e-38 358 284
0.04902846 0.71700001 -0.055314157 1.1949791e-38 359 284
0.050425861 0.71899998 -0.055468451 1.1857591e-38 360 284
0.05168651 0.71899998 -0.055468451 1.2134178e-38 361 284
0.053020801 0.72000003 -0.055545598 1.1951229e-38 362 284
0.054283202 0.72000003 -0.055545598 1.213562e-38 363 284
0.055699892 0.722 -0.055699892 1.1954829e-38 364 284
0.056965802 0.722 -0.055699892 1.2415807e-38 365 284
0.058231708 0.722 -0.055699892 1.250946e-38 366 284
0.059580017 0.72299999 -0.055777039 1.5367885e-38 367 284
-0.006434733 0.73400003 -0.057912603 1.410701e-38 315 285
-0.0051477868 0.73400003 -0.057912603 1.4449496e-38 316 285
-0.00384506 0.73100001 -0.057675898 1.2697779e-38 317 285
-0.0025598668 0.73000002 -0.057597004 1.426005e-38 318 285
-0.0012764266 0.72799999 -0.057439197 1.4167855e-38 319 285
0 0.727 -0.057360299 1.3889839e-38 320 285
0.0012676599 0.72299999 -0.057044696 1.3613612e-38 321 285
0.0025212932 0.71899998 -0.056729097 1.0578361e-38 322 285
0.0037819401 0.71899998 -0.056729097 1.085459e-38 323 285
0.0050285598 0.71700001 -0.056571297 1.3425993e-38 324 285
0.0062857 0.71700001 -0.056571297 1.3333798e-38 325 285
0.0075428397 0.71700001 -0.056571297 1.3884085e-38 326 285
0.0087877065 0.71600002 -0.056492399 1.3884085e-38 327 285
0.010043093 0.71600002 -0.056492399 1.4251062e-38 328 285
0.011266919 0.71399999 -0.0563346 1.4158867e-38 329 285
0.0124662 0.71100003 -0.056097899 1.4433656e-38 330 285
0.013693533 0.70999998 -0.056018997 1.4433656e-38 331 285
0.01489632 0.708 -0.055861197 1.4342189e-38 332 285
0.01613768 0.708 -0.055861197 1.4987558e-38 333 285
0.017280852 0.704 -0.055545598 8.1823667e-39 334 285
0.018515198 0.704 -0.055545598 6.7068779e-39 335 285
0.019749546 0.704 -0.055545598 9.4709517e-39 336 285
0.021043506 0.70599997 -0.055703394 1.0946082e-38 337 285
0.022281358 0.70599997 -0.055703394 1.406741e-38 338 285
0.023519212 0.70599997 -0.055703394 1.360679e-38 339 285
0.024757065 0.70599997 -0.055703394 1.397198e-38 340 285
0.025994917 0.70599997 -0.055703394 1.3879784e-38 341 285
0.027232772 0.70599997 -0.055703394 1.3604636e-38 342 285
0.028510952 0.70700002 -0.055782299 1.3789386e-38 343 285
0.029750559 0.70700002 -0.055782299 1.3148333e-38 344 285
0.030990168 0.70700002 -0.055782299 1.3424561e-38 345 285
0.03227536 0.708 -0.055861197 1.2782792e-38 346 285
0.033516716 0.708 -0.055861197 1.2321814e-38 347 285
0.034758076 0.708 -0.055861197 1.2503334e-38 348 285
0.03599944 0.708 -0.055861197 1.2134551e-38 349 285
0.037345998 0.70999998 -0.056018997 1.2133825e-38 350 285
0.038590867 0.70999998 -0.056018997 1.1857597e-38 351 285
0.039835732 0.70999998 -0.056018997 1.2039111e-38 352 285
0.041138459 0.71100003 -0.056097899 1.0287394e-38 353 285
0.042504307 0.713 -0.056255698 6.3420414e-39 354 285
0.043815799 0.71399999 -0.0563346 9.0157147e-39 355 285
0.045193922 0.71600002 -0.056492399 1.1856863e-38 356 285
0.046449307 0.71600002 -0.056492399 1.2041613e-38 357 285
0.04777132 0.71700001 -0.056571297 1.1858661e-38 358 285
0.04902846 0.71700001 -0.056571297 1.1951216e-38 359 285
0.050425861 0.71899998 -0.056729097 1.1767548e-38 360 285
0.05168651 0.71899998 -0.056729097 1.1951579e-38 361 285
0.053020801 0.72000003 -0.056808002 1.2043425e-38 362 285
0.054283202 0.72000003 -0.056808002 1.2320372e-38 363 285
0.055699892 0.722 -0.056965802 1.1956627e-38 364 285
0.056965802 0.722 -0.056965802 1.2601996e-38 365 285
0.058312356 0.72299999 -0.057044696 1.241942e-38 366 285
0.059580017 0.72299999 -0.057044696 1.5646267e-38 367 285
-0.0051477868 0.73400003 -0.059199546 1.5653437e-38 316 286
-0.00384506 0.73100001 -0.058957584 1.2149644e-38 317 286
-0.0025598668 0.73000002 -0.058876935 1.4260419e-38 318 286
-0.0012799334 0.73000002 -0.058876935 1.4076029e-38 319 286
0 0.727 -0.058634974 1.3892009e-38 320 286
0.0012624001 0.72000003 -0.058070403 1.306225e-38 321 286
0.0025212932 0.71899998 -0.057989739 1.0578006e-38 322 286
0.0037714199 0.71700001 -0.057828441 1.1223375e-38 323 286
0.0050285598 0.71700001 -0.057828441 1.3520707e-38 324 286
0.0062769335 0.71600002 -0.057747785 1.3244119e-38 325 286
0.00753232 0.71600002 -0.057747785 1.3975204e-38 326 286
0.0087877065 0.71600002 -0.057747785 1.3975204e-38 327 286
0.010043093 0.71600002 -0.057747785 1.4341108e-38 328 286
0.011266919 0.71399999 -0.057586476 1.4157077e-38 329 286
0.012501267 0.713 -0.057505824 1.4340021e-38 330 286
0.013693533 0.70999998 -0.057263866 1.4616248e-38 331 286
0.01489632 0.708 -0.057102561 1.4065601e-38 332 286
0.01613768 0.708 -0.057102561 1.3789015e-38 333 286
0.017280852 0.704 -0.056779943 7.0763891e-39 334 286
0.018515198 0.704 -0.056779943 6.5232153e-39 335 286
0.019749546 0.704 -0.056779943 1.0022333e-38 336 286
0.020983893 0.704 -0.056779943 1.1220876e-38 337 286
0.022218239 0.704 -0.056779943 1.3607506e-38 338 286
0.023519212 0.70599997 -0.056941248 1.3239084e-38 339 286
0.024757065 0.70599997 -0.056941248 1.3696466e-38 340 286
0.025994917 0.70599997 -0.056941248 1.3696466e-38 341 286
0.027232772 0.70599997 -0.056941248 1.3329845e-38 342 286
0.028510952 0.70700002 -0.057021905 1.3514595e-38 343 286
0.029750559 0.70700002 -0.057021905 1.296574e-38 344 286
0.030990168 0.70700002 -0.057021905 1.3057937e-38 345 286
0.03227536 0.708 -0.057102561 1.287426e-38 346 286
0.033516716 0.708 -0.057102561 1.2413283e-38 347 286
0.034758076 0.708 -0.057102561 1.2228169e-38 348 286
0.03599944 0.708 -0.057102561 1.1674995e-38 349 286
0.037345998 0.70999998 -0.057263866 1.1857947e-38 350 286
0.038590867 0.70999998 -0.057263866 1.1765752e-38 351 286
0.039835732 0.70999998 -0.057263866 1.1857597e-38 352 286
0.041138459 0.71100003 -0.057344519 9.8289344e-39 353 286
0.042504307 0.713 -0.057505824 5.515159e-39 354 286
0.043815799 0.71399999 -0.057586476 8.5576134e-39 355 286
0.045067675 0.71399999 -0.057586476 1.158315e-38 356 286
0.046449307 0.71600002 -0.057747785 1.158315e-38 357 286
0.04777132 0.71700001 -0.057828441 1.1767548e-38 358 286
0.04902846 0.71700001 -0.057828441 1.1951579e-38 359 286
0.050425861 0.71899998 -0.057989739 1.176827e-38 360 286
0.05168651 0.71899998 -0.057989739 1.1952661e-38 361 286
0.053020801 0.72000003 -0.058070403 1.1953377e-38 362 286
0.054283202 0.72000003 -0.058070403 1.2230324e-38 363 286
0.055699892 0.722 -0.058231708 1.2142091e-38 364 286
0.057044696 0.72299999 -0.058312356 1.2234287e-38 365 286
0.058312356 0.72299999 -0.058312356 1.1776211e-38 366 286
0.059580017 0.72299999 -0.058312356 1.6293797e-38 367 286
-0.0051477868 0.73400003 -0.060486492 1.6860982e-38 316 287
-0.0038555798 0.73299998 -0.060404085 1.2251199e-38 317 287
-0.0025633732 0.73100001 -0.06023927 1.3894157e-38 318 287
-0.0012799334 0.73000002 -0.060156867 1.3894157e-38 319 287
0 0.72799999 -0.059992049 1.4258625e-38 320 287
0.0012624001 0.72000003 -0.059332799 1.3428865e-38 321 287
0.0025212932 0.71899998 -0.059250388 1.0854943e-38 322 287
0.0037714199 0.71700001 -0.059085581 1.1500312e-38 323 287
0.0050285598 0.71700001 -0.059085581 1.3613627e-38 324 287
0.0062769335 0.71600002 -0.059003171 1.3152649e-38 325 287
0.00753232 0.71600002 -0.059003171 1.3884453e-38 326 287
0.0087877065 0.71600002 -0.059003171 1.3699703e-38 327 287
0.010043093 0.71600002 -0.059003171 1.388193e-38 328 287
0.011266919 0.71399999 -0.058838356 1.3974484e-38 329 287
0.012501267 0.713 -0.058755953 1.4065948e-38 330 287
0.013693533 0.70999998 -0.058508728 1.4158144e-38 331 287
0.01489632 0.708 -0.058343921 1.3513144e-38 332 287
0.01613768 0.708 -0.058343921 1.2683742e-38 333 287
0.017329946 0.70599997 -0.058179103 5.6044988e-39 334 287
0.018567799 0.70599997 -0.058179103 5.6966958e-39 335 287
0.019749546 0.704 -0.058014292 1.0666624e-38 336 287
0.020983893 0.704 -0.058014292 1.1496384e-38 337 287
0.022218239 0.704 -0.058014292 1.3606071e-38 338 287
0.023519212 0.70599997 -0.058179103 1.342168e-38 339 287
0.024757065 0.70599997 -0.058179103 1.3512441e-38 340 287
0.025994917 0.70599997 -0.058179103 1.3512441e-38 341 287
0.027232772 0.70599997 -0.058179103 1.3238734e-38 342 287
0.028510952 0.70700002 -0.05826151 1.3330929e-38 343 287
0.029750559 0.70700002 -0.05826151 1.2689523e-38 344 287
0.030990168 0.70700002 -0.05826151 1.2597327e-38 345 287
0.03227536 0.708 -0.058343921 1.2412933e-38 346 287
0.033516716 0.708 -0.058343921 1.2044509e-38 347 287
0.034758076 0.708 -0.058343921 1.2043062e-38 348 287
0.036101133 0.70999998 -0.058508728 1.1858312e-38 349 287
0.037345998 0.70999998 -0.058508728 1.1766102e-38 350 287
0.038590867 0.70999998 -0.058508728 1.1673906e-38 351 287
0.039835732 0.70999998 -0.058508728 1.2039459e-38 352 287
0.041138459 0.71100003 -0.058591139 1.0288101e-38 353 287
0.042504307 0.713 -0.058755953 5.698107e-39 354 287
0.043815799 0.71399999 -0.058838356 8.924954e-39 355 287
0.045067675 0.71399999 -0.058838356 1.176862e-38 356 287
0.046449307 0.71600002 -0.059003171 1.1860816e-38 357 287
0.04777132 0.71700001 -0.059085581 1.1953011e-38 358 287
0.04902846 0.71700001 -0.059085581 1.1953011e-38 359 287
0.050425861 0.71899998 -0.059250388 1.1862614e-38 360 287
0.051758397 0.72000003 -0.059332799 1.1862614e-38 361 287
0.053020801 0.72000003 -0.059332799 1.2047731e-38 362 287
0.054433983 0.722 -0.059497613 1.2416153e-38 363 287
0.055699892 0.722 -0.059497613 1.2050987e-38 364 287
0.057044696 0.72299999 -0.059580017 1.2235377e-38 365 287
0.058312356 0.72299999 -0.059580017 1.122341e-38 366 287
0.059909642 0.727 -0.059909642 1.7216126e-38 367 287
-0.0038608401 0.73400003 -0.061773442 1.4283114e-38 317 288
0 0.73000002 -0.061436798 1.4172189e-38 320 288
0.0012799334 0.73000002 -0.061436798 1.3065843e-38 321 288
0.0025212932 0.71899998 -0.060511041 1.1130826e-38 322 288
0.0037819401 0.71899998 -0.060511041 1.1776196e-38 323 288
0.0050285598 0.71700001 -0.060342718 1.3523594e-38 324 288
0.0062769335 0.71600002 -0.06025856 1.3062974e-38 325 288
0.00753232 0.71600002 -0.06025856 1.3885172e-38 326 288
0.0087877065 0.71600002 -0.06025856 1.3608587e-38 327 288
0.01001504 0.71399999 -0.060090236 1.3975204e-38 328 288
0.01121958 0.71100003 -0.059837762 1.3882648e-38 329 288
0.0124662 0.71100003 -0.059837762 1.4065598e-38 330 288
0.013654959 0.708 -0.059585281 1.3973402e-38 331 288
0.01489632 0.708 -0.059585281 1.296214e-38 332 288
0.01613768 0.708 -0.059585281 1.2040185e-38 333 288
0.017329946 0.70599997 -0.059416957 4.4999561e-39 334 288
0.018567799 0.70599997 -0.059416957 5.1438906e-39 335 288
0.019805651 0.70599997 -0.059416957 1.0851021e-38 336 288
0.021043506 0.70599997 -0.059416957 1.1957009e-38 337 288
0.022281358 0.70599997 -0.059416957 1.3423478e-38 338 288
0.023519212 0.70599997 -0.059416957 1.3146532e-38 339 288
0.024757065 0.70599997 -0.059416957 1.3512797e-38 340 288
0.025994917 0.70599997 -0.059416957 1.3512797e-38 341 288
0.027232772 0.70599997 -0.059416957 1.2778473e-38 342 288
0.028510952 0.70700002 -0.059501119 1.2778473e-38 343 288
0.029750559 0.70700002 -0.059501119 1.2594083e-38 344 288
0.030990168 0.70700002 -0.059501119 1.2409693e-38 345 288
0.03227536 0.708 -0.059585281 1.2500813e-38 346 288
0.033516716 0.708 -0.059585281 1.2500813e-38 347 288
0.034758076 0.708 -0.059585281 1.2040904e-38 348 288
0.036101133 0.70999998 -0.059753593 1.2040904e-38 349 288
0.037345998 0.70999998 -0.059753593 1.1857942e-38 350 288
0.038590867 0.70999998 -0.059753593 1.1857942e-38 351 288
0.039835732 0.70999998 -0.059753593 1.2134176e-38 352 288
0.041138459 0.71100003 -0.059837762 1.0014036e-38 353 288
0.042504307 0.713 -0.060006075 5.3304104e-39 354 288
0.043815799 0.71399999 -0.060090236 9.0182356e-39 355 288
0.045067675 0.71399999 -0.060090236 1.1861184e-38 356 288
0.046449307 0.71600002 -0.06025856 1.2045576e-38 357 288
0.04777132 0.71700001 -0.060342718 1.195553e-38 358 288
0.049165215 0.71899998 -0.060511041 1.195553e-38 359 288
0.050425861 0.71899998 -0.060511041 1.1772939e-38 360 288
0.051758397 0.72000003 -0.060595199 1.1772939e-38 361 288
0.053168077 0.722 -0.060763516 1.2140289e-38 362 288
0.054433983 0.722 -0.060763516 1.2325041e-38 363 288
0.055777039 0.72299999 -0.060847677 1.2235374e-38 364 288
0.057044696 0.72299999 -0.060847677 1.1590005e-38 365 288
0.058473669 0.72500002 -0.061016005 1.0299293e-38 366 288
0.059992049 0.72799999 -0.061268479 1.8504703e-38 367 288
0.0025212932 0.71899998 -0.061771683 1.140741e-38 322 289
0.0037819401 0.71899998 -0.061771683 1.1868747e-38 323 289
0.0050285598 0.71700001 -0.061599858 1.3342079e-38 324 289
0.0062769335 0.71600002 -0.061513945 1.2880741e-38 325 289
0.00753232 0.71600002 -0.061513945 1.3886971e-38 326 289
0.0087877065 0.71600002 -0.061513945 1.3518189e-38 327 289
0.01001504 0.71399999 -0.061342116 1.3792252e-38 328 289
0.01121958 0.71100003 -0.061084379 1.3700056e-38 329 289
0.0124662 0.71100003 -0.061084379 1.3790809e-38 330 289
0.013654959 0.708 -0.060826641 1.3514223e-38 331 289
0.01489632 0.708 -0.060826641 1.2686276e-38 332 289
0.01613768 0.708 -0.060826641 1.1672484e-38 333 289
0.017354494 0.70700002 -0.060740728 4.5917944e-39 334 289
0.018567799 0.70599997 -0.060654808 5.0524138e-39 335 289
0.019805651 0.70599997 -0.060654808 1.0392561e-38 336 289
0.021043506 0.70599997 -0.060654808 1.1406354e-38 337 289
0.022281358 0.70599997 -0.060654808 1.360679e-38 338 289
0.023519212 0.70599997 -0.060654808 1.342204e-38 339 289
0.024757065 0.70599997 -0.060654808 1.3329126e-38 340 289
0.025994917 0.70599997 -0.060654808 1.3236929e-38 341 289
0.027232772 0.70599997 -0.060654808 1.2868869e-38 342 289
0.028510952 0.70700002 -0.060740728 1.2684478e-38 343 289
0.029750559 0.70700002 -0.060740728 1.2225305e-38 344 289
0.030990168 0.70700002 -0.060740728 1.213275e-38 345 289
0.03227536 0.708 -0.060826641 1.213275e-38 346 289
0.033516716 0.708 -0.060826641 1.213275e-38 347 289
0.034758076 0.708 -0.060826641 1.2133455e-38 348 289
0.036101133 0.70999998 -0.060998458 1.2133455e-38 349 289
0.037345998 0.70999998 -0.060998458 1.1767899e-38 350 289
0.038590867 0.70999998 -0.060998458 1.1767899e-38 351 289
0.039835732 0.70999998 -0.060998458 1.2043056e-38 352 289
0.041138459 0.71100003 -0.061084379 1.0567926e-38 353 289
0.042504307 0.713 -0.061256204 5.6095211e-39 354 289
0.043815799 0.71399999 -0.061342116 8.8363681e-39 355 289
0.045193922 0.71600002 -0.061513945 1.2230693e-38 356 289
0.046449307 0.71600002 -0.061513945 1.2230693e-38 357 289
0.04777132 0.71700001 -0.061599858 1.1865135e-38 358 289
0.049165215 0.71899998 -0.061771683 1.1865135e-38 359 289
0.050496001 0.72000003 -0.061857603 1.1864779e-38 360 289
0.051758397 0.72000003 -0.061857603 1.1864779e-38 361 289
0.053168077 0.722 -0.062029421 1.2141011e-38 362 289
0.054433983 0.722 -0.062029421 1.2325404e-38 363 289
0.055777039 0.72299999 -0.062115334 1.2327218e-38 364 289
0.057202499 0.72500002 -0.062287167 1.0944283e-38 365 289
0.058473669 0.72500002 -0.062287167 9.5602915e-39 366 289
0.059992049 0.72799999 -0.062544905 1.9425224e-38 367 289
0.0012711667 0.72500002 -0.063558333 1.3714082e-38 321 290
0.0025212932 0.71899998 -0.063032329 1.1501409e-38 322 290
0.0037819401 0.71899998 -0.063032329 1.1962029e-38 323 290
0.0050285598 0.71700001 -0.062856995 1.3527194e-38 324 290
0.0062857 0.71700001 -0.062856995 1.297402e-38 325 290
0.0075428397 0.71700001 -0.062856995 1.3979886e-38 326 290
0.0087877065 0.71600002 -0.062769331 1.3611103e-38 327 290
0.01001504 0.71399999 -0.062593997 1.3609656e-38 328 290
0.011251139 0.713 -0.062506333 1.351746e-38 329 290
0.012501267 0.713 -0.062506333 1.360821e-38 330 290
0.013693533 0.70999998 -0.062243331 1.3239787e-38 331 290
0.01489632 0.708 -0.062068 1.2503314e-38 332 290
0.01613768 0.708 -0.062068 1.1673553e-38 333 290
0.017379038 0.708 -0.062068 5.0527698e-39 334 290
0.018594101 0.70700002 -0.061980337 5.1449654e-39 335 290
0.019833706 0.70700002 -0.061980337 9.3812967e-39 336 290
0.021073313 0.70700002 -0.061980337 1.0579838e-38 337 290
0.022312919 0.70700002 -0.061980337 1.3150135e-38 338 290
0.023552528 0.70700002 -0.061980337 1.2596601e-38 339 290
0.024792133 0.70700002 -0.061980337 1.2960699e-38 340 290
0.02603174 0.70700002 -0.061980337 1.2868504e-38 341 290
0.027271347 0.70700002 -0.061980337 1.2317851e-38 342 290
0.028510952 0.70700002 -0.061980337 1.2133459e-38 343 290
0.029750559 0.70700002 -0.061980337 1.204126e-38 344 290
0.030990168 0.70700002 -0.061980337 1.204126e-38 345 290
0.03227536 0.708 -0.062068 1.195014e-38 346 290
0.033516716 0.708 -0.062068 1.195014e-38 347 290
0.034758076 0.708 -0.062068 1.1951216e-38 348 290
0.036101133 0.70999998 -0.062243331 1.2043412e-38 349 290
0.037345998 0.70999998 -0.062243331 1.1861532e-38 350 290
0.038590867 0.70999998 -0.062243331 1.1953728e-38 351 290
0.039891839 0.71100003 -0.062331002 1.2139573e-38 352 290
0.041254178 0.713 -0.062506333 1.0203465e-38 353 290
0.042563915 0.71399999 -0.062593997 6.3478064e-39 354 290
0.043815799 0.71399999 -0.062593997 9.0214796e-39 355 290
0.045193922 0.71600002 -0.062769331 1.2323607e-38 356 290
0.046514176 0.71700001 -0.062856995 1.2047022e-38 357 290
0.04790457 0.71899998 -0.063032329 1.195698e-38 358 290
0.0492336 0.72000003 -0.06312 1.195698e-38 359 290
0.050496001 0.72000003 -0.06312 1.2139939e-38 360 290
0.051902171 0.722 -0.063295327 1.2139939e-38 361 290
0.053168077 0.722 -0.063295327 1.2232861e-38 362 290
0.054509375 0.72299999 -0.063382991 1.2325056e-38 363 290
0.055777039 0.72299999 -0.063382991 1.2327218e-38 364 290
0.057202499 0.72500002 -0.063558333 1.057586e-38 365 290
0.058473669 0.72500002 -0.063558333 9.1021874e-39 366 290
0.059992049 0.72799999 -0.063821331 1.9704686e-38 367 290
0.0012676599 0.72299999 -0.064650662 1.3899925e-38 321 291
0.0025353199 0.72299999 -0.064650662 1.1871987e-38 322 291
0.0037872 0.72000003 -0.064382397 1.2056378e-38 323 291
0.0050425865 0.71899998 -0.064292975 1.3802704e-38 324 291
0.0063032326 0.71899998 -0.064292975 1.3341726e-38 325 291
0.0075428397 0.71700001 -0.064114138 1.3980615e-38 326 291
0.0087999795 0.71700001 -0.064114138 1.3796223e-38 327 291
0.010043093 0.71600002 -0.064024724 1.370222e-38 328 291
0.011251139 0.713 -0.063756458 1.3518189e-38 329 291
0.012501267 0.713 -0.063756458 1.3517816e-38 330 291
0.013693533 0.70999998 -0.063488193 1.3241229e-38 331 291
0.014938398 0.70999998 -0.063488193 1.278134e-38 332 291
0.01613768 0.708 -0.063309364 1.2043775e-38 333 291
0.017379038 0.708 -0.063309364 5.8818116e-39 334 291
0.0186204 0.708 -0.063309364 5.2364422e-39 335 291
0.01986176 0.708 -0.063309364 7.4523799e-39 336 291
0.021073313 0.70700002 -0.063219935 8.9275114e-39 337 291
0.022312919 0.70700002 -0.063219935 1.2322538e-38 338 291
0.023552528 0.70700002 -0.063219935 1.1769364e-38 339 291
0.024792133 0.70700002 -0.063219935 1.2500447e-38 340 291
0.02603174 0.70700002 -0.063219935 1.2500447e-38 341 291
0.027271347 0.70700002 -0.063219935 1.1949788e-38 342 291
0.028510952 0.70700002 -0.063219935 1.1949788e-38 343 291
0.029750559 0.70700002 -0.063219935 1.1857947e-38 344 291
0.031034 0.708 -0.063309364 1.1950143e-38 345 291
0.03227536 0.708 -0.063309364 1.1951579e-38 346 291
0.033516716 0.708 -0.063309364 1.2043775e-38 347 291
0.034856264 0.70999998 -0.063488193 1.1953014e-38 348 291
0.036101133 0.70999998 -0.063488193 1.204521e-38 349 291
0.037398599 0.71100003 -0.063577622 1.1863337e-38 350 291
0.038645219 0.71100003 -0.063577622 1.2047728e-38 351 291
0.040004052 0.713 -0.063756458 1.2232136e-38 352 291
0.041254178 0.713 -0.063756458 1.0296028e-38 353 291
0.042563915 0.71399999 -0.063845873 6.5322004e-39 354 291
0.043938532 0.71600002 -0.064024724 9.1136781e-39 355 291
0.045193922 0.71600002 -0.064024724 1.2140295e-38 356 291
0.046643924 0.71899998 -0.064292975 1.2047741e-38 357 291
0.04790457 0.71899998 -0.064292975 1.1956624e-38 358 291
0.0492336 0.72000003 -0.064382397 1.1956624e-38 359 291
0.050496001 0.72000003 -0.064382397 1.2139942e-38 360 291
0.051902171 0.722 -0.064561233 1.2139942e-38 361 291
0.053241719 0.72299999 -0.064650662 1.2324335e-38 362 291
0.054509375 0.72299999 -0.064650662 1.2600561e-38 363 291
0.055931333 0.72500002 -0.064829499 1.2327574e-38 364 291
0.057360299 0.727 -0.065008335 1.0022684e-38 365 291
0.058634974 0.727 -0.065008335 8.1874254e-39 366 291
0.059992049 0.72799999 -0.065097757 1.9250901e-38 367 291
0.0012676599 0.72299999 -0.065918319 1.3261393e-38 321 292
0.0025353199 0.72299999 -0.065918319 1.2335113e-38 322 292
0.0037977197 0.722 -0.065827139 1.1966332e-38 323 292
0.0050496003 0.72000003 -0.065644801 1.3803058e-38 324 292
0.0063032326 0.71899998 -0.065553628 1.352611e-38 325 292
0.0075638802 0.71899998 -0.065553628 1.4166079e-38 326 292
0.0087999795 0.71700001 -0.065371275 1.3612906e-38 327 292
0.010043093 0.71600002 -0.06528011 1.3886969e-38 328 292
0.011266919 0.71399999 -0.065097757 1.3702576e-38 329 292
0.012501267 0.713 -0.065006584 1.3426697e-38 330 292
0.013693533 0.70999998 -0.064733058 1.3242306e-38 331 292
0.014938398 0.70999998 -0.064733058 1.3150839e-38 332 292
0.016183265 0.70999998 -0.064733058 1.2873892e-38 333 292
0.017379038 0.708 -0.06455072 6.9863571e-39 334 292
0.0186204 0.708 -0.06455072 5.6956182e-39 335 292
0.01986176 0.708 -0.06455072 6.8999264e-39 336 292
0.021073313 0.70700002 -0.064459547 8.4672521e-39 337 292
0.022312919 0.70700002 -0.064459547 1.1861564e-38 338 292
0.023552528 0.70700002 -0.064459547 1.1492421e-38 339 292
0.024792133 0.70700002 -0.064459547 1.240897e-38 340 292
0.02603174 0.70700002 -0.064459547 1.2132383e-38 341 292
0.027271347 0.70700002 -0.064459547 1.1857947e-38 342 292
0.028510952 0.70700002 -0.064459547 1.2134176e-38 343 292
0.02979264 0.708 -0.06455072 1.1767545e-38 344 292
0.031034 0.708 -0.06455072 1.2044131e-38 345 292
0.03227536 0.708 -0.06455072 1.195373e-38 346 292
0.033611398 0.70999998 -0.064733058 1.2045926e-38 347 292
0.034856264 0.70999998 -0.064733058 1.2047002e-38 348 292
0.036101133 0.70999998 -0.064733058 1.2139198e-38 349 292
0.037398599 0.71100003 -0.064824238 1.2047725e-38 350 292
0.038645219 0.71100003 -0.064824238 1.2047725e-38 351 292
0.040004052 0.713 -0.065006584 1.2229974e-38 352 292
0.041254178 0.713 -0.065006584 1.0846681e-38 353 292
0.042563915 0.71399999 -0.065097757 6.440002e-39 354 292
0.043938532 0.71600002 -0.06528011 9.1136753e-39 355 292
0.045257039 0.71700001 -0.065371275 1.2140295e-38 356 292
0.046643924 0.71899998 -0.065553628 1.2140295e-38 357 292
0.0479712 0.72000003 -0.065644801 1.1956624e-38 358 292
0.04937036 0.722 -0.065827139 1.1956624e-38 359 292
0.050636265 0.722 -0.065827139 1.2140662e-38 360 292
0.051974058 0.72299999 -0.065918319 1.2140662e-38 361 292
0.053241719 0.72299999 -0.065918319 1.2324337e-38 362 292
0.054509375 0.72299999 -0.065918319 1.2600564e-38 363 292
0.055931333 0.72500002 -0.066100664 1.2418698e-38 364 292
0.057360299 0.727 -0.06628301 1.0943566e-38 365 292
0.058634974 0.727 -0.06628301 1.0947546e-38 366 292
0.059992049 0.72799999 -0.066374183 2.0812479e-38 367 292
0.0012711667 0.72500002 -0.067371838 1.4373516e-38 321 293
0.0025353199 0.72299999 -0.067185976 1.3167042e-38 322 293
0.0038029798 0.72299999 -0.067185976 1.2152891e-38 323 293
0.0050496003 0.72000003 -0.066907197 1.3620108e-38 324 293
0.0063120001 0.72000003 -0.066907197 1.3527913e-38 325 293
0.0075638802 0.71899998 -0.066814266 1.3892735e-38 326 293
0.0087999795 0.71700001 -0.066628419 1.3523594e-38 327 293
0.010043093 0.71600002 -0.066535495 1.3796937e-38 328 293
0.011266919 0.71399999 -0.066349633 1.3428514e-38 329 293
0.012501267 0.713 -0.066256717 1.3335593e-38 330 293
0.013693533 0.70999998 -0.065977924 1.3243397e-38 331 293
0.014938398 0.70999998 -0.065977924 1.2876057e-38 332 293
0.016183265 0.70999998 -0.065977924 1.2876057e-38 333 293
0.017379038 0.708 -0.065792084 7.9983454e-39 334 293
0.0186204 0.708 -0.065792084 6.4310197e-39 335 293
0.01986176 0.708 -0.065792084 6.6229695e-39 336 293
0.021073313 0.70700002 -0.065699153 8.4665234e-39 337 293
0.022312919 0.70700002 -0.065699153 1.2137425e-38 338 293
0.023552528 0.70700002 -0.065699153 1.1584251e-38 339 293
0.024792133 0.70700002 -0.065699153 1.2041257e-38 340 293
0.02603174 0.70700002 -0.065699153 1.2041257e-38 341 293
0.027271347 0.70700002 -0.065699153 1.195086e-38 342 293
0.028510952 0.70700002 -0.065699153 1.2043056e-38 343 293
0.02979264 0.708 -0.065792084 1.1770065e-38 344 293
0.031034 0.708 -0.065792084 1.2046293e-38 345 293
0.032366529 0.70999998 -0.065977924 1.1863702e-38 346 293
0.033611398 0.70999998 -0.065977924 1.2048094e-38 347 293
0.034856264 0.70999998 -0.065977924 1.2048094e-38 348 293
0.036151983 0.71100003 -0.066070862 1.2140289e-38 349 293
0.037503798 0.713 -0.066256717 1.2140292e-38 350 293
0.038753927 0.713 -0.066256717 1.2140292e-38 351 293
0.040004052 0.713 -0.066256717 1.2139942e-38 352 293
0.041312039 0.71399999 -0.066349633 1.0296031e-38 353 293
0.042683143 0.71600002 -0.066535495 6.348528e-39 354 293
0.043999899 0.71700001 -0.066628419 8.9300057e-39 355 293
0.045383278 0.71899998 -0.066814266 1.2139939e-38 356 293
0.0467088 0.72000003 -0.066907197 1.2139939e-38 357 293
0.048104454 0.722 -0.067093052 1.2141014e-38 358 293
0.04937036 0.722 -0.067093052 1.2141014e-38 359 293
0.050706398 0.72299999 -0.067185976 1.2140659e-38 360 293
0.051974058 0.72299999 -0.067185976 1.2232855e-38 361 293
0.053241719 0.72299999 -0.067185976 1.2325053e-38 362 293
0.054509375 0.72299999 -0.067185976 1.2232858e-38 363 293
0.055931333 0.72500002 -0.067371838 1.1956276e-38 364 293
0.057360299 0.727 -0.067557678 1.3800189e-38 365 293
0.058634974 0.727 -0.067557678 1.390752e-38 366 293
0.0012711667 0.72500002 -0.068643004 1.594338e-38 321 294
0.0025353199 0.72299999 -0.06845364 1.4737611e-38 322 294
0.0038029798 0.72299999 -0.06845364 1.2432721e-38 323 294
0.0050636264 0.722 -0.068358958 1.3344951e-38 324 294
0.0063120001 0.72000003 -0.068169601 1.3437146e-38 325 294
0.0075638802 0.71899998 -0.068074919 1.3894522e-38 326 294
0.0088245263 0.71899998 -0.068074919 1.3433902e-38 327 294
0.01005712 0.71700001 -0.067885563 1.3981315e-38 328 294
0.011266919 0.71399999 -0.067601517 1.3704728e-38 329 294
0.012518799 0.71399999 -0.067601517 1.3519258e-38 330 294
0.013693533 0.70999998 -0.067222796 1.3334867e-38 331 294
0.014938398 0.70999998 -0.067222796 1.3059006e-38 332 294
0.016183265 0.70999998 -0.067222796 1.3243397e-38 333 294
0.017428132 0.70999998 -0.067222796 9.2858402e-39 334 294
0.0186204 0.708 -0.067033432 7.9029058e-39 335 294
0.01986176 0.708 -0.067033432 6.3478218e-39 336 294
0.021073313 0.70700002 -0.066938758 7.9155062e-39 337 294
0.022312919 0.70700002 -0.066938758 1.2045946e-38 338 294
0.023552528 0.70700002 -0.066938758 1.1584967e-38 339 294
0.024827199 0.708 -0.067033432 1.2226721e-38 340 294
0.026068559 0.708 -0.067033432 1.2226721e-38 341 294
0.027309919 0.708 -0.067033432 1.1953011e-38 342 294
0.02855128 0.708 -0.067033432 1.2229238e-38 343 294
0.02979264 0.708 -0.067033432 1.2230677e-38 344 294
0.031121666 0.70999998 -0.067222796 1.2322873e-38 345 294
0.032366529 0.70999998 -0.067222796 1.2231043e-38 346 294
0.033658739 0.71100003 -0.067317478 1.2231043e-38 347 294
0.034905359 0.71100003 -0.067317478 1.2139573e-38 348 294
0.036253672 0.713 -0.067506835 1.2323604e-38 349 294
0.037503798 0.713 -0.067506835 1.2140645e-38 350 294
0.038808275 0.71399999 -0.067601517 1.204845e-38 351 294
0.040060159 0.71399999 -0.067601517 1.2230693e-38 352 294
0.041312039 0.71399999 -0.067601517 1.0571173e-38 353 294
0.042683143 0.71600002 -0.067790881 7.4498365e-39 354 294
0.043999899 0.71700001 -0.067885563 9.8469243e-39 355 294
0.045446403 0.72000003 -0.068169601 1.2323251e-38 356 294
0.0467088 0.72000003 -0.068169601 1.2323251e-38 357 294
0.048104454 0.722 -0.068358958 1.2141011e-38 358 294
0.04937036 0.722 -0.068358958 1.2233208e-38 359 294
0.050706398 0.72299999 -0.06845364 1.2325407e-38 360 294
0.051974058 0.72299999 -0.06845364 1.2325407e-38 361 294
0.053241719 0.72299999 -0.06845364 1.2418321e-38 362 294
0.054509375 0.72299999 -0.06845364 1.1772952e-38 363 294
0.055931333 0.72500002 -0.068643004 1.1952679e-38 364 294
0.057360299 0.727 -0.06883236 1.702308e-38 365 294
0.058634974 0.727 -0.06883236 1.5482404e-38 366 294
0.0025353199 0.72299999 -0.069721296 1.5847921e-38 322 295
0.0038029798 0.72299999 -0.069721296 1.3174247e-38 323 295
0.0050636264 0.722 -0.069624864 1.2792145e-38 324 295
0.0063295332 0.722 -0.069624864 1.3437515e-38 325 295
0.0075743999 0.72000003 -0.069432005 1.3803776e-38 326 295
0.0088367993 0.72000003 -0.069432005 1.3434994e-38 327 295
0.01005712 0.71700001 -0.069142699 1.3891287e-38 328 295
0.01129848 0.71600002 -0.069046266 1.3430309e-38 329 295
0.012518799 0.71399999 -0.068853401 1.3428867e-38 330 295
0.01371282 0.71100003 -0.068564095 1.3244116e-38 331 295
0.014938398 0.70999998 -0.068467662 1.2967886e-38 332 295
0.016183265 0.70999998 -0.068467662 1.2783495e-38 333 295
0.017428132 0.70999998 -0.068467662 1.0206349e-38 334 295
0.0186204 0.708 -0.068274796 9.1003601e-39 335 295
0.01986176 0.708 -0.068274796 6.2552604e-39 336 295
0.021073313 0.70700002 -0.068178371 7.7303905e-39 337 295
0.022312919 0.70700002 -0.068178371 1.1863352e-38 338 295
0.023552528 0.70700002 -0.068178371 1.149457e-38 339 295
0.024792133 0.70700002 -0.068178371 1.2228519e-38 340 295
0.026068559 0.708 -0.068274796 1.2321074e-38 341 295
0.027309919 0.708 -0.068274796 1.2046646e-38 342 295
0.02855128 0.708 -0.068274796 1.2231396e-38 343 295
0.02979264 0.708 -0.068274796 1.2139571e-38 344 295
0.031121666 0.70999998 -0.068467662 1.2139571e-38 345 295
0.032366529 0.70999998 -0.068467662 1.2139576e-38 346 295
0.033753417 0.713 -0.068756968 1.2139576e-38 347 295
0.035052639 0.71399999 -0.068853401 1.2323604e-38 348 295
0.036304519 0.71399999 -0.068853401 1.2323604e-38 349 295
0.037556399 0.71399999 -0.068853401 1.2140292e-38 350 295
0.038808275 0.71399999 -0.068853401 1.2140292e-38 351 295
0.040172372 0.71600002 -0.069046266 1.2139223e-38 352 295
0.041427758 0.71600002 -0.069046266 1.0479343e-38 353 295
0.042861983 0.71899998 -0.069335558 8.368923e-39 354 295
0.044183999 0.72000003 -0.069432005 1.0397227e-38 355 295
0.045446403 0.72000003 -0.069432005 1.2415451e-38 356 295
0.046838548 0.722 -0.069624864 1.2323254e-38 357 295
0.048104454 0.722 -0.069624864 1.2140659e-38 358 295
0.04937036 0.722 -0.069624864 1.2325051e-38 359 295
0.050706398 0.72299999 -0.069721296 1.2233937e-38 360 295
0.051974058 0.72299999 -0.069721296 1.2417968e-38 361 295
0.053241719 0.72299999 -0.069721296 1.2140306e-38 362 295
0.054660168 0.72500002 -0.069914162 1.1956274e-38 363 295
0.056085624 0.727 -0.070107035 1.2241158e-38 364 295
0.057360299 0.727 -0.070107035 1.8141678e-38 365 295
0.058634974 0.727 -0.070107035 1.7052621e-38 366 295
0.0038029798 0.72299999 -0.070988953 1.419129e-38 323 296
0.0050636264 0.722 -0.070890769 1.3167761e-38 324 296
0.0063295332 0.722 -0.070890769 1.2522391e-38 325 296
0.0075743999 0.72000003 -0.070694394 1.3804853e-38 326 296
0.0088367993 0.72000003 -0.070694394 1.343607e-38 327 296
0.01005712 0.71700001 -0.070399836 1.3983483e-38 328 296
0.01129848 0.71600002 -0.070301652 1.361434e-38 329 296
0.012553867 0.71600002 -0.070301652 1.3521063e-38 330 296
0.013751393 0.713 -0.070007093 1.3336312e-38 331 296
0.014959441 0.71100003 -0.069810718 1.3152271e-38 332 296
0.016183265 0.70999998 -0.069712527 1.2783848e-38 333 296
0.017428132 0.70999998 -0.069712527 1.0851355e-38 334 296
0.0186204 0.708 -0.069516152 9.7446477e-39 335 296
0.01986176 0.708 -0.069516152 6.3456596e-39 336 296
0.021073313 0.70700002 -0.069417976 7.9129867e-39 337 296
0.022312919 0.70700002 -0.069417976 1.1956627e-38 338 296
0.023552528 0.70700002 -0.069417976 1.1587486e-38 339 296
0.024792133 0.70700002 -0.069417976 1.241399e-38 340 296
0.026068559 0.708 -0.069516152 1.241399e-38 341 296
0.027309919 0.708 -0.069516152 1.2322517e-38 342 296
0.02855128 0.708 -0.069516152 1.2506907e-38 343 296
0.02979264 0.708 -0.069516152 1.2322888e-38 344 296
0.031121666 0.70999998 -0.069712527 1.2322888e-38 345 296
0.032412119 0.71100003 -0.069810718 1.2415084e-38 346 296
0.033800758 0.71399999 -0.070105277 1.2415084e-38 347 296
0.035052639 0.71399999 -0.070105277 1.2323607e-38 348 296
0.036304519 0.71399999 -0.070105277 1.2323607e-38 349 296
0.037661601 0.71600002 -0.070301652 1.2140292e-38 350 296
0.038916986 0.71600002 -0.070301652 1.2048097e-38 351 296
0.040172372 0.71600002 -0.070301652 1.1769361e-38 352 296
0.041427758 0.71600002 -0.070301652 1.057082e-38 353 296
0.042921603 0.72000003 -0.070694394 9.2880024e-39 354 296
0.044183999 0.72000003 -0.070694394 1.0947882e-38 355 296
0.045572639 0.722 -0.070890769 1.2232142e-38 356 296
0.046838548 0.722 -0.070890769 1.2232142e-38 357 296
0.048104454 0.722 -0.070890769 1.204919e-38 358 296
0.049438741 0.72299999 -0.070988953 1.223394e-38 359 296
0.050706398 0.72299999 -0.070988953 1.2233584e-38 360 296
0.051974058 0.72299999 -0.070988953 1.2141388e-38 361 296
0.053241719 0.72299999 -0.070988953 1.2049561e-38 362 296
0.054509375 0.72299999 -0.070988953 1.4447007e-38 363 296
0.056085624 0.727 -0.071381703 1.4095517e-38 364 296
0.057439197 0.72799999 -0.071479887 1.7322364e-38 365 296
0.0050706398 0.72299999 -0.072256617 1.4279873e-38 324 297
0.0063295332 0.722 -0.072156675 1.2435961e-38 325 297
0.0075743999 0.72000003 -0.071956798 1.3530064e-38 326 297
0.0088367993 0.72000003 -0.071956798 1.3253118e-38 327 297
0.010085173 0.71899998 -0.071856856 1.3983849e-38 328 297
0.01131426 0.71700001 -0.07165698 1.3615426e-38 329 297
0.012553867 0.71600002 -0.071557038 1.3430665e-38 330 297
0.013751393 0.713 -0.071257219 1.3245915e-38 331 297
0.014959441 0.71100003 -0.071057342 1.3153706e-38 332 297
0.01620606 0.71100003 -0.071057342 1.287676e-38 333 297
0.017428132 0.70999998 -0.070957392 1.1220131e-38 334 297
0.0186204 0.708 -0.070757516 9.9293921e-39 335 297
0.01986176 0.708 -0.070757516 5.4254983e-39 336 297
0.021073313 0.70700002 -0.070657574 7.3616066e-39 337 297
0.022312919 0.70700002 -0.070657574 1.2232858e-38 338 297
0.023552528 0.70700002 -0.070657574 1.177188e-38 339 297
0.024792133 0.70700002 -0.070657574 1.2506554e-38 340 297
0.026068559 0.708 -0.070757516 1.2506554e-38 341 297
0.027309919 0.708 -0.070757516 1.2506198e-38 342 297
0.02855128 0.708 -0.070757516 1.2506198e-38 343 297
0.029876797 0.70999998 -0.070957392 1.2506203e-38 344 297
0.031165501 0.71100003 -0.071057342 1.2506203e-38 345 297
0.032503292 0.713 -0.071257219 1.2414731e-38 346 297
0.033800758 0.71399999 -0.071357153 1.2414731e-38 347 297
0.035052639 0.71399999 -0.071357153 1.2322532e-38 348 297
0.036406212 0.71600002 -0.071557038 1.2322532e-38 349 297
0.037661601 0.71600002 -0.071557038 1.2139939e-38 350 297
0.038916986 0.71600002 -0.071557038 1.1955548e-38 351 297
0.040228479 0.71700001 -0.07165698 1.0668775e-38 352 297
0.041601337 0.71899998 -0.071856856 1.0023405e-38 353 297
0.042921603 0.72000003 -0.071956798 9.7500624e-39 354 297
0.044183999 0.72000003 -0.071956798 1.0856409e-38 355 297
0.045572639 0.722 -0.072156675 1.2139589e-38 356 297
0.046838548 0.722 -0.072156675 1.2323981e-38 357 297
0.048104454 0.722 -0.072156675 1.2049914e-38 358 297
0.04937036 0.722 -0.072156675 1.214211e-38 359 297
0.050636265 0.722 -0.072156675 1.1681499e-38 360 297
0.051902171 0.722 -0.072156675 1.1866249e-38 361 297
0.053168077 0.722 -0.072156675 1.2152925e-38 362 297
0.054509375 0.72299999 -0.072256617 1.5564165e-38 363 297
0.056085624 0.727 -0.072656378 1.5761885e-38 364 297
0.0088367993 0.72000003 -0.073219202 1.2059262e-38 327 298
0.01005712 0.71700001 -0.072914116 1.3709063e-38 328 298
0.01129848 0.71600002 -0.072812423 1.3432477e-38 329 298
0.012553867 0.71600002 -0.072812423 1.3523227e-38 330 298
0.013751393 0.713 -0.072507344 1.3338835e-38 331 298
0.014959441 0.71100003 -0.072303966 1.3246271e-38 332 298
0.01620606 0.71100003 -0.072303966 1.3154076e-38 333 298
0.017428132 0.70999998 -0.072202265 1.1497444e-38 334 298
0.0186204 0.708 -0.071998879 9.7457267e-39 335 298
0.01986176 0.708 -0.071998879 4.5964579e-39 336 298
0.021073313 0.70700002 -0.071897186 6.8095132e-39 337 298
0.022312919 0.70700002 -0.071897186 1.2141741e-38 338 298
0.023552528 0.70700002 -0.071897186 1.1588567e-38 339 298
0.024792133 0.70700002 -0.071897186 1.2506554e-38 340 298
0.026068559 0.708 -0.071998879 1.2598749e-38 341 298
0.027309919 0.708 -0.071998879 1.2506203e-38 342 298
0.028631933 0.70999998 -0.072202265 1.2506203e-38 343 298
0.029876797 0.70999998 -0.072202265 1.2505848e-38 344 298
0.031253166 0.713 -0.072507344 1.2598043e-38 345 298
0.032548878 0.71399999 -0.072609037 1.2414731e-38 346 298
0.033800758 0.71399999 -0.072609037 1.2414731e-38 347 298
0.035150826 0.71600002 -0.072812423 1.2323251e-38 348 298
0.036406212 0.71600002 -0.072812423 1.213922e-38 349 298
0.037661601 0.71600002 -0.072812423 1.2139942e-38 350 298
0.038971342 0.71700001 -0.072914116 1.1586769e-38 351 298
0.040228479 0.71700001 -0.072914116 9.0150112e-39 352 298
0.041601337 0.71899998 -0.073117502 9.1997626e-39 353 298
0.042861983 0.71899998 -0.073117502 1.0485825e-38 354 298
0.044122629 0.71899998 -0.073117502 1.1038999e-38 355 298
0.045446403 0.72000003 -0.073219202 1.18648e-38 356 298
0.0467088 0.72000003 -0.073219202 1.2049192e-38 357 298
0.048104454 0.722 -0.073422581 1.1773697e-38 358 298
0.04937036 0.722 -0.073422581 1.2326871e-38 359 298
0.050636265 0.722 -0.073422581 1.1599751e-38 360 298
0.051902171 0.722 -0.073422581 1.289049e-38 361 298
0.053168077 0.722 -0.073422581 1.3361196e-38 362 298
0.01005712 0.71700001 -0.07417126 1.306729e-38 328 299
0.01129848 0.71600002 -0.074067809 1.288254e-38 329 299
0.012553867 0.71600002 -0.074067809 1.3065125e-38 330 299
0.013751393 0.713 -0.07375747 1.2972571e-38 331 299
0.014959441 0.71100003 -0.073550582 1.3429581e-38 332 299
0.01620606 0.71100003 -0.073550582 1.3337385e-38 333 299
0.017428132 0.70999998 -0.073447131 1.2233561e-38 334 299
0.0186204 0.708 -0.073240235 1.0481844e-38 335 299
0.01986176 0.708 -0.073240235 4.7801233e-39 336 299
0.021073313 0.70700002 -0.073136792 6.5322004e-39 337 299
0.022312919 0.70700002 -0.073136792 1.1774035e-38 338 299
0.023552528 0.70700002 -0.073136792 1.1681838e-38 339 299
0.024792133 0.70700002 -0.073136792 1.232396e-38 340 299
0.026068559 0.708 -0.073240235 1.232396e-38 341 299
0.027309919 0.708 -0.073240235 1.2689873e-38 342 299
0.028631933 0.70999998 -0.073447131 1.2689873e-38 343 299
0.029918881 0.71100003 -0.073550582 1.2415084e-38 344 299
0.031296998 0.71399999 -0.073860914 1.250728e-38 345 299
0.032548878 0.71399999 -0.073860914 1.2139939e-38 346 299
0.03389544 0.71600002 -0.074067809 1.2139939e-38 347 299
0.035150826 0.71600002 -0.074067809 1.213922e-38 348 299
0.036457058 0.71700001 -0.07417126 1.2047025e-38 349 299
0.037714198 0.71700001 -0.07417126 1.2230337e-38 350 299
0.039080046 0.71899998 -0.074378148 1.1584967e-38 351 299
0.040340692 0.71899998 -0.074378148 8.5525912e-39 352 299
0.041601337 0.71899998 -0.074378148 9.5667445e-39 353 299
0.042861983 0.71899998 -0.074378148 1.0395785e-38 354 299
0.044122629 0.71899998 -0.074378148 1.0672372e-38 355 299
0.045383278 0.71899998 -0.074378148 1.1223392e-38 356 299
0.0467088 0.72000003 -0.074481606 1.1315946e-38 357 299
0.048104454 0.722 -0.074688487 1.0491962e-38 358 299
0.04937036 0.722 -0.074688487 1.1598309e-38 359 299
0.050636265 0.722 -0.074688487 1.1700235e-38 360 299
0.012518799 0.71399999 -0.075112797 1.3247733e-38 330 300
0.013751393 0.713 -0.075007595 1.306334e-38 331 300
0.015001519 0.713 -0.075007595 1.3429233e-38 332 300
0.016251646 0.713 -0.075007595 1.3429233e-38 333 300
0.017501773 0.713 -0.075007595 1.3153367e-38 334 300
0.0186204 0.708 -0.074481599 1.1770431e-38 335 300
0.01986176 0.708 -0.074481599 5.5176926e-39 336 300
0.021103119 0.708 -0.074481599 6.3474532e-39 337 300
0.022312919 0.70700002 -0.074376404 1.0946082e-38 338 300
0.023552528 0.70700002 -0.074376404 1.0853886e-38 339 300
0.024827199 0.708 -0.074481599 1.24158e-38 340 300
0.026068559 0.708 -0.074481599 1.2323604e-38 341 300
0.027309919 0.708 -0.074481599 1.2506201e-38 342 300
0.028631933 0.70999998 -0.074691996 1.2690592e-38 343 300
0.029918881 0.71100003 -0.074797198 1.2415807e-38 344 300
0.031296998 0.71399999 -0.075112797 1.2323251e-38 345 300
0.032548878 0.71399999 -0.075112797 1.2139942e-38 346 300
0.03389544 0.71600002 -0.075323202 1.1955192e-38 347 300
0.035199918 0.71700001 -0.075428396 1.2047025e-38 348 300
0.036457058 0.71700001 -0.075428396 1.1954829e-38 349 300
0.037714198 0.71700001 -0.075428396 1.1495646e-38 350 300
0.039080046 0.71899998 -0.075638793 1.0850276e-38 351 300
0.040340692 0.71899998 -0.075638793 9.7453764e-39 352 300
0.041601337 0.71899998 -0.075638793 1.075917e-38 353 300
0.042861983 0.71899998 -0.075638793 1.0305034e-38 354 300
0.044122629 0.71899998 -0.075638793 1.0765653e-38 355 300
0.045383278 0.71899998 -0.075638793 1.0858948e-38 356 300
0.01377068 0.71399999 -0.076364681 1.178052e-38 331 301
0.015001519 0.713 -0.076257721 1.2970776e-38 332 301
0.016251646 0.713 -0.076257721 1.2786383e-38 333 301
0.017501773 0.713 -0.076257721 1.3153369e-38 334 301
0.0186993 0.71100003 -0.076043822 1.2323607e-38 335 301
0.019917866 0.70999998 -0.075936861 6.8970369e-39 336 301
0.021162732 0.70999998 -0.075936861 6.8970369e-39 337 301
0.022344479 0.708 -0.075722955 9.3827218e-39 338 301
0.023585839 0.708 -0.075722955 1.0673461e-38 339 301
0.024897331 0.70999998 -0.075936861 1.2875706e-38 340 301
0.026142199 0.70999998 -0.075936861 1.2415087e-38 341 301
0.027387066 0.70999998 -0.075936861 1.2598399e-38 342 301
0.028672259 0.71100003 -0.076043822 1.2598399e-38 343 301
0.030003037 0.713 -0.076257721 1.2232139e-38 344 301
0.031296998 0.71399999 -0.076364681 1.2139942e-38 345 301
0.032548878 0.71399999 -0.076364681 1.204739e-38 346 301
0.033942781 0.71700001 -0.076685533 1.1955195e-38 347 301
0.035298105 0.71899998 -0.076899439 1.1862643e-38 348 301
0.036558751 0.71899998 -0.076899439 1.1678612e-38 349 301
0.037819397 0.71899998 -0.076899439 1.0760617e-38 350 301
0.039080046 0.71899998 -0.076899439 1.0299999e-38 351 301
0.040340692 0.71899998 -0.076899439 9.1061377e-39 352 301
0.041601337 0.71899998 -0.076899439 1.0396877e-38 353 301
0.018751899 0.713 -0.077507854 1.1957347e-38 335 302
0.01994592 0.71100003 -0.077290438 7.7253584e-39 336 302
0.021162732 0.70999998 -0.077181734 6.9874347e-39 337 302
0.022344479 0.708 -0.076964319 7.5431308e-39 338 302
0.023585839 0.708 -0.076964319 9.5714346e-39 339 302
0.024897331 0.70999998 -0.077181734 1.3151217e-38 340 302
0.026142199 0.70999998 -0.077181734 1.2598043e-38 341 302
0.027387066 0.70999998 -0.077181734 1.2414734e-38 342 302
0.028672259 0.71100003 -0.077290438 1.2506931e-38 343 302
0.030003037 0.713 -0.077507854 1.1956276e-38 344 302
0.031296998 0.71399999 -0.07761655 1.1864081e-38 345 302
0.032548878 0.71399999 -0.07761655 1.1588214e-38 346 302
0.033942781 0.71700001 -0.077942684 1.1496019e-38 347 302
0.035298105 0.71899998 -0.078160092 1.0945366e-38 348 302
0.036558751 0.71899998 -0.078160092 1.0945366e-38 349 302
0.01986176 0.708 -0.078205675 8.0945025e-39 336 303
0.021103119 0.708 -0.078205675 7.265102e-39 337 303
0.022344479 0.708 -0.078205675 6.6226136e-39 338 303
