# .PCD v.7 - Point Cloud Data file format
FIELDS x y z rgb imX imY
SIZE 4 4 4 4 4 4
TYPE F F F F F F
COUNT 1 1 1 1 1 1
WIDTH 839
HEIGHT 1
VIEWPOINT 0 0 0 1 0 0 0
POINTS 839
DATA ascii
0.023452586 0.704 0.019749546 1.3646754e-38 339 224
0.024757065 0.70599997 0.019805651 1.3553837e-38 340 224
0.026142199 0.70999998 0.019917866 1.3276891e-38 341 224
-0.035745207 0.70300001 0.018488899 2.9603789e-39 291 225
-0.034512613 0.70300001 0.018488899 5.5487089e-39 292 225
-0.033280019 0.70300001 0.018488899 9.697871e-39 293 225
-0.031956252 0.70099998 0.018436298 1.4850368e-38 294 225
-0.030683333 0.69999999 0.018409999 1.5311347e-38 295 225
-0.029371841 0.69800001 0.0183574 1.5679025e-38 296 225
-0.028148014 0.69800001 0.0183574 1.5586828e-38 297 225
-0.026885614 0.69700003 0.018331099 1.5494629e-38 298 225
-0.025663542 0.69700003 0.018331099 1.5586825e-38 299 225
-0.024441468 0.69700003 0.018331099 1.5955254e-38 300 225
-0.023186078 0.69599998 0.018304799 1.604745e-38 301 225
-0.021902639 0.69400001 0.0182522 1.6689947e-38 302 225
-0.020685827 0.69400001 0.0182522 1.6689947e-38 303 225
-0.019469013 0.69400001 0.0182522 1.6782498e-38 304 225
-0.0182522 0.69400001 0.0182522 1.6874694e-38 305 225
-0.01701084 0.69300002 0.018225901 1.6783214e-38 306 225
-0.015795778 0.69300002 0.018225901 1.6783214e-38 307 225
-0.014538639 0.69099998 0.0181733 1.7058359e-38 308 225
-0.013327086 0.69099998 0.0181733 1.7150555e-38 309 225
-0.012097999 0.69 0.018146999 1.7242007e-38 310 225
-0.010888199 0.69 0.018146999 1.6136018e-38 311 225
-0.0096783992 0.69 0.018146999 1.4835533e-38 312 225
-0.0084686 0.69 0.018146999 9.9488043e-39 313 225
-0.0072587994 0.69 0.018146999 5.0746623e-39 314 225
-0.0060489997 0.69 0.018146999 5.7200317e-39 315 225
0.0036504399 0.69400001 0.0182522 4.9771221e-39 323 225
0.0048672534 0.69400001 0.0182522 4.4246686e-39 324 225
0.0060840664 0.69400001 0.0182522 4.2402759e-39 325 225
0.0073008798 0.69400001 0.0182522 3.8700641e-39 326 225
0.0085054198 0.69300002 0.018225901 3.5016417e-39 327 225
0.0097204801 0.69300002 0.018225901 3.0403104e-39 328 225
0.010935539 0.69300002 0.018225901 2.8559191e-39 329 225
0.012150601 0.69300002 0.018225901 2.4885786e-39 330 225
0.013384946 0.69400001 0.0182522 2.3963829e-39 331 225
0.01460176 0.69400001 0.0182522 3.8395578e-43 332 225
0.015909746 0.69800001 0.0183574 3.9676771e-39 333 225
0.017133573 0.69800001 0.0183574 1.4569449e-38 334 225
0.0183574 0.69800001 0.0183574 1.4661644e-38 335 225
0.019581227 0.69800001 0.0183574 1.4199575e-38 336 225
0.020864666 0.69999999 0.018409999 1.410702e-38 337 225
0.022091998 0.69999999 0.018409999 1.3831512e-38 338 225
0.023419274 0.70300001 0.018488899 1.3647121e-38 339 225
0.024757065 0.70599997 0.018567799 1.3553481e-38 340 225
0.02603174 0.70700002 0.018594101 1.3553481e-38 341 225
-0.036977798 0.70300001 0.017256306 2.9535196e-39 290 226
-0.035745207 0.70300001 0.017256306 5.564332e-40 291 226
-0.034414422 0.70099998 0.017207211 1.4081648e-41 292 226
-0.03318534 0.70099998 0.017207211 2.5073251e-39 293 226
-0.031910665 0.69999999 0.017182667 1.1352348e-38 294 226
-0.030595668 0.69800001 0.017133573 1.3104065e-38 295 226
-0.029371841 0.69800001 0.017133573 1.540173e-38 296 226
-0.028148014 0.69800001 0.017133573 1.540173e-38 297 226
-0.026885614 0.69700003 0.017109027 1.5769788e-38 298 226
-0.025663542 0.69700003 0.017109027 1.595418e-38 299 226
-0.0244064 0.69599998 0.017084479 1.595418e-38 300 226
-0.023186078 0.69599998 0.017084479 1.6322961e-38 301 226
-0.021902639 0.69400001 0.017035386 1.6414437e-38 302 226
-0.020685827 0.69400001 0.017035386 1.6506634e-38 303 226
-0.01944096 0.69300002 0.01701084 1.6324038e-38 304 226
-0.018225901 0.69300002 0.01701084 1.6508069e-38 305 226
-0.01701084 0.69300002 0.01701084 1.6875413e-38 306 226
-0.015750192 0.69099998 0.016961746 1.7059804e-38 307 226
-0.014538639 0.69099998 0.016961746 1.7058006e-38 308 226
-0.0133078 0.69 0.0169372 1.7058006e-38 309 226
-0.012062933 0.68800002 0.016888106 1.761046e-38 310 226
-0.010856641 0.68800002 0.016888106 1.7979242e-38 311 226
-0.0096363192 0.68699998 0.01686356 1.8528059e-38 312 226
-0.0084317802 0.68699998 0.01686356 1.428706e-38 313 226
-0.0072377604 0.68800002 0.016888106 1.0409747e-38 314 226
-0.0060314666 0.68800002 0.016888106 7.7360742e-39 315 226
0.0036504399 0.69400001 0.017035386 4.7023303e-39 323 226
0.00486024 0.69300002 0.01701084 4.7927252e-39 324 226
0.0060753003 0.69300002 0.01701084 4.2399102e-39 325 226
0.0072903596 0.69300002 0.01701084 4.237406e-39 326 226
0.0085054198 0.69300002 0.01701084 3.5920366e-39 327 226
0.0097204801 0.69300002 0.01701084 2.8559191e-39 328 226
0.010935539 0.69300002 0.01701084 2.6711691e-39 329 226
0.012150601 0.69300002 0.01701084 2.0290493e-39 330 226
0.013384946 0.69400001 0.017035386 1.9368537e-39 331 226
0.01460176 0.69400001 0.017035386 2.2420775e-44 332 226
0.015886955 0.69700003 0.017109027 2.9531693e-39 333 226
0.017133573 0.69800001 0.017133573 1.447725e-38 334 226
0.0183574 0.69800001 0.017133573 1.4753839e-38 335 226
0.019581227 0.69800001 0.017133573 1.4016622e-38 336 226
0.020864666 0.69999999 0.017182667 1.3832231e-38 337 226
0.022091998 0.69999999 0.017182667 1.401518e-38 338 226
0.023352645 0.70099998 0.017207211 1.3646398e-38 339 226
0.024686933 0.704 0.017280852 1.3829344e-38 340 226
0.025994917 0.70599997 0.017329946 1.3644953e-38 341 226
0.027309919 0.708 0.017379038 1.373678e-38 342 226
0.028631933 0.70999998 0.017428132 1.3275442e-38 343 226
0.029918881 0.71100003 0.01745268 1.0226856e-38 344 226
0.031296998 0.71399999 0.017526319 7.0925643e-39 345 226
-0.036977798 0.70300001 0.016023712 5.162249e-39 290 227
-0.035745207 0.70300001 0.016023712 4.5168796e-39 291 227
-0.034414422 0.70099998 0.015978126 3.9852928e-42 292 227
-0.03318534 0.70099998 0.015978126 6.5079664e-40 293 227
-0.03177391 0.69700003 0.015886955 5.7398951e-39 294 227
-0.030551834 0.69700003 0.015886955 1.0995046e-38 295 227
-0.02932976 0.69700003 0.015886955 1.6692463e-38 296 227
-0.028107686 0.69700003 0.015886955 1.6969411e-38 297 227
-0.026847038 0.69599998 0.015864158 1.7060523e-38 298 227
-0.025626717 0.69599998 0.015864158 1.6692101e-38 299 227
-0.024336265 0.69400001 0.015818574 1.6506989e-38 300 227
-0.023119451 0.69400001 0.015818574 1.6506989e-38 301 227
-0.021871079 0.69300002 0.015795778 1.6414435e-38 302 227
-0.020656019 0.69300002 0.015795778 1.6414435e-38 303 227
-0.01944096 0.69300002 0.015795778 1.6506634e-38 304 227
-0.018225901 0.69300002 0.015795778 1.6506634e-38 305 227
-0.016961746 0.69099998 0.015750192 1.6873618e-38 306 227
-0.015750192 0.69099998 0.015750192 1.6689226e-38 307 227
-0.014517599 0.69 0.015727401 1.6597031e-38 308 227
-0.0133078 0.69 0.015727401 1.641264e-38 309 227
-0.012062933 0.68800002 0.015681813 1.6136776e-38 310 227
-0.010856641 0.68800002 0.015681813 1.6136776e-38 311 227
-0.0096363192 0.68699998 0.015659019 1.6505186e-38 312 227
-0.0084317802 0.68699998 0.015659019 1.7519336e-38 313 227
-0.0072377604 0.68800002 0.015681813 1.6861316e-38 314 227
-0.0060314666 0.68800002 0.015681813 1.0776404e-38 315 227
-0.0048391996 0.69 0.015727401 5.3501603e-39 316 227
0.0036504399 0.69400001 0.015818574 4.7945287e-39 323 227
0.0048391996 0.69 0.015727401 4.4253902e-39 324 227
0.0060489997 0.69 0.015727401 3.9644121e-39 325 227
0.0072903596 0.69300002 0.015795778 3.5938373e-39 326 227
0.0085054198 0.69300002 0.015795778 3.3168917e-39 327 227
0.0097204801 0.69300002 0.015795778 2.4885758e-39 328 227
0.010856641 0.68800002 0.015681813 2.212349e-39 329 227
0.012062933 0.68800002 0.015681813 2.1205163e-39 330 227
0.01336566 0.69300002 0.015795778 2.2127119e-39 331 227
0.01460176 0.69400001 0.015818574 1.836794e-40 332 227
0.015886955 0.69700003 0.015886955 3.8668411e-39 333 227
0.017109027 0.69700003 0.015886955 1.4384689e-38 334 227
0.0183574 0.69800001 0.015909746 1.4661276e-38 335 227
0.019581227 0.69800001 0.015909746 1.410702e-38 336 227
0.020864666 0.69999999 0.015955333 1.410702e-38 337 227
0.022091998 0.69999999 0.015955333 1.36482e-38 338 227
0.023352645 0.70099998 0.015978126 1.3556004e-38 339 227
0.024686933 0.704 0.016046507 1.3554202e-38 340 227
0.025994917 0.70599997 0.016092092 1.3462007e-38 341 227
0.027271347 0.70700002 0.016114887 1.3369443e-38 342 227
0.02855128 0.708 0.01613768 1.3369443e-38 343 227
0.029918881 0.71100003 0.01620606 1.2074015e-38 344 227
0.031296998 0.71399999 0.016274439 8.7549723e-39 345 227
0.032548878 0.71399999 0.016274439 7.097246e-39 346 227
-0.032948639 0.69599998 0.014643839 2.5868656e-39 293 228
-0.031728316 0.69599998 0.014643839 1.4110595e-38 294 228
-0.030507999 0.69599998 0.014643839 1.5770475e-38 295 228
-0.029287677 0.69599998 0.014643839 1.7336741e-38 296 228
-0.028067358 0.69599998 0.014643839 1.7152709e-38 297 228
-0.026769891 0.69400001 0.01460176 1.7060157e-38 298 228
-0.025553079 0.69400001 0.01460176 1.678357e-38 299 228
-0.024336265 0.69400001 0.01460176 1.6965811e-38 300 228
-0.02308614 0.69300002 0.014580719 1.6689582e-38 301 228
-0.021871079 0.69300002 0.014580719 1.659775e-38 302 228
-0.020656019 0.69300002 0.014580719 1.659775e-38 303 228
-0.019384852 0.69099998 0.014538639 1.6230409e-38 304 228
-0.0181733 0.69099998 0.014538639 1.6230409e-38 305 228
-0.016961746 0.69099998 0.014538639 1.6229693e-38 306 228
-0.015727401 0.69 0.014517599 1.6229693e-38 307 228
-0.014517599 0.69 0.014517599 1.5861631e-38 308 228
-0.0133078 0.69 0.014517599 1.5769435e-38 309 228
-0.012062933 0.68800002 0.014475521 1.5493926e-38 310 228
-0.010856641 0.68800002 0.014475521 1.540173e-38 311 228
-0.0096363192 0.68699998 0.014454478 1.5585043e-38 312 228
-0.0084317802 0.68699998 0.014454478 1.6414805e-38 313 228
-0.0072377604 0.68800002 0.014475521 1.7607195e-38 314 228
-0.0060314666 0.68800002 0.014475521 1.4195956e-38 315 228
-0.0048251734 0.68800002 0.014475521 1.0593455e-38 316 228
-0.0036136196 0.68699998 0.014454478 7.2744122e-39 317 228
-0.0024090798 0.68699998 0.014454478 5.1668761e-39 318 228
-0.0012062934 0.68800002 0.014475521 5.3516275e-39 319 228
0.0012115532 0.69099998 0.014538639 4.9789143e-39 321 228
0.0024195998 0.69 0.014517599 4.6105004e-39 322 228
0.0036293997 0.69 0.014517599 4.4264692e-39 323 228
0.0048391996 0.69 0.014517599 4.4246714e-39 324 228
0.0060489997 0.69 0.014517599 3.8714976e-39 325 228
0.0072587994 0.69 0.014517599 3.7771496e-39 326 228
0.0085054198 0.69300002 0.014580719 3.2239758e-39 327 228
0.0097204801 0.69300002 0.014580719 2.4889317e-39 328 228
0.010856641 0.68800002 0.014475521 2.2123448e-39 329 228
0.012062933 0.68800002 0.014475521 1.9372068e-39 330 228
0.01336566 0.69300002 0.014580719 1.7524555e-39 331 228
0.01460176 0.69400001 0.01460176 4.2038954e-45 332 228
0.015864158 0.69599998 0.014643839 3.318342e-39 333 228
0.017084479 0.69599998 0.014643839 1.4384686e-38 334 228
0.018331099 0.69700003 0.01466488 1.4569077e-38 335 228
0.019581227 0.69800001 0.01468592 1.3924427e-38 336 228
0.020805053 0.69800001 0.01468592 1.3832231e-38 337 228
0.02202888 0.69800001 0.01468592 1.3831509e-38 338 228
0.023352645 0.70099998 0.014749039 1.3739314e-38 339 228
0.024651866 0.70300001 0.014791119 1.364747e-38 340 228
0.025994917 0.70599997 0.014854239 1.3278689e-38 341 228
0.027232772 0.70599997 0.014854239 1.318613e-38 342 228
0.028510952 0.70700002 0.01487528 1.318613e-38 343 228
0.029918881 0.71100003 0.014959441 1.2721552e-38 344 228
0.031165501 0.71100003 0.014959441 1.0601053e-38 345 228
-0.032853961 0.69400001 0.013384946 1.1062733e-38 293 229
-0.031637147 0.69400001 0.013384946 1.8347281e-38 294 229
-0.030420333 0.69400001 0.013384946 1.8347281e-38 295 229
-0.029203519 0.69400001 0.013384946 1.7336021e-38 296 229
-0.027986705 0.69400001 0.013384946 1.7059075e-38 297 229
-0.026769891 0.69400001 0.013384946 1.6875413e-38 298 229
-0.02551626 0.69300002 0.01336566 1.6783217e-38 299 229
-0.024301201 0.69300002 0.01336566 1.6689947e-38 300 229
-0.02308614 0.69300002 0.01336566 1.6689947e-38 301 229
-0.021807959 0.69099998 0.013327086 1.659775e-38 302 229
-0.020596405 0.69099998 0.013327086 1.6505554e-38 303 229
-0.019384852 0.69099998 0.013327086 1.6046378e-38 304 229
-0.0181733 0.69099998 0.013327086 1.6046378e-38 305 229
-0.0169372 0.69 0.0133078 1.6137495e-38 306 229
-0.015727401 0.69 0.0133078 1.6045299e-38 307 229
-0.014475521 0.68800002 0.013269227 1.5769435e-38 308 229
-0.013269227 0.68800002 0.013269227 1.5677238e-38 309 229
-0.012045399 0.68699998 0.013249939 1.5401011e-38 310 229
-0.010840859 0.68699998 0.013249939 1.5401011e-38 311 229
-0.0096363192 0.68699998 0.013249939 1.5400655e-38 312 229
-0.0084317802 0.68699998 0.013249939 1.5400655e-38 313 229
-0.0072377604 0.68800002 0.013269227 1.6137848e-38 314 229
-0.0060226996 0.68699998 0.013249939 1.6875413e-38 315 229
-0.0048181596 0.68699998 0.013249939 1.4836271e-38 316 229
-0.0036136196 0.68699998 0.013249939 8.1059903e-39 317 229
-0.0024090798 0.68699998 0.013249939 4.2434793e-39 318 229
-0.0012045399 0.68699998 0.013249939 4.4282293e-39 319 229
0 0.68800002 0.013269227 4.9785612e-39 320 229
0.0012062934 0.68800002 0.013269227 4.6097787e-39 321 229
0.0024125867 0.68800002 0.013269227 4.3339233e-39 322 229
0.0036293997 0.69 0.0133078 4.2413689e-39 323 229
0.0048251734 0.68800002 0.013269227 3.9640618e-39 324 229
0.0060314666 0.68800002 0.013269227 3.6871161e-39 325 229
0.0072377604 0.68800002 0.013269227 3.4090901e-39 326 229
0.0084440531 0.68800002 0.013269227 3.0403076e-39 327 229
0.0096503468 0.68800002 0.013269227 2.4889261e-39 328 229
0.010856641 0.68800002 0.013269227 2.2126979e-39 329 229
0.012062933 0.68800002 0.013269227 1.9364768e-39 330 229
0.01336566 0.69300002 0.01336566 1.5676957e-39 331 229
0.01460176 0.69400001 0.013384946 1.4012985e-45 332 229
0.015864158 0.69599998 0.013423519 4.1491733e-39 333 229
0.017084479 0.69599998 0.013423519 1.466055e-38 334 229
0.018304799 0.69599998 0.013423519 1.4937137e-38 335 229
0.019553173 0.69700003 0.013442807 1.3832234e-38 336 229
0.020805053 0.69800001 0.013462093 1.3832234e-38 337 229
0.02202888 0.69800001 0.013462093 1.3648203e-38 338 229
0.023319334 0.69999999 0.013500666 1.3555648e-38 339 229
0.024581732 0.70099998 0.013519952 1.3371609e-38 340 229
0.02592128 0.704 0.013577812 1.3186859e-38 341 229
0.027232772 0.70599997 0.013616386 1.3369808e-38 342 229
0.028470624 0.70599997 0.013616386 1.3001384e-38 343 229
0.02979264 0.708 0.013654959 1.3275445e-38 344 229
0.031165501 0.71100003 0.01371282 1.2261653e-38 345 229
0.032503292 0.713 0.013751393 7.9234096e-39 346 229
-0.034021679 0.69300002 0.012150601 1.1246405e-38 292 230
-0.03280662 0.69300002 0.012150601 1.5210819e-38 293 230
-0.031591557 0.69300002 0.012150601 1.8347649e-38 294 230
-0.0303765 0.69300002 0.012150601 1.7979227e-38 295 230
-0.029203519 0.69400001 0.012168133 1.706016e-38 296 230
-0.027986705 0.69400001 0.012168133 1.687541e-38 297 230
-0.02673132 0.69300002 0.012150601 1.6874697e-38 298 230
-0.02551626 0.69300002 0.012150601 1.6782142e-38 299 230
-0.024301201 0.69300002 0.012150601 1.641444e-38 300 230
-0.023019511 0.69099998 0.012115533 1.6321886e-38 301 230
-0.021807959 0.69099998 0.012115533 1.622969e-38 302 230
-0.020596405 0.69099998 0.012115533 1.6137495e-38 303 230
-0.019356798 0.69 0.012097999 1.5954182e-38 304 230
-0.018146999 0.69 0.012097999 1.5861987e-38 305 230
-0.016888106 0.68800002 0.012062933 1.5586123e-38 306 230
-0.015681813 0.68800002 0.012062933 1.5493926e-38 307 230
-0.014475521 0.68800002 0.012062933 1.5401374e-38 308 230
-0.013249939 0.68699998 0.012045399 1.5309179e-38 309 230
-0.012045399 0.68699998 0.012045399 1.5216983e-38 310 230
-0.010840859 0.68699998 0.012045399 1.5216983e-38 311 230
-0.0096222926 0.68599999 0.012027865 1.5033671e-38 312 230
-0.0084195063 0.68599999 0.012027865 1.5033671e-38 313 230
-0.0072272392 0.68699998 0.012045399 1.5218059e-38 314 230
-0.0060226996 0.68699998 0.012045399 1.6140016e-38 315 230
-0.0048111463 0.68599999 0.012027865 1.6318977e-38 316 230
-0.00360836 0.68599999 0.012027865 1.2170172e-38 317 230
-0.0024090798 0.68699998 0.012045399 6.8134508e-39 318 230
-0.0012045399 0.68699998 0.012045399 3.5866066e-39 319 230
0 0.68699998 0.012045399 2.4017555e-39 320 230
0.0012062934 0.68800002 0.012062933 2.770538e-39 321 230
0.0024125867 0.68800002 0.012062933 2.5832951e-39 322 230
0.0036188802 0.68800002 0.012062933 2.122317e-39 323 230
0.0048251734 0.68800002 0.012062933 1.3851177e-39 324 230
0.0060314666 0.68800002 0.012062933 8.3194389e-40 325 230
0.0072377604 0.68800002 0.012062933 5.5571994e-40 326 230
0.0084440531 0.68800002 0.012062933 3.7096995e-40 327 230
0.0096503468 0.68800002 0.012062933 1.8657448e-40 328 230
0.010856641 0.68800002 0.012062933 1.8657448e-40 329 230
0.012062933 0.68800002 0.012062933 1.4615543e-42 330 230
0.0133078 0.69 0.012097999 1.1014206e-42 331 230
0.01460176 0.69400001 0.012168133 0 332 230
0.015818574 0.69400001 0.012168133 4.61375e-39 333 230
0.017035386 0.69400001 0.012168133 1.4844941e-38 334 230
0.0182522 0.69400001 0.012168133 1.4752746e-38 335 230
0.019525118 0.69599998 0.0122032 1.392443e-38 336 230
0.020775247 0.69700003 0.012220734 1.3832234e-38 337 230
0.02199732 0.69700003 0.012220734 1.3555648e-38 338 230
0.023252707 0.69800001 0.012238266 1.3555648e-38 339 230
0.024546666 0.69999999 0.012273333 1.3463806e-38 340 230
0.025884461 0.70300001 0.012325933 1.3371609e-38 341 230
0.027155625 0.704 0.012343466 1.3369808e-38 342 230
0.028389972 0.704 0.012343466 1.3093582e-38 343 230
0.029750559 0.70700002 0.012396066 1.3277243e-38 344 230
0.031121666 0.70999998 0.012448666 1.2816266e-38 345 230
0.032412119 0.71100003 0.0124662 9.4943296e-39 346 230
-0.033923492 0.69099998 0.01090398 1.4748764e-38 292 231
-0.032711938 0.69099998 0.01090398 1.8067807e-38 293 231
-0.031591557 0.69300002 0.010935539 1.7887397e-38 294 231
-0.0303765 0.69300002 0.010935539 1.7518614e-38 295 231
-0.029161438 0.69300002 0.010935539 1.7058725e-38 296 231
-0.027946379 0.69300002 0.010935539 1.6874694e-38 297 231
-0.02673132 0.69300002 0.010935539 1.6782142e-38 298 231
-0.025442619 0.69099998 0.01090398 1.659775e-38 299 231
-0.024231065 0.69099998 0.01090398 1.6321886e-38 300 231
-0.023019511 0.69099998 0.01090398 1.622969e-38 301 231
-0.021776399 0.69 0.010888199 1.5954182e-38 302 231
-0.020566599 0.69 0.010888199 1.5861987e-38 303 231
-0.019356798 0.69 0.010888199 1.5586123e-38 304 231
-0.018146999 0.69 0.010888199 1.5493926e-38 305 231
-0.016888106 0.68800002 0.010856641 1.5493926e-38 306 231
-0.015659019 0.68699998 0.010840859 1.540173e-38 307 231
-0.014454478 0.68699998 0.010840859 1.5309535e-38 308 231
-0.013249939 0.68699998 0.010840859 1.5309535e-38 309 231
-0.012045399 0.68699998 0.010840859 1.5033671e-38 310 231
-0.010825079 0.68599999 0.010825079 1.4941475e-38 311 231
-0.0096222926 0.68599999 0.010825079 1.5032952e-38 312 231
-0.0084195063 0.68599999 0.010825079 1.5032952e-38 313 231
-0.0072167199 0.68599999 0.010825079 1.4850359e-38 314 231
-0.0060139326 0.68599999 0.010825079 1.4850359e-38 315 231
-0.0048111463 0.68599999 0.010825079 1.5952733e-38 316 231
-0.00360836 0.68599999 0.010825079 1.4938583e-38 317 231
-0.0024055731 0.68599999 0.010825079 1.0227226e-38 318 231
-0.0012027866 0.68599999 0.010825079 1.8374274e-39 319 231
0 0.68699998 0.010840859 4.6705278e-42 320 231
0.0012045399 0.68699998 0.010840859 7.5515974e-42 321 231
0.0024125867 0.68800002 0.010856641 6.8621586e-42 322 231
0.0036188802 0.68800002 0.010856641 4.7013563e-42 323 231
0.0048181596 0.68699998 0.010840859 1.4727647e-42 324 231
0.0060226996 0.68699998 0.010840859 1.112631e-42 325 231
0.0072272392 0.68699998 0.010840859 1.4867777e-42 326 231
0.0084317802 0.68699998 0.010840859 3.6475799e-42 327 231
0.0096363192 0.68699998 0.010840859 6.1727197e-42 328 231
0.010856641 0.68800002 0.010856641 1.013419e-41 329 231
0.012062933 0.68800002 0.010856641 9.2777449e-40 330 231
0.0133078 0.69 0.010888199 3.7460071e-40 331 231
0.014580719 0.69300002 0.010935539 1.9234223e-40 332 231
0.015795778 0.69300002 0.010935539 6.0006669e-39 333 231
0.01701084 0.69300002 0.010935539 1.456908e-38 334 231
0.0182522 0.69400001 0.01095132 1.4384689e-38 335 231
0.019525118 0.69599998 0.010982879 1.3648566e-38 336 231
0.020745439 0.69599998 0.010982879 1.355637e-38 337 231
0.02199732 0.69700003 0.01099866 1.3556367e-38 338 231
0.023252707 0.69800001 0.01101444 1.3464172e-38 339 231
0.024546666 0.69999999 0.011045999 1.3556002e-38 340 231
0.025884461 0.70300001 0.01109334 1.3371609e-38 341 231
0.027155625 0.704 0.011109119 1.346236e-38 342 231
0.028389972 0.704 0.011109119 1.3185774e-38 343 231
0.029708479 0.70599997 0.011140679 1.318505e-38 344 231
0.031121666 0.70999998 0.011203799 1.318505e-38 345 231
0.032412119 0.71100003 0.01121958 1.1338968e-38 346 231
-0.035236739 0.69300002 0.0097204801 1.050704e-38 291 232
-0.033923492 0.69099998 0.0096924258 1.705438e-38 292 232
-0.032711938 0.69099998 0.0096924258 1.8713542e-38 293 232
-0.031500384 0.69099998 0.0096924258 1.7519336e-38 294 232
-0.030288832 0.69099998 0.0096924258 1.7242751e-38 295 232
-0.029077278 0.69099998 0.0096924258 1.7058725e-38 296 232
-0.027865725 0.69099998 0.0096924258 1.6782498e-38 297 232
-0.026654173 0.69099998 0.0096924258 1.6506634e-38 298 232
-0.025442619 0.69099998 0.0096924258 1.6322242e-38 299 232
-0.024231065 0.69099998 0.0096924258 1.5954182e-38 300 232
-0.023019511 0.69099998 0.0096924258 1.5861987e-38 301 232
-0.021776399 0.69 0.0096783992 1.5678674e-38 302 232
-0.020566599 0.69 0.0096783992 1.5678674e-38 303 232
-0.019300694 0.68800002 0.0096503468 1.5493923e-38 304 232
-0.0180944 0.68800002 0.0096503468 1.5493923e-38 305 232
-0.016888106 0.68800002 0.0096503468 1.5218059e-38 306 232
-0.015659019 0.68699998 0.0096363192 1.5125864e-38 307 232
-0.014454478 0.68699998 0.0096363192 1.5218059e-38 308 232
-0.013249939 0.68699998 0.0096363192 1.5125864e-38 309 232
-0.012027865 0.68599999 0.0096222926 1.5032949e-38 310 232
-0.010825079 0.68599999 0.0096222926 1.5032949e-38 311 232
-0.0096222926 0.68599999 0.0096222926 1.4848203e-38 312 232
-0.0084195063 0.68599999 0.0096222926 1.4848203e-38 313 232
-0.0072167199 0.68599999 0.0096222926 1.4756371e-38 314 232
-0.0060139326 0.68599999 0.0096222926 1.457234e-38 315 232
-0.0048111463 0.68599999 0.0096222926 1.4756361e-38 316 232
-0.00360836 0.68599999 0.0096222926 1.4571611e-38 317 232
-0.0023985601 0.68400002 0.0095942402 1.272407e-38 318 232
-0.00119928 0.68400002 0.0095942402 7.6536694e-39 319 232
0 0.68599999 0.0096222926 8.398346e-40 320 232
0.0012045399 0.68699998 0.0096363192 4.8042467e-39 321 232
0.0024090798 0.68699998 0.0096363192 7.5697821e-39 322 232
0.0036136196 0.68699998 0.0096363192 8.3999015e-39 323 232
0.0048181596 0.68699998 0.0096363192 9.5941259e-39 324 232
0.0060226996 0.68699998 0.0096363192 9.8707128e-39 325 232
0.0072272392 0.68699998 0.0096363192 1.0423889e-38 326 232
0.0084317802 0.68699998 0.0096363192 1.0977063e-38 327 232
0.0096363192 0.68699998 0.0096363192 1.1345848e-38 328 232
0.010840859 0.68699998 0.0096363192 1.1806468e-38 329 232
0.012062933 0.68800002 0.0096503468 1.2357123e-38 330 232
0.013269227 0.68800002 0.0096503468 1.2080537e-38 331 232
0.014538639 0.69099998 0.0096924258 1.1619912e-38 332 232
0.015750192 0.69099998 0.0096924258 1.2449672e-38 333 232
0.01701084 0.69300002 0.0097204801 1.3925876e-38 334 232
0.018225901 0.69300002 0.0097204801 1.3741483e-38 335 232
0.019469013 0.69400001 0.0097345067 1.3740761e-38 336 232
0.020745439 0.69599998 0.0097625591 1.355637e-38 337 232
0.021965759 0.69599998 0.0097625591 1.3555648e-38 338 232
0.023219392 0.69700003 0.0097765867 1.3555648e-38 339 232
0.024476532 0.69800001 0.0097906133 1.3371973e-38 340 232
0.025773998 0.69999999 0.0098186666 1.3371973e-38 341 232
0.027039904 0.70099998 0.0098326923 1.337089e-38 342 232
0.028349647 0.70300001 0.0098607466 1.318614e-38 343 232
0.029624319 0.704 0.0098747732 1.2909905e-38 344 232
0.031121666 0.70999998 0.0099589331 1.2725874e-38 345 232
0.032412119 0.71100003 0.0099729598 1.318216e-38 346 232
-0.036451802 0.69300002 0.0085054198 8.2003538e-39 290 233
-0.035236739 0.69300002 0.0085054198 1.502247e-38 291 233
-0.033923492 0.69099998 0.008480873 1.7793028e-38 292 233
-0.032711938 0.69099998 0.008480873 1.8162171e-38 293 233
-0.031500384 0.69099998 0.008480873 1.6875766e-38 294 233
-0.030288832 0.69099998 0.008480873 1.6875766e-38 295 233
-0.029077278 0.69099998 0.008480873 1.6783217e-38 296 233
-0.027865725 0.69099998 0.008480873 1.6506989e-38 297 233
-0.026654173 0.69099998 0.008480873 1.6322605e-38 298 233
-0.025405798 0.69 0.0084686 1.5954182e-38 299 233
-0.024195999 0.69 0.0084686 1.586235e-38 300 233
-0.022986198 0.69 0.0084686 1.5678319e-38 301 233
-0.021776399 0.69 0.0084686 1.5769435e-38 302 233
-0.020506985 0.68800002 0.0084440531 1.5677238e-38 303 233
-0.019300694 0.68800002 0.0084440531 1.5218059e-38 304 233
-0.0180944 0.68800002 0.0084440531 1.5218059e-38 305 233
-0.01686356 0.68699998 0.0084317802 1.5125864e-38 306 233
-0.015659019 0.68699998 0.0084317802 1.5125864e-38 307 233
-0.014454478 0.68699998 0.0084317802 1.5125864e-38 308 233
-0.013230653 0.68599999 0.0084195063 1.5033668e-38 309 233
-0.012027865 0.68599999 0.0084195063 1.5032952e-38 310 233
-0.010825079 0.68599999 0.0084195063 1.4940756e-38 311 233
-0.0096222926 0.68599999 0.0084195063 1.49404e-38 312 233
-0.0084195063 0.68599999 0.0084195063 1.4848203e-38 313 233
-0.0072167199 0.68599999 0.0084195063 1.4848203e-38 314 233
-0.0060139326 0.68599999 0.0084195063 1.4663812e-38 315 233
-0.0048111463 0.68599999 0.0084195063 1.4571611e-38 316 233
-0.00360836 0.68599999 0.0084195063 1.438758e-38 317 233
-0.0023985601 0.68400002 0.0083949603 1.3832231e-38 318 233
-0.00119928 0.68400002 0.0083949603 1.1896123e-38 319 233
0 0.68599999 0.0084195063 1.088305e-38 320 233
0.0012027866 0.68599999 0.0084195063 1.1897202e-38 321 233
0.0024090798 0.68699998 0.0084317802 1.2819534e-38 322 233
0.0036136196 0.68699998 0.0084317802 1.3648934e-38 323 233
0.0048111463 0.68599999 0.0084195063 1.4478696e-38 324 233
0.0059964 0.68400002 0.0083949603 1.4755642e-38 325 233
0.0071956799 0.68400002 0.0083949603 1.5123696e-38 326 233
0.0084195063 0.68599999 0.0084195063 1.5216252e-38 327 233
0.0096222926 0.68599999 0.0084195063 1.50315e-38 328 233
0.010825079 0.68599999 0.0084195063 1.4939305e-38 329 233
0.012045399 0.68699998 0.0084317802 1.4847112e-38 330 233
0.013249939 0.68699998 0.0084317802 1.4754557e-38 331 233
0.014475521 0.68800002 0.0084440531 1.447905e-38 332 233
0.015727401 0.69 0.0084686 1.4018071e-38 333 233
0.016961746 0.69099998 0.008480873 1.3282304e-38 334 233
0.0181733 0.69099998 0.008480873 1.3190109e-38 335 233
0.01944096 0.69300002 0.0085054198 1.3373058e-38 336 233
0.020685827 0.69400001 0.0085176928 1.3373058e-38 337 233
0.021965759 0.69599998 0.0085422397 1.3280862e-38 338 233
0.023186078 0.69599998 0.0085422397 1.3280862e-38 339 233
0.024441468 0.69700003 0.0085545136 1.3464528e-38 340 233
0.025700359 0.69800001 0.0085667865 1.3371973e-38 341 233
0.027001332 0.69999999 0.0085913334 1.35542e-38 342 233
0.028268991 0.70099998 0.0086036054 1.3462004e-38 343 233
0.029498078 0.70099998 0.0086036054 1.3277245e-38 344 233
0.030814834 0.70300001 0.0086281532 1.3092496e-38 345 233
0.032093015 0.704 0.0086404262 1.3643857e-38 346 233
-0.036451802 0.69300002 0.0072903596 9.8631149e-39 290 234
-0.035236739 0.69300002 0.0072903596 1.7054374e-38 291 234
-0.033923492 0.69099998 0.0072693196 1.8069623e-38 292 234
-0.032711938 0.69099998 0.0072693196 1.7977069e-38 293 234
-0.031500384 0.69099998 0.0072693196 1.7151277e-38 294 234
-0.030288832 0.69099998 0.0072693196 1.6874691e-38 295 234
-0.029077278 0.69099998 0.0072693196 1.6414435e-38 296 234
-0.027865725 0.69099998 0.0072693196 1.6045652e-38 297 234
-0.026615599 0.69 0.0072587994 1.6044583e-38 298 234
-0.025405798 0.69 0.0072587994 1.6044583e-38 299 234
-0.024195999 0.69 0.0072587994 1.5677238e-38 300 234
-0.022919573 0.68800002 0.0072377604 1.5769435e-38 301 234
-0.021713281 0.68800002 0.0072377604 1.5585043e-38 302 234
-0.020506985 0.68800002 0.0072377604 1.5585043e-38 303 234
-0.019300694 0.68800002 0.0072377604 1.5309179e-38 304 234
-0.0180944 0.68800002 0.0072377604 1.5309179e-38 305 234
-0.01686356 0.68699998 0.0072272392 1.5216983e-38 306 234
-0.015659019 0.68699998 0.0072272392 1.5216983e-38 307 234
-0.014454478 0.68699998 0.0072272392 1.5033668e-38 308 234
-0.013230653 0.68599999 0.0072167199 1.4941472e-38 309 234
-0.0119928 0.68400002 0.0071956799 1.4848921e-38 310 234
-0.01079352 0.68400002 0.0071956799 1.4848921e-38 311 234
-0.0095942402 0.68400002 0.0071956799 1.4848924e-38 312 234
-0.0083949603 0.68400002 0.0071956799 1.4756727e-38 313 234
-0.0071956799 0.68400002 0.0071956799 1.4572695e-38 314 234
-0.0059964 0.68400002 0.0071956799 1.44805e-38 315 234
-0.0048111463 0.68599999 0.0072167199 1.4387945e-38 316 234
-0.00359784 0.68400002 0.0071956799 1.4203554e-38 317 234
-0.0023985601 0.68400002 0.0071956799 1.4479052e-38 318 234
-0.00119928 0.68400002 0.0071956799 1.493967e-38 319 234
0 0.68400002 0.0071956799 1.5769065e-38 320 234
0.0012027866 0.68599999 0.0072167199 1.5584674e-38 321 234
0.0024055731 0.68599999 0.0072167199 1.4938951e-38 322 234
0.00360836 0.68599999 0.0072167199 1.475456e-38 323 234
0.0047971201 0.68400002 0.0071956799 1.4386499e-38 324 234
0.0059876335 0.68300003 0.0071851597 1.4018077e-38 325 234
0.0071851597 0.68300003 0.0071851597 1.3467421e-38 326 234
0.0083949603 0.68400002 0.0071956799 1.3375226e-38 327 234
0.0095942402 0.68400002 0.0071956799 1.3282676e-38 328 234
0.010825079 0.68599999 0.0072167199 1.319048e-38 329 234
0.012045399 0.68699998 0.0072272392 1.3189761e-38 330 234
0.013249939 0.68699998 0.0072272392 1.3189761e-38 331 234
0.014475521 0.68800002 0.0072377604 1.291425e-38 332 234
0.015727401 0.69 0.0072587994 1.291425e-38 333 234
0.0169372 0.69 0.0072587994 1.3280872e-38 334 234
0.0181733 0.69099998 0.0072693196 1.3280872e-38 335 234
0.01944096 0.69300002 0.0072903596 1.3556017e-38 336 234
0.020656019 0.69300002 0.0072903596 1.3463821e-38 337 234
0.021902639 0.69400001 0.0073008798 1.3280506e-38 338 234
0.023119451 0.69400001 0.0073008798 1.3280506e-38 339 234
0.0244064 0.69599998 0.0073219193 1.3463456e-38 340 234
0.025626717 0.69599998 0.0073219193 1.3463456e-38 341 234
0.026924185 0.69800001 0.0073429602 1.3371256e-38 342 234
0.028228667 0.69999999 0.0073639993 1.327906e-38 343 234
0.029498078 0.70099998 0.0073745195 1.3003184e-38 344 234
0.030814834 0.70300001 0.0073955595 1.2818434e-38 345 234
0.032093015 0.704 0.0074060797 1.327688e-38 346 234
0.03332736 0.704 0.0074060797 1.2815541e-38 347 234
0.034561705 0.704 0.0074060797 9.6812418e-39 348 234
-0.037666857 0.69300002 0.0060753003 4.6130059e-39 289 235
-0.036451802 0.69300002 0.0060753003 1.4189473e-38 290 235
-0.035236739 0.69300002 0.0060753003 1.9352428e-38 291 235
-0.033923492 0.69099998 0.0060577663 1.7518617e-38 292 235
-0.032711938 0.69099998 0.0060577663 1.705764e-38 293 235
-0.031500384 0.69099998 0.0060577663 1.6414437e-38 294 235
-0.030288832 0.69099998 0.0060577663 1.6230046e-38 295 235
-0.029035198 0.69 0.0060489997 1.5678672e-38 296 235
-0.027825398 0.69 0.0060489997 1.5401725e-38 297 235
-0.026615599 0.69 0.0060489997 1.540173e-38 298 235
-0.025405798 0.69 0.0060489997 1.540173e-38 299 235
-0.024125867 0.68800002 0.0060314666 1.5125864e-38 300 235
-0.022919573 0.68800002 0.0060314666 1.5125864e-38 301 235
-0.021713281 0.68800002 0.0060314666 1.5309179e-38 302 235
-0.020506985 0.68800002 0.0060314666 1.5309179e-38 303 235
-0.019272638 0.68699998 0.0060226996 1.5033315e-38 304 235
-0.018068098 0.68699998 0.0060226996 1.5033315e-38 305 235
-0.01686356 0.68699998 0.0060226996 1.5033315e-38 306 235
-0.015659019 0.68699998 0.0060226996 1.5033315e-38 307 235
-0.01439136 0.68400002 0.0059964 1.5033671e-38 308 235
-0.01319208 0.68400002 0.0059964 1.4941475e-38 309 235
-0.0119928 0.68400002 0.0059964 1.4941119e-38 310 235
-0.01079352 0.68400002 0.0059964 1.4848924e-38 311 235
-0.0095942402 0.68400002 0.0059964 1.4756371e-38 312 235
-0.0083949603 0.68400002 0.0059964 1.457234e-38 313 235
-0.0071956799 0.68400002 0.0059964 1.4572695e-38 314 235
-0.0059964 0.68400002 0.0059964 1.44805e-38 315 235
-0.0047971201 0.68400002 0.0059964 1.429575e-38 316 235
-0.00359784 0.68400002 0.0059964 1.4203554e-38 317 235
-0.0023985601 0.68400002 0.0059964 1.4571614e-38 318 235
-0.00119928 0.68400002 0.0059964 1.5032952e-38 319 235
0 0.68400002 0.0059964 1.5215898e-38 320 235
0.0012027866 0.68599999 0.0060139326 1.4938951e-38 321 235
0.0024055731 0.68599999 0.0060139326 1.4110991e-38 322 235
0.00359784 0.68400002 0.0059964 1.3926241e-38 323 235
0.0047901068 0.68300003 0.0059876335 1.3558182e-38 324 235
0.0059876335 0.68300003 0.0059876335 1.3558182e-38 325 235
0.0071851597 0.68300003 0.0059876335 1.3557462e-38 326 235
0.0083949603 0.68400002 0.0059964 1.3557462e-38 327 235
0.0095942402 0.68400002 0.0059964 1.3465269e-38 328 235
0.010825079 0.68599999 0.0060139326 1.3373073e-38 329 235
0.012027865 0.68599999 0.0060139326 1.3189761e-38 330 235
0.013249939 0.68699998 0.0060226996 1.3097207e-38 331 235
0.014454478 0.68699998 0.0060226996 1.291425e-38 332 235
0.015681813 0.68800002 0.0060314666 1.291425e-38 333 235
0.0169372 0.69 0.0060489997 1.2914248e-38 334 235
0.018146999 0.69 0.0060489997 1.2914248e-38 335 235
0.019384852 0.69099998 0.0060577663 1.3097197e-38 336 235
0.020656019 0.69300002 0.0060753003 1.3097197e-38 337 235
0.021902639 0.69400001 0.0060840664 1.3188311e-38 338 235
0.023119451 0.69400001 0.0060840664 1.3188311e-38 339 235
0.024336265 0.69400001 0.0060840664 1.3371979e-38 340 235
0.025626717 0.69599998 0.0061015999 1.3371979e-38 341 235
0.026885614 0.69700003 0.0061103669 1.3371253e-38 342 235
0.028148014 0.69800001 0.006119133 1.3371253e-38 343 235
0.029455997 0.69999999 0.0061366665 1.3278692e-38 344 235
0.030683333 0.69999999 0.0061366665 1.30943e-38 345 235
0.032047424 0.70300001 0.0061629666 1.3093933e-38 346 235
0.03332736 0.704 0.0061717331 1.2909183e-38 347 235
0.034561705 0.704 0.0061717331 1.1707028e-38 348 235
0.035796054 0.704 0.0061717331 8.9411586e-39 349 235
-0.03755815 0.69099998 0.0048462129 1.1427567e-38 289 236
-0.036346599 0.69099998 0.0048462129 1.5854404e-38 290 236
-0.035135046 0.69099998 0.0048462129 1.8159296e-38 291 236
-0.033923492 0.69099998 0.0048462129 1.6506634e-38 292 236
-0.032711938 0.69099998 0.0048462129 1.6230046e-38 293 236
-0.031454802 0.69 0.0048391996 1.5677235e-38 294 236
-0.030244999 0.69 0.0048391996 1.5308813e-38 295 236
-0.029035198 0.69 0.0048391996 1.5033668e-38 296 236
-0.027744746 0.68800002 0.0048251734 1.4941472e-38 297 236
-0.026538454 0.68800002 0.0048251734 1.4941475e-38 298 236
-0.02533216 0.68800002 0.0048251734 1.5033671e-38 299 236
-0.024125867 0.68800002 0.0048251734 1.4941475e-38 300 236
-0.022919573 0.68800002 0.0048251734 1.4941475e-38 301 236
-0.021713281 0.68800002 0.0048251734 1.4941119e-38 302 236
-0.020477179 0.68699998 0.0048181596 1.4941119e-38 303 236
-0.019272638 0.68699998 0.0048181596 1.4848924e-38 304 236
-0.018068098 0.68699998 0.0048181596 1.4941119e-38 305 236
-0.01686356 0.68699998 0.0048181596 1.4941119e-38 306 236
-0.015636226 0.68599999 0.0048111463 1.4941119e-38 307 236
-0.01439136 0.68400002 0.0047971201 1.4941122e-38 308 236
-0.01319208 0.68400002 0.0047971201 1.4848926e-38 309 236
-0.011975267 0.68300003 0.0047901068 1.4848926e-38 310 236
-0.01077774 0.68300003 0.0047901068 1.4756371e-38 311 236
-0.0095802136 0.68300003 0.0047901068 1.4572342e-38 312 236
-0.0083826864 0.68300003 0.0047901068 1.4480147e-38 313 236
-0.0071851597 0.68300003 0.0047901068 1.4204636e-38 314 236
-0.0059876335 0.68300003 0.0047901068 1.4204636e-38 315 236
-0.0047901068 0.68300003 0.0047901068 1.4203554e-38 316 236
-0.0035925799 0.68300003 0.0047901068 1.3927326e-38 317 236
-0.0023950534 0.68300003 0.0047901068 1.4295387e-38 318 236
-0.0011975267 0.68300003 0.0047901068 1.4663809e-38 319 236
0 0.68300003 0.0047901068 1.4202831e-38 320 236
0.00119928 0.68400002 0.0047971201 1.3926244e-38 321 236
0.0023950534 0.68300003 0.0047901068 1.3650383e-38 322 236
0.0035925799 0.68300003 0.0047901068 1.3558188e-38 323 236
0.0047901068 0.68300003 0.0047901068 1.3557113e-38 324 236
0.0059876335 0.68300003 0.0047901068 1.3557113e-38 325 236
0.0071851597 0.68300003 0.0047901068 1.3465991e-38 326 236
0.0083826864 0.68300003 0.0047901068 1.3281601e-38 327 236
0.0095802136 0.68300003 0.0047901068 1.3281601e-38 328 236
0.01079352 0.68400002 0.0047971201 1.3097209e-38 329 236
0.012027865 0.68599999 0.0048111463 1.3280522e-38 330 236
0.013249939 0.68699998 0.0048181596 1.3280522e-38 331 236
0.014454478 0.68699998 0.0048181596 1.2913894e-38 332 236
0.015681813 0.68800002 0.0048251734 1.2821699e-38 333 236
0.0169372 0.69 0.0048391996 1.3005361e-38 334 236
0.018146999 0.69 0.0048391996 1.3005361e-38 335 236
0.019384852 0.69099998 0.0048462129 1.3097916e-38 336 236
0.020656019 0.69300002 0.00486024 1.3005361e-38 337 236
0.021871079 0.69300002 0.00486024 1.3188313e-38 338 236
0.02308614 0.69300002 0.00486024 1.3095758e-38 339 236
0.024336265 0.69400001 0.0048672534 1.3188313e-38 340 236
0.025553079 0.69400001 0.0048672534 1.3188313e-38 341 236
0.026847038 0.69599998 0.0048812795 1.318759e-38 342 236
0.028148014 0.69800001 0.0048953067 1.318759e-38 343 236
0.029371841 0.69800001 0.0048953067 1.3003549e-38 344 236
0.030595668 0.69800001 0.0048953067 1.2911354e-38 345 236
0.031910665 0.69999999 0.0049093333 1.2727313e-38 346 236
0.033280019 0.70300001 0.0049303733 1.2727313e-38 347 236
0.034561705 0.704 0.0049373866 1.3090312e-38 348 236
0.035796054 0.704 0.0049373866 1.0416639e-38 349 236
0.037030395 0.704 0.0049373866 8.4762022e-39 350 236
-0.03888192 0.69300002 0.0036451798 5.4362982e-39 288 237
-0.03755815 0.69099998 0.0036346598 1.4655861e-38 289 237
-0.036346599 0.69099998 0.0036346598 1.6501942e-38 290 237
-0.035135046 0.69099998 0.0036346598 1.696328e-38 291 237
-0.033923492 0.69099998 0.0036346598 1.5401011e-38 292 237
-0.032664597 0.69 0.0036293997 1.5308816e-38 293 237
-0.031454802 0.69 0.0036293997 1.4940756e-38 294 237
-0.030244999 0.69 0.0036293997 1.4940756e-38 295 237
-0.029035198 0.69 0.0036293997 1.4756727e-38 296 237
-0.027744746 0.68800002 0.0036188802 1.4756727e-38 297 237
-0.026538454 0.68800002 0.0036188802 1.4572695e-38 298 237
-0.02533216 0.68800002 0.0036188802 1.4756727e-38 299 237
-0.024125867 0.68800002 0.0036188802 1.4572695e-38 300 237
-0.022886258 0.68699998 0.0036136196 1.4756727e-38 301 237
-0.021681719 0.68699998 0.0036136196 1.4756371e-38 302 237
-0.020477179 0.68699998 0.0036136196 1.4756371e-38 303 237
-0.019272638 0.68699998 0.0036136196 1.4572342e-38 304 237
-0.018068098 0.68699998 0.0036136196 1.4756373e-38 305 237
-0.016839013 0.68599999 0.00360836 1.4756371e-38 306 237
-0.015636226 0.68599999 0.00360836 1.4756371e-38 307 237
-0.01439136 0.68400002 0.00359784 1.4756371e-38 308 237
-0.013172794 0.68300003 0.0035925799 1.457234e-38 309 237
-0.011975267 0.68300003 0.0035925799 1.4572342e-38 310 237
-0.010761959 0.68199998 0.00358732 1.4480147e-38 311 237
-0.009566186 0.68199998 0.00358732 1.420428e-38 312 237
-0.0083826864 0.68300003 0.0035925799 1.420428e-38 313 237
-0.0071851597 0.68300003 0.0035925799 1.4295753e-38 314 237
-0.0059876335 0.68300003 0.0035925799 1.4203557e-38 315 237
-0.0047901068 0.68300003 0.0035925799 1.4110641e-38 316 237
-0.0035925799 0.68300003 0.0035925799 1.4018087e-38 317 237
-0.0023950534 0.68300003 0.0035925799 1.4111357e-38 318 237
-0.0011975267 0.68300003 0.0035925799 1.4203554e-38 319 237
0 0.68300003 0.0035925799 1.3467065e-38 320 237
0.00119928 0.68400002 0.00359784 1.337487e-38 321 237
0.0023950534 0.68300003 0.0035925799 1.3465991e-38 322 237
0.0035925799 0.68300003 0.0035925799 1.3465991e-38 323 237
0.0047901068 0.68300003 0.0035925799 1.3465991e-38 324 237
0.0059876335 0.68300003 0.0035925799 1.3281601e-38 325 237
0.0071851597 0.68300003 0.0035925799 1.3373073e-38 326 237
0.0083826864 0.68300003 0.0035925799 1.3373073e-38 327 237
0.0095802136 0.68300003 0.0035925799 1.3189761e-38 328 237
0.01079352 0.68400002 0.00359784 1.3097207e-38 329 237
0.0119928 0.68400002 0.00359784 1.3097207e-38 330 237
0.013230653 0.68599999 0.00360836 1.3097207e-38 331 237
0.014454478 0.68699998 0.0036136196 1.2913894e-38 332 237
0.015659019 0.68699998 0.0036136196 1.2821699e-38 333 237
0.016888106 0.68800002 0.0036188802 1.2822052e-38 334 237
0.0180944 0.68800002 0.0036188802 1.2822052e-38 335 237
0.019356798 0.69 0.0036293997 1.3097916e-38 336 237
0.020596405 0.69099998 0.0036346598 1.2913166e-38 337 237
0.021871079 0.69300002 0.0036451798 1.3095758e-38 338 237
0.02308614 0.69300002 0.0036451798 1.3095758e-38 339 237
0.024336265 0.69400001 0.0036504399 1.3003562e-38 340 237
0.025553079 0.69400001 0.0036504399 1.3095758e-38 341 237
0.026847038 0.69599998 0.0036609597 1.3003918e-38 342 237
0.028067358 0.69599998 0.0036609597 1.3003918e-38 343 237
0.02932976 0.69700003 0.00366622 1.3003552e-38 344 237
0.030595668 0.69800001 0.0036714801 1.2910998e-38 345 237
0.031819493 0.69800001 0.0036714801 1.2910988e-38 346 237
0.033280019 0.70300001 0.0036977797 1.2818434e-38 347 237
0.034561705 0.704 0.0037030398 1.3276151e-38 348 237
0.035796054 0.704 0.0037030398 1.2261999e-38 349 237
0.037030395 0.704 0.0037030398 1.1518301e-38 350 237
0.038373452 0.70599997 0.0037135598 1.0135366e-38 351 237
-0.038769703 0.69099998 0.0024231065 9.0290382e-39 288 238
-0.03755815 0.69099998 0.0024231065 1.7142254e-38 289 238
-0.036346599 0.69099998 0.0024231065 1.6228241e-38 290 238
-0.035135046 0.69099998 0.0024231065 1.5767623e-38 291 238
-0.0338744 0.69 0.0024195998 1.5031869e-38 292 238
-0.032664597 0.69 0.0024195998 1.4939673e-38 293 238
-0.031363625 0.68800002 0.0024125867 1.4663812e-38 294 238
-0.030157333 0.68800002 0.0024125867 1.4571616e-38 295 238
-0.028951041 0.68800002 0.0024125867 1.4387951e-38 296 238
-0.027704418 0.68699998 0.0024090798 1.4387951e-38 297 238
-0.026499879 0.68699998 0.0024090798 1.420428e-38 298 238
-0.025295338 0.68699998 0.0024090798 1.420428e-38 299 238
-0.024090799 0.68699998 0.0024090798 1.420428e-38 300 238
-0.022886258 0.68699998 0.0024090798 1.420428e-38 301 238
-0.021681719 0.68699998 0.0024090798 1.4204283e-38 302 238
-0.020447372 0.68599999 0.0024055731 1.4388314e-38 303 238
-0.019244585 0.68599999 0.0024055731 1.4479791e-38 304 238
-0.018041799 0.68599999 0.0024055731 1.4479791e-38 305 238
-0.016839013 0.68599999 0.0024055731 1.4297197e-38 306 238
-0.01559064 0.68400002 0.0023985601 1.4297197e-38 307 238
-0.014370319 0.68300003 0.0023950534 1.420428e-38 308 238
-0.013172794 0.68300003 0.0023950534 1.420428e-38 309 238
-0.011957732 0.68199998 0.0023915465 1.4112084e-38 310 238
-0.010761959 0.68199998 0.0023915465 1.4112084e-38 311 238
-0.009566186 0.68199998 0.0023915465 1.4019889e-38 312 238
-0.0083826864 0.68300003 0.0023950534 1.4019889e-38 313 238
-0.0071851597 0.68300003 0.0023950534 1.374438e-38 314 238
-0.0059876335 0.68300003 0.0023950534 1.3652184e-38 315 238
-0.0047901068 0.68300003 0.0023950534 1.3834775e-38 316 238
-0.0035925799 0.68300003 0.0023950534 1.3834775e-38 317 238
-0.0023950534 0.68300003 0.0023950534 1.3927326e-38 318 238
-0.0011975267 0.68300003 0.0023950534 1.383513e-38 319 238
0 0.68300003 0.0023950534 1.3465991e-38 320 238
0.0011975267 0.68300003 0.0023950534 1.3465991e-38 321 238
0.0023950534 0.68300003 0.0023950534 1.3190124e-38 322 238
0.00358732 0.68199998 0.0023915465 1.328232e-38 323 238
0.004783093 0.68199998 0.0023915465 1.3281601e-38 324 238
0.005978866 0.68199998 0.0023915465 1.3189405e-38 325 238
0.0071851597 0.68300003 0.0023950534 1.3189761e-38 326 238
0.0083826864 0.68300003 0.0023950534 1.3097207e-38 327 238
0.0095802136 0.68300003 0.0023950534 1.3280878e-38 328 238
0.01079352 0.68400002 0.0023985601 1.3096488e-38 329 238
0.0119928 0.68400002 0.0023985601 1.3096488e-38 330 238
0.01319208 0.68400002 0.0023985601 1.3096488e-38 331 238
0.01443344 0.68599999 0.0024055731 1.3005011e-38 332 238
0.015659019 0.68699998 0.0024090798 1.3005011e-38 333 238
0.01686356 0.68699998 0.0024090798 1.2912815e-38 334 238
0.0180944 0.68800002 0.0024125867 1.2912815e-38 335 238
0.019300694 0.68800002 0.0024125867 1.3005364e-38 336 238
0.020566599 0.69 0.0024195998 1.2913169e-38 337 238
0.021807959 0.69099998 0.0024231065 1.3095758e-38 338 238
0.02308614 0.69300002 0.00243012 1.3095758e-38 339 238
0.024301201 0.69300002 0.00243012 1.2912445e-38 340 238
0.02551626 0.69300002 0.00243012 1.282025e-38 341 238
0.026769891 0.69400001 0.0024336267 1.2820606e-38 342 238
0.028067358 0.69599998 0.0024406398 1.2820606e-38 343 238
0.02932976 0.69700003 0.0024441467 1.3003552e-38 344 238
0.030595668 0.69800001 0.0024476533 1.2910998e-38 345 238
0.031819493 0.69800001 0.0024476533 1.281879e-38 346 238
0.033137999 0.69999999 0.0024546667 1.2726593e-38 347 238
0.034512613 0.70300001 0.0024651866 1.3092496e-38 348 238
0.035745207 0.70300001 0.0024651866 1.2908464e-38 349 238
0.036977798 0.70300001 0.0024651866 1.3365823e-38 350 238
0.038264744 0.704 0.0024686933 1.1337519e-38 351 238
0.039499093 0.704 0.0024686933 9.2162882e-39 352 238
-0.038769703 0.69099998 0.0012115532 1.2347731e-38 288 239
-0.03755815 0.69099998 0.0012115532 1.7695077e-38 289 239
-0.036346599 0.69099998 0.0012115532 1.5216261e-38 290 239
-0.035084199 0.69 0.0012097999 1.4755642e-38 291 239
-0.0338744 0.69 0.0012097999 1.4938601e-38 292 239
-0.032569919 0.68800002 0.0012062934 1.475421e-38 293 239
-0.031363625 0.68800002 0.0012062934 1.4478349e-38 294 239
-0.030157333 0.68800002 0.0012062934 1.4385793e-38 295 239
-0.028908957 0.68699998 0.0012045399 1.4294681e-38 296 239
-0.027704418 0.68699998 0.0012045399 1.4386876e-38 297 239
-0.026499879 0.68699998 0.0012045399 1.4203201e-38 298 239
-0.025295338 0.68699998 0.0012045399 1.4295397e-38 299 239
-0.024090799 0.68699998 0.0012045399 1.4203557e-38 300 239
-0.022852944 0.68599999 0.0012027866 1.4203557e-38 301 239
-0.021650158 0.68599999 0.0012027866 1.4203201e-38 302 239
-0.020447372 0.68599999 0.0012027866 1.4295397e-38 303 239
-0.019244585 0.68599999 0.0012027866 1.4295397e-38 304 239
-0.018041799 0.68599999 0.0012027866 1.4295397e-38 305 239
-0.016789921 0.68400002 0.00119928 1.4387951e-38 306 239
-0.01559064 0.68400002 0.00119928 1.4295397e-38 307 239
-0.014370319 0.68300003 0.0011975267 1.4295397e-38 308 239
-0.013153506 0.68199998 0.0011957732 1.4295397e-38 309 239
-0.011957732 0.68199998 0.0011957732 1.4203201e-38 310 239
-0.010761959 0.68199998 0.0011957732 1.4203201e-38 311 239
-0.009566186 0.68199998 0.0011957732 1.374438e-38 312 239
-0.0083826864 0.68300003 0.0011975267 1.3652184e-38 313 239
-0.0071851597 0.68300003 0.0011975267 1.3743301e-38 314 239
-0.0059876335 0.68300003 0.0011975267 1.3558911e-38 315 239
-0.0047901068 0.68300003 0.0011975267 1.3650383e-38 316 239
-0.00358732 0.68199998 0.0011957732 1.3742579e-38 317 239
-0.0023915465 0.68199998 0.0011957732 1.3559267e-38 318 239
-0.0011975267 0.68300003 0.0011975267 1.3374517e-38 319 239
0 0.68300003 0.0011975267 1.3558188e-38 320 239
0.0011975267 0.68300003 0.0011975267 1.3281601e-38 321 239
0.0023950534 0.68300003 0.0011975267 1.3190124e-38 322 239
0.00358732 0.68199998 0.0011957732 1.3190124e-38 323 239
0.004783093 0.68199998 0.0011957732 1.3097928e-38 324 239
0.005978866 0.68199998 0.0011957732 1.3097928e-38 325 239
0.0071851597 0.68300003 0.0011975267 1.3189761e-38 326 239
0.0083826864 0.68300003 0.0011975267 1.3189761e-38 327 239
0.0095802136 0.68300003 0.0011975267 1.3097207e-38 328 239
0.01077774 0.68300003 0.0011975267 1.3005011e-38 329 239
0.0119928 0.68400002 0.00119928 1.3187604e-38 330 239
0.01319208 0.68400002 0.00119928 1.3187604e-38 331 239
0.01439136 0.68400002 0.00119928 1.3004292e-38 332 239
0.015636226 0.68599999 0.0012027866 1.3004292e-38 333 239
0.01686356 0.68699998 0.0012045399 1.2912813e-38 334 239
0.018068098 0.68699998 0.0012045399 1.2912813e-38 335 239
0.019300694 0.68800002 0.0012062934 1.3004645e-38 336 239
0.020506985 0.68800002 0.0012062934 1.3004645e-38 337 239
0.021776399 0.69 0.0012097999 1.3004645e-38 338 239
0.023019511 0.69099998 0.0012115532 1.2912448e-38 339 239
