# .PCD v.7 - Point Cloud Data file format
FIELDS x y z rgb imX imY
SIZE 4 4 4 4 4 4
TYPE F F F F F F
COUNT 1 1 1 1 1 1
WIDTH 833
HEIGHT 1
VIEWPOINT 0 0 0 1 0 0 0
POINTS 833
DATA ascii
0.039239597 0.74599999 -0.0026159731 1.3653999e-38 350 242
0.040601939 0.74699998 -0.0026194798 1.383839e-38 351 242
0.042023893 0.74900001 -0.0026264933 1.3748344e-38 352 242
0.04333714 0.74900001 -0.0026264933 1.4762494e-38 353 242
-0.051421758 0.75199997 -0.0039555198 1.7335332e-38 281 243
-0.049969997 0.75 -0.003945 1.5034414e-38 282 243
-0.048590127 0.74900001 -0.0039397399 1.5034414e-38 283 243
-0.047276881 0.74900001 -0.0039397399 1.4575956e-38 284 243
-0.045840897 0.74699998 -0.0039292197 1.4483759e-38 285 243
-0.044471547 0.74599999 -0.0039239596 1.4761066e-38 286 243
-0.043047838 0.74400002 -0.0039134403 1.5406436e-38 287 243
-0.04174336 0.74400002 -0.0039134403 1.5775218e-38 288 243
-0.040330172 0.74199998 -0.0039029196 1.595961e-38 289 243
-0.038976599 0.741 -0.0038976599 1.5223845e-38 290 243
-0.037677377 0.741 -0.0038976599 1.4854704e-38 291 243
-0.036230877 0.73799998 -0.0038818798 1.4487376e-38 292 243
-0.034936916 0.73799998 -0.0038818798 1.4487376e-38 293 243
-0.033551786 0.736 -0.0038713599 1.4670338e-38 294 243
-0.032261331 0.736 -0.0038713599 1.4670338e-38 295 243
-0.030970879 0.736 -0.0038713599 1.4671057e-38 296 243
-0.029680425 0.736 -0.0038713599 1.4763252e-38 297 243
-0.028312827 0.73400003 -0.0038608401 1.4579937e-38 298 243
-0.02702588 0.73400003 -0.0038608401 1.4672133e-38 299 243
-0.025738932 0.73400003 -0.0038608401 1.4581012e-38 300 243
-0.024418673 0.73299998 -0.0038555798 1.4581012e-38 301 243
-0.023133477 0.73299998 -0.0038555798 1.4855801e-38 302 243
-0.021788673 0.73100001 -0.00384506 1.4947997e-38 303 243
-0.020506985 0.73100001 -0.00384506 1.4855801e-38 304 243
-0.019277899 0.73299998 -0.0038555798 1.4855801e-38 305 243
-0.017943613 0.73100001 -0.00384506 1.4948353e-38 306 243
-0.016639132 0.73000002 -0.0038397999 1.5040548e-38 307 243
-0.0153592 0.73000002 -0.0038397999 1.5040548e-38 308 243
-0.014040692 0.72799999 -0.0038292799 1.4948353e-38 309 243
-0.012764266 0.72799999 -0.0038292799 1.4856517e-38 310 243
-0.01148784 0.72799999 -0.0038292799 1.4672486e-38 311 243
-0.010197386 0.727 -0.0038240198 1.4855798e-38 312 243
-0.0089227129 0.727 -0.0038240198 1.4763603e-38 313 243
-0.0076480396 0.727 -0.0038240198 1.485508e-38 314 243
-0.0063733663 0.727 -0.0038240198 1.485508e-38 315 243
-0.0050986931 0.727 -0.0038240198 1.4671407e-38 316 243
-0.0038240198 0.727 -0.0038240198 1.4395179e-38 317 243
-0.0025423334 0.72500002 -0.0038135003 1.503982e-38 318 243
-0.0012711667 0.72500002 -0.0038135003 1.5408604e-38 319 243
0 0.72500002 -0.0038135003 1.5500073e-38 320 243
0.0012746733 0.727 -0.0038240198 1.513165e-38 321 243
0.0025493465 0.727 -0.0038240198 1.4854354e-38 322 243
0.0038240198 0.727 -0.0038240198 1.4578126e-38 323 243
0.0050986931 0.727 -0.0038240198 1.3934918e-38 324 243
0.0063733663 0.727 -0.0038240198 1.3842723e-38 325 243
0.0076480396 0.727 -0.0038240198 1.3750527e-38 326 243
0.0089227129 0.727 -0.0038240198 1.3750527e-38 327 243
0.010197386 0.727 -0.0038240198 1.375053e-38 328 243
0.01147206 0.727 -0.0038240198 1.3658333e-38 329 243
0.012746733 0.727 -0.0038240198 1.3658333e-38 330 243
0.014040692 0.72799999 -0.0038292799 1.3658333e-38 331 243
0.01531712 0.72799999 -0.0038292799 1.3658333e-38 332 243
0.016593546 0.72799999 -0.0038292799 1.3565778e-38 333 243
0.017919067 0.73000002 -0.0038397999 1.365833e-38 334 243
0.019199001 0.73000002 -0.0038397999 1.3566134e-38 335 243
0.020506985 0.73100001 -0.00384506 1.3841279e-38 336 243
0.021788673 0.73100001 -0.00384506 1.3472498e-38 337 243
0.023133477 0.73299998 -0.0038555798 1.3472498e-38 338 243
0.024451986 0.73400003 -0.0038608401 1.3472498e-38 339 243
0.025738932 0.73400003 -0.0038608401 1.3381021e-38 340 243
0.02709952 0.736 -0.0038713599 1.3473217e-38 341 243
0.028467119 0.73799998 -0.0038818798 1.3381019e-38 342 243
0.029801406 0.73900002 -0.00388714 1.3381019e-38 343 243
0.03109712 0.73900002 -0.00388714 1.3288103e-38 344 243
0.032480497 0.741 -0.0038976599 1.3288103e-38 345 243
0.033825304 0.74199998 -0.0039029196 1.3103356e-38 346 243
0.03512628 0.74199998 -0.0039029196 1.319591e-38 347 243
0.036427252 0.74199998 -0.0039029196 1.310299e-38 348 243
0.037829921 0.74400002 -0.0039134403 1.310299e-38 349 243
0.039239597 0.74599999 -0.0039239596 1.3285936e-38 350 243
0.040601939 0.74699998 -0.0039292197 1.3378132e-38 351 243
0.042023893 0.74900001 -0.0039397399 1.3104412e-38 352 243
-0.051421758 0.75199997 -0.0052740262 1.7427883e-38 281 244
-0.050103247 0.75199997 -0.0052740262 1.4942216e-38 282 244
-0.048655 0.75 -0.00526 1.4942216e-38 283 244
-0.047276881 0.74900001 -0.0052529867 1.4483406e-38 284 244
-0.045779534 0.74599999 -0.0052319462 1.4391211e-38 285 244
-0.044471547 0.74599999 -0.0052319462 1.4391576e-38 286 244
-0.043047838 0.74400002 -0.0052179201 1.4576328e-38 287 244
-0.04174336 0.74400002 -0.0052179201 1.4853633e-38 288 244
-0.040330172 0.74199998 -0.0052038929 1.5038026e-38 289 244
-0.0390292 0.74199998 -0.0052038929 1.4671041e-38 290 244
-0.037677377 0.741 -0.0051968796 1.4486649e-38 291 244
-0.036279973 0.73900002 -0.0051828534 1.448594e-38 292 244
-0.034936916 0.73799998 -0.0051758396 1.448594e-38 293 244
-0.033642959 0.73799998 -0.0051758396 1.4485589e-38 294 244
-0.032261331 0.736 -0.005161813 1.4485589e-38 295 244
-0.030970879 0.736 -0.005161813 1.4487026e-38 296 244
-0.029680425 0.736 -0.005161813 1.4671057e-38 297 244
-0.028389972 0.736 -0.005161813 1.4487742e-38 298 244
-0.02702588 0.73400003 -0.0051477868 1.4487742e-38 299 244
-0.025738932 0.73400003 -0.0051477868 1.430443e-38 300 244
-0.024418673 0.73299998 -0.005140773 1.430443e-38 301 244
-0.023133477 0.73299998 -0.005140773 1.476325e-38 302 244
-0.021848286 0.73299998 -0.005140773 1.476325e-38 303 244
-0.020563092 0.73299998 -0.005140773 1.476325e-38 304 244
-0.019277899 0.73299998 -0.005140773 1.4855804e-38 305 244
-0.017992707 0.73299998 -0.005140773 1.4855801e-38 306 244
-0.016661927 0.73100001 -0.0051267464 1.4947997e-38 307 244
-0.0153592 0.73000002 -0.0051197335 1.5131665e-38 308 244
-0.014040692 0.72799999 -0.0051057064 1.5131665e-38 309 244
-0.012764266 0.72799999 -0.0051057064 1.4855798e-38 310 244
-0.01148784 0.72799999 -0.0051057064 1.4855798e-38 311 244
-0.010197386 0.727 -0.0050986931 1.4855082e-38 312 244
-0.0089227129 0.727 -0.0050986931 1.4855082e-38 313 244
-0.0076480396 0.727 -0.0050986931 1.4762887e-38 314 244
-0.0063733663 0.727 -0.0050986931 1.4762887e-38 315 244
-0.0050986931 0.727 -0.0050986931 1.4670688e-38 316 244
-0.0038240198 0.727 -0.0050986931 1.4578491e-38 317 244
-0.0025493465 0.727 -0.0050986931 1.4763237e-38 318 244
-0.0012746733 0.727 -0.0050986931 1.5039464e-38 319 244
0 0.727 -0.0050986931 1.5038745e-38 320 244
0.0012746733 0.727 -0.0050986931 1.4762157e-38 321 244
0.0025493465 0.727 -0.0050986931 1.4394097e-38 322 244
0.0038240198 0.727 -0.0050986931 1.4210066e-38 323 244
0.0050986931 0.727 -0.0050986931 1.3933845e-38 324 244
0.0063733663 0.727 -0.0050986931 1.3933845e-38 325 244
0.0076480396 0.727 -0.0050986931 1.3750174e-38 326 244
0.0089227129 0.727 -0.0050986931 1.3750174e-38 327 244
0.010197386 0.727 -0.0050986931 1.3657977e-38 328 244
0.01147206 0.727 -0.0050986931 1.3657977e-38 329 244
0.012746733 0.727 -0.0050986931 1.3749454e-38 330 244
0.014040692 0.72799999 -0.0051057064 1.3657258e-38 331 244
0.01531712 0.72799999 -0.0051057064 1.3565781e-38 332 244
0.016593546 0.72799999 -0.0051057064 1.338175e-38 333 244
0.017919067 0.73000002 -0.0051197335 1.3565778e-38 334 244
0.019199001 0.73000002 -0.0051197335 1.3565778e-38 335 244
0.020506985 0.73100001 -0.0051267464 1.3840923e-38 336 244
0.021788673 0.73100001 -0.0051267464 1.3564697e-38 337 244
0.023133477 0.73299998 -0.005140773 1.3472498e-38 338 244
0.024451986 0.73400003 -0.0051477868 1.3472498e-38 339 244
0.025738932 0.73400003 -0.0051477868 1.3380303e-38 340 244
0.02709952 0.736 -0.005161813 1.3380303e-38 341 244
0.028467119 0.73799998 -0.0051758396 1.3380303e-38 342 244
0.029801406 0.73900002 -0.0051828534 1.3288106e-38 343 244
0.03118128 0.741 -0.0051968796 1.3195907e-38 344 244
0.032480497 0.741 -0.0051968796 1.3103711e-38 345 244
0.033825304 0.74199998 -0.0052038929 1.2827126e-38 346 244
0.03512628 0.74199998 -0.0052038929 1.2827126e-38 347 244
0.036427252 0.74199998 -0.0052038929 1.3102627e-38 348 244
0.037829921 0.74400002 -0.0052179201 1.2917875e-38 349 244
0.039239597 0.74599999 -0.0052319462 1.2365422e-38 350 244
0.040601939 0.74699998 -0.0052389596 1.2457976e-38 351 244
0.041911677 0.74699998 -0.0052389596 1.2551238e-38 352 244
-0.051558517 0.75400001 -0.0066100666 1.7520432e-38 281 245
-0.050236505 0.75400001 -0.0066100666 1.4850018e-38 282 245
-0.048784744 0.75199997 -0.0065925326 1.4850018e-38 283 245
-0.047339998 0.75 -0.006575 1.4666718e-38 284 245
-0.045779534 0.74599999 -0.0065399334 1.4482327e-38 285 245
-0.044471547 0.74599999 -0.0065399334 1.4115352e-38 286 245
-0.04316356 0.74599999 -0.0065399334 1.4115352e-38 287 245
-0.04174336 0.74400002 -0.0065223998 1.3565781e-38 288 245
-0.040330172 0.74199998 -0.0065048663 1.3934924e-38 289 245
-0.0390292 0.74199998 -0.0065048663 1.4210432e-38 290 245
-0.037677377 0.741 -0.0064960998 1.4026041e-38 291 245
-0.036279973 0.73900002 -0.0064785667 1.4025334e-38 292 245
-0.034936916 0.73799998 -0.0064697997 1.411753e-38 293 245
-0.033642959 0.73799998 -0.0064697997 1.3659073e-38 294 245
-0.032261331 0.736 -0.0064522666 1.3751268e-38 295 245
-0.030970879 0.736 -0.0064522666 1.4302997e-38 296 245
-0.029680425 0.736 -0.0064522666 1.4395193e-38 297 245
-0.028389972 0.736 -0.0064522666 1.3937092e-38 298 245
-0.02709952 0.736 -0.0064522666 1.3937092e-38 299 245
-0.025738932 0.73400003 -0.006434733 1.4120404e-38 300 245
-0.024418673 0.73299998 -0.0064259665 1.4120404e-38 301 245
-0.023133477 0.73299998 -0.0064259665 1.4304076e-38 302 245
-0.021848286 0.73299998 -0.0064259665 1.4304076e-38 303 245
-0.020563092 0.73299998 -0.0064259665 1.4304076e-38 304 245
-0.019277899 0.73299998 -0.0064259665 1.4488107e-38 305 245
-0.017943613 0.73100001 -0.006408433 1.457994e-38 306 245
-0.016639132 0.73000002 -0.0063996664 1.457994e-38 307 245
-0.0153592 0.73000002 -0.0063996664 1.4579937e-38 308 245
-0.014040692 0.72799999 -0.0063821329 1.4672133e-38 309 245
-0.012764266 0.72799999 -0.0063821329 1.4579937e-38 310 245
-0.01148784 0.72799999 -0.0063821329 1.4579937e-38 311 245
-0.010197386 0.727 -0.0063733663 1.4671054e-38 312 245
-0.0089227129 0.727 -0.0063733663 1.4671054e-38 313 245
-0.0076480396 0.727 -0.0063733663 1.4487023e-38 314 245
-0.0063733663 0.727 -0.0063733663 1.4487023e-38 315 245
-0.0050986931 0.727 -0.0063733663 1.4395899e-38 316 245
-0.0038240198 0.727 -0.0063733663 1.4303702e-38 317 245
-0.0025493465 0.727 -0.0063733663 1.4395176e-38 318 245
-0.0012746733 0.727 -0.0063733663 1.4487373e-38 319 245
0 0.727 -0.0063733663 1.4395176e-38 320 245
0.0012746733 0.727 -0.0063733663 1.4210785e-38 321 245
0.0025493465 0.727 -0.0063733663 1.3934924e-38 322 245
0.0038240198 0.727 -0.0063733663 1.384237e-38 323 245
0.0050986931 0.727 -0.0063733663 1.3750177e-38 324 245
0.0063733663 0.727 -0.0063733663 1.365798e-38 325 245
0.0076480396 0.727 -0.0063733663 1.3474667e-38 326 245
0.0089227129 0.727 -0.0063733663 1.3382113e-38 327 245
0.010211413 0.72799999 -0.0063821329 1.3382469e-38 328 245
0.01148784 0.72799999 -0.0063821329 1.3382469e-38 329 245
0.012764266 0.72799999 -0.0063821329 1.3382469e-38 330 245
0.014040692 0.72799999 -0.0063821329 1.3382469e-38 331 245
0.01531712 0.72799999 -0.0063821329 1.3381394e-38 332 245
0.016639132 0.73000002 -0.0063996664 1.3381394e-38 333 245
0.017919067 0.73000002 -0.0063996664 1.3289917e-38 334 245
0.019199001 0.73000002 -0.0063996664 1.3289917e-38 335 245
0.020506985 0.73100001 -0.006408433 1.338175e-38 336 245
0.021788673 0.73100001 -0.006408433 1.3565781e-38 337 245
0.023133477 0.73299998 -0.0064259665 1.3748362e-38 338 245
0.024451986 0.73400003 -0.006434733 1.3471415e-38 339 245
0.025738932 0.73400003 -0.006434733 1.33803e-38 340 245
0.02709952 0.736 -0.0064522666 1.3195907e-38 341 245
0.028467119 0.73799998 -0.0064697997 1.3012242e-38 342 245
0.029801406 0.73900002 -0.0064785667 1.2920046e-38 343 245
0.03118128 0.741 -0.0064960998 1.2827848e-38 344 245
0.032524332 0.74199998 -0.0065048663 1.2643456e-38 345 245
0.033825304 0.74199998 -0.0065048663 1.2459424e-38 346 245
0.03512628 0.74199998 -0.0065048663 1.2459424e-38 347 245
0.036427252 0.74199998 -0.0065048663 1.3468533e-38 348 245
0.037829921 0.74400002 -0.0065223998 1.2915359e-38 349 245
0.039239597 0.74599999 -0.0065399334 1.0434707e-38 350 245
0.040601939 0.74699998 -0.0065486995 1.0434707e-38 351 245
0.041911677 0.74699998 -0.0065486995 1.1905153e-38 352 245
-0.051626898 0.755 -0.0079425992 1.7980338e-38 281 246
-0.050236505 0.75400001 -0.00793208 1.5034769e-38 282 246
-0.048784744 0.75199997 -0.0079110395 1.4942214e-38 283 246
-0.047466237 0.75199997 -0.0079110395 1.4299737e-38 284 246
-0.045840897 0.74699998 -0.0078584393 1.4299737e-38 285 246
-0.044531155 0.74699998 -0.0078584393 1.3840207e-38 286 246
-0.043221418 0.74699998 -0.0078584393 1.3840207e-38 287 246
-0.04185557 0.74599999 -0.0078479191 1.3381394e-38 288 246
-0.040438879 0.74400002 -0.0078268806 1.3565784e-38 289 246
-0.0390292 0.74199998 -0.0078058392 1.4116085e-38 290 246
-0.037728224 0.74199998 -0.0078058392 1.4116085e-38 291 246
-0.036378156 0.741 -0.0077953199 1.3657631e-38 292 246
-0.034984261 0.73900002 -0.0077742799 1.3381044e-38 293 246
-0.033642959 0.73799998 -0.0077637597 1.3106618e-38 294 246
-0.032348998 0.73799998 -0.0077637597 1.3291369e-38 295 246
-0.031055039 0.73799998 -0.0077637597 1.3566877e-38 296 246
-0.029680425 0.736 -0.0077427197 1.3659073e-38 297 246
-0.028389972 0.736 -0.0077427197 1.3934937e-38 298 246
-0.02709952 0.736 -0.0077427197 1.4027132e-38 299 246
-0.025809066 0.736 -0.0077427197 1.4027132e-38 300 246
-0.024418673 0.73299998 -0.0077111595 1.4119329e-38 301 246
-0.023133477 0.73299998 -0.0077111595 1.42108e-38 302 246
-0.021848286 0.73299998 -0.0077111595 1.4395193e-38 303 246
-0.020563092 0.73299998 -0.0077111595 1.4395549e-38 304 246
-0.019277899 0.73299998 -0.0077111595 1.4487745e-38 305 246
-0.017943613 0.73100001 -0.00769012 1.476325e-38 306 246
-0.016639132 0.73000002 -0.0076795998 1.4671054e-38 307 246
-0.0153592 0.73000002 -0.0076795998 1.4763606e-38 308 246
-0.014040692 0.72799999 -0.0076585598 1.4763606e-38 309 246
-0.012764266 0.72799999 -0.0076585598 1.4671054e-38 310 246
-0.01148784 0.72799999 -0.0076585598 1.4671054e-38 311 246
-0.010211413 0.72799999 -0.0076585598 1.448667e-38 312 246
-0.0089349858 0.72799999 -0.0076585598 1.448667e-38 313 246
-0.0076585598 0.72799999 -0.0076585598 1.4120401e-38 314 246
-0.0063821329 0.72799999 -0.0076585598 1.4120401e-38 315 246
-0.0050986931 0.727 -0.0076480396 1.4303346e-38 316 246
-0.0038240198 0.727 -0.0076480396 1.4211151e-38 317 246
-0.0025493465 0.727 -0.0076480396 1.4395179e-38 318 246
-0.0012746733 0.727 -0.0076480396 1.4302983e-38 319 246
0 0.727 -0.0076480396 1.43941e-38 320 246
0.0012746733 0.727 -0.0076480396 1.420971e-38 321 246
0.0025493465 0.727 -0.0076480396 1.3842372e-38 322 246
0.0038240198 0.727 -0.0076480396 1.3750177e-38 323 246
0.0050986931 0.727 -0.0076480396 1.3474313e-38 324 246
0.0063733663 0.727 -0.0076480396 1.3474313e-38 325 246
0.0076480396 0.727 -0.0076480396 1.3474667e-38 326 246
0.0089227129 0.727 -0.0076480396 1.3382113e-38 327 246
0.010211413 0.72799999 -0.0076585598 1.3382469e-38 328 246
0.01148784 0.72799999 -0.0076585598 1.3382469e-38 329 246
0.012764266 0.72799999 -0.0076585598 1.338175e-38 330 246
0.014040692 0.72799999 -0.0076585598 1.338175e-38 331 246
0.01531712 0.72799999 -0.0076585598 1.3381394e-38 332 246
0.016639132 0.73000002 -0.0076795998 1.3289199e-38 333 246
0.017919067 0.73000002 -0.0076795998 1.3289199e-38 334 246
0.019199001 0.73000002 -0.0076795998 1.3289199e-38 335 246
0.020506985 0.73100001 -0.00769012 1.3565062e-38 336 246
0.021788673 0.73100001 -0.00769012 1.3657258e-38 337 246
0.023133477 0.73299998 -0.0077111595 1.356506e-38 338 246
0.024451986 0.73400003 -0.0077216802 1.3380668e-38 339 246
0.025738932 0.73400003 -0.0077216802 1.3287031e-38 340 246
0.02709952 0.736 -0.0077427197 1.3287031e-38 341 246
0.028505694 0.73900002 -0.0077742799 1.3288106e-38 342 246
0.029882059 0.741 -0.0077953199 1.3288106e-38 343 246
0.03118128 0.741 -0.0077953199 1.3286302e-38 344 246
0.032524332 0.74199998 -0.0078058392 1.3102271e-38 345 246
0.033825304 0.74199998 -0.0078058392 1.3193018e-38 346 246
0.03512628 0.74199998 -0.0078058392 1.2271061e-38 347 246
0.036427252 0.74199998 -0.0078058392 1.0610451e-38 348 246
0.037829921 0.74400002 -0.0078268806 6.5534848e-39 349 246
0.039239597 0.74599999 -0.0078479191 2.1389027e-39 350 246
0.040601939 0.74699998 -0.0078584393 5.9189236e-39 351 246
0.042023893 0.74900001 -0.0078794798 1.0525105e-38 352 246
-0.051626898 0.755 -0.0092663663 1.8257281e-38 281 247
-0.050236505 0.75400001 -0.0092540924 1.531064e-38 282 247
-0.048914492 0.75400001 -0.0092540924 1.5034414e-38 283 247
-0.047466237 0.75199997 -0.0092295464 1.4575609e-38 284 247
-0.046024997 0.75 -0.0092049995 1.4390857e-38 285 247
-0.044531155 0.74699998 -0.0091681797 1.4115718e-38 286 247
-0.043221418 0.74699998 -0.0091681797 1.4023522e-38 287 247
-0.04185557 0.74599999 -0.0091559067 1.3564712e-38 288 247
-0.040547583 0.74599999 -0.0091559067 1.3564712e-38 289 247
-0.039134398 0.74400002 -0.0091313599 1.3657628e-38 290 247
-0.037728224 0.74199998 -0.009106813 1.3749824e-38 291 247
-0.036378156 0.741 -0.0090945391 1.3565431e-38 292 247
-0.034984261 0.73900002 -0.0090699932 1.33814e-38 293 247
-0.033688545 0.73900002 -0.0090699932 1.3105902e-38 294 247
-0.032348998 0.73799998 -0.0090577193 1.3105902e-38 295 247
-0.031055039 0.73799998 -0.0090577193 1.3106267e-38 296 247
-0.029680425 0.736 -0.0090331733 1.3198464e-38 297 247
-0.028389972 0.736 -0.0090331733 1.3199183e-38 298 247
-0.02709952 0.736 -0.0090331733 1.3383933e-38 299 247
-0.025809066 0.736 -0.0090331733 1.3383931e-38 300 247
-0.024418673 0.73299998 -0.0089963535 1.3383931e-38 301 247
-0.023133477 0.73299998 -0.0089963535 1.3659076e-38 302 247
-0.021848286 0.73299998 -0.0089963535 1.3751271e-38 303 247
-0.020506985 0.73100001 -0.0089718066 1.4027135e-38 304 247
-0.019225299 0.73100001 -0.0089718066 1.4119332e-38 305 247
-0.017919067 0.73000002 -0.0089595336 1.4120048e-38 306 247
-0.016639132 0.73000002 -0.0089595336 1.4120048e-38 307 247
-0.0153592 0.73000002 -0.0089595336 1.4211878e-38 308 247
-0.014040692 0.72799999 -0.0089349858 1.4211878e-38 309 247
-0.012764266 0.72799999 -0.0089349858 1.4211881e-38 310 247
-0.01148784 0.72799999 -0.0089349858 1.4211881e-38 311 247
-0.010197386 0.727 -0.0089227129 1.4120404e-38 312 247
-0.0089227129 0.727 -0.0089227129 1.4028208e-38 313 247
-0.0076480396 0.727 -0.0089227129 1.4028204e-38 314 247
-0.0063733663 0.727 -0.0089227129 1.3844173e-38 315 247
-0.0050986931 0.727 -0.0089227129 1.3844526e-38 316 247
-0.0038240198 0.727 -0.0089227129 1.3844526e-38 317 247
-0.0025493465 0.727 -0.0089227129 1.4211151e-38 318 247
-0.0012746733 0.727 -0.0089227129 1.402712e-38 319 247
0 0.727 -0.0089227129 1.384237e-38 320 247
0.0012746733 0.727 -0.0089227129 1.384237e-38 321 247
0.0025493465 0.727 -0.0089227129 1.3475388e-38 322 247
0.0038240198 0.727 -0.0089227129 1.3475388e-38 323 247
0.0050986931 0.727 -0.0089227129 1.3382832e-38 324 247
0.0063733663 0.727 -0.0089227129 1.3382832e-38 325 247
0.0076480396 0.727 -0.0089227129 1.3382113e-38 326 247
0.0089227129 0.727 -0.0089227129 1.3382113e-38 327 247
0.010211413 0.72799999 -0.0089349858 1.3382113e-38 328 247
0.01148784 0.72799999 -0.0089349858 1.3289917e-38 329 247
0.012764266 0.72799999 -0.0089349858 1.301441e-38 330 247
0.014040692 0.72799999 -0.0089349858 1.301441e-38 331 247
0.01531712 0.72799999 -0.0089349858 1.3197725e-38 332 247
0.016639132 0.73000002 -0.0089595336 1.3197725e-38 333 247
0.017943613 0.73100001 -0.0089718066 1.2921858e-38 334 247
0.019225299 0.73100001 -0.0089718066 1.2921858e-38 335 247
0.020563092 0.73299998 -0.0089963535 1.2738902e-38 336 247
0.021848286 0.73299998 -0.0089963535 1.2738902e-38 337 247
0.023133477 0.73299998 -0.0089963535 1.3198075e-38 338 247
0.024418673 0.73299998 -0.0089963535 1.2829292e-38 339 247
0.025738932 0.73400003 -0.0090086265 1.3012595e-38 340 247
0.02709952 0.736 -0.0090331733 1.2643454e-38 341 247
0.028467119 0.73799998 -0.0090577193 1.3102627e-38 342 247
0.029801406 0.73900002 -0.0090699932 1.3378854e-38 343 247
0.03118128 0.741 -0.0090945391 1.3467084e-38 344 247
0.032612 0.74400002 -0.0091313599 1.2729519e-38 345 247
0.033916477 0.74400002 -0.0091313599 1.1805022e-38 346 247
0.035220962 0.74400002 -0.0091313599 9.8689149e-39 347 247
0.036525439 0.74400002 -0.0091313599 6.6463684e-39 348 247
0.037829921 0.74400002 -0.0091313599 2.4975637e-39 349 247
0.039239597 0.74599999 -0.0091559067 7.3848429e-43 350 247
0.040601939 0.74699998 -0.0091681797 5.9063007e-39 351 247
-0.050303131 0.755 -0.010590133 1.5403192e-38 282 248
-0.048914492 0.75400001 -0.010576107 1.5034769e-38 283 248
-0.04759248 0.75400001 -0.010576107 1.4392657e-38 284 248
-0.046024997 0.75 -0.01052 1.4116068e-38 285 248
-0.044709999 0.75 -0.01052 1.3748731e-38 286 248
-0.04333714 0.74900001 -0.010505973 1.3748731e-38 287 248
-0.04185557 0.74599999 -0.010463892 1.3565065e-38 288 248
-0.040547583 0.74599999 -0.010463892 1.3565065e-38 289 248
-0.039134398 0.74400002 -0.01043584 1.3656905e-38 290 248
-0.037728224 0.74199998 -0.010407786 1.3749461e-38 291 248
-0.036378156 0.741 -0.010393759 1.365691e-38 292 248
-0.035078939 0.741 -0.010393759 1.3564356e-38 293 248
-0.033688545 0.73900002 -0.010365707 1.3105902e-38 294 248
-0.032392833 0.73900002 -0.010365707 1.3105902e-38 295 248
-0.031055039 0.73799998 -0.010351679 1.3105902e-38 296 248
-0.029761078 0.73799998 -0.010351679 1.3198097e-38 297 248
-0.028389972 0.736 -0.010323626 1.319882e-38 298 248
-0.02709952 0.736 -0.010323626 1.319882e-38 299 248
-0.025809066 0.736 -0.010323626 1.3291016e-38 300 248
-0.024451986 0.73400003 -0.010295574 1.3383212e-38 301 248
-0.023133477 0.73299998 -0.010281546 1.3566877e-38 302 248
-0.021848286 0.73299998 -0.010281546 1.3751268e-38 303 248
-0.020506985 0.73100001 -0.010253493 1.4027132e-38 304 248
-0.019225299 0.73100001 -0.010253493 1.4119329e-38 305 248
-0.017919067 0.73000002 -0.010239467 1.4303e-38 306 248
-0.016639132 0.73000002 -0.010239467 1.4303e-38 307 248
-0.0153592 0.73000002 -0.010239467 1.4394477e-38 308 248
-0.014040692 0.72799999 -0.010211413 1.4394477e-38 309 248
-0.012764266 0.72799999 -0.010211413 1.4120051e-38 310 248
-0.01148784 0.72799999 -0.010211413 1.4120051e-38 311 248
-0.010197386 0.727 -0.010197386 1.3844543e-38 312 248
-0.0089227129 0.727 -0.010197386 1.3936739e-38 313 248
-0.0076480396 0.727 -0.010197386 1.384454e-38 314 248
-0.0063733663 0.727 -0.010197386 1.3752343e-38 315 248
-0.0050986931 0.727 -0.010197386 1.4027485e-38 316 248
-0.0038240198 0.727 -0.010197386 1.4119681e-38 317 248
-0.0025493465 0.727 -0.010197386 1.4027485e-38 318 248
-0.0012746733 0.727 -0.010197386 1.3843094e-38 319 248
0 0.727 -0.010197386 1.3659063e-38 320 248
0.0012746733 0.727 -0.010197386 1.3566509e-38 321 248
0.0025493465 0.727 -0.010197386 1.3566511e-38 322 248
0.0038240198 0.727 -0.010197386 1.3566511e-38 323 248
0.0050986931 0.727 -0.010197386 1.3382839e-38 324 248
0.0063733663 0.727 -0.010197386 1.3198448e-38 325 248
0.0076585598 0.72799999 -0.010211413 1.3382116e-38 326 248
0.0089349858 0.72799999 -0.010211413 1.3382116e-38 327 248
0.010211413 0.72799999 -0.010211413 1.3289199e-38 328 248
0.01148784 0.72799999 -0.010211413 1.3289199e-38 329 248
0.012764266 0.72799999 -0.010211413 1.3013691e-38 330 248
0.014079267 0.73000002 -0.010239467 1.3013691e-38 331 248
0.0153592 0.73000002 -0.010239467 1.3104807e-38 332 248
0.016639132 0.73000002 -0.010239467 1.3104807e-38 333 248
0.017943613 0.73100001 -0.010253493 1.310481e-38 334 248
0.019277899 0.73299998 -0.010281546 1.3012256e-38 335 248
0.020563092 0.73299998 -0.010281546 1.2737467e-38 336 248
0.021848286 0.73299998 -0.010281546 1.2737467e-38 337 248
0.023133477 0.73299998 -0.010281546 1.2736744e-38 338 248
0.024418673 0.73299998 -0.010281546 1.2921495e-38 339 248
0.025738932 0.73400003 -0.010295574 1.2919327e-38 340 248
0.02709952 0.736 -0.010323626 1.1259446e-38 341 248
0.028467119 0.73799998 -0.010351679 1.042967e-38 342 248
0.029801406 0.73900002 -0.010365707 9.4155178e-39 343 248
0.03118128 0.741 -0.010393759 8.3945135e-39 344 248
0.032612 0.74400002 -0.01043584 4.9832738e-39 345 248
0.033825304 0.74199998 -0.010407786 1.9347013e-39 346 248
0.03512628 0.74199998 -0.010407786 2.3822074e-44 347 248
0.036525439 0.74400002 -0.01043584 2.1019477e-44 348 248
0.037829921 0.74400002 -0.01043584 2.8129105e-40 349 248
0.039134398 0.74400002 -0.01043584 7.43351e-40 350 248
-0.048979364 0.755 -0.011913899 1.5218082e-38 283 249
-0.04759248 0.75400001 -0.01189812 1.4300461e-38 284 249
-0.04614773 0.75199997 -0.011866559 1.4116068e-38 285 249
-0.044709999 0.75 -0.011835 1.4115718e-38 286 249
-0.04333714 0.74900001 -0.01181922 1.3930968e-38 287 249
-0.041911677 0.74699998 -0.011787659 1.3564709e-38 288 249
-0.040547583 0.74599999 -0.011771879 1.3564709e-38 289 249
-0.039134398 0.74400002 -0.011740319 1.3564712e-38 290 249
-0.037728224 0.74199998 -0.01170876 1.3564712e-38 291 249
-0.036427252 0.74199998 -0.01170876 1.3565075e-38 292 249
-0.035078939 0.741 -0.01169298 1.3565075e-38 293 249
-0.033779722 0.741 -0.01169298 1.3197374e-38 294 249
-0.032392833 0.73900002 -0.01166142 1.328957e-38 295 249
-0.031055039 0.73799998 -0.011645639 1.2646366e-38 296 249
-0.029761078 0.73799998 -0.011645639 1.2646366e-38 297 249
-0.028389972 0.736 -0.01161408 1.2738561e-38 298 249
-0.02709952 0.736 -0.01161408 1.2830757e-38 299 249
-0.025809066 0.736 -0.01161408 1.2923311e-38 300 249
-0.024451986 0.73400003 -0.011582521 1.3199539e-38 301 249
-0.023133477 0.73299998 -0.011566739 1.3199536e-38 302 249
-0.021848286 0.73299998 -0.011566739 1.3384286e-38 303 249
-0.020563092 0.73299998 -0.011566739 1.3751268e-38 304 249
-0.019225299 0.73100001 -0.01153518 1.3751268e-38 305 249
-0.017943613 0.73100001 -0.01153518 1.4027135e-38 306 249
-0.016639132 0.73000002 -0.011519399 1.4027135e-38 307 249
-0.0153592 0.73000002 -0.011519399 1.4026779e-38 308 249
-0.014040692 0.72799999 -0.01148784 1.4026779e-38 309 249
-0.012764266 0.72799999 -0.01148784 1.3660875e-38 310 249
-0.01148784 0.72799999 -0.01148784 1.3568678e-38 311 249
-0.010211413 0.72799999 -0.01148784 1.3568681e-38 312 249
-0.0089349858 0.72799999 -0.01148784 1.3568681e-38 313 249
-0.0076480396 0.727 -0.01147206 1.3568678e-38 314 249
-0.0063733663 0.727 -0.01147206 1.3476482e-38 315 249
-0.0051057064 0.72799999 -0.01148784 1.384382e-38 316 249
-0.0038292799 0.72799999 -0.01148784 1.384382e-38 317 249
-0.0025528532 0.72799999 -0.01148784 1.3751621e-38 318 249
-0.0012764266 0.72799999 -0.01148784 1.356723e-38 319 249
0 0.72799999 -0.01148784 1.3475035e-38 320 249
0.0012764266 0.72799999 -0.01148784 1.3475035e-38 321 249
0.0025528532 0.72799999 -0.01148784 1.3382839e-38 322 249
0.0038292799 0.72799999 -0.01148784 1.3382839e-38 323 249
0.0051057064 0.72799999 -0.01148784 1.3382119e-38 324 249
0.0063821329 0.72799999 -0.01148784 1.3382119e-38 325 249
0.0076585598 0.72799999 -0.01148784 1.3289564e-38 326 249
0.0089349858 0.72799999 -0.01148784 1.3197369e-38 327 249
0.010211413 0.72799999 -0.01148784 1.3013338e-38 328 249
0.01148784 0.72799999 -0.01148784 1.3013338e-38 329 249
0.012764266 0.72799999 -0.01148784 1.2921142e-38 330 249
0.014079267 0.73000002 -0.011519399 1.2921142e-38 331 249
0.01538024 0.73100001 -0.01153518 1.273747e-38 332 249
0.016661927 0.73100001 -0.01153518 1.2553078e-38 333 249
0.017992707 0.73299998 -0.011566739 1.2553078e-38 334 249
0.019277899 0.73299998 -0.011566739 1.2553078e-38 335 249
0.020563092 0.73299998 -0.011566739 1.2553078e-38 336 249
0.021848286 0.73299998 -0.011566739 1.2460883e-38 337 249
0.023133477 0.73299998 -0.011566739 1.2461236e-38 338 249
0.024418673 0.73299998 -0.011566739 1.2830018e-38 339 249
0.025738932 0.73400003 -0.011582521 1.2551989e-38 340 249
0.02709952 0.736 -0.01161408 9.0481954e-39 341 249
0.028467119 0.73799998 -0.011645639 5.3639449e-39 342 249
0.029801406 0.73900002 -0.01166142 1.9527066e-39 343 249
0.03118128 0.741 -0.01169298 2.7687584e-39 344 249
0.032612 0.74400002 -0.011740319 7.4045452e-40 345 249
0.033825304 0.74199998 -0.01170876 2.1608022e-42 346 249
0.03512628 0.74199998 -0.01170876 2.8810696e-42 347 249
-0.048979364 0.755 -0.013237666 1.5861649e-38 283 250
-0.047655597 0.755 -0.013237666 1.4576328e-38 284 250
-0.046270464 0.75400001 -0.013220133 1.4391576e-38 285 250
-0.044709999 0.75 -0.01315 1.4299033e-38 286 250
-0.04333714 0.74900001 -0.013132467 1.4022448e-38 287 250
-0.041911677 0.74699998 -0.013097399 1.3563993e-38 288 250
-0.040601939 0.74699998 -0.013097399 1.3471798e-38 289 250
-0.039134398 0.74400002 -0.0130448 1.3196653e-38 290 250
-0.037829921 0.74400002 -0.0130448 1.3381044e-38 291 250
-0.036427252 0.74199998 -0.013009733 1.3197018e-38 292 250
-0.035078939 0.741 -0.0129922 1.3197018e-38 293 250
-0.033779722 0.741 -0.0129922 1.3013703e-38 294 250
-0.032392833 0.73900002 -0.012957133 1.3013703e-38 295 250
-0.03109712 0.73900002 -0.012957133 1.2646719e-38 296 250
-0.029761078 0.73799998 -0.012939599 1.2554523e-38 297 250
-0.028467119 0.73799998 -0.012939599 1.255417e-38 298 250
-0.02709952 0.736 -0.012904533 1.2646366e-38 299 250
-0.025809066 0.736 -0.012904533 1.2647445e-38 300 250
-0.024451986 0.73400003 -0.012869466 1.2831476e-38 301 250
-0.023165042 0.73400003 -0.012869466 1.3015505e-38 302 250
-0.021848286 0.73299998 -0.012851933 1.3384286e-38 303 250
-0.020563092 0.73299998 -0.012851933 1.3659073e-38 304 250
-0.019225299 0.73100001 -0.012816866 1.3751268e-38 305 250
-0.017943613 0.73100001 -0.012816866 1.3934939e-38 306 250
-0.016639132 0.73000002 -0.012799333 1.3934939e-38 307 250
-0.0153592 0.73000002 -0.012799333 1.3751271e-38 308 250
-0.014079267 0.73000002 -0.012799333 1.3751271e-38 309 250
-0.012764266 0.72799999 -0.012764266 1.3568681e-38 310 250
-0.01148784 0.72799999 -0.012764266 1.3568681e-38 311 250
-0.010211413 0.72799999 -0.012764266 1.3568327e-38 312 250
-0.0089349858 0.72799999 -0.012764266 1.3476132e-38 313 250
-0.0076585598 0.72799999 -0.012764266 1.3476129e-38 314 250
-0.0063821329 0.72799999 -0.012764266 1.3476129e-38 315 250
-0.0051057064 0.72799999 -0.012764266 1.3659794e-38 316 250
-0.0038292799 0.72799999 -0.012764266 1.3659794e-38 317 250
-0.0025528532 0.72799999 -0.012764266 1.3475763e-38 318 250
-0.0012764266 0.72799999 -0.012764266 1.3291013e-38 319 250
0 0.72799999 -0.012764266 1.3199174e-38 320 250
0.0012764266 0.72799999 -0.012764266 1.3199174e-38 321 250
0.0025528532 0.72799999 -0.012764266 1.3199174e-38 322 250
0.0038292799 0.72799999 -0.012764266 1.3199174e-38 323 250
0.0051057064 0.72799999 -0.012764266 1.319845e-38 324 250
0.0063821329 0.72799999 -0.012764266 1.319845e-38 325 250
0.0076585598 0.72799999 -0.012764266 1.3014059e-38 326 250
0.0089349858 0.72799999 -0.012764266 1.2921864e-38 327 250
0.010211413 0.72799999 -0.012764266 1.2921142e-38 328 250
0.01148784 0.72799999 -0.012764266 1.2921142e-38 329 250
0.012799333 0.73000002 -0.012799333 1.282859e-38 330 250
0.014079267 0.73000002 -0.012799333 1.2736393e-38 331 250
0.01538024 0.73100001 -0.012816866 1.2736393e-38 332 250
0.016661927 0.73100001 -0.012816866 1.2736393e-38 333 250
0.017992707 0.73299998 -0.012851933 1.2461602e-38 334 250
0.019277899 0.73299998 -0.012851933 1.2369406e-38 335 250
0.020563092 0.73299998 -0.012851933 1.2185375e-38 336 250
0.021848286 0.73299998 -0.012851933 1.2185375e-38 337 250
0.023165042 0.73400003 -0.012869466 1.2093176e-38 338 250
0.024451986 0.73400003 -0.012869466 1.2554154e-38 339 250
0.025738932 0.73400003 -0.012869466 1.2275773e-38 340 250
0.02709952 0.736 -0.012904533 7.389044e-39 341 250
0.028467119 0.73799998 -0.012939599 1.6746946e-39 342 250
0.029801406 0.73900002 -0.012957133 3.7835059e-44 343 250
-0.049109112 0.75700003 -0.014600007 1.6689968e-38 283 251
-0.04778184 0.75700003 -0.014600007 1.4943668e-38 284 251
-0.04633183 0.755 -0.014561433 1.4758918e-38 285 251
-0.044829223 0.75199997 -0.014503572 1.4115362e-38 286 251
-0.043394998 0.75 -0.014465 1.4023166e-38 287 251
-0.042023893 0.74900001 -0.014445714 1.3472516e-38 288 251
-0.040601939 0.74699998 -0.014407139 1.3380321e-38 289 251
-0.039239597 0.74599999 -0.014387853 1.3104101e-38 290 251
-0.037829921 0.74400002 -0.01434928 1.3196655e-38 291 251
-0.036427252 0.74199998 -0.014310705 1.2920436e-38 292 251
-0.03512628 0.74199998 -0.014310705 1.3197021e-38 293 251
-0.033779722 0.741 -0.01429142 1.3289214e-38 294 251
-0.032480497 0.741 -0.01429142 1.3289214e-38 295 251
-0.03109712 0.73900002 -0.014252847 1.2646719e-38 296 251
-0.029801406 0.73900002 -0.014252847 1.2370133e-38 297 251
-0.028467119 0.73799998 -0.014233559 1.2370855e-38 298 251
-0.027173158 0.73799998 -0.014233559 1.2370855e-38 299 251
-0.025809066 0.736 -0.014194986 1.2555249e-38 300 251
-0.024451986 0.73400003 -0.014156413 1.2647445e-38 301 251
-0.023165042 0.73400003 -0.014156413 1.3199892e-38 302 251
-0.021848286 0.73299998 -0.014137126 1.3292088e-38 303 251
-0.020563092 0.73299998 -0.014137126 1.3566877e-38 304 251
-0.019277899 0.73299998 -0.014137126 1.3566877e-38 305 251
-0.017992707 0.73299998 -0.014137126 1.3658354e-38 306 251
-0.016661927 0.73100001 -0.014098554 1.3842744e-38 307 251
-0.01538024 0.73100001 -0.014098554 1.3659078e-38 308 251
-0.014079267 0.73000002 -0.014079267 1.3659078e-38 309 251
-0.012799333 0.73000002 -0.014079267 1.3568325e-38 310 251
-0.01148784 0.72799999 -0.014040692 1.3476129e-38 311 251
-0.010211413 0.72799999 -0.014040692 1.3292461e-38 312 251
-0.0089349858 0.72799999 -0.014040692 1.3292461e-38 313 251
-0.0076585598 0.72799999 -0.014040692 1.347541e-38 314 251
-0.0063821329 0.72799999 -0.014040692 1.347541e-38 315 251
-0.0051057064 0.72799999 -0.014040692 1.3292814e-38 316 251
-0.0038292799 0.72799999 -0.014040692 1.3200618e-38 317 251
-0.0025528532 0.72799999 -0.014040692 1.3383931e-38 318 251
-0.0012764266 0.72799999 -0.014040692 1.3199539e-38 319 251
0 0.72799999 -0.014040692 1.3199539e-38 320 251
0.0012764266 0.72799999 -0.014040692 1.3015508e-38 321 251
0.0025528532 0.72799999 -0.014040692 1.3198818e-38 322 251
0.0038292799 0.72799999 -0.014040692 1.3106621e-38 323 251
0.0051057064 0.72799999 -0.014040692 1.3014422e-38 324 251
0.0063821329 0.72799999 -0.014040692 1.3014422e-38 325 251
0.0076585598 0.72799999 -0.014040692 1.301334e-38 326 251
0.0089349858 0.72799999 -0.014040692 1.2921145e-38 327 251
0.010211413 0.72799999 -0.014040692 1.282859e-38 328 251
0.01148784 0.72799999 -0.014040692 1.2736393e-38 329 251
0.012799333 0.73000002 -0.014079267 1.2644198e-38 330 251
0.014098554 0.73100001 -0.014098554 1.2644198e-38 331 251
0.01538024 0.73100001 -0.014098554 1.2644195e-38 332 251
0.016661927 0.73100001 -0.014098554 1.2551999e-38 333 251
0.017992707 0.73299998 -0.014137126 1.2185372e-38 334 251
0.019277899 0.73299998 -0.014137126 1.2093176e-38 335 251
0.020563092 0.73299998 -0.014137126 1.2093179e-38 336 251
0.021878093 0.73400003 -0.014156413 1.2000983e-38 337 251
0.023165042 0.73400003 -0.014156413 1.1908429e-38 338 251
0.024451986 0.73400003 -0.014156413 1.2553799e-38 339 251
0.025738932 0.73400003 -0.014156413 1.20921e-38 340 251
0.02709952 0.736 -0.014194986 6.652558e-39 341 251
0.028505694 0.73900002 -0.014252847 2.4079436e-39 342 251
-0.047655597 0.755 -0.015885198 1.5311369e-38 284 252
-0.04633183 0.755 -0.015885198 1.4942586e-38 285 252
-0.044948451 0.75400001 -0.01586416 1.4575256e-38 286 252
-0.043626439 0.75400001 -0.01586416 1.4298309e-38 287 252
-0.042023893 0.74900001 -0.01575896 1.356399e-38 288 252
-0.040601939 0.74699998 -0.015716879 1.3471795e-38 289 252
-0.039292198 0.74699998 -0.015716879 1.2829315e-38 290 252
-0.03793161 0.74599999 -0.015695838 1.2829315e-38 291 252
-0.036525439 0.74400002 -0.015653761 1.2553095e-38 292 252
-0.03512628 0.74199998 -0.015611678 1.2645649e-38 293 252
-0.033825304 0.74199998 -0.015611678 1.2830038e-38 294 252
-0.032480497 0.741 -0.01559064 1.2830038e-38 295 252
-0.03118128 0.741 -0.01559064 1.2646719e-38 296 252
-0.029801406 0.73900002 -0.01554856 1.2554523e-38 297 252
-0.028467119 0.73799998 -0.015527519 1.2370139e-38 298 252
-0.027173158 0.73799998 -0.015527519 1.2277942e-38 299 252
-0.025809066 0.736 -0.015485439 1.2553814e-38 300 252
-0.024451986 0.73400003 -0.01544336 1.2738564e-38 301 252
-0.023165042 0.73400003 -0.01544336 1.2831832e-38 302 252
-0.021878093 0.73400003 -0.01544336 1.2924029e-38 303 252
-0.020563092 0.73299998 -0.015422319 1.3015503e-38 304 252
-0.019277899 0.73299998 -0.015422319 1.3292088e-38 305 252
-0.017992707 0.73299998 -0.015422319 1.3015505e-38 306 252
-0.016661927 0.73100001 -0.01538024 1.3015505e-38 307 252
-0.01538024 0.73100001 -0.01538024 1.3199183e-38 308 252
-0.014098554 0.73100001 -0.01538024 1.3291738e-38 309 252
-0.012799333 0.73000002 -0.0153592 1.3200265e-38 310 252
-0.011519399 0.73000002 -0.0153592 1.3200265e-38 311 252
-0.010239467 0.73000002 -0.0153592 1.3292464e-38 312 252
-0.0089595336 0.73000002 -0.0153592 1.3200268e-38 313 252
-0.0076585598 0.72799999 -0.01531712 1.3291382e-38 314 252
-0.0063821329 0.72799999 -0.01531712 1.3476132e-38 315 252
-0.0051197335 0.73000002 -0.0153592 1.3476848e-38 316 252
-0.0038292799 0.72799999 -0.01531712 1.3292817e-38 317 252
-0.0025528532 0.72799999 -0.01531712 1.3200621e-38 318 252
-0.0012764266 0.72799999 -0.01531712 1.3015871e-38 319 252
0 0.72799999 -0.01531712 1.2923673e-38 320 252
0.0012764266 0.72799999 -0.01531712 1.2923673e-38 321 252
0.0025598668 0.73000002 -0.0153592 1.3015505e-38 322 252
0.0038397999 0.73000002 -0.0153592 1.2923308e-38 323 252
0.0051197335 0.73000002 -0.0153592 1.3014422e-38 324 252
0.0063996664 0.73000002 -0.0153592 1.2830391e-38 325 252
0.0076585598 0.72799999 -0.01531712 1.2829312e-38 326 252
0.0089349858 0.72799999 -0.01531712 1.2737116e-38 327 252
0.010211413 0.72799999 -0.01531712 1.2553084e-38 328 252
0.01148784 0.72799999 -0.01531712 1.2460888e-38 329 252
0.012799333 0.73000002 -0.0153592 1.2368334e-38 330 252
0.014098554 0.73100001 -0.01538024 1.2368334e-38 331 252
0.015422319 0.73299998 -0.015422319 1.2092823e-38 332 252
0.016707512 0.73299998 -0.015422319 1.2092823e-38 333 252
0.017992707 0.73299998 -0.015422319 1.2184296e-38 334 252
0.019304199 0.73400003 -0.01544336 1.2276491e-38 335 252
0.020591147 0.73400003 -0.01544336 1.2000628e-38 336 252
0.021878093 0.73400003 -0.01544336 1.1908432e-38 337 252
0.023165042 0.73400003 -0.01544336 1.1816232e-38 338 252
0.024451986 0.73400003 -0.01544336 1.2461602e-38 339 252
0.025738932 0.73400003 -0.01544336 1.1723683e-38 340 252
0.02709952 0.736 -0.015485439 4.6249786e-39 341 252
-0.049768366 0.81099999 -0.018485393 1.5310646e-38 285 253
-0.048346411 0.81099999 -0.018485393 1.4391223e-38 286 253
-0.046577301 0.80500001 -0.018348632 1.4299027e-38 287 253
-0.042023893 0.74900001 -0.017072206 1.3289201e-38 288 253
-0.040601939 0.74699998 -0.017026618 1.3197006e-38 289 253
-0.039292198 0.74699998 -0.017026618 1.2829312e-38 290 253
-0.03798246 0.74699998 -0.017026618 1.2737116e-38 291 253
-0.036623627 0.74599999 -0.017003827 1.2553451e-38 292 253
-0.035220962 0.74400002 -0.016958239 1.2553451e-38 293 253
-0.033825304 0.74199998 -0.016912652 1.2828962e-38 294 253
-0.032524332 0.74199998 -0.016912652 1.3013353e-38 295 253
-0.03118128 0.741 -0.016889861 1.2830757e-38 296 253
-0.029882059 0.741 -0.016889861 1.255417e-38 297 253
-0.028505694 0.73900002 -0.016844273 1.2278292e-38 298 253
-0.027173158 0.73799998 -0.016821479 1.2370489e-38 299 253
-0.025879199 0.73799998 -0.016821479 1.3014056e-38 300 253
-0.024451986 0.73400003 -0.016730307 1.3106252e-38 301 253
-0.023165042 0.73400003 -0.016730307 1.2830391e-38 302 253
-0.021878093 0.73400003 -0.016730307 1.2830391e-38 303 253
-0.020591147 0.73400003 -0.016730307 1.2738917e-38 304 253
-0.019304199 0.73400003 -0.016730307 1.2923308e-38 305 253
-0.017992707 0.73299998 -0.016707512 1.3383931e-38 306 253
-0.016707512 0.73299998 -0.016707512 1.3476126e-38 307 253
-0.01538024 0.73100001 -0.016661927 1.347541e-38 308 253
-0.014098554 0.73100001 -0.016661927 1.3659441e-38 309 253
-0.012816866 0.73100001 -0.016661927 1.3660522e-38 310 253
-0.011519399 0.73000002 -0.016639132 1.3660522e-38 311 253
-0.010239467 0.73000002 -0.016639132 1.3751637e-38 312 253
-0.0089595336 0.73000002 -0.016639132 1.3383214e-38 313 253
-0.0076795998 0.73000002 -0.016639132 1.3383214e-38 314 253
-0.0063996664 0.73000002 -0.016639132 1.3659441e-38 315 253
-0.0051197335 0.73000002 -0.016639132 1.3109867e-38 316 253
-0.0038397999 0.73000002 -0.016639132 1.2925476e-38 317 253
-0.0025528532 0.72799999 -0.016593546 1.2832925e-38 318 253
-0.0012764266 0.72799999 -0.016593546 1.2740729e-38 319 253
0 0.73000002 -0.016639132 1.2923678e-38 320 253
0.0012799334 0.73000002 -0.016639132 1.2923678e-38 321 253
0.0025598668 0.73000002 -0.016639132 1.2924029e-38 322 253
0.0038397999 0.73000002 -0.016639132 1.2831832e-38 323 253
0.0051197335 0.73000002 -0.016639132 1.2830394e-38 324 253
0.0063996664 0.73000002 -0.016639132 1.2738198e-38 325 253
0.0076795998 0.73000002 -0.016639132 1.273676e-38 326 253
0.0089595336 0.73000002 -0.016639132 1.273676e-38 327 253
0.010239467 0.73000002 -0.016639132 1.2644201e-38 328 253
0.011519399 0.73000002 -0.016639132 1.2552005e-38 329 253
0.012816866 0.73100001 -0.016661927 1.236869e-38 330 253
0.014137126 0.73299998 -0.016707512 1.2276494e-38 331 253
0.015422319 0.73299998 -0.016707512 1.2276491e-38 332 253
0.016707512 0.73299998 -0.016707512 1.2184296e-38 333 253
0.017992707 0.73299998 -0.016707512 1.2275773e-38 334 253
0.019304199 0.73400003 -0.016730307 1.2183577e-38 335 253
0.020591147 0.73400003 -0.016730307 1.2183221e-38 336 253
0.021878093 0.73400003 -0.016730307 1.2091024e-38 337 253
0.023165042 0.73400003 -0.016730307 1.1448529e-38 338 253
0.024451986 0.73400003 -0.016730307 1.2278289e-38 339 253
0.025738932 0.73400003 -0.016730307 1.0801011e-38 340 253
0.02709952 0.736 -0.016775893 4.7510044e-40 341 253
-0.049768366 0.81099999 -0.019907346 1.5585785e-38 285 254
-0.048346411 0.81099999 -0.019907346 1.4483773e-38 286 254
-0.043626439 0.75400001 -0.018508185 1.4299381e-38 287 254
-0.04208 0.75 -0.018409999 1.393205e-38 288 254
-0.040710647 0.74900001 -0.018385453 1.3655463e-38 289 254
-0.039292198 0.74699998 -0.018336359 1.2920789e-38 290 254
-0.03798246 0.74699998 -0.018336359 1.2920789e-38 291 254
-0.036672719 0.74699998 -0.018336359 1.2460898e-38 292 254
-0.035220962 0.74400002 -0.01826272 1.2553095e-38 293 254
-0.033825304 0.74199998 -0.018213626 1.2369783e-38 294 254
-0.032524332 0.74199998 -0.018213626 1.2369783e-38 295 254
-0.031223357 0.74199998 -0.018213626 1.2553814e-38 296 254
-0.029882059 0.741 -0.018189078 1.2553814e-38 297 254
-0.028505694 0.73900002 -0.018139986 1.236869e-38 298 254
-0.027209979 0.73900002 -0.018139986 1.0155636e-38 299 254
-0.025879199 0.73799998 -0.018115439 1.0432935e-38 300 254
-0.024518613 0.736 -0.018066347 1.1631119e-38 301 254
-0.023165042 0.73400003 -0.018017253 1.2365816e-38 302 254
-0.021878093 0.73400003 -0.018017253 1.2734598e-38 303 254
-0.020591147 0.73400003 -0.018017253 1.2458732e-38 304 254
-0.019304199 0.73400003 -0.018017253 1.2735677e-38 305 254
-0.018017253 0.73400003 -0.018017253 1.3012984e-38 306 254
-0.016707512 0.73299998 -0.017992707 1.328957e-38 307 254
-0.015422319 0.73299998 -0.017992707 1.31981e-38 308 254
-0.014137126 0.73299998 -0.017992707 1.31981e-38 309 254
-0.012816866 0.73100001 -0.017943613 1.3933867e-38 310 254
-0.011519399 0.73000002 -0.017919067 1.4302291e-38 311 254
-0.010239467 0.73000002 -0.017919067 1.3659794e-38 312 254
-0.0089595336 0.73000002 -0.017919067 1.3198818e-38 313 254
-0.0076795998 0.73000002 -0.017919067 1.3108423e-38 314 254
-0.0063996664 0.73000002 -0.017919067 1.3569042e-38 315 254
-0.0051197335 0.73000002 -0.017919067 1.329318e-38 316 254
-0.0038397999 0.73000002 -0.017919067 1.3200984e-38 317 254
-0.0025598668 0.73000002 -0.017919067 1.3200265e-38 318 254
-0.0012799334 0.73000002 -0.017919067 1.3015874e-38 319 254
0 0.73000002 -0.017919067 1.2648886e-38 320 254
0.0012799334 0.73000002 -0.017919067 1.2648886e-38 321 254
0.0025598668 0.73000002 -0.017919067 1.2372655e-38 322 254
0.0038397999 0.73000002 -0.017919067 1.228046e-38 323 254
0.0051197335 0.73000002 -0.017919067 1.255417e-38 324 254
0.0063996664 0.73000002 -0.017919067 1.2277942e-38 325 254
0.0076795998 0.73000002 -0.017919067 1.2277939e-38 326 254
0.0089595336 0.73000002 -0.017919067 1.2185743e-38 327 254
0.010239467 0.73000002 -0.017919067 1.2093545e-38 328 254
0.011519399 0.73000002 -0.017919067 1.2001349e-38 329 254
0.012816866 0.73100001 -0.017943613 1.1909154e-38 330 254
0.014137126 0.73299998 -0.017992707 1.1909154e-38 331 254
0.015422319 0.73299998 -0.017992707 1.2091744e-38 332 254
0.016707512 0.73299998 -0.017992707 1.2091744e-38 333 254
0.018017253 0.73400003 -0.018017253 1.20921e-38 334 254
0.019304199 0.73400003 -0.018017253 1.20921e-38 335 254
0.020591147 0.73400003 -0.018017253 1.163292e-38 336 254
0.021878093 0.73400003 -0.018017253 1.1448529e-38 337 254
0.023165042 0.73400003 -0.018017253 1.1724036e-38 338 254
0.024518613 0.736 -0.018066347 1.1816232e-38 339 254
0.025809066 0.736 -0.018066347 7.9494078e-39 340 254
0.02709952 0.736 -0.018066347 8.6992609e-42 341 254
-0.045008067 0.755 -0.0198565 1.4484482e-38 286 255
-0.043626439 0.75400001 -0.019830201 1.4391927e-38 287 255
-0.04208 0.75 -0.019724999 1.3748375e-38 288 255
-0.040764999 0.75 -0.019724999 1.3472148e-38 289 255
-0.0393974 0.74900001 -0.0196987 1.2920789e-38 290 255
-0.03798246 0.74699998 -0.019646099 1.2828593e-38 291 255
-0.036672719 0.74699998 -0.019646099 1.2370139e-38 292 255
-0.035362978 0.74699998 -0.019646099 1.2370139e-38 293 255
-0.034007654 0.74599999 -0.019619798 1.2277586e-38 294 255
-0.032699663 0.74599999 -0.019619798 1.2277586e-38 295 255
-0.031307522 0.74400002 -0.019567199 1.2186109e-38 296 255
-0.029922385 0.74199998 -0.0195146 1.1909882e-38 297 255
-0.028582839 0.741 -0.019488299 1.080209e-38 298 255
-0.027283618 0.741 -0.019488299 1.0703818e-40 299 255
-0.025914267 0.73900002 -0.0194357 1.6277483e-41 300 255
-0.024518613 0.736 -0.019356798 2.5102412e-39 301 255
-0.023228159 0.736 -0.019356798 4.534592e-39 302 255
-0.021937706 0.736 -0.019356798 5.6412997e-39 303 255
-0.020591147 0.73400003 -0.019304199 6.7451235e-39 304 255
-0.019304199 0.73400003 -0.019304199 7.2061003e-39 305 255
-0.018017253 0.73400003 -0.019304199 7.5759562e-39 306 255
-0.016707512 0.73299998 -0.019277899 8.2213256e-39 307 255
-0.015422319 0.73299998 -0.019277899 8.7737805e-39 308 255
-0.014137126 0.73299998 -0.019277899 9.1425616e-39 309 255
-0.012816866 0.73100001 -0.019225299 1.0062367e-38 310 255
-0.01153518 0.73100001 -0.019225299 1.0800291e-38 311 255
-0.010253493 0.73100001 -0.019225299 9.6093047e-39 312 255
-0.0089595336 0.73000002 -0.019199001 1.0531261e-38 313 255
-0.0076795998 0.73000002 -0.019199001 1.3382859e-38 314 255
-0.0063996664 0.73000002 -0.019199001 1.4304812e-38 315 255
-0.0051197335 0.73000002 -0.019199001 1.3386098e-38 316 255
-0.0038397999 0.73000002 -0.019199001 1.3017675e-38 317 255
-0.0025598668 0.73000002 -0.019199001 1.2924401e-38 318 255
-0.0012799334 0.73000002 -0.019199001 1.2832206e-38 319 255
0 0.73000002 -0.019199001 1.2831478e-38 320 255
0.0012799334 0.73000002 -0.019199001 1.2555252e-38 321 255
0.0025633732 0.73100001 -0.019225299 1.2371576e-38 322 255
0.00384506 0.73100001 -0.019225299 1.2094991e-38 323 255
0.0051267464 0.73100001 -0.019225299 1.218539e-38 324 255
0.006408433 0.73100001 -0.019225299 1.218539e-38 325 255
0.00769012 0.73100001 -0.019225299 1.2093195e-38 326 255
0.0089718066 0.73100001 -0.019225299 1.2000999e-38 327 255
0.010253493 0.73100001 -0.019225299 1.19088e-38 328 255
