# .PCD v.7 - Point Cloud Data file format
FIELDS x y z rgb imX imY
SIZE 4 4 4 4 4 4
TYPE F F F F F F
COUNT 1 1 1 1 1 1
WIDTH 833
HEIGHT 1
VIEWPOINT 0 0 0 1 0 0 0
POINTS 833
DATA ascii
-0.016221842 0.77100003 -0 1.8903348e-38 308 240
-0.01487002 0.77100003 -0 1.715163e-38 309 240
-0.013483133 0.76899999 -0 1.4204986e-38 310 240
-0.01210326 0.76700002 -0 1.6509517e-38 311 240
-0.010758453 0.76700002 -0 1.927289e-38 312 240
-0.0094136465 0.76700002 -0 1.9549478e-38 313 240
-0.00806884 0.76700002 -0 1.9550532e-38 314 240
-0.006724033 0.76700002 -0 2.1302246e-38 315 240
-0.0053792265 0.76700002 -0 2.1946171e-38 316 240
-0.00403442 0.76700002 -0 2.2038365e-38 317 240
-0.0026896133 0.76700002 -0 2.2680138e-38 318 240
-0.0013448066 0.76700002 -0 2.2218808e-38 319 240
0 0.76700002 -0 1.5589735e-38 320 240
0.0013448066 0.76700002 -0 1.5128397e-38 321 240
0.0026896133 0.76700002 -0 1.5865968e-38 322 240
0.0040449398 0.76899999 -0 1.6142556e-38 323 240
0.0053932532 0.76899999 -0 1.5406066e-38 324 240
0.0067590997 0.77100003 -0 1.5129479e-38 325 240
0.0081109209 0.77100003 -0 1.5500059e-38 326 240
0.0094627403 0.77100003 -0 1.6145429e-38 327 240
0.010842613 0.773 -0 1.6512416e-38 328 240
0.01221372 0.77399999 -0 1.6420221e-38 329 240
0.013605867 0.77600002 -0 1.6879397e-38 330 240
0.014966453 0.77600002 -0 1.6971594e-38 331 240
0.016369121 0.778 -0 1.5497906e-38 332 240
0.017733213 0.778 -0 1.4484112e-38 333 240
0.0191464 0.77999997 -0 1.5130198e-38 334 240
0.020513998 0.77999997 -0 1.5407145e-38 335 240
0.021881599 0.77999997 -0 1.4854334e-38 336 240
0.023249198 0.77999997 -0 1.4116769e-38 337 240
0.024616797 0.77999997 -0 1.4301516e-38 338 240
-0.028645959 0.778 -0.0013640933 9.7763493e-39 299 241
-0.027141599 0.77399999 -0.0013570799 1.5399932e-38 300 241
-0.025784519 0.77399999 -0.0013570799 1.8995562e-38 301 241
-0.02442744 0.77399999 -0.0013570799 1.7433298e-38 302 241
-0.02307036 0.77399999 -0.0013570799 1.7433298e-38 303 241
-0.021713279 0.77399999 -0.0013570799 1.8632554e-38 304 241
-0.0203299 0.773 -0.0013553266 1.9647055e-38 305 241
-0.018974574 0.773 -0.0013553266 2.0193752e-38 306 241
-0.01757366 0.77100003 -0.00135182 1.9087765e-38 307 241
-0.016221842 0.77100003 -0.00135182 1.5592956e-38 308 241
-0.014831445 0.76899999 -0.0013483133 1.5316369e-38 309 241
-0.013483133 0.76899999 -0.0013483133 1.7982483e-38 310 241
-0.01210326 0.76700002 -0.0013448066 1.9181027e-38 311 241
-0.010758453 0.76700002 -0.0013448066 1.8812966e-38 312 241
-0.0094136465 0.76700002 -0.0013448066 1.8905163e-38 313 241
-0.00806884 0.76700002 -0.0013448066 1.8905887e-38 314 241
-0.006724033 0.76700002 -0.0013448066 1.9551257e-38 315 241
-0.0053792265 0.76700002 -0.0013448066 2.0474285e-38 316 241
-0.00403442 0.76700002 -0.0013448066 2.1580623e-38 317 241
-0.0026896133 0.76700002 -0.0013448066 2.1484124e-38 318 241
-0.0013448066 0.76700002 -0.0013448066 2.0101191e-38 319 241
0 0.76700002 -0.0013448066 1.6051077e-38 320 241
0.0013483133 0.76899999 -0.0013483133 1.5867044e-38 321 241
0.0026966266 0.76899999 -0.0013483133 1.6052158e-38 322 241
0.0040449398 0.76899999 -0.0013483133 1.6605332e-38 323 241
0.0053932532 0.76899999 -0.0013483133 1.7797036e-38 324 241
0.0067590997 0.77100003 -0.00135182 1.5860927e-38 325 241
0.0081109209 0.77100003 -0.00135182 1.3935978e-38 326 241
0.0094627403 0.77100003 -0.00135182 1.6148313e-38 327 241
0.010842613 0.773 -0.0013553266 1.7616257e-38 328 241
0.01221372 0.77399999 -0.0013570799 1.7340029e-38 329 241
0.013570799 0.77399999 -0.0013570799 1.7340379e-38 330 241
0.014966453 0.77600002 -0.0013605866 1.669501e-38 331 241
0.01632704 0.77600002 -0.0013605866 1.3932381e-38 332 241
0.017733213 0.778 -0.0013640933 1.3747991e-38 333 241
0.0191464 0.77999997 -0.0013675999 1.5224196e-38 334 241
0.020513998 0.77999997 -0.0013675999 1.4855053e-38 335 241
0.021881599 0.77999997 -0.0013675999 1.5038005e-38 336 241
0.023249198 0.77999997 -0.0013675999 1.4669224e-38 337 241
0.024648361 0.78100002 -0.0013693533 1.4394432e-38 338 241
0.026017714 0.78100002 -0.0013693533 1.5777367e-38 339 241
-0.03020292 0.78299999 -0.0027457199 0 298 242
-0.028756421 0.78100002 -0.0027387065 1.1340801e-38 299 242
-0.027211733 0.77600002 -0.0027211732 1.6507006e-38 300 242
-0.025784519 0.77399999 -0.0027141599 1.8719701e-38 301 242
-0.02442744 0.77399999 -0.0027141599 1.7341095e-38 302 242
-0.02307036 0.77399999 -0.0027141599 1.7156704e-38 303 242
-0.021713279 0.77399999 -0.0027141599 1.7802429e-38 304 242
-0.0203299 0.773 -0.0027106532 1.9093168e-38 305 242
-0.018974574 0.773 -0.0027106532 1.9643096e-38 306 242
-0.01757366 0.77100003 -0.0027036399 1.8352358e-38 307 242
-0.016179759 0.76899999 -0.0026966266 1.4945791e-38 308 242
-0.014831445 0.76899999 -0.0026966266 1.5406411e-38 309 242
-0.013448066 0.76700002 -0.0026896133 1.8628577e-38 310 242
-0.01210326 0.76700002 -0.0026896133 1.8905166e-38 311 242
-0.010758453 0.76700002 -0.0026896133 1.8628575e-38 312 242
-0.0094136465 0.76700002 -0.0026896133 1.8812966e-38 313 242
-0.00806884 0.76700002 -0.0026896133 1.8722219e-38 314 242
-0.006724033 0.76700002 -0.0026896133 1.9183196e-38 315 242
-0.0053792265 0.76700002 -0.0026896133 2.0195907e-38 316 242
-0.00403442 0.76700002 -0.0026896133 2.1301888e-38 317 242
-0.0026896133 0.76700002 -0.0026896133 1.9182841e-38 318 242
-0.0013483133 0.76899999 -0.0026966266 1.7431483e-38 319 242
0 0.76899999 -0.0026966266 1.6052158e-38 320 242
0.0013483133 0.76899999 -0.0026966266 1.6328744e-38 321 242
0.0026966266 0.76899999 -0.0026966266 1.6696449e-38 322 242
0.0040449398 0.76899999 -0.0026966266 1.6973394e-38 323 242
0.0053932532 0.76899999 -0.0026966266 1.724603e-38 324 242
0.0067590997 0.77100003 -0.0027036399 1.1806486e-38 325 242
0.0081109209 0.77100003 -0.0027036399 6.9377614e-39 326 242
0.0094627403 0.77100003 -0.0027036399 1.0440835e-38 327 242
0.01081456 0.77100003 -0.0027036399 1.4488092e-38 328 242
0.012197939 0.773 -0.0027106532 1.5778831e-38 329 242
0.013570799 0.77399999 -0.0027141599 1.6879046e-38 330 242
0.014966453 0.77600002 -0.0027211732 1.5957091e-38 331 242
0.01632704 0.77600002 -0.0027211732 1.3564321e-38 332 242
0.017733213 0.778 -0.0027281865 1.3933104e-38 333 242
0.0191464 0.77999997 -0.0027351999 1.5039451e-38 334 242
0.020513998 0.77999997 -0.0027351999 1.4578473e-38 335 242
0.021881599 0.77999997 -0.0027351999 1.4761785e-38 336 242
0.023249198 0.77999997 -0.0027351999 1.4761785e-38 337 242
0.024648361 0.78100002 -0.0027387065 1.4945807e-38 338 242
0.026017714 0.78100002 -0.0027387065 1.5407145e-38 339 242
-0.03020292 0.78299999 -0.0041185799 1.4012985e-45 298 243
-0.028756421 0.78100002 -0.0041080597 1.1985817e-38 299 243
-0.027281865 0.778 -0.0040922803 1.7061622e-38 300 243
-0.025784519 0.77399999 -0.0040712398 1.835236e-38 301 243
-0.02442744 0.77399999 -0.0040712398 1.7156704e-38 302 243
-0.02307036 0.77399999 -0.0040712398 1.7248899e-38 303 243
-0.021713279 0.77399999 -0.0040712398 1.7708443e-38 304 243
-0.0203299 0.773 -0.0040659797 1.8169061e-38 305 243
-0.018974574 0.773 -0.0040659797 1.8538191e-38 306 243
-0.01757366 0.77100003 -0.0040554604 1.7432202e-38 307 243
-0.016179759 0.76899999 -0.0040449398 1.5680112e-38 308 243
-0.014792874 0.76700002 -0.00403442 1.660207e-38 309 243
-0.013448066 0.76700002 -0.00403442 1.8721489e-38 310 243
-0.01210326 0.76700002 -0.00403442 1.8721489e-38 311 243
-0.010758453 0.76700002 -0.00403442 1.8445628e-38 312 243
-0.0094136465 0.76700002 -0.00403442 1.8445628e-38 313 243
-0.00806884 0.76700002 -0.00403442 1.8630745e-38 314 243
-0.006724033 0.76700002 -0.00403442 1.8999529e-38 315 243
-0.0053792265 0.76700002 -0.00403442 2.0286674e-38 316 243
-0.00403442 0.76700002 -0.00403442 2.0471063e-38 317 243
-0.0026896133 0.76700002 -0.00403442 1.7157788e-38 318 243
-0.0013483133 0.76899999 -0.0040449398 1.5774495e-38 319 243
0 0.76899999 -0.0040449398 1.6051808e-38 320 243
0.0013483133 0.76899999 -0.0040449398 1.6328035e-38 321 243
0.0026966266 0.76899999 -0.0040449398 1.6697896e-38 322 243
0.0040449398 0.76899999 -0.0040449398 1.6605701e-38 323 243
0.0053932532 0.76899999 -0.0040449398 1.4118589e-38 324 243
0.0067590997 0.77100003 -0.0040554604 2.8703637e-39 325 243
0.0081109209 0.77100003 -0.0040554604 8.7104713e-42 326 243
0.0094627403 0.77100003 -0.0040554604 2.5959502e-39 327 243
0.01081456 0.77100003 -0.0040554604 5.1889367e-39 328 243
0.012197939 0.773 -0.0040659797 9.4295756e-39 329 243
0.013553266 0.773 -0.0040659797 1.3195554e-38 330 243
0.014927879 0.77399999 -0.0040712398 1.328775e-38 331 243
0.016369121 0.778 -0.0040922803 1.3473214e-38 332 243
0.017733213 0.778 -0.0040922803 1.4395529e-38 333 243
0.0191464 0.77999997 -0.0041027996 1.4488079e-38 334 243
0.020513998 0.77999997 -0.0041027996 1.4303687e-38 335 243
0.021881599 0.77999997 -0.0041027996 1.4486277e-38 336 243
0.023279008 0.78100002 -0.0041080597 1.4486277e-38 337 243
0.024648361 0.78100002 -0.0041080597 1.4945807e-38 338 243
0.026017714 0.78100002 -0.0041080597 1.4945807e-38 339 243
0.027457198 0.78299999 -0.0041185799 1.5498612e-38 340 243
-0.030125774 0.78100002 -0.0054774131 0 298 244
-0.028756421 0.78100002 -0.0054774131 1.2538624e-38 299 244
-0.027281865 0.778 -0.0054563731 1.7064142e-38 300 244
-0.025784519 0.77399999 -0.0054283198 1.7524761e-38 301 244
-0.02442744 0.77399999 -0.0054283198 1.6880124e-38 302 244
-0.02307036 0.77399999 -0.0054283198 1.7156351e-38 303 244
-0.021713279 0.77399999 -0.0054283198 1.7708443e-38 304 244
-0.0203299 0.773 -0.0054213065 1.7984669e-38 305 244
-0.018974574 0.773 -0.0054213065 1.6881193e-38 306 244
-0.01757366 0.77100003 -0.0054072798 1.6051432e-38 307 244
-0.016179759 0.76899999 -0.0053932532 1.6877583e-38 308 244
-0.014792874 0.76700002 -0.0053792265 1.8075768e-38 309 244
-0.013448066 0.76700002 -0.0053792265 1.8813689e-38 310 244
-0.01210326 0.76700002 -0.0053792265 1.8444906e-38 311 244
-0.010758453 0.76700002 -0.0053792265 1.8444912e-38 312 244
-0.0094136465 0.76700002 -0.0053792265 1.8537108e-38 313 244
-0.00806884 0.76700002 -0.0053792265 1.8905531e-38 314 244
-0.006724033 0.76700002 -0.0053792265 1.9458705e-38 315 244
-0.0053792265 0.76700002 -0.0053792265 1.9182124e-38 316 244
-0.00403442 0.76700002 -0.0053792265 1.8260168e-38 317 244
-0.0026896133 0.76700002 -0.0053792265 1.6050726e-38 318 244
-0.0013448066 0.76700002 -0.0053792265 1.5497911e-38 319 244
0 0.76700002 -0.0053792265 1.5865615e-38 320 244
0.0013483133 0.76899999 -0.0053932532 1.6234757e-38 321 244
0.0026966266 0.76899999 -0.0053932532 1.6054329e-38 322 244
0.0040449398 0.76899999 -0.0053932532 1.4118221e-38 323 244
0.0053932532 0.76899999 -0.0053932532 7.9493896e-39 324 244
0.0067590997 0.77100003 -0.0054072798 1.3001247e-41 325 244
0.0081109209 0.77100003 -0.0054072798 4.2038954e-44 326 244
0.0094627403 0.77100003 -0.0054072798 9.1905561e-41 327 244
0.01081456 0.77100003 -0.0054072798 8.3545414e-42 328 244
0.012197939 0.773 -0.0054213065 2.5923531e-39 329 244
0.013553266 0.773 -0.0054213065 3.4422588e-39 330 244
0.014927879 0.77399999 -0.0054283198 7.5907021e-39 331 244
0.016369121 0.778 -0.0054563731 1.3659413e-38 332 244
0.017733213 0.778 -0.0054563731 1.4488814e-38 333 244
0.0191464 0.77999997 -0.0054703997 1.439445e-38 334 244
0.020513998 0.77999997 -0.0054703997 1.4210419e-38 335 244
0.021909652 0.78100002 -0.0054774131 1.439301e-38 336 244
0.023279008 0.78100002 -0.0054774131 1.4577041e-38 337 244
0.024648361 0.78100002 -0.0054774131 1.4761422e-38 338 244
0.026084339 0.78299999 -0.0054914397 1.5037649e-38 339 244
0.027457198 0.78299999 -0.0054914397 1.5497537e-38 340 244
-0.030125774 0.78100002 -0.0068467669 2.1122164e-39 298 245
-0.028756421 0.78100002 -0.0068467669 1.6118773e-38 299 245
-0.027281865 0.778 -0.0068204664 1.7156335e-38 300 245
-0.025917772 0.778 -0.0068204664 1.724889e-38 301 245
-0.024490559 0.77600002 -0.0068029333 1.6880124e-38 302 245
-0.02307036 0.77399999 -0.0067853997 1.7341101e-38 303 245
-0.021713279 0.77399999 -0.0067853997 1.8443477e-38 304 245
-0.0203299 0.773 -0.0067766332 1.8443477e-38 305 245
-0.018925481 0.77100003 -0.0067590997 1.6233659e-38 306 245
-0.017528072 0.76899999 -0.0067415666 1.5127313e-38 307 245
-0.01613768 0.76700002 -0.006724033 1.8628224e-38 308 245
-0.014792874 0.76700002 -0.006724033 1.9273594e-38 309 245
-0.013448066 0.76700002 -0.006724033 1.8721136e-38 310 245
-0.01210326 0.76700002 -0.006724033 1.8537105e-38 311 245
-0.010758453 0.76700002 -0.006724033 1.8445275e-38 312 245
-0.0094136465 0.76700002 -0.006724033 1.8537472e-38 313 245
-0.00806884 0.76700002 -0.006724033 1.8630745e-38 314 245
-0.006724033 0.76700002 -0.006724033 1.8999529e-38 315 245
-0.0053792265 0.76700002 -0.006724033 1.7894625e-38 316 245
-0.00403442 0.76700002 -0.006724033 1.6050712e-38 317 245
-0.0026896133 0.76700002 -0.006724033 1.4211123e-38 318 245
-0.0013448066 0.76700002 -0.006724033 1.4211123e-38 319 245
0 0.76700002 -0.006724033 1.5039085e-38 320 245
0.0013448066 0.76700002 -0.006724033 1.5499703e-38 321 245
0.0026966266 0.76899999 -0.0067415666 1.5041263e-38 322 245
0.0040449398 0.76899999 -0.0067415666 1.0155253e-38 323 245
0.0053932532 0.76899999 -0.0067415666 1.2230701e-39 324 245
0.0067415666 0.76899999 -0.0067415666 9.7614451e-42 325 245
0.0081109209 0.77100003 -0.0067590997 2.9259112e-42 326 245
0.0094627403 0.77100003 -0.0067590997 5.0867134e-42 327 245
0.01081456 0.77100003 -0.0067590997 3.8956097e-43 328 245
0.01216638 0.77100003 -0.0067590997 1.821688e-44 329 245
0.013553266 0.773 -0.0067766332 1.2190918e-39 330 245
0.014927879 0.77399999 -0.0067853997 8.8713291e-39 331 245
0.016369121 0.778 -0.0068204664 1.4210066e-38 332 245
0.017733213 0.778 -0.0068204664 1.4670685e-38 333 245
0.0191464 0.77999997 -0.0068379994 1.4026035e-38 334 245
0.020513998 0.77999997 -0.0068379994 1.4026035e-38 335 245
0.021909652 0.78100002 -0.0068467669 1.4025672e-38 336 245
0.023279008 0.78100002 -0.0068467669 1.4117868e-38 337 245
0.024711479 0.78299999 -0.0068642995 1.4394085e-38 338 245
0.026084339 0.78299999 -0.0068642995 1.4578476e-38 339 245
0.027527334 0.78500003 -0.0068818335 1.5130198e-38 340 245
0.02897734 0.787 -0.0068993662 1.6513134e-38 341 245
-0.031575777 0.78299999 -0.0082371598 2.3120976e-39 297 246
-0.030125774 0.78100002 -0.0082161194 7.0119448e-39 298 246
-0.028756421 0.78100002 -0.0082161194 1.512516e-38 299 246
-0.027351998 0.77999997 -0.0082055992 1.7340382e-38 300 246
-0.025917772 0.778 -0.0081845606 1.7340382e-38 301 246
-0.024490559 0.77600002 -0.0081635201 1.770736e-38 302 246
-0.02307036 0.77399999 -0.0081424797 1.770736e-38 303 246
-0.021713279 0.77399999 -0.0081424797 1.7425715e-38 304 246
-0.020277301 0.77100003 -0.0081109209 1.5305216e-38 305 246
-0.018925481 0.77100003 -0.0081109209 1.3999734e-38 306 246
-0.017528072 0.76899999 -0.0080898795 1.787195e-38 307 246
-0.01613768 0.76700002 -0.00806884 2.0838403e-38 308 246
-0.014792874 0.76700002 -0.00806884 2.0377064e-38 309 246
-0.013448066 0.76700002 -0.00806884 1.8630023e-38 310 246
-0.01210326 0.76700002 -0.00806884 1.8445631e-38 311 246
-0.010758453 0.76700002 -0.00806884 1.8536754e-38 312 246
-0.0094013726 0.76599997 -0.0080583189 1.8812983e-38 313 246
-0.0080583189 0.76599997 -0.0080583189 1.9181045e-38 314 246
-0.0067152665 0.76599997 -0.0080583189 1.8812264e-38 315 246
-0.0053722127 0.76599997 -0.0080583189 1.6420937e-38 316 246
-0.00403442 0.76700002 -0.00806884 1.4945807e-38 317 246
-0.0026896133 0.76700002 -0.00806884 1.3563595e-38 318 246
-0.0013448066 0.76700002 -0.00806884 1.34714e-38 319 246
0 0.76700002 -0.00806884 1.3381352e-38 320 246
0.0013448066 0.76700002 -0.00806884 1.2828539e-38 321 246
0.0026966266 0.76899999 -0.0080898795 1.0988955e-38 322 246
0.0040449398 0.76899999 -0.0080898795 3.6133041e-39 323 246
0.0053932532 0.76899999 -0.0080898795 2.5671788e-42 324 246
0.0067415666 0.76899999 -0.0080898795 5.8083821e-42 325 246
0.0081109209 0.77100003 -0.0081109209 1.2965374e-39 326 246
0.0094627403 0.77100003 -0.0081109209 1.4809287e-39 327 246
0.01081456 0.77100003 -0.0081109209 4.6498306e-40 328 246
0.01216638 0.77100003 -0.0081109209 2.2420775e-44 329 246
0.013553266 0.773 -0.0081319595 4.5237572e-39 330 246
0.014927879 0.77399999 -0.0081424797 1.2636973e-38 331 246
0.016369121 0.778 -0.0081845606 1.4669239e-38 332 246
0.017733213 0.778 -0.0081845606 1.4669239e-38 333 246
0.0191464 0.77999997 -0.0082055992 1.4025316e-38 334 246
0.020513998 0.77999997 -0.0082055992 1.3933119e-38 335 246
0.021881599 0.77999997 -0.0082055992 1.3933472e-38 336 246
0.023279008 0.78100002 -0.0082161194 1.4025669e-38 337 246
0.024711479 0.78299999 -0.0082371598 1.439301e-38 338 246
0.026084339 0.78299999 -0.0082371598 1.4577041e-38 339 246
0.027597465 0.787 -0.0082792398 1.4486277e-38 340 246
0.02897734 0.787 -0.0082792398 1.5869212e-38 341 246
-0.033032801 0.78500003 -0.0096345674 3.4231521e-39 296 247
-0.031575777 0.78299999 -0.0096100196 7.0187803e-39 297 247
-0.030125774 0.78100002 -0.0095854728 1.199668e-38 298 247
-0.028756421 0.78100002 -0.0095854728 1.531572e-38 299 247
-0.027351998 0.77999997 -0.0095731998 1.6972685e-38 300 247
-0.025917772 0.778 -0.0095486529 1.623512e-38 301 247
-0.024490559 0.77600002 -0.009524107 1.6137144e-38 302 247
-0.02307036 0.77399999 -0.0094995592 1.3924809e-38 303 247
-0.021713279 0.77399999 -0.0094995592 1.226311e-38 304 247
-0.020277301 0.77100003 -0.0094627403 9.4972415e-39 305 247
-0.018925481 0.77100003 -0.0094627403 5.0794337e-39 306 247
-0.017482487 0.76700002 -0.0094136465 1.0518616e-38 307 247
-0.01613768 0.76700002 -0.0094136465 1.8816231e-38 308 247
-0.014773586 0.76599997 -0.0094013726 1.946159e-38 309 247
-0.013430533 0.76599997 -0.0094013726 1.9182124e-38 310 247
-0.012087479 0.76599997 -0.0094013726 1.8905178e-38 311 247
-0.010744425 0.76599997 -0.0094013726 1.8905534e-38 312 247
-0.0094013726 0.76599997 -0.0094013726 1.8813339e-38 313 247
-0.0080583189 0.76599997 -0.0094013726 1.8813339e-38 314 247
-0.0067152665 0.76599997 -0.0094013726 1.8167969e-38 315 247
-0.0053722127 0.76599997 -0.0094013726 1.6788279e-38 316 247
-0.0040291594 0.76599997 -0.0094013726 1.6050712e-38 317 247
-0.0026896133 0.76700002 -0.0094136465 1.5039439e-38 318 247
-0.0013448066 0.76700002 -0.0094136465 1.4670296e-38 319 247
0 0.76700002 -0.0094136465 1.4852877e-38 320 247
0.0013448066 0.76700002 -0.0094136465 1.4668125e-38 321 247
0.0026966266 0.76899999 -0.0094381925 1.355672e-38 322 247
0.0040449398 0.76899999 -0.0094381925 4.5215487e-39 323 247
0.0053932532 0.76899999 -0.0094381925 0 324 247
0.0067415666 0.76899999 -0.0094381925 1.4755028e-39 325 247
0.0081109209 0.77100003 -0.0094627403 2.1241345e-39 326 247
0.0094627403 0.77100003 -0.0094627403 1.8471874e-39 327 247
0.01081456 0.77100003 -0.0094627403 6.4937993e-40 328 247
0.012308398 0.77999997 -0.0095731998 3.2229865e-44 329 247
0.013640933 0.778 -0.0095486529 5.2602488e-39 330 247
0.015005025 0.778 -0.0095486529 1.3557857e-38 331 247
0.016411198 0.77999997 -0.0095731998 1.4393376e-38 332 247
0.017778799 0.77999997 -0.0095731998 1.4116787e-38 333 247
0.0191464 0.77999997 -0.0095731998 1.3382469e-38 334 247
0.020513998 0.77999997 -0.0095731998 1.3290273e-38 335 247
0.021881599 0.77999997 -0.0095731998 1.3566134e-38 336 247
0.023279008 0.78100002 -0.0095854728 1.365833e-38 337 247
0.024711479 0.78299999 -0.0096100196 1.3658327e-38 338 247
0.026150968 0.78500003 -0.0096345674 1.3750883e-38 339 247
0.027597465 0.787 -0.0096591124 1.4118221e-38 340 247
0.02897734 0.787 -0.0096591124 1.5224208e-38 341 247
-0.032948639 0.78299999 -0.010982879 1.4477623e-38 296 248
-0.031575777 0.78299999 -0.010982879 1.6874709e-38 297 248
-0.030125774 0.78100002 -0.010954826 1.6144725e-38 298 248
-0.028756421 0.78100002 -0.010954826 1.6513149e-38 299 248
-0.027281865 0.778 -0.010912746 1.5683751e-38 300 248
-0.025917772 0.778 -0.010912746 1.2179957e-38 301 248
-0.02442744 0.77399999 -0.01085664 8.5691895e-39 302 248
-0.023040552 0.773 -0.010842613 1.8369341e-40 303 248
-0.021685226 0.773 -0.010842613 0 304 248
-0.0203299 0.773 -0.010842613 0 305 248
-0.018827293 0.76700002 -0.010758453 3.3631163e-44 306 248
-0.017482487 0.76700002 -0.010758453 6.1753724e-39 307 248
-0.01613768 0.76700002 -0.010758453 1.5224959e-38 308 248
-0.014773586 0.76599997 -0.010744425 1.7529458e-38 309 248
-0.013430533 0.76599997 -0.010744425 1.9734944e-38 310 248
-0.012087479 0.76599997 -0.010744425 1.9550553e-38 311 248
-0.010744425 0.76599997 -0.010744425 1.9366861e-38 312 248
-0.0094013726 0.76599997 -0.010744425 1.899808e-38 313 248
-0.0080583189 0.76599997 -0.010744425 1.7894256e-38 314 248
-0.0067152665 0.76599997 -0.010744425 1.7341083e-38 315 248
-0.0053722127 0.76599997 -0.010744425 1.7156341e-38 316 248
-0.0040291594 0.76599997 -0.010744425 1.7063787e-38 317 248
-0.0026896133 0.76700002 -0.010758453 1.7063424e-38 318 248
-0.0013448066 0.76700002 -0.010758453 1.7247455e-38 319 248
0 0.76700002 -0.010758453 1.7799187e-38 320 248
0.0013448066 0.76700002 -0.010758453 1.75226e-38 321 248
0.0026896133 0.76700002 -0.010758453 1.6046728e-38 322 248
0.00403442 0.76700002 -0.010758453 7.8413159e-39 323 248
0.0053932532 0.76899999 -0.010786506 3.6013371e-42 324 248
0.0067415666 0.76899999 -0.010786506 6.122273e-42 325 248
0.0081109209 0.77100003 -0.01081456 1.5720299e-39 326 248
0.0094627403 0.77100003 -0.01081456 1.6642255e-39 327 248
0.010940799 0.77999997 -0.010940799 8.3232645e-40 328 248
0.012276839 0.778 -0.010912746 2.2420775e-44 329 248
0.013640933 0.778 -0.010912746 5.9970894e-39 330 248
0.015005025 0.778 -0.010912746 1.4479087e-38 331 248
0.016411198 0.77999997 -0.010940799 1.3933119e-38 332 248
0.017778799 0.77999997 -0.010940799 1.3380305e-38 333 248
0.0191464 0.77999997 -0.010940799 1.3472511e-38 334 248
0.020513998 0.77999997 -0.010940799 1.3565065e-38 335 248
0.021909652 0.78100002 -0.010954826 1.3565416e-38 336 248
0.023279008 0.78100002 -0.010954826 1.3749807e-38 337 248
0.024711479 0.78299999 -0.010982879 1.375016e-38 338 248
0.026150968 0.78500003 -0.011010934 1.3657964e-38 339 248
0.027527334 0.78500003 -0.011010934 1.3566116e-38 340 248
0.02897734 0.787 -0.011038986 1.4672464e-38 341 248
-0.034233831 0.78100002 -0.01232418 1.6321901e-38 295 249
-0.032864477 0.78100002 -0.01232418 1.4301167e-38 296 249
-0.031575777 0.78299999 -0.012355739 1.5499709e-38 297 249
-0.030125774 0.78100002 -0.01232418 1.5867066e-38 298 249
-0.028756421 0.78100002 -0.01232418 1.6235489e-38 299 249
-0.027281865 0.778 -0.012276839 1.5407526e-38 300 249
-0.025917772 0.778 -0.012276839 1.0336768e-38 301 249
-0.02442744 0.77399999 -0.01221372 3.7879648e-39 302 249
-0.023040552 0.773 -0.012197939 7.0064923e-45 303 249
-0.021685226 0.773 -0.012197939 4.2038954e-45 304 249
-0.0203299 0.773 -0.012197939 9.2564171e-41 305 249
-0.018802745 0.76599997 -0.012087479 5.1848043e-44 306 249
-0.017459691 0.76599997 -0.012087479 1.7492815e-39 307 249
-0.016116638 0.76599997 -0.012087479 1.0710633e-38 308 249
-0.014773586 0.76599997 -0.012087479 1.5135995e-38 309 249
-0.013430533 0.76599997 -0.012087479 1.9367244e-38 310 249
-0.012087479 0.76599997 -0.012087479 1.8998467e-38 311 249
-0.010744425 0.76599997 -0.012087479 1.899773e-38 312 249
-0.0094013726 0.76599997 -0.012087479 1.8167969e-38 313 249
-0.0080583189 0.76599997 -0.012087479 1.6515285e-38 314 249
-0.0067152665 0.76599997 -0.012087479 1.6423089e-38 315 249
-0.0053722127 0.76599997 -0.012087479 1.6512419e-38 316 249
-0.0040291594 0.76599997 -0.012087479 1.6143278e-38 317 249
-0.0026861064 0.76599997 -0.012087479 1.5959966e-38 318 249
-0.0013430532 0.76599997 -0.012087479 1.6236192e-38 319 249
0 0.76599997 -0.012087479 1.6513139e-38 320 249
0.0013448066 0.76700002 -0.01210326 1.6420584e-38 321 249
0.0026896133 0.76700002 -0.01210326 1.614146e-38 322 249
0.00403442 0.76700002 -0.01210326 1.1070701e-38 323 249
0.0053932532 0.76899999 -0.012134819 3.1404178e-39 324 249
0.0067415666 0.76899999 -0.012134819 3.967076e-42 325 249
0.0081109209 0.77100003 -0.01216638 8.2984895e-42 326 249
0.0094627403 0.77100003 -0.01216638 1.0121579e-40 327 249
0.010940799 0.77999997 -0.012308398 2.9231086e-42 328 249
0.012308398 0.77999997 -0.012308398 2.9427268e-44 329 249
0.013640933 0.778 -0.012276839 6.8297269e-39 330 249
0.015005025 0.778 -0.012276839 1.4481964e-38 331 249
0.016411198 0.77999997 -0.012308398 1.338175e-38 332 249
0.017778799 0.77999997 -0.012308398 1.3104805e-38 333 249
0.0191464 0.77999997 -0.012308398 1.3197725e-38 334 249
0.020540299 0.78100002 -0.01232418 1.3197725e-38 335 249
0.021909652 0.78100002 -0.01232418 1.3290271e-38 336 249
0.023279008 0.78100002 -0.01232418 1.3382466e-38 337 249
0.024711479 0.78299999 -0.012355739 1.3382103e-38 338 249
0.026150968 0.78500003 -0.0123873 1.3197353e-38 339 249
0.027527334 0.78500003 -0.0123873 1.3105141e-38 340 249
0.02897734 0.787 -0.01241886 1.4672108e-38 341 249
-0.035603184 0.78100002 -0.013693534 1.7705196e-38 294 250
-0.034233831 0.78100002 -0.013693534 1.6691044e-38 295 250
-0.032864477 0.78100002 -0.013693534 1.4393013e-38 296 250
-0.031575777 0.78299999 -0.013728599 1.4853631e-38 297 250
-0.030125774 0.78100002 -0.013693534 1.540681e-38 298 250
-0.028719598 0.77999997 -0.013675999 1.5683398e-38 299 250
-0.027281865 0.778 -0.013640933 1.5131294e-38 300 250
-0.025917772 0.778 -0.013640933 1.0060893e-38 301 250
-0.024490559 0.77600002 -0.013605867 4.0652747e-39 302 250
-0.02307036 0.77399999 -0.013570799 1.821688e-44 303 250
-0.021713279 0.77399999 -0.013570799 1.0166953e-39 304 250
-0.020356199 0.77399999 -0.013570799 2.2148783e-39 305 250
-0.018802745 0.76599997 -0.013430533 6.3058431e-44 306 250
-0.017459691 0.76599997 -0.013430533 4.2879733e-43 307 250
-0.016116638 0.76599997 -0.013430533 3.1620972e-39 308 250
-0.014773586 0.76599997 -0.013430533 9.8001826e-39 309 250
-0.013430533 0.76599997 -0.013430533 1.7433676e-38 310 250
-0.01205592 0.764 -0.013395466 1.7341482e-38 311 250
-0.010716373 0.764 -0.013395466 1.7340748e-38 312 250
-0.0094013726 0.76599997 -0.013430533 1.6603183e-38 313 250
-0.0080372803 0.764 -0.013395466 1.550259e-38 314 250
-0.006697733 0.764 -0.013395466 1.5871733e-38 315 250
-0.0053581866 0.764 -0.013395466 1.6328038e-38 316 250
-0.0040291594 0.76599997 -0.013430533 1.5682668e-38 317 250
-0.0026861064 0.76599997 -0.013430533 1.5314609e-38 318 250
-0.0013430532 0.76599997 -0.013430533 1.5314609e-38 319 250
0 0.76599997 -0.013430533 1.4763953e-38 320 250
0.0013448066 0.76700002 -0.013448066 1.4487726e-38 321 250
0.0026896133 0.76700002 -0.013448066 1.540571e-38 322 250
0.00403442 0.76700002 -0.013448066 1.3008982e-38 323 250
0.0053792265 0.76700002 -0.013448066 8.5770831e-39 324 250
0.0067415666 0.76899999 -0.013483133 4.6386903e-40 325 250
0.0080898795 0.76899999 -0.013483133 1.4012985e-44 326 250
0.0094381925 0.76899999 -0.013483133 2.5405541e-42 327 250
0.010786506 0.76899999 -0.013483133 4.1758694e-43 328 250
0.012308398 0.77999997 -0.013675999 4.0203253e-42 329 250
0.013675999 0.77999997 -0.013675999 6.4703149e-39 330 250
0.0150436 0.77999997 -0.013675999 1.2831813e-38 331 250
0.016432239 0.78100002 -0.013693534 1.3197722e-38 332 250
0.017801592 0.78100002 -0.013693534 1.2921495e-38 333 250
0.019170946 0.78100002 -0.013693534 1.3014772e-38 334 250
0.020540299 0.78100002 -0.013693534 1.3014772e-38 335 250
0.021909652 0.78100002 -0.013693534 1.3015128e-38 336 250
0.023279008 0.78100002 -0.013693534 1.3015128e-38 337 250
0.024711479 0.78299999 -0.013728599 1.3106956e-38 338 250
0.026150968 0.78500003 -0.013763667 1.2738172e-38 339 250
0.027597465 0.787 -0.013798732 1.3288087e-38 340 250
-0.035603184 0.78100002 -0.015062887 1.7796317e-38 294 251
-0.034233831 0.78100002 -0.015062887 1.705875e-38 295 251
-0.032864477 0.78100002 -0.015062887 1.4760716e-38 296 251
-0.031575777 0.78299999 -0.01510146 1.5129499e-38 297 251
-0.030125774 0.78100002 -0.015062887 1.5039469e-38 298 251
-0.028719598 0.77999997 -0.0150436 1.5316058e-38 299 251
-0.027281865 0.778 -0.015005025 1.5131294e-38 300 251
-0.025917772 0.778 -0.015005025 1.1074686e-38 301 251
-0.024490559 0.77600002 -0.014966453 5.9963481e-39 302 251
-0.02307036 0.77399999 -0.014927879 1.9618179e-44 303 251
-0.021713279 0.77399999 -0.014927879 6.504309e-40 304 251
-0.020356199 0.77399999 -0.014927879 1.6645814e-39 305 251
-0.018802745 0.76599997 -0.014773586 5.5717869e-40 306 251
-0.017459691 0.76599997 -0.014773586 3.7835059e-44 307 251
-0.016116638 0.76599997 -0.014773586 1.1598547e-41 308 251
-0.014773586 0.76599997 -0.014773586 6.6547258e-39 309 251
-0.013430533 0.76599997 -0.014773586 1.2919355e-38 310 251
-0.01205592 0.764 -0.014735013 1.3011552e-38 311 251
-0.010716373 0.764 -0.014735013 1.3194835e-38 312 251
-0.0094013726 0.76599997 -0.014773586 1.3194835e-38 313 251
-0.0080372803 0.764 -0.014735013 1.412074e-38 314 251
-0.006697733 0.764 -0.014735013 1.605649e-38 315 251
-0.0053581866 0.764 -0.014735013 1.6695745e-38 316 251
-0.0040291594 0.76599997 -0.014773586 1.5774148e-38 317 251
-0.0026861064 0.76599997 -0.014773586 1.5131299e-38 318 251
-0.0013430532 0.76599997 -0.014773586 1.4946549e-38 319 251
0 0.76700002 -0.014792874 1.4302978e-38 320 251
0.0013448066 0.76700002 -0.014792874 1.4210782e-38 321 251
0.0026896133 0.76700002 -0.014792874 1.4578473e-38 322 251
0.00403442 0.76700002 -0.014792874 1.3748712e-38 323 251
0.0053792265 0.76700002 -0.014792874 1.189577e-38 324 251
0.0067415666 0.76899999 -0.014831445 1.385468e-39 325 251
0.0080898795 0.76899999 -0.014831445 1.1176757e-41 326 251
0.0094381925 0.76899999 -0.014831445 3.4288961e-39 327 251
0.010786506 0.76899999 -0.014831445 4.7200455e-39 328 251
0.012308398 0.77999997 -0.0150436 6.0107843e-39 329 251
0.013675999 0.77999997 -0.0150436 8.9624836e-39 330 251
0.0150436 0.77999997 -0.0150436 1.1636157e-38 331 251
0.016432239 0.78100002 -0.015062887 1.3381397e-38 332 251
0.017801592 0.78100002 -0.015062887 1.3289201e-38 333 251
0.019170946 0.78100002 -0.015062887 1.3014412e-38 334 251
0.020540299 0.78100002 -0.015062887 1.3106608e-38 335 251
0.021909652 0.78100002 -0.015062887 1.3106605e-38 336 251
0.023279008 0.78100002 -0.015062887 1.301441e-38 337 251
0.024711479 0.78299999 -0.01510146 1.2739615e-38 338 251
0.026150968 0.78500003 -0.015140033 1.2278996e-38 339 251
-0.035603184 0.78100002 -0.016432239 1.7337132e-38 294 252
-0.034233831 0.78100002 -0.016432239 1.6691763e-38 295 252
-0.032864477 0.78100002 -0.016432239 1.5219895e-38 296 252
-0.031575777 0.78299999 -0.01647432 1.5589038e-38 297 252
-0.030125774 0.78100002 -0.016432239 1.5223145e-38 298 252
-0.028756421 0.78100002 -0.016432239 1.5591568e-38 299 252
-0.027281865 0.778 -0.016369121 1.5407879e-38 300 252
-0.025851147 0.77600002 -0.01632704 1.2549816e-38 301 252
-0.024490559 0.77600002 -0.01632704 6.5527449e-39 302 252
-0.023129974 0.77600002 -0.01632704 9.8090893e-45 303 252
-0.021769386 0.77600002 -0.01632704 9.251989e-40 304 252
-0.020145798 0.76599997 -0.016116638 2.4003304e-39 305 252
-0.018802745 0.76599997 -0.016116638 2.8559444e-40 306 252
-0.017414106 0.764 -0.016074561 4.2038954e-45 307 252
-0.016074561 0.764 -0.016074561 3.67356e-40 308 252
-0.014773586 0.76599997 -0.016116638 8.4759093e-39 309 252
-0.013430533 0.76599997 -0.016116638 1.3014012e-38 310 252
-0.012087479 0.76599997 -0.016116638 1.2461198e-38 311 252
-0.010744425 0.76599997 -0.016116638 1.153998e-38 312 252
-0.0093768267 0.764 -0.016074561 1.0986806e-38 313 252
-0.0080372803 0.764 -0.016074561 1.2279709e-38 314 252
-0.0067152665 0.76599997 -0.016116638 1.541436e-38 315 252
-0.0053722127 0.76599997 -0.016116638 1.6236569e-38 316 252
-0.0040291594 0.76599997 -0.016116638 1.5406807e-38 317 252
-0.0026861064 0.76599997 -0.016116638 1.476324e-38 318 252
-0.0013430532 0.76599997 -0.016116638 1.476324e-38 319 252
0 0.76700002 -0.01613768 1.4027473e-38 320 252
0.0013448066 0.76700002 -0.01613768 1.3750527e-38 321 252
0.0026896133 0.76700002 -0.01613768 1.3658683e-38 322 252
0.00403442 0.76700002 -0.01613768 1.3382098e-38 323 252
0.0053932532 0.76899999 -0.016179759 1.2454692e-38 324 252
0.0067415666 0.76899999 -0.016179759 6.2775845e-39 325 252
0.0081319595 0.773 -0.016263919 4.0298261e-40 326 252
0.0094872871 0.773 -0.016263919 5.6581335e-39 327 252
0.010940799 0.77999997 -0.016411198 1.107832e-38 328 252
0.012308398 0.77999997 -0.016411198 1.1908082e-38 329 252
0.013675999 0.77999997 -0.016411198 1.1448173e-38 330 252
0.0150436 0.77999997 -0.016411198 1.1632923e-38 331 252
0.016432239 0.78100002 -0.016432239 1.2830744e-38 332 252
0.017801592 0.78100002 -0.016432239 1.3199168e-38 333 252
0.019170946 0.78100002 -0.016432239 1.2739267e-38 334 252
0.020540299 0.78100002 -0.016432239 1.2739267e-38 335 252
0.021909652 0.78100002 -0.016432239 1.2830744e-38 336 252
0.023279008 0.78100002 -0.016432239 1.2738549e-38 337 252
0.024711479 0.78299999 -0.01647432 1.2830018e-38 338 252
-0.034321502 0.78299999 -0.017847179 1.632334e-38 295 253
-0.032948639 0.78299999 -0.017847179 1.4850374e-38 296 253
-0.031575777 0.78299999 -0.017847179 1.42972e-38 297 253
-0.030125774 0.78100002 -0.017801592 1.4391213e-38 298 253
-0.028756421 0.78100002 -0.017801592 1.5774148e-38 299 253
-0.027281865 0.778 -0.017733213 1.5684114e-38 300 253
-0.025784519 0.77399999 -0.01764204 1.4208984e-38 301 253
-0.02442744 0.77399999 -0.01764204 7.1077109e-39 302 253
-0.02307036 0.77399999 -0.01764204 2.1650061e-42 303 253
-0.021516906 0.76700002 -0.017482487 5.0320628e-42 304 253
-0.020145798 0.76599997 -0.017459691 9.2986803e-40 305 253
-0.018802745 0.76599997 -0.017459691 4.3356174e-42 306 253
-0.017414106 0.764 -0.017414106 5.774751e-42 307 253
-0.016074561 0.764 -0.017414106 8.9458852e-39 308 253
-0.014773586 0.76599997 -0.017459691 1.4477623e-38 309 253
-0.013430533 0.76599997 -0.017459691 1.7526209e-38 310 253
-0.012087479 0.76599997 -0.017459691 1.688084e-38 311 253
-0.010744425 0.76599997 -0.017459691 1.5869934e-38 312 253
-0.0093768267 0.764 -0.017414106 1.5316761e-38 313 253
-0.0080372803 0.764 -0.017414106 1.5594073e-38 314 253
-0.0067152665 0.76599997 -0.017459691 1.6147246e-38 315 253
-0.0053722127 0.76599997 -0.017459691 1.5409328e-38 316 253
-0.0040291594 0.76599997 -0.017459691 1.4671404e-38 317 253
-0.0026861064 0.76599997 -0.017459691 1.4578491e-38 318 253
-0.0013430532 0.76599997 -0.017459691 1.43941e-38 319 253
0 0.76700002 -0.017482487 1.3567218e-38 320 253
0.0013448066 0.76700002 -0.017482487 1.3290271e-38 321 253
0.0026896133 0.76700002 -0.017482487 1.2646703e-38 322 253
0.00403442 0.76700002 -0.017482487 1.2461952e-38 323 253
0.0053932532 0.76899999 -0.017528072 1.190804e-38 324 253
0.0067590997 0.77100003 -0.01757366 1.1539257e-38 325 253
0.0081319595 0.773 -0.017619247 1.2644889e-38 326 253
0.0094872871 0.773 -0.017619247 1.365868e-38 327 253
0.010912746 0.778 -0.017733213 1.375018e-38 328 253
0.012308398 0.77999997 -0.017778799 1.3565428e-38 329 253
0.013675999 0.77999997 -0.017778799 1.2366889e-38 330 253
0.0150436 0.77999997 -0.017778799 1.1813715e-38 331 253
0.016432239 0.78100002 -0.017801592 1.2647069e-38 332 253
0.017847179 0.78299999 -0.017847179 1.3292438e-38 333 253
0.019220039 0.78299999 -0.017847179 1.3382839e-38 334 253
0.020540299 0.78100002 -0.017801592 1.2921861e-38 335 253
0.021909652 0.78100002 -0.017801592 1.273747e-38 336 253
0.023279008 0.78100002 -0.017801592 1.2829665e-38 337 253
0.024648361 0.78100002 -0.017801592 1.3381747e-38 338 253
-0.032948639 0.78299999 -0.019220039 1.4481216e-38 296 254
-0.031575777 0.78299999 -0.019220039 1.3282673e-38 297 254
-0.030125774 0.78100002 -0.019170946 1.1998435e-38 298 254
-0.028756421 0.78100002 -0.019170946 1.4119293e-38 299 254
-0.027351998 0.77999997 -0.0191464 1.6507411e-38 300 254
-0.025784519 0.77399999 -0.018999118 1.5032279e-38 301 254
-0.02442744 0.77399999 -0.018999118 9.5073014e-39 302 254
-0.02307036 0.77399999 -0.018999118 2.5926306e-39 303 254
-0.021516906 0.76700002 -0.018827293 1.1102768e-39 304 254
-0.020172099 0.76700002 -0.018827293 4.649172e-40 305 254
-0.018802745 0.76599997 -0.018802745 0 306 254
-0.017459691 0.76599997 -0.018802745 1.1092412e-39 307 254
-0.016116638 0.76599997 -0.018802745 1.3741873e-38 308 254
-0.014773586 0.76599997 -0.018802745 1.6784328e-38 309 254
-0.013430533 0.76599997 -0.018802745 1.7342194e-38 310 254
-0.012087479 0.76599997 -0.018802745 1.6880855e-38 311 254
-0.010744425 0.76599997 -0.018802745 1.6514234e-38 312 254
-0.0093768267 0.764 -0.018753653 1.6422038e-38 313 254
-0.0080372803 0.764 -0.018753653 1.6239086e-38 314 254
-0.0067152665 0.76599997 -0.018802745 1.5685912e-38 315 254
-0.0053722127 0.76599997 -0.018802745 1.4856517e-38 316 254
-0.0040291594 0.76599997 -0.018802745 1.4211148e-38 317 254
-0.0026861064 0.76599997 -0.018802745 1.4210432e-38 318 254
-0.0013430532 0.76599997 -0.018802745 1.4026041e-38 319 254
0 0.76700002 -0.018827293 1.3198801e-38 320 254
0.0013448066 0.76700002 -0.018827293 1.301441e-38 321 254
0.0026896133 0.76700002 -0.018827293 1.2830018e-38 322 254
0.00403442 0.76700002 -0.018827293 1.2276845e-38 323 254
0.0054072798 0.77100003 -0.018925481 1.1631119e-38 324 254
0.0067766332 0.773 -0.018974574 1.2553434e-38 325 254
0.0081424797 0.77399999 -0.018999118 1.3749461e-38 326 254
0.0094995592 0.77399999 -0.018999118 1.3749461e-38 327 254
0.010912746 0.778 -0.019097306 1.3840573e-38 328 254
0.012308398 0.77999997 -0.0191464 1.3932769e-38 329 254
0.013675999 0.77999997 -0.0191464 1.2089226e-38 330 254
0.015062887 0.78100002 -0.019170946 1.0060922e-38 331 254
0.016432239 0.78100002 -0.019170946 1.052118e-38 332 254
0.017847179 0.78299999 -0.019220039 1.1350942e-38 333 254
0.019220039 0.78299999 -0.019220039 1.1170865e-38 334 254
0.020540299 0.78100002 -0.019170946 1.2000628e-38 335 254
0.021909652 0.78100002 -0.019170946 1.273603e-38 336 254
0.023398234 0.78500003 -0.019269135 1.319665e-38 337 254
-0.030125774 0.78100002 -0.020540299 1.0339988e-38 298 255
-0.028756421 0.78100002 -0.020540299 1.1999869e-38 299 255
-0.02568458 0.77100003 -0.020277301 1.4109952e-38 301 255
-0.02433276 0.77100003 -0.020277301 1.2179216e-38 302 255
-0.023040552 0.773 -0.0203299 1.0888477e-38 303 255
-0.021516906 0.76700002 -0.020172099 7.1001551e-39 304 255
-0.020172099 0.76700002 -0.020172099 2.3059824e-39 305 255
-0.018827293 0.76700002 -0.020172099 2.2420775e-44 306 255
-0.017459691 0.76599997 -0.020145798 4.24535e-39 307 255
-0.016116638 0.76599997 -0.020145798 1.6140056e-38 308 255
-0.014773586 0.76599997 -0.020145798 1.7062014e-38 309 255
-0.013430533 0.76599997 -0.020145798 1.6144739e-38 310 255
-0.012087479 0.76599997 -0.020145798 1.5776316e-38 311 255
-0.010744425 0.76599997 -0.020145798 1.5593722e-38 312 255
-0.0093768267 0.764 -0.020093199 1.5778115e-38 313 255
-0.0080372803 0.764 -0.020093199 1.5595521e-38 314 255
-0.0067152665 0.76599997 -0.020145798 1.5226379e-38 315 255
-0.0053722127 0.76599997 -0.020145798 1.4212953e-38 316 255
-0.0040291594 0.76599997 -0.020145798 1.3567583e-38 317 255
-0.0026861064 0.76599997 -0.020145798 1.365798e-38 318 255
-0.0013448066 0.76700002 -0.020172099 1.3565784e-38 319 255
0 0.76700002 -0.020172099 1.2922214e-38 320 255
0.0013448066 0.76700002 -0.020172099 1.2922214e-38 321 255
0.0026896133 0.76700002 -0.020172099 1.2829299e-38 322 255
0.00403442 0.76700002 -0.020172099 1.2276126e-38 323 255
0.0054072798 0.77100003 -0.020277301 1.1906986e-38 324 255
0.0067766332 0.773 -0.0203299 1.2644551e-38 325 255
0.0081424797 0.77399999 -0.020356199 1.2370842e-38 326 255
0.009524107 0.77600002 -0.0204088 1.2370842e-38 327 255
0.010912746 0.778 -0.020461399 1.3289199e-38 328 255
0.012308398 0.77999997 -0.020513998 1.365798e-38 329 255
0.013675999 0.77999997 -0.020513998 8.2234808e-39 330 255
0.015062887 0.78100002 -0.020540299 2.3229605e-39 331 255
0.01647432 0.78299999 -0.0205929 1.6646361e-39 332 255
0.017892767 0.78500003 -0.020645501 1.8490273e-39 333 255
0.019220039 0.78299999 -0.0205929 3.0615947e-39 334 255
0.0205929 0.78299999 -0.0205929 8.7777238e-39 335 255
0.021965759 0.78299999 -0.0205929 1.4116437e-38 336 255
-0.02568458 0.77100003 -0.021629119 1.2733481e-38 301 256
-0.02433276 0.77100003 -0.021629119 1.42061e-38 302 256
-0.02298094 0.77100003 -0.021629119 1.485147e-38 303 256
-0.021516906 0.76700002 -0.021516906 1.3466014e-38 304 256
-0.020172099 0.76700002 -0.021516906 9.5016023e-39 305 256
-0.018827293 0.76700002 -0.021516906 5.4442743e-39 306 256
-0.017482487 0.76700002 -0.021516906 9.6849146e-39 307 256
-0.01613768 0.76700002 -0.021516906 1.5959625e-38 308 256
-0.014792874 0.76700002 -0.021516906 1.6051821e-38 309 256
-0.013430533 0.76599997 -0.021488851 1.4949446e-38 310 256
-0.012087479 0.76599997 -0.021488851 1.4949446e-38 311 256
-0.010744425 0.76599997 -0.021488851 1.5133833e-38 312 256
-0.0094013726 0.76599997 -0.021488851 1.5502617e-38 313 256
-0.0080583189 0.76599997 -0.021488851 1.5410776e-38 314 256
-0.0067152665 0.76599997 -0.021488851 1.430443e-38 315 256
-0.0053722127 0.76599997 -0.021488851 1.3199887e-38 316 256
-0.0040291594 0.76599997 -0.021488851 1.2831463e-38 317 256
-0.0026861064 0.76599997 -0.021488851 1.33814e-38 318 256
-0.0013430532 0.76599997 -0.021488851 1.3289204e-38 319 256
0 0.76700002 -0.021516906 1.3013693e-38 320 256
0.0013448066 0.76700002 -0.021516906 1.3013693e-38 321 256
0.0026896133 0.76700002 -0.021516906 1.2553434e-38 322 256
0.0040554604 0.77100003 -0.021629119 1.2184293e-38 323 256
0.0054213065 0.773 -0.021685226 1.2183577e-38 324 256
0.0067853997 0.77399999 -0.021713279 1.2551999e-38 325 256
0.0081424797 0.77399999 -0.021713279 1.2278286e-38 326 256
0.009524107 0.77600002 -0.021769386 1.2647069e-38 327 256
0.010912746 0.778 -0.021825492 1.3104088e-38 328 256
0.012308398 0.77999997 -0.021881599 1.1721153e-38 329 256
0.013675999 0.77999997 -0.021881599 4.2601379e-39 330 256
0.01510146 0.78299999 -0.021965759 1.3376795e-41 331 256
0.01647432 0.78299999 -0.021965759 2.5531658e-42 332 256
0.017847179 0.78299999 -0.021965759 3.6349682e-42 333 256
0.019220039 0.78299999 -0.021965759 5.3624876e-39 334 256
-0.025617953 0.76899999 -0.022921326 1.2458695e-38 301 257
-0.024269639 0.76899999 -0.022921326 1.4855433e-38 302 257
-0.02298094 0.77100003 -0.02298094 1.5777388e-38 303 257
-0.021573013 0.76899999 -0.022921326 1.623512e-38 304 257
-0.0202247 0.76899999 -0.022921326 1.5589751e-38 305 257
-0.018876385 0.76899999 -0.022921326 1.3833721e-38 306 257
-0.017482487 0.76700002 -0.022861714 1.3741525e-38 307 257
-0.01613768 0.76700002 -0.022861714 1.457994e-38 308 257
-0.014792874 0.76700002 -0.022861714 1.4672136e-38 309 257
-0.013430533 0.76599997 -0.022831906 1.4121852e-38 310 257
-0.012087479 0.76599997 -0.022831906 1.4214047e-38 311 257
-0.010744425 0.76599997 -0.022831906 1.4766499e-38 312 257
-0.0094013726 0.76599997 -0.022831906 1.5227472e-38 313 257
-0.0080583189 0.76599997 -0.022831906 1.5133124e-38 314 257
-0.0067152665 0.76599997 -0.022831906 1.3658354e-38 315 257
-0.0053722127 0.76599997 -0.022831906 1.2738917e-38 316 257
-0.0040291594 0.76599997 -0.022831906 1.2646363e-38 317 257
-0.0026861064 0.76599997 -0.022831906 1.3012984e-38 318 257
-0.0013430532 0.76599997 -0.022831906 1.3197374e-38 319 257
0 0.76700002 -0.022861714 1.3656905e-38 320 257
0.0013448066 0.76700002 -0.022861714 1.3656905e-38 321 257
0.0026966266 0.76899999 -0.022921326 1.2185375e-38 322 257
0.0040554604 0.77100003 -0.02298094 1.1724036e-38 323 257
0.0054213065 0.773 -0.023040552 1.2552002e-38 324 257
0.0067853997 0.77399999 -0.02307036 1.2736393e-38 325 257
0.0081635201 0.77600002 -0.023129974 1.2554506e-38 326 257
0.0095486529 0.778 -0.023189586 1.3292073e-38 327 257
0.010912746 0.778 -0.023189586 1.2366875e-38 328 257
0.012308398 0.77999997 -0.023249198 7.7570936e-39 329 257
0.013675999 0.77999997 -0.023249198 1.5828479e-39 330 257
0.0150436 0.77999997 -0.023249198 1.3001247e-41 331 257
0.016411198 0.77999997 -0.023249198 9.7572412e-42 332 257
-0.025551327 0.76700002 -0.024206521 1.2545856e-38 301 258
-0.024206521 0.76700002 -0.024206521 1.329207e-38 302 258
-0.023040552 0.773 -0.024395877 1.4582809e-38 303 258
-0.021573013 0.76899999 -0.024269639 1.5223863e-38 304 258
-0.0202247 0.76899999 -0.024269639 1.5039113e-38 305 258
-0.018876385 0.76899999 -0.024269639 1.4485577e-38 306 258
-0.017528072 0.76899999 -0.024269639 1.3655457e-38 307 258
-0.01613768 0.76700002 -0.024206521 1.2554517e-38 308 258
-0.014792874 0.76700002 -0.024206521 1.3292441e-38 309 258
-0.013448066 0.76700002 -0.024206521 1.3937107e-38 310 258
-0.012087479 0.76599997 -0.024174958 1.4121498e-38 311 258
-0.010744425 0.76599997 -0.024174958 1.375559e-38 312 258
-0.0094013726 0.76599997 -0.024174958 1.3386449e-38 313 258
-0.0080583189 0.76599997 -0.024174958 1.4301924e-38 314 258
-0.0067152665 0.76599997 -0.024174958 1.3748752e-38 315 258
-0.0053722127 0.76599997 -0.024174958 1.3289214e-38 316 258
-0.0040291594 0.76599997 -0.024174958 1.3289214e-38 317 258
-0.0026896133 0.76700002 -0.024206521 1.3565075e-38 318 258
-0.0013448066 0.76700002 -0.024206521 1.3565075e-38 319 258
0 0.76700002 -0.024206521 1.3470346e-38 320 258
0.0013448066 0.76700002 -0.024206521 1.1349846e-38 321 258
0.0026966266 0.76899999 -0.024269639 7.9396996e-39 322 258
0.0040659797 0.773 -0.024395877 1.0521177e-38 323 258
0.0054213065 0.773 -0.024395877 1.273676e-38 324 258
0.0067853997 0.77399999 -0.02442744 1.3105902e-38 325 258
0.0081635201 0.77600002 -0.024490559 1.3014407e-38 326 258
0.0095486529 0.778 -0.024553679 1.209245e-38 327 258
0.010940799 0.77999997 -0.024616797 7.8536039e-39 328 258
0.012308398 0.77999997 -0.024616797 2.0136519e-40 329 258
0.013675999 0.77999997 -0.024616797 1.3366986e-41 330 258
-0.024206521 0.76700002 -0.025551327 1.2367239e-38 302 259
-0.023040552 0.773 -0.025751207 1.4211151e-38 303 259
-0.021685226 0.773 -0.025751207 1.4579584e-38 304 259
-0.020277301 0.77100003 -0.02568458 1.4579584e-38 305 259
-0.018925481 0.77100003 -0.02568458 1.476325e-38 306 259
-0.01757366 0.77100003 -0.02568458 1.4210435e-38 307 259
-0.016179759 0.76899999 -0.025617953 1.2461957e-38 308 259
-0.014831445 0.76899999 -0.025617953 1.2554154e-38 309 259
-0.013448066 0.76700002 -0.025551327 1.3659441e-38 310 259
-0.01210326 0.76700002 -0.025551327 1.4028584e-38 311 259
-0.010758453 0.76700002 -0.025551327 1.3660524e-38 312 259
-0.0094136465 0.76700002 -0.025551327 1.2369786e-38 313 259
-0.00806884 0.76700002 -0.025551327 1.3198097e-38 314 259
-0.006724033 0.76700002 -0.025551327 1.3013706e-38 315 259
-0.0053792265 0.76700002 -0.025551327 1.3657625e-38 316 259
-0.00403442 0.76700002 -0.025551327 1.3934571e-38 317 259
-0.0026896133 0.76700002 -0.025551327 1.4669239e-38 318 259
-0.0013448066 0.76700002 -0.025551327 1.3931674e-38 319 259
0 0.76700002 -0.025551327 1.2637673e-38 320 259
0.0013483133 0.76899999 -0.025617953 8.397033e-39 321 259
0.0027036399 0.77100003 -0.02568458 1.9856399e-41 322 259
0.0040659797 0.773 -0.025751207 4.8151096e-39 323 259
0.0054283198 0.77399999 -0.025784519 1.1265232e-38 324 259
0.0068029333 0.77600002 -0.025851147 1.2648166e-38 325 259
0.0081845606 0.778 -0.025917772 1.3382469e-38 326 259
0.0095486529 0.778 -0.025917772 1.0155622e-38 327 259
0.010940799 0.77999997 -0.025984399 2.9733255e-39 328 259
0.012308398 0.77999997 -0.025984399 1.118096e-41 329 259
-0.018974574 0.773 -0.027106533 1.4395193e-38 306 260
-0.017619247 0.773 -0.027106533 1.4395193e-38 307 260
-0.016221842 0.77100003 -0.027036399 1.3842741e-38 308 260
-0.01487002 0.77100003 -0.027036399 1.347396e-38 309 260
-0.013448066 0.76700002 -0.026896132 1.3291732e-38 310 260
-0.01210326 0.76700002 -0.026896132 1.3660875e-38 311 260
-0.010758453 0.76700002 -0.026896132 1.3568681e-38 312 260
-0.0094136465 0.76700002 -0.026896132 1.10794e-38 313 260
-0.00806884 0.76700002 -0.026896132 1.0341828e-38 314 260
-0.006724033 0.76700002 -0.026896132 1.0341828e-38 315 260
-0.0053792265 0.76700002 -0.026896132 1.1169418e-38 316 260
-0.00403442 0.76700002 -0.026896132 1.0524049e-38 317 260
-0.0026896133 0.76700002 -0.026896132 8.5832558e-39 318 260
-0.0013448066 0.76700002 -0.026896132 4.9879849e-39 319 260
0 0.76700002 -0.026896132 3.8604021e-39 320 260
0.0013483133 0.76899999 -0.026966266 2.9388031e-39 321 260
0.0027036399 0.77100003 -0.027036399 6.1657132e-44 322 260
0.0040712398 0.77399999 -0.027141599 4.9815151e-39 323 260
0.0054283198 0.77399999 -0.027141599 8.320361e-39 324 260
