# .PCD v.7 - Point Cloud Data file format
FIELDS x y z rgb imX imY
SIZE 4 4 4 4 4 4
TYPE F F F F F F
COUNT 1 1 1 1 1 1
WIDTH 842
HEIGHT 1
VIEWPOINT 0 0 0 1 0 0 0
POINTS 842
DATA ascii
-0.0095731998 0.77999997 0.016411198 1.6001353e-38 313 228
-0.0082055992 0.77999997 0.016411198 1.6097518e-38 314 228
-0.0068379994 0.77999997 0.016411198 1.5544345e-38 315 228
-0.0054703997 0.77999997 0.016411198 1.4256492e-38 316 228
-0.0041027996 0.77999997 0.016411198 1.3888069e-38 317 228
-0.0027351999 0.77999997 0.016411198 1.4530188e-38 318 228
-0.0013640933 0.778 0.016369121 1.471458e-38 319 228
0 0.778 0.016369121 1.4894306e-38 320 228
0.0013640933 0.778 0.016369121 1.5539675e-38 321 228
0.0027211732 0.77600002 0.01632704 1.6648878e-38 322 228
0.0040817601 0.77600002 0.01632704 1.6464126e-38 323 228
0.0054423464 0.77600002 0.01632704 1.6641289e-38 324 228
0.0068029333 0.77600002 0.01632704 1.5903724e-38 325 228
0.0081635201 0.77600002 0.01632704 1.5995207e-38 326 228
0.009524107 0.77600002 0.01632704 1.6363631e-38 327 228
0.010884693 0.77600002 0.01632704 1.636293e-38 328 228
0.012276839 0.778 0.016369121 1.6732071e-38 329 228
0.013640933 0.778 0.016369121 1.6459088e-38 330 228
0.0150436 0.77999997 0.016411198 1.6920067e-38 331 228
0.016411198 0.77999997 0.016411198 1.6095704e-38 332 228
0.017801592 0.78100002 0.016432239 1.5910954e-38 333 228
0.019170946 0.78100002 0.016432239 1.5171262e-38 334 228
0.020645501 0.78500003 0.016516401 1.6462e-38 335 228
-0.030472934 0.79000002 0.015236467 1.8623537e-38 298 229
-0.02905098 0.78899997 0.015217179 1.0141539e-38 299 229
-0.027597465 0.787 0.015178605 1.6731012e-38 300 229
-0.026217593 0.787 0.015178605 1.7468578e-38 301 229
-0.0247746 0.78500003 0.015140033 1.8386901e-38 302 229
-0.02333862 0.78299999 0.01510146 1.8294705e-38 303 229
-0.021965759 0.78299999 0.01510146 1.9402492e-38 304 229
-0.020540299 0.78100002 0.015062887 2.0140417e-38 305 229
-0.019170946 0.78100002 0.015062887 1.9400344e-38 306 229
-0.017801592 0.78100002 0.015062887 1.9216313e-38 307 229
-0.016432239 0.78100002 0.015062887 1.8577427e-38 308 229
-0.015062887 0.78100002 0.015062887 1.8761458e-38 309 229
-0.013675999 0.77999997 0.0150436 1.8853291e-38 310 229
-0.012308398 0.77999997 0.0150436 1.9313909e-38 311 229
-0.010940799 0.77999997 0.0150436 1.8857604e-38 312 229
-0.0095486529 0.778 0.015005025 2.0056147e-38 313 229
-0.0081845606 0.778 0.015005025 2.0060832e-38 314 229
-0.0068379994 0.77999997 0.0150436 2.0245582e-38 315 229
-0.0054703997 0.77999997 0.0150436 1.9143917e-38 316 229
-0.0040922803 0.778 0.015005025 1.8221961e-38 317 229
-0.0027281865 0.778 0.015005025 1.8400219e-38 318 229
-0.0013640933 0.778 0.015005025 1.8215828e-38 319 229
0 0.778 0.015005025 1.9044144e-38 320 229
0.0013640933 0.778 0.015005025 1.9136339e-38 321 229
0.0027211732 0.77600002 0.014966453 1.9502248e-38 322 229
0.0040817601 0.77600002 0.014966453 1.8949074e-38 323 229
0.0054423464 0.77600002 0.014966453 1.9129499e-38 324 229
0.0068029333 0.77600002 0.014966453 1.7931315e-38 325 229
0.0081635201 0.77600002 0.014966453 1.8205008e-38 326 229
0.009524107 0.77600002 0.014966453 1.8112813e-38 327 229
0.010884693 0.77600002 0.014966453 1.8110662e-38 328 229
0.01224528 0.77600002 0.014966453 1.8202857e-38 329 229
0.013605867 0.77600002 0.014966453 1.7746571e-38 330 229
0.0150436 0.77999997 0.0150436 1.7930962e-38 331 229
0.016411198 0.77999997 0.0150436 1.6921496e-38 332 229
0.017801592 0.78100002 0.015062887 1.6921496e-38 333 229
0.019170946 0.78100002 0.015062887 1.627651e-38 334 229
0.020540299 0.78100002 0.015062887 1.5815892e-38 335 229
0.022077972 0.787 0.015178605 1.4823009e-38 336 229
-0.030434359 0.78899997 0.013833799 1.8250066e-38 298 230
-0.02905098 0.78899997 0.013833799 1.0321241e-38 299 230
-0.027597465 0.787 0.013798732 1.6912882e-38 300 230
-0.026217593 0.787 0.013798732 1.8203621e-38 301 230
-0.024711479 0.78299999 0.013728599 1.8293277e-38 302 230
-0.02333862 0.78299999 0.013728599 1.8569863e-38 303 230
-0.021965759 0.78299999 0.013728599 1.9405013e-38 304 230
-0.020540299 0.78100002 0.013693534 1.9866351e-38 305 230
-0.019170946 0.78100002 0.013693534 1.9307429e-38 306 230
-0.017801592 0.78100002 0.013693534 1.9307429e-38 307 230
-0.016411198 0.77999997 0.013675999 1.8575625e-38 308 230
-0.0150436 0.77999997 0.013675999 1.8575625e-38 309 230
-0.013675999 0.77999997 0.013675999 1.8850044e-38 310 230
-0.012276839 0.778 0.013640933 1.8850044e-38 311 230
-0.010912746 0.778 0.013640933 1.8852195e-38 312 230
-0.0095486529 0.778 0.013640933 2.0695749e-38 313 230
-0.0081845606 0.778 0.013640933 2.0241976e-38 314 230
-0.0068204664 0.778 0.013640933 2.0887346e-38 315 230
-0.0054563731 0.778 0.013640933 2.006334e-38 316 230
-0.0040922803 0.778 0.013640933 1.9233219e-38 317 230
-0.0027281865 0.778 0.013640933 1.9317121e-38 318 230
-0.0013640933 0.778 0.013640933 1.9317121e-38 319 230
0 0.778 0.013640933 1.9692017e-38 320 230
0.0013640933 0.778 0.013640933 1.9507267e-38 321 230
0.0027211732 0.77600002 0.013605867 1.9594078e-38 322 230
0.0040817601 0.77600002 0.013605867 1.867212e-38 323 230
0.0054283198 0.77399999 0.013570799 1.8761796e-38 324 230
0.0067853997 0.77399999 0.013570799 1.7932034e-38 325 230
0.0081635201 0.77600002 0.013605867 1.8110659e-38 326 230
0.009524107 0.77600002 0.013605867 1.7926628e-38 327 230
0.010884693 0.77600002 0.013605867 1.7834429e-38 328 230
0.01224528 0.77600002 0.013605867 1.8111015e-38 329 230
0.013605867 0.77600002 0.013605867 1.7561451e-38 330 230
0.015005025 0.778 0.013640933 1.7746202e-38 331 230
0.016411198 0.77999997 0.013675999 1.7105164e-38 332 230
0.017801592 0.78100002 0.013693534 1.7105164e-38 333 230
0.019170946 0.78100002 0.013693534 1.6185746e-38 334 230
0.020540299 0.78100002 0.013693534 1.5263788e-38 335 230
0.021965759 0.78299999 0.013728599 1.4354468e-38 336 230
0.023457846 0.787 0.013798732 2.0715966e-38 337 230
-0.030434359 0.78899997 0.012450419 1.7968434e-38 298 231
-0.02905098 0.78899997 0.012450419 1.0777175e-38 299 231
-0.027597465 0.787 0.01241886 1.7002913e-38 300 231
-0.026217593 0.787 0.01241886 1.8478044e-38 301 231
-0.024711479 0.78299999 0.012355739 1.8202154e-38 302 231
-0.02333862 0.78299999 0.012355739 1.8294349e-38 303 231
-0.021909652 0.78100002 0.01232418 1.9407163e-38 304 231
-0.020540299 0.78100002 0.01232418 2.0145086e-38 305 231
-0.019170946 0.78100002 0.01232418 1.9587957e-38 306 231
-0.017778799 0.77999997 0.012308398 1.8850392e-38 307 231
-0.016411198 0.77999997 0.012308398 1.8940072e-38 308 231
-0.0150436 0.77999997 0.012308398 1.8940072e-38 309 231
-0.013640933 0.778 0.012276839 1.8757479e-38 310 231
-0.012276839 0.778 0.012276839 1.8757479e-38 311 231
-0.010912746 0.778 0.012276839 1.885112e-38 312 231
-0.0095486529 0.778 0.012276839 2.0510642e-38 313 231
-0.0081845606 0.778 0.012276839 1.9966105e-38 314 231
-0.0068204664 0.778 0.012276839 2.1072094e-38 315 231
-0.0054563731 0.778 0.012276839 2.0706189e-38 316 231
-0.0040922803 0.778 0.012276839 1.9968624e-38 317 231
-0.0027281865 0.778 0.012276839 1.9871386e-38 318 231
-0.0013640933 0.778 0.012276839 2.0147614e-38 319 231
0 0.778 0.012276839 2.0246283e-38 320 231
0.0013640933 0.778 0.012276839 2.0614706e-38 321 231
0.0027141599 0.77399999 0.01221372 2.0518921e-38 322 231
0.0040712398 0.77399999 0.01221372 1.8490617e-38 323 231
0.0054283198 0.77399999 0.01221372 1.8576334e-38 324 231
0.0067853997 0.77399999 0.01221372 1.7930965e-38 325 231
0.0081424797 0.77399999 0.01221372 1.8293631e-38 326 231
0.009524107 0.77600002 0.01224528 1.8201435e-38 327 231
0.010884693 0.77600002 0.01224528 1.8109602e-38 328 231
0.01224528 0.77600002 0.01224528 1.8202157e-38 329 231
0.013605867 0.77600002 0.01224528 1.7652946e-38 330 231
0.015005025 0.778 0.012276839 1.8021728e-38 331 231
0.016411198 0.77999997 0.012308398 1.7014416e-38 332 231
0.017801592 0.78100002 0.01232418 1.692222e-38 333 231
0.019170946 0.78100002 0.01232418 1.6554527e-38 334 231
0.020540299 0.78100002 0.01232418 1.5540376e-38 335 231
0.021965759 0.78299999 0.012355739 1.4625295e-38 336 231
0.023398234 0.78500003 0.0123873 2.0341422e-38 337 231
-0.030434359 0.78899997 0.011067039 1.7320184e-38 298 232
-0.02905098 0.78899997 0.011067039 1.0866489e-38 299 232
-0.027597465 0.787 0.011038986 1.7095829e-38 300 232
-0.026217593 0.787 0.011038986 1.8386567e-38 301 232
-0.024711479 0.78299999 0.010982879 1.8109602e-38 302 232
-0.02333862 0.78299999 0.010982879 1.8202157e-38 303 232
-0.021909652 0.78100002 0.010954826 1.9408976e-38 304 232
-0.020540299 0.78100002 0.010954826 2.0884466e-38 305 232
-0.0191464 0.77999997 0.010940799 1.9598043e-38 306 232
-0.017778799 0.77999997 0.010940799 1.7569739e-38 307 232
-0.016411198 0.77999997 0.010940799 1.8843558e-38 308 232
-0.0150436 0.77999997 0.010940799 1.9027949e-38 309 232
-0.013640933 0.778 0.010912746 1.8755675e-38 310 232
-0.012276839 0.778 0.010912746 1.8755675e-38 311 232
-0.010912746 0.778 0.010912746 1.9031917e-38 312 232
-0.009524107 0.77600002 0.010884693 2.0138265e-38 313 232
-0.0081635201 0.77600002 0.010884693 1.978245e-38 314 232
-0.0068029333 0.77600002 0.010884693 2.2548679e-38 315 232
-0.0054423464 0.77600002 0.010884693 2.1635353e-38 316 232
-0.0040817601 0.77600002 0.010884693 2.1266212e-38 317 232
-0.0027211732 0.77600002 0.010884693 2.0892748e-38 318 232
-0.0013605866 0.77600002 0.010884693 2.0708356e-38 319 232
0 0.77600002 0.010884693 2.0894185e-38 320 232
0.0013605866 0.77600002 0.010884693 2.1355524e-38 321 232
0.0027141599 0.77399999 0.01085664 2.1997296e-38 322 232
0.0040712398 0.77399999 0.01085664 1.9231068e-38 323 232
0.0054283198 0.77399999 0.01085664 1.8481627e-38 324 232
0.0067853997 0.77399999 0.01085664 1.8205401e-38 325 232
0.0081424797 0.77399999 0.01085664 1.838475e-38 326 232
0.009524107 0.77600002 0.010884693 1.8292554e-38 327 232
0.010884693 0.77600002 0.010884693 1.8016688e-38 328 232
0.01224528 0.77600002 0.010884693 1.8109242e-38 329 232
0.013640933 0.778 0.010912746 1.7560753e-38 330 232
0.015005025 0.778 0.010912746 1.8206122e-38 331 232
0.016411198 0.77999997 0.010940799 1.7106982e-38 332 232
0.017778799 0.77999997 0.010940799 1.7014786e-38 333 232
0.0191464 0.77999997 0.010940799 1.6555976e-38 334 232
0.020540299 0.78100002 0.010954826 1.5910606e-38 335 232
0.021909652 0.78100002 0.010954826 1.5083399e-38 336 232
0.023398234 0.78500003 0.011010934 1.9785735e-38 337 232
-0.030434359 0.78899997 0.0096836593 1.7128599e-38 298 233
-0.02905098 0.78899997 0.0096836593 1.205784e-38 299 233
-0.027597465 0.787 0.0096591124 1.7096905e-38 300 233
-0.026150968 0.78500003 0.0096345674 1.8111057e-38 301 233
-0.024711479 0.78299999 0.0096100196 1.7835539e-38 302 233
-0.02333862 0.78299999 0.0096100196 1.7928093e-38 303 233
-0.021909652 0.78100002 0.0095854728 1.9500108e-38 304 233
-0.020540299 0.78100002 0.0095854728 2.0974878e-38 305 233
-0.0191464 0.77999997 0.0095731998 1.9871051e-38 306 233
-0.017778799 0.77999997 0.0095731998 1.802714e-38 307 233
-0.016411198 0.77999997 0.0095731998 1.8201082e-38 308 233
-0.015005025 0.778 0.0095486529 1.8569863e-38 309 233
-0.013640933 0.778 0.0095486529 1.8204672e-38 310 233
-0.012276839 0.778 0.0095486529 1.8296868e-38 311 233
-0.010884693 0.77600002 0.009524107 1.8571312e-38 312 233
-0.009524107 0.77600002 0.009524107 1.9677301e-38 313 233
-0.0081635201 0.77600002 0.009524107 1.9046337e-38 314 233
-0.0068029333 0.77600002 0.009524107 2.1996237e-38 315 233
-0.0054423464 0.77600002 0.009524107 2.163537e-38 316 233
-0.0040817601 0.77600002 0.009524107 2.1266588e-38 317 233
-0.0027211732 0.77600002 0.009524107 2.135806e-38 318 233
-0.0013605866 0.77600002 0.009524107 2.0897082e-38 319 233
0 0.77600002 0.009524107 2.1357338e-38 320 233
0.0013605866 0.77600002 0.009524107 2.1818315e-38 321 233
0.0027141599 0.77399999 0.0094995592 2.1450959e-38 322 233
0.0040712398 0.77399999 0.0094995592 1.8592536e-38 323 233
0.0054283198 0.77399999 0.0094995592 1.8295801e-38 324 233
0.0067853997 0.77399999 0.0094995592 1.7926659e-38 325 233
0.0081424797 0.77399999 0.0094995592 1.8109605e-38 326 233
0.0094995592 0.77399999 0.0094995592 1.7833378e-38 327 233
0.01085664 0.77399999 0.0094995592 1.7557517e-38 328 233
0.01221372 0.77399999 0.0094995592 1.7833744e-38 329 233
0.013605867 0.77600002 0.009524107 1.7377457e-38 330 233
0.015005025 0.778 0.0095486529 1.7654044e-38 331 233
0.016369121 0.778 0.0095486529 1.6831839e-38 332 233
0.017778799 0.77999997 0.0095731998 1.6831839e-38 333 233
0.0191464 0.77999997 0.0095731998 1.6465212e-38 334 233
0.020540299 0.78100002 0.0095854728 1.6188265e-38 335 233
0.021909652 0.78100002 0.0095854728 1.5174504e-38 336 233
0.023398234 0.78500003 0.0096345674 1.9415504e-38 337 233
-0.030472934 0.79000002 0.0083108004 1.675622e-38 298 234
-0.02905098 0.78899997 0.0083002793 1.2607777e-38 299 234
-0.027597465 0.787 0.0082792398 1.7282016e-38 300 234
-0.026150968 0.78500003 0.0082582003 1.7927386e-38 301 234
-0.024711479 0.78299999 0.0082371598 1.7927009e-38 302 234
-0.02333862 0.78299999 0.0082371598 1.8111759e-38 303 234
-0.021909652 0.78100002 0.0082161194 1.9225313e-38 304 234
-0.020513998 0.77999997 0.0082055992 2.0423856e-38 305 234
-0.0191464 0.77999997 0.0082055992 1.8761458e-38 306 234
-0.017733213 0.778 0.0081845606 1.7470719e-38 307 234
-0.016369121 0.778 0.0081845606 1.7837315e-38 308 234
-0.015005025 0.778 0.0081845606 1.8022066e-38 309 234
-0.013605867 0.77600002 0.0081635201 1.7932016e-38 310 234
-0.01224528 0.77600002 0.0081635201 1.783982e-38 311 234
-0.010884693 0.77600002 0.0081635201 1.7657972e-38 312 234
-0.009524107 0.77600002 0.0081635201 1.8671764e-38 313 234
-0.0081635201 0.77600002 0.0081635201 1.7758115e-38 314 234
-0.0068029333 0.77600002 0.0081635201 1.9048853e-38 315 234
-0.0054423464 0.77600002 0.0081635201 1.9238281e-38 316 234
-0.0040817601 0.77600002 0.0081635201 2.0252431e-38 317 234
-0.0027211732 0.77600002 0.0081635201 2.0809921e-38 318 234
-0.0013605866 0.77600002 0.0081635201 2.1363095e-38 319 234
0 0.77600002 0.0081635201 2.1820833e-38 320 234
0.0013605866 0.77600002 0.0081635201 2.1544248e-38 321 234
0.0027106532 0.773 0.0081319595 2.0533694e-38 322 234
0.0040659797 0.773 0.0081319595 1.7583076e-38 323 234
0.0054213065 0.773 0.0081319595 1.7195562e-38 324 234
0.0067766332 0.773 0.0081319595 1.6457995e-38 325 234
0.0081319595 0.773 0.0081319595 1.7560359e-38 326 234
0.0094872871 0.773 0.0081319595 1.7652555e-38 327 234
0.01085664 0.77399999 0.0081424797 1.7377062e-38 328 234
0.01221372 0.77399999 0.0081424797 1.7469258e-38 329 234
0.013570799 0.77399999 0.0081424797 1.7011899e-38 330 234
0.014966453 0.77600002 0.0081635201 1.7749464e-38 331 234
0.01632704 0.77600002 0.0081635201 1.6833287e-38 332 234
0.017778799 0.77999997 0.0082055992 1.7109875e-38 333 234
0.0191464 0.77999997 0.0082055992 1.6375546e-38 334 234
0.020540299 0.78100002 0.0082161194 1.5637981e-38 335 234
0.021909652 0.78100002 0.0082161194 1.4990473e-38 336 234
0.023398234 0.78500003 0.0082582003 1.8585742e-38 337 234
-0.031858064 0.79000002 0.0069256667 1.5676166e-38 297 235
-0.030472934 0.79000002 0.0069256667 1.6386e-38 298 235
-0.02905098 0.78899997 0.0069168997 1.3251348e-38 299 235
-0.027597465 0.787 0.0068993662 1.7375287e-38 300 235
-0.026150968 0.78500003 0.0068818335 1.7283091e-38 301 235
-0.024711479 0.78299999 0.0068642995 1.6915012e-38 302 235
-0.023279008 0.78100002 0.0068467669 1.6730621e-38 303 235
-0.021909652 0.78100002 0.0068467669 1.5725474e-38 304 235
-0.020513998 0.77999997 0.0068379994 1.6554874e-38 305 235
-0.019097306 0.778 0.0068204664 1.4807836e-38 306 235
-0.017733213 0.778 0.0068204664 1.407027e-38 307 235
-0.01632704 0.77600002 0.0068029333 1.2963191e-38 308 235
-0.014966453 0.77600002 0.0068029333 1.2594768e-38 309 235
-0.013605867 0.77600002 0.0068029333 1.195192e-38 310 235
-0.01224528 0.77600002 0.0068029333 1.195192e-38 311 235
-0.010884693 0.77600002 0.0068029333 1.1218686e-38 312 235
-0.0094995592 0.77399999 0.0067853997 1.2140643e-38 313 235
-0.0081424797 0.77399999 0.0067853997 1.1878455e-38 314 235
-0.0068029333 0.77600002 0.0068029333 1.326139e-38 315 235
-0.0054423464 0.77600002 0.0068029333 1.6206621e-38 316 235
-0.0040712398 0.77399999 0.0067853997 1.7682111e-38 317 235
-0.0027141599 0.77399999 0.0067853997 1.7040704e-38 318 235
-0.0013570799 0.77399999 0.0067853997 1.7501681e-38 319 235
0 0.77399999 0.0067853997 1.8604789e-38 320 235
0.0013570799 0.77399999 0.0067853997 1.9065408e-38 321 235
0.0027106532 0.773 0.0067766332 1.805378e-38 322 235
0.0040659797 0.773 0.0067766332 1.3904977e-38 323 235
0.0054213065 0.773 0.0067766332 1.0762746e-38 324 235
0.0067766332 0.773 0.0067766332 9.4720069e-39 325 235
0.0081319595 0.773 0.0067766332 1.0848806e-38 326 235
0.0094872871 0.773 0.0067766332 1.0941361e-38 327 235
0.010842613 0.773 0.0067766332 1.1400194e-38 328 235
0.01221372 0.77399999 0.0067853997 1.1953009e-38 329 235
0.013570799 0.77399999 0.0067853997 1.2689876e-38 330 235
0.014966453 0.77600002 0.0068029333 1.4164646e-38 331 235
0.01632704 0.77600002 0.0068029333 1.4722881e-38 332 235
0.017733213 0.778 0.0068204664 1.536825e-38 333 235
0.0191464 0.77999997 0.0068379994 1.5825986e-38 334 235
0.020513998 0.77999997 0.0068379994 1.5180617e-38 335 235
0.021909652 0.78100002 0.0068467669 1.5449296e-38 336 235
0.02333862 0.78299999 0.0068642995 1.8307362e-38 337 235
-0.03332736 0.792 0.0055545596 2.010084e-38 296 236
-0.031858064 0.79000002 0.0055405335 1.5398504e-38 297 236
-0.030434359 0.78899997 0.0055335197 1.6017583e-38 298 236
-0.02905098 0.78899997 0.0055335197 1.288329e-38 299 236
-0.027597465 0.787 0.005519493 1.6457279e-38 300 236
-0.026150968 0.78500003 0.0055054668 1.5904107e-38 301 236
-0.024711479 0.78299999 0.0054914397 1.5074677e-38 302 236
-0.023279008 0.78100002 0.0054774131 1.4060165e-38 303 236
-0.021909652 0.78100002 0.0054774131 1.2863089e-38 304 236
-0.020513998 0.77999997 0.0054703997 1.3232232e-38 305 236
-0.019097306 0.778 0.0054563731 1.2872091e-38 306 236
-0.017687626 0.77600002 0.0054423464 1.2872091e-38 307 236
-0.01632704 0.77600002 0.0054423464 1.0930581e-38 308 236
-0.014966453 0.77600002 0.0054423464 1.0101905e-38 309 236
-0.013605867 0.77600002 0.0054423464 9.4590561e-39 310 236
-0.01224528 0.77600002 0.0054423464 9.4590561e-39 311 236
-0.01085664 0.77399999 0.0054283198 8.6325366e-39 312 236
-0.0094995592 0.77399999 0.0054283198 9.0920757e-39 313 236
-0.0081424797 0.77399999 0.0054283198 9.6628694e-39 314 236
-0.0067853997 0.77399999 0.0054283198 1.3535086e-38 315 236
-0.0054283198 0.77399999 0.0054283198 1.5933262e-38 316 236
-0.0040712398 0.77399999 0.0054283198 1.7316197e-38 317 236
-0.0027141599 0.77399999 0.0054283198 1.630529e-38 318 236
-0.0013570799 0.77399999 0.0054283198 1.630529e-38 319 236
0 0.77399999 0.0054283198 1.7777546e-38 320 236
0.0013570799 0.77399999 0.0054283198 1.7961938e-38 321 236
0.0027106532 0.773 0.0054213065 1.7593875e-38 322 236
0.0040659797 0.773 0.0054213065 1.3168844e-38 323 236
0.0054072798 0.77100003 0.0054072798 9.1964934e-39 324 236
0.0067590997 0.77100003 0.0054072798 6.7072198e-39 325 236
0.0081109209 0.77100003 0.0054072798 8.4488656e-39 326 236
0.0094872871 0.773 0.0054213065 8.5407011e-39 327 236
0.010842613 0.773 0.0054213065 9.0917141e-39 328 236
0.012197939 0.773 0.0054213065 9.6427271e-39 329 236
0.013570799 0.77399999 0.0054283198 1.0377429e-38 330 236
0.014966453 0.77600002 0.0054423464 1.2313179e-38 331 236
0.01632704 0.77600002 0.0054423464 1.3157e-38 332 236
0.017733213 0.778 0.0054563731 1.4171512e-38 333 236
0.019097306 0.778 0.0054563731 1.5272114e-38 334 236
0.020513998 0.77999997 0.0054703997 1.4995169e-38 335 236
0.021881599 0.77999997 0.0054703997 1.4715697e-38 336 236
0.023279008 0.78100002 0.0054774131 1.7297174e-38 337 236
-0.033243202 0.79000002 0.0041554002 2.0375982e-38 296 237
-0.031858064 0.79000002 0.0041554002 1.5304863e-38 297 237
-0.030434359 0.78899997 0.0041501396 1.5005579e-38 298 237
-0.02897734 0.787 0.0041396199 9.566397e-39 299 237
-0.027527334 0.78500003 0.0041291001 1.1672457e-38 300 237
-0.026084339 0.78299999 0.0041185799 1.2317827e-38 301 237
-0.024711479 0.78299999 0.0041185799 1.1860073e-38 302 237
-0.023279008 0.78100002 0.0041080597 1.2228857e-38 303 237
-0.021881599 0.77999997 0.0041027996 1.4986475e-38 304 237
-0.020461399 0.778 0.0040922803 1.7107335e-38 305 237
-0.019097306 0.778 0.0040922803 1.7393279e-38 306 237
-0.017687626 0.77600002 0.0040817601 1.6563159e-38 307 237
-0.01632704 0.77600002 0.0040817601 1.7193044e-38 308 237
-0.014966453 0.77600002 0.0040817601 1.6547674e-38 309 237
-0.013605867 0.77600002 0.0040817601 1.6732422e-38 310 237
-0.01224528 0.77600002 0.0040817601 1.6732422e-38 311 237
-0.01085664 0.77399999 0.0040712398 1.654839e-38 312 237
-0.0094995592 0.77399999 0.0040712398 1.6640945e-38 313 237
-0.0081424797 0.77399999 0.0040712398 1.7010801e-38 314 237
-0.0067853997 0.77399999 0.0040712398 2.0237648e-38 315 237
-0.0054283198 0.77399999 0.0040712398 2.0065857e-38 316 237
-0.0040712398 0.77399999 0.0040712398 2.1633184e-38 317 237
-0.0027141599 0.77399999 0.0040712398 2.053261e-38 318 237
-0.0013570799 0.77399999 0.0040712398 2.0256382e-38 319 237
0 0.773 0.0040659797 2.0532613e-38 320 237
0.0013553266 0.773 0.0040659797 2.0440417e-38 321 237
0.0027036399 0.77100003 0.0040554604 2.0899232e-38 322 237
0.0040554604 0.77100003 0.0040554604 1.8594339e-38 323 237
0.0054072798 0.77100003 0.0040554604 1.7471043e-38 324 237
0.0067590997 0.77100003 0.0040554604 1.6364337e-38 325 237
0.0081109209 0.77100003 0.0040554604 1.6454012e-38 326 237
0.0094627403 0.77100003 0.0040554604 1.6638762e-38 327 237
0.010842613 0.773 0.0040659797 1.6360412e-38 328 237
0.012197939 0.773 0.0040659797 1.5899434e-38 329 237
0.013553266 0.773 0.0040659797 1.5071122e-38 330 237
0.014927879 0.77399999 0.0040712398 1.5163318e-38 331 237
0.01632704 0.77600002 0.0040817601 1.3612939e-38 332 237
0.017687626 0.77600002 0.0040817601 1.3428908e-38 333 237
0.019097306 0.778 0.0040922803 1.2602054e-38 334 237
0.020461399 0.778 0.0040922803 1.204888e-38 335 237
0.021881599 0.77999997 0.0041027996 1.213711e-38 336 237
0.023279008 0.78100002 0.0041080597 1.5917131e-38 337 237
-0.034803666 0.79400003 0.0027842934 1.991609e-38 295 238
-0.033243202 0.79000002 0.0027702667 2.0467452e-38 296 238
-0.031858064 0.79000002 0.0027702667 1.4843519e-38 297 238
-0.030434359 0.78899997 0.0027667598 1.3715528e-38 298 238
-0.02897734 0.787 0.0027597465 9.5667235e-39 299 238
-0.027527334 0.78500003 0.0027527334 1.2035831e-38 300 238
-0.026084339 0.78299999 0.0027457199 1.3326568e-38 301 238
-0.024648361 0.78100002 0.0027387065 1.3512424e-38 302 238
-0.023279008 0.78100002 0.0027387065 1.489536e-38 303 238
-0.021881599 0.77999997 0.0027351999 1.7106628e-38 304 238
-0.020461399 0.778 0.0027281865 1.9780302e-38 305 238
-0.019048214 0.77600002 0.0027211732 1.9974404e-38 306 238
-0.017687626 0.77600002 0.0027211732 1.8499273e-38 307 238
-0.01632704 0.77600002 0.0027211732 1.8760725e-38 308 238
-0.014966453 0.77600002 0.0027211732 1.8391584e-38 309 238
-0.013570799 0.77399999 0.0027141599 1.8755665e-38 310 238
-0.01221372 0.77399999 0.0027141599 1.8755665e-38 311 238
-0.01085664 0.77399999 0.0027141599 1.8480153e-38 312 238
-0.0094995592 0.77399999 0.0027141599 1.8848577e-38 313 238
-0.0081424797 0.77399999 0.0027141599 1.912589e-38 314 238
-0.0067853997 0.77399999 0.0027141599 2.1707367e-38 315 238
-0.0054283198 0.77399999 0.0027141599 2.125756e-38 316 238
-0.0040712398 0.77399999 0.0027141599 2.2824887e-38 317 238
-0.0027141599 0.77399999 0.0027141599 2.1543152e-38 318 238
-0.0013553266 0.773 0.0027106532 2.1727903e-38 319 238
0 0.773 0.0027106532 2.1176165e-38 320 238
0.0013553266 0.773 0.0027106532 2.1083969e-38 321 238
0.0027036399 0.77100003 0.0027036399 2.1728252e-38 322 238
0.0040554604 0.77100003 0.0027036399 1.9699948e-38 323 238
0.0054072798 0.77100003 0.0027036399 1.9035492e-38 324 238
0.0067415666 0.76899999 0.0026966266 1.7929144e-38 325 238
0.0080898795 0.76899999 0.0026966266 1.8386858e-38 326 238
0.0094381925 0.76899999 0.0026966266 1.8386858e-38 327 238
0.01081456 0.77100003 0.0027036399 1.8294659e-38 328 238
0.01216638 0.77100003 0.0027036399 1.8110627e-38 329 238
0.013518199 0.77100003 0.0027036399 1.7191582e-38 330 238
0.014908593 0.773 0.0027106532 1.7191582e-38 331 238
0.016284959 0.77399999 0.0027141599 1.5083735e-38 332 238
0.01764204 0.77399999 0.0027141599 1.5175932e-38 333 238
0.019048214 0.77600002 0.0027211732 1.3795909e-38 334 238
0.020461399 0.778 0.0027281865 1.2781756e-38 335 238
0.021881599 0.77999997 0.0027351999 1.1672907e-38 336 238
0.023279008 0.78100002 0.0027387065 1.5452928e-38 337 238
-0.034715999 0.792 0.0013886399 1.991537e-38 295 239
-0.033243202 0.79000002 0.0013851334 2.0099391e-38 296 239
-0.031817738 0.78899997 0.0013833799 1.4383264e-38 297 239
-0.030434359 0.78899997 0.0013833799 1.1327812e-38 298 239
-0.02897734 0.787 0.0013798733 1.0498052e-38 299 239
-0.027527334 0.78500003 0.0013763667 1.6275403e-38 300 239
-0.026084339 0.78299999 0.0013728599 1.6644186e-38 301 239
-0.024648361 0.78100002 0.0013693533 1.7745864e-38 302 239
-0.023279008 0.78100002 0.0013693533 1.7469638e-38 303 239
-0.021881599 0.77999997 0.0013675999 1.8850069e-38 304 239
-0.020461399 0.778 0.0013640933 2.1246797e-38 305 239
-0.019048214 0.77600002 0.0013605866 2.0247759e-38 306 239
-0.017687626 0.77600002 0.0013605866 1.877299e-38 307 239
-0.01632704 0.77600002 0.0013605866 1.8300117e-38 308 239
-0.014966453 0.77600002 0.0013605866 1.802317e-38 309 239
-0.013570799 0.77399999 0.0013570799 1.8570914e-38 310 239
-0.01221372 0.77399999 0.0013570799 1.8202492e-38 311 239
-0.01085664 0.77399999 0.0013570799 1.838651e-38 312 239
-0.0094995592 0.77399999 0.0013570799 1.7925532e-38 313 239
-0.0081424797 0.77399999 0.0013570799 1.8664561e-38 314 239
-0.0067853997 0.77399999 0.0013570799 2.2628973e-38 315 239
-0.0054283198 0.77399999 0.0013570799 2.126154e-38 316 239
-0.0040712398 0.77399999 0.0013570799 2.1815074e-38 317 239
-0.0027141599 0.77399999 0.0013570799 2.1265862e-38 318 239
-0.0013553266 0.773 0.0013553266 2.1358057e-38 319 239
0 0.773 0.0013553266 2.1358408e-38 320 239
0.0013553266 0.773 0.0013553266 2.1542799e-38 321 239
0.0027036399 0.77100003 0.00135182 2.1546392e-38 322 239
0.0040554604 0.77100003 0.00135182 1.9610284e-38 323 239
0.0053932532 0.76899999 0.0013483133 1.8857231e-38 324 239
0.0067415666 0.76899999 0.0013483133 1.7013319e-38 325 239
0.0080898795 0.76899999 0.0013483133 1.8292889e-38 326 239
0.0094381925 0.76899999 0.0013483133 1.8200692e-38 327 239
0.010786506 0.76899999 0.0013483133 1.7741516e-38 328 239
0.01216638 0.77100003 0.00135182 1.7925547e-38 329 239
0.013518199 0.77100003 0.00135182 1.7283795e-38 330 239
0.014908593 0.773 0.0013553266 1.7468186e-38 331 239
0.016263919 0.773 0.0013553266 1.7198471e-38 332 239
0.017619247 0.773 0.0013553266 1.802859e-38 333 239
0.018999118 0.77399999 0.0013570799 1.6465967e-38 334 239
0.0204088 0.77600002 0.0013605866 1.4345467e-38 335 239
0.021825492 0.778 0.0013640933 1.2041317e-38 336 239
0.023249198 0.77999997 0.0013675999 1.4991937e-38 337 239
-0.034715999 0.792 -0 1.991537e-38 295 240
-0.033243202 0.79000002 -0 2.0191587e-38 296 240
-0.031817738 0.78899997 -0 1.548961e-38 297 240
-0.03035721 0.787 -0 1.4730068e-38 298 240
-0.0289037 0.78500003 -0 1.2886156e-38 299 240
-0.027457198 0.78299999 -0 1.7009381e-38 300 240
-0.026084339 0.78299999 -0 1.7009381e-38 301 240
-0.024648361 0.78100002 -0 1.7835895e-38 302 240
-0.023249198 0.77999997 -0 1.7835895e-38 303 240
-0.021825492 0.778 -0 1.8114304e-38 304 240
-0.020461399 0.778 -0 2.051103e-38 305 240
-0.019048214 0.77600002 -0 1.9602393e-38 306 240
-0.017687626 0.77600002 -0 1.904922e-38 307 240
-0.016284959 0.77399999 -0 1.8945133e-38 308 240
-0.014927879 0.77399999 -0 1.7838426e-38 309 240
-0.013570799 0.77399999 -0 1.8569482e-38 310 240
-0.01221372 0.77399999 -0 1.8384732e-38 311 240
-0.01085664 0.77399999 -0 1.8385801e-38 312 240
-0.0094995592 0.77399999 -0 1.8109573e-38 313 240
-0.0081424797 0.77399999 -0 1.8571665e-38 314 240
-0.0067853997 0.77399999 -0 2.2812665e-38 315 240
-0.0054283198 0.77399999 -0 2.1449549e-38 316 240
-0.0040712398 0.77399999 -0 2.1633942e-38 317 240
-0.0027106532 0.773 -0 2.1266234e-38 318 240
-0.0013553266 0.773 -0 2.1174039e-38 319 240
0 0.773 -0 2.1451325e-38 320 240
0.0013553266 0.773 -0 2.1727913e-38 321 240
0.0027036399 0.77100003 -0 2.1179061e-38 322 240
0.0040554604 0.77100003 -0 1.951918e-38 323 240
0.0053932532 0.76899999 -0 1.8954837e-38 324 240
0.0067415666 0.76899999 -0 1.6004577e-38 325 240
0.0080898795 0.76899999 -0 1.7926275e-38 326 240
0.0094381925 0.76899999 -0 1.7741882e-38 327 240
0.010786506 0.76899999 -0 1.7741532e-38 328 240
0.01216638 0.77100003 -0 1.7649336e-38 329 240
0.013518199 0.77100003 -0 1.7558949e-38 330 240
0.014908593 0.773 -0 1.7743699e-38 331 240
0.016263919 0.773 -0 1.7014063e-38 332 240
0.017619247 0.773 -0 1.710626e-38 333 240
0.018999118 0.77399999 -0 1.6097518e-38 334 240
0.020356199 0.77399999 -0 1.4991171e-38 335 240
0.021769386 0.77600002 -0 1.3883415e-38 336 240
0.023189586 0.778 -0 1.6557088e-38 337 240
-0.034715999 0.792 -0.0013886399 1.97317e-38 295 241
-0.033201117 0.78899997 -0.0013833799 2.0467096e-38 296 241
-0.031737085 0.787 -0.0013798733 1.659488e-38 297 241
-0.03035721 0.787 -0.0013798733 1.6937005e-38 298 241
-0.0289037 0.78500003 -0.0013763667 1.3986745e-38 299 241
-0.027457198 0.78299999 -0.0013728599 1.7375284e-38 300 241
-0.026084339 0.78299999 -0.0013728599 1.765223e-38 301 241
-0.024648361 0.78100002 -0.0013693533 1.7650429e-38 302 241
-0.023249198 0.77999997 -0.0013675999 1.7742625e-38 303 241
-0.021825492 0.778 -0.0013640933 1.7745146e-38 304 241
-0.020461399 0.778 -0.0013640933 1.8759296e-38 305 241
-0.019048214 0.77600002 -0.0013605866 1.840059e-38 306 241
-0.017687626 0.77600002 -0.0013605866 1.8492786e-38 307 241
-0.016284959 0.77399999 -0.0013570799 1.9314618e-38 308 241
-0.014927879 0.77399999 -0.0013570799 1.7839129e-38 309 241
-0.013570799 0.77399999 -0.0013570799 1.8109224e-38 310 241
-0.01221372 0.77399999 -0.0013570799 1.8017027e-38 311 241
-0.01085664 0.77399999 -0.0013570799 1.8110293e-38 312 241
-0.0094995592 0.77399999 -0.0013570799 1.8202489e-38 313 241
-0.0081424797 0.77399999 -0.0013570799 1.8116792e-38 314 241
-0.0067853997 0.77399999 -0.0013570799 2.0975216e-38 315 241
-0.0054283198 0.77399999 -0.0013570799 2.0160963e-38 316 241
-0.0040554604 0.77100003 -0.00135182 2.1543898e-38 317 241
-0.0027036399 0.77100003 -0.00135182 2.1546414e-38 318 241
-0.00135182 0.77100003 -0.00135182 2.1362023e-38 319 241
0 0.77100003 -0.00135182 2.1730436e-38 320 241
0.00135182 0.77100003 -0.00135182 2.1361654e-38 321 241
0.0026966266 0.76899999 -0.0013483133 2.0623009e-38 322 241
0.0040449398 0.76899999 -0.0013483133 1.9148239e-38 323 241
0.0053932532 0.76899999 -0.0013483133 1.9041275e-38 324 241
0.0067415666 0.76899999 -0.0013483133 1.6644189e-38 325 241
0.0080898795 0.76899999 -0.0013483133 1.755857e-38 326 241
0.0094381925 0.76899999 -0.0013483133 1.7742602e-38 327 241
0.010786506 0.76899999 -0.0013483133 1.7649333e-38 328 241
0.01216638 0.77100003 -0.00135182 1.7741529e-38 329 241
0.013518199 0.77100003 -0.00135182 1.7376356e-38 330 241
0.014908593 0.773 -0.0013553266 1.7837694e-38 331 241
0.016263919 0.773 -0.0013553266 1.6738921e-38 332 241
0.017619247 0.773 -0.0013553266 1.6831118e-38 333 241
0.018999118 0.77399999 -0.0013570799 1.5819855e-38 334 241
0.020356199 0.77399999 -0.0013570799 1.5358877e-38 335 241
0.021713279 0.77399999 -0.0013570799 1.5080881e-38 336 241
0.023129974 0.77600002 -0.0013605866 1.7662358e-38 337 241
-0.033201117 0.78899997 -0.0027667598 2.0374902e-38 296 242
-0.031737085 0.787 -0.0027597465 1.6594883e-38 297 242
-0.03035721 0.787 -0.0027597465 1.6845886e-38 298 242
-0.0289037 0.78500003 -0.0027527334 1.3434648e-38 299 242
-0.027457198 0.78299999 -0.0027457199 1.7282725e-38 300 242
-0.026084339 0.78299999 -0.0027457199 1.7743343e-38 301 242
-0.024648361 0.78100002 -0.0027387065 1.7651148e-38 302 242
-0.023249198 0.77999997 -0.0027351999 1.7743343e-38 303 242
-0.021825492 0.778 -0.0027281865 1.7928808e-38 304 242
-0.0204088 0.77600002 -0.0027211732 1.8205754e-38 305 242
-0.019048214 0.77600002 -0.0027211732 1.821042e-38 306 242
-0.01764204 0.77399999 -0.0027141599 1.8487007e-38 307 242
-0.016284959 0.77399999 -0.0027141599 1.8577403e-38 308 242
-0.014927879 0.77399999 -0.0027141599 1.7839838e-38 309 242
-0.013570799 0.77399999 -0.0027141599 1.7651135e-38 310 242
-0.01221372 0.77399999 -0.0027141599 1.7743331e-38 311 242
-0.010842613 0.773 -0.0027106532 1.7284142e-38 312 242
-0.0094627403 0.77100003 -0.0027036399 1.6915718e-38 313 242
-0.0081109209 0.77100003 -0.0027036399 1.4994018e-38 314 242
-0.0067415666 0.76899999 -0.0026966266 1.6284757e-38 315 242
-0.0053932532 0.76899999 -0.0026966266 1.5741329e-38 316 242
-0.0040449398 0.76899999 -0.0026966266 1.7124265e-38 317 242
-0.0027036399 0.77100003 -0.0027036399 1.7036391e-38 318 242
-0.00135182 0.77100003 -0.0027036399 1.7589205e-38 319 242
0 0.77100003 -0.0027036399 1.8969976e-38 320 242
0.00135182 0.77100003 -0.0027036399 1.9338757e-38 321 242
0.0026966266 0.76899999 -0.0026966266 2.0069834e-38 322 242
0.0040449398 0.76899999 -0.0026966266 1.7857497e-38 323 242
0.0053932532 0.76899999 -0.0026966266 1.8578131e-38 324 242
0.006724033 0.76700002 -0.0026896133 1.7010803e-38 325 242
0.00806884 0.76700002 -0.0026896133 1.7834795e-38 326 242
0.0094381925 0.76899999 -0.0026966266 1.7742599e-38 327 242
0.010786506 0.76899999 -0.0026966266 1.7374544e-38 328 242
0.012134819 0.76899999 -0.0026966266 1.746674e-38 329 242
0.013518199 0.77100003 -0.0027036399 1.701045e-38 330 242
0.014908593 0.773 -0.0027106532 1.765582e-38 331 242
0.016263919 0.773 -0.0027106532 1.6555608e-38 332 242
0.017619247 0.773 -0.0027106532 1.6555608e-38 333 242
0.018999118 0.77399999 -0.0027141599 1.5726944e-38 334 242
0.020356199 0.77399999 -0.0027141599 1.5449997e-38 335 242
0.021713279 0.77399999 -0.0027141599 1.4806089e-38 336 242
0.023129974 0.77600002 -0.0027211732 1.7019143e-38 337 242
0.024553679 0.778 -0.0027281865 1.5389149e-38 338 242
-0.034584496 0.78899997 -0.0041501396 1.9823177e-38 295 243
-0.033201117 0.78899997 -0.0041501396 2.0282701e-38 296 243
-0.031737085 0.787 -0.0041396199 1.6779627e-38 297 243
-0.030280067 0.78500003 -0.0041291001 1.693987e-38 298 243
-0.0289037 0.78500003 -0.0041291001 1.3067653e-38 299 243
-0.027457198 0.78299999 -0.0041185799 1.7468186e-38 300 243
-0.026084339 0.78299999 -0.0041185799 1.7652577e-38 301 243
-0.024648361 0.78100002 -0.0041080597 1.7927362e-38 302 243
-0.023279008 0.78100002 -0.0041080597 1.8019558e-38 303 243
-0.021881599 0.77999997 -0.0041027996 1.8114271e-38 304 243
-0.0204088 0.77600002 -0.0040817601 1.8852195e-38 305 243
-0.019048214 0.77600002 -0.0040817601 1.8486651e-38 306 243
-0.01764204 0.77399999 -0.0040712398 1.8486651e-38 307 243
-0.016284959 0.77399999 -0.0040712398 1.8210786e-38 308 243
-0.014927879 0.77399999 -0.0040712398 1.7657972e-38 309 243
-0.013553266 0.773 -0.0040659797 1.6736738e-38 310 243
-0.012197939 0.773 -0.0040659797 1.6367596e-38 311 243
-0.01081456 0.77100003 -0.0040554604 1.5263404e-38 312 243
-0.0094381925 0.76899999 -0.0040449398 1.3788272e-38 313 243
-0.0080898795 0.76899999 -0.0040449398 1.0483642e-38 314 243
-0.0067415666 0.76899999 -0.0040449398 1.094462e-38 315 243
-0.0053932532 0.76899999 -0.0040449398 1.149854e-38 316 243
-0.0040449398 0.76899999 -0.0040449398 1.2512331e-38 317 243
-0.0026966266 0.76899999 -0.0040449398 1.2696728e-38 318 243
-0.0013483133 0.76899999 -0.0040449398 1.352649e-38 319 243
0 0.77100003 -0.0040554604 1.5648427e-38 320 243
0.00135182 0.77100003 -0.0040554604 1.666294e-38 321 243
0.0026966266 0.76899999 -0.0040449398 1.7397595e-38 322 243
0.0040449398 0.76899999 -0.0040449398 1.6014661e-38 323 243
0.0053932532 0.76899999 -0.0040449398 1.7294205e-38 324 243
0.006724033 0.76700002 -0.00403442 1.6280054e-38 325 243
0.00806884 0.76700002 -0.00403442 1.6920738e-38 326 243
0.0094381925 0.76899999 -0.0040449398 1.6644151e-38 327 243
0.010786506 0.76899999 -0.0040449398 1.7007564e-38 328 243
0.012134819 0.76899999 -0.0040449398 1.7191595e-38 329 243
0.013518199 0.77100003 -0.0040554604 1.6827148e-38 330 243
0.01487002 0.77100003 -0.0040554604 1.7380322e-38 331 243
0.016221842 0.77100003 -0.0040554604 1.6370861e-38 332 243
0.017619247 0.773 -0.0040659797 1.6278666e-38 333 243
0.018999118 0.77399999 -0.0040712398 1.572586e-38 334 243
0.020356199 0.77399999 -0.0040712398 1.5357079e-38 335 243
0.021713279 0.77399999 -0.0040712398 1.4806445e-38 336 243
0.023129974 0.77600002 -0.0040817601 1.6558522e-38 337 243
0.024553679 0.778 -0.0040922803 1.5294789e-38 338 243
-0.034584496 0.78899997 -0.0055335197 1.9914291e-38 295 244
-0.033201117 0.78899997 -0.0055335197 2.0375252e-38 296 244
-0.031737085 0.787 -0.005519493 1.7424994e-38 297 244
-0.030280067 0.78500003 -0.0055054668 1.7035665e-38 298 244
-0.0289037 0.78500003 -0.0055054668 1.2794666e-38 299 244
-0.027457198 0.78299999 -0.0054914397 1.7468908e-38 300 244
-0.026084339 0.78299999 -0.0054914397 1.8022081e-38 301 244
-0.024648361 0.78100002 -0.0054774131 1.8296502e-38 302 244
-0.023279008 0.78100002 -0.0054774131 1.8757479e-38 303 244
-0.021881599 0.77999997 -0.0054703997 1.8762518e-38 304 244
-0.0204088 0.77600002 -0.0054423464 1.9407887e-38 305 244
-0.019048214 0.77600002 -0.0054423464 1.9039823e-38 306 244
-0.01764204 0.77399999 -0.0054283198 1.8394454e-38 307 244
-0.016284959 0.77399999 -0.0054283198 1.7010435e-38 308 244
-0.014908593 0.773 -0.0054213065 1.56275e-38 309 244
-0.013553266 0.773 -0.0054213065 1.2314588e-38 310 244
-0.012197939 0.773 -0.0054213065 1.0470681e-38 311 244
-0.01081456 0.77100003 -0.0054072798 5.88035e-39 312 244
-0.0094381925 0.76899999 -0.0053932532 6.1565782e-39 313 244
-0.0080898795 0.76899999 -0.0053932532 5.2439952e-39 314 244
-0.006724033 0.76700002 -0.0053792265 6.0741146e-39 315 244
-0.0053792265 0.76700002 -0.0053792265 1.0943929e-38 316 244
-0.0040449398 0.76899999 -0.0053932532 1.2511615e-38 317 244
-0.0026966266 0.76899999 -0.0053932532 1.3887713e-38 318 244
-0.0013483133 0.76899999 -0.0053932532 1.4256495e-38 319 244
0 0.77100003 -0.0054072798 1.4443405e-38 320 244
0.00135182 0.77100003 -0.0054072798 1.3244861e-38 321 244
0.0026966266 0.76899999 -0.0053932532 1.3234043e-38 322 244
0.0040449398 0.76899999 -0.0053932532 1.2496477e-38 323 244
0.0053932532 0.76899999 -0.0053932532 1.2866664e-38 324 244
0.006724033 0.76700002 -0.0053792265 1.3051055e-38 325 244
0.00806884 0.76700002 -0.0053792265 1.3148292e-38 326 244
0.0094381925 0.76899999 -0.0053932532 1.4623422e-38 327 244
0.010786506 0.76899999 -0.0053932532 1.6457291e-38 328 244
0.012134819 0.76899999 -0.0053932532 1.6826432e-38 329 244
0.013483133 0.76899999 -0.0053932532 1.6921867e-38 330 244
0.01487002 0.77100003 -0.0054072798 1.710626e-38 331 244
0.016221842 0.77100003 -0.0054072798 1.6370858e-38 332 244
0.017619247 0.773 -0.0054213065 1.6002436e-38 333 244
0.018974574 0.773 -0.0054213065 1.5541826e-38 334 244
0.020356199 0.77399999 -0.0054283198 1.526524e-38 335 244
0.021713279 0.77399999 -0.0054283198 1.4622411e-38 336 244
0.023129974 0.77600002 -0.0054423464 1.6374126e-38 337 244
0.024553679 0.778 -0.0054563731 1.520079e-38 338 244
-0.034628332 0.79000002 -0.0069256667 1.9729178e-38 295 245
-0.033116959 0.787 -0.0068993662 1.991535e-38 296 245
-0.031737085 0.787 -0.0068993662 1.761046e-38 297 245
-0.030280067 0.78500003 -0.0068818335 1.7315499e-38 298 245
-0.028830061 0.78299999 -0.0068642995 1.2705718e-38 299 245
-0.027457198 0.78299999 -0.0068642995 1.6829303e-38 300 245
-0.026084339 0.78299999 -0.0068642995 1.6921499e-38 301 245
-0.024648361 0.78100002 -0.0068467669 1.7746202e-38 302 245
-0.023279008 0.78100002 -0.0068467669 1.820682e-38 303 245
-0.021881599 0.77999997 -0.0068379994 1.8029997e-38 304 245
-0.0204088 0.77600002 -0.0068029333 1.8767562e-38 305 245
-0.019048214 0.77600002 -0.0068029333 1.7017272e-38 306 245
-0.01764204 0.77399999 -0.0067853997 1.5449586e-38 307 245
-0.016284959 0.77399999 -0.0067853997 1.3329787e-38 308 245
-0.014908593 0.773 -0.0067766332 1.1578447e-38 309 245
-0.013553266 0.773 -0.0067766332 1.0470681e-38 310 245
-0.01216638 0.77100003 -0.0067590997 1.0010069e-38 311 245
-0.01081456 0.77100003 -0.0067590997 9.3679787e-39 312 245
-0.0094381925 0.76899999 -0.0067415666 1.0474326e-38 313 245
-0.0080898795 0.76899999 -0.0067415666 9.1021902e-39 314 245
-0.006724033 0.76700002 -0.006724033 9.4709741e-39 315 245
-0.0053792265 0.76700002 -0.006724033 1.2417618e-38 316 245
-0.0040449398 0.76899999 -0.0067415666 1.3708356e-38 317 245
-0.0026966266 0.76899999 -0.0067415666 1.5724786e-38 318 245
-0.00135182 0.77100003 -0.0067590997 1.6001733e-38 319 245
0 0.77100003 -0.0067590997 1.5359581e-38 320 245
0.00135182 0.77100003 -0.0067590997 1.4437624e-38 321 245
0.0026966266 0.76899999 -0.0067415666 1.3881186e-38 322 245
0.0040449398 0.76899999 -0.0067415666 1.332837e-38 323 245
0.0053932532 0.76899999 -0.0067415666 1.3783238e-38 324 245
0.006724033 0.76700002 -0.006724033 1.3414095e-38 325 245
0.00806884 0.76700002 -0.006724033 1.2588689e-38 326 245
0.0094381925 0.76899999 -0.0067415666 1.4064178e-38 327 245
0.010786506 0.76899999 -0.0067415666 1.42511e-38 328 245
0.012134819 0.76899999 -0.0067415666 1.4989025e-38 329 245
0.013483133 0.76899999 -0.0067415666 1.5636906e-38 330 245
0.01487002 0.77100003 -0.0067590997 1.6467025e-38 331 245
0.016221842 0.77100003 -0.0067590997 1.6097521e-38 332 245
0.017619247 0.773 -0.0067766332 1.5452152e-38 333 245
0.018974574 0.773 -0.0067766332 1.5357435e-38 334 245
0.0203299 0.773 -0.0067766332 1.526524e-38 335 245
0.021713279 0.77399999 -0.0067853997 1.462313e-38 336 245
0.023129974 0.77600002 -0.0068029333 1.6006064e-38 337 245
0.024553679 0.778 -0.0068204664 1.5015678e-38 338 245
-0.033116959 0.787 -0.0082792398 1.9454735e-38 296 246
-0.031656433 0.78500003 -0.0082582003 1.7611183e-38 297 246
-0.03020292 0.78299999 -0.0082371598 1.768896e-38 298 246
-0.028830061 0.78299999 -0.0082371598 1.1972831e-38 299 246
-0.027387068 0.78100002 -0.0082161194 1.5450334e-38 300 246
-0.026017714 0.78100002 -0.0082161194 1.4804965e-38 301 246
-0.024648361 0.78100002 -0.0082161194 1.5629678e-38 302 246
-0.023279008 0.78100002 -0.0082161194 1.535345e-38 303 246
-0.021881599 0.77999997 -0.0082055992 1.4986109e-38 304 246
-0.0204088 0.77600002 -0.0081635201 1.4156349e-38 305 246
-0.018999118 0.77399999 -0.0081424797 1.0561092e-38 306 246
-0.01764204 0.77399999 -0.0081424797 7.9896882e-39 307 246
-0.016263919 0.773 -0.0081319595 1.2856969e-39 308 246
-0.014908593 0.773 -0.0081319595 3.4973019e-39 309 246
-0.013518199 0.77100003 -0.0081109209 1.2500097e-38 310 246
-0.01216638 0.77100003 -0.0081109209 1.5726944e-38 311 246
-0.01081456 0.77100003 -0.0081109209 1.6926197e-38 312 246
-0.0094381925 0.76899999 -0.0080898795 1.5728013e-38 313 246
-0.0080898795 0.76899999 -0.0080898795 1.3414134e-38 314 246
-0.006724033 0.76700002 -0.00806884 1.3137547e-38 315 246
-0.0053792265 0.76700002 -0.00806884 1.3699706e-38 316 246
-0.0040449398 0.76899999 -0.0080898795 1.5174836e-38 317 246
-0.0027036399 0.77100003 -0.0081109209 1.6639888e-38 318 246
-0.00135182 0.77100003 -0.0081109209 1.6824281e-38 319 246
0 0.77100003 -0.0081109209 1.6549839e-38 320 246
0.00135182 0.77100003 -0.0081109209 1.6734589e-38 321 246
0.0026966266 0.76899999 -0.0080898795 1.6827851e-38 322 246
0.0040449398 0.76899999 -0.0080898795 1.6827851e-38 323 246
0.0053932532 0.76899999 -0.0080898795 1.7281645e-38 324 246
0.006724033 0.76700002 -0.00806884 1.6083102e-38 325 246
0.00806884 0.76700002 -0.00806884 1.4337873e-38 326 246
0.0094381925 0.76899999 -0.0080898795 1.3231525e-38 327 246
0.010758453 0.76700002 -0.00806884 9.9211357e-39 328 246
0.01210326 0.76700002 -0.00806884 1.0197364e-38 329 246
0.013483133 0.76899999 -0.0080898795 1.1680781e-38 330 246
0.01487002 0.77100003 -0.0081109209 1.4170063e-38 331 246
0.016221842 0.77100003 -0.0081109209 1.5915294e-38 332 246
0.017619247 0.773 -0.0081319595 1.5085534e-38 333 246
0.018974574 0.773 -0.0081319595 1.5080491e-38 334 246
0.0203299 0.773 -0.0081319595 1.5080491e-38 335 246
0.021713279 0.77399999 -0.0081424797 1.5081587e-38 336 246
0.023129974 0.77600002 -0.0081635201 1.628013e-38 337 246
0.024553679 0.778 -0.0081845606 1.4922045e-38 338 246
-0.031656433 0.78500003 -0.0096345674 1.7978889e-38 297 247
-0.03020292 0.78299999 -0.0096100196 1.7969143e-38 298 247
-0.028830061 0.78299999 -0.0096100196 1.234521e-38 299 247
-0.027387068 0.78100002 -0.0095854728 1.5081922e-38 300 247
-0.026017714 0.78100002 -0.0095854728 1.4712779e-38 301 247
-0.024648361 0.78100002 -0.0095854728 1.4252525e-38 302 247
-0.023279008 0.78100002 -0.0095854728 1.2777755e-38 303 247
-0.021881599 0.77999997 -0.0095731998 1.0479343e-38 304 247
-0.0204088 0.77600002 -0.009524107 9.0042114e-39 305 247
-0.018999118 0.77399999 -0.0094995592 9.5541426e-39 306 247
-0.01764204 0.77399999 -0.0094995592 1.0015121e-38 307 247
-0.016263919 0.773 -0.0094872871 1.2223505e-38 308 247
-0.014908593 0.773 -0.0094872871 1.4067059e-38 309 247
-0.013518199 0.77100003 -0.0094627403 1.5909889e-38 310 247
-0.01216638 0.77100003 -0.0094627403 1.6002086e-38 311 247
-0.01081456 0.77100003 -0.0094627403 1.7195915e-38 312 247
-0.0094381925 0.76899999 -0.0094381925 1.5812979e-38 313 247
-0.0080898795 0.76899999 -0.0094381925 1.3689983e-38 314 247
-0.0067415666 0.76899999 -0.0094381925 1.2399244e-38 315 247
-0.0053932532 0.76899999 -0.0094381925 1.2960699e-38 316 247
-0.0040449398 0.76899999 -0.0094381925 1.5357786e-38 317 247
-0.0027036399 0.77100003 -0.0094627403 1.6457993e-38 318 247
-0.00135182 0.77100003 -0.0094627403 1.6642744e-38 319 247
0 0.77100003 -0.0094627403 1.6460867e-38 320 247
0.00135182 0.77100003 -0.0094627403 1.6276836e-38 321 247
0.0026966266 0.76899999 -0.0094381925 1.6184985e-38 322 247
0.0040449398 0.76899999 -0.0094381925 1.5908396e-38 323 247
0.0053932532 0.76899999 -0.0094381925 1.6271065e-38 324 247
0.006724033 0.76700002 -0.0094136465 1.5810447e-38 325 247
0.00806884 0.76700002 -0.0094136465 1.5714671e-38 326 247
0.0094381925 0.76899999 -0.0094381925 1.5622475e-38 327 247
0.010758453 0.76700002 -0.0094136465 1.3510276e-38 328 247
0.01210326 0.76700002 -0.0094136465 1.2311733e-38 329 247
0.013483133 0.76899999 -0.0094381925 1.1945135e-38 330 247
0.01487002 0.77100003 -0.0094627403 1.3605015e-38 331 247
0.016221842 0.77100003 -0.0094627403 1.278641e-38 332 247
0.017619247 0.773 -0.0094872871 1.3800202e-38 333 247
0.018999118 0.77399999 -0.0094995592 1.4438012e-38 334 247
0.020356199 0.77399999 -0.0094995592 1.4806795e-38 335 247
0.021769386 0.77600002 -0.009524107 1.4622408e-38 336 247
0.023129974 0.77600002 -0.009524107 1.5820951e-38 337 247
0.024553679 0.778 -0.0095486529 1.4644732e-38 338 247
-0.03020292 0.78299999 -0.010982879 1.8063151e-38 298 248
-0.028830061 0.78299999 -0.010982879 1.299275e-38 299 248
-0.027457198 0.78299999 -0.010982879 1.4808931e-38 300 248
-0.026084339 0.78299999 -0.010982879 1.3794419e-38 301 248
-0.024648361 0.78100002 -0.010954826 1.2687725e-38 302 248
-0.023279008 0.78100002 -0.010954826 9.5530734e-39 303 248
-0.021881599 0.77999997 -0.010940799 5.240761e-39 304 248
-0.0204088 0.77600002 -0.010884693 5.7939347e-39 305 248
-0.019048214 0.77600002 -0.010884693 1.1124009e-38 306 248
-0.01764204 0.77399999 -0.01085664 1.3797682e-38 307 248
-0.016263919 0.773 -0.010842613 1.6647818e-38 308 248
-0.014908593 0.773 -0.010842613 1.7016599e-38 309 248
-0.013553266 0.773 -0.010842613 1.7562921e-38 310 248
-0.01216638 0.77100003 -0.01081456 1.6824997e-38 311 248
-0.01081456 0.77100003 -0.01081456 1.6730271e-38 312 248
-0.0094627403 0.77100003 -0.01081456 1.6177097e-38 313 248
-0.0080898795 0.76899999 -0.010786506 1.3417339e-38 314 248
-0.0067415666 0.76899999 -0.010786506 1.1296842e-38 315 248
-0.0053932532 0.76899999 -0.010786506 1.2504739e-38 316 248
-0.0040554604 0.77100003 -0.01081456 1.5823782e-38 317 248
-0.0027036399 0.77100003 -0.01081456 1.6371562e-38 318 248
-0.00135182 0.77100003 -0.01081456 1.6371562e-38 319 248
0 0.77100003 -0.01081456 1.6096057e-38 320 248
