# .PCD v.7 - Point Cloud Data file format
FIELDS x y z rgb imX imY
SIZE 4 4 4 4 4 4
TYPE F F F F F F
COUNT 1 1 1 1 1 1
WIDTH 839
HEIGHT 1
VIEWPOINT 0 0 0 1 0 0 0
POINTS 839
DATA ascii
0.022533838 0.71399999 -0.05132708 7.7307408e-39 338 281
0.023852346 0.71600002 -0.051470853 7.8232952e-39 339 281
0.025107734 0.71600002 -0.051470853 7.5495964e-39 340 281
0.026363119 0.71600002 -0.051470853 8.0105731e-39 341 281
0.027657079 0.71700001 -0.051542737 7.8305105e-39 342 281
0.028994869 0.71899998 -0.05168651 8.1996531e-39 343 281
0.030255521 0.71899998 -0.05168651 7.5550236e-39 344 281
0.031516165 0.71899998 -0.05168651 7.5550236e-39 345 281
-0.0063821329 0.72799999 -0.053609919 9.5869204e-39 315 282
-0.0051057064 0.72799999 -0.053609919 8.750306e-39 316 282
-0.0038292799 0.72799999 -0.053609919 6.8141977e-39 317 282
-0.0025493465 0.727 -0.053536277 7.7314597e-39 318 282
-0.0012711667 0.72500002 -0.053388998 7.6392641e-39 319 282
0 0.72299999 -0.053241719 7.7307408e-39 320 282
0.0012624001 0.72000003 -0.053020801 7.7307408e-39 321 282
0.0025212932 0.71899998 -0.05294716 7.8229421e-39 322 282
0.0037714199 0.71700001 -0.052799881 8.0991688e-39 323 282
0.0050215465 0.71600002 -0.052726239 8.0087753e-39 324 282
0.0062769335 0.71600002 -0.052726239 8.2853621e-39 325 282
0.0075112795 0.71399999 -0.052578956 8.4683241e-39 326 282
0.0087631596 0.71399999 -0.052578956 7.4545323e-39 327 282
0.01001504 0.71399999 -0.052578956 6.901727e-39 328 282
0.011266919 0.71399999 -0.052578956 8.6530853e-39 329 282
0.012518799 0.71399999 -0.052578956 1.0872242e-38 330 282
0.013751393 0.713 -0.052505318 1.3822861e-38 331 282
0.015001519 0.713 -0.052505318 1.4650823e-38 332 282
0.016251646 0.713 -0.052505318 1.345228e-38 333 282
0.017501773 0.713 -0.052505318 8.9282176e-39 334 282
0.018778199 0.71399999 -0.052578956 7.6374788e-39 335 282
0.020030079 0.71399999 -0.052578956 7.6378291e-39 336 282
0.021281958 0.71399999 -0.052578956 7.8218603e-39 337 282
0.022533838 0.71399999 -0.052578956 7.3630499e-39 338 282
0.02378572 0.71399999 -0.052578956 7.5477999e-39 339 282
0.025107734 0.71600002 -0.052726239 7.2741011e-39 340 282
0.026363119 0.71600002 -0.052726239 7.7350778e-39 341 282
0.027657079 0.71700001 -0.052799881 7.6468479e-39 342 282
0.028994869 0.71899998 -0.05294716 8.2000217e-39 343 282
0.030255521 0.71899998 -0.05294716 7.8330538e-39 344 282
0.031516165 0.71899998 -0.05294716 7.5564669e-39 345 282
0.032776814 0.71899998 -0.05294716 5.171279e-39 346 282
-0.0063821329 0.72799999 -0.054886345 9.9557015e-39 315 283
-0.0051057064 0.72799999 -0.054886345 9.0276159e-39 316 283
-0.0038240198 0.727 -0.054810952 6.722365e-39 317 283
-0.0025493465 0.727 -0.054810952 7.7314597e-39 318 283
-0.0012711667 0.72500002 -0.054660168 7.6392641e-39 319 283
0 0.72000003 -0.054283202 7.4552301e-39 320 283
0.0012606466 0.71899998 -0.054207806 7.63962e-39 321 283
0.0025142799 0.71700001 -0.054057021 7.9140587e-39 322 283
0.00376616 0.71600002 -0.053981625 8.0062543e-39 323 283
0.0050215465 0.71600002 -0.053981625 7.9155034e-39 324 283
0.0062593995 0.71399999 -0.053830836 8.2842859e-39 325 283
0.0075112795 0.71399999 -0.053830836 8.100252e-39 326 283
0.0087631596 0.71399999 -0.053830836 7.9155006e-39 327 283
0.010001013 0.713 -0.053755447 7.5456293e-39 328 283
0.011251139 0.713 -0.053755447 7.2690424e-39 329 283
0.012501267 0.713 -0.053755447 1.0960825e-38 330 283
0.013751393 0.713 -0.053755447 1.5017791e-38 331 283
0.015001519 0.713 -0.053755447 1.3358643e-38 332 283
0.016251646 0.713 -0.053755447 1.0777165e-38 333 283
0.017501773 0.713 -0.053755447 6.807358e-39 334 283
0.018751899 0.713 -0.053755447 7.1761405e-39 335 283
0.020030079 0.71399999 -0.053830836 7.4538022e-39 336 283
0.021281958 0.71399999 -0.053830836 7.5459992e-39 337 283
0.022533838 0.71399999 -0.053830836 7.3630499e-39 338 283
0.02378572 0.71399999 -0.053830836 7.5477999e-39 339 283
0.025107734 0.71600002 -0.053981625 7.3652177e-39 340 283
0.026363119 0.71600002 -0.053981625 7.734359e-39 341 283
0.027618507 0.71600002 -0.053981625 7.6457731e-39 342 283
0.028914221 0.71700001 -0.054057021 8.2911425e-39 343 283
0.030171359 0.71700001 -0.054057021 8.2014832e-39 344 283
0.031428497 0.71700001 -0.054057021 8.3858745e-39 345 283
0.032776814 0.71899998 -0.054207806 4.9825703e-39 346 283
0.03403746 0.71899998 -0.054207806 6.8261242e-39 347 283
-0.0076585598 0.72799999 -0.056162767 1.5395244e-38 314 284
-0.0063821329 0.72799999 -0.056162767 9.9557015e-39 315 284
-0.0051057064 0.72799999 -0.056162767 9.4878738e-39 316 284
-0.0038240198 0.727 -0.056085624 7.3670156e-39 317 284
-0.0025493465 0.727 -0.056085624 7.3655568e-39 318 284
-0.0012711667 0.72500002 -0.055931333 7.1808068e-39 319 284
0 0.72000003 -0.055545598 7.3634002e-39 320 284
0.0012606466 0.71899998 -0.055468451 7.3634002e-39 321 284
0.0025142799 0.71700001 -0.055314157 7.6381921e-39 322 284
0.00376616 0.71600002 -0.055237014 7.6381921e-39 323 284
0.0050075199 0.71399999 -0.05508272 7.7311094e-39 324 284
0.0062593995 0.71399999 -0.05508272 7.823305e-39 325 284
0.0075112795 0.71399999 -0.05508272 8.0080536e-39 326 284
0.0087508867 0.713 -0.055005573 7.9158566e-39 327 284
0.010001013 0.713 -0.055005573 8.2835489e-39 328 284
0.011251139 0.713 -0.055005573 8.0066018e-39 329 284
0.012501267 0.713 -0.055005573 1.1789145e-38 330 284
0.013751393 0.713 -0.055005573 1.5476972e-38 331 284
0.015001519 0.713 -0.055005573 1.1609091e-38 332 284
0.016251646 0.713 -0.055005573 8.7510248e-39 333 284
0.017501773 0.713 -0.055005573 6.25778e-39 334 284
0.018751899 0.713 -0.055005573 6.810595e-39 335 284
0.020002026 0.713 -0.055005573 7.4537994e-39 336 284
0.021252153 0.713 -0.055005573 7.5459964e-39 337 284
0.022533838 0.71399999 -0.05508272 6.9971443e-39 338 284
0.02378572 0.71399999 -0.05508272 6.9971443e-39 339 284
0.025037598 0.71399999 -0.05508272 6.8138418e-39 340 284
0.026289478 0.71399999 -0.05508272 7.0904287e-39 341 284
0.027618507 0.71600002 -0.055237014 7.2777192e-39 342 284
0.028873893 0.71600002 -0.055237014 7.9230887e-39 343 284
0.030171359 0.71700001 -0.055314157 7.6501115e-39 344 284
0.031428497 0.71700001 -0.055314157 8.1107295e-39 345 284
0.032685637 0.71700001 -0.055314157 6.8221585e-39 346 284
0.033942781 0.71700001 -0.055314157 5.992758e-39 347 284
-0.0076585598 0.72799999 -0.057439197 1.5120099e-38 314 285
-0.0063821329 0.72799999 -0.057439197 9.8649478e-39 315 285
-0.0051057064 0.72799999 -0.057439197 9.5804338e-39 316 285
-0.0038240198 0.727 -0.057360299 7.8290755e-39 317 285
-0.0025493465 0.727 -0.057360299 8.0091228e-39 318 285
-0.0012711667 0.72500002 -0.057202499 7.640699e-39 319 285
0 0.72000003 -0.056808002 7.4563049e-39 320 285
0.00125714 0.71700001 -0.056571297 7.3641093e-39 321 285
0.0025107733 0.71600002 -0.056492399 7.2712074e-39 322 285
0.00376616 0.71600002 -0.056492399 7.2712074e-39 323 285
0.0050075199 0.71399999 -0.0563346 7.0882609e-39 324 285
0.0062593995 0.71399999 -0.0563346 7.1804565e-39 325 285
0.0075007593 0.713 -0.056255698 7.0893399e-39 326 285
0.0087508867 0.713 -0.056255698 7.4581224e-39 327 285
0.0099729598 0.71100003 -0.056097899 8.1016897e-39 328 285
0.01121958 0.71100003 -0.056097899 8.563028e-39 329 285
0.0124662 0.71100003 -0.056097899 1.1516178e-38 330 285
0.01371282 0.71100003 -0.056097899 1.4558275e-38 331 285
0.014959441 0.71100003 -0.056097899 1.0686061e-38 332 285
0.01620606 0.71100003 -0.056097899 7.9201922e-39 333 285
0.01745268 0.71100003 -0.056097899 7.0878952e-39 334 285
0.0186993 0.71100003 -0.056097899 7.0878952e-39 335 285
0.01994592 0.71100003 -0.056097899 7.1793607e-39 336 285
0.021252153 0.713 -0.056255698 7.1793607e-39 337 285
0.022502279 0.713 -0.056255698 6.9971443e-39 338 285
0.023752406 0.713 -0.056255698 6.812753e-39 339 285
0.025037598 0.71399999 -0.0563346 4.7938224e-39 340 285
0.026289478 0.71399999 -0.0563346 4.977855e-39 341 285
0.027618507 0.71600002 -0.056492399 5.1655112e-39 342 285
0.028873893 0.71600002 -0.056492399 5.8108806e-39 343 285
0.03012928 0.71600002 -0.056492399 6.8239578e-39 344 285
0.031384666 0.71600002 -0.056492399 7.5618816e-39 345 285
0.032685637 0.71700001 -0.056571297 6.6391966e-39 346 285
0.033942781 0.71700001 -0.056571297 5.1640665e-39 347 285
-0.0076585598 0.72799999 -0.058715623 1.4751676e-38 314 286
-0.0063821329 0.72799999 -0.058715623 1.004934e-38 315 286
-0.0051057064 0.72799999 -0.058715623 9.3978404e-39 316 286
-0.0038240198 0.727 -0.058634974 8.1071016e-39 317 286
-0.0025493465 0.727 -0.058634974 8.0130884e-39 318 286
-0.0012711667 0.72500002 -0.058473669 7.2755234e-39 319 286
0 0.72000003 -0.058070403 7.3662729e-39 320 286
0.00125714 0.71700001 -0.057828441 6.9052962e-39 321 286
0.0025107733 0.71600002 -0.057747785 7.0878923e-39 322 286
0.0037556398 0.71399999 -0.057586476 6.9956953e-39 323 286
0.0050075199 0.71399999 -0.057586476 6.9034997e-39 324 286
0.0062506334 0.713 -0.057505824 6.9956953e-39 325 286
0.0074797203 0.71100003 -0.057344519 7.0878895e-39 326 286
0.0087140659 0.70999998 -0.057263866 7.4566707e-39 327 286
0.0099589331 0.70999998 -0.057263866 8.1006051e-39 328 286
0.01121958 0.71100003 -0.057344519 8.5612232e-39 329 286
0.012448666 0.70999998 -0.057263866 1.0408748e-38 330 286
0.013693533 0.70999998 -0.057263866 1.14229e-38 331 286
0.014938398 0.70999998 -0.057263866 9.2058919e-39 332 286
0.016183265 0.70999998 -0.057263866 7.3619807e-39 333 286
0.017428132 0.70999998 -0.057263866 7.4527274e-39 334 286
0.018672999 0.70999998 -0.057263866 6.6229667e-39 335 286
0.01994592 0.71100003 -0.057344519 5.5205919e-39 336 286
0.021192541 0.71100003 -0.057344519 6.8113307e-39 337 286
0.022502279 0.713 -0.057505824 6.6399182e-39 338 286
0.023752406 0.713 -0.057505824 8.5760265e-39 339 286
0.025037598 0.71399999 -0.057586476 8.3966771e-39 340 286
0.026289478 0.71399999 -0.057586476 9.0420465e-39 341 286
0.02754136 0.71399999 -0.057586476 9.5051868e-39 342 286
0.028873893 0.71600002 -0.057747785 1.0150556e-38 343 286
0.03012928 0.71600002 -0.057747785 1.0700849e-38 344 286
0.031384666 0.71600002 -0.057747785 9.9629238e-39 345 286
0.032685637 0.71700001 -0.057828441 8.7604051e-39 346 286
0.033942781 0.71700001 -0.057828441 5.2566125e-39 347 286
-0.0076795998 0.73000002 -0.060156867 1.4842787e-38 314 287
-0.0063821329 0.72799999 -0.059992049 1.032556e-38 315 287
-0.0051057064 0.72799999 -0.059992049 9.490036e-39 316 287
-0.0038240198 0.727 -0.059909642 8.2914928e-39 317 287
-0.0025493465 0.727 -0.059909642 8.2893054e-39 318 287
-0.0012711667 0.72500002 -0.059744831 7.7361316e-39 319 287
0 0.72000003 -0.059332799 7.2747807e-39 320 287
0.00125714 0.71700001 -0.059085581 6.9981952e-39 321 287
0.0025107733 0.71600002 -0.059003171 6.8127362e-39 322 287
0.0037556398 0.71399999 -0.058838356 6.7201818e-39 323 287
0.0050005065 0.713 -0.058755953 6.4439677e-39 324 287
0.0062330998 0.71100003 -0.058591139 6.351772e-39 325 287
0.0074691991 0.70999998 -0.058508728 6.261024e-39 326 287
0.0087140659 0.70999998 -0.058508728 6.4450565e-39 327 287
0.0099589331 0.70999998 -0.058508728 6.4461411e-39 328 287
0.011203799 0.70999998 -0.058508728 7.0915105e-39 329 287
0.012448666 0.70999998 -0.058508728 7.6436067e-39 330 287
0.013693533 0.70999998 -0.058508728 7.6436067e-39 331 287
0.014938398 0.70999998 -0.058508728 6.7194784e-39 332 287
0.016183265 0.70999998 -0.058508728 5.4287396e-39 333 287
0.017428132 0.70999998 -0.058508728 5.9815504e-39 334 287
0.018672999 0.70999998 -0.058508728 6.1655815e-39 335 287
0.019917866 0.70999998 -0.058508728 2.9574881e-39 336 287
0.021192541 0.71100003 -0.058591139 5.8155526e-39 337 287
0.022439159 0.71100003 -0.058591139 8.3048738e-39 338 287
0.023752406 0.713 -0.058755953 9.5956126e-39 339 287
0.025002534 0.713 -0.058755953 1.0334603e-38 340 287
0.026289478 0.71399999 -0.058838356 1.0979972e-38 341 287
0.02754136 0.71399999 -0.058838356 1.2085231e-38 342 287
0.028873893 0.71600002 -0.059003171 1.27306e-38 343 287
0.03012928 0.71600002 -0.059003171 1.3097578e-38 344 287
0.031384666 0.71600002 -0.059003171 1.2636601e-38 345 287
0.032685637 0.71700001 -0.059085581 1.1345117e-38 346 287
0.033942781 0.71700001 -0.059085581 7.5650961e-39 347 287
-0.0063996664 0.73000002 -0.061436798 1.032556e-38 315 288
-0.0051197335 0.73000002 -0.061436798 9.3056448e-39 316 288
-0.0038240198 0.727 -0.061184317 8.0149059e-39 317 288
-0.0025493465 0.727 -0.061184317 8.1982042e-39 318 288
-0.0012746733 0.727 -0.061184317 7.6450318e-39 319 288
0 0.72000003 -0.060595199 7.2758765e-39 320 288
0.0012606466 0.71899998 -0.060511041 6.8148984e-39 321 288
0.0025107733 0.71600002 -0.06025856 6.8131005e-39 322 288
0.0037556398 0.71399999 -0.060090236 6.4446767e-39 323 288
0.0050005065 0.713 -0.060006075 6.5354402e-39 324 288
0.0062330998 0.71100003 -0.059837762 6.4432446e-39 325 288
0.0074691991 0.70999998 -0.059753593 6.2595792e-39 326 288
0.0087140659 0.70999998 -0.059753593 6.3517749e-39 327 288
0.0099589331 0.70999998 -0.059753593 6.4450593e-39 328 288
0.011203799 0.70999998 -0.059753593 6.5372549e-39 329 288
0.012448666 0.70999998 -0.059753593 5.7100208e-39 330 288
0.013693533 0.70999998 -0.059753593 5.0646514e-39 331 288
0.014938398 0.70999998 -0.059753593 4.2341845e-39 332 288
0.016183265 0.70999998 -0.059753593 4.6951626e-39 333 288
0.017428132 0.70999998 -0.059753593 5.7168872e-39 334 288
0.018672999 0.70999998 -0.059753593 9.0359298e-39 335 288
0.019917866 0.70999998 -0.059753593 9.5087896e-39 336 288
0.021192541 0.71100003 -0.059837762 1.1075755e-38 337 288
0.022439159 0.71100003 -0.059837762 1.2269989e-38 338 288
0.023685781 0.71100003 -0.059837762 1.1808651e-38 339 288
0.025002534 0.713 -0.060006075 1.0797023e-38 340 288
0.026289478 0.71399999 -0.060090236 1.04286e-38 341 288
0.02754136 0.71399999 -0.060090236 1.1256559e-38 342 288
0.028873893 0.71600002 -0.06025856 1.1901929e-38 343 288
0.03012928 0.71600002 -0.06025856 1.1352348e-38 344 288
0.031384666 0.71600002 -0.06025856 1.1628936e-38 345 288
0.032685637 0.71700001 -0.060342718 1.3281971e-38 346 288
0.033942781 0.71700001 -0.060342718 1.1899035e-38 347 288
0.035199918 0.71700001 -0.060342718 8.3059066e-39 348 288
-0.006408433 0.73100001 -0.062802643 1.0417037e-38 315 289
-0.0051057064 0.72799999 -0.062544905 9.3049217e-39 316 289
-0.0038292799 0.72799999 -0.062544905 8.0141829e-39 317 289
-0.0025493465 0.727 -0.062458992 8.2896781e-39 318 289
-0.0012746733 0.727 -0.062458992 7.9208956e-39 319 289
0 0.72000003 -0.061857603 7.643936e-39 320 289
0.0012606466 0.71899998 -0.061771683 7.1829578e-39 321 289
0.0025107733 0.71600002 -0.061513945 6.9049332e-39 322 289
0.0037556398 0.71399999 -0.061342116 6.6279862e-39 323 289
0.0050005065 0.713 -0.061256204 6.2595736e-39 324 289
0.0062330998 0.71100003 -0.061084379 6.167378e-39 325 289
0.0074691991 0.70999998 -0.060998458 6.2592233e-39 326 289
0.0087140659 0.70999998 -0.060998458 6.2592233e-39 327 289
0.0099589331 0.70999998 -0.060998458 5.710018e-39 328 289
0.011203799 0.70999998 -0.060998458 5.9862461e-39 329 289
0.012448666 0.70999998 -0.060998458 5.3412551e-39 330 289
0.013693533 0.70999998 -0.060998458 5.3412551e-39 331 289
0.014938398 0.70999998 -0.060998458 4.7949337e-39 332 289
0.016183265 0.70999998 -0.060998458 5.9934768e-39 333 289
0.017428132 0.70999998 -0.060998458 9.1320967e-39 334 289
0.018672999 0.70999998 -0.060998458 1.0607227e-38 335 289
0.019917866 0.70999998 -0.060998458 1.1992682e-38 336 289
0.021162732 0.70999998 -0.060998458 1.2268909e-38 337 289
0.022407599 0.70999998 -0.060998458 1.2085241e-38 338 289
0.023685781 0.71100003 -0.061084379 1.190085e-38 339 289
0.025002534 0.713 -0.061256204 1.1164363e-38 340 289
0.026289478 0.71399999 -0.061342116 1.0795581e-38 341 289
0.02754136 0.71399999 -0.061342116 1.0979969e-38 342 289
0.028873893 0.71600002 -0.061513945 1.1440948e-38 343 289
0.03012928 0.71600002 -0.061513945 1.1902649e-38 344 289
0.031384666 0.71600002 -0.061513945 1.2087399e-38 345 289
0.032685637 0.71700001 -0.061599858 1.2914276e-38 346 289
0.033942781 0.71700001 -0.061599858 1.2730244e-38 347 289
0.035199918 0.71700001 -0.061599858 1.1438411e-38 348 289
-0.006408433 0.73100001 -0.064084329 1.0968053e-38 315 290
-0.0051057064 0.72799999 -0.063821331 9.4885927e-39 316 290
-0.0038292799 0.72799999 -0.063821331 8.2900509e-39 317 290
-0.0025493465 0.727 -0.06373366 8.5651902e-39 318 290
-0.0012746733 0.727 -0.06373366 8.1964063e-39 319 290
0 0.72000003 -0.06312 7.7357785e-39 320 290
0.00125714 0.71700001 -0.062856995 7.2748017e-39 321 290
0.0025107733 0.71600002 -0.062769331 7.0886084e-39 322 290
0.00376616 0.71600002 -0.062769331 6.627989e-39 323 290
0.0050075199 0.71399999 -0.062593997 6.5347214e-39 324 290
0.0062330998 0.71100003 -0.062331002 6.4425257e-39 325 290
0.0074797203 0.71100003 -0.062331002 6.1670277e-39 326 290
0.0087263398 0.71100003 -0.062331002 6.2592233e-39 327 290
0.0099589331 0.70999998 -0.062243331 5.8933331e-39 328 290
0.011203799 0.70999998 -0.062243331 5.9855287e-39 329 290
0.012448666 0.70999998 -0.062243331 5.0682835e-39 330 290
0.013693533 0.70999998 -0.062243331 6.3590224e-39 331 290
0.014938398 0.70999998 -0.062243331 7.7509714e-39 332 290
0.016183265 0.70999998 -0.062243331 9.5030471e-39 333 290
0.017428132 0.70999998 -0.062243331 1.1898331e-38 334 290
0.018672999 0.70999998 -0.062243331 1.1990528e-38 335 290
0.019917866 0.70999998 -0.062243331 1.1717537e-38 336 290
0.021162732 0.70999998 -0.062243331 1.1625342e-38 337 290
0.022407599 0.70999998 -0.062243331 1.1442029e-38 338 290
0.023652466 0.70999998 -0.062243331 1.1718256e-38 339 290
0.024932399 0.71100003 -0.062331002 1.1806483e-38 340 290
0.026252659 0.713 -0.062506333 1.1161114e-38 341 290
0.02754136 0.71399999 -0.062593997 1.1251865e-38 342 290
0.028793238 0.71399999 -0.062593997 1.134406e-38 343 290
0.03012928 0.71600002 -0.062769331 1.1346228e-38 344 290
0.031384666 0.71600002 -0.062769331 1.1715369e-38 345 290
0.032640055 0.71600002 -0.062769331 1.1992679e-38 346 290
0.03389544 0.71600002 -0.062769331 1.2453658e-38 347 290
0.035199918 0.71700001 -0.062856995 1.2085947e-38 348 290
0.036457058 0.71700001 -0.062856995 1.227034e-38 349 290
-0.0077111595 0.73299998 -0.065544859 1.5670753e-38 314 291
-0.006408433 0.73100001 -0.065366022 1.1245721e-38 315 291
-0.0051267464 0.73100001 -0.065366022 9.3971215e-39 316 291
-0.00384506 0.73100001 -0.065366022 8.2904138e-39 317 291
-0.0025528532 0.72799999 -0.065097757 8.565556e-39 318 291
-0.0012746733 0.727 -0.065008335 8.0127409e-39 319 291
0 0.72000003 -0.064382397 8.0112892e-39 320 291
0.00125714 0.71700001 -0.064114138 7.4581168e-39 321 291
0.0025107733 0.71600002 -0.064024724 6.905299e-39 322 291
0.00376616 0.71600002 -0.064024724 6.4443208e-39 323 291
0.0050075199 0.71399999 -0.063845873 6.4428887e-39 324 291
0.0062593995 0.71399999 -0.063845873 6.2588576e-39 325 291
0.0075007593 0.713 -0.063756458 6.075911e-39 326 291
0.0087508867 0.713 -0.063756458 6.075911e-39 327 291
0.0099729598 0.71100003 -0.063577622 5.707867e-39 328 291
0.01121958 0.71100003 -0.063577622 5.6156714e-39 329 291
0.0124662 0.71100003 -0.063577622 6.6406455e-39 330 291
0.013693533 0.70999998 -0.063488193 9.2221218e-39 331 291
0.014938398 0.70999998 -0.063488193 9.2289783e-39 332 291
0.016183265 0.70999998 -0.063488193 9.6895963e-39 333 291
0.017428132 0.70999998 -0.063488193 1.0150937e-38 334 291
0.018672999 0.70999998 -0.063488193 1.0796307e-38 335 291
0.019917866 0.70999998 -0.063488193 1.1715019e-38 336 291
0.021162732 0.70999998 -0.063488193 1.1991247e-38 337 291
0.022407599 0.70999998 -0.063488193 1.1439506e-38 338 291
0.023652466 0.70999998 -0.063488193 9.9643755e-39 339 291
0.024932399 0.71100003 -0.063577622 9.4961849e-39 340 291
0.026252659 0.713 -0.063756458 6.1771422e-39 341 291
0.02754136 0.71399999 -0.063845873 6.8160278e-39 342 291
0.028793238 0.71399999 -0.063845873 6.8160278e-39 343 291
0.03012928 0.71600002 -0.064024724 6.728172e-39 344 291
0.031384666 0.71600002 -0.064024724 7.8345182e-39 345 291
0.032640055 0.71600002 -0.064024724 7.9314054e-39 346 291
0.03389544 0.71600002 -0.064024724 1.0051905e-38 347 291
0.035199918 0.71700001 -0.064114138 1.0427514e-38 348 291
0.036457058 0.71700001 -0.064114138 1.1903005e-38 349 291
-0.0077111595 0.73299998 -0.066830046 1.5765471e-38 314 292
-0.0064259665 0.73299998 -0.066830046 1.1247885e-38 315 292
-0.0051267464 0.73100001 -0.066647708 9.7655467e-39 316 292
-0.00384506 0.73100001 -0.066647708 8.2904166e-39 317 292
-0.0025528532 0.72799999 -0.066374183 8.7485025e-39 318 292
-0.0012746733 0.727 -0.06628301 8.3800787e-39 319 292
0 0.72500002 -0.066100664 8.0116395e-39 320 292
0.00125714 0.71700001 -0.065371275 7.5510215e-39 321 292
0.0025107733 0.71600002 -0.06528011 7.2729927e-39 322 292
0.00376616 0.71600002 -0.06528011 6.9960456e-39 323 292
0.0050075199 0.71399999 -0.065097757 6.627989e-39 324 292
0.0062593995 0.71399999 -0.065097757 6.5357934e-39 325 292
0.0075007593 0.713 -0.065006584 6.259945e-39 326 292
0.0087508867 0.713 -0.065006584 5.9837182e-39 327 292
0.0099729598 0.71100003 -0.064824238 5.3408767e-39 328 292
0.01121958 0.71100003 -0.064824238 6.3553874e-39 329 292
0.0124662 0.71100003 -0.064824238 9.1288317e-39 330 292
0.013693533 0.70999998 -0.064733058 1.1986896e-38 331 292
0.014938398 0.70999998 -0.064733058 1.0059092e-38 332 292
0.016183265 0.70999998 -0.064733058 9.5059183e-39 333 292
0.017428132 0.70999998 -0.064733058 9.8736275e-39 334 292
0.018672999 0.70999998 -0.064733058 1.0611194e-38 335 292
0.019917866 0.70999998 -0.064733058 1.2266024e-38 336 292
0.021162732 0.70999998 -0.064733058 1.1989435e-38 337 292
0.022407599 0.70999998 -0.064733058 1.1249331e-38 338 292
0.023652466 0.70999998 -0.064733058 8.6678536e-39 339 292
0.024932399 0.71100003 -0.064824238 6.2667791e-39 340 292
0.026252659 0.713 -0.065006584 2.302367e-39 341 292
0.02754136 0.71399999 -0.065097757 3.1256439e-39 342 292
0.028793238 0.71399999 -0.065097757 3.7710133e-39 343 292
0.03012928 0.71600002 -0.06528011 4.4196505e-39 344 292
0.031384666 0.71600002 -0.06528011 5.5256393e-39 345 292
0.032640055 0.71600002 -0.06528011 3.7811573e-39 346 292
0.03389544 0.71600002 -0.06528011 4.7949491e-39 347 292
0.035199918 0.71700001 -0.065371275 6.4649073e-39 348 292
0.036457058 0.71700001 -0.065371275 1.0244569e-38 349 292
-0.0077111595 0.73299998 -0.068115242 1.5765471e-38 314 293
-0.0064259665 0.73299998 -0.068115242 1.1432278e-38 315 293
-0.0051267464 0.73100001 -0.067929395 9.9502967e-39 316 293
-0.00384506 0.73100001 -0.067929395 8.5670035e-39 317 293
-0.0025633732 0.73100001 -0.067929395 8.476233e-39 318 293
-0.0012746733 0.727 -0.067557678 7.8308636e-39 319 293
0 0.72500002 -0.067371838 7.7375806e-39 320 293
0.0012624001 0.72000003 -0.066907197 7.1844068e-39 321 293
0.0025142799 0.71700001 -0.066628419 7.1826047e-39 322 293
0.00376616 0.71600002 -0.066535495 6.7219867e-39 323 293
0.0050075199 0.71399999 -0.066349633 6.2617274e-39 324 293
0.0062593995 0.71399999 -0.066349633 6.2617274e-39 325 293
0.0075112795 0.71399999 -0.066349633 6.0777019e-39 326 293
0.0087508867 0.713 -0.066256717 5.0635514e-39 327 293
0.010001013 0.713 -0.066256717 5.5270715e-39 328 293
0.01121958 0.71100003 -0.066070862 9.3070923e-39 329 293
0.0124662 0.71100003 -0.066070862 1.0512863e-38 330 293
0.013693533 0.70999998 -0.065977924 1.1895799e-38 331 293
0.014938398 0.70999998 -0.065977924 9.7850191e-39 332 293
0.016183265 0.70999998 -0.065977924 9.5087924e-39 333 293
0.017428132 0.70999998 -0.065977924 8.58216e-39 334 293
0.018672999 0.70999998 -0.065977924 8.0289862e-39 335 293
0.019917866 0.70999998 -0.065977924 8.9404972e-39 336 293
0.021162732 0.70999998 -0.065977924 6.3590196e-39 337 293
0.022407599 0.70999998 -0.065977924 5.9833777e-39 338 293
0.023652466 0.70999998 -0.065977924 5.5227583e-39 339 293
0.024932399 0.71100003 -0.066070862 5.0660737e-39 340 293
0.026252659 0.713 -0.066256717 4.5129013e-39 341 293
0.02754136 0.71399999 -0.066349633 5.8897177e-39 342 293
0.028793238 0.71399999 -0.066349633 6.1666647e-39 343 293
0.03012928 0.71600002 -0.066535495 6.5369046e-39 344 293
0.031384666 0.71600002 -0.066535495 7.182274e-39 345 293
0.032640055 0.71600002 -0.066535495 6.265375e-39 346 293
0.03389544 0.71600002 -0.066535495 5.3437788e-39 347 293
0.035150826 0.71600002 -0.066535495 8.4419544e-40 348 293
0.036406212 0.71600002 -0.066535495 7.0213012e-39 349 293
-0.0077111595 0.73299998 -0.069400437 1.5304847e-38 314 294
-0.0064259665 0.73299998 -0.069400437 1.1524826e-38 315 294
-0.0051267464 0.73100001 -0.069211073 9.8584612e-39 316 294
-0.00384506 0.73100001 -0.069211073 8.6602781e-39 317 294
-0.0025633732 0.73100001 -0.069211073 8.8439267e-39 318 294
-0.0012746733 0.727 -0.06883236 8.2907543e-39 319 294
0 0.72500002 -0.068643004 8.1041897e-39 320 294
0.0012624001 0.72000003 -0.068169601 7.6435702e-39 321 294
0.0025142799 0.71700001 -0.067885563 7.366626e-39 322 294
0.00376616 0.71600002 -0.067790881 6.9978449e-39 323 294
0.0050215465 0.71600002 -0.067790881 6.6297883e-39 324 294
0.0062769335 0.71600002 -0.067790881 6.4453956e-39 325 294
0.0075112795 0.71399999 -0.067601517 6.3524909e-39 326 294
0.0087631596 0.71399999 -0.067601517 5.1539477e-39 327 294
0.01001504 0.71399999 -0.067601517 7.1837187e-39 328 294
0.011251139 0.713 -0.067506835 1.2162283e-38 329 294
0.012501267 0.713 -0.067506835 1.0793413e-38 330 294
0.01371282 0.71100003 -0.067317478 1.107e-38 331 294
0.014959441 0.71100003 -0.067317478 1.061191e-38 332 294
0.016183265 0.70999998 -0.067222796 9.8743449e-39 333 294
0.017428132 0.70999998 -0.067222796 6.0013858e-39 334 294
0.018672999 0.70999998 -0.067222796 5.448212e-39 335 294
0.019917866 0.70999998 -0.067222796 5.9905678e-39 336 294
0.021162732 0.70999998 -0.067222796 4.5154363e-39 337 294
0.022407599 0.70999998 -0.067222796 4.9710026e-39 338 294
0.023652466 0.70999998 -0.067222796 5.616372e-39 339 294
0.024897331 0.70999998 -0.067222796 5.8940337e-39 340 294
0.026179021 0.71100003 -0.067317478 5.6174468e-39 341 294
0.027502786 0.713 -0.067506835 5.6160217e-39 342 294
0.028793238 0.71399999 -0.067601517 5.7082173e-39 343 294
0.030045118 0.71399999 -0.067601517 5.9859014e-39 344 294
0.031384666 0.71600002 -0.067790881 6.3546839e-39 345 294
0.032640055 0.71600002 -0.067790881 6.5408703e-39 346 294
0.03389544 0.71600002 -0.067790881 6.0798921e-39 347 294
0.035150826 0.71600002 -0.067790881 3.1332291e-39 348 294
0.036406212 0.71600002 -0.067790881 8.2961844e-39 349 294
-0.0064259665 0.73299998 -0.070685625 1.1985082e-38 315 295
-0.005140773 0.73299998 -0.070685625 1.0044282e-38 316 295
-0.0038555798 0.73299998 -0.070685625 8.5695118e-39 317 295
-0.0025493465 0.727 -0.070107035 8.9368398e-39 318 295
-0.0012746733 0.727 -0.070107035 8.2914704e-39 319 295
0 0.72500002 -0.069914162 8.197107e-39 320 295
0.0012624001 0.72000003 -0.069432005 7.6439332e-39 321 295
0.0025142799 0.71700001 -0.069142699 7.2751577e-39 322 295
0.0037714199 0.71700001 -0.069142699 6.9982106e-39 323 295
0.0050215465 0.71600002 -0.069046266 6.6301568e-39 324 295
0.0062769335 0.71600002 -0.069046266 6.5379612e-39 325 295
0.0075112795 0.71399999 -0.068853401 6.2610212e-39 326 295
0.0087631596 0.71399999 -0.068853401 5.9844343e-39 327 295
0.01001504 0.71399999 -0.068853401 8.6635348e-39 328 295
0.011251139 0.713 -0.068756968 1.2720501e-38 329 295
0.012501267 0.713 -0.068756968 1.0519347e-38 330 295
0.013751393 0.713 -0.068756968 1.0427152e-38 331 295
0.014959441 0.71100003 -0.068564095 1.0152004e-38 332 295
0.01620606 0.71100003 -0.068564095 8.400647e-39 333 295
0.017428132 0.70999998 -0.068467662 2.6812585e-39 334 295
0.018672999 0.70999998 -0.068467662 2.4043115e-39 335 295
0.019917866 0.70999998 -0.068467662 4.1448587e-39 336 295
0.021162732 0.70999998 -0.068467662 5.0668164e-39 337 295
0.022407599 0.70999998 -0.068467662 5.8940491e-39 338 295
0.023652466 0.70999998 -0.068467662 5.710018e-39 339 295
0.024897331 0.70999998 -0.068467662 5.7085733e-39 340 295
0.026179021 0.71100003 -0.068564095 5.5238219e-39 341 295
0.027502786 0.713 -0.068756968 5.706774e-39 342 295
0.028752912 0.713 -0.068756968 5.9833623e-39 343 295
0.030045118 0.71399999 -0.068853401 6.0770012e-39 344 295
0.031296998 0.71399999 -0.068853401 6.4457852e-39 345 295
0.032640055 0.71600002 -0.069046266 6.6312652e-39 346 295
0.03389544 0.71600002 -0.069046266 6.6312652e-39 347 295
0.035150826 0.71600002 -0.069046266 5.3398089e-39 348 295
0.036406212 0.71600002 -0.069046266 9.6730036e-39 349 295
-0.0051057064 0.72799999 -0.071479887 1.0413422e-38 316 296
-0.0038292799 0.72799999 -0.071479887 8.569509e-39 317 296
-0.0025528532 0.72799999 -0.071479887 8.8457204e-39 318 296
-0.0012746733 0.727 -0.071381703 8.200351e-39 319 296
0 0.727 -0.071381703 8.2885837e-39 320 296
0.0012624001 0.72000003 -0.070694394 7.9197998e-39 321 296
0.0025212932 0.71899998 -0.070596211 7.2751549e-39 322 296
0.0037714199 0.71700001 -0.070399836 7.0907622e-39 323 296
0.0050285598 0.71700001 -0.070399836 6.6301568e-39 324 296
0.0062769335 0.71600002 -0.070301652 6.2613743e-39 325 296
0.0075112795 0.71399999 -0.070105277 6.0762796e-39 326 296
0.0087631596 0.71399999 -0.070105277 8.6577572e-39 327 296
0.01001504 0.71399999 -0.070105277 9.8635255e-39 328 296
0.011266919 0.71399999 -0.070105277 1.2445003e-38 329 296
0.012501267 0.713 -0.070007093 9.8764987e-39 330 296
0.013751393 0.713 -0.070007093 1.006089e-38 331 296
0.014959441 0.71100003 -0.069810718 8.859823e-39 332 296
0.01620606 0.71100003 -0.069810718 6.8315192e-39 333 296
0.01745268 0.71100003 -0.069810718 2.9499266e-39 334 296
0.018672999 0.70999998 -0.069712527 3.5031004e-39 335 296
0.019917866 0.70999998 -0.069712527 5.0653702e-39 336 296
0.021162732 0.70999998 -0.069712527 5.5259897e-39 337 296
0.022407599 0.70999998 -0.069712527 5.3423145e-39 338 296
0.023652466 0.70999998 -0.069712527 5.2497601e-39 339 296
0.024932399 0.71100003 -0.069810718 5.7996899e-39 340 296
0.026179021 0.71100003 -0.069810718 5.5234617e-39 341 296
0.027502786 0.713 -0.070007093 5.5234617e-39 342 296
0.028752912 0.713 -0.070007093 5.7996899e-39 343 296
0.030045118 0.71399999 -0.070105277 5.6178252e-39 344 296
0.031296998 0.71399999 -0.070105277 5.9862489e-39 345 296
0.032640055 0.71600002 -0.070301652 6.2624855e-39 346 296
0.03389544 0.71600002 -0.070301652 6.539071e-39 347 296
0.035150826 0.71600002 -0.070301652 5.6171161e-39 348 296
0.036406212 0.71600002 -0.070301652 9.8581151e-39 349 296
-0.0038292799 0.72799999 -0.072756313 8.7546192e-39 317 297
-0.0025528532 0.72799999 -0.072756313 8.9382747e-39 318 297
-0.0012746733 0.727 -0.072656378 8.4769365e-39 319 297
0 0.72500002 -0.072456501 8.3814982e-39 320 297
0.0012624001 0.72000003 -0.071956798 7.8283244e-39 321 297
0.0025212932 0.71899998 -0.071856856 7.3673505e-39 322 297
0.0037714199 0.71700001 -0.07165698 7.0907622e-39 323 297
0.0050285598 0.71700001 -0.07165698 6.7219867e-39 324 297
0.0062769335 0.71600002 -0.071557038 5.8918659e-39 325 297
0.00753232 0.71600002 -0.071557038 5.708939e-39 326 297
0.0087877065 0.71600002 -0.071557038 1.0871894e-38 327 297
0.01001504 0.71399999 -0.071357153 1.0603624e-38 328 297
0.011266919 0.71399999 -0.071357153 1.1525941e-38 329 297
0.012518799 0.71399999 -0.071357153 1.0150935e-38 330 297
0.013751393 0.713 -0.071257219 1.042752e-38 331 297
0.014959441 0.71100003 -0.071057342 6.555654e-39 332 297
0.01620606 0.71100003 -0.071057342 4.0663734e-39 333 297
0.01745268 0.71100003 -0.071057342 4.2370683e-39 334 297
0.018672999 0.70999998 -0.070957392 5.1593834e-39 335 297
0.019917866 0.70999998 -0.070957392 5.8014905e-39 336 297
0.021162732 0.70999998 -0.070957392 5.8014905e-39 337 297
0.022407599 0.70999998 -0.070957392 5.7085733e-39 338 297
0.023652466 0.70999998 -0.070957392 5.6163776e-39 339 297
0.024932399 0.71100003 -0.071057342 5.8915198e-39 340 297
0.026179021 0.71100003 -0.071057342 5.7067684e-39 341 297
0.027502786 0.713 -0.071257219 5.524175e-39 342 297
0.028752912 0.713 -0.071257219 5.7089264e-39 343 297
0.030045118 0.71399999 -0.071357153 5.5256239e-39 344 297
0.031296998 0.71399999 -0.071357153 5.7103739e-39 345 297
0.032548878 0.71399999 -0.071357153 6.0773754e-39 346 297
0.03389544 0.71600002 -0.071557038 6.5383521e-39 347 297
0.035150826 0.71600002 -0.071557038 6.1710087e-39 348 297
0.036406212 0.71600002 -0.071557038 1.0043225e-38 349 297
-0.0038135003 0.72500002 -0.073727667 9.3077957e-39 317 298
-0.0025423334 0.72500002 -0.073727667 9.2134295e-39 318 298
-0.0012711667 0.72500002 -0.073727667 8.6602557e-39 319 298
0 0.72299999 -0.073524274 8.3829472e-39 320 298
0.0012659066 0.722 -0.073422581 7.7375778e-39 321 298
0.0025248001 0.72000003 -0.073219202 7.368075e-39 322 298
0.0037714199 0.71700001 -0.072914116 6.9070968e-39 323 298
0.0050285598 0.71700001 -0.072914116 6.5390374e-39 324 298
0.0062769335 0.71600002 -0.072812423 5.2482986e-39 325 298
0.00753232 0.71600002 -0.072812423 5.2486825e-39 326 298
0.0087877065 0.71600002 -0.072812423 1.1978965e-38 327 298
0.01001504 0.71399999 -0.072609037 1.1065681e-38 328 298
0.011266919 0.71399999 -0.072609037 1.0973486e-38 329 298
0.012518799 0.71399999 -0.072609037 1.0059092e-38 330 298
0.013751393 0.713 -0.072507344 9.8746994e-39 331 298
0.015001519 0.713 -0.072507344 3.8816094e-39 332 298
0.01620606 0.71100003 -0.072303966 2.4064793e-39 333 298
0.01745268 0.71100003 -0.072303966 5.3416082e-39 334 298
0.0186993 0.71100003 -0.072303966 5.7103893e-39 335 298
0.019917866 0.70999998 -0.072202265 5.6181755e-39 336 298
0.021162732 0.70999998 -0.072202265 5.6181755e-39 337 298
0.022407599 0.70999998 -0.072202265 5.8007661e-39 338 298
0.023652466 0.70999998 -0.072202265 5.7085704e-39 339 298
0.024932399 0.71100003 -0.072303966 5.6160077e-39 340 298
0.026179021 0.71100003 -0.072303966 5.6160077e-39 341 298
0.027502786 0.713 -0.072507344 5.3408627e-39 342 298
0.028752912 0.713 -0.072507344 5.4330598e-39 343 298
0.030045118 0.71399999 -0.072609037 5.4334283e-39 344 298
0.031296998 0.71399999 -0.072609037 5.6178196e-39 345 298
0.032548878 0.71399999 -0.072609037 5.9855287e-39 346 298
0.03389544 0.71600002 -0.072812423 6.6308981e-39 347 298
0.035150826 0.71600002 -0.072812423 6.4497508e-39 348 298
0.036406212 0.71600002 -0.072812423 9.9528246e-39 349 298
-0.0025423334 0.72500002 -0.074998833 9.1230331e-39 318 299
-0.0012711667 0.72500002 -0.074998833 8.7538905e-39 319 299
0 0.72299999 -0.074791931 8.5662454e-39 320 299
0.0012659066 0.722 -0.074688487 8.2896585e-39 321 299
0.0025248001 0.72000003 -0.074481606 7.7354128e-39 322 299
0.0037819401 0.71899998 -0.074378148 7.3662701e-39 323 299
0.0050285598 0.71700001 -0.07417126 6.9056647e-39 324 299
0.0062769335 0.71600002 -0.074067809 5.6149259e-39 325 299
0.00753232 0.71600002 -0.074067809 5.9833777e-39 326 299
0.0087877065 0.71600002 -0.074067809 1.3451582e-38 327 299
0.010043093 0.71600002 -0.074067809 1.1068552e-38 328 299
0.011266919 0.71399999 -0.073860914 1.0423183e-38 329 299
0.012518799 0.71399999 -0.073860914 9.9650916e-39 330 299
0.01377068 0.71399999 -0.073860914 8.9512998e-39 331 299
0.015001519 0.713 -0.07375747 2.8645708e-39 332 299
0.016251646 0.713 -0.07375747 2.311397e-39 333 299
0.01745268 0.71100003 -0.073550582 5.9855259e-39 334 299
0.0186993 0.71100003 -0.073550582 5.9855259e-39 335 299
0.01994592 0.71100003 -0.073550582 5.9862321e-39 336 299
0.021192541 0.71100003 -0.073550582 5.8018409e-39 337 299
0.022439159 0.71100003 -0.073550582 5.9844343e-39 338 299
0.023685781 0.71100003 -0.073550582 5.8922386e-39 339 299
0.024932399 0.71100003 -0.073550582 5.7089236e-39 340 299
0.026252659 0.713 -0.07375747 5.5245309e-39 341 299
0.027502786 0.713 -0.07375747 5.249386e-39 342 299
0.028793238 0.71399999 -0.073860914 5.4337786e-39 343 299
0.030045118 0.71399999 -0.073860914 5.2497601e-39 344 299
0.031296998 0.71399999 -0.073860914 5.3423145e-39 345 299
0.032640055 0.71600002 -0.074067809 6.0780943e-39 346 299
0.03389544 0.71600002 -0.074067809 6.631268e-39 347 299
0.035150826 0.71600002 -0.074067809 6.7249084e-39 348 299
0.036406212 0.71600002 -0.074067809 1.0136507e-38 349 299
-0.0012676599 0.72299999 -0.076059602 8.5705964e-39 319 300
0 0.72299999 -0.076059602 8.5687818e-39 320 300
0.0012659066 0.722 -0.0759544 7.5546312e-39 321 300
0.0025248001 0.72000003 -0.075743996 7.5521131e-39 322 300
0.0037872 0.72000003 -0.075743996 7.0907748e-39 323 300
0.0050425865 0.71899998 -0.075638793 6.99751e-39 324 300
0.0062857 0.71700001 -0.075428396 5.6145756e-39 325 300
0.00753232 0.71600002 -0.075323202 7.0014925e-39 326 300
0.0087877065 0.71600002 -0.075323202 1.3731773e-38 327 300
0.010043093 0.71600002 -0.075323202 1.0794489e-38 328 300
0.01129848 0.71600002 -0.075323202 1.0425348e-38 329 300
0.012518799 0.71399999 -0.075112797 9.3190033e-39 330 300
0.01377068 0.71399999 -0.075112797 7.8438733e-39 331 300
0.015001519 0.713 -0.075007595 3.8754787e-39 332 300
0.016251646 0.713 -0.075007595 3.6910874e-39 333 300
0.017501773 0.713 -0.075007595 5.8032842e-39 334 300
0.018751899 0.713 -0.075007595 5.7110872e-39 335 300
0.020002026 0.713 -0.075007595 5.9862321e-39 336 300
0.021252153 0.713 -0.075007595 5.9862321e-39 337 300
0.022502279 0.713 -0.075007595 5.8940393e-39 338 300
0.023752406 0.713 -0.075007595 5.8014849e-39 339 300
0.025002534 0.713 -0.075007595 5.6163748e-39 340 300
0.026252659 0.713 -0.075007595 5.6163748e-39 341 300
0.027502786 0.713 -0.075007595 5.0657178e-39 342 300
0.028793238 0.71399999 -0.075112797 5.0657178e-39 343 300
0.030045118 0.71399999 -0.075112797 5.3405124e-39 344 300
0.031296998 0.71399999 -0.075112797 5.7089362e-39 345 300
0.032548878 0.71399999 -0.075112797 6.3535923e-39 346 300
0.03389544 0.71600002 -0.075323202 7.0911574e-39 347 300
0.035150826 0.71600002 -0.075323202 6.6337848e-39 348 300
0.036406212 0.71600002 -0.075323202 1.0045024e-38 349 300
0 0.72299999 -0.077327259 8.1964007e-39 320 301
0.0012659066 0.722 -0.077220306 8.2889551e-39 321 301
0.0025248001 0.72000003 -0.0770064 7.552469e-39 322 301
0.0037872 0.72000003 -0.0770064 7.1833278e-39 323 301
0.0050425865 0.71899998 -0.076899439 6.44686e-39 324 301
0.0063032326 0.71899998 -0.076899439 5.7089362e-39 325 301
0.0075428397 0.71700001 -0.076685533 8.018171e-39 326 301
0.0087999795 0.71700001 -0.076685533 1.3273322e-38 327 301
0.01005712 0.71700001 -0.076685533 1.1346231e-38 328 301
0.01129848 0.71600002 -0.076578587 1.0977807e-38 329 301
0.012553867 0.71600002 -0.076578587 9.2271636e-39 330 301
0.013809253 0.71600002 -0.076578587 7.0141084e-39 331 301
0.015022559 0.71399999 -0.076364681 4.6097969e-39 332 301
0.016274439 0.71399999 -0.076364681 4.7019925e-39 333 301
0.017526319 0.71399999 -0.076364681 5.9869524e-39 334 301
0.018751899 0.713 -0.076257721 5.9869524e-39 335 301
0.020002026 0.713 -0.076257721 5.9869482e-39 336 301
0.021252153 0.713 -0.076257721 5.8947526e-39 337 301
0.022502279 0.713 -0.076257721 5.9862321e-39 338 301
0.023752406 0.713 -0.076257721 5.8940365e-39 339 301
0.025002534 0.713 -0.076257721 5.7096452e-39 340 301
0.026289478 0.71399999 -0.076364681 5.4330598e-39 341 301
0.02754136 0.71399999 -0.076364681 5.3415858e-39 342 301
0.028793238 0.71399999 -0.076364681 5.24903e-39 343 301
0.030045118 0.71399999 -0.076364681 5.4327094e-39 344 301
0.031296998 0.71399999 -0.076364681 5.7089362e-39 345 301
0.032548878 0.71399999 -0.076364681 6.1710087e-39 346 301
0.03389544 0.71600002 -0.076578587 6.632347e-39 347 301
0.035150826 0.71600002 -0.076578587 6.8171068e-39 348 301
0.036406212 0.71600002 -0.076578587 1.0597128e-38 349 301
0 0.72299999 -0.078594916 7.6450318e-39 320 302
0.0012659066 0.722 -0.078486212 7.4606391e-39 321 302
0.0025318132 0.722 -0.078486212 7.6443087e-39 322 302
0.0037872 0.72000003 -0.078268804 7.1833306e-39 323 302
0.0050425865 0.71899998 -0.078160092 6.1709961e-39 324 302
0.0063032326 0.71899998 -0.078160092 6.0788005e-39 325 302
0.0075428397 0.71700001 -0.077942684 8.2976417e-39 326 302
0.0087999795 0.71700001 -0.077942684 1.2723032e-38 327 302
0.01005712 0.71700001 -0.077942684 1.0887408e-38 328 302
0.01131426 0.71700001 -0.077942684 1.0887408e-38 329 302
0.012553867 0.71600002 -0.077833973 9.1349624e-39 330 302
0.013809253 0.71600002 -0.077833973 5.8159197e-39 331 302
0.015022559 0.71399999 -0.07761655 4.6087095e-39 332 302
0.016274439 0.71399999 -0.07761655 5.1618833e-39 333 302
0.017526319 0.71399999 -0.07761655 5.9873041e-39 334 302
0.018778199 0.71399999 -0.07761655 5.8951085e-39 335 302
0.020002026 0.713 -0.077507854 5.8947554e-39 336 302
0.021252153 0.713 -0.077507854 5.9869524e-39 337 302
0.022502279 0.713 -0.077507854 5.9869552e-39 338 302
0.023752406 0.713 -0.077507854 5.8943994e-39 339 302
0.025002534 0.713 -0.077507854 5.8933176e-39 340 302
0.026289478 0.71399999 -0.07761655 5.801122e-39 341 302
0.02754136 0.71399999 -0.07761655 5.4330626e-39 342 302
0.028793238 0.71399999 -0.07761655 5.3408655e-39 343 302
0.030045118 0.71399999 -0.07761655 5.5238247e-39 344 302
0.031384666 0.71600002 -0.077833973 5.8929673e-39 345 302
0.032640055 0.71600002 -0.077833973 6.1713591e-39 346 302
0.03389544 0.71600002 -0.077833973 6.6326974e-39 347 302
0.035150826 0.71600002 -0.077833973 7.1858837e-39 348 302
0.0012659066 0.722 -0.079752117 7.8304979e-39 321 303
0.0025318132 0.722 -0.079752117 8.2864341e-39 322 303
0.0037977197 0.722 -0.079752117 7.7332618e-39 323 303
0.0050496003 0.72000003 -0.0795312 6.1699213e-39 324 303
0.0063032326 0.71899998 -0.07942073 6.1699213e-39 325 303
0.0075638802 0.71899998 -0.07942073 8.2994466e-39 326 303
0.0088245263 0.71899998 -0.07942073 1.2356054e-38 327 303
0.010085173 0.71899998 -0.07942073 1.0979606e-38 328 303
0.01131426 0.71700001 -0.079199821 1.1163638e-38 329 303
0.0125714 0.71700001 -0.079199821 9.2264392e-39 330 303
0.013809253 0.71600002 -0.079089358 5.16983e-39 331 303
0.01506464 0.71600002 -0.079089358 5.3426774e-39 332 303
0.016320027 0.71600002 -0.079089358 5.8958512e-39 333 303
0.017575413 0.71600002 -0.079089358 6.1709779e-39 334 303
0.018778199 0.71399999 -0.078868434 6.0787809e-39 335 303
0.020030079 0.71399999 -0.078868434 5.9869524e-39 336 303
0.021281958 0.71399999 -0.078868434 5.9869524e-39 337 303
0.022533838 0.71399999 -0.078868434 6.2617442e-39 338 303
0.02378572 0.71399999 -0.078868434 6.1695472e-39 339 303
0.025037598 0.71399999 -0.078868434 6.2610212e-39 340 303
0.026289478 0.71399999 -0.078868434 6.1688255e-39 341 303
0.02754136 0.71399999 -0.078868434 5.5259743e-39 342 303
0.028793238 0.71399999 -0.078868434 5.4337786e-39 343 303
0.030045118 0.71399999 -0.078868434 5.4334283e-39 344 303
0.031384666 0.71600002 -0.079089358 5.7103739e-39 345 303
0.032640055 0.71600002 -0.079089358 6.170643e-39 346 303
0.03389544 0.71600002 -0.079089358 6.5394241e-39 347 303
0.0025423334 0.72500002 -0.08135467 8.1038393e-39 322 304
0.0038029798 0.72299999 -0.081130236 7.0900461e-39 323 304
0.0050496003 0.72000003 -0.080793604 5.7103739e-39 324 304
0.0063120001 0.72000003 -0.080793604 5.7103739e-39 325 304
0.0075638802 0.71899998 -0.080681384 7.6565939e-39 326 304
0.0088245263 0.71899998 -0.080681384 1.2081984e-38 327 304
0.010085173 0.71899998 -0.080681384 1.1347313e-38 328 304
0.01134582 0.71899998 -0.080681384 1.1347313e-38 329 304
0.012606465 0.71899998 -0.080681384 8.7669043e-39 330 304
0.013828539 0.71700001 -0.080456957 4.7102966e-39 331 304
0.015085679 0.71700001 -0.080456957 5.4348786e-39 332 304
0.016320027 0.71600002 -0.080344744 5.8954981e-39 333 304
0.017575413 0.71600002 -0.080344744 6.0787837e-39 334 304
0.0188308 0.71600002 -0.080344744 5.9862293e-39 335 304
0.020030079 0.71399999 -0.080120318 5.985879e-39 336 304
0.021281958 0.71399999 -0.080120318 6.078076e-39 337 304
0.022533838 0.71399999 -0.080120318 5.9858818e-39 338 304
0.02378572 0.71399999 -0.080120318 6.0780788e-39 339 304
0.025037598 0.71399999 -0.080120318 6.078432e-39 340 304
0.026289478 0.71399999 -0.080120318 5.9862349e-39 341 304
0.027618507 0.71600002 -0.080344744 5.7107214e-39 342 304
0.028873893 0.71600002 -0.080344744 5.6185258e-39 343 304
0.03012928 0.71600002 -0.080344744 5.6181727e-39 344 304
0.031384666 0.71600002 -0.080344744 5.8943994e-39 345 304
0.032640055 0.71600002 -0.080344744 5.7107369e-39 346 304
0.033942781 0.71700001 -0.080456957 6.3561063e-39 347 304
0.0038135003 0.72500002 -0.082625829 7.9223376e-39 323 305
0.0050636264 0.722 -0.082283929 7.1840537e-39 324 305
0.0063120001 0.72000003 -0.082056001 6.4464886e-39 325 305
0.0075743999 0.72000003 -0.082056001 6.5516729e-39 326 305
0.0088367993 0.72000003 -0.082056001 1.1806824e-38 327 305
0.010099201 0.72000003 -0.082056001 1.1529906e-38 328 305
0.01134582 0.71899998 -0.081942029 1.1437711e-38 329 305
0.012606465 0.71899998 -0.081942029 8.1218881e-39 330 305
0.013867113 0.71899998 -0.081942029 4.2496716e-39 331 305
0.015085679 0.71700001 -0.081714094 5.3405264e-39 332 305
0.016342819 0.71700001 -0.081714094 5.9858958e-39 333 305
0.017599959 0.71700001 -0.081714094 6.1695472e-39 334 305
0.0188308 0.71600002 -0.08160013 6.0773516e-39 335 305
0.020086186 0.71600002 -0.08160013 6.1691941e-39 336 305
0.021341572 0.71600002 -0.08160013 6.0769984e-39 337 305
0.022596961 0.71600002 -0.08160013 5.9855259e-39 338 305
0.02378572 0.71399999 -0.081372194 6.0780816e-39 339 305
0.025037598 0.71399999 -0.081372194 5.9865993e-39 340 305
0.026289478 0.71399999 -0.081372194 5.9865993e-39 341 305
0.027618507 0.71600002 -0.08160013 5.9862349e-39 342 305
0.028873893 0.71600002 -0.08160013 5.9862349e-39 343 305
0.03012928 0.71600002 -0.08160013 5.7110928e-39 344 305
0.031384666 0.71600002 -0.08160013 5.6185384e-39 345 305
0.032640055 0.71600002 -0.08160013 5.3408823e-39 346 305
0.0050636264 0.722 -0.083549835 7.556799e-39 324 306
0.0063295332 0.722 -0.083549835 5.7128864e-39 325 306
0.0075954394 0.722 -0.083549835 6.3618866e-39 326 306
0.0088613462 0.722 -0.083549835 1.115642e-38 327 306
0.010127253 0.722 -0.083549835 1.1435558e-38 328 306
0.011361601 0.72000003 -0.083318397 1.1066777e-38 329 306
0.012624 0.72000003 -0.083318397 7.7538132e-39 330 306
0.0138864 0.72000003 -0.083318397 4.2500191e-39 331 306
0.01512776 0.71899998 -0.083202675 5.3444557e-39 332 306
0.016388407 0.71899998 -0.083202675 5.7132396e-39 333 306
0.017599959 0.71700001 -0.082971238 6.079134e-39 334 306
0.018857099 0.71700001 -0.082971238 6.079134e-39 335 306
0.020086186 0.71600002 -0.082855515 5.9869524e-39 336 306
0.021341572 0.71600002 -0.082855515 5.9869524e-39 337 306
0.022596961 0.71600002 -0.082855515 5.8958386e-39 338 306
0.02378572 0.71399999 -0.082624078 5.8958386e-39 339 306
0.025037598 0.71399999 -0.082624078 5.8958358e-39 340 306
0.026289478 0.71399999 -0.082624078 5.8036401e-39 341 306
0.027618507 0.71600002 -0.082855515 5.8951057e-39 342 306
0.028873893 0.71600002 -0.082855515 5.9873013e-39 343 306
0.03012928 0.71600002 -0.082855515 5.8039919e-39 344 306
0.031384666 0.71600002 -0.082855515 5.7114375e-39 345 306
0.0076585598 0.72799999 -0.08552058 5.9016315e-39 326 307
0.0088736191 0.72299999 -0.084933214 7.8377398e-39 327 307
0.01014128 0.72299999 -0.084933214 7.2885527e-39 328 307
0.0114405 0.72500002 -0.085168168 7.4729453e-39 329 307
0.012676599 0.72299999 -0.084933214 7.9303039e-39 330 307
0.01394426 0.72299999 -0.084933214 6.9165121e-39 331 307
0.015190879 0.722 -0.084815748 6.2696756e-39 332 307
0.016456785 0.722 -0.084815748 5.5321105e-39 333 307
0.017673599 0.72000003 -0.084580801 5.8072499e-39 334 307
0.018909698 0.71899998 -0.084463328 5.6228572e-39 335 307
0.020114239 0.71700001 -0.084228382 5.8976519e-39 336 307
0.021371379 0.71700001 -0.084228382 5.9898489e-39 337 307
0.022596961 0.71600002 -0.084110901 5.7150697e-39 338 307
0.02378572 0.71399999 -0.083875954 5.7150697e-39 339 307
0.025037598 0.71399999 -0.083875954 5.4410065e-39 340 307
0.026289478 0.71399999 -0.083875954 5.4410065e-39 341 307
0.027618507 0.71600002 -0.084110901 5.2587803e-39 342 307
0.028873893 0.71600002 -0.084110901 5.4435303e-39 343 307
0.03012928 0.71600002 -0.084110901 5.4449778e-39 344 307
0.012764266 0.72799999 -0.086797006 6.18291e-39 330 308
0.014040692 0.72799999 -0.086797006 6.18291e-39 331 308
0.015296079 0.727 -0.086677782 5.9963313e-39 332 308
0.016525166 0.72500002 -0.086439334 5.62719e-39 333 308
0.017796334 0.72500002 -0.086439334 5.9945152e-39 334 308
0.0189886 0.722 -0.086081654 6.1785463e-39 335 308
0.020198401 0.72000003 -0.085843205 5.9955998e-39 336 308
0.021460801 0.72000003 -0.085843205 6.1803498e-39 337 308
