# .PCD v.7 - Point Cloud Data file format
FIELDS x y z rgb imX imY
SIZE 4 4 4 4 4 4
TYPE F F F F F F
COUNT 1 1 1 1 1 1
WIDTH 842
HEIGHT 1
VIEWPOINT 0 0 0 1 0 0 0
POINTS 842
DATA ascii
-0.01014128 0.72299999 -0.020282559 1.0777148e-38 312 256
-0.0088736191 0.72299999 -0.020282559 1.0777148e-38 313 256
-0.0076059597 0.72299999 -0.020282559 1.1601145e-38 314 256
-0.0063382997 0.72299999 -0.020282559 1.2891884e-38 315 256
-0.0050706398 0.72299999 -0.020282559 1.2805819e-38 316 256
-0.0038029798 0.72299999 -0.020282559 1.3819611e-38 317 256
-0.0025353199 0.72299999 -0.020282559 1.3178195e-38 318 256
-0.0012676599 0.72299999 -0.020282559 1.1887456e-38 319 256
0 0.72299999 -0.020282559 9.6549534e-39 320 256
0.0012676599 0.72299999 -0.020282559 8.7329985e-39 321 256
0.0025353199 0.72299999 -0.020282559 8.1902518e-39 322 256
0.0038029798 0.72299999 -0.020282559 8.0058592e-39 323 256
0.0050846669 0.72500002 -0.020338668 8.0969898e-39 324 256
0.0063558333 0.72500002 -0.020338668 8.0047928e-39 325 256
0.0076270006 0.72500002 -0.020338668 7.9129629e-39 326 256
0.0088981669 0.72500002 -0.020338668 7.728573e-39 327 256
0.010197386 0.727 -0.020394772 7.8189708e-39 328 256
0.01147206 0.727 -0.020394772 7.5423825e-39 329 256
0.012764266 0.72799999 -0.020422826 7.1739573e-39 330 256
0.014040692 0.72799999 -0.020422826 7.4501841e-39 331 256
0.0153592 0.73000002 -0.020478934 6.7162372e-39 332 256
0.016639132 0.73000002 -0.020478934 6.5318473e-39 333 256
0.017943613 0.73100001 -0.020506985 4.2370683e-39 334 256
0.019277899 0.73299998 -0.020563092 3.5916989e-39 335 256
0.020591147 0.73400003 -0.020591147 2.1374678e-39 336 256
0.021878093 0.73400003 -0.020591147 7.1163906e-39 337 256
-0.033415023 0.73299998 -0.021848286 1.8623887e-38 294 257
-0.032129832 0.73299998 -0.021848286 1.7517898e-38 295 257
-0.030718399 0.73000002 -0.021758866 1.3369087e-38 296 257
-0.029438468 0.73000002 -0.021758866 4.6105004e-39 297 257
-0.028158534 0.73000002 -0.021758866 2.6660992e-39 298 257
-0.026878599 0.73000002 -0.021758866 6.0773151e-39 299 257
-0.025598666 0.73000002 -0.021758866 9.7640851e-39 300 257
-0.024318734 0.73000002 -0.021758866 1.6125584e-38 301 257
-0.023038799 0.73000002 -0.021758866 1.6041712e-38 302 257
-0.021699252 0.72799999 -0.021699252 1.6502331e-38 303 257
-0.020394772 0.727 -0.021669446 1.5216261e-38 304 257
-0.019120099 0.727 -0.021669446 1.3833327e-38 305 257
-0.017845426 0.727 -0.021669446 9.3117586e-39 306 257
-0.016570752 0.727 -0.021669446 8.4819979e-39 307 257
-0.015296079 0.727 -0.021669446 8.651974e-39 308 257
-0.013982833 0.72500002 -0.021609833 8.4675828e-39 309 257
-0.012676599 0.72299999 -0.021550218 7.367003e-39 310 257
-0.01140894 0.72299999 -0.021550218 9.2109156e-39 311 257
-0.01014128 0.72299999 -0.021550218 1.142255e-38 312 257
-0.0088736191 0.72299999 -0.021550218 1.1606941e-38 313 257
-0.0075954394 0.722 -0.021520413 1.1514743e-38 314 257
-0.0063295332 0.722 -0.021520413 1.3819994e-38 315 257
-0.0050706398 0.72299999 -0.021550218 1.5023221e-38 316 257
-0.0038029798 0.72299999 -0.021550218 1.5392005e-38 317 257
-0.0025318132 0.722 -0.021520413 1.5485273e-38 318 257
-0.0012659066 0.722 -0.021520413 1.4655512e-38 319 257
0 0.722 -0.021520413 1.1592861e-38 320 257
0.0012659066 0.722 -0.021520413 8.9191877e-39 321 257
0.0025353199 0.72299999 -0.021550218 8.0980422e-39 322 257
0.0038029798 0.72299999 -0.021550218 8.0980422e-39 323 257
0.0050706398 0.72299999 -0.021550218 8.0959038e-39 324 257
0.0063382997 0.72299999 -0.021550218 7.9118727e-39 325 257
0.0076059597 0.72299999 -0.021550218 7.7278443e-39 326 257
0.0088981669 0.72500002 -0.021609833 7.7278443e-39 327 257
0.010169334 0.72500002 -0.021609833 7.8189708e-39 328 257
0.0114405 0.72500002 -0.021609833 7.8189708e-39 329 257
0.012746733 0.727 -0.021669446 7.6360243e-39 330 257
0.014040692 0.72799999 -0.021699252 7.6360243e-39 331 257
0.01531712 0.72799999 -0.021699252 7.4530805e-39 332 257
0.016593546 0.72799999 -0.021699252 7.5452762e-39 333 257
0.017919067 0.73000002 -0.021758866 7.2715858e-39 334 257
0.019225299 0.73100001 -0.021788673 6.1648781e-39 335 257
0.020563092 0.73299998 -0.021848286 1.668194e-39 336 257
0.021848286 0.73299998 -0.021848286 4.2496716e-39 337 257
0.023133477 0.73299998 -0.021848286 7.9418338e-39 338 257
-0.033415023 0.73299998 -0.023133477 1.8716439e-38 294 258
-0.032129832 0.73299998 -0.023133477 1.7241309e-38 295 258
-0.03076048 0.73100001 -0.02307036 1.171136e-38 296 258
-0.029478792 0.73100001 -0.02307036 4.0594818e-39 297 258
-0.028197108 0.73100001 -0.02307036 3.4955026e-39 298 258
-0.026804959 0.72799999 -0.022975679 8.0130884e-39 299 258
-0.025528532 0.72799999 -0.022975679 1.0507433e-38 300 258
-0.024252106 0.72799999 -0.022975679 1.41949e-38 301 258
-0.022975679 0.72799999 -0.022975679 1.3003939e-38 302 258
-0.021669446 0.727 -0.022944121 1.2911743e-38 303 258
-0.020338668 0.72500002 -0.022880999 1.2994937e-38 304 258
-0.0190675 0.72500002 -0.022880999 1.1335416e-38 305 258
-0.017796334 0.72500002 -0.022880999 1.0321592e-38 306 258
-0.016525166 0.72500002 -0.022880999 9.768418e-39 307 258
-0.015211919 0.72299999 -0.02281788 8.8356422e-39 308 258
-0.01394426 0.72299999 -0.02281788 8.1902728e-39 309 258
-0.012659066 0.722 -0.022786319 7.4548798e-39 310 258
-0.01139316 0.722 -0.022786319 8.653423e-39 311 258
-0.010127253 0.722 -0.022786319 1.031297e-38 312 258
-0.0088613462 0.722 -0.022786319 1.0865783e-38 313 258
-0.0075954394 0.722 -0.022786319 9.5736024e-39 314 258
-0.0063295332 0.722 -0.022786319 8.8356787e-39 315 258
-0.0050636264 0.722 -0.022786319 9.7720305e-39 316 258
-0.0037977197 0.722 -0.022786319 1.2169117e-38 317 258
-0.0025318132 0.722 -0.022786319 1.4837032e-38 318 258
-0.0012659066 0.722 -0.022786319 1.5205815e-38 319 258
0 0.722 -0.022786319 1.3446503e-38 320 258
0.0012659066 0.722 -0.022786319 1.012746e-38 321 258
0.0025318132 0.722 -0.022786319 8.7412732e-39 322 258
0.0037977197 0.722 -0.022786319 8.4650464e-39 323 258
0.0050636264 0.722 -0.022786319 7.9129573e-39 324 258
0.0063295332 0.722 -0.022786319 7.6367305e-39 325 258
0.0076059597 0.72299999 -0.02281788 7.7271255e-39 326 258
0.0088736191 0.72299999 -0.02281788 7.7271255e-39 327 258
0.010169334 0.72500002 -0.022880999 7.4523393e-39 328 258
0.0114405 0.72500002 -0.022880999 7.5445349e-39 329 258
0.012711667 0.72500002 -0.022880999 7.544179e-39 330 258
0.014021406 0.727 -0.022944121 7.544179e-39 331 258
0.015296079 0.727 -0.022944121 7.3615912e-39 332 258
0.016593546 0.72799999 -0.022975679 7.3615912e-39 333 258
0.017869972 0.72799999 -0.022975679 7.3616038e-39 334 258
0.019199001 0.73000002 -0.023038799 7.4537994e-39 335 258
0.020478934 0.73000002 -0.023038799 5.9855315e-39 336 258
0.021758866 0.73000002 -0.023038799 5.3401621e-39 337 258
0.023038799 0.73000002 -0.023038799 1.681865e-39 338 258
0.024318734 0.73000002 -0.023038799 8.8731242e-39 339 258
-0.033415023 0.73299998 -0.024418673 1.862424e-38 294 259
-0.032129832 0.73299998 -0.024418673 1.7149109e-38 295 259
-0.030844638 0.73299998 -0.024418673 1.1708479e-38 296 259
-0.029438468 0.73000002 -0.024318734 4.5172201e-39 297 259
-0.028158534 0.73000002 -0.024318734 4.140893e-39 298 259
-0.026804959 0.72799999 -0.024252106 1.0410197e-38 299 259
-0.025528532 0.72799999 -0.024252106 1.1617758e-38 300 259
-0.024252106 0.72799999 -0.024252106 1.2724464e-38 301 259
-0.022944121 0.727 -0.024218792 1.1897938e-38 302 259
-0.021609833 0.72500002 -0.024152167 1.1437318e-38 303 259
-0.020282559 0.72299999 -0.024085538 9.404327e-39 304 259
-0.019014901 0.72299999 -0.024085538 6.1774799e-39 305 259
-0.017722692 0.722 -0.024052227 8.7521024e-39 306 259
-0.016456785 0.722 -0.024052227 9.2130792e-39 307 259
-0.015190879 0.722 -0.024052227 7.8232924e-39 308 259
-0.013924973 0.722 -0.024052227 7.4541497e-39 309 259
-0.012624 0.72000003 -0.0239856 6.7183868e-39 310 259
-0.011361601 0.72000003 -0.0239856 6.9949736e-39 311 259
-0.010099201 0.72000003 -0.0239856 8.2828426e-39 312 259
-0.0088613462 0.722 -0.024052227 8.7438194e-39 313 259
-0.0075954394 0.722 -0.024052227 7.4541497e-39 314 259
-0.0063120001 0.72000003 -0.0239856 4.8726721e-39 315 259
-0.0050496003 0.72000003 -0.0239856 4.8809608e-39 316 259
-0.0037872 0.72000003 -0.0239856 8.7531772e-39 317 259
-0.0025248001 0.72000003 -0.0239856 1.1793838e-38 318 259
-0.0012624001 0.72000003 -0.0239856 1.3729946e-38 319 259
0 0.72000003 -0.0239856 1.400436e-38 320 259
0.0012624001 0.72000003 -0.0239856 1.2068251e-38 321 259
0.0025248001 0.72000003 -0.0239856 9.0189643e-39 322 259
0.0037977197 0.722 -0.024052227 8.3735949e-39 323 259
0.0050636264 0.722 -0.024052227 8.0966339e-39 324 259
0.0063295332 0.722 -0.024052227 7.7278499e-39 325 259
0.0075954394 0.722 -0.024052227 7.4526896e-39 326 259
0.0088736191 0.72299999 -0.024085538 7.4526896e-39 327 259
0.01014128 0.72299999 -0.024085538 7.361217e-39 328 259
0.01140894 0.72299999 -0.024085538 7.2690214e-39 329 259
0.012676599 0.72299999 -0.024085538 7.1771943e-39 330 259
0.013982833 0.72500002 -0.024152167 7.1771943e-39 331 259
0.015254001 0.72500002 -0.024152167 6.9935317e-39 332 259
0.016593546 0.72799999 -0.024252106 7.0857273e-39 333 259
0.017869972 0.72799999 -0.024252106 6.9935443e-39 334 259
0.0191464 0.72799999 -0.024252106 7.1779356e-39 335 259
0.020478934 0.73000002 -0.024318734 7.0875448e-39 336 259
0.021758866 0.73000002 -0.024318734 6.1652284e-39 337 259
0.022975679 0.72799999 -0.024252106 4.7394436e-40 338 259
0.024252106 0.72799999 -0.024252106 5.7290953e-39 339 259
0.025528532 0.72799999 -0.024252106 1.263732e-38 340 259
-0.032129832 0.73299998 -0.025703866 1.6965794e-38 295 260
-0.030844638 0.73299998 -0.025703866 1.2170172e-38 296 260
-0.029438468 0.73000002 -0.025598666 4.056958e-39 297 260
-0.028158534 0.73000002 -0.025598666 3.682433e-39 298 260
-0.026804959 0.72799999 -0.025528532 1.2348824e-38 299 260
-0.025528532 0.72799999 -0.025528532 1.2357845e-38 300 260
-0.024252106 0.72799999 -0.025528532 1.2634433e-38 301 260
-0.022944121 0.727 -0.025493465 1.0330987e-38 302 260
-0.021609833 0.72500002 -0.025423333 6.0903472e-39 303 260
-0.020282559 0.72299999 -0.025353199 4.6065599e-39 304 260
-0.0189886 0.722 -0.025318133 3.9611905e-39 305 260
-0.017722692 0.722 -0.025318133 5.7067586e-39 306 260
-0.016456785 0.722 -0.025318133 5.7989542e-39 307 260
-0.015190879 0.722 -0.025318133 6.2581275e-39 308 260
-0.0138864 0.72000003 -0.025248 6.5350745e-39 309 260
-0.012624 0.72000003 -0.025248 6.900983e-39 310 260
-0.011361601 0.72000003 -0.025248 6.8084272e-39 311 260
-0.010099201 0.72000003 -0.025248 6.5325662e-39 312 260
-0.0088367993 0.72000003 -0.025248 6.4403705e-39 313 260
-0.0075743999 0.72000003 -0.025248 7.6335229e-39 314 260
-0.0063032326 0.71899998 -0.025212931 7.2650992e-39 315 260
-0.0050425865 0.71899998 -0.025212931 5.9801155e-39 316 260
-0.0037819401 0.71899998 -0.025212931 5.7038873e-39 317 260
-0.0025248001 0.72000003 -0.025248 5.6095379e-39 318 260
-0.0012624001 0.72000003 -0.025248 6.4392986e-39 319 260
0 0.72000003 -0.025248 8.3789969e-39 320 260
0.0012624001 0.72000003 -0.025248 8.7481382e-39 321 260
0.0025248001 0.72000003 -0.025248 9.2955428e-39 322 260
0.0037872 0.72000003 -0.025248 8.4661409e-39 323 260
0.0050496003 0.72000003 -0.025248 7.9129601e-39 324 260
0.0063120001 0.72000003 -0.025248 7.4519833e-39 325 260
0.0075743999 0.72000003 -0.025248 7.269027e-39 326 260
0.0088613462 0.722 -0.025318133 7.269027e-39 327 260
0.010127253 0.722 -0.025318133 7.2690214e-39 328 260
0.01139316 0.722 -0.025318133 7.2690214e-39 329 260
0.012659066 0.722 -0.025318133 7.1768244e-39 330 260
0.01394426 0.72299999 -0.025353199 7.1768244e-39 331 260
0.015211919 0.72299999 -0.025353199 7.1764754e-39 332 260
0.016525166 0.72500002 -0.025423333 7.0842784e-39 333 260
0.017845426 0.727 -0.025493465 7.1761223e-39 334 260
0.019120099 0.727 -0.025493465 7.3608723e-39 335 260
0.020422826 0.72799999 -0.025528532 7.4545057e-39 336 260
0.021699252 0.72799999 -0.025528532 7.5467027e-39 337 260
0.022975679 0.72799999 -0.025528532 6.0755607e-39 338 260
0.024252106 0.72799999 -0.025528532 3.6781142e-39 339 260
0.025528532 0.72799999 -0.025528532 3.4332121e-39 340 260
0.026878599 0.73000002 -0.025598666 1.1269841e-38 341 260
-0.032129832 0.73299998 -0.026989058 1.7149106e-38 295 261
-0.03076048 0.73100001 -0.026915418 1.3181807e-38 296 261
-0.029478792 0.73100001 -0.026915418 5.8061569e-39 297 261
-0.028158534 0.73000002 -0.026878599 4.9702992e-39 298 261
-0.026804959 0.72799999 -0.026804959 1.2899482e-38 299 261
-0.025528532 0.72799999 -0.026804959 1.2174533e-38 300 261
-0.024252106 0.72799999 -0.026804959 1.2174533e-38 301 261
-0.022944121 0.727 -0.026768139 8.5821445e-39 302 261
-0.021609833 0.72500002 -0.026694499 2.6816242e-39 303 261
-0.020282559 0.72299999 -0.026620859 4.1430552e-39 304 261
-0.0189886 0.722 -0.026584039 4.9731746e-39 305 261
-0.017722692 0.722 -0.026584039 5.7996703e-39 306 261
-0.016456785 0.722 -0.026584039 5.7996703e-39 307 261
-0.015190879 0.722 -0.026584039 6.167378e-39 308 261
-0.0138864 0.72000003 -0.026510401 6.167378e-39 309 261
-0.012624 0.72000003 -0.026510401 6.1666605e-39 310 261
-0.01134582 0.71899998 -0.02647358 6.1666605e-39 311 261
-0.010085173 0.71899998 -0.02647358 6.2588576e-39 312 261
-0.0088245263 0.71899998 -0.02647358 6.2588576e-39 313 261
-0.0075638802 0.71899998 -0.02647358 6.6254821e-39 314 261
-0.0063032326 0.71899998 -0.02647358 6.533285e-39 315 261
-0.0050285598 0.71700001 -0.02639994 6.3499602e-39 316 261
-0.0037714199 0.71700001 -0.02639994 6.0730145e-39 317 261
-0.0025212932 0.71899998 -0.02647358 5.7949857e-39 318 261
-0.0012606466 0.71899998 -0.02647358 5.4262018e-39 319 261
0 0.71899998 -0.02647358 6.7165819e-39 320 261
0.0012624001 0.72000003 -0.026510401 7.7310939e-39 321 261
0.0025248001 0.72000003 -0.026510401 8.006955e-39 322 261
0.0037872 0.72000003 -0.026510401 7.8225637e-39 323 261
0.0050496003 0.72000003 -0.026510401 7.3619415e-39 324 261
0.0063120001 0.72000003 -0.026510401 7.2697459e-39 325 261
0.0075743999 0.72000003 -0.026510401 7.1786264e-39 326 261
0.0088367993 0.72000003 -0.026510401 7.1786264e-39 327 261
0.010099201 0.72000003 -0.026510401 7.5441691e-39 328 261
0.011361601 0.72000003 -0.026510401 7.4519721e-39 329 261
0.012659066 0.722 -0.026584039 7.1768286e-39 330 261
0.013924973 0.722 -0.026584039 7.1768286e-39 331 261
0.015211919 0.72299999 -0.026620859 6.9920828e-39 332 261
0.01647958 0.72299999 -0.026620859 7.0842784e-39 333 261
0.017747238 0.72299999 -0.026620859 6.9009773e-39 334 261
0.0190675 0.72500002 -0.026694499 7.0857273e-39 335 261
0.020338668 0.72500002 -0.026694499 6.9956953e-39 336 261
0.021669446 0.727 -0.026768139 7.0878923e-39 337 261
0.022944121 0.727 -0.026768139 6.6265639e-39 338 261
0.024252106 0.72799999 -0.026804959 4.59826e-39 339 261
0.025528532 0.72799999 -0.026804959 6.0690895e-39 340 261
0.026768139 0.727 -0.026768139 1.5657435e-38 341 261
0.028042812 0.727 -0.026768139 1.4849627e-38 342 261
-0.032129832 0.73299998 -0.028274251 1.7516814e-38 295 262
-0.030718399 0.73000002 -0.028158534 1.4103758e-38 296 262
-0.029438468 0.73000002 -0.028158534 6.9124988e-39 297 262
-0.028158534 0.73000002 -0.028158534 5.7064181e-39 298 262
-0.026804959 0.72799999 -0.028081384 1.3082429e-38 299 262
-0.025493465 0.727 -0.028042812 1.1346569e-38 300 262
-0.024218792 0.727 -0.028042812 1.1623156e-38 301 262
-0.022944121 0.727 -0.028042812 7.6619833e-39 302 262
-0.021609833 0.72500002 -0.027965667 2.0380499e-39 303 262
-0.020282559 0.72299999 -0.02788852 5.155768e-39 304 262
-0.0189886 0.722 -0.027849946 5.7089418e-39 305 262
-0.017722692 0.722 -0.027849946 6.167378e-39 306 262
-0.016456785 0.722 -0.027849946 6.075181e-39 307 262
-0.015190879 0.722 -0.027849946 6.1666577e-39 308 262
-0.0138864 0.72000003 -0.027772799 6.0744621e-39 309 262
-0.012624 0.72000003 -0.027772799 6.5336382e-39 310 262
-0.01134582 0.71899998 -0.027734226 6.5336382e-39 311 262
-0.010085173 0.71899998 -0.027734226 6.350679e-39 312 262
-0.0088245263 0.71899998 -0.027734226 6.350679e-39 313 262
-0.0075638802 0.71899998 -0.027734226 6.4428761e-39 314 262
-0.0063032326 0.71899998 -0.027734226 6.4428761e-39 315 262
-0.0050285598 0.71700001 -0.027657079 6.3506762e-39 316 262
-0.0037714199 0.71700001 -0.027657079 6.3506762e-39 317 262
-0.0025212932 0.71899998 -0.027734226 6.6254653e-39 318 262
-0.0012606466 0.71899998 -0.027734226 6.718021e-39 319 262
0 0.71899998 -0.027734226 6.7176679e-39 320 262
0.0012606466 0.71899998 -0.027734226 6.7176679e-39 321 262
0.0025212932 0.71899998 -0.027734226 6.900983e-39 322 262
0.0037819401 0.71899998 -0.027734226 7.0853742e-39 323 262
0.0050425865 0.71899998 -0.027734226 6.9942478e-39 324 262
0.0063032326 0.71899998 -0.027734226 7.0864434e-39 325 262
0.0075638802 0.71899998 -0.027734226 6.996033e-39 326 262
0.0088245263 0.71899998 -0.027734226 6.9038374e-39 327 262
0.010085173 0.71899998 -0.027734226 7.5441691e-39 328 262
0.01134582 0.71899998 -0.027734226 7.4519721e-39 329 262
0.012624 0.72000003 -0.027772799 7.0842756e-39 330 262
0.0138864 0.72000003 -0.027772799 7.0842756e-39 331 262
0.015190879 0.722 -0.027849946 7.0835595e-39 332 262
0.016456785 0.722 -0.027849946 6.9913639e-39 333 262
0.017747238 0.72299999 -0.02788852 6.8091362e-39 334 262
0.019014901 0.72299999 -0.02788852 7.0857245e-39 335 262
0.020338668 0.72500002 -0.027965667 7.178639e-39 336 262
0.021609833 0.72500002 -0.027965667 7.3633904e-39 337 262
0.022880999 0.72500002 -0.027965667 7.3641065e-39 338 262
0.024218792 0.727 -0.028042812 6.2577589e-39 339 262
0.025493465 0.727 -0.028042812 7.1847753e-39 340 262
0.026768139 0.727 -0.028042812 1.2624319e-38 341 262
0.028042812 0.727 -0.028042812 1.2454709e-38 342 262
-0.032129832 0.73299998 -0.029559445 1.7701564e-38 295 263
-0.030718399 0.73000002 -0.029438468 1.5116834e-38 296 263
-0.029438468 0.73000002 -0.029438468 7.9255746e-39 297 263
-0.028081384 0.72799999 -0.029357811 6.2595918e-39 298 263
-0.026768139 0.727 -0.029317487 1.3082429e-38 299 263
-0.025493465 0.727 -0.029317487 1.1346213e-38 300 263
-0.024218792 0.727 -0.029317487 1.1438767e-38 301 263
-0.022944121 0.727 -0.029317487 7.7523797e-39 302 263
-0.021609833 0.72500002 -0.029236834 2.1284477e-39 303 263
-0.020282559 0.72299999 -0.029156178 5.1546932e-39 304 263
-0.0189886 0.722 -0.029115854 5.6156714e-39 305 263
-0.017722692 0.722 -0.029115854 5.7993199e-39 306 263
-0.016456785 0.722 -0.029115854 5.7993199e-39 307 263
-0.015190879 0.722 -0.029115854 6.0744649e-39 308 263
-0.0138864 0.72000003 -0.029035201 6.0744649e-39 309 263
-0.012624 0.72000003 -0.029035201 6.2570555e-39 310 263
-0.01134582 0.71899998 -0.028994869 6.2570555e-39 311 263
-0.010085173 0.71899998 -0.028994869 6.2581303e-39 312 263
-0.0088245263 0.71899998 -0.028994869 6.3503259e-39 313 263
-0.0075638802 0.71899998 -0.028994869 6.1673668e-39 314 263
-0.0062857 0.71700001 -0.028914221 6.2595638e-39 315 263
-0.0050285598 0.71700001 -0.028914221 6.259561e-39 316 263
-0.0037714199 0.71700001 -0.028914221 6.4435921e-39 317 263
-0.0025142799 0.71700001 -0.028914221 6.259561e-39 318 263
-0.0012606466 0.71899998 -0.028994869 6.259561e-39 319 263
0 0.71899998 -0.028994869 6.4425229e-39 320 263
0.0012606466 0.71899998 -0.028994869 6.3503259e-39 321 263
0.0025212932 0.71899998 -0.028994869 6.6251149e-39 322 263
0.0037819401 0.71899998 -0.028994869 6.717312e-39 323 263
0.0050425865 0.71899998 -0.028994869 6.8112886e-39 324 263
0.0063032326 0.71899998 -0.028994869 6.9956799e-39 325 263
0.0075638802 0.71899998 -0.028994869 7.2715381e-39 326 263
0.0088245263 0.71899998 -0.028994869 6.9949512e-39 327 263
0.010085173 0.71899998 -0.028994869 7.2675879e-39 328 263
0.01134582 0.71899998 -0.028994869 7.2675879e-39 329 263
0.012624 0.72000003 -0.029035201 6.9920828e-39 330 263
0.0138864 0.72000003 -0.029035201 6.9920828e-39 331 263
0.0151488 0.72000003 -0.029035201 6.9913639e-39 332 263
0.016456785 0.722 -0.029115854 6.9913639e-39 333 263
0.017722692 0.722 -0.029115854 6.7169378e-39 334 263
0.019014901 0.72299999 -0.029156178 6.9013305e-39 335 263
0.020282559 0.72299999 -0.029156178 6.9942506e-39 336 263
0.021609833 0.72500002 -0.029236834 7.2708375e-39 337 263
0.022880999 0.72500002 -0.029236834 7.1797138e-39 338 263
0.024218792 0.727 -0.029317487 8.6548453e-39 339 263
0.025493465 0.727 -0.029317487 9.9481275e-39 340 263
0.026768139 0.727 -0.029317487 1.3451201e-38 341 263
0.028042812 0.727 -0.029317487 1.1071777e-38 342 263
-0.030718399 0.73000002 -0.030718399 1.5761856e-38 296 264
-0.029438468 0.73000002 -0.030718399 8.7549877e-39 297 264
-0.028081384 0.72799999 -0.030634239 6.7216616e-39 298 264
-0.026768139 0.727 -0.030592158 1.2899129e-38 299 264
-0.025493465 0.727 -0.030592158 1.1346213e-38 300 264
-0.024218792 0.727 -0.030592158 1.1254016e-38 301 264
-0.022944121 0.727 -0.030592158 7.3821496e-39 302 264
-0.021609833 0.72500002 -0.030508002 2.2195545e-39 303 264
-0.020282559 0.72299999 -0.030423839 5.5231086e-39 304 264
-0.0189886 0.722 -0.030381758 5.8915324e-39 305 264
-0.017722692 0.722 -0.030381758 5.7993227e-39 306 264
-0.016456785 0.722 -0.030381758 5.7993227e-39 307 264
-0.015190879 0.722 -0.030381758 6.0751838e-39 308 264
-0.0138864 0.72000003 -0.0302976 5.9829881e-39 309 264
-0.012624 0.72000003 -0.0302976 6.1659346e-39 310 264
-0.01134582 0.71899998 -0.030255521 6.2581303e-39 311 264
-0.010085173 0.71899998 -0.030255521 5.9829853e-39 312 264
-0.0088245263 0.71899998 -0.030255521 5.7989542e-39 313 264
-0.0075638802 0.71899998 -0.030255521 6.075181e-39 314 264
-0.0062857 0.71700001 -0.030171359 6.075181e-39 315 264
-0.0050285598 0.71700001 -0.030171359 6.0766173e-39 316 264
-0.0037714199 0.71700001 -0.030171359 6.352844e-39 317 264
-0.0025142799 0.71700001 -0.030171359 6.3531972e-39 318 264
-0.00125714 0.71700001 -0.030171359 6.2610015e-39 319 264
0 0.71700001 -0.030171359 6.3524755e-39 320 264
0.00125714 0.71700001 -0.030171359 6.2602799e-39 321 264
0.0025142799 0.71700001 -0.030171359 6.4428733e-39 322 264
0.0037819401 0.71899998 -0.030255521 6.5350689e-39 323 264
0.0050425865 0.71899998 -0.030255521 6.3528314e-39 324 264
0.0062857 0.71700001 -0.030171359 6.6290582e-39 325 264
0.0075428397 0.71700001 -0.030171359 6.9042031e-39 326 264
0.0087999795 0.71700001 -0.030171359 6.6276177e-39 327 264
0.01005712 0.71700001 -0.030171359 6.9016836e-39 328 264
0.01131426 0.71700001 -0.030171359 6.9016836e-39 329 264
0.012606465 0.71899998 -0.030255521 6.8094866e-39 330 264
0.013867113 0.71899998 -0.030255521 6.7172909e-39 331 264
0.01512776 0.71899998 -0.030255521 6.8087677e-39 332 264
0.0164112 0.72000003 -0.0302976 6.8087677e-39 333 264
0.017722692 0.722 -0.030381758 6.7169378e-39 334 264
0.0189886 0.722 -0.030381758 6.8091334e-39 335 264
0.020254506 0.722 -0.030381758 6.8102166e-39 336 264
0.021550218 0.72299999 -0.030423839 7.0864434e-39 337 264
0.02281788 0.72299999 -0.030423839 6.8113013e-39 338 264
0.024152167 0.72500002 -0.030508002 1.0499487e-38 339 264
0.025423333 0.72500002 -0.030508002 1.1244273e-38 340 264
0.026804959 0.72799999 -0.030634239 1.28116e-38 341 264
0.027965667 0.72500002 -0.030508002 1.1161454e-38 342 264
0.029236834 0.72500002 -0.030508002 1.1806824e-38 343 264
-0.030634239 0.72799999 -0.031910665 1.6407578e-38 296 265
-0.029357811 0.72799999 -0.031910665 8.8475379e-39 297 265
-0.028081384 0.72799999 -0.031910665 6.7230951e-39 298 265
-0.026804959 0.72799999 -0.031910665 1.2992397e-38 299 265
-0.025493465 0.727 -0.03186683 1.1622079e-38 300 265
-0.024218792 0.727 -0.03186683 1.1161101e-38 301 265
-0.022944121 0.727 -0.03186683 7.1966765e-39 302 265
-0.021609833 0.72500002 -0.031779166 2.4021437e-39 303 265
-0.020282559 0.72299999 -0.031691495 5.7082173e-39 304 265
-0.0189886 0.722 -0.031647664 5.6160217e-39 305 265
-0.017722692 0.722 -0.031647664 5.982635e-39 306 265
-0.016456785 0.722 -0.031647664 5.982635e-39 307 265
-0.015211919 0.72299999 -0.031691495 5.8918715e-39 308 265
-0.0138864 0.72000003 -0.03156 5.9840685e-39 309 265
-0.012624 0.72000003 -0.03156 5.7996731e-39 310 265
-0.01134582 0.71899998 -0.031516165 5.8918687e-39 311 265
-0.010085173 0.71899998 -0.031516165 5.7996731e-39 312 265
-0.0088245263 0.71899998 -0.031516165 5.7996731e-39 313 265
-0.0075638802 0.71899998 -0.031516165 5.7985983e-39 314 265
-0.0062857 0.71700001 -0.031428497 5.9829881e-39 315 265
-0.0050285598 0.71700001 -0.031428497 6.167378e-39 316 265
-0.0037714199 0.71700001 -0.031428497 6.352128e-39 317 265
-0.0025142799 0.71700001 -0.031428497 6.352128e-39 318 265
-0.00125714 0.71700001 -0.031428497 6.352128e-39 319 265
0 0.71700001 -0.031428497 6.5354374e-39 320 265
0.00125714 0.71700001 -0.031428497 6.6276331e-39 321 265
0.0025142799 0.71700001 -0.031428497 6.2606484e-39 322 265
0.0037714199 0.71700001 -0.031428497 6.0766173e-39 323 265
0.0050285598 0.71700001 -0.031428497 6.4432418e-39 324 265
0.0062857 0.71700001 -0.031428497 6.5354374e-39 325 265
0.0075428397 0.71700001 -0.031428497 6.3524783e-39 326 265
0.0087999795 0.71700001 -0.031428497 6.2602827e-39 327 265
0.01005712 0.71700001 -0.031428497 6.4439481e-39 328 265
0.01131426 0.71700001 -0.031428497 6.4439481e-39 329 265
0.012606465 0.71899998 -0.031516165 6.535422e-39 330 265
0.013867113 0.71899998 -0.031516165 6.2588337e-39 331 265
0.01512776 0.71899998 -0.031516165 6.7162161e-39 332 265
0.016388407 0.71899998 -0.031516165 6.7162161e-39 333 265
0.017673599 0.72000003 -0.03156 6.7162218e-39 334 265
0.018935999 0.72000003 -0.03156 6.8084174e-39 335 265
0.020254506 0.722 -0.031647664 6.9009773e-39 336 265
0.021550218 0.72299999 -0.031691495 6.7165847e-39 337 265
0.02281788 0.72299999 -0.031691495 5.7993227e-39 338 265
0.024152167 0.72500002 -0.031779166 1.1054474e-38 339 265
0.025423333 0.72500002 -0.031779166 1.1799618e-38 340 265
0.026804959 0.72799999 -0.031910665 1.2444988e-38 341 265
0.027965667 0.72500002 -0.031779166 1.0607204e-38 342 265
0.029236834 0.72500002 -0.031779166 9.4086612e-39 343 265
0.030592158 0.727 -0.03186683 7.7602942e-39 344 265
0.03186683 0.727 -0.03186683 1.1448118e-38 345 265
-0.030634239 0.72799999 -0.033187091 1.7327734e-38 296 266
-0.029357811 0.72799999 -0.033187091 9.7680522e-39 297 266
-0.028081384 0.72799999 -0.033187091 7.3673841e-39 298 266
-0.026804959 0.72799999 -0.033187091 1.33601e-38 299 266
-0.025528532 0.72799999 -0.033187091 1.1899022e-38 300 266
-0.024218792 0.727 -0.033141505 1.0976707e-38 301 266
-0.022944121 0.727 -0.033141505 7.1952276e-39 302 266
-0.021609833 0.72500002 -0.033050332 2.6776417e-39 303 266
-0.020282559 0.72299999 -0.032959159 6.1652256e-39 304 266
-0.0189886 0.722 -0.032913569 6.349977e-39 305 266
-0.017722692 0.722 -0.032913569 5.9826322e-39 306 266
-0.016456785 0.722 -0.032913569 5.9826322e-39 307 266
-0.015211919 0.72299999 -0.032959159 5.8915198e-39 308 266
-0.0138864 0.72000003 -0.0328224 5.8915198e-39 309 266
-0.012624 0.72000003 -0.0328224 5.8925918e-39 310 266
-0.011361601 0.72000003 -0.0328224 5.8925918e-39 311 266
-0.010099201 0.72000003 -0.0328224 5.8918687e-39 312 266
-0.0088367993 0.72000003 -0.0328224 5.7996731e-39 313 266
-0.0075638802 0.71899998 -0.032776814 5.7993171e-39 314 266
-0.0062857 0.71700001 -0.032685637 5.7993171e-39 315 266
-0.0050285598 0.71700001 -0.032685637 5.8915198e-39 316 266
-0.0037714199 0.71700001 -0.032685637 5.8915198e-39 317 266
-0.0025142799 0.71700001 -0.032685637 6.4428943e-39 318 266
-0.00125714 0.71700001 -0.032685637 6.4428943e-39 319 266
0 0.71700001 -0.032685637 6.8123803e-39 320 266
0.00125714 0.71700001 -0.032685637 6.8123803e-39 321 266
0.0025142799 0.71700001 -0.032685637 6.8127334e-39 322 266
0.0037714199 0.71700001 -0.032685637 6.5357878e-39 323 266
0.0050285598 0.71700001 -0.032685637 6.1670108e-39 324 266
0.0062857 0.71700001 -0.032685637 6.443239e-39 325 266
0.0075428397 0.71700001 -0.032685637 5.8025443e-39 326 266
0.0087999795 0.71700001 -0.032685637 5.8025443e-39 327 266
0.01005712 0.71700001 -0.032685637 6.3524783e-39 328 266
0.01131426 0.71700001 -0.032685637 6.2602827e-39 329 266
0.012606465 0.71899998 -0.032776814 6.350679e-39 330 266
0.013867113 0.71899998 -0.032776814 6.165929e-39 331 266
0.01512776 0.71899998 -0.032776814 6.3485252e-39 332 266
0.016388407 0.71899998 -0.032776814 6.3485252e-39 333 266
0.017673599 0.72000003 -0.0328224 6.5332752e-39 334 266
0.018935999 0.72000003 -0.0328224 6.5332752e-39 335 266
0.020254506 0.722 -0.032913569 6.6258352e-39 336 266
0.021550218 0.72299999 -0.032959159 6.349607e-39 337 266
0.02281788 0.72299999 -0.032959159 6.2581541e-39 338 266
0.024085538 0.72299999 -0.032959159 1.2066479e-38 339 266
0.025423333 0.72500002 -0.033050332 1.1527716e-38 340 266
0.026768139 0.727 -0.033141505 1.1435162e-38 341 266
0.028042812 0.727 -0.033141505 9.3204158e-39 342 266
0.029317487 0.727 -0.033141505 6.1857644e-39 343 266
0.030592158 0.727 -0.033141505 3.0597408e-39 344 266
0.03186683 0.727 -0.033141505 6.8394029e-39 345 266
0.033278264 0.73000002 -0.033278264 1.6230043e-38 346 266
-0.030634239 0.72799999 -0.034463517 1.8160006e-38 296 267
-0.029357811 0.72799999 -0.034463517 1.0876192e-38 297 267
-0.028081384 0.72799999 -0.034463517 7.46353e-39 298 267
-0.026804959 0.72799999 -0.034463517 1.2718681e-38 299 267
-0.025528532 0.72799999 -0.034463517 1.0705518e-38 300 267
-0.024218792 0.727 -0.03441618 9.8753973e-39 301 267
-0.022944121 0.727 -0.03441618 7.3781839e-39 302 267
-0.021669446 0.727 -0.03441618 3.4137719e-39 303 267
-0.020338668 0.72500002 -0.034321502 6.2602981e-39 304 267
-0.019014901 0.72299999 -0.03422682 5.891517e-39 305 267
-0.017722692 0.722 -0.034179479 5.8918687e-39 306 267
-0.016456785 0.722 -0.034179479 5.7074774e-39 307 267
-0.015211919 0.72299999 -0.03422682 5.982635e-39 308 267
-0.0138864 0.72000003 -0.034084801 6.074832e-39 309 267
-0.012624 0.72000003 -0.034084801 5.9833623e-39 310 267
-0.011361601 0.72000003 -0.034084801 6.0755579e-39 311 267
-0.010099201 0.72000003 -0.034084801 5.7085704e-39 312 267
-0.0088367993 0.72000003 -0.034084801 5.7085704e-39 313 267
-0.0075638802 0.71899998 -0.03403746 6.0741118e-39 314 267
-0.0062857 0.71700001 -0.033942781 6.0741118e-39 315 267
-0.0050285598 0.71700001 -0.033942781 5.9822791e-39 316 267
-0.0037714199 0.71700001 -0.033942781 6.1670305e-39 317 267
-0.0025142799 0.71700001 -0.033942781 6.3510714e-39 318 267
-0.00125714 0.71700001 -0.033942781 7.2726676e-39 319 267
0 0.71700001 -0.033942781 7.4595798e-39 320 267
0.00125714 0.71700001 -0.033942781 7.183353e-39 321 267
0.0025142799 0.71700001 -0.033942781 7.0897056e-39 322 267
0.0037714199 0.71700001 -0.033942781 6.4443362e-39 323 267
0.0050425865 0.71899998 -0.03403746 5.9847846e-39 324 267
0.0063032326 0.71899998 -0.03403746 6.0769802e-39 325 267
0.0075638802 0.71899998 -0.03403746 5.7128626e-39 326 267
0.0088245263 0.71899998 -0.03403746 5.5288315e-39 327 267
0.010085173 0.71899998 -0.03403746 6.2606484e-39 328 267
0.01134582 0.71899998 -0.03403746 5.9844217e-39 329 267
0.012624 0.72000003 -0.034084801 6.3481777e-39 330 267
0.013867113 0.71899998 -0.03403746 6.1637879e-39 331 267
0.01512776 0.71899998 -0.03403746 6.4389258e-39 332 267
0.016388407 0.71899998 -0.03403746 6.7155127e-39 333 267
0.017649053 0.71899998 -0.03403746 6.2584834e-39 334 267
0.018909698 0.71899998 -0.03403746 6.350679e-39 335 267
0.020198401 0.72000003 -0.034084801 6.5347214e-39 336 267
0.021520413 0.722 -0.034179479 6.3503287e-39 337 267
0.02281788 0.72299999 -0.03422682 6.6327002e-39 338 267
0.024085538 0.72299999 -0.03422682 1.1795655e-38 339 267
0.025353199 0.72299999 -0.03422682 1.0608281e-38 340 267
0.026694499 0.72500002 -0.034321502 1.0055107e-38 341 267
0.028042812 0.727 -0.03441618 7.0162454e-39 342 267
0.029317487 0.727 -0.03441618 2.3142668e-39 343 267
0.030634239 0.72799999 -0.034463517 2.3822074e-44 344 267
0.031910665 0.72799999 -0.034463517 2.5822259e-39 345 267
0.033187091 0.72799999 -0.034463517 1.4295381e-38 346 267
-0.029438468 0.73000002 -0.035838135 1.3826098e-38 297 268
-0.028081384 0.72799999 -0.035739943 8.0239065e-39 298 268
-0.026804959 0.72799999 -0.035739943 1.1435145e-38 299 268
-0.025528532 0.72799999 -0.035739943 1.1898669e-38 300 268
-0.024218792 0.727 -0.035690852 1.0330985e-38 301 268
-0.022944121 0.727 -0.035690852 7.3774651e-39 302 268
-0.021669446 0.727 -0.035690852 3.8740311e-39 303 268
-0.020338668 0.72500002 -0.035592668 6.7198315e-39 304 268
-0.019014901 0.72299999 -0.035494477 6.5354402e-39 305 268
-0.017747238 0.72299999 -0.035494477 6.1670108e-39 306 268
-0.01647958 0.72299999 -0.035494477 6.0748152e-39 307 268
-0.015211919 0.72299999 -0.035494477 5.7986039e-39 308 268
-0.01394426 0.72299999 -0.035494477 5.982635e-39 309 268
-0.012659066 0.722 -0.035445385 5.799334e-39 310 268
-0.01139316 0.722 -0.035445385 5.799334e-39 311 268
-0.010127253 0.722 -0.035445385 5.8911666e-39 312 268
-0.0088613462 0.722 -0.035445385 5.8911666e-39 313 268
-0.0075743999 0.72000003 -0.035347197 5.7993227e-39 314 268
-0.0063120001 0.72000003 -0.035347197 5.7993227e-39 315 268
-0.0050425865 0.71899998 -0.035298105 5.6156574e-39 316 268
-0.0037819401 0.71899998 -0.035298105 5.9840811e-39 317 268
-0.0025212932 0.71899998 -0.035298105 5.9869748e-39 318 268
-0.00125714 0.71700001 -0.035199918 7.4621035e-39 319 268
0 0.71700001 -0.035199918 7.3731519e-39 320 268
0.00125714 0.71700001 -0.035199918 6.9121737e-39 321 268
0.0025142799 0.71700001 -0.035199918 6.4526249e-39 322 268
0.0037714199 0.71700001 -0.035199918 5.4381128e-39 323 268
0.0050425865 0.71899998 -0.035298105 5.7096424e-39 324 268
0.0063032326 0.71899998 -0.035298105 6.1709807e-39 325 268
0.0075638802 0.71899998 -0.035298105 6.0816493e-39 326 268
0.0088245263 0.71899998 -0.035298105 6.0816493e-39 327 268
0.010085173 0.71899998 -0.035298105 6.6301512e-39 328 268
0.01134582 0.71899998 -0.035298105 6.0773362e-39 329 268
0.012606465 0.71899998 -0.035298105 6.075181e-39 330 268
0.013867113 0.71899998 -0.035298105 5.7989542e-39 331 268
0.01512776 0.71899998 -0.035298105 5.7067586e-39 332 268
0.016388407 0.71899998 -0.035298105 5.7067586e-39 333 268
0.017649053 0.71899998 -0.035298105 5.7064026e-39 334 268
0.018909698 0.71899998 -0.035298105 5.9829881e-39 335 268
0.020170346 0.71899998 -0.035298105 5.7996871e-39 336 268
0.021460801 0.72000003 -0.035347197 6.7220021e-39 337 268
0.022786319 0.722 -0.035445385 7.4664195e-39 338 268
0.024085538 0.72299999 -0.035494477 1.1338636e-38 339 268
0.025353199 0.72299999 -0.035494477 1.0606848e-38 340 268
0.026694499 0.72500002 -0.035592668 9.5005009e-39 341 268
0.027965667 0.72500002 -0.035592668 5.9088216e-39 342 268
0.029317487 0.727 -0.035690852 1.2990401e-39 343 268
0.030634239 0.72799999 -0.035739943 9.1837458e-40 344 268
0.03186683 0.727 -0.035690852 1.1024071e-39 345 268
0.033141505 0.727 -0.035690852 1.3276543e-38 346 268
-0.029438468 0.73000002 -0.037118066 1.5762209e-38 297 269
-0.028081384 0.72799999 -0.037016369 1.1336118e-38 298 269
-0.026804959 0.72799999 -0.037016369 1.2903445e-38 299 269
-0.025528532 0.72799999 -0.037016369 1.2081265e-38 300 269
-0.024218792 0.727 -0.036965527 1.0052961e-38 301 269
-0.022944121 0.727 -0.036965527 7.2845506e-39 302 269
-0.021669446 0.727 -0.036965527 4.149539e-39 303 269
-0.020338668 0.72500002 -0.036863834 6.5372409e-39 304 269
-0.019014901 0.72299999 -0.036762137 6.3524909e-39 305 269
-0.017747238 0.72299999 -0.036762137 6.2599295e-39 306 269
-0.01647958 0.72299999 -0.036762137 6.1677339e-39 307 269
-0.015211919 0.72299999 -0.036762137 6.075181e-39 308 269
-0.01394426 0.72299999 -0.036762137 5.7989542e-39 309 269
-0.012659066 0.722 -0.03671129 5.9822791e-39 310 269
-0.01139316 0.722 -0.03671129 5.7982479e-39 311 269
-0.010127253 0.722 -0.03671129 5.9819287e-39 312 269
-0.0088613462 0.722 -0.03671129 5.9819287e-39 313 269
-0.0075954394 0.722 -0.03671129 5.7996899e-39 314 269
-0.0063120001 0.72000003 -0.036609601 5.7996899e-39 315 269
-0.0050496003 0.72000003 -0.036609601 5.4327122e-39 316 269
-0.0037819401 0.71899998 -0.036558751 5.8011346e-39 317 269
-0.0025212932 0.71899998 -0.036558751 6.0795446e-39 318 269
-0.00125714 0.71700001 -0.036457058 8.2000455e-39 319 269
0 0.71700001 -0.036457058 8.2990935e-39 320 269
0.00125714 0.71700001 -0.036457058 8.1147022e-39 321 269
0.0025142799 0.71700001 -0.036457058 7.1970549e-39 322 269
0.0037714199 0.71700001 -0.036457058 5.6300893e-39 323 269
0.0050285598 0.71700001 -0.036457058 5.4410121e-39 324 269
0.0062857 0.71700001 -0.036457058 5.5332078e-39 325 269
0.0075638802 0.71899998 -0.036558751 5.9931111e-39 326 269
0.0088245263 0.71899998 -0.036558751 5.9931111e-39 327 269
0.010085173 0.71899998 -0.036558751 6.9082109e-39 328 269
0.01134582 0.71899998 -0.036558751 6.2628414e-39 329 269
0.012606465 0.71899998 -0.036558751 5.7107214e-39 330 269
0.013867113 0.71899998 -0.036558751 5.3415802e-39 331 269
0.01512776 0.71899998 -0.036558751 5.6149259e-39 332 269
0.016388407 0.71899998 -0.036558751 5.3386991e-39 333 269
0.017649053 0.71899998 -0.036558751 5.7968032e-39 334 269
0.018909698 0.71899998 -0.036558751 5.7968032e-39 335 269
0.020170346 0.71899998 -0.036558751 5.2458e-39 336 269
0.021460801 0.72000003 -0.036609601 7.3662995e-39 337 269
0.022786319 0.722 -0.03671129 8.1125162e-39 338 269
0.024085538 0.72299999 -0.036762137 1.1247166e-38 339 269
0.025353199 0.72299999 -0.036762137 1.0145873e-38 340 269
0.026694499 0.72500002 -0.036863834 8.2097649e-39 341 269
0.027965667 0.72500002 -0.036863834 5.259132e-39 342 269
0.029317487 0.727 -0.036965527 2.0322863e-39 343 269
0.030634239 0.72799999 -0.037016369 4.4149632e-39 344 269
0.03186683 0.727 -0.036965527 3.7695938e-39 345 269
0.033141505 0.727 -0.036965527 1.2261663e-38 346 269
0.034558199 0.73000002 -0.037118066 1.6595216e-38 347 269
-0.028081384 0.72799999 -0.038292799 1.4192382e-38 298 270
-0.026804959 0.72799999 -0.038292799 1.400799e-38 299 270
-0.025528532 0.72799999 -0.038292799 1.1713553e-38 300 270
-0.024252106 0.72799999 -0.038292799 9.4086612e-39 301 270
-0.022944121 0.727 -0.038240198 7.5586151e-39 302 270
-0.021669446 0.727 -0.038240198 4.5161607e-39 303 270
-0.020338668 0.72500002 -0.038135 6.8123831e-39 304 270
-0.0190675 0.72500002 -0.038135 6.8123831e-39 305 270
-0.017747238 0.72299999 -0.038029801 6.627989e-39 306 270
-0.01647958 0.72299999 -0.038029801 6.443239e-39 307 270
-0.015211919 0.72299999 -0.038029801 6.0755341e-39 308 270
-0.01394426 0.72299999 -0.038029801 5.9833385e-39 309 270
-0.012659066 0.722 -0.0379772 5.9822693e-39 310 270
-0.01139316 0.722 -0.0379772 5.8897149e-39 311 270
-0.010127253 0.722 -0.0379772 5.7060523e-39 312 270
-0.0088613462 0.722 -0.0379772 5.7982479e-39 313 270
-0.0075954394 0.722 -0.0379772 5.7067712e-39 314 270
-0.0063120001 0.72000003 -0.037871998 5.7067712e-39 315 270
-0.0050496003 0.72000003 -0.037871998 5.7064209e-39 316 270
-0.0037872 0.72000003 -0.037871998 5.8908135e-39 317 270
-0.0025212932 0.71899998 -0.037819397 5.6189336e-39 318 270
-0.00125714 0.71700001 -0.037714198 7.3706506e-39 319 270
0 0.71700001 -0.037714198 7.5611781e-39 320 270
0.00125714 0.71700001 -0.037714198 7.7455694e-39 321 270
0.0025142799 0.71700001 -0.037714198 7.3803798e-39 322 270
0.0037714199 0.71700001 -0.037714198 7.1959885e-39 323 270
0.0050285598 0.71700001 -0.037714198 6.6438839e-39 324 270
0.0062857 0.71700001 -0.037714198 6.6438839e-39 325 270
0.0075638802 0.71899998 -0.037819397 7.1034243e-39 326 270
0.0088245263 0.71899998 -0.037819397 7.19562e-39 327 270
0.010085173 0.71899998 -0.037819397 7.2784381e-39 328 270
0.01134582 0.71899998 -0.037819397 5.7107537e-39 329 270
0.012624 0.72000003 -0.037871998 6.0759138e-39 330 270
0.013867113 0.71899998 -0.037819397 5.7067712e-39 331 270
0.01512776 0.71899998 -0.037819397 5.5220142e-39 332 270
0.016388407 0.71899998 -0.037819397 5.5220142e-39 333 270
0.017649053 0.71899998 -0.037819397 5.7975249e-39 334 270
0.018909698 0.71899998 -0.037819397 6.0741118e-39 335 270
0.020198401 0.72000003 -0.037871998 5.6199874e-39 336 270
0.021520413 0.722 -0.0379772 7.7408456e-39 337 270
0.02281788 0.72299999 -0.038029801 8.3923485e-39 338 270
0.024085538 0.72299999 -0.038029801 1.0789076e-38 339 270
0.025423333 0.72500002 -0.038135 9.5934196e-39 340 270
0.026768139 0.727 -0.038240198 6.7357138e-39 341 270
0.028042812 0.727 -0.038240198 5.4388387e-39 342 270
0.029357811 0.72799999 -0.038292799 3.2261436e-39 343 270
0.030634239 0.72799999 -0.038292799 5.1521527e-39 344 270
0.031910665 0.72799999 -0.038292799 4.4145876e-39 345 270
0.033187091 0.72799999 -0.038292799 1.21691e-38 346 270
0.034558199 0.73000002 -0.038398001 1.6317905e-38 347 270
-0.028081384 0.72799999 -0.039569225 1.5854054e-38 298 271
-0.026804959 0.72799999 -0.039569225 1.4194534e-38 299 271
-0.025528532 0.72799999 -0.039569225 1.1805022e-38 300 271
-0.024252106 0.72799999 -0.039569225 8.8551217e-39 301 271
-0.022975679 0.72799999 -0.039569225 7.3727833e-39 302 271
-0.021669446 0.727 -0.039514873 4.9753368e-39 303 271
-0.020394772 0.727 -0.039514873 6.7209063e-39 304 271
-0.019120099 0.727 -0.039514873 6.7209063e-39 305 271
-0.017796334 0.72500002 -0.039406165 6.627989e-39 306 271
-0.016525166 0.72500002 -0.039406165 6.5357934e-39 307 271
-0.015211919 0.72299999 -0.039297458 6.1680814e-39 308 271
-0.01394426 0.72299999 -0.039297458 6.0758844e-39 309 271
-0.012676599 0.72299999 -0.039297458 5.9836888e-39 310 271
-0.01139316 0.722 -0.039243106 5.7996577e-39 311 271
-0.010127253 0.722 -0.039243106 5.890424e-39 312 271
-0.0088613462 0.722 -0.039243106 5.7978696e-39 313 271
-0.0075954394 0.722 -0.039243106 5.7975221e-39 314 271
-0.0063120001 0.72000003 -0.039134402 5.7975221e-39 315 271
-0.0050496003 0.72000003 -0.039134402 5.704623e-39 316 271
-0.0037872 0.72000003 -0.039134402 5.8890142e-39 317 271
-0.0025212932 0.71899998 -0.039080046 5.4323717e-39 318 271
-0.00125714 0.71700001 -0.038971342 6.3546867e-39 319 271
0 0.71700001 -0.038971342 6.176073e-39 320 271
0.00125714 0.71700001 -0.038971342 6.7292468e-39 321 271
0.0025142799 0.71700001 -0.038971342 6.2718812e-39 322 271
0.0037714199 0.71700001 -0.038971342 7.1938375e-39 323 271
0.0050285598 0.71700001 -0.038971342 8.2083426e-39 324 271
0.0062857 0.71700001 -0.038971342 8.3923737e-39 325 271
0.0075638802 0.71899998 -0.039080046 8.5764006e-39 326 271
0.0088245263 0.71899998 -0.039080046 8.668955e-39 327 271
0.010085173 0.71899998 -0.039080046 7.8312588e-39 328 271
0.01134582 0.71899998 -0.039080046 4.6966073e-39 329 271
0.012624 0.72000003 -0.039134402 5.5213107e-39 330 271
0.0138864 0.72000003 -0.039134402 5.6135064e-39 331 271
0.01512776 0.71899998 -0.039080046 5.7049705e-39 332 271
0.016388407 0.71899998 -0.039080046 5.7975249e-39 333 271
0.017673599 0.72000003 -0.039134402 5.7986039e-39 334 271
0.018935999 0.72000003 -0.039134402 6.8123971e-39 335 271
0.020198401 0.72000003 -0.039134402 7.0058085e-39 336 271
0.021550218 0.72299999 -0.039297458 8.6656886e-39 337 271
0.02281788 0.72299999 -0.039297458 9.223198e-39 338 271
0.024085538 0.72299999 -0.039297458 1.0145154e-38 339 271
0.025423333 0.72500002 -0.039406165 9.7756459e-39 340 271
0.026768139 0.727 -0.039514873 5.8112338e-39 341 271
0.028081384 0.72799999 -0.039569225 5.434873e-39 342 271
0.029357811 0.72799999 -0.039569225 4.6051124e-39 343 271
0.030634239 0.72799999 -0.039569225 5.3376159e-39 344 271
0.031910665 0.72799999 -0.039569225 4.4160198e-39 345 271
0.033278264 0.73000002 -0.039677933 1.2352765e-38 346 271
0.034558199 0.73000002 -0.039677933 1.6317178e-38 347 271
-0.026878599 0.73000002 -0.040957868 1.4655512e-38 299 272
-0.025528532 0.72799999 -0.040845651 1.2172364e-38 300 272
-0.024252106 0.72799999 -0.040845651 8.2079516e-39 301 272
-0.022975679 0.72799999 -0.040845651 6.8185278e-39 302 272
-0.021699252 0.72799999 -0.040845651 5.4355919e-39 303 272
-0.020394772 0.727 -0.040789545 7.0886112e-39 304 272
-0.019120099 0.727 -0.040789545 6.7201874e-39 305 272
-0.017796334 0.72500002 -0.040677335 6.6287079e-39 306 272
-0.016525166 0.72500002 -0.040677335 6.3521224e-39 307 272
-0.015254001 0.72500002 -0.040677335 6.2609987e-39 308 272
-0.01394426 0.72299999 -0.040565118 5.984772e-39 309 272
-0.012676599 0.72299999 -0.040565118 6.0758844e-39 310 272
-0.01139316 0.722 -0.040509012 5.9836888e-39 311 272
-0.010127253 0.722 -0.040509012 5.7993045e-39 312 272
-0.0088613462 0.722 -0.040509012 5.7993045e-39 313 272
-0.0075954394 0.722 -0.040509012 6.0726614e-39 314 272
-0.0063295332 0.722 -0.040509012 5.9804658e-39 315 272
-0.0050496003 0.72000003 -0.040396802 5.7046048e-39 316 272
-0.0037872 0.72000003 -0.040396802 5.7968004e-39 317 272
-0.0025212932 0.71899998 -0.040340692 5.6145784e-39 318 272
-0.0012606466 0.71899998 -0.040340692 5.9833623e-39 319 272
0 0.71700001 -0.040228479 5.5263694e-39 320 272
0.00125714 0.71700001 -0.040228479 6.1717374e-39 321 272
0.0025142799 0.71700001 -0.040228479 5.6229021e-39 322 272
0.0037714199 0.71700001 -0.040228479 5.9913259e-39 323 272
0.0050285598 0.71700001 -0.040228479 5.9924077e-39 324 272
0.0062857 0.71700001 -0.040228479 5.8080164e-39 325 272
0.0075638802 0.71899998 -0.040340692 6.0792055e-39 326 272
0.0088245263 0.71899998 -0.040340692 5.8029773e-39 327 272
0.010085173 0.71899998 -0.040340692 5.800434e-39 328 272
0.01134582 0.71899998 -0.040340692 4.9706733e-39 329 272
0.012606465 0.71899998 -0.040340692 5.3383432e-39 330 272
0.0138864 0.72000003 -0.040396802 5.4308976e-39 331 272
0.0151488 0.72000003 -0.040396802 5.6149231e-39 332 272
0.0164112 0.72000003 -0.040396802 5.7074774e-39 333 272
0.017673599 0.72000003 -0.040396802 5.3383488e-39 334 272
0.0189886 0.722 -0.040509012 6.6290876e-39 335 272
0.020254506 0.722 -0.040509012 8.1132378e-39 336 272
0.021550218 0.72299999 -0.040565118 9.8645947e-39 337 272
0.02281788 0.72299999 -0.040565118 9.3171943e-39 338 272
0.024152167 0.72500002 -0.040677335 7.2885317e-39 339 272
0.025493465 0.727 -0.040789545 6.2693253e-39 340 272
0.026804959 0.72799999 -0.040845651 4.2410214e-39 341 272
0.028081384 0.72799999 -0.040845651 5.7996899e-39 342 272
0.029357811 0.72799999 -0.040845651 5.6156574e-39 343 272
0.030718399 0.73000002 -0.040957868 5.0613864e-39 344 272
0.031998333 0.73000002 -0.040957868 3.8628432e-39 345 272
0.033278264 0.73000002 -0.040957868 1.2353119e-38 346 272
0.034605537 0.73100001 -0.041013971 1.6501923e-38 347 272
-0.025528532 0.72799999 -0.042122077 1.2172714e-38 300 273
-0.024252106 0.72799999 -0.042122077 6.8253661e-39 301 273
-0.022975679 0.72799999 -0.042122077 6.6294505e-39 302 273
-0.021699252 0.72799999 -0.042122077 6.6294505e-39 303 273
-0.020422826 0.72799999 -0.042122077 7.4563049e-39 304 273
-0.019120099 0.727 -0.042064216 7.1793579e-39 305 273
-0.017845426 0.727 -0.042064216 6.629061e-39 306 273
-0.016570752 0.727 -0.042064216 6.4446711e-39 307 273
-0.015254001 0.72500002 -0.041948501 6.5361437e-39 308 273
-0.01394426 0.72299999 -0.041832779 6.4439481e-39 309 273
-0.012676599 0.72299999 -0.041832779 6.2599113e-39 310 273
-0.01140894 0.72299999 -0.041832779 6.1677143e-39 311 273
-0.010127253 0.722 -0.041774917 6.3506734e-39 312 273
-0.0088613462 0.722 -0.041774917 6.2584778e-39 313 273
-0.0075954394 0.722 -0.041774917 6.2577589e-39 314 273
-0.0063295332 0.722 -0.041774917 6.1655633e-39 315 273
-0.0050636264 0.722 -0.041774917 6.0730145e-39 316 273
-0.0037977197 0.722 -0.041774917 6.0730145e-39 317 273
-0.0025248001 0.72000003 -0.041659199 5.7053236e-39 318 273
-0.0012606466 0.71899998 -0.041601337 5.8897149e-39 319 273
0 0.71899998 -0.041601337 5.2472448e-39 320 273
0.00125714 0.71700001 -0.041485619 5.5234715e-39 321 273
0.0025142799 0.71700001 -0.041485619 5.4345255e-39 322 273
0.0037714199 0.71700001 -0.041485619 5.3423299e-39 323 273
0.0050425865 0.71899998 -0.041601337 4.9728187e-39 324 273
0.0063032326 0.71899998 -0.041601337 4.6043963e-39 325 273
0.0075638802 0.71899998 -0.041601337 4.9692061e-39 326 273
0.0088245263 0.71899998 -0.041601337 4.6929794e-39 327 273
0.010085173 0.71899998 -0.041601337 5.1539505e-39 328 273
0.01134582 0.71899998 -0.041601337 5.6149287e-39 329 273
0.012606465 0.71899998 -0.041601337 5.7067586e-39 330 273
0.0138864 0.72000003 -0.041659199 5.7067586e-39 331 273
0.0151488 0.72000003 -0.041659199 5.7074718e-39 332 273
0.0164112 0.72000003 -0.041659199 5.7074718e-39 333 273
0.017722692 0.722 -0.041774917 5.3358251e-39 334 273
0.0189886 0.722 -0.041774917 7.2719333e-39 335 273
0.020254506 0.722 -0.041774917 9.4968884e-39 336 273
