# .PCD v.7 - Point Cloud Data file format
FIELDS x y z rgb imX imY
SIZE 4 4 4 4 4 4
TYPE F F F F F F
COUNT 1 1 1 1 1 1
WIDTH 842
HEIGHT 1
VIEWPOINT 0 0 0 1 0 0 0
POINTS 842
DATA ascii
0.035347197 0.67199999 -0.03888192 8.4675828e-39 350 273
0.036634147 0.67400002 -0.038997639 8.5597784e-39 351 273
0.037871998 0.67500001 -0.039055496 8.9267631e-39 352 273
0.039055496 0.67500001 -0.039055496 1.0862871e-38 353 273
0.040238999 0.67500001 -0.039055496 1.2437761e-38 354 273
0.041422497 0.67500001 -0.039055496 1.8430479e-38 355 273
0.042606 0.67500001 -0.039055496 1.7607213e-38 356 273
-0.058343921 0.708 -0.042206239 1.3550234e-38 273 274
-0.057102561 0.708 -0.042206239 1.3266425e-38 274 274
-0.055782299 0.70700002 -0.042146627 1.1606903e-38 275 274
-0.054542694 0.70700002 -0.042146627 1.1973875e-38 276 274
-0.053001512 0.70300001 -0.041908171 1.1512537e-38 277 274
-0.051621638 0.70099998 -0.041788943 1.1601859e-38 278 274
-0.050320663 0.69999999 -0.041729331 1.1141241e-38 279 274
-0.048953064 0.69800001 -0.041610107 1.1048322e-38 280 274
-0.047660861 0.69700003 -0.041550495 1.0771735e-38 281 274
-0.046372157 0.69599998 -0.041490879 1.0771016e-38 282 274
-0.045022093 0.69400001 -0.041371655 1.0494069e-38 283 274
-0.043742158 0.69300002 -0.041312039 1.0308959e-38 284 274
-0.042404365 0.69099998 -0.041192811 1.0216762e-38 285 274
-0.041192811 0.69099998 -0.041192811 9.9401765e-39 286 274
-0.0399234 0.69 -0.041133199 9.9401765e-39 287 274
-0.038601387 0.68800002 -0.041013971 9.9394534e-39 288 274
-0.037340738 0.68699998 -0.040954359 9.8468991e-39 289 274
-0.035978399 0.68400002 -0.040775519 9.571387e-39 290 274
-0.034728274 0.68300003 -0.040715907 9.4791914e-39 291 274
-0.033530746 0.68300003 -0.040715907 9.4784781e-39 292 274
-0.032285877 0.68199998 -0.040656291 9.4784781e-39 293 274
-0.030998932 0.68000001 -0.040537067 9.3866454e-39 294 274
-0.029762832 0.67900002 -0.040477451 9.3866454e-39 295 274
-0.028530238 0.67799997 -0.040417835 9.3859265e-39 296 274
-0.027341479 0.67799997 -0.040417835 9.4781222e-39 297 274
-0.026075572 0.676 -0.040298611 9.3859265e-39 298 274
-0.024890319 0.676 -0.040298611 9.3859265e-39 299 274
-0.023669999 0.67500001 -0.040238999 9.2022584e-39 300 274
-0.022486499 0.67500001 -0.040238999 9.2022584e-39 301 274
-0.021303 0.67500001 -0.040238999 9.3859265e-39 302 274
-0.020119499 0.67500001 -0.040238999 9.2937309e-39 303 274
-0.018935999 0.67500001 -0.040238999 9.0185832e-39 304 274
-0.0177262 0.67400002 -0.040179387 9.1111375e-39 305 274
-0.016544454 0.67400002 -0.040179387 8.9278225e-39 306 274
-0.01531712 0.67199999 -0.040060159 8.8356268e-39 307 274
-0.01413888 0.67199999 -0.040060159 9.0185832e-39 308 274
-0.012960639 0.67199999 -0.040060159 8.834552e-39 309 274
-0.011764866 0.671 -0.040000543 8.650179e-39 310 274
-0.01058838 0.671 -0.040000543 1.0401896e-38 311 274
-0.0093978662 0.67000002 -0.039940935 1.0137223e-38 312 274
-0.0082231332 0.67000002 -0.039940935 1.3456266e-38 313 274
-0.0070483997 0.67000002 -0.039940935 1.0152004e-38 314 274
-0.0058561331 0.66799998 -0.039821707 1.0059808e-38 315 274
-0.0046849065 0.66799998 -0.039821707 1.0334603e-38 316 274
-0.0035136798 0.66799998 -0.039821707 1.0334603e-38 317 274
-0.0023424532 0.66799998 -0.039821707 1.0333528e-38 318 274
-0.0011694733 0.667 -0.039762091 1.0517918e-38 319 274
0 0.667 -0.039762091 1.0242051e-38 320 274
0.0011694733 0.667 -0.039762091 1.0242051e-38 321 274
0.0023389466 0.667 -0.039762091 1.0517915e-38 322 274
0.0035084197 0.667 -0.039762091 9.5041233e-39 323 274
0.0046708798 0.66600001 -0.039702479 8.7604177e-39 324 274
0.0058385995 0.66600001 -0.039702479 5.3491794e-39 325 274
0.0070063197 0.66600001 -0.039702479 8.1899435e-39 326 274
0.0081863133 0.667 -0.039762091 8.5587246e-39 327 274
0.0093557863 0.667 -0.039762091 8.2831985e-39 328 274
0.010525259 0.667 -0.039762091 8.2831985e-39 329 274
0.011694733 0.667 -0.039762091 8.3746669e-39 330 274
0.012864206 0.667 -0.039762091 8.3746669e-39 331 274
0.014033679 0.667 -0.039762091 8.2821153e-39 332 274
0.015203152 0.667 -0.039762091 8.1899197e-39 333 274
0.016372627 0.667 -0.039762091 8.4650647e-39 334 274
0.0175421 0.667 -0.039762091 8.3725103e-39 335 274
0.018711573 0.667 -0.039762091 8.1895512e-39 336 274
0.019910853 0.66799998 -0.039821707 8.1895512e-39 337 274
0.021082079 0.66799998 -0.039821707 8.19027e-39 338 274
0.022253305 0.66799998 -0.039821707 8.2824657e-39 339 274
0.023424532 0.66799998 -0.039821707 8.191705e-39 340 274
0.02459576 0.66799998 -0.039821707 8.0991506e-39 341 274
0.025844134 0.67000002 -0.039940935 8.0998695e-39 342 274
0.027018867 0.67000002 -0.039940935 8.0076738e-39 343 274
0.028235679 0.671 -0.040000543 8.2821027e-39 344 274
0.029412165 0.671 -0.040000543 8.1895484e-39 345 274
0.030588651 0.671 -0.040000543 8.1895484e-39 346 274
0.031812478 0.67199999 -0.040060159 8.2821027e-39 347 274
0.03299072 0.67199999 -0.040060159 8.2817496e-39 348 274
0.034168959 0.67199999 -0.040060159 8.3739452e-39 349 274
0.035452399 0.67400002 -0.040179387 8.46758e-39 350 274
0.036634147 0.67400002 -0.040179387 8.7445256e-39 351 274
0.037871998 0.67500001 -0.040238999 9.4799242e-39 352 274
0.039113361 0.676 -0.040298611 1.2337629e-38 353 274
0.040298611 0.676 -0.040298611 1.3823564e-38 354 274
0.041483864 0.676 -0.040298611 1.834115e-38 355 274
-0.057102561 0.708 -0.043447599 1.4189826e-38 274 275
-0.055861197 0.708 -0.043447599 1.2253717e-38 275 275
-0.054542694 0.70700002 -0.043386232 1.1881673e-38 276 275
-0.053001512 0.70300001 -0.043140765 1.1697281e-38 277 275
-0.051621638 0.70099998 -0.043018032 1.1878073e-38 278 275
-0.050320663 0.69999999 -0.042956665 1.150965e-38 279 275
-0.048953064 0.69800001 -0.042833932 1.1232703e-38 280 275
-0.047660861 0.69700003 -0.042772565 1.0956477e-38 281 275
-0.046438783 0.69700003 -0.042772565 1.1046877e-38 282 275
-0.045022093 0.69400001 -0.042588469 1.076993e-38 283 275
-0.043805279 0.69400001 -0.042588469 1.0677016e-38 284 275
-0.042527102 0.69300002 -0.042527102 1.0492624e-38 285 275
-0.041192811 0.69099998 -0.042404365 1.0216038e-38 286 275
-0.0399234 0.69 -0.042342998 1.0216038e-38 287 275
-0.038601387 0.68800002 -0.042220265 9.848334e-39 288 275
-0.037340738 0.68699998 -0.042158898 9.7561384e-39 289 275
-0.036136195 0.68699998 -0.042158898 9.847255e-39 290 275
-0.03477912 0.68400002 -0.041974798 9.6632225e-39 291 275
-0.033579841 0.68400002 -0.041974798 9.5706709e-39 292 275
-0.032333218 0.68300003 -0.041913435 9.4784753e-39 293 275
-0.031090107 0.68199998 -0.041852064 9.6617904e-39 294 275
-0.029806666 0.68000001 -0.041729335 9.6617904e-39 295 275
-0.028572321 0.67900002 -0.041667968 9.6614344e-39 296 275
-0.027381808 0.67900002 -0.041667968 9.5692388e-39 297 275
-0.026152719 0.67799997 -0.041606598 9.5692388e-39 298 275
-0.024890319 0.676 -0.041483864 9.5692388e-39 299 275
-0.023669999 0.67500001 -0.041422497 9.3859265e-39 300 275
-0.022486499 0.67500001 -0.041422497 9.3859265e-39 301 275
-0.021303 0.67500001 -0.041422497 9.3852077e-39 302 275
-0.020119499 0.67500001 -0.041422497 9.3852077e-39 303 275
-0.018935999 0.67500001 -0.041422497 9.2026115e-39 304 275
-0.0177525 0.67500001 -0.041422497 9.2026115e-39 305 275
-0.016544454 0.67400002 -0.041361131 9.2029674e-39 306 275
-0.015362706 0.67400002 -0.041361131 9.2029674e-39 307 275
-0.01413888 0.67199999 -0.041238401 9.1111347e-39 308 275
-0.012960639 0.67199999 -0.041238401 8.834908e-39 309 275
-0.011764866 0.671 -0.041177034 8.5569072e-39 310 275
-0.01058838 0.671 -0.041177034 1.1046189e-38 311 275
-0.0094118929 0.671 -0.041177034 1.0139742e-38 312 275
-0.0082231332 0.67000002 -0.041115668 1.2905613e-38 313 275
-0.0070483997 0.67000002 -0.041115668 1.0334956e-38 314 275
-0.0058736666 0.67000002 -0.041115668 1.0334956e-38 315 275
-0.0046989331 0.67000002 -0.041115668 1.0242407e-38 316 275
-0.0035241998 0.67000002 -0.041115668 1.0334603e-38 317 275
-0.0023494666 0.67000002 -0.041115668 1.0242407e-38 318 275
-0.0011712266 0.66799998 -0.040992931 1.0334603e-38 319 275
0 0.66799998 -0.040992931 1.0242407e-38 320 275
0.0011712266 0.66799998 -0.040992931 1.0242407e-38 321 275
0.0023424532 0.66799998 -0.040992931 1.0793057e-38 322 275
0.0035136798 0.66799998 -0.040992931 9.4101228e-39 323 275
0.0046778931 0.667 -0.040931564 8.4816602e-39 324 275
0.0058473665 0.667 -0.040931564 5.6239558e-39 325 275
0.0070168395 0.667 -0.040931564 8.2835643e-39 326 275
0.0081863133 0.667 -0.040931564 8.2835643e-39 327 275
0.0093557863 0.667 -0.040931564 8.2835517e-39 328 275
0.010525259 0.667 -0.040931564 8.1909959e-39 329 275
0.011694733 0.667 -0.040931564 8.3746669e-39 330 275
0.012864206 0.667 -0.040931564 8.3746669e-39 331 275
0.014033679 0.667 -0.040931564 8.373948e-39 332 275
0.015203152 0.667 -0.040931564 8.2813937e-39 333 275
0.016372627 0.667 -0.040931564 8.4650591e-39 334 275
0.0175421 0.667 -0.040931564 8.3728634e-39 335 275
0.018739626 0.66799998 -0.040992931 8.2821027e-39 336 275
0.019910853 0.66799998 -0.040992931 8.2821027e-39 337 275
0.021082079 0.66799998 -0.040992931 8.0066018e-39 338 275
0.022253305 0.66799998 -0.040992931 8.0066018e-39 339 275
0.023424532 0.66799998 -0.040992931 7.8243644e-39 340 275
0.02459576 0.66799998 -0.040992931 8.008757e-39 341 275
0.025844134 0.67000002 -0.041115668 8.1917022e-39 342 275
0.027018867 0.67000002 -0.041115668 8.1917022e-39 343 275
0.028193599 0.67000002 -0.041115668 8.2828188e-39 344 275
0.029412165 0.671 -0.041177034 8.1906232e-39 345 275
0.030588651 0.671 -0.041177034 8.1895512e-39 346 275
0.031812478 0.67199999 -0.041238401 8.1895512e-39 347 275
0.03299072 0.67199999 -0.041238401 8.0058886e-39 348 275
0.034168959 0.67199999 -0.041238401 8.2821153e-39 349 275
0.035452399 0.67400002 -0.041361131 8.3764662e-39 350 275
0.036634147 0.67400002 -0.041361131 8.8370856e-39 351 275
0.037871998 0.67500001 -0.041422497 9.2980497e-39 352 275
0.039113361 0.676 -0.041483864 1.3446853e-38 353 275
0.040298611 0.676 -0.041483864 1.4929556e-38 354 275
-0.055861197 0.708 -0.044688959 1.3086368e-38 275 276
-0.054619838 0.708 -0.044688959 1.225155e-38 276 276
-0.053227689 0.70599997 -0.044562716 1.1421789e-38 277 276
-0.051768921 0.70300001 -0.04437336 1.1696565e-38 278 276
-0.050392549 0.70099998 -0.044247117 1.1419618e-38 279 276
-0.049093332 0.69999999 -0.044183996 1.1234505e-38 280 276
-0.047729239 0.69800001 -0.04405776 1.0773527e-38 281 276
-0.046438783 0.69700003 -0.043994639 1.104724e-38 282 276
-0.045151837 0.69599998 -0.043931518 1.0771013e-38 283 276
-0.043805279 0.69400001 -0.043805279 1.0585902e-38 284 276
-0.042588469 0.69400001 -0.043805279 1.0493706e-38 285 276
-0.041312039 0.69300002 -0.043742158 1.0492274e-38 286 276
-0.039981257 0.69099998 -0.043615919 1.0307883e-38 287 276
-0.038713597 0.69 -0.043552797 1.0123492e-38 288 276
-0.037395094 0.68800002 -0.043426562 1.0031296e-38 289 276
-0.036136195 0.68699998 -0.043363437 9.9390975e-39 290 276
-0.034931656 0.68699998 -0.043363437 9.8469019e-39 291 276
-0.033678025 0.68599999 -0.043300316 9.6628694e-39 292 276
-0.032380559 0.68400002 -0.043174081 9.4784781e-39 293 276
-0.031090107 0.68199998 -0.043047838 9.6617904e-39 294 276
-0.029806666 0.68000001 -0.042921599 9.6617904e-39 295 276
-0.028572321 0.67900002 -0.042858478 9.6614344e-39 296 276
-0.027381808 0.67900002 -0.042858478 9.5692388e-39 297 276
-0.026191294 0.67900002 -0.042858478 9.5692388e-39 298 276
-0.024890319 0.676 -0.042669121 9.5692388e-39 299 276
-0.023705067 0.676 -0.042669121 9.5692388e-39 300 276
-0.022486499 0.67500001 -0.042606 9.5692388e-39 301 276
-0.021303 0.67500001 -0.042606 9.5692388e-39 302 276
-0.020119499 0.67500001 -0.042606 9.5692388e-39 303 276
-0.018935999 0.67500001 -0.042606 9.3859265e-39 304 276
-0.0177525 0.67500001 -0.042606 9.3859265e-39 305 276
-0.016544454 0.67400002 -0.042542879 9.2026143e-39 306 276
-0.015362706 0.67400002 -0.042542879 9.2026143e-39 307 276
-0.01418096 0.67400002 -0.042542879 9.1111375e-39 308 276
-0.012960639 0.67199999 -0.042416636 8.834552e-39 309 276
-0.011782399 0.67199999 -0.042416636 8.373239e-39 310 276
-0.010604159 0.67199999 -0.042416636 1.1323499e-38 311 276
-0.0094118929 0.671 -0.042353518 1.0233384e-38 312 276
-0.0082354061 0.671 -0.042353518 1.2538275e-38 313 276
-0.0070589199 0.671 -0.042353518 1.0427152e-38 314 276
-0.0058736666 0.67000002 -0.042290401 1.0334956e-38 315 276
-0.0046989331 0.67000002 -0.042290401 1.0335322e-38 316 276
-0.0035241998 0.67000002 -0.042290401 1.0151291e-38 317 276
-0.0023494666 0.67000002 -0.042290401 1.0334603e-38 318 276
-0.0011747333 0.67000002 -0.042290401 1.0334603e-38 319 276
0 0.67000002 -0.042290401 1.0242407e-38 320 276
0.0011747333 0.67000002 -0.042290401 1.0334603e-38 321 276
0.0023494666 0.67000002 -0.042290401 1.0794489e-38 322 276
0.0035136798 0.66799998 -0.042164158 9.0424122e-39 323 276
0.0046849065 0.66799998 -0.042164158 8.2021867e-39 324 276
0.0058473665 0.667 -0.042101037 6.0820473e-39 325 276
0.0070168395 0.667 -0.042101037 8.6509049e-39 326 276
0.0081985854 0.66799998 -0.042164158 8.5587092e-39 327 276
0.0093557863 0.667 -0.042101037 8.4668639e-39 328 276
0.010525259 0.667 -0.042101037 8.3746669e-39 329 276
0.011694733 0.667 -0.042101037 8.3746641e-39 330 276
0.012864206 0.667 -0.042101037 8.2824685e-39 331 276
0.014033679 0.667 -0.042101037 8.3739424e-39 332 276
0.015203152 0.667 -0.042101037 8.2817468e-39 333 276
0.016372627 0.667 -0.042101037 8.465415e-39 334 276
0.017568398 0.66799998 -0.042164158 8.465415e-39 335 276
0.018739626 0.66799998 -0.042164158 8.2821027e-39 336 276
0.019910853 0.66799998 -0.042164158 8.2821027e-39 337 276
0.021082079 0.66799998 -0.042164158 8.19027e-39 338 276
0.022253305 0.66799998 -0.042164158 8.19027e-39 339 276
0.023424532 0.66799998 -0.042164158 8.0073207e-39 340 276
0.02459576 0.66799998 -0.042164158 8.0998751e-39 341 276
0.025844134 0.67000002 -0.042290401 8.1920693e-39 342 276
0.027018867 0.67000002 -0.042290401 8.1920693e-39 343 276
0.028193599 0.67000002 -0.042290401 8.191705e-39 344 276
0.029412165 0.671 -0.042353518 8.006955e-39 345 276
0.030588651 0.671 -0.042353518 8.1902672e-39 346 276
0.031812478 0.67199999 -0.042416636 8.0062361e-39 347 276
0.03299072 0.67199999 -0.042416636 8.189198e-39 348 276
0.034168959 0.67199999 -0.042416636 8.2813937e-39 349 276
0.035452399 0.67400002 -0.042542879 8.3764634e-39 350 276
0.036634147 0.67400002 -0.042542879 8.8374415e-39 351 276
0.037871998 0.67500001 -0.042606 9.3906139e-39 352 276
0.039055496 0.67500001 -0.042606 1.5014549e-38 353 276
-0.054619838 0.708 -0.045930319 1.3081677e-38 276 277
-0.053303085 0.70700002 -0.045865446 1.1422515e-38 277 277
-0.051768921 0.70300001 -0.04560595 1.1696928e-38 278 277
-0.050536323 0.70300001 -0.04560595 1.1328506e-38 279 277
-0.049163464 0.70099998 -0.045476202 1.1326704e-38 280 277
-0.047865998 0.69999999 -0.04541133 1.1049758e-38 281 277
-0.046438783 0.69700003 -0.045216713 1.1048319e-38 282 277
-0.045151837 0.69599998 -0.045151837 1.0771732e-38 283 277
-0.043931518 0.69599998 -0.045151837 1.0862129e-38 284 277
-0.042588469 0.69400001 -0.045022093 1.0585902e-38 285 277
-0.041312039 0.69300002 -0.044957221 1.0675949e-38 286 277
-0.039981257 0.69099998 -0.044827472 1.0491198e-38 287 277
-0.038713597 0.69 -0.0447626 1.0399005e-38 288 277
-0.037395094 0.68800002 -0.044632856 1.0306809e-38 289 277
-0.0361888 0.68800002 -0.044632856 9.8476278e-39 290 277
-0.034931656 0.68699998 -0.044567976 9.7554321e-39 291 277
-0.033727121 0.68699998 -0.044567976 9.8469019e-39 292 277
-0.032475237 0.68599999 -0.044503104 9.6628694e-39 293 277
-0.03118128 0.68400002 -0.04437336 9.753986e-39 294 277
-0.029894331 0.68199998 -0.044243611 9.753986e-39 295 277
-0.028614398 0.68000001 -0.044113863 9.7536301e-39 296 277
-0.027422134 0.68000001 -0.044113863 9.7536301e-39 297 277
-0.026191294 0.67900002 -0.044048995 9.4781222e-39 298 277
-0.024963958 0.67799997 -0.043984115 9.5703178e-39 299 277
-0.023705067 0.676 -0.043854371 9.6614344e-39 300 277
-0.022519812 0.676 -0.043854371 9.6614344e-39 301 277
-0.021334561 0.676 -0.043854371 9.4781222e-39 302 277
-0.020149305 0.676 -0.043854371 9.4781222e-39 303 277
-0.018964052 0.676 -0.043854371 9.4781222e-39 304 277
-0.0177525 0.67500001 -0.043789499 9.4781222e-39 305 277
-0.016569 0.67500001 -0.043789499 9.2029772e-39 306 277
-0.015362706 0.67400002 -0.043724626 9.1107816e-39 307 277
-0.01418096 0.67400002 -0.043724626 9.20298e-39 308 277
-0.012999214 0.67400002 -0.043724626 9.0185888e-39 309 277
-0.011782399 0.67199999 -0.043594878 8.7409495e-39 310 277
-0.010604159 0.67199999 -0.043594878 1.1783404e-38 311 277
-0.0094118929 0.671 -0.043530006 1.0694728e-38 312 277
-0.0082354061 0.671 -0.043530006 1.2262413e-38 313 277
-0.0070589199 0.671 -0.043530006 1.0335319e-38 314 277
-0.0058824331 0.671 -0.043530006 1.0151288e-38 315 277
-0.0046989331 0.67000002 -0.043465134 1.0335319e-38 316 277
-0.0035241998 0.67000002 -0.043465134 1.0151288e-38 317 277
-0.0023494666 0.67000002 -0.043465134 1.03346e-38 318 277
-0.0011747333 0.67000002 -0.043465134 1.03346e-38 319 277
0 0.67000002 -0.043465134 9.9676153e-39 320 277
0.0011747333 0.67000002 -0.043465134 1.0059811e-38 321 277
0.0023494666 0.67000002 -0.043465134 1.0978158e-38 322 277
0.0035241998 0.67000002 -0.043465134 8.8572993e-39 323 277
0.0046849065 0.66799998 -0.043335386 8.1067484e-39 324 277
0.0058561331 0.66799998 -0.043335386 6.723814e-39 325 277
0.0070273597 0.66799998 -0.043335386 8.7423718e-39 326 277
0.0081985854 0.66799998 -0.043335386 8.7423718e-39 327 277
0.0093698129 0.66799998 -0.043335386 8.4668611e-39 328 277
0.010525259 0.667 -0.04327051 8.4668611e-39 329 277
0.011694733 0.667 -0.04327051 8.4668611e-39 330 277
0.012864206 0.667 -0.04327051 8.3746641e-39 331 277
0.014033679 0.667 -0.04327051 8.4661409e-39 332 277
0.015203152 0.667 -0.04327051 8.2817496e-39 333 277
0.016372627 0.667 -0.04327051 8.4650591e-39 334 277
0.017568398 0.66799998 -0.043335386 8.4650591e-39 335 277
0.018739626 0.66799998 -0.043335386 8.2817468e-39 336 277
0.019910853 0.66799998 -0.043335386 8.1895512e-39 337 277
0.021082079 0.66799998 -0.043335386 8.1902728e-39 338 277
0.022253305 0.66799998 -0.043335386 8.1902728e-39 339 277
0.023494666 0.67000002 -0.043465134 8.0073235e-39 340 277
0.024669399 0.67000002 -0.043465134 8.0073235e-39 341 277
0.025844134 0.67000002 -0.043465134 8.0995191e-39 342 277
0.027059194 0.671 -0.043530006 8.0995191e-39 343 277
0.028235679 0.671 -0.043530006 8.3739424e-39 344 277
0.029412165 0.671 -0.043530006 8.3739424e-39 345 277
0.030588651 0.671 -0.043530006 8.0991534e-39 346 277
0.031812478 0.67199999 -0.043594878 8.0069578e-39 347 277
0.03299072 0.67199999 -0.043594878 8.1902728e-39 348 277
0.034270655 0.67400002 -0.043724626 8.4668611e-39 349 277
0.035452399 0.67400002 -0.043724626 8.3771794e-39 350 277
0.036634147 0.67400002 -0.043724626 9.2994945e-39 351 277
0.037871998 0.67500001 -0.043789499 9.7619187e-39 352 277
0.039055496 0.67500001 -0.043789499 1.5754635e-38 353 277
-0.051768921 0.70300001 -0.046838548 1.1604026e-38 278 278
-0.050536323 0.70300001 -0.046838548 1.1511831e-38 279 278
-0.049303733 0.70300001 -0.046838548 1.1326354e-38 280 278
-0.047934376 0.70099998 -0.046705291 1.1141604e-38 281 278
-0.046505414 0.69800001 -0.046505414 1.1048319e-38 282 278
-0.045216713 0.69700003 -0.046438783 1.0863928e-38 283 278
-0.043931518 0.69599998 -0.046372157 1.0953608e-38 284 278
-0.042588469 0.69400001 -0.046238903 1.0768858e-38 285 278
-0.041312039 0.69300002 -0.04617228 1.0859262e-38 286 278
-0.039981257 0.69099998 -0.046039023 1.0767066e-38 287 278
-0.038769703 0.69099998 -0.046039023 1.0491201e-38 288 278
-0.037503798 0.69 -0.045972396 1.0399005e-38 289 278
-0.036293998 0.69 -0.045972396 1.0214255e-38 290 278
-0.03498251 0.68800002 -0.045839146 1.0030224e-38 291 278
-0.033727121 0.68699998 -0.045772515 9.7557881e-39 292 278
-0.032522578 0.68699998 -0.045772515 9.6632337e-39 293 278
-0.031272452 0.68599999 -0.045705888 9.8469019e-39 294 278
-0.029982001 0.68400002 -0.045572639 9.6628694e-39 295 278
-0.028614398 0.68000001 -0.045306131 9.6628694e-39 296 278
-0.027422134 0.68000001 -0.045306131 9.5706737e-39 297 278
-0.026229866 0.68000001 -0.045306131 9.478841e-39 298 278
-0.025000781 0.67900002 -0.045239504 9.478841e-39 299 278
-0.023705067 0.676 -0.045039624 9.478841e-39 300 278
-0.022519812 0.676 -0.045039624 9.478841e-39 301 278
-0.021334561 0.676 -0.045039624 9.5706737e-39 302 278
-0.020149305 0.676 -0.045039624 9.5706737e-39 303 278
-0.018964052 0.676 -0.045039624 9.3866426e-39 304 278
-0.017778801 0.676 -0.045039624 9.479197e-39 305 278
-0.016569 0.67500001 -0.044972997 9.2033331e-39 306 278
-0.0153855 0.67500001 -0.044972997 9.2033331e-39 307 278
-0.014202001 0.67500001 -0.044972997 9.20298e-39 308 278
-0.012999214 0.67400002 -0.044906374 9.0185888e-39 309 278
-0.011782399 0.67199999 -0.044773117 8.6494755e-39 310 278
-0.010604159 0.67199999 -0.044773117 1.1691931e-38 311 278
-0.0094259195 0.67199999 -0.044773117 1.0695807e-38 312 278
-0.0082354061 0.671 -0.044706494 1.2078742e-38 313 278
-0.0070589199 0.671 -0.044706494 1.0059089e-38 314 278
-0.0058824331 0.671 -0.044706494 1.0151285e-38 315 278
-0.0047059464 0.671 -0.044706494 1.03346e-38 316 278
-0.0035294599 0.671 -0.044706494 1.03346e-38 317 278
-0.0023529732 0.671 -0.044706494 1.0334956e-38 318 278
-0.0011764866 0.671 -0.044706494 1.0334956e-38 319 278
0 0.671 -0.044706494 1.0334956e-38 320 278
0.0011764866 0.671 -0.044706494 1.0334956e-38 321 278
0.0023529732 0.671 -0.044706494 1.0978158e-38 322 278
0.0035294599 0.671 -0.044706494 8.5810726e-39 323 278
0.0046989331 0.67000002 -0.044639867 7.8287196e-39 324 278
0.0058736666 0.67000002 -0.044639867 6.9067633e-39 325 278
0.0070483997 0.67000002 -0.044639867 8.9271162e-39 326 278
0.0082231332 0.67000002 -0.044639867 8.7427249e-39 327 278
0.0093698129 0.66799998 -0.044506609 8.7427249e-39 328 278
0.01054104 0.66799998 -0.044506609 8.6505293e-39 329 278
0.011712266 0.66799998 -0.044506609 8.4672171e-39 330 278
0.012883492 0.66799998 -0.044506609 8.3746613e-39 331 278
0.014033679 0.667 -0.044439986 8.5576134e-39 332 278
0.015203152 0.667 -0.044439986 8.4650591e-39 333 278
0.016372627 0.667 -0.044439986 8.5568945e-39 334 278
0.017568398 0.66799998 -0.044506609 8.4643402e-39 335 278
0.018739626 0.66799998 -0.044506609 8.4650619e-39 336 278
0.019970467 0.67000002 -0.044639867 8.4650619e-39 337 278
0.0211452 0.67000002 -0.044639867 8.1902728e-39 338 278
0.022319933 0.67000002 -0.044639867 8.1902728e-39 339 278
0.023494666 0.67000002 -0.044639867 8.0066046e-39 340 278
0.024669399 0.67000002 -0.044639867 8.0988003e-39 341 278
0.025844134 0.67000002 -0.044639867 8.0995219e-39 342 278
0.027018867 0.67000002 -0.044639867 8.0995219e-39 343 278
0.028235679 0.671 -0.044706494 8.3746669e-39 344 278
0.029412165 0.671 -0.044706494 8.3746669e-39 345 278
0.030588651 0.671 -0.044706494 8.19027e-39 346 278
0.031812478 0.67199999 -0.044773117 8.19027e-39 347 278
0.03299072 0.67199999 -0.044773117 8.283902e-39 348 278
0.034270655 0.67400002 -0.044906374 8.5601287e-39 349 278
0.035452399 0.67400002 -0.044906374 8.7448759e-39 350 278
0.036634147 0.67400002 -0.044906374 1.012781e-38 351 278
0.037928104 0.676 -0.045039624 1.0960461e-38 352 278
0.039113361 0.676 -0.045039624 1.6953178e-38 353 278
-0.051768921 0.70300001 -0.048071139 1.178807e-38 278 279
-0.050536323 0.70300001 -0.048071139 1.1234898e-38 279 279
-0.049303733 0.70300001 -0.048071139 1.1144126e-38 280 279
-0.048071139 0.70300001 -0.048071139 1.0683149e-38 281 279
-0.046638668 0.69999999 -0.047865998 1.1140888e-38 282 279
-0.045281585 0.69800001 -0.047729239 1.0864299e-38 283 279
-0.043994639 0.69700003 -0.047660861 1.0953978e-38 284 279
-0.042711195 0.69599998 -0.047592476 1.0769227e-38 285 279
-0.041371655 0.69400001 -0.047455717 1.0585196e-38 286 279
-0.04009698 0.69300002 -0.047387339 1.0493e-38 287 279
-0.038769703 0.69099998 -0.047250576 1.0308609e-38 288 279
-0.03755815 0.69099998 -0.047250576 1.0216053e-38 289 279
-0.036293998 0.69 -0.047182199 1.0216053e-38 290 279
-0.03498251 0.68800002 -0.047045439 1.0123857e-38 291 279
-0.033727121 0.68699998 -0.046977058 9.756151e-39 292 279
-0.032522578 0.68699998 -0.046977058 9.6639554e-39 293 279
-0.031272452 0.68599999 -0.046908677 9.7557881e-39 294 279
-0.030069664 0.68599999 -0.046908677 9.6632337e-39 295 279
-0.02878272 0.68400002 -0.046771921 9.4799242e-39 296 279
-0.027502786 0.68199998 -0.046635158 9.2955316e-39 297 279
-0.026307013 0.68199998 -0.046635158 9.2951757e-39 298 279
-0.025000781 0.67900002 -0.046430022 9.3873713e-39 299 279
-0.023775198 0.67799997 -0.046361636 9.4788438e-39 300 279
-0.022586439 0.67799997 -0.046361636 9.4788438e-39 301 279
-0.021397678 0.67799997 -0.046361636 9.2955316e-39 302 279
-0.020149305 0.676 -0.046224877 9.2955316e-39 303 279
-0.018964052 0.676 -0.046224877 9.2951757e-39 304 279
-0.017778801 0.676 -0.046224877 9.2951757e-39 305 279
-0.016593546 0.676 -0.046224877 9.20298e-39 306 279
-0.0153855 0.67500001 -0.0461565 9.2951757e-39 307 279
-0.014202001 0.67500001 -0.0461565 9.0203866e-39 308 279
-0.012999214 0.67400002 -0.046088122 8.6516055e-39 309 279
-0.011782399 0.67199999 -0.045951359 8.6494755e-39 310 279
-0.010604159 0.67199999 -0.045951359 1.1691931e-38 311 279
-0.0094259195 0.67199999 -0.045951359 1.0971318e-38 312 279
-0.00824768 0.67199999 -0.045951359 1.2354254e-38 313 279
-0.0070589199 0.671 -0.045882981 1.0151288e-38 314 279
-0.0058824331 0.671 -0.045882981 1.0151288e-38 315 279
-0.0047059464 0.671 -0.045882981 1.0610467e-38 316 279
-0.0035294599 0.671 -0.045882981 1.0610467e-38 317 279
-0.0023529732 0.671 -0.045882981 1.03346e-38 318 279
-0.0011764866 0.671 -0.045882981 1.03346e-38 319 279
0 0.671 -0.045882981 1.0517912e-38 320 279
0.0011764866 0.671 -0.045882981 1.0517912e-38 321 279
0.0023529732 0.671 -0.045882981 1.0978876e-38 322 279
0.0035294599 0.671 -0.045882981 8.0286176e-39 323 279
0.0047059464 0.671 -0.045882981 7.5514097e-39 324 279
0.0058824331 0.671 -0.045882981 7.3670184e-39 325 279
0.0070589199 0.671 -0.045882981 8.5594127e-39 326 279
0.0082231332 0.67000002 -0.0458146 8.6516083e-39 327 279
0.0093978662 0.67000002 -0.0458146 8.7427221e-39 328 279
0.0105726 0.67000002 -0.0458146 8.7427221e-39 329 279
0.011712266 0.66799998 -0.045677837 8.3746613e-39 330 279
0.012883492 0.66799998 -0.045677837 8.4672171e-39 331 279
0.014054719 0.66799998 -0.045677837 8.3746641e-39 332 279
0.015225946 0.66799998 -0.045677837 8.2824685e-39 333 279
0.016397171 0.66799998 -0.045677837 8.5572575e-39 334 279
0.017568398 0.66799998 -0.045677837 8.5572575e-39 335 279
0.018739626 0.66799998 -0.045677837 8.2817496e-39 336 279
0.019970467 0.67000002 -0.0458146 8.2817496e-39 337 279
0.0211452 0.67000002 -0.0458146 8.2824685e-39 338 279
0.022319933 0.67000002 -0.0458146 8.2824685e-39 339 279
0.023494666 0.67000002 -0.0458146 8.0988003e-39 340 279
0.024669399 0.67000002 -0.0458146 8.0988003e-39 341 279
0.025844134 0.67000002 -0.0458146 8.2831957e-39 342 279
0.027018867 0.67000002 -0.0458146 8.1909987e-39 343 279
0.028235679 0.671 -0.045882981 8.3746669e-39 344 279
0.029412165 0.671 -0.045882981 8.2821125e-39 345 279
0.030588651 0.671 -0.045882981 8.1895512e-39 346 279
0.031812478 0.67199999 -0.045951359 8.2817468e-39 347 279
0.03299072 0.67199999 -0.045951359 8.3768165e-39 348 279
0.034270655 0.67400002 -0.046088122 8.7452389e-39 349 279
0.035452399 0.67400002 -0.046088122 8.8367184e-39 350 279
0.036688499 0.67500001 -0.0461565 1.0772827e-38 351 279
0.037928104 0.676 -0.046224877 1.2528875e-38 352 279
0.039229076 0.67799997 -0.046361636 1.7599995e-38 353 279
-0.050608214 0.704 -0.049373865 1.0318708e-38 279 280
-0.049303733 0.70300001 -0.049303733 1.1418196e-38 280 280
-0.048071139 0.70300001 -0.049303733 1.1141609e-38 281 280
-0.046705291 0.70099998 -0.049163464 1.1232e-38 282 280
-0.045476202 0.70099998 -0.049163464 1.0955773e-38 283 280
-0.04405776 0.69800001 -0.048953064 1.1137641e-38 284 280
-0.042772565 0.69700003 -0.048882935 1.0953608e-38 285 280
-0.041490879 0.69599998 -0.048812799 1.1044725e-38 286 280
-0.04009698 0.69300002 -0.048602402 1.0952529e-38 287 280
-0.03888192 0.69300002 -0.048602402 1.058447e-38 288 280
-0.03755815 0.69099998 -0.04846213 1.0492274e-38 289 280
-0.036346599 0.69099998 -0.04846213 1.0216762e-38 290 280
-0.035084199 0.69 -0.048391998 1.0124208e-38 291 280
-0.033776212 0.68800002 -0.048251733 9.8483368e-39 292 280
-0.032522578 0.68699998 -0.048181597 9.8483368e-39 293 280
-0.031318039 0.68699998 -0.048181597 9.7557853e-39 294 280
-0.030069664 0.68599999 -0.048111461 9.6635896e-39 295 280
-0.02878272 0.68400002 -0.0479712 9.8465488e-39 296 280
-0.027502786 0.68199998 -0.047830928 9.6625162e-39 297 280
-0.026307013 0.68199998 -0.047830928 9.5710367e-39 298 280
-0.025111238 0.68199998 -0.047830928 9.5710367e-39 299 280
-0.023845334 0.68000001 -0.047690667 9.6625162e-39 300 280
-0.022619752 0.67900002 -0.047620531 9.5703206e-39 301 280
-0.021429239 0.67900002 -0.047620531 9.2951757e-39 302 280
-0.020208918 0.67799997 -0.047550395 9.3873713e-39 303 280
-0.019020159 0.67799997 -0.047550395 9.4784879e-39 304 280
-0.0178314 0.67799997 -0.047550395 9.4784879e-39 305 280
-0.016593546 0.676 -0.047410134 9.3877272e-39 306 280
-0.015408293 0.676 -0.047410134 9.2955316e-39 307 280
-0.014202001 0.67500001 -0.047339998 9.3873713e-39 308 280
-0.012999214 0.67400002 -0.047269866 9.1107844e-39 309 280
-0.011817466 0.67400002 -0.047269866 8.7409523e-39 310 280
-0.01063572 0.67400002 -0.047269866 1.1875602e-38 311 280
-0.0094259195 0.67199999 -0.047129598 1.0971671e-38 312 280
-0.00824768 0.67199999 -0.047129598 1.2354607e-38 313 280
-0.0070694401 0.67199999 -0.047129598 1.0517549e-38 314 280
-0.0058824331 0.671 -0.047059465 1.0701941e-38 315 280
-0.0047059464 0.671 -0.047059465 1.0701943e-38 316 280
-0.0035294599 0.671 -0.047059465 1.0701943e-38 317 280
-0.0023529732 0.671 -0.047059465 1.0609748e-38 318 280
-0.0011764866 0.671 -0.047059465 1.0609748e-38 319 280
0 0.671 -0.047059465 1.0609745e-38 320 280
0.0011764866 0.671 -0.047059465 1.0701941e-38 321 280
0.0023529732 0.671 -0.047059465 1.1345493e-38 322 280
0.0035294599 0.671 -0.047059465 8.0264498e-39 323 280
0.0047059464 0.671 -0.047059465 7.5496146e-39 324 280
0.0058824331 0.671 -0.047059465 7.7340058e-39 325 280
0.0070589199 0.671 -0.047059465 9.0178825e-39 326 280
0.0082354061 0.671 -0.047059465 8.8338514e-39 327 280
0.0093978662 0.67000002 -0.046989333 8.7430781e-39 328 280
0.0105726 0.67000002 -0.046989333 8.650881e-39 329 280
0.011747333 0.67000002 -0.046989333 8.46721e-39 330 280
0.012922067 0.67000002 -0.046989333 8.46721e-39 331 280
0.014096799 0.67000002 -0.046989333 8.4664912e-39 332 280
0.015271533 0.67000002 -0.046989333 8.4664912e-39 333 280
0.016446266 0.67000002 -0.046989333 8.466494e-39 334 280
0.017620999 0.67000002 -0.046989333 8.3742984e-39 335 280
0.018823786 0.671 -0.047059465 8.2817468e-39 336 280
0.020000271 0.671 -0.047059465 8.3739424e-39 337 280
0.0211452 0.67000002 -0.046989333 8.2821125e-39 338 280
0.022319933 0.67000002 -0.046989333 8.2821125e-39 339 280
0.023494666 0.67000002 -0.046989333 8.0988031e-39 340 280
0.024669399 0.67000002 -0.046989333 8.2831957e-39 341 280
0.025844134 0.67000002 -0.046989333 8.2831957e-39 342 280
0.027059194 0.671 -0.047059465 8.1909987e-39 343 280
0.028235679 0.671 -0.047059465 8.2824685e-39 344 280
0.029412165 0.671 -0.047059465 8.1902728e-39 345 280
0.030634239 0.67199999 -0.047129598 8.4672142e-39 346 280
0.031812478 0.67199999 -0.047129598 8.5594099e-39 347 280
0.03299072 0.67199999 -0.047129598 8.8370744e-39 348 280
0.034270655 0.67400002 -0.047269866 9.1133025e-39 349 280
0.035557602 0.676 -0.047410134 9.389895e-39 350 280
0.036742851 0.676 -0.047410134 1.2524188e-38 351 280
0.038040318 0.67799997 -0.047550395 1.3913612e-38 352 280
0.039229076 0.67799997 -0.047550395 1.7601078e-38 353 280
0.040417835 0.67799997 -0.047550395 1.6317908e-38 354 280
-0.050751984 0.70599997 -0.050751984 1.0966964e-38 279 281
-0.04951413 0.70599997 -0.050751984 1.0774997e-38 280 281
-0.048139516 0.704 -0.050608214 1.0590247e-38 281 281
-0.046838548 0.70300001 -0.050536323 1.1140534e-38 282 281
-0.045476202 0.70099998 -0.050392549 1.0863946e-38 283 281
-0.044183996 0.69999999 -0.050320663 1.1046174e-38 284 281
-0.042833932 0.69800001 -0.050176892 1.1046174e-38 285 281
-0.041490879 0.69599998 -0.050033119 1.0678463e-38 286 281
-0.040154841 0.69400001 -0.049889345 1.0494072e-38 287 281
-0.03888192 0.69300002 -0.049817458 1.0400802e-38 288 281
-0.03755815 0.69099998 -0.049673684 1.0400802e-38 289 281
-0.036346599 0.69099998 -0.049673684 1.0032741e-38 290 281
-0.035084199 0.69 -0.049601797 9.9405451e-39 291 281
-0.033776212 0.68800002 -0.049458027 9.9401793e-39 292 281
-0.032522578 0.68699998 -0.049386136 9.7557881e-39 293 281
-0.031318039 0.68699998 -0.049386136 9.8479837e-39 294 281
-0.030069664 0.68599999 -0.049314249 9.6632337e-39 295 281
-0.02878272 0.68400002 -0.049170479 9.4799242e-39 296 281
-0.027543113 0.68300003 -0.049098592 9.4799242e-39 297 281
-0.026345588 0.68300003 -0.049098592 9.4799242e-39 298 281
-0.025111238 0.68199998 -0.049026705 9.4799242e-39 299 281
-0.023845334 0.68000001 -0.048882935 9.5706835e-39 300 281
-0.022619752 0.67900002 -0.048811045 9.4784879e-39 301 281
-0.021429239 0.67900002 -0.048811045 9.2948225e-39 302 281
-0.020208918 0.67799997 -0.048739154 9.3873783e-39 303 281
-0.019020159 0.67799997 -0.048739154 9.2955456e-39 304 281
-0.0178314 0.67799997 -0.048739154 9.1115131e-39 305 281
-0.016593546 0.676 -0.048595384 9.3873783e-39 306 281
-0.015408293 0.676 -0.048595384 9.2948225e-39 307 281
-0.014223038 0.676 -0.048595384 9.2948225e-39 308 281
-0.0130185 0.67500001 -0.048523501 9.1104313e-39 309 281
-0.011835 0.67500001 -0.048523501 8.8338696e-39 310 281
-0.01063572 0.67400002 -0.048451614 1.1691934e-38 311 281
-0.0094539737 0.67400002 -0.048451614 1.069581e-38 312 281
-0.00824768 0.67199999 -0.04830784 1.2262777e-38 313 281
-0.0070694401 0.67199999 -0.04830784 1.0427152e-38 314 281
-0.0058911997 0.67199999 -0.04830784 1.0427152e-38 315 281
-0.0047129598 0.67199999 -0.04830784 1.0885253e-38 316 281
-0.00353472 0.67199999 -0.04830784 1.0885253e-38 317 281
-0.0023564799 0.67199999 -0.04830784 1.0609745e-38 318 281
-0.0011782399 0.67199999 -0.04830784 1.0609745e-38 319 281
0 0.67199999 -0.04830784 1.0518268e-38 320 281
0.0011782399 0.67199999 -0.04830784 1.0610464e-38 321 281
0.0023564799 0.67199999 -0.04830784 1.1254019e-38 322 281
0.0035294599 0.671 -0.048235953 8.0271715e-39 323 281
0.0047059464 0.671 -0.048235953 8.0095193e-39 324 281
0.0058824331 0.671 -0.048235953 8.193912e-39 325 281
0.0070589199 0.671 -0.048235953 8.8342171e-39 326 281
0.0082354061 0.671 -0.048235953 8.8342171e-39 327 281
0.0093978662 0.67000002 -0.048164066 8.7427221e-39 328 281
0.0105726 0.67000002 -0.048164066 8.7427221e-39 329 281
0.011747333 0.67000002 -0.048164066 8.4679303e-39 330 281
0.012922067 0.67000002 -0.048164066 8.4679303e-39 331 281
0.014096799 0.67000002 -0.048164066 8.4672142e-39 332 281
0.015294326 0.671 -0.048235953 8.3750172e-39 333 281
0.016470812 0.671 -0.048235953 8.3750172e-39 334 281
0.0176473 0.671 -0.048235953 8.3750172e-39 335 281
0.018823786 0.671 -0.048235953 8.3750172e-39 336 281
0.020000271 0.671 -0.048235953 8.2828216e-39 337 281
0.021176759 0.671 -0.048235953 8.2824685e-39 338 281
0.022353247 0.671 -0.048235953 8.2824685e-39 339 281
0.023529733 0.671 -0.048235953 8.1909959e-39 340 281
0.024706218 0.671 -0.048235953 8.2835517e-39 341 281
0.025882706 0.671 -0.048235953 8.1006023e-39 342 281
0.027059194 0.671 -0.048235953 8.0084067e-39 343 281
0.028235679 0.671 -0.048235953 8.1920721e-39 344 281
0.029412165 0.671 -0.048235953 8.1920721e-39 345 281
0.030634239 0.67199999 -0.04830784 8.5597756e-39 346 281
0.031812478 0.67199999 -0.04830784 9.1129494e-39 347 281
0.03299072 0.67199999 -0.04830784 8.931435e-39 348 281
0.034270655 0.67400002 -0.048451614 8.931435e-39 349 281
0.035557602 0.676 -0.048595384 9.5750093e-39 350 281
0.036851559 0.67799997 -0.048739154 1.3723813e-38 351 281
0.038040318 0.67799997 -0.048739154 1.5114316e-38 352 281
0.039229076 0.67799997 -0.048739154 1.7327371e-38 353 281
0.040417835 0.67799997 -0.048739154 1.631791e-38 354 281
-0.04951413 0.70599997 -0.051989835 1.1330333e-38 280 282
-0.048139516 0.704 -0.051842559 1.0408736e-38 281 282
-0.046838548 0.70300001 -0.051768921 1.1048335e-38 282 282
-0.04560595 0.70300001 -0.051768921 1.0863943e-38 283 282
-0.044247117 0.70099998 -0.051621638 1.0954341e-38 284 282
-0.042833932 0.69800001 -0.051400717 1.0678113e-38 285 282
-0.041550495 0.69700003 -0.051327083 1.0769227e-38 286 282
-0.040270556 0.69599998 -0.051253434 1.0585196e-38 287 282
-0.038938027 0.69400001 -0.051106159 1.0584114e-38 288 282
-0.037666857 0.69300002 -0.051032521 1.0491918e-38 289 282
-0.036346599 0.69099998 -0.050885238 1.0216409e-38 290 282
-0.035135046 0.69099998 -0.050885238 1.0216409e-38 291 282
-0.033776212 0.68800002 -0.050664321 1.0123492e-38 292 282
-0.032522578 0.68699998 -0.050590675 1.0123492e-38 293 282
-0.031318039 0.68699998 -0.050590675 1.0031293e-38 294 282
-0.030113498 0.68699998 -0.050590675 9.9390975e-39 295 282
-0.02886688 0.68599999 -0.050517038 9.7557881e-39 296 282
-0.027543113 0.68300003 -0.05029612 9.6632337e-39 297 282
-0.026345588 0.68300003 -0.05029612 9.6632365e-39 298 282
-0.025111238 0.68199998 -0.050222475 9.6632365e-39 299 282
-0.023915464 0.68199998 -0.050222475 9.6632393e-39 300 282
-0.022653066 0.68000001 -0.050075196 9.5706835e-39 301 282
-0.0214608 0.68000001 -0.050075196 9.5706877e-39 302 282
-0.020238725 0.67900002 -0.050001562 9.6628834e-39 303 282
-0.019048214 0.67900002 -0.050001562 9.3873783e-39 304 282
-0.0178314 0.67799997 -0.049927916 9.3873783e-39 305 282
-0.016642639 0.67799997 -0.049927916 9.5706877e-39 306 282
-0.015453878 0.67799997 -0.049927916 9.5706877e-39 307 282
-0.014223038 0.676 -0.049780637 9.5706877e-39 308 282
-0.013037786 0.676 -0.049780637 9.3862951e-39 309 282
-0.011835 0.67500001 -0.049706999 8.9260652e-39 310 282
-0.0106515 0.67500001 -0.049706999 1.1691934e-38 311 282
-0.0094539737 0.67400002 -0.049633358 1.0786571e-38 312 282
-0.0082722269 0.67400002 -0.049633358 1.2262059e-38 313 282
-0.0070904801 0.67400002 -0.049633358 1.0610467e-38 314 282
-0.0058911997 0.67199999 -0.049486078 1.0702662e-38 315 282
-0.0047129598 0.67199999 -0.049486078 1.0977807e-38 316 282
-0.00353472 0.67199999 -0.049486078 1.0885253e-38 317 282
-0.0023564799 0.67199999 -0.049486078 1.0701941e-38 318 282
-0.0011782399 0.67199999 -0.049486078 1.0701941e-38 319 282
0 0.67199999 -0.049486078 1.0518265e-38 320 282
0.0011782399 0.67199999 -0.049486078 1.0610461e-38 321 282
0.0023564799 0.67199999 -0.049486078 1.1161823e-38 322 282
0.00353472 0.67199999 -0.049486078 8.2115642e-39 323 282
0.0047059464 0.671 -0.049412437 7.8265714e-39 324 282
0.0058824331 0.671 -0.049412437 7.918767e-39 325 282
0.0070589199 0.671 -0.049412437 9.109725e-39 326 282
0.0082354061 0.671 -0.049412437 9.0175294e-39 327 282
0.0094118929 0.671 -0.049412437 8.8349234e-39 328 282
0.01058838 0.671 -0.049412437 8.7427277e-39 329 282
0.011747333 0.67000002 -0.049338799 8.5594127e-39 330 282
0.012922067 0.67000002 -0.049338799 8.5594127e-39 331 282
0.01411784 0.671 -0.049412437 8.6505265e-39 332 282
0.015294326 0.671 -0.049412437 8.6505265e-39 333 282
0.016470812 0.671 -0.049412437 8.466494e-39 334 282
0.0176473 0.671 -0.049412437 8.466494e-39 335 282
0.018823786 0.671 -0.049412437 8.3739424e-39 336 282
0.020000271 0.671 -0.049412437 8.2817468e-39 337 282
0.021176759 0.671 -0.049412437 8.3739452e-39 338 282
0.022353247 0.671 -0.049412437 8.4661409e-39 339 282
0.023529733 0.671 -0.049412437 8.2835489e-39 340 282
0.024706218 0.671 -0.049412437 8.46758e-39 341 282
0.025882706 0.671 -0.049412437 8.2842677e-39 342 282
0.027059194 0.671 -0.049412437 8.3764634e-39 343 282
0.028235679 0.671 -0.049412437 8.5597756e-39 344 282
0.029455997 0.67199999 -0.049486078 8.7445256e-39 345 282
0.030634239 0.67199999 -0.049486078 9.0221859e-39 346 282
0.031812478 0.67199999 -0.049486078 9.5753597e-39 347 282
0.033088908 0.67400002 -0.049633358 9.5778764e-39 348 282
0.034321502 0.67500001 -0.049706999 9.1168997e-39 349 282
0.035557602 0.676 -0.049780637 9.3913384e-39 350 282
0.036851559 0.67799997 -0.049927916 1.4646489e-38 351 282
0.038040318 0.67799997 -0.049927916 1.5855482e-38 352 282
0.039229076 0.67799997 -0.049927916 1.6500851e-38 353 282
0.040417835 0.67799997 -0.049927916 1.594985e-38 354 282
-0.048139516 0.704 -0.053076904 1.0688211e-38 281 283
-0.046905171 0.704 -0.053076904 1.0958307e-38 282 283
-0.045670826 0.704 -0.053076904 1.0405133e-38 283 283
-0.04437336 0.70300001 -0.053001512 1.0953988e-38 284 283
-0.042956665 0.69999999 -0.052775331 1.0677761e-38 285 283
-0.041610107 0.69800001 -0.052624546 1.076923e-38 286 283
-0.040328421 0.69700003 -0.052549154 1.0585198e-38 287 283
-0.039050236 0.69599998 -0.052473757 1.0400804e-38 288 283
-0.037721213 0.69400001 -0.052322973 1.0400804e-38 289 283
-0.036451802 0.69300002 -0.05224758 1.0307888e-38 290 283
-0.035135046 0.69099998 -0.052096792 1.0307888e-38 291 283
-0.0338744 0.69 -0.052021399 1.0215693e-38 292 283
-0.032522578 0.68699998 -0.051795214 1.0215693e-38 293 283
-0.031318039 0.68699998 -0.051795214 9.9401793e-39 294 283
-0.030113498 0.68699998 -0.051795214 9.9401793e-39 295 283
-0.02886688 0.68599999 -0.051719822 9.8476278e-39 296 283
-0.027583439 0.68400002 -0.051569041 9.7554321e-39 297 283
-0.026345588 0.68300003 -0.051493648 9.93875e-39 298 283
-0.02514806 0.68300003 -0.051493648 9.8461956e-39 299 283
-0.023915464 0.68199998 -0.051418249 9.755079e-39 300 283
-0.022653066 0.68000001 -0.051267464 9.6628834e-39 301 283
-0.0214608 0.68000001 -0.051267464 9.6632393e-39 302 283
-0.020268533 0.68000001 -0.051267464 9.6632393e-39 303 283
-0.019076265 0.68000001 -0.051267464 9.5706877e-39 304 283
-0.017857701 0.67900002 -0.051192071 9.5706877e-39 305 283
-0.016642639 0.67799997 -0.051116679 9.4795711e-39 306 283
-0.015453878 0.67799997 -0.051116679 9.4795711e-39 307 283
-0.014265119 0.67799997 -0.051116679 9.5706877e-39 308 283
-0.013037786 0.676 -0.050965894 9.3862951e-39 309 283
-0.011852534 0.676 -0.050965894 9.0182581e-39 310 283
-0.01066728 0.676 -0.050965894 1.150754e-38 311 283
-0.0094679995 0.67500001 -0.050890498 1.0326304e-38 312 283
-0.0082844999 0.67500001 -0.050890498 1.2262413e-38 313 283
-0.0070904801 0.67400002 -0.050815105 1.0795211e-38 314 283
-0.0059087332 0.67400002 -0.050815105 1.0703015e-38 315 283
-0.0047269869 0.67400002 -0.050815105 1.0794136e-38 316 283
-0.00354524 0.67400002 -0.050815105 1.0794136e-38 317 283
-0.0023634934 0.67400002 -0.050815105 1.0701941e-38 318 283
-0.0011817467 0.67400002 -0.050815105 1.0701941e-38 319 283
0 0.67199999 -0.050664317 1.0610464e-38 320 283
0.0011782399 0.67199999 -0.050664317 1.0702659e-38 321 283
0.0023564799 0.67199999 -0.050664317 1.1162901e-38 322 283
0.00353472 0.67199999 -0.050664317 8.212639e-39 323 283
0.0047129598 0.67199999 -0.050664317 7.6432564e-39 324 283
0.0058824331 0.671 -0.050588924 7.8272875e-39 325 283
0.0070589199 0.671 -0.050588924 9.2019234e-39 326 283
0.0082354061 0.671 -0.050588924 9.1097278e-39 327 283
0.0094118929 0.671 -0.050588924 8.8349234e-39 328 283
0.01058838 0.671 -0.050588924 8.8349234e-39 329 283
0.011764866 0.671 -0.050588924 8.6512524e-39 330 283
0.012941353 0.671 -0.050588924 8.5590568e-39 331 283
0.01411784 0.671 -0.050588924 8.7427277e-39 332 283
0.015294326 0.671 -0.050588924 8.7427277e-39 333 283
0.016470812 0.671 -0.050588924 8.6505293e-39 334 283
0.0176473 0.671 -0.050588924 8.6505293e-39 335 283
0.018823786 0.671 -0.050588924 8.6505265e-39 336 283
0.020000271 0.671 -0.050588924 8.466494e-39 337 283
0.021176759 0.671 -0.050588924 8.4672142e-39 338 283
0.022353247 0.671 -0.050588924 8.5594099e-39 339 283
0.023564799 0.67199999 -0.050664317 8.5601315e-39 340 283
0.024743039 0.67199999 -0.050664317 8.5601315e-39 341 283
0.025921278 0.67199999 -0.050664317 8.6519712e-39 342 283
0.027099518 0.67199999 -0.050664317 8.7445256e-39 343 283
0.02827776 0.67199999 -0.050664317 8.8363681e-39 344 283
0.029455997 0.67199999 -0.050664317 9.2051506e-39 345 283
0.030634239 0.67199999 -0.050664317 9.3002175e-39 346 283
0.03190716 0.67400002 -0.050815105 9.9455869e-39 347 283
0.033088908 0.67400002 -0.050815105 9.7637166e-39 348 283
0.034372345 0.676 -0.050965894 9.3945754e-39 349 283
0.035557602 0.676 -0.050965894 9.8566479e-39 350 283
0.036851559 0.67799997 -0.051116679 1.5111799e-38 351 283
0.038040318 0.67799997 -0.051116679 1.6501223e-38 352 283
0.039229076 0.67799997 -0.051116679 1.6040245e-38 353 283
0.040417835 0.67799997 -0.051116679 1.5673626e-38 354 283
-0.046905171 0.704 -0.054311249 1.1054105e-38 282 284
-0.04560595 0.70300001 -0.054234106 1.0039594e-38 283 284
-0.04437336 0.70300001 -0.054234106 1.0678477e-38 284 284
-0.042956665 0.69999999 -0.054002665 1.0678477e-38 285 284
-0.041610107 0.69800001 -0.053848371 1.0493366e-38 286 284
-0.040328421 0.69700003 -0.053771228 1.0493366e-38 287 284
-0.039050236 0.69599998 -0.053694077 1.0308972e-38 288 284
-0.037721213 0.69400001 -0.053539783 1.0124941e-38 289 284
-0.036504399 0.69400001 -0.053539783 1.0216053e-38 290 284
-0.035236739 0.69300002 -0.053462639 1.0123857e-38 291 284
-0.033923492 0.69099998 -0.053308345 1.0215687e-38 292 284
-0.032569919 0.68800002 -0.053076908 1.0215687e-38 293 284
-0.031318039 0.68699998 -0.052999757 9.8487026e-39 294 284
-0.030113498 0.68699998 -0.052999757 9.8487026e-39 295 284
-0.028908957 0.68699998 -0.052999757 9.8483494e-39 296 284
-0.027583439 0.68400002 -0.05276832 9.7561538e-39 297 284
-0.026345588 0.68300003 -0.052691177 9.9383941e-39 298 284
-0.02514806 0.68300003 -0.052691177 9.9383941e-39 299 284
-0.023915464 0.68199998 -0.052614026 9.8461956e-39 300 284
-0.022719691 0.68199998 -0.052614026 9.8461956e-39 301 284
-0.021523919 0.68199998 -0.052614026 9.8458285e-39 302 284
-0.020328145 0.68199998 -0.052614026 9.9380255e-39 303 284
-0.019076265 0.68000001 -0.052459732 9.5706877e-39 304 284
-0.017883999 0.68000001 -0.052459732 9.5706877e-39 305 284
-0.016667187 0.67900002 -0.052382588 9.4795739e-39 306 284
-0.015476674 0.67900002 -0.052382588 9.3873783e-39 307 284
-0.014265119 0.67799997 -0.052305438 9.6621645e-39 308 284
-0.013076359 0.67799997 -0.052305438 9.5699675e-39 309 284
-0.011887599 0.67799997 -0.052305438 9.1104537e-39 310 284
-0.01066728 0.676 -0.052151144 1.1046562e-38 311 284
-0.0094820261 0.676 -0.052151144 1.0232305e-38 312 284
-0.0082844999 0.67500001 -0.052074 1.2813783e-38 313 284
-0.0071010003 0.67500001 -0.052074 1.097852e-38 314 284
-0.0059174998 0.67500001 -0.052074 1.0702294e-38 315 284
-0.0047339997 0.67500001 -0.052074 1.0977086e-38 316 284
-0.0035505001 0.67500001 -0.052074 1.0977086e-38 317 284
-0.0023634934 0.67400002 -0.051996857 1.0885609e-38 318 284
-0.0011817467 0.67400002 -0.051996857 1.0885609e-38 319 284
0 0.67400002 -0.051996857 1.0702297e-38 320 284
0.0011817467 0.67400002 -0.051996857 1.0794492e-38 321 284
0.0023564799 0.67199999 -0.051842555 1.1163256e-38 322 284
0.00353472 0.67199999 -0.051842555 8.5817788e-39 323 284
0.0047129598 0.67199999 -0.051842555 8.2878957e-39 324 284
0.0058911997 0.67199999 -0.051842555 7.9194733e-39 325 284
0.0070694401 0.67199999 -0.051842555 9.0189643e-39 326 284
0.0082354061 0.671 -0.051765412 9.0189643e-39 327 284
0.0094118929 0.671 -0.051765412 8.927119e-39 328 284
0.010604159 0.67199999 -0.051842555 8.927119e-39 329 284
0.011764866 0.671 -0.051765412 8.6519712e-39 330 284
0.012941353 0.671 -0.051765412 8.5597756e-39 331 284
0.01411784 0.671 -0.051765412 8.7427277e-39 332 284
0.015294326 0.671 -0.051765412 8.7427277e-39 333 284
0.01649536 0.67199999 -0.051842555 8.5590568e-39 334 284
0.017673599 0.67199999 -0.051842555 8.5590568e-39 335 284
0.018851839 0.67199999 -0.051842555 8.6505293e-39 336 284
0.020030079 0.67199999 -0.051842555 8.7427249e-39 337 284
0.021208318 0.67199999 -0.051842555 8.4679331e-39 338 284
0.022386558 0.67199999 -0.051842555 8.5601287e-39 339 284
0.023564799 0.67199999 -0.051842555 8.6523272e-39 340 284
0.024743039 0.67199999 -0.051842555 8.6523272e-39 341 284
0.025921278 0.67199999 -0.051842555 8.9274819e-39 342 284
