# .PCD v.7 - Point Cloud Data file format
FIELDS x y z rgb imX imY
SIZE 4 4 4 4 4 4
TYPE F F F F F F
COUNT 1 1 1 1 1 1
WIDTH 855
HEIGHT 1
VIEWPOINT 0 0 0 1 0 0 0
POINTS 855
DATA ascii
-0.014194986 0.736 0.038713597 1.9057795e-38 309 210
-0.012904533 0.736 0.038713597 2.0062942e-38 310 210
-0.01161408 0.736 0.038713597 1.9694518e-38 311 210
-0.010323626 0.736 0.038713597 1.987603e-38 312 210
-0.0090331733 0.736 0.038713597 1.9691999e-38 313 210
-0.0077427197 0.736 0.038713597 1.9599816e-38 314 210
-0.0064522666 0.736 0.038713597 1.9599816e-38 315 210
-0.005161813 0.736 0.038713597 1.9324674e-38 316 210
-0.0038713599 0.736 0.038713597 1.9324674e-38 317 210
-0.0025738934 0.73400003 0.038608398 1.6558785e-38 318 210
-0.0012869467 0.73400003 0.038608398 1.2686572e-38 319 210
0 0.73400003 0.038608398 7.3482746e-39 320 210
0.0012869467 0.73400003 0.038608398 4.9591168e-39 321 210
0.0025914267 0.73900002 0.0388714 2.1183387e-39 322 210
0.00388714 0.73900002 0.0388714 6.7281202e-39 323 210
0.0051828534 0.73900002 0.0388714 1.518851e-38 324 210
0.0065223998 0.74400002 0.039134398 1.5926075e-38 325 210
0.0078268806 0.74400002 0.039134398 1.8035014e-38 326 210
0.0091313599 0.74400002 0.039134398 1.7665871e-38 327 210
0.010463892 0.74599999 0.039239597 1.8218316e-38 328 210
0.011771879 0.74599999 0.039239597 1.8125762e-38 329 210
0.013079867 0.74599999 0.039239597 1.7196967e-38 330 210
0.014407139 0.74699998 0.039292198 1.3324757e-38 331 210
0.015716879 0.74699998 0.039292198 7.4386752e-39 332 210
0.017026618 0.74699998 0.039292198 7.9896882e-39 333 210
0.018459093 0.75199997 0.039555199 1.3349282e-38 334 210
0.0197776 0.75199997 0.039555199 1.5100999e-38 335 210
0.021096105 0.75199997 0.039555199 1.7116683e-38 336 210
0.022414612 0.75199997 0.039555199 1.674826e-38 337 210
0.02379624 0.75400001 0.039660402 1.7573678e-38 338 210
0.025118252 0.75400001 0.039660402 1.7297452e-38 339 210
0.026440267 0.75400001 0.039660402 1.5640086e-38 340 210
0.027799098 0.755 0.039712999 1.2229207e-38 341 210
0.029122867 0.755 0.039712999 1.1126866e-38 342 210
0.030446632 0.755 0.039712999 1.4445909e-38 343 210
-0.057859998 0.75 0.038135 1.7791974e-38 276 211
-0.056544997 0.75 0.038135 1.4104508e-38 277 211
-0.055229999 0.75 0.038135 1.6290888e-38 278 211
-0.053843111 0.74900001 0.038084153 1.5737714e-38 279 211
-0.052529868 0.74900001 0.038084153 1.9046279e-38 280 211
-0.051216617 0.74900001 0.038084153 1.9414702e-38 281 211
-0.04990337 0.74900001 0.038084153 1.9690563e-38 282 211
-0.048460379 0.74699998 0.03798246 1.9875314e-38 283 211
-0.047150634 0.74699998 0.03798246 1.987603e-38 284 211
-0.045779534 0.74599999 0.03793161 1.9968226e-38 285 211
-0.044471547 0.74599999 0.03793161 2.0060421e-38 286 211
-0.043047838 0.74400002 0.037829921 2.0060421e-38 287 211
-0.041631144 0.74199998 0.037728224 2.0153343e-38 288 211
-0.040330172 0.74199998 0.037728224 2.0245538e-38 289 211
-0.038976599 0.741 0.037677377 2.0154422e-38 290 211
-0.037677377 0.741 0.037677377 2.0062226e-38 291 211
-0.036378156 0.741 0.037677377 2.0245541e-38 292 211
-0.034984261 0.73900002 0.037575684 2.0245541e-38 293 211
-0.033688545 0.73900002 0.037575684 2.006187e-38 294 211
-0.032392833 0.73900002 0.037575684 1.9969675e-38 295 211
-0.03109712 0.73900002 0.037575684 1.9970028e-38 296 211
-0.029801406 0.73900002 0.037575684 1.9877831e-38 297 211
-0.028505694 0.73900002 0.037575684 1.9967875e-38 298 211
-0.027209979 0.73900002 0.037575684 1.9691649e-38 299 211
-0.025914267 0.73900002 0.037575684 1.9692383e-38 300 211
-0.024618553 0.73900002 0.037575684 2.0153721e-38 301 211
-0.023322839 0.73900002 0.037575684 1.6471693e-38 302 211
-0.021997318 0.73799998 0.037524838 1.08474e-38 303 211
-0.020703359 0.73799998 0.037524838 4.2334362e-39 304 211
-0.019356798 0.736 0.037423145 3.2196444e-39 305 211
-0.018017253 0.73400003 0.037321456 1.1597543e-38 306 211
-0.016730307 0.73400003 0.037321456 1.417902e-38 307 211
-0.01544336 0.73400003 0.037321456 1.9516255e-38 308 211
-0.014194986 0.736 0.037423145 1.9424059e-38 309 211
-0.012904533 0.736 0.037423145 1.9970749e-38 310 211
-0.01161408 0.736 0.037423145 1.9878195e-38 311 211
-0.010323626 0.736 0.037423145 1.9876756e-38 312 211
-0.0090331733 0.736 0.037423145 1.978456e-38 313 211
-0.0077427197 0.736 0.037423145 1.9599816e-38 314 211
-0.0064522666 0.736 0.037423145 1.950762e-38 315 211
-0.005161813 0.736 0.037423145 1.9415067e-38 316 211
-0.0038608401 0.73400003 0.037321456 1.9138841e-38 317 211
-0.0025703865 0.73299998 0.037270606 1.9321058e-38 318 211
-0.0012851933 0.73299998 0.037270606 1.803032e-38 319 211
0 0.73299998 0.037270606 1.4064837e-38 320 211
0.0012851933 0.73299998 0.037270606 9.9182336e-39 321 211
0.0025914267 0.73900002 0.037575684 2.1122164e-39 322 211
0.00388714 0.73900002 0.037575684 3.6762897e-39 323 211
0.0051828534 0.73900002 0.037575684 8.2878831e-39 324 211
0.0065223998 0.74400002 0.037829921 1.2805469e-38 325 211
0.0078268806 0.74400002 0.037829921 1.8314494e-38 326 211
0.0091313599 0.74400002 0.037829921 1.7023756e-38 327 211
0.010463892 0.74599999 0.03793161 1.8034285e-38 328 211
0.011771879 0.74599999 0.03793161 1.794209e-38 329 211
0.013079867 0.74599999 0.03793161 1.8399108e-38 330 211
0.014387853 0.74599999 0.03793161 1.6923978e-38 331 211
0.015695838 0.74599999 0.03793161 1.2956355e-38 332 211
0.017003827 0.74599999 0.03793161 8.5407011e-39 333 211
0.018336359 0.74699998 0.03798246 6.9949765e-39 334 211
0.0196987 0.74900001 0.038084153 1.1327812e-38 335 211
0.021096105 0.75199997 0.038236689 1.6292334e-38 336 211
0.022414612 0.75199997 0.038236689 1.592391e-38 337 211
0.02379624 0.75400001 0.038338386 1.7573325e-38 338 211
0.025118252 0.75400001 0.038338386 1.7665522e-38 339 211
0.026440267 0.75400001 0.038338386 1.7390717e-38 340 211
0.027799098 0.755 0.038389232 1.6192173e-38 341 211
0.029084291 0.75400001 0.038338386 1.4616235e-38 342 211
0.030406307 0.75400001 0.038338386 1.2495736e-38 343 211
0.031770397 0.755 0.038389232 8.0134836e-39 344 211
-0.059175 0.75 0.036819998 1.9087409e-38 275 212
-0.057859998 0.75 0.036819998 1.6772762e-38 276 212
-0.056544997 0.75 0.036819998 1.1886752e-38 277 212
-0.055156358 0.74900001 0.036770906 1.7482581e-38 278 212
-0.053843111 0.74900001 0.036770906 1.8312342e-38 279 212
-0.052529868 0.74900001 0.036770906 1.9229607e-38 280 212
-0.051216617 0.74900001 0.036770906 1.9413998e-38 281 212
-0.04990337 0.74900001 0.036770906 1.9507623e-38 282 212
-0.048460379 0.74699998 0.036672719 1.9692014e-38 283 212
-0.047150634 0.74699998 0.036672719 1.9877112e-38 284 212
-0.045779534 0.74599999 0.036623627 2.0061143e-38 285 212
-0.044471547 0.74599999 0.036623627 2.0061496e-38 286 212
-0.043047838 0.74400002 0.036525439 2.0153693e-38 287 212
-0.041631144 0.74199998 0.036427252 1.9970749e-38 288 212
-0.04027582 0.741 0.036378156 1.9970749e-38 289 212
-0.038976599 0.741 0.036378156 2.0154069e-38 290 212
-0.037575684 0.73900002 0.036279973 2.0154069e-38 291 212
-0.036279973 0.73900002 0.036279973 2.0337734e-38 292 212
-0.034984261 0.73900002 0.036279973 2.0337734e-38 293 212
-0.033688545 0.73900002 0.036279973 2.0062223e-38 294 212
-0.032348998 0.73799998 0.036230877 2.0062223e-38 295 212
-0.031055039 0.73799998 0.036230877 2.015334e-38 296 212
-0.029761078 0.73799998 0.036230877 1.9877112e-38 297 212
-0.028467119 0.73799998 0.036230877 1.9967156e-38 298 212
-0.027173158 0.73799998 0.036230877 1.9874961e-38 299 212
-0.025809066 0.736 0.036132693 1.9784223e-38 300 212
-0.024518613 0.736 0.036132693 1.9139212e-38 301 212
-0.023228159 0.736 0.036132693 1.3159489e-38 302 212
-0.021937706 0.736 0.036132693 6.8898272e-39 303 212
-0.020647252 0.736 0.036132693 3.4962215e-39 304 212
-0.019356798 0.736 0.036132693 3.9575597e-39 305 212
-0.018017253 0.73400003 0.036034506 1.4912622e-38 306 212
-0.016730307 0.73400003 0.036034506 1.7310069e-38 307 212
-0.01544336 0.73400003 0.036034506 2.0065836e-38 308 212
-0.014194986 0.736 0.036132693 1.9881445e-38 309 212
-0.012904533 0.736 0.036132693 2.033845e-38 310 212
-0.01161408 0.736 0.036132693 2.0062223e-38 311 212
-0.010323626 0.736 0.036132693 2.0336288e-38 312 212
-0.0090331733 0.736 0.036132693 2.0336288e-38 313 212
-0.0077427197 0.736 0.036132693 1.9967873e-38 314 212
-0.0064522666 0.736 0.036132693 1.9691646e-38 315 212
-0.005161813 0.736 0.036132693 1.9690212e-38 316 212
-0.0038608401 0.73400003 0.036034506 1.9413985e-38 317 212
-0.0025703865 0.73299998 0.035985414 1.969055e-38 318 212
-0.0012851933 0.73299998 0.035985414 1.969055e-38 319 212
0 0.73299998 0.035985414 1.7567511e-38 320 212
0.0012851933 0.73299998 0.035985414 1.4248492e-38 321 212
0.0025703865 0.73299998 0.035985414 7.7145404e-39 322 212
0.0038555798 0.73299998 0.035985414 5.8774718e-39 323 212
0.005140773 0.73299998 0.035985414 3.3132805e-39 324 212
0.0064259665 0.73299998 0.035985414 9.3981935e-39 325 212
0.0078479191 0.74599999 0.036623627 1.6935904e-38 326 212
0.0091559067 0.74599999 0.036623627 1.6475285e-38 327 212
0.010463892 0.74599999 0.036623627 1.7942818e-38 328 212
0.01170876 0.74199998 0.036427252 1.7665871e-38 329 212
0.0129922 0.741 0.036378156 1.8216884e-38 330 212
0.01429142 0.741 0.036378156 1.8401275e-38 331 212
0.01559064 0.741 0.036378156 1.5817277e-38 332 212
0.016889861 0.741 0.036378156 1.1760683e-38 333 212
0.018189078 0.741 0.036378156 6.0625777e-39 334 212
0.0196987 0.74900001 0.036770906 8.3674586e-39 335 212
0.021096105 0.75199997 0.036918186 1.436056e-38 336 212
0.022414612 0.75199997 0.036918186 1.5282875e-38 337 212
0.02379624 0.75400001 0.037016369 1.7482581e-38 338 212
0.025118252 0.75400001 0.037016369 1.7390027e-38 339 212
0.026440267 0.75400001 0.037016369 1.7665522e-38 340 212
0.027799098 0.755 0.037065465 1.8034664e-38 341 212
0.029084291 0.75400001 0.037016369 1.7018338e-38 342 212
0.030406307 0.75400001 0.037016369 1.3514903e-38 343 212
0.031770397 0.755 0.037065465 9.5570139e-39 344 212
0.033094164 0.755 0.037065465 1.0387133e-38 345 212
0.034417931 0.755 0.037065465 1.1983682e-38 346 212
-0.060651302 0.75199997 0.035599679 1.945619e-38 274 213
-0.059175 0.75 0.035505001 1.7427527e-38 275 213
-0.057859998 0.75 0.035505001 1.6948512e-38 276 213
-0.056544997 0.75 0.035505001 1.381386e-38 277 213
-0.055156358 0.74900001 0.03545766 1.8586753e-38 278 213
-0.053843111 0.74900001 0.03545766 1.8586753e-38 279 213
-0.052529868 0.74900001 0.03545766 1.9229238e-38 280 213
-0.051216617 0.74900001 0.03545766 1.941363e-38 281 213
-0.049770117 0.74699998 0.035362978 1.9506547e-38 282 213
-0.048460379 0.74699998 0.035362978 1.9691298e-38 283 213
-0.047150634 0.74699998 0.035362978 1.9876762e-38 284 213
-0.045779534 0.74599999 0.03531564 2.0060793e-38 285 213
-0.044352323 0.74400002 0.035220962 1.9970749e-38 286 213
-0.042932119 0.74199998 0.03512628 1.9878195e-38 287 213
-0.041631144 0.74199998 0.03512628 2.006187e-38 288 213
-0.04027582 0.741 0.035078939 2.006187e-38 289 213
-0.038976599 0.741 0.035078939 2.0337381e-38 290 213
-0.037575684 0.73900002 0.034984261 2.0429577e-38 291 213
-0.036279973 0.73900002 0.034984261 2.03381e-38 292 213
-0.034984261 0.73900002 0.034984261 2.03381e-38 293 213
-0.033642959 0.73799998 0.034936916 2.015479e-38 294 213
-0.032348998 0.73799998 0.034936916 1.997004e-38 295 213
-0.031055039 0.73799998 0.034936916 1.9969321e-38 296 213
-0.029761078 0.73799998 0.034936916 1.9784929e-38 297 213
-0.028467119 0.73799998 0.034936916 1.9967525e-38 298 213
-0.02709952 0.736 0.034842238 2.0244113e-38 299 213
-0.025809066 0.736 0.034842238 1.9510166e-38 300 213
-0.024518613 0.736 0.034842238 1.5361003e-38 301 213
-0.023228159 0.736 0.034842238 8.1895694e-39 302 213
-0.021937706 0.736 0.034842238 4.6861368e-39 303 213
-0.020647252 0.736 0.034842238 5.9801015e-39 304 213
-0.019304199 0.73400003 0.03474756 7.9162097e-39 305 213
-0.018017253 0.73400003 0.03474756 1.7491211e-38 306 213
-0.016730307 0.73400003 0.03474756 1.8966699e-38 307 213
-0.01544336 0.73400003 0.03474756 2.0249151e-38 308 213
-0.014156413 0.73400003 0.03474756 2.0156955e-38 309 213
-0.012904533 0.736 0.034842238 2.015659e-38 310 213
-0.01161408 0.736 0.034842238 2.015659e-38 311 213
-0.010295574 0.73400003 0.03474756 2.0155509e-38 312 213
-0.0090086265 0.73400003 0.03474756 1.9971119e-38 313 213
-0.0077216802 0.73400003 0.03474756 1.9969324e-38 314 213
-0.006434733 0.73400003 0.03474756 1.9877127e-38 315 213
-0.0051477868 0.73400003 0.03474756 1.9692014e-38 316 213
-0.0038608401 0.73400003 0.03474756 1.9507623e-38 317 213
-0.0025703865 0.73299998 0.034700219 1.941542e-38 318 213
-0.0012816866 0.73100001 0.034605537 1.9692367e-38 319 213
0 0.73100001 0.034605537 2.0611074e-38 320 213
0.0012816866 0.73100001 0.034605537 1.8490575e-38 321 213
0.0025633732 0.73100001 0.034605537 1.3419837e-38 322 213
0.0038555798 0.73299998 0.034700219 9.1835496e-39 323 213
0.005140773 0.73299998 0.034700219 4.5917748e-40 324 213
0.006408433 0.73100001 0.034605537 5.709627e-39 325 213
0.0077427197 0.736 0.034842238 1.2976539e-38 326 213
0.0090945391 0.741 0.035078939 1.6111191e-38 327 213
0.010393759 0.741 0.035078939 1.8220144e-38 328 213
0.01169298 0.741 0.035078939 1.720635e-38 329 213
0.012957133 0.73900002 0.034984261 1.7665875e-38 330 213
0.014252847 0.73900002 0.034984261 1.7850267e-38 331 213
0.01559064 0.741 0.035078939 1.7758424e-38 332 213
0.016889861 0.741 0.035078939 1.5637923e-38 333 213
0.018189078 0.741 0.035078939 8.6339716e-39 334 213
0.019488299 0.741 0.035078939 6.6121557e-39 335 213
0.020787518 0.741 0.035078939 9.9376934e-39 336 213
0.022474226 0.75400001 0.035694357 1.380991e-38 337 213
0.02379624 0.75400001 0.035694357 1.7301797e-38 338 213
0.025118252 0.75400001 0.035694357 1.63802e-38 339 213
0.026440267 0.75400001 0.035694357 1.739001e-38 340 213
0.027799098 0.755 0.035741698 1.7482566e-38 341 213
0.029122867 0.755 0.035741698 1.8033582e-38 342 213
0.030446632 0.755 0.035741698 1.7388212e-38 343 213
0.031770397 0.755 0.035741698 1.4988981e-38 344 213
0.033094164 0.755 0.035741698 1.139371e-38 345 213
0.034417931 0.755 0.035741698 4.1394651e-39 346 213
0.035741698 0.755 0.035741698 1.2160844e-38 347 213
-0.060651302 0.75199997 0.034281172 1.9363273e-38 274 214
-0.059332799 0.75199997 0.034281172 1.5306663e-38 275 214
-0.057859998 0.75 0.034189999 1.6389217e-38 276 214
-0.056544997 0.75 0.034189999 1.4545304e-38 277 214
-0.055156358 0.74900001 0.034144413 1.8493118e-38 278 214
-0.053843111 0.74900001 0.034144413 1.8861901e-38 279 214
-0.052529868 0.74900001 0.034144413 1.8954096e-38 280 214
-0.051079858 0.74699998 0.034053236 1.9230683e-38 281 214
-0.049770117 0.74699998 0.034053236 1.9323958e-38 282 214
-0.048460379 0.74699998 0.034053236 1.9508349e-38 283 214
-0.047087517 0.74599999 0.034007654 1.9601263e-38 284 214
-0.0456568 0.74400002 0.033916477 1.9693459e-38 285 214
-0.044352323 0.74400002 0.033916477 1.9877848e-38 286 214
-0.042932119 0.74199998 0.033825304 1.9877848e-38 287 214
-0.041631144 0.74199998 0.033825304 1.9970046e-38 288 214
-0.04027582 0.741 0.033779722 1.9970046e-38 289 214
-0.038976599 0.741 0.033779722 2.0062239e-38 290 214
-0.037575684 0.73900002 0.033688545 2.0154434e-38 291 214
-0.036279973 0.73900002 0.033688545 2.0155509e-38 292 214
-0.034936916 0.73799998 0.033642959 2.0155509e-38 293 214
-0.033642959 0.73799998 0.033642959 2.0154788e-38 294 214
-0.032348998 0.73799998 0.033642959 2.0062592e-38 295 214
-0.031055039 0.73799998 0.033642959 2.0062226e-38 296 214
-0.029680425 0.736 0.033551786 1.9970031e-38 297 214
-0.028389972 0.736 0.033551786 1.9969321e-38 298 214
-0.02709952 0.736 0.033551786 1.9784929e-38 299 214
-0.025809066 0.736 0.033551786 1.7396149e-38 300 214
-0.024518613 0.736 0.033551786 1.1310879e-38 301 214
-0.023228159 0.736 0.033551786 4.5103832e-39 302 214
-0.021937706 0.736 0.033551786 3.31184e-39 303 214
-0.020591147 0.73400003 0.033460613 8.5576134e-39 304 214
-0.019304199 0.73400003 0.033460613 1.1968852e-38 305 214
-0.018017253 0.73400003 0.033460613 1.877834e-38 306 214
-0.016730307 0.73400003 0.033460613 1.9423709e-38 307 214
-0.01544336 0.73400003 0.033460613 2.0064037e-38 308 214
-0.014156413 0.73400003 0.033460613 2.0248788e-38 309 214
-0.012869466 0.73400003 0.033460613 2.0524646e-38 310 214
-0.011582521 0.73400003 0.033460613 2.0432451e-38 311 214
-0.010281546 0.73299998 0.033415023 2.0432085e-38 312 214
-0.0089963535 0.73299998 0.033415023 2.0339888e-38 313 214
-0.0077216802 0.73400003 0.033460613 2.0338806e-38 314 214
-0.006434733 0.73400003 0.033460613 1.9970025e-38 315 214
-0.0051477868 0.73400003 0.033460613 2.0336641e-38 316 214
-0.0038608401 0.73400003 0.033460613 2.0060056e-38 317 214
-0.0025703865 0.73299998 0.033415023 1.9691999e-38 318 214
-0.0012816866 0.73100001 0.033323854 1.9507606e-38 319 214
0 0.73100001 0.033323854 2.0060074e-38 320 214
0.0012816866 0.73100001 0.033323854 2.0060074e-38 321 214
0.0025633732 0.73100001 0.033323854 1.7383877e-38 322 214
0.00384506 0.73100001 0.033323854 1.3235073e-38 323 214
0.0051267464 0.73100001 0.033323854 3.3979134e-39 324 214
0.006408433 0.73100001 0.033323854 4.4095387e-39 325 214
0.0077427197 0.736 0.033551786 6.4446893e-39 326 214
0.0090331733 0.736 0.033551786 1.2437407e-38 327 214
0.010323626 0.736 0.033551786 1.7761705e-38 328 214
0.01166142 0.73900002 0.033688545 1.702414e-38 329 214
0.012957133 0.73900002 0.033688545 1.7665525e-38 330 214
0.014252847 0.73900002 0.033688545 1.7757721e-38 331 214
0.01554856 0.73900002 0.033688545 1.7850267e-38 332 214
0.016844273 0.73900002 0.033688545 1.7573678e-38 333 214
0.018139986 0.73900002 0.033688545 1.3792586e-38 334 214
0.0194357 0.73900002 0.033688545 9.7359975e-39 335 214
0.020731414 0.73900002 0.033688545 6.8015804e-39 336 214
0.022504034 0.755 0.034417931 1.085819e-38 337 214
0.023827799 0.755 0.034417931 1.5463655e-38 338 214
0.025151566 0.755 0.034417931 1.5832077e-38 339 214
0.026475333 0.755 0.034417931 1.7574055e-38 340 214
0.027799098 0.755 0.034417931 1.7389663e-38 341 214
0.029122867 0.755 0.034417931 1.7574055e-38 342 214
0.030406307 0.75400001 0.034372345 1.7942837e-38 343 214
0.03172832 0.75400001 0.034372345 1.6929743e-38 344 214
0.033050332 0.75400001 0.034372345 1.4256069e-38 345 214
0.034372345 0.75400001 0.034372345 9.4637491e-39 346 214
0.035694357 0.75400001 0.034372345 7.7141845e-39 347 214
-0.061969809 0.75199997 0.032962665 2.0010443e-38 273 215
-0.060651302 0.75199997 0.032962665 1.8901566e-38 274 215
-0.059332799 0.75199997 0.032962665 1.2724817e-38 275 215
-0.057859998 0.75 0.032874998 1.5829562e-38 276 215
-0.056469604 0.74900001 0.032831166 1.5737366e-38 277 215
-0.055156358 0.74900001 0.032831166 1.8584235e-38 278 215
-0.053843111 0.74900001 0.032831166 1.886118e-38 279 215
-0.052389596 0.74699998 0.032743499 1.8861533e-38 280 215
-0.051079858 0.74699998 0.032743499 1.9229957e-38 281 215
-0.049770117 0.74699998 0.032743499 1.9138843e-38 282 215
-0.048460379 0.74699998 0.032743499 1.9507267e-38 283 215
-0.047087517 0.74599999 0.032699663 1.9692383e-38 284 215
-0.0456568 0.74400002 0.032612 1.9692383e-38 285 215
-0.044352323 0.74400002 0.032612 1.9877497e-38 286 215
-0.042932119 0.74199998 0.032524332 1.9877497e-38 287 215
-0.041575037 0.741 0.032480497 1.996969e-38 288 215
-0.04027582 0.741 0.032480497 1.996969e-38 289 215
-0.0388714 0.73900002 0.032392833 2.0062239e-38 290 215
-0.037575684 0.73900002 0.032392833 2.0154434e-38 291 215
-0.036230877 0.73799998 0.032348998 2.0155509e-38 292 215
-0.034936916 0.73799998 0.032348998 2.0155509e-38 293 215
-0.033642959 0.73799998 0.032348998 2.015479e-38 294 215
-0.032261331 0.736 0.032261331 2.015479e-38 295 215
-0.030970879 0.736 0.032261331 1.987928e-38 296 215
-0.029680425 0.736 0.032261331 1.9787084e-38 297 215
-0.028389972 0.736 0.032261331 1.9788178e-38 298 215
-0.02709952 0.736 0.032261331 1.849744e-38 299 215
-0.025809066 0.736 0.032261331 1.4909401e-38 300 215
-0.024518613 0.736 0.032261331 7.257165e-39 301 215
-0.023228159 0.736 0.032261331 1.4743916e-39 302 215
-0.021878093 0.73400003 0.032173667 2.3041523e-39 303 215
-0.020591147 0.73400003 0.032173667 1.1319867e-38 304 215
-0.019304199 0.73400003 0.032173667 1.5653062e-38 305 215
-0.018017253 0.73400003 0.032173667 1.9696699e-38 306 215
-0.016707512 0.73299998 0.032129832 1.9696699e-38 307 215
-0.015422319 0.73299998 0.032129832 2.0064409e-38 308 215
-0.014137126 0.73299998 0.032129832 2.0340996e-38 309 215
-0.012851933 0.73299998 0.032129832 2.0617579e-38 310 215
-0.011566739 0.73299998 0.032129832 2.0617579e-38 311 215
-0.010281546 0.73299998 0.032129832 2.0709056e-38 312 215
-0.0089963535 0.73299998 0.032129832 2.061686e-38 313 215
-0.0077111595 0.73299998 0.032129832 2.0432453e-38 314 215
-0.0064259665 0.73299998 0.032129832 2.0247702e-38 315 215
-0.005140773 0.73299998 0.032129832 2.0155491e-38 316 215
-0.0038555798 0.73299998 0.032129832 1.99711e-38 317 215
-0.0025633732 0.73100001 0.032042164 1.9785635e-38 318 215
-0.0012816866 0.73100001 0.032042164 1.950905e-38 319 215
0 0.73100001 0.032042164 1.9417225e-38 320 215
0.0012799334 0.73000002 0.031998333 1.9877845e-38 321 215
0.0025598668 0.73000002 0.031998333 1.959945e-38 322 215
0.0038397999 0.73000002 0.031998333 1.618821e-38 323 215
0.0051197335 0.73000002 0.031998333 8.9123507e-39 324 215
0.0063996664 0.73000002 0.031998333 5.2346233e-39 325 215
0.0076795998 0.73000002 0.031998333 2.1523944e-42 326 215
0.0090331733 0.736 0.032261331 8.0267749e-39 327 215
0.010323626 0.736 0.032261331 1.638238e-38 328 215
0.011645639 0.73799998 0.032348998 1.6567131e-38 329 215
0.012957133 0.73900002 0.032392833 1.7665525e-38 330 215
0.014252847 0.73900002 0.032392833 1.7573328e-38 331 215
0.01554856 0.73900002 0.032392833 1.7665155e-38 332 215
0.016844273 0.73900002 0.032392833 1.7941383e-38 333 215
0.018139986 0.73900002 0.032392833 1.6560603e-38 334 215
0.0194357 0.73900002 0.032392833 1.2780582e-38 335 215
0.020731414 0.73900002 0.032392833 4.8672813e-39 336 215
0.02379624 0.75400001 0.033050332 1.2703197e-38 338 215
0.025118252 0.75400001 0.033050332 1.4823336e-38 339 215
0.026440267 0.75400001 0.033050332 1.748331e-38 340 215
0.027762281 0.75400001 0.033050332 1.6929776e-38 341 215
0.029084291 0.75400001 0.033050332 1.7206345e-38 342 215
0.030406307 0.75400001 0.033050332 1.7390736e-38 343 215
0.03172832 0.75400001 0.033050332 1.7392531e-38 344 215
0.033050332 0.75400001 0.033050332 1.7024109e-38 345 215
0.034372345 0.75400001 0.033050332 1.416283e-38 346 215
0.035741698 0.755 0.033094164 9.8299938e-39 347 215
0.037065465 0.755 0.033094164 9.2414513e-40 348 215
-0.061969809 0.75199997 0.031644158 2.0101203e-38 273 216
-0.060651302 0.75199997 0.031644158 1.7885972e-38 274 216
-0.059332799 0.75199997 0.031644158 1.0602517e-38 275 216
-0.057859998 0.75 0.03156 1.6282982e-38 276 216
-0.056469604 0.74900001 0.031517919 1.7389329e-38 277 216
-0.055009075 0.74699998 0.031433757 1.8217976e-38 278 216
-0.053699337 0.74699998 0.031433757 1.8310171e-38 279 216
-0.052389596 0.74699998 0.031433757 1.8769349e-38 280 216
-0.051011477 0.74599999 0.031391677 1.8954099e-38 281 216
-0.04970349 0.74599999 0.031391677 1.9047013e-38 282 216
-0.048395503 0.74599999 0.031391677 1.9231405e-38 283 216
-0.046961278 0.74400002 0.031307522 1.9416519e-38 284 216
-0.0456568 0.74400002 0.031307522 1.9508715e-38 285 216
-0.044352323 0.74400002 0.031307522 1.9693462e-38 286 216
-0.042932119 0.74199998 0.031223357 1.9877494e-38 287 216
-0.041575037 0.741 0.03118128 1.9970046e-38 288 216
-0.04027582 0.741 0.03118128 1.9970046e-38 289 216
-0.0388714 0.73900002 0.03109712 2.0062242e-38 290 216
-0.037524838 0.73799998 0.031055039 2.0154437e-38 291 216
-0.036230877 0.73799998 0.031055039 1.9971122e-38 292 216
-0.034936916 0.73799998 0.031055039 1.9971122e-38 293 216
-0.033551786 0.736 0.030970879 2.015479e-38 294 216
-0.032261331 0.736 0.030970879 2.015479e-38 295 216
-0.030970879 0.736 0.030970879 1.9878924e-38 296 216
-0.029680425 0.736 0.030970879 1.9878924e-38 297 216
-0.028389972 0.736 0.030970879 1.9604877e-38 298 216
-0.02709952 0.736 0.030970879 1.637803e-38 299 216
-0.025809066 0.736 0.030970879 1.0124956e-38 300 216
-0.024518613 0.736 0.030970879 5.1467507e-39 301 216
-0.023165042 0.73400003 0.030886721 3.5887702e-39 302 216
-0.021878093 0.73400003 0.030886721 5.8940211e-39 303 216
-0.020563092 0.73299998 0.030844638 1.4908291e-38 304 216
-0.019277899 0.73299998 0.030844638 1.8411725e-38 305 216
-0.017992707 0.73299998 0.030844638 1.9695983e-38 306 216
-0.016707512 0.73299998 0.030844638 1.9788178e-38 307 216
-0.015422319 0.73299998 0.030844638 2.0156249e-38 308 216
-0.014137126 0.73299998 0.030844638 2.0340999e-38 309 216
-0.012816866 0.73100001 0.03076048 2.0526827e-38 310 216
-0.01153518 0.73100001 0.03076048 2.0526827e-38 311 216
-0.010253493 0.73100001 0.03076048 2.0801972e-38 312 216
-0.0089718066 0.73100001 0.03076048 2.0709776e-38 313 216
-0.00769012 0.73100001 0.03076048 2.0800879e-38 314 216
-0.006408433 0.73100001 0.03076048 2.0616489e-38 315 216
-0.0051267464 0.73100001 0.03076048 2.0616113e-38 316 216
-0.00384506 0.73100001 0.03076048 2.0247689e-38 317 216
-0.0025633732 0.73100001 0.03076048 1.9970747e-38 318 216
-0.0012799334 0.73000002 0.030718399 1.9601964e-38 319 216
0 0.73000002 0.030718399 1.9509418e-38 320 216
0.0012799334 0.73000002 0.030718399 1.9601614e-38 321 216
0.0025598668 0.73000002 0.030718399 1.9325027e-38 322 216
0.0038397999 0.73000002 0.030718399 1.7942092e-38 323 216
0.0051197335 0.73000002 0.030718399 1.4436526e-38 324 216
0.0063996664 0.73000002 0.030718399 9.1835496e-39 325 216
0.0076795998 0.73000002 0.030718399 0 326 216
0.0090086265 0.73400003 0.030886721 6.7273901e-39 327 216
0.010295574 0.73400003 0.030886721 1.3347484e-38 328 216
0.011645639 0.73799998 0.031055039 1.5375788e-38 329 216
0.012939599 0.73799998 0.031055039 1.7758087e-38 330 216
0.014252847 0.73900002 0.03109712 1.7389663e-38 331 216
0.01554856 0.73900002 0.03109712 1.7573681e-38 332 216
0.016844273 0.73900002 0.03109712 1.7758074e-38 333 216
0.018139986 0.73900002 0.03109712 1.720849e-38 334 216
0.0194357 0.73900002 0.03109712 1.5272382e-38 335 216
0.020731414 0.73900002 0.03109712 9.4662532e-39 336 216
0.023733119 0.75199997 0.031644158 6.4464914e-39 338 216
0.025051624 0.75199997 0.031644158 1.1516892e-38 339 216
0.02637013 0.75199997 0.031644158 1.7024865e-38 340 216
0.027688639 0.75199997 0.031644158 1.62873e-38 341 216
0.029007144 0.75199997 0.031644158 1.6931206e-38 342 216
0.030325651 0.75199997 0.031644158 1.7023403e-38 343 216
0.031644158 0.75199997 0.031644158 1.6932279e-38 344 216
0.032962665 0.75199997 0.031644158 1.7301061e-38 345 216
0.034372345 0.75400001 0.03172832 1.6196509e-38 346 216
0.035694357 0.75400001 0.03172832 1.3338443e-38 347 216
0.037016369 0.75400001 0.03172832 6.244846e-39 348 216
0.038338386 0.75400001 0.03172832 9.3766261e-39 349 216
-0.06345664 0.75400001 0.030406307 2.0008292e-38 272 217
-0.061969809 0.75199997 0.030325651 1.9362922e-38 273 217
-0.060651302 0.75199997 0.030325651 1.7234835e-38 274 217
-0.059332799 0.75199997 0.030325651 1.0228326e-38 275 217
-0.057859998 0.75 0.030244999 1.7202048e-38 276 217
-0.056469604 0.74900001 0.030204674 1.8124005e-38 277 217
-0.055009075 0.74699998 0.030124018 1.8217979e-38 278 217
-0.053699337 0.74699998 0.030124018 1.8310174e-38 279 217
-0.052319467 0.74599999 0.03008369 1.8585319e-38 280 217
-0.051011477 0.74599999 0.03008369 1.8769352e-38 281 217
-0.04970349 0.74599999 0.03008369 1.8862626e-38 282 217
-0.048265759 0.74400002 0.030003037 1.9139212e-38 283 217
-0.046961278 0.74400002 0.030003037 1.9140655e-38 284 217
-0.045534063 0.74199998 0.029922385 1.9232851e-38 285 217
-0.044233091 0.74199998 0.029922385 1.9509434e-38 286 217
-0.042932119 0.74199998 0.029922385 1.9601629e-38 287 217
-0.041575037 0.741 0.029882059 1.9601629e-38 288 217
-0.04027582 0.741 0.029882059 1.9601629e-38 289 217
-0.0388714 0.73900002 0.029801406 1.9969693e-38 290 217
-0.037524838 0.73799998 0.029761078 2.0061888e-38 291 217
-0.036230877 0.73799998 0.029761078 1.9878576e-38 292 217
-0.034842238 0.736 0.029680425 1.9878576e-38 293 217
-0.033551786 0.736 0.029680425 1.9878929e-38 294 217
-0.032261331 0.736 0.029680425 1.9878929e-38 295 217
-0.030970879 0.736 0.029680425 1.9878927e-38 296 217
-0.029680425 0.736 0.029680425 1.9786731e-38 297 217
-0.028389972 0.736 0.029680425 1.8503223e-38 298 217
-0.02709952 0.736 0.029680425 1.3155518e-38 299 217
-0.025809066 0.736 0.029680425 4.9688558e-39 300 217
-0.024518613 0.736 0.029680425 3.3093359e-39 301 217
-0.023165042 0.73400003 0.029599773 5.0592214e-39 302 217
-0.021848286 0.73299998 0.029559445 9.8530354e-39 303 217
-0.020563092 0.73299998 0.029559445 1.7209938e-38 304 217
-0.019277899 0.73299998 0.029559445 1.9146046e-38 305 217
-0.017992707 0.73299998 0.029559445 1.9602359e-38 306 217
-0.016661927 0.73100001 0.029478792 1.9878945e-38 307 217
-0.01538024 0.73100001 0.029478792 1.9972589e-38 308 217
-0.014079267 0.73000002 0.029438468 2.0248816e-38 309 217
-0.012799333 0.73000002 0.029438468 2.0250971e-38 310 217
-0.011519399 0.73000002 0.029438468 2.0435363e-38 311 217
-0.010239467 0.73000002 0.029438468 2.0619028e-38 312 217
-0.0089595336 0.73000002 0.029438468 2.0619028e-38 313 217
-0.0076795998 0.73000002 0.029438468 2.0618659e-38 314 217
-0.0063996664 0.73000002 0.029438468 2.0618659e-38 315 217
-0.0051197335 0.73000002 0.029438468 2.0434251e-38 316 217
-0.0038397999 0.73000002 0.029438468 2.006511e-38 317 217
-0.0025598668 0.73000002 0.029438468 1.9879277e-38 318 217
-0.0012764266 0.72799999 0.029357811 1.9602689e-38 319 217
0 0.72799999 0.029357811 1.9234629e-38 320 217
0.0012764266 0.72799999 0.029357811 1.8865848e-38 321 217
0.0025528532 0.72799999 0.029357811 1.87715e-38 322 217
0.0038292799 0.72799999 0.029357811 1.8679304e-38 323 217
0.0051197335 0.73000002 0.029438468 1.6651729e-38 324 217
0.0063996664 0.73000002 0.029438468 1.075121e-38 325 217
0.0076795998 0.73000002 0.029438468 7.3468397e-40 326 217
0.0089718066 0.73100001 0.029478792 4.5092818e-39 327 217
0.010281546 0.73299998 0.029559445 9.0229272e-39 328 217
0.011582521 0.73400003 0.029599773 1.3816741e-38 329 217
0.012904533 0.736 0.029680425 1.7300711e-38 330 217
0.014233559 0.73799998 0.029761078 1.6839373e-38 331 217
0.015527519 0.73799998 0.029761078 1.7207418e-38 332 217
0.016844273 0.73900002 0.029801406 1.7115221e-38 333 217
0.018139986 0.73900002 0.029801406 1.7392531e-38 334 217
0.0194357 0.73900002 0.029801406 1.6747162e-38 335 217
0.020731414 0.73900002 0.029801406 1.3428158e-38 336 217
0.023733119 0.75199997 0.030325651 1.196388e-39 338 217
0.025051624 0.75199997 0.030325651 8.6645941e-39 339 217
0.02637013 0.75199997 0.030325651 1.5925372e-38 340 217
0.027688639 0.75199997 0.030325651 1.5187807e-38 341 217
0.029007144 0.75199997 0.030325651 1.6655712e-38 342 217
0.030325651 0.75199997 0.030325651 1.6747907e-38 343 217
0.031644158 0.75199997 0.030325651 1.6566017e-38 344 217
0.032962665 0.75199997 0.030325651 1.6566017e-38 345 217
0.034372345 0.75400001 0.030406307 1.693552e-38 346 217
0.035694357 0.75400001 0.030406307 1.5921367e-38 347 217
0.037016369 0.75400001 0.030406307 1.1766848e-38 348 217
0.038338386 0.75400001 0.030406307 9.7385437e-39 349 217
0.039660402 0.75400001 0.030406307 9.218512e-39 350 217
-0.06345664 0.75400001 0.029084291 2.019268e-38 272 218
-0.062134624 0.75400001 0.029084291 1.7334616e-38 273 218
-0.060651302 0.75199997 0.029007144 1.7225111e-38 274 218
-0.059332799 0.75199997 0.029007144 1.2154712e-38 275 218
-0.057859998 0.75 0.028929999 1.7387509e-38 276 218
-0.056469604 0.74900001 0.028891427 1.8032878e-38 277 218
-0.055009075 0.74699998 0.028814279 1.8125427e-38 278 218
-0.053699337 0.74699998 0.028814279 1.8217623e-38 279 218
-0.052319467 0.74599999 0.028775707 1.8492768e-38 280 218
-0.050874721 0.74400002 0.02869856 1.8584963e-38 281 218
-0.04957024 0.74400002 0.02869856 1.8678235e-38 282 218
-0.048265759 0.74400002 0.02869856 1.8770431e-38 283 218
-0.046835039 0.74199998 0.028621411 1.9139209e-38 284 218
-0.045534063 0.74199998 0.028621411 1.9139209e-38 285 218
-0.044233091 0.74199998 0.028621411 1.9416516e-38 286 218
-0.042874258 0.741 0.028582839 1.9416516e-38 287 218
-0.041575037 0.741 0.028582839 1.9784578e-38 288 218
-0.040167112 0.73900002 0.028505694 1.9784578e-38 289 218
-0.038818799 0.73799998 0.028467119 1.9877497e-38 290 218
-0.037524838 0.73799998 0.028467119 1.9969693e-38 291 218
-0.036132693 0.736 0.028389972 1.9969337e-38 292 218
-0.034842238 0.736 0.028389972 1.9969337e-38 293 218
-0.033551786 0.736 0.028389972 1.9969337e-38 294 218
-0.032261331 0.736 0.028389972 1.9877141e-38 295 218
-0.030970879 0.736 0.028389972 2.0061535e-38 296 218
-0.029680425 0.736 0.028389972 1.9693113e-38 297 218
-0.028389972 0.736 0.028389972 1.6386336e-38 298 218
-0.02709952 0.736 0.028389972 9.1950767e-39 299 218
-0.025809066 0.736 0.028389972 2.0229159e-39 300 218
-0.024518613 0.736 0.028389972 2.0229159e-39 301 218
-0.023165042 0.73400003 0.028312827 6.4385559e-39 302 218
-0.021848286 0.73299998 0.028274251 1.3168838e-38 303 218
-0.020563092 0.73299998 0.028274251 1.8497437e-38 304 218
-0.019225299 0.73100001 0.028197108 1.9142806e-38 305 218
-0.017943613 0.73100001 0.028197108 1.9507999e-38 306 218
-0.016639132 0.73000002 0.028158534 2.0061172e-38 307 218
-0.0153592 0.73000002 0.028158534 1.9880388e-38 308 218
-0.014079267 0.73000002 0.028158534 2.0065138e-38 309 218
-0.012799333 0.73000002 0.028158534 2.0432842e-38 310 218
-0.011519399 0.73000002 0.028158534 2.070907e-38 311 218
-0.010239467 0.73000002 0.028158534 2.0618309e-38 312 218
-0.0089595336 0.73000002 0.028158534 2.0526113e-38 313 218
-0.0076795998 0.73000002 0.028158534 2.0618662e-38 314 218
-0.0063996664 0.73000002 0.028158534 2.0526108e-38 315 218
-0.0051197335 0.73000002 0.028158534 2.0617576e-38 316 218
-0.0038397999 0.73000002 0.028158534 2.0156958e-38 317 218
-0.0025528532 0.72799999 0.028081384 1.9694182e-38 318 218
-0.0012764266 0.72799999 0.028081384 1.93254e-38 319 218
0 0.72799999 0.028081384 1.904809e-38 320 218
0.0012764266 0.72799999 0.028081384 1.8586753e-38 321 218
0.0025528532 0.72799999 0.028081384 1.8125414e-38 322 218
0.0038292799 0.72799999 0.028081384 1.8401641e-38 323 218
0.0051197335 0.73000002 0.028158534 1.7757704e-38 324 218
0.0063996664 0.73000002 0.028158534 1.3331955e-38 325 218
0.0076795998 0.73000002 0.028158534 3.7652553e-39 326 218
0.0089718066 0.73100001 0.028197108 3.3060779e-39 327 218
0.010281546 0.73299998 0.028274251 3.7800208e-39 328 218
0.011582521 0.73400003 0.028312827 1.097128e-38 329 218
0.012869466 0.73400003 0.028312827 1.6934822e-38 330 218
0.014194986 0.736 0.028389972 1.656568e-38 331 218
0.015527519 0.73799998 0.028467119 1.7024121e-38 332 218
0.016821479 0.73799998 0.028467119 1.7024121e-38 333 218
0.018139986 0.73900002 0.028505694 1.6840453e-38 334 218
0.0194357 0.73900002 0.028505694 1.7024843e-38 335 218
0.020731414 0.73900002 0.028505694 1.6193304e-38 336 218
0.022027127 0.73900002 0.028505694 1.1583523e-38 337 218
0.023733119 0.75199997 0.029007144 1.4693749e-39 338 218
0.025051624 0.75199997 0.029007144 6.6319715e-39 339 218
0.02637013 0.75199997 0.029007144 1.2890846e-38 340 218
0.027688639 0.75199997 0.029007144 1.4458173e-38 341 218
0.029007144 0.75199997 0.029007144 1.6840837e-38 342 218
0.030325651 0.75199997 0.029007144 1.656461e-38 343 218
0.031644158 0.75199997 0.029007144 1.6473837e-38 344 218
0.032962665 0.75199997 0.029007144 1.6473837e-38 345 218
0.034281172 0.75199997 0.029007144 1.6290888e-38 346 218
0.035694357 0.75400001 0.029084291 1.6106857e-38 347 218
0.037016369 0.75400001 0.029084291 1.5087675e-38 348 218
0.038338386 0.75400001 0.029084291 1.0754841e-38 349 218
0.039660402 0.75400001 0.029084291 3.9640744e-39 350 218
0.041036766 0.755 0.029122867 1.3829007e-38 351 218
-0.063540794 0.755 0.027799098 1.964238e-38 272 219
-0.062134624 0.75400001 0.027762281 1.4387229e-38 273 219
-0.060812615 0.75400001 0.027762281 1.7030999e-38 274 219
-0.059332799 0.75199997 0.027688639 1.4633554e-38 275 219
-0.057859998 0.75 0.027615 1.7940314e-38 276 219
-0.056469604 0.74900001 0.027578179 1.8125064e-38 277 219
-0.055009075 0.74699998 0.027504537 1.8125783e-38 278 219
-0.053699337 0.74699998 0.027504537 1.8125783e-38 279 219
-0.052319467 0.74599999 0.027467718 1.8217623e-38 280 219
-0.050874721 0.74400002 0.027394081 1.8310177e-38 281 219
-0.04957024 0.74400002 0.027394081 1.8402374e-38 282 219
-0.048265759 0.74400002 0.027394081 1.8678601e-38 283 219
-0.046835039 0.74199998 0.027320439 1.8587487e-38 284 219
-0.045534063 0.74199998 0.027320439 1.8863714e-38 285 219
-0.044233091 0.74199998 0.027320439 1.9048109e-38 286 219
-0.042874258 0.741 0.027283618 1.9048109e-38 287 219
-0.041575037 0.741 0.027283618 1.9048462e-38 288 219
-0.040167112 0.73900002 0.027209979 1.9140658e-38 289 219
-0.038818799 0.73799998 0.027173158 1.9325049e-38 290 219
-0.037524838 0.73799998 0.027173158 1.950908e-38 291 219
-0.036132693 0.736 0.02709952 1.9417971e-38 292 219
-0.034842238 0.736 0.02709952 1.9417971e-38 293 219
-0.033551786 0.736 0.02709952 1.9601283e-38 294 219
-0.032261331 0.736 0.02709952 1.9693479e-38 295 219
-0.030970879 0.736 0.02709952 1.9786769e-38 296 219
-0.029680425 0.736 0.02709952 1.8680062e-38 297 219
-0.028389972 0.736 0.02709952 1.4174376e-38 298 219
-0.02702588 0.73400003 0.02702588 7.4440954e-39 299 219
-0.025738932 0.73400003 0.02702588 1.6544767e-39 300 219
-0.024518613 0.736 0.02709952 3.2221625e-39 301 219
-0.023133477 0.73299998 0.026989058 1.0575112e-38 302 219
-0.021848286 0.73299998 0.026989058 1.7028806e-38 303 219
-0.020506985 0.73100001 0.026915418 1.8958412e-38 304 219
-0.019225299 0.73100001 0.026915418 1.8866217e-38 305 219
-0.017943613 0.73100001 0.026915418 1.93254e-38 306 219
-0.016639132 0.73000002 0.026878599 1.9601985e-38 307 219
-0.0153592 0.73000002 0.026878599 1.96038e-38 308 219
-0.014079267 0.73000002 0.026878599 1.9788192e-38 309 219
-0.012799333 0.73000002 0.026878599 1.9972233e-38 310 219
-0.011519399 0.73000002 0.026878599 2.0248819e-38 311 219
-0.010211413 0.72799999 0.026804959 2.0158417e-38 312 219
-0.0089349858 0.72799999 0.026804959 2.0250971e-38 313 219
-0.0076585598 0.72799999 0.026804959 2.025025e-38 314 219
-0.0063996664 0.73000002 0.026878599 2.0158053e-38 315 219
-0.0051197335 0.73000002 0.026878599 2.0065138e-38 316 219
-0.0038397999 0.73000002 0.026878599 1.96038e-38 317 219
-0.0025528532 0.72799999 0.026804959 1.9325049e-38 318 219
-0.0012764266 0.72799999 0.026804959 1.9048462e-38 319 219
0 0.72799999 0.026804959 1.8678951e-38 320 219
0.0012764266 0.72799999 0.026804959 1.8125777e-38 321 219
0.0025528532 0.72799999 0.026804959 1.8308005e-38 322 219
0.0038292799 0.72799999 0.026804959 1.8215808e-38 323 219
0.0051057064 0.72799999 0.026804959 1.821796e-38 324 219
0.0063996664 0.73000002 0.026878599 1.5452092e-38 325 219
0.0076795998 0.73000002 0.026878599 9.6506612e-39 326 219
0.0089595336 0.73000002 0.026878599 5.4182943e-39 327 219
0.010281546 0.73299998 0.026989058 2.0258025e-39 328 219
0.011582521 0.73400003 0.02702588 1.0139377e-38 329 219
0.012869466 0.73400003 0.02702588 1.5923926e-38 330 219
0.014194986 0.736 0.02709952 1.6016121e-38 331 219
0.015485439 0.736 0.02709952 1.7024134e-38 332 219
0.016821479 0.73799998 0.027173158 1.6840103e-38 333 219
0.018115439 0.73799998 0.027173158 1.6840456e-38 334 219
0.0194357 0.73900002 0.027209979 1.6840456e-38 335 219
0.020731414 0.73900002 0.027209979 1.6934089e-38 336 219
0.022027127 0.73900002 0.027209979 1.3799439e-38 337 219
0.023669999 0.75 0.027615 6.5232125e-39 338 219
0.024984999 0.75 0.027615 7.906147e-39 339 219
0.0263 0.75 0.027615 8.1071044e-39 340 219
0.027615 0.75 0.027615 1.2532136e-38 341 219
0.029007144 0.75199997 0.027688639 1.6567144e-38 342 219
0.030325651 0.75199997 0.027688639 1.601397e-38 343 219
0.031644158 0.75199997 0.027688639 1.6106506e-38 344 219
0.032962665 0.75199997 0.027688639 1.6014311e-38 345 219
0.034281172 0.75199997 0.027688639 1.5922112e-38 346 219
0.035694357 0.75400001 0.027762281 1.5829915e-38 347 219
0.037016369 0.75400001 0.027762281 1.5644802e-38 348 219
0.038338386 0.75400001 0.027762281 1.3247716e-38 349 219
0.039712999 0.755 0.027799098 5.3351426e-39 350 219
0.041036766 0.755 0.027799098 1.2526402e-38 351 219
0.042697169 0.76099998 0.028020019 1.6414845e-38 352 219
-0.064864561 0.755 0.026475333 1.9547664e-38 271 220
-0.063540794 0.755 0.026475333 1.8808281e-38 272 220
-0.062134624 0.75400001 0.026440267 1.1524826e-38 273 220
-0.060812615 0.75400001 0.026440267 1.7480806e-38 274 220
-0.059332799 0.75199997 0.02637013 1.7573002e-38 275 220
-0.057859998 0.75 0.0263 1.8125059e-38 276 220
-0.056469604 0.74900001 0.026264934 1.8032863e-38 277 220
-0.055009075 0.74699998 0.026194798 1.8125414e-38 278 220
-0.053699337 0.74699998 0.026194798 1.8125414e-38 279 220
-0.052319467 0.74599999 0.026159734 1.830873e-38 280 220
-0.050874721 0.74400002 0.026089599 1.8400925e-38 281 220
-0.04957024 0.74400002 0.026089599 1.8584591e-38 282 220
-0.048265759 0.74400002 0.026089599 1.8768982e-38 283 220
-0.046835039 0.74199998 0.026019465 1.8769698e-38 284 220
-0.045534063 0.74199998 0.026019465 1.8862254e-38 285 220
-0.044173479 0.741 0.025984399 1.8953743e-38 286 220
-0.042874258 0.741 0.025984399 1.8953743e-38 287 220
-0.041462827 0.73900002 0.025914267 1.904666e-38 288 220
-0.040112756 0.73799998 0.025879199 1.9231053e-38 289 220
-0.038818799 0.73799998 0.025879199 1.9506917e-38 290 220
-0.037423145 0.736 0.025809066 1.9599112e-38 291 220
-0.036132693 0.736 0.025809066 1.9507996e-38 292 220
-0.034842238 0.736 0.025809066 1.9507996e-38 293 220
-0.033551786 0.736 0.025809066 1.9507999e-38 294 220
-0.032261331 0.736 0.025809066 1.9876422e-38 295 220
-0.030970879 0.736 0.025809066 1.9419778e-38 296 220
-0.029680425 0.736 0.025809066 1.6285487e-38 297 220
-0.028389972 0.736 0.025809066 8.1885002e-39 298 220
-0.02702588 0.73400003 0.025738932 4.8690988e-39 299 220
-0.025738932 0.73400003 0.025738932 2.2072819e-39 300 220
-0.024518613 0.736 0.025809066 6.6326707e-39 301 220
-0.023133477 0.73299998 0.025703866 1.4813221e-38 302 220
-0.021788673 0.73100001 0.025633732 1.8593242e-38 303 220
-0.020506985 0.73100001 0.025633732 1.9233204e-38 304 220
-0.019225299 0.73100001 0.025633732 1.8956616e-38 305 220
-0.017919067 0.73000002 0.025598666 1.9506194e-38 306 220
-0.016639132 0.73000002 0.025598666 1.9874976e-38 307 220
-0.0153592 0.73000002 0.025598666 1.9600916e-38 308 220
-0.014079267 0.73000002 0.025598666 2.0153731e-38 309 220
-0.012799333 0.73000002 0.025598666 1.9695998e-38 310 220
-0.011519399 0.73000002 0.025598666 1.9972587e-38 311 220
-0.010211413 0.72799999 0.025528532 2.0064782e-38 312 220
-0.0089349858 0.72799999 0.025528532 2.0064782e-38 313 220
-0.0076585598 0.72799999 0.025528532 2.0065135e-38 314 220
-0.0063996664 0.73000002 0.025598666 1.997294e-38 315 220
-0.0051197335 0.73000002 0.025598666 1.969563e-38 316 220
-0.0038397999 0.73000002 0.025598666 1.9142456e-38 317 220
-0.0025528532 0.72799999 0.025528532 1.9048457e-38 318 220
-0.0012764266 0.72799999 0.025528532 1.8587837e-38 319 220
0 0.72799999 0.025528532 1.8217607e-38 320 220
0.0012764266 0.72799999 0.025528532 1.8125412e-38 321 220
0.0025528532 0.72799999 0.025528532 1.8125762e-38 322 220
0.0038292799 0.72799999 0.025528532 1.8125762e-38 323 220
0.0051057064 0.72799999 0.025528532 1.8310875e-38 324 220
0.0063821329 0.72799999 0.025528532 1.7388919e-38 325 220
0.0076585598 0.72799999 0.025528532 1.3886969e-38 326 220
0.0089595336 0.73000002 0.025598666 6.9794977e-39 327 220
0.010253493 0.73100001 0.025633732 1.6552053e-39 328 220
0.011566739 0.73299998 0.025703866 8.5698776e-39 329 220
0.012851933 0.73299998 0.025703866 1.436056e-38 330 220
0.014194986 0.736 0.025809066 1.5375072e-38 331 220
0.015485439 0.736 0.025809066 1.7023421e-38 332 220
0.016821479 0.73799998 0.025879199 1.7023421e-38 333 220
0.018115439 0.73799998 0.025879199 1.683975e-38 334 220
0.019409399 0.73799998 0.025879199 1.7116335e-38 335 220
0.020731414 0.73900002 0.025914267 1.7118137e-38 336 220
0.02208674 0.741 0.025984399 1.5642647e-38 337 220
0.023385961 0.741 0.025984399 1.2139606e-38 338 220
0.024984999 0.75 0.0263 8.6365303e-39 339 220
0.0263 0.75 0.0263 1.4042412e-41 340 220
0.027615 0.75 0.0263 7.9428666e-39 341 220
0.028929999 0.75 0.0263 1.5925019e-38 342 220
0.030244999 0.75 0.0263 1.5556235e-38 343 220
0.031644158 0.75199997 0.02637013 1.6105427e-38 344 220
0.032962665 0.75199997 0.02637013 1.6105427e-38 345 220
0.034281172 0.75199997 0.02637013 1.5921392e-38 346 220
0.035694357 0.75400001 0.026440267 1.5736642e-38 347 220
0.037016369 0.75400001 0.026440267 1.5278538e-38 348 220
0.038338386 0.75400001 0.026440267 1.4540973e-38 349 220
0.039712999 0.755 0.026475333 1.1869861e-38 350 220
0.041254178 0.759 0.026615599 1.1592916e-38 351 220
0.042697169 0.76099998 0.026685731 1.0887771e-38 352 220
0.044031456 0.76099998 0.026685731 1.807903e-38 353 220
-0.066188328 0.755 0.025151566 1.991609e-38 270 221
-0.064864561 0.755 0.025151566 1.8256928e-38 271 221
-0.063540794 0.755 0.025151566 1.7513204e-38 272 221
-0.062134624 0.75400001 0.025118252 1.1243901e-38 273 221
-0.060812615 0.75400001 0.025118252 1.7571184e-38 274 221
-0.059332799 0.75199997 0.025051624 1.8400585e-38 275 221
-0.057859998 0.75 0.024984999 1.8033585e-38 276 221
-0.056469604 0.74900001 0.024951685 1.7941389e-38 277 221
-0.055009075 0.74699998 0.024885058 1.8216531e-38 278 221
-0.053699337 0.74699998 0.024885058 1.8308727e-38 279 221
-0.052319467 0.74599999 0.024851745 1.8125059e-38 280 221
-0.050874721 0.74400002 0.02478512 1.8217613e-38 281 221
-0.04957024 0.74400002 0.02478512 1.821761e-38 282 221
-0.048136011 0.74199998 0.024718491 1.8401641e-38 283 221
-0.046835039 0.74199998 0.024718491 1.8493842e-38 284 221
-0.045534063 0.74199998 0.024718491 1.858604e-38 285 221
-0.044173479 0.741 0.024685178 1.8585689e-38 286 221
-0.042874258 0.741 0.024685178 1.8677885e-38 287 221
-0.041462827 0.73900002 0.024618553 1.8769725e-38 288 221
-0.040112756 0.73799998 0.024585238 1.904631e-38 289 221
-0.038713597 0.736 0.024518613 1.9047388e-38 290 221
-0.037423145 0.736 0.024518613 1.9231419e-38 291 221
-0.036132693 0.736 0.024518613 1.904739e-38 292 221
-0.034842238 0.736 0.024518613 1.904739e-38 293 221
-0.033551786 0.736 0.024518613 1.8954837e-38 294 221
-0.032173667 0.73400003 0.024451986 1.9231424e-38 295 221
-0.030886721 0.73400003 0.024451986 1.7948614e-38 296 221
-0.029599773 0.73400003 0.024451986 1.3338833e-38 297 221
-0.028312827 0.73400003 0.024451986 4.5961076e-39 298 221
-0.02702588 0.73400003 0.024451986 3.4901202e-39 299 221
-0.025738932 0.73400003 0.024451986 2.3880816e-39 300 221
-0.024451986 0.73400003 0.024451986 1.0132499e-38 301 221
-0.023133477 0.73299998 0.024418673 1.7296743e-38 302 221
-0.021788673 0.73100001 0.024352046 1.9140655e-38 303 221
-0.020478934 0.73000002 0.024318734 1.9046663e-38 304 221
-0.019199001 0.73000002 0.024318734 1.9046663e-38 305 221
-0.017919067 0.73000002 0.024318734 1.9138503e-38 306 221
-0.016639132 0.73000002 0.024318734 1.92307e-38 307 221
-0.0153592 0.73000002 0.024318734 1.9232856e-38 308 221
-0.014040692 0.72799999 0.024252106 1.9325052e-38 309 221
-0.012764266 0.72799999 0.024252106 1.941869e-38 310 221
-0.01148784 0.72799999 0.024252106 1.9603081e-38 311 221
-0.010211413 0.72799999 0.024252106 1.9604883e-38 312 221
-0.0089349858 0.72799999 0.024252106 1.9604883e-38 313 221
-0.0076585598 0.72799999 0.024252106 1.9604527e-38 314 221
-0.0063996664 0.73000002 0.024318734 1.9420134e-38 315 221
-0.0051197335 0.73000002 0.024318734 1.9417971e-38 316 221
-0.0038397999 0.73000002 0.024318734 1.8864797e-38 317 221
-0.0025528532 0.72799999 0.024252106 1.8770797e-38 318 221
-0.0012764266 0.72799999 0.024252106 1.8310177e-38 319 221
0 0.72799999 0.024252106 1.821761e-38 320 221
0.0012764266 0.72799999 0.024252106 1.821761e-38 321 221
0.0025528532 0.72799999 0.024252106 1.803392e-38 322 221
0.0038292799 0.72799999 0.024252106 1.7941722e-38 323 221
0.0051057064 0.72799999 0.024252106 1.821796e-38 324 221
0.0063821329 0.72799999 0.024252106 1.8033569e-38 325 221
0.0076585598 0.72799999 0.024252106 1.5365689e-38 326 221
0.0089349858 0.72799999 0.024252106 6.9794977e-39 327 221
